# .PCD v0.7 - Point Cloud Data file format
VERSION 0.7
FIELDS x y z rgb
SIZE 4 4 4 4
TYPE F F F U
COUNT 1 1 1 1
WIDTH 1171
HEIGHT 1
VIEWPOINT 0 0 0 1 0 0 0
POINTS 1171
DATA ascii
38.994495 797.05597 781.03638 4286410355
40.689907 797.05597 781.03638 4286214259
42.385323 797.05597 781.03638 4286280052
11.86789 798.35211 782.12927 4281214244
13.533945 799.85742 780.78247 4281478447
16.07156 799.85742 780.78247 4283386182
18.609175 799.85742 780.78247 4284569939
38.06422 799.85742 780.78247 4286344562
40.601833 799.85742 780.78247 4286214261
43.13945 799.85742 780.78247 4286214260
45.776146 798.35211 782.12927 4286477688
11.842202 802.44409 782.9635 4284894565
13.533945 801.15076 781.87292 4281412653
38.06422 801.15076 781.87292 4286476655
40.601833 801.15076 781.87292 4286280304
43.13945 801.15076 781.87292 4286345582
45.677063 802.44409 782.9635 4286542699
13.489908 805.33813 781.47955 4283054413
15.176147 804.69354 780.93604 4282266443
38.783485 804.69354 780.93604 4286673252
40.469727 804.69354 780.93604 4286280302
43.280121 805.12329 781.29834 4286280044
45.528439 805.98273 782.02307 4286346096
15.703975 807.90826 781.03058 4283843400
38.699081 807.47955 780.66907 4286608243
40.381653 807.47955 780.66907 4286346611
42.905502 808.12268 781.21136 4286280562
45.429359 808.76587 781.75366 4286346098
13.46055 810.05225 782.83826 4283180840
15.93211 812.28906 780.80017 4282785821
43.603668 812.28906 780.80017 4286542194
45.280735 812.28906 780.80017 4286608243
11.73945 814.85333 782.9624 4283444782
15.913762 814.31543 781.20074 4282194958
19.244038 815.05957 780.52026 4282130721
21.754128 815.05957 780.52026 4285027423
40.998165 815.05957 780.52026 4286608243
43.508255 815.05957 780.52026 4286346611
45.181652 815.05957 780.52026 4286346611
8.3669729 817.61823 782.67761 4283181331
10.040367 817.61823 782.67761 4283246120
13.387156 816.33893 781.599 4283577133
15.897248 816.33893 781.599 4281865743
18.407339 816.33893 781.599 4281338625
46.018349 816.97858 782.13831 4286412409
10.841284 820.47998 781.1665 4283377182
15.844954 819.84247 780.62891 4282654750
19.180733 819.84247 780.62891 4282457134
21.68257 819.84247 780.62891 4282654262
8.3394499 822.3927 782.7793 4282852388
11.0948 823.4458 781.05109 4283508497
14.145872 823.23376 780.87231 4283442727
16.642202 822.5976 780.33594 4283179562
19.138531 822.5976 780.33594 4283114282
21.634863 822.5976 780.33594 4282851879
10.524159 826.54834 781.92303 4284235595
13.284404 826.61664 781.10864 4283640617
16.605505 825.34711 780.03821 4283574053
52.422935 825.14221 782.48145 4285754475
9.930275 831.35876 781.18298 4283836987
7.7003059 835.84027 781.47357 4280554532
6.5908256 839.33508 782.67627 4280360495
57.669724 838.07538 781.61414 4292992742
7.6636086 842.3584 781.30145 4280295207
10.400612 842.3584 781.30145 4280689434
13.685016 842.3584 781.30145 4281082670
16.422018 842.77686 781.6543 4280495172
32.022934 842.77686 781.6543 4293182134
34.48624 842.77686 781.6543 4294830313
43.518349 842.77686 781.6543 4293452259
46.529053 841.93994 780.94855 4293452258
50.087158 841.52142 780.5957 4293057249
52.550457 841.52142 780.5957 4292925659
55.013763 841.52142 780.5957 4293189090
58.298164 841.52142 780.5957 4293057762
61.582569 841.52142 780.5957 4292860639
18.864222 844.13202 781.48877 4281217863
22.144955 844.13202 781.48877 4281214513
25.425688 844.13196 781.48883 4283184169
28.706421 844.13196 781.48883 4284167718
32.022934 844.03235 782.71289 4291868868
34.48624 844.03235 782.71289 4294174460
36.908257 844.13202 781.48877 4293912807
40.188992 844.13202 781.48877 4293320421
34.241287 749.35132 783.97815 4285359212
4.380734 752.24677 783.80334 4278263642
7.8926606 751.47028 784.45673 4280757050
37.753212 750.69379 785.11011 4285228136
40.302753 752.24677 783.80334 4285228136
3.5045872 753.58643 784.93286 4278190115
8.7614679 753.58643 784.93286 4278586651
40.302753 753.58643 784.93286 4285162091
3.493578 758.58246 785.22144 4281473347
8.7339449 757.24707 784.09534 4278584086
5.2293577 760.79333 784.46948 4281076021
6.972477 760.12701 783.90771 4280881195
20.917431 760.12701 783.90771 4278190115
6.9504585 763.77222 783.05713 4281532445
20.851376 763.77222 783.05713 4278190091
5.2128439 765.76489 784.7373 4280755521
6.9504585 765.10065 784.17725 4279828507
5.1963301 770.0575 784.43262 4283190625
6.9284406 768.73328 783.31604 4282663779
5.1853213 772.91223 784.22351 4280756554
6.9137616 771.59082 783.10938 4283058789
46.667889 772.91223 784.22351 4286016883
48.499084 771.38165 785.54919 4286016633
5.1853213 774.23358 785.33765 4279705127
44.796329 776.52515 783.34583 4286344049
46.519264 776.52515 783.34583 4286409842
48.396332 774.23358 785.33765 4286213759
5.1688075 778.50098 785.01172 4279769374
6.8770642 779.36725 783.1261 4278192660
44.700916 779.36725 783.1261 4286344049
46.519264 777.84235 784.45642 4286409842
48.242203 779.15955 785.56702 4286017133
6.8770642 780.68164 784.23438 4280950306
46.420185 780.68164 784.23438 4286017133
48.13945 781.99603 785.34265 4286017133
5.1412845 784.93005 783.8924 4284438631
6.8550458 784.27496 783.34009 4285487709
44.557796 784.93005 783.8924 4285951342
46.271561 784.27496 783.34009 4286017133
5.1302752 788.40894 784.20972 4283653216
7.6954126 787.75525 783.65857 4283715657
10.830582 787.53735 783.47485 4283387713
16.245872 787.10156 783.10742 4281477189
43.322327 787.97314 783.84229 4286083187
46.271561 786.89532 785.54944 4286017398
5.1302752 789.71637 785.31213 4284178022
7.6816511 790.84949 784.30548 4282730826
11.079817 791.98267 783.29883 4282796120
43.466972 791.98267 783.29883 4286412669
46.172478 789.71637 785.31213 4285886328
5.1137614 793.93738 784.94708 4284175705
7.3865438 793.72021 784.76398 4283256913
11.055964 794.79388 783.05322 4282399815
44.223854 794.79388 783.05322 4286345850
46.876144 793.28583 784.39771 4286279288
49.433029 794.58899 785.49646 4286410357
8.5045872 796.74438 784.69788 4285094237
10.205504 796.09424 784.14966 4284438100
47.625687 796.74438 784.69788 4286476149
49.326607 797.39459 785.24609 4286476404
10.737615 800.08038 783.58643 4284961640
46.623856 800.29639 783.76862 4286477169
8.4770641 802.2406 785.40796 4283576631
11.007339 802.98901 784.73096 4283378237
47.471561 802.2406 785.40796 4286346359
10.99633 805.03082 785.14453 4283180338
47.368809 805.03082 785.14453 4286411639
8.4311924 809.85016 785.28394 4284037171
11.24159 809.42041 784.92163 4283444271
13.489908 807.27185 783.10999 4283447601
47.21468 809.20557 784.74048 4286345844
8.4128437 812.62494 785.00745 4283444248
10.095413 812.62494 785.00745 4283378733
13.46055 811.33856 783.92285 4283379487
4.4685016 817.48358 784.30811 4282920242
7.256269 817.97687 783.85205 4282917647
5.0201836 821.45618 785.9137 4284690999
6.6935778 820.81653 785.37433 4283972410
8.3394499 823.66779 783.85437 4284500550
8.3211012 827.05066 784.09058 4283837981
6.6568809 828.95911 785.69983 4281075228
6.6201835 833.8894 783.31677 4280030237
4.9651375 835.15466 784.38354 4280816447
4.1284404 837.8775 784.06335 4281737271
4.119266 840.59473 783.7384 4281872677
7.4146786 841.85443 784.80054 4282926926
10.710092 841.85443 784.80054 4283845964
14.005505 841.85443 784.80054 4282992715
16.477064 841.85443 784.80054 4282272076
43.664223 841.85443 784.80054 4293386210
47.783485 840.59473 783.7384 4293254883
49.431194 841.22461 784.26947 4292859871
51.628132 841.01465 784.09247 4292991454
55.198166 841.22461 784.26941 4293057503
58.768192 841.01465 784.09247 4292859871
61.514374 841.01465 784.09247 4292859871
64.260551 840.59473 783.7384 4293057249
8.2385321 843.11414 785.86267 4283716442
10.710092 843.11414 785.86267 4284702542
14.005505 843.11414 785.86267 4283124289
16.477064 843.11414 785.86267 4283322438
18.948624 843.11414 785.86267 4282466109
22.244038 843.11414 785.86267 4282134839
25.53945 843.11414 785.86267 4282263092
28.834862 843.11414 785.86267 4283447883
32.130276 843.11414 785.86267 4290687695
34.601833 843.11414 785.86267 4294175231
37.073395 843.11414 785.86267 4293649382
1.7614679 749.71106 788.20544 4278190124
5.26789 752.03625 786.24194 4278190129
7.0238533 752.03625 786.24194 4278717980
1.7559633 754.72113 788.50586 4282853454
4.380734 754.92603 786.0625 4280685110
7.0091743 754.92603 786.0625 4279702567
1.7522936 757.60535 788.32153 4282128448
1.746789 761.25336 787.47339 4281474381
3.493578 759.91791 786.34741 4281532980
-4.3669724 762.58875 788.59937 4284701037
-1.746789 762.58875 788.59937 4283978090
0.87339449 762.58875 788.59937 4283781468
3.4862385 763.45862 786.71674 4282005331
-1.7431192 765.45752 788.40222 4283912047
1.7431192 765.45752 788.40222 4283913051
3.4752293 767.75751 786.41736 4283651176
1.7376146 770.41437 788.65759 4279244326
3.4752293 769.08594 787.53748 4280493126
50.390827 770.41437 788.65759 4285950588
52.128441 770.41437 788.65759 4286016092
55.603668 769.75012 788.09753 4286082427
3.4642203 772.70587 786.66565 4279310625
3.4568808 776.2157 787.00897 4279506202
49.584095 775.48712 787.26678 4286016881
52.801834 775.07275 788.00732 4286213218
55.427525 774.6922 788.34052 4286343796
55.310093 778.19781 788.68018 4286344562
3.4458716 781.13538 787.23303 4284570217
49.390823 781.35492 787.41815 4286082408
52.549541 781.13538 787.23303 4286213466
56.85688 781.79395 787.78833 4286344564
3.4385321 784.62482 787.5592 4282929236
46.420185 783.31042 786.45093 4286017137
49.285629 785.06299 787.92865 4286213488
52.493576 784.52515 788.7832 4286344558
56.242203 784.05377 788.82178 4286344574
3.4275229 788.20551 786.65417 4283125334
47.985321 788.20551 786.65417 4286082680
1.7137614 790.82587 788.86365 4286083695
3.4201834 791.02374 786.41443 4284242525
49.592659 791.02374 786.41443 4286410105
52.212845 790.26971 787.08667 4286280055
55.697247 789.51569 787.75891 4286411139
58.267891 790.82587 788.86365 4286344814
3.4201834 792.9848 788.06793 4284173398
52.157799 792.33112 787.51672 4286410357
55.57798 792.9848 788.06793 4286279288
58.998165 793.63849 788.61914 4286542450
5.1137614 796.5437 787.14465 4283711054
6.8183484 795.89215 786.59521 4284829265
51.98991 796.5437 787.14465 4286345334
54.546787 797.19531 787.69409 4286541944
5.1137614 798.49847 788.79285 4283578178
7.3706422 799.12842 786.70801 4284367932
49.326607 799.34521 786.89075 4286214771
51.989906 798.49847 788.79285 4286148469
55.399082 798.49847 788.79285 4286608243
5.1027522 801.29572 788.5354 4283840819
7.640367 802.41626 787.51813 4283575349
49.326607 801.29572 788.5354 4286411639
4.2385321 805.48096 788.1402 4283115559
7.6201835 805.57849 786.91437 4283969589
10.150458 806.32416 786.23499 4283772979
49.166973 804.83289 787.59375 4286345846
4.2293577 808.26416 787.87079 4282983213
6.7669725 807.61749 787.32556 4283444778
5.0587158 811.13928 786.37097 4282719787
6.7449541 811.13928 786.37097 4282983697
1.6862385 813.71759 788.54492 4283776559
3.3651376 813.91125 786.09204 4282918456
4.1926603 818.69971 786.20557 4283643660
1.6770642 821.26398 788.36768 4281407539
3.3541284 819.98187 787.28662 4283112224
4.183486 823.37518 787.53174 4282457378
6.6935778 822.73553 786.99243 4284301874
5.0036697 827.49316 787.07983 4280487173
6.6715598 826.21802 786.00464 4282321152
1.66789 828.76825 788.15491 4279439641
4.1605506 830.23145 786.77258 4279964444
0.83211011 832.13989 788.38171 4280289551
3.321101 832.96411 786.46069 4280750653
1.6605505 834.23364 787.53113 4282327819
1.6550459 838.31793 787.05078 4284634147
1.6550459 840.21588 788.651 4284504144
4.1284404 841.66498 787.25684 4283912783
7.1559634 842.50665 787.96649 4284176480
10.733945 842.92749 788.32129 4283255887
14.036697 842.92749 788.32129 4282333202
16.513762 842.92749 788.32129 4284242523
18.990826 842.92749 788.32129 4281806638
22.293579 842.92749 788.32129 4282659891
24.770641 842.92749 788.32129 4282462512
28.899082 842.92749 788.32129 4282595649
31.376146 842.92749 788.32129 4289373873
33.85321 842.92749 788.32129 4291678442
36.330276 842.92749 788.32129 4293979116
40.458717 841.66498 787.25684 4293255144
43.761467 841.66498 787.25684 4293254881
47.064217 841.03369 786.72461 4293320937
49.541283 841.66498 787.25684 4292991456
52.293579 841.24414 786.90204 4293057503
55.321106 842.29626 787.78906 4292991456
58.458717 841.91748 787.46973 4293057249
61.926605 841.66498 787.25684 4292991457
64.475235 840.3092 787.42169 4293123045
66.715591 841.91748 787.46973 4293057501
69.357796 842.92749 788.32129 4293057249
26.363302 844.37378 786.9248 4283054912
-1.7614679 752.40436 790.47644 4284037430
0.88073397 751.73102 789.90869 4282786629
-1.7614679 753.75098 791.61194 4282920251
0 753.75098 791.61194 4282457412
-3.5045872 758.94495 789.45117 4283120205
-1.7522936 758.94495 789.45117 4283120205
0 758.94495 789.45117 4281934932
-4.3669724 763.92419 789.72546 4284306279
0 763.92419 789.72546 4283584086
-6.9871559 765.92737 791.41443 4280952107
-4.6556573 766.21503 790.78491 4280754993
-1.7431192 766.79016 789.52588 4280296253
0.87155962 766.79016 789.52588 4280231214
50.550457 766.79016 789.52588 4285950840
52.293579 766.79016 789.52588 4286212713
54.036697 766.79016 789.52588 4286344299
-6.972477 769.45544 791.77319 4280757027
-3.4862385 768.78912 791.21136 4280032286
-1.7431192 768.78912 791.21136 4280032286
0 768.78912 791.21136 4279638055
54.036697 768.1228 790.64954 4286344801
-1.7376146 773.07117 790.89783 4280226052
1.7376146 772.40698 790.33777 4279766557
1.7321101 776.67853 790.01526 4284632933
1.7321101 778.00275 791.13184 4284241267
55.310093 779.51923 789.79443 4286344564
1.7284404 780.84064 790.90857 4282663498
0.8614679 785.08691 790.56488 4283059005
55.133945 784.42834 790.00952 4286410887
-1.7192661 788.56799 790.88403 4284504407
0.85963303 787.91077 790.3299 4284966241
58.455048 787.2536 789.77576 4286476404
-5.1577983 789.88245 791.99219 4283780434
-1.7192661 789.88245 791.99219 4283711298
0 789.88245 791.99219 4283973704
-4.2844038 793.44629 791.073 4283513919
-1.7137614 793.44629 791.073 4283644221
1.1412843 793.50946 790.25421 4283842112
3.4201834 794.94586 789.72144 4283710800
56.433029 794.94586 789.72144 4286541944
58.998165 794.94586 789.72144 4286542198
-3.4201834 797.56061 791.92615 4283443996
-1.7100917 796.25323 790.82385 4283839276
1.1400611 797.12482 791.55878 4283643946
3.4201834 796.25323 790.82385 4283643971
58.998169 796.90692 791.375 4286411630
61.563301 796.90692 791.375 4286543744
-1.7045871 799.80164 789.89172 4283904547
3.4091742 799.80164 789.89172 4283709233
51.989906 799.80164 789.89172 4286542198
55.399082 799.80164 789.89172 4286542194
-3.4091742 801.10486 790.99048 4284300579
-1.7009175 803.24622 790.18005 4282130949
0.85137618 802.50067 790.85938 4283048974
3.401835 802.59607 789.63184 4283116067
49.326607 803.89642 790.72827 4286280304
51.877983 803.24628 790.18005 4286542189
55.036697 802.53241 790.4502 4286673011
-3.401835 805.19684 791.82471 4284175685
49.326607 805.19684 791.82471 4286149750
-1.6954129 807.42523 789.77942 4283122997
0.56513762 807.85724 790.14374 4283445270
50.297245 808.28931 790.508 4286412149
52.557796 807.42523 789.77942 4286412658
0.84587157 810.85089 790.05188 4283447073
1.6770642 822.54614 789.44873 4279635480
-3.3467889 827.85284 791.30713 4280161824
-1.6733944 827.85284 791.30713 4280030237
0 826.57349 790.22852 4279900192
3.3467889 825.29419 789.14978 4280487173
0 830.04333 789.2301 4280159003
-3.8917434 832.16864 791.02197 4279963654
-1.66789 831.31848 790.3053 4278912004
-4.1605506 835.32068 791.06372 4281409798
-1.6623853 835.41052 789.83142 4281015565
0 835.41052 789.83142 4282528781
-4.1513762 838.67688 791.27753 4283843123
-1.6605505 838.04218 790.74231 4284830782
0 838.67688 791.27753 4284042812
-14.343731 842.32471 790.4292 4279502608
-3.3100917 842.11377 790.25134 4285224520
-1.6550459 842.11377 790.25134 4284764226
1.6550459 841.48114 789.7179 4283910446
4.1376147 842.74646 790.78479 4285358410
7.4477062 842.74646 790.78479 4284503662
9.930275 842.74646 790.78479 4283715686
14.06789 842.74646 790.78479 4282138412
16.550459 842.74646 790.78479 4283716692
31.445871 842.74646 790.78479 4286612881
33.92844 842.74646 790.78479 4291478751
37.238533 842.11377 790.25134 4293649896
40.548622 841.48114 789.7179 4293123808
43.858715 841.48114 789.7179 4293189349
47.168808 841.48114 789.7179 4293255144
49.651375 841.48114 789.7179 4292991456
52.133945 842.11383 790.25134 4293254630
55.444038 842.74646 790.78479 4292991719
58.754128 842.74646 790.78479 4292991716
62.340061 842.32471 790.4292 4292925663
64.546791 842.11377 790.25134 4292859870
-16.550459 844.01178 791.85168 4281015808
-14.06789 844.01178 791.85168 4281143040
-11.585321 844.01178 791.85168 4283835913
4.9651375 844.01178 791.85168 4287134839
7.4477062 844.01178 791.85168 4286409844
11.025077 844.07111 791.02979 4282990420
14.06789 844.01178 791.85168 4282660894
16.550459 844.01178 791.85168 4282137687
19.011927 844.10083 790.61877 4279571484
22.318348 844.10083 790.61877 4282399541
25.624769 844.10083 790.61877 4283386187
28.931192 844.10083 790.61877 4282137672
31.445871 844.01178 791.85168 4283981163
59.58165 844.01178 791.85168 4292991456
62.06422 844.01178 791.85168 4293057247
64.546791 844.01178 791.85168 4292925659
66.955048 844.10083 790.61877 4292794074
70.261459 844.10083 790.61877 4292728793
-5.2403669 767.93054 793.10339 4279835925
-6.972477 770.78809 792.89673 4282464768
-4.3577981 770.78809 792.89673 4279897856
0 770.78809 792.89673 4280290845
-5.2293577 772.12073 794.02039 4278781696
-7.8192658 774.3996 792.01782 4282926153
-3.4752293 774.3996 792.01782 4279762944
-1.7376146 775.06384 792.57788 4284630046
0 775.06384 792.57788 4284568686
-3.4752293 777.05646 794.25806 4286341984
-1.7376146 777.05646 794.25806 4286671206
0 779.32697 792.24841 4285163888
-1.7321101 780.65118 793.36499 4285292685
0 780.65118 793.36499 4284177733
-4.3211012 784.14417 793.69403 4285360757
-1.7284404 783.48346 793.13696 4284111475
-7.753211 788.37994 793.34143 4284635745
-3.4458716 787.72131 792.78613 4284502610
-10.315597 791.19678 793.10046 4279571483
-7.7366972 791.19678 793.10046 4284898658
-10.315597 792.51123 794.20874 4279636233
-7.7366972 792.51123 794.20874 4285490796
-4.2844038 794.75647 792.17773 4283052600
0 794.75647 792.17773 4283840819
-7.4263 796.94012 794.01898 4283713621
-5.1412845 796.06665 793.28247 4283118909
-5.1302752 798.86798 793.02856 4283910249
58.998165 799.52167 793.57971 4286280308
61.563301 799.52173 793.57971 4286477179
-6.8183484 803.05957 792.63867 4282591558
-4.5455661 802.84247 792.45557 4284960600
55.399082 803.05957 792.63867 4286607986
-3.401835 806.49719 792.92114 4284828186
-1.7009175 806.49719 792.92114 4285486373
52.842201 805.01434 794.28687 4286478197
54.546787 805.01434 794.28687 4286674034
61.365139 805.01434 794.28687 4286412156
-8.3853207 827.67462 793.77295 4280097575
-10.062386 828.95679 794.854 4280491299
-7.2574921 829.50018 793.56818 4280096269
-5.0201836 829.13214 792.38586 4280294155
-10.040367 831.6908 794.54321 4280817448
-7.5055046 833.86871 792.45557 4280225041
-10.841284 835.14386 793.53064 4280357925
-7.4981651 835.86841 792.83356 4279633440
-4.9926605 836.59302 792.13647 4282001207
-13.313762 837.8653 793.20923 4280355089
-10.540061 838.28937 793.56683 4280355854
-7.4889913 838.50146 793.74561 4282922295
-16.605505 840.58118 792.88318 4281213984
-11.623854 840.58118 792.88318 4281471551
-4.4281344 841.42749 793.59686 4286409323
-1.6605505 841.85065 793.95361 4288119415
0.83027524 841.21594 793.4184 4286082393
3.321101 841.85065 793.95361 4287463547
34.041283 841.85065 793.95361 4290687701
37.362385 841.21594 793.4184 4293649645
40.683487 840.58118 792.88318 4293321443
44.004585 840.58118 792.88318 4293189349
46.495415 840.58118 792.88318 4293386214
48.986237 840.58118 792.88318 4293188836
52.307343 841.85065 793.95361 4293057253
55.628441 841.85065 793.95361 4293188583
58.119267 841.85065 793.95361 4293188836
-16.550459 845.27704 792.91846 4283972126
-14.06789 845.27704 792.91846 4284433205
-11.585321 845.27704 792.91846 4287920505
14.895412 845.27704 792.91846 4284043665
16.550459 845.27704 792.91846 4283255135
19.033028 845.27704 792.91846 4280295453
22.343121 845.27704 792.91846 4280362019
67.029358 845.27704 792.91846 4292794328
69.511925 845.27704 792.91846 4292728535
-14.06789 846.54236 793.98535 4291409320
69.511925 846.54236 793.98535 4292729052
-7.852293 773.36279 796.37573 4281675558
-4.3577981 773.45331 795.14404 4281276672
-7.8440366 776.11859 797.39136 4281214464
-5.2293577 775.45227 796.82953 4284898613
-6.9504585 779.71332 796.49817 4284304425
-4.3440366 779.04907 795.93817 4286081647
-7.8192658 781.04175 797.61829 4283452507
-10.315597 793.82556 795.31702 4280031239
-8.5963306 793.82556 795.31702 4284636749
-10.315597 795.14001 796.42529 4279769112
56.433029 802.13647 795.78436 4286607986
58.998169 802.13647 795.7843 4286607737
61.563301 801.48279 795.23315 4286738555
52.842201 806.3175 795.38562 4286543740
55.57798 804.09753 797.43787 4286412404
58.904587 805.20752 796.41174 4286344819
52.842201 807.62073 796.4845 4286543744
55.683182 808.05511 796.85077 4285688681
58.524158 808.05511 796.85077 4285882969
-9.985321 841.68225 796.42761 4289367947
-7.3225694 841.68225 796.42761 4289172107
-4.1605506 842.95453 797.50037 4291542720
-1.6642202 842.95453 797.50037 4291345085
0.83211011 841.68225 796.42761 4289108109
4.1605506 842.95453 797.50037 4291280323
7.4889908 842.95453 797.50037 4291478217
9.985321 842.95453 797.50037 4291477965
25.795414 842.95453 797.50037 4280428334
29.955963 841.68225 796.42761 4282791754
31.620184 841.68225 796.42761 4284173407
34.116516 841.68225 796.42761 4289374671
37.722324 841.25812 796.07001 4293715700
40.79541 840.68658 796.24213 4293452523
43.824463 840.83398 795.7124 4293057252
46.110703 840.29956 797.00586 4292991716
49.094498 841.04602 795.89124 4293057510
52.422935 841.68225 796.42761 4292860133
56.028744 842.10638 796.78516 4293189606
59.079819 842.95453 797.50037 4293057763
61.576145 842.95453 797.50037 4292860640
64.072479 842.95453 797.50037 4293057245
66.56881 842.95453 797.50037 4293123294
-14.114679 845.65918 797.16479 4292134831
-10.793578 843.75488 795.55914 4289895848
-8.3027525 843.12018 795.02393 4288908204
-4.1513762 843.12018 795.02393 4288976005
-1.6605505 843.12018 795.02393 4289304972
4.1513762 843.12018 795.02393 4289173661
7.472477 843.12018 795.02393 4288384918
11.070336 843.54327 795.38068 4288517543
13.837921 843.96649 795.73755 4288780214
16.605505 844.38965 796.09436 4290424257
19.373087 844.81281 796.45117 4289569710
22.417431 844.38965 796.09436 4284705652
25.738533 843.12018 795.02393 4283190109
28.229359 843.12018 795.02393 4282531398
58.949539 843.12018 795.02393 4293057505
61.440369 843.12018 795.02393 4292925663
63.93119 843.12018 795.02393 4293057502
68.082565 844.38965 796.09436 4292925659
70.850151 844.38965 796.09442 4292860126
-10.458715 778.11755 799.07684 4279504933
-8.7155962 777.45123 798.51501 4280819497
56.251377 810.22705 798.68213 4286406221
57.955963 810.22705 798.68213 4287855466
0.83394498 842.15698 799.44397 4291542199
4.1697249 842.79456 799.98157 4291149250
7.5055046 842.79456 799.98157 4291412420
10.841284 842.79456 799.98157 4291347135
13.34312 842.79456 799.98157 4291346365
16.6789 842.79456 799.98157 4291279557
25.852295 842.79456 799.98157 4282200933
28.354128 841.51941 798.90637 4281213478
30.855965 841.51941 798.90637 4284103448
34.191742 841.51941 798.90637 4287796921
37.527523 841.51941 798.90637 4293585144
40.863304 841.51941 798.90637 4293255659
43.365139 841.51941 798.90637 4293386984
45.866974 841.51941 798.90637 4293189862
49.202751 841.51941 798.90637 4292926434
52.538532 841.51941 798.90637 4292794847
55.596333 842.36945 799.62323 4293189348
58.376148 842.79456 799.98157 4293255142
61.711926 842.79456 799.98157 4292991456
-14.977982 845.49915 799.64587 4291478204
-10.81743 844.22687 798.57312 4291806913
-7.4889908 844.22687 798.57312 4291872706
-4.1605506 844.22687 798.57312 4291805637
-1.6642202 844.22687 798.57312 4292264903
14.977982 844.22687 798.57312 4291017401
18.306421 844.22687 798.57312 4290950592
22.466972 844.22687 798.57312 4286477736
59.911926 844.22687 798.57312 4292991456
64.072479 844.22687 798.57312 4292991708
67.400917 844.22687 798.57312 4292925915
71.56147 844.22687 798.57312 4292728546
0 841.92542 803.17285 4292528854
11.713761 841.92542 803.17285 4290755257
13.387156 841.92542 803.17285 4291017153
22.590824 841.92542 803.17285 4291411911
25.937614 841.92542 803.17285 4290030009
28.447706 841.28577 802.63348 4284437600
30.957798 840.64606 802.09412 4282595131
34.304588 840.64606 802.09412 4287203998
37.651375 840.64606 802.09412 4293519331
40.998165 840.64606 802.09412 4293649638
43.508255 841.28577 802.63348 4293255396
46.018349 840.64606 802.09412 4293255395
49.365135 840.64606 802.09412 4293189347
52.990826 841.07251 802.45367 4293255397
56.058716 841.92542 803.17285 4293189094
58.568806 841.92542 803.17285 4293122790
60.242203 841.92542 803.17285 4292925663
-15.011009 845.34473 802.13184 4291477700
-13.34312 844.70715 801.59424 4291347134
-10.563302 844.49463 801.41504 4291479231
-7.5055051 844.70715 801.59424 4291347649
-4.1697249 844.06964 801.05664 4291740106
-1.66789 844.70715 801.59424 4292856792
1.66789 844.06964 801.05664 4291081408
4.1697249 844.06964 801.05664 4290755260
7.5055046 844.06964 801.05664 4290952639
10.007339 844.06964 801.05664 4291084479
15.844954 844.06964 801.05664 4291017155
19.180733 844.06964 801.05664 4291082691
61.711926 844.06964 801.05664 4292991456
64.21376 844.06964 801.05664 4293057249
67.549545 844.06964 801.05664 4292991456
70.885323 844.06964 801.05664 4292794341
22.640366 841.77808 805.66455 4291412408
26.833027 841.77808 805.66455 4290885060
28.510092 841.77808 805.66455 4289108650
31.025688 841.13696 805.12402 4282796902
34.379814 841.13696 805.12402 4285494636
37.733944 841.13702 805.12402 4292597738
41.367584 840.92334 804.94385 4293320934
43.603668 841.77808 805.66455 4293386212
46.119267 841.13702 805.12402 4293321186
49.473396 841.13702 805.12402 4293124066
52.548016 841.35065 805.3042 4293123813
57.858715 841.77808 805.66455 4292991717
-15.060551 844.48401 805.3302 4291609542
-13.387156 844.48401 805.3302 4291544260
-11.171865 843.1084 805.91425 4291544258
-7.5302753 844.48401 805.3302 4291545291
-4.1862383 843.4884 805.14465 4291674565
-1.6733944 844.48401 805.3302 4293579982
0.83761466 843.13245 805.49854 4292395988
4.1862383 843.4884 805.14465 4291148989
7.5302753 843.84436 804.79083 4290952640
10.883486 843.4884 805.14465 4291018168
13.401834 843.13245 805.49854 4291017410
15.91468 843.13245 805.49854 4291148738
19.265139 843.13245 805.49854 4291346367
25.128441 843.13245 805.49854 4291083956
55.28257 843.13245 805.49854 4293057509
61.145874 843.13245 805.49854 4292925922
64.752289 843.15656 805.08282 4292795111
67.772476 843.20471 804.25146 4292991456
70.891747 843.15656 805.08282 4292925160
73.629356 843.20471 804.25146 4292991456
40.381653 839.638 807.78418 4293846765
-10.936697 842.21069 809.95349 4291543748
-5.0477066 842.21069 809.95349 4290426308
0 842.21069 809.95349 4292529622
11.777982 842.21069 809.95349 4291608758
13.46055 842.21069 809.95349 4291149000
15.984404 842.21069 809.95349 4291017925
19.349541 842.21069 809.95349 4291281344
22.71468 841.5675 809.41113 4291150008
26.079817 841.5675 809.41113 4290952379
28.60367 840.92438 808.86877 4291411908
31.127522 840.92438 808.86877 4290491068
34.492661 840.92438 808.86877 4286616953
37.016514 840.92438 808.86877 4289441215
42.905502 840.92438 808.86877 4293188834
45.429359 840.92438 808.86877 4293189088
49.63578 840.92438 808.86877 4293189092
53.000916 840.92438 808.86877 4293123303
55.524769 842.21069 809.95349 4293123306
58.329052 841.35321 809.23029 4293123050
61.413761 842.21069 809.95349 4292991458
64.7789 841.5675 809.41113 4292860642
67.863609 841.35321 809.23029 4292925653
70.667892 842.21069 809.95349 4292794078
73.191742 840.92438 808.86877 4292925410
-19.28624 844.9834 808.36719 4291339957
-15.652599 844.76971 808.18701 4292067781
-13.416513 844.34229 807.82666 4291609540
-7.5467887 844.34229 807.82666 4291675855
-3.3541284 844.34229 807.82666 4290821014
-1.6770642 844.34229 807.82666 4292202411
1.6770642 844.34229 807.82666 4292529622
4.1926603 844.34229 807.82666 4291739075
7.5467887 844.34229 807.82666 4291476936
10.062386 844.34229 807.82666 4291608758
38.783485 839.50043 810.2843 4293651967
40.469727 839.50043 810.2843 4294109940
47.21468 839.50043 810.2843 4292794330
0 842.07874 812.45825 4288585376
16.862385 842.07874 812.45825 4289702058
19.391743 842.07874 812.45825 4288319623
22.764221 842.07874 812.45825 4289043082
26.417734 841.64899 812.09595 4291215028
28.666056 841.4342 811.91479 4291478200
31.195414 841.4342 811.91479 4291082679
34.28685 841.2193 811.73364 4288779170
37.940369 840.78961 811.37134 4291872473
40.469727 840.78961 811.37134 4294044408
49.744034 840.78961 811.37134 4293320682
53.116516 840.78961 811.37134 4293123307
55.64587 842.07874 812.45825 4293123042
57.894192 841.64899 812.09595 4293254124
61.547707 842.07874 812.45825 4292991456
64.639137 841.64899 812.09595 4292991456
67.449539 842.07874 812.45825 4292794330
69.697861 841.64911 812.09595 4293057499
73.351379 840.78961 811.37134 4292728284
-21.873394 843.49701 811.03809 4289107616
-19.629969 844.35455 811.76117 4288970652
-16.264832 844.35455 811.76117 4290949311
-13.46055 844.1402 811.58038 4291675600
-10.936697 843.49701 811.03809 4291806153
-7.5715594 844.1402 811.58038 4288844941
-4.2064219 843.49701 811.03809 4285823804
-1.6825688 843.49701 811.03809 4286094354
1.6825688 843.49701 811.03809 4291743440
4.2064219 843.49701 811.03809 4290093234
7.5715594 843.49701 811.03809 4289752897
10.936697 843.49701 811.03809 4292064960
13.46055 843.49701 811.03809 4291018436
15.143119 843.49701 811.03809 4289504941
35.526604 839.95129 814.58862 4289435515
38.06422 839.95129 814.58862 4291870161
40.601833 839.95129 814.58862 4293190130
42.857494 839.08905 813.86157 4293452782
46.522934 838.65796 813.49805 4293386212
49.906422 839.95129 814.58862 4293385959
52.444038 839.95129 814.58862 4293188838
54.13578 839.95129 814.58862 4293057249
73.590828 839.95129 814.58862 4292728288
27.913761 841.24463 815.67908 4291675848
31.297249 841.24463 815.67908 4289437882
34.680733 841.24463 815.67908 4289108595
37.218349 841.24463 815.67908 4289963447
55.827522 841.24463 815.67908 4293057249
58.365135 841.24463 815.67908 4293056997
61.748623 841.24463 815.67908 4292991456
65.132111 841.24463 815.67908 4292991456
67.669724 841.24463 815.67908 4293056999
70.207336 841.24463 815.67908 4293123043
72.744957 841.24463 815.67908 4293452259
-21.921101 845.30164 815.17572 4288383894
-19.391743 845.94617 815.71924 4289305487
-16.300306 845.51642 815.35693 4289767598
-13.489908 845.30164 815.17572 4291280841
-10.791926 844.39923 814.41486 4291610060
-7.8691125 845.08673 814.99457 4287071593
-4.2155962 844.01245 814.08875 4288057924
-1.6862385 844.01245 814.08875 4289504321
0.84311926 843.36786 813.54529 4290688201
4.2155962 844.01245 814.08875 4288580773
7.5880728 844.01245 814.08875 4287461407
10.960551 844.65698 814.63232 4291081667
13.489909 844.65704 814.63226 4291148997
15.850641 844.39923 814.41486 4290096048
19.391743 843.36786 813.54529 4287727494
22.764221 843.36786 813.54529 4286608777
25.293577 843.36786 813.54529 4291412201
-19.349541 846.0697 813.20728 4288118122
-15.143119 846.0697 813.20728 4291083448
38.994495 839.82916 817.10168 4292266202
40.689907 839.82916 817.10168 4292727783
43.233028 839.18109 816.55524 4293583598
46.906422 838.96509 816.37305 4293255140
50.014679 839.82916 817.10168 4293254883
52.557796 839.82916 817.10168 4293057247
54.253212 839.82916 817.10168 4292925663
74.598167 839.82916 817.10168 4292925157
0.84587157 842.53802 816.76965 4291937221
19.455046 842.53802 816.76965 4288316017
22.838531 842.53802 816.76965 4287197001
25.376146 842.53802 816.76965 4292067735
27.913761 842.53802 816.76965 4291281354
31.297249 842.53802 816.76965 4287993768
34.755962 841.12531 818.19458 4289043570
38.14679 841.12531 818.19458 4290291894
54.253212 841.12531 818.19458 4292925661
58.491745 841.12531 818.19458 4293122795
61.882568 841.12531 818.19458 4292926433
64.42569 841.12531 818.19458 4292926431
66.895416 841.83167 817.48212 4292860126
70.207336 842.53802 816.76965 4292859870
73.750458 841.12531 818.19458 4292794080
-21.992661 845.12469 818.95068 4291805899
-19.455046 845.12469 818.95068 4291544251
-16.07156 845.12469 818.95068 4291215549
-13.533945 845.12469 818.95068 4291478213
-10.99633 844.47803 818.4054 4291938766
-7.612844 844.47803 818.4054 4289505163
-4.2293577 843.83136 817.86011 4290096520
4.2293577 843.83136 817.86011 4287989598
7.8948007 844.26245 818.22363 4288449818
10.99633 845.12469 818.95068 4291541185
13.533945 845.12469 818.95068 4291281100
16.353518 844.6936 818.58716 4291017919
19.455046 843.83136 817.86011 4288449933
22.838531 843.83136 817.86011 4287791241
71.053207 843.83136 817.86011 4292794078
40.822018 839.00635 820.33203 4290424248
43.656879 838.57294 819.96655 4293451496
46.491741 838.57294 819.96655 4293254629
49.326607 839.00635 820.33203 4293254881
51.877983 839.00635 820.33203 4293123295
56.130276 839.00635 820.33203 4293123296
-1.6954129 842.42151 819.28735 4292069559
0.84770644 842.42151 819.28735 4291410377
25.431192 842.42151 819.28735 4291805397
27.974312 842.42151 819.28735 4290559168
31.365139 842.42151 819.28735 4288058783
34.813759 841.36414 820.35791 4288978292
37.420185 840.3067 821.42847 4290227137
39.121101 840.3067 821.42847 4290161088
58.681648 840.3067 821.42847 4293189362
62.083488 840.3067 821.42847 4292926179
64.634865 840.3067 821.42847 4292991708
67.076141 841.36414 820.35791 4292794328
69.511925 842.42151 819.28735 4292728535
73.750458 842.42151 819.28735 4292728285
-19.497248 845.01379 821.47314 4291675848
-11.302752 844.58173 821.10889 4291675846
-7.6293578 844.36572 820.9267 4291215028
-4.2385321 843.71765 820.38025 4291610037
5.0862384 843.71765 820.38025 4287991954
7.6293578 844.36572 820.9267 4289962591
11.020184 845.01379 821.47314 4291542213
19.497248 844.36572 820.9267 4290886064
22.888073 844.36572 820.9267 4291082926
25.431192 843.71765 820.38025 4291675053
70.642204 844.14972 820.74457 4292991456
74.033028 844.14972 820.74457 4292794078
-21.992661 846.41809 820.04114 4292266702
13.533945 846.41809 820.04114 4291215547
16.07156 846.41809 820.04114 4290952368
40.910091 838.89679 822.85571 4289767847
43.466972 838.89679 822.85571 4293255139
46.876144 838.89679 822.85571 4293320678
49.433029 838.89679 822.85571 4293254881
51.989906 838.89679 822.85571 4293320417
55.399082 838.89679 822.85571 4293189603
-16.158716 842.90741 823.62134 4291477952
-13.60734 842.90741 823.62134 4291477950
-6.8036699 842.90741 823.62134 4291609542
-4.2522936 842.90741 823.62134 4291675329
-1.7009175 842.2572 823.07312 4291807166
0.85229355 840.9035 823.23969 4291543002
4.2522936 842.2572 823.07312 4289702576
6.8036699 842.90741 823.62134 4289568919
25.513762 842.90741 823.62134 4291477688
28.065136 842.2572 823.07312 4290032306
31.183487 842.04053 822.89038 4289373871
34.907341 840.9035 823.23969 4291081894
37.500916 840.19995 823.95447 4290886594
40.0578 840.19995 823.95447 4289966001
43.466972 840.19995 823.95447 4292532442
46.876144 840.19995 823.95447 4293321447
49.433029 840.19995 823.95447 4293254881
51.137615 840.19995 823.95447 4293189601
58.808258 840.19995 823.95447 4292992235
61.365139 840.19995 823.95447 4292926433
63.92202 840.19995 823.95447 4292794589
67.469727 842.04053 822.89038 4292794333
69.737617 842.90741 823.62134 4293188838
73.13945 842.90741 823.62134 4293188836
-18.710093 844.20776 824.71777 4290227885
-11.055964 844.20776 824.71777 4290490801
-8.5045872 844.20776 824.71777 4289898919
11.055964 844.20776 824.71777 4291016635
19.560551 844.20776 824.71777 4289176482
22.962385 844.20776 824.71777 4291083707
25.513762 844.20776 824.71777 4291477954
71.43853 844.20776 824.71777 4292925409
13.563303 846.30994 822.56604 4290492090
16.106422 846.30994 822.56604 4289373608
74.598167 846.30994 822.56604 4292662491
41.042202 839.39679 827.20129 4290163375
44.462387 839.39679 827.20129 4291873493
47.027523 839.39679 827.20129 4293649643
49.592659 839.39679 827.20129 4293123294
52.442814 838.961 826.8338 4293189088
55.57798 838.7431 826.65015 4293189603
58.998165 839.39679 827.20129 4293123560
61.563301 839.39679 827.20129 4293057249
-16.193579 842.80634 826.1521 4290096812
-13.636697 842.80634 826.1521 4290753461
-6.8183484 842.80634 826.1521 4290094763
-4.2614679 842.80634 826.1521 4290293166
-1.7045871 842.80634 826.1521 4290885814
0.85229355 841.50317 825.05322 4291543508
3.97737 842.37189 825.78583 4290031294
7.6706419 842.80634 826.1521 4289899422
28.125687 842.80634 826.1521 4290622645
31.81896 842.37189 825.78583 4290359220
34.944038 841.50317 825.05322 4291082944
37.500916 841.50317 825.05322 4291149502
39.205505 841.50317 825.05322 4290623158
42.614677 841.50317 825.05322 4291347649
63.92202 841.50317 825.05322 4292991456
67.047096 842.37189 825.78583 4292860383
69.888077 842.80634 826.1521 4292926433
73.297249 842.80634 826.1521 4292794080
-11.079817 844.1095 827.25085 4290358706
-7.6706419 844.1095 827.25085 4289567910
-4.2614679 844.1095 827.25085 4290489269
-1.7045871 844.1095 827.25085 4291016115
11.93211 844.1095 827.25085 4291477692
13.636697 844.1095 827.25085 4291279807
16.193579 844.1095 827.25085 4289963182
19.602753 844.1095 827.25085 4290028464
23.011927 844.1095 827.25085 4291016636
25.568808 844.1095 827.25085 4291346111
68.183487 844.1095 827.25085 4292860638
70.740372 844.1095 827.25085 4292925920
74.06881 844.80884 826.53253 4292727771
-16.245872 842.01154 829.40601 4290096051
-13.680734 842.01154 829.40601 4290293691
0.85504586 841.35785 828.85486 4291149507
4.2752295 842.01154 829.40601 4289503158
7.6954126 842.01154 829.40601 4289963447
10.26055 842.01154 829.40601 4291411643
28.216515 842.01154 829.40601 4290754485
31.636698 842.01154 829.40601 4290226342
35.076149 841.00818 829.21405 4290424754
37.662384 840.65857 829.57324 4291018172
40.230278 840.65857 829.57324 4290623674
43.654129 840.65851 829.57324 4290294200
47.07798 840.65857 829.57324 4293517544
49.64587 840.65857 829.57324 4293320423
52.21376 840.65857 829.57324 4293189346
55.637611 840.65857 829.57324 4293123556
58.998169 841.35785 828.85486 4292991456
61.563301 841.35785 828.85486 4292991456
64.128441 841.35785 828.85486 4293057507
66.693581 842.01154 829.40601 4293058535
-13.680734 843.31891 830.50842 4291017664
-11.115597 843.31891 830.50842 4290951101
-7.6954126 843.31891 830.50842 4289105808
-4.2752295 843.31891 830.50842 4290881702
-1.7100917 843.31891 830.50842 4291805120
11.115597 843.31891 830.50842 4291543745
13.680734 843.31891 830.50842 4291738307
16.245872 843.31891 830.50842 4289695634
19.666054 843.31891 830.50842 4290154890
23.086239 843.31891 830.50842 4291343537
25.651377 843.31891 830.50842 4291411906
28.216515 843.31891 830.50842 4290359471
31.636698 843.31891 830.50842 4289236113
64.98349 843.31891 830.50842 4292926946
67.54863 843.31891 830.50842 4292729822
70.968811 843.31891 830.50842 4292729052
73.533943 843.31891 830.50842 4292794078
75.001831 845.41266 828.34973 4292859355
-18.851376 841.9231 831.94751 4290819508
-16.280735 841.9231 831.94751 4290623160
0.85688072 841.9231 831.94751 4291083459
4.2844038 841.9231 831.94751 4289171603
7.7119265 841.9231 831.94751 4290353033
35.132111 841.9231 831.94751 4290619311
37.702751 841.9231 831.94751 4291082942
40.273396 841.9231 831.94751 4290688437
59.124771 841.9231 831.94751 4293123556
61.695412 841.9231 831.94751 4293057249
63.409176 841.9231 831.94751 4293057249
-18.851376 843.23328 833.05212 4291737296
-17.137615 843.23328 833.05212 4291148991
-13.710092 843.23328 833.05212 4291083707
-11.13945 843.23328 833.05212 4291279553
-7.7119265 843.23328 833.05212 4289105033
-4.2844038 843.23328 833.05212 4290618265
-1.7100917 844.62628 831.61072 4292265157
1.7137614 843.23328 833.05212 4290161844
3.4275229 843.23328 833.05212 4289432985
11.13945 843.23328 833.05212 4292069055
13.710092 843.23328 833.05212 4291804606
16.280735 843.23328 833.05212 4289301373
19.666054 844.62628 831.61072 4289168745
23.086239 844.62628 831.61072 4291606955
25.651377 844.62628 831.61072 4291148987
28.277065 843.23328 833.05212 4290424235
31.704586 843.23328 833.05212 4288708754
35.132111 843.23328 833.05212 4290749361
64.266052 843.23328 833.05212 4292991712
67.620186 843.92981 832.33142 4292794841
71.121101 843.23328 833.05212 4292860120
73.691742 843.23328 833.05212 4293319904
43.888069 839.79004 835.38104 4290227629
46.469727 839.79004 835.38104 4293648354
49.051376 839.79004 835.38098 4293452009
52.493576 839.79004 835.38098 4293254885
55.628742 839.80316 834.95605 4292991720
-16.046484 842.02002 835.95331 4291675076
-13.754128 842.45813 836.32275 4291545028
-10.315597 842.45813 836.32275 4291210428
0.57308871 842.02002 835.95331 4291280076
4.5847096 842.02002 835.95331 4288378745
8.023242 841.58185 835.58392 4290879374
10.315597 842.45813 836.32275 4291936969
27.508257 842.45813 836.32275 4291739845
31.806421 842.45813 836.32275 4289165943
34.385323 842.45813 836.32275 4289365886
36.964218 841.8009 835.76862 4291803316
40.402752 841.14374 835.21448 4290885558
56.735779 841.14374 835.21448 4293188849
58.455048 841.14374 835.21448 4293189603
61.033943 841.8009 835.76862 4292991969
64.472473 842.45813 836.32275 4292859868
67.051376 842.45813 836.32275 4292991708
70.489906 842.45813 836.32275 4292991706
73.06881 842.45813 836.32275 4292859870
-11.99633 844.54346 834.15686 4291479235
-7.7119265 844.54346 834.15686 4288971889
-4.2844038 844.54346 834.15686 4290617479
-1.7137614 844.54346 834.15686 4292199364
11.99633 844.54346 834.15686 4292068555
13.710092 844.54346 834.15686 4292264651
16.280735 844.54346 834.15686 4289826960
19.708256 844.54346 834.15686 4290549647
23.13578 844.54346 834.15686 4291475889
25.706423 844.54346 834.15686 4291150006
29.133945 844.54346 834.15686 4289371297
68.550461 844.54346 834.15686 4292794584
0.8614679 842.38507 838.8772 4291474883
4.3073397 842.38507 838.8772 4290084247
7.4660549 841.94598 838.50702 4291791738
31.874311 842.38507 838.8772 4289302185
34.458717 842.38507 838.8772 4289632164
37.330276 841.94598 838.50702 4291542211
40.488991 841.72644 838.3219 4290820280
43.93486 841.06787 837.7666 4290030252
46.519264 841.72644 838.3219 4293188579
49.103672 841.72644 838.3219 4293517540
52.549545 841.72644 838.3219 4293123039
55.995415 841.72644 838.3219 4293057251
58.579815 841.72644 838.3219 4292992483
61.164223 842.38507 838.8772 4292991713
64.610092 842.38507 838.8772 4293123041
67.194496 842.38507 838.8772 4293123296
-16.333027 844.42969 837.98523 4291932847
-12.894496 844.42969 837.98523 4291803829
-10.315597 844.42969 837.98517 4291344584
-7.7366972 844.42969 837.98523 4289961627
-4.3027525 843.73737 838.70947 4291475375
-1.7211009 843.73743 838.70941 4292134603
8.6146793 843.70227 839.98779 4294956501
10.326606 843.73743 838.70941 4294172644
12.908257 843.73737 838.70947 4290617515
16.35046 843.73743 838.70947 4290813599
19.79266 843.73743 838.70947 4290681493
22.374311 843.73743 838.70941 4291932076
24.955963 843.73737 838.70947 4291738793
28.398165 843.73743 838.70941 4291214018
31.012844 843.70227 839.98779 4291346104
49.965137 843.70227 839.98779 4293123294
55.995415 843.70227 839.98779 4293189089
58.579815 843.70227 839.98779 4293189349
61.164223 843.70227 839.98779 4293123299
64.610092 843.70227 839.98779 4292991455
68.245262 844.18726 838.65265 4292794331
70.56514 843.73743 838.70941 4293057502
72.28624 843.73743 838.70941 4292859872
-16.333027 846.40131 839.64758 4290483084
-12.894495 846.40131 839.64758 4291800757
0.8642202 841.62537 842.16064 4290422467
4.3211012 841.62537 842.16064 4292712605
6.9137616 841.62537 842.16064 4294951361
32.840366 841.62537 842.16064 4291280055
34.568806 841.62537 842.16064 4292002481
37.161469 841.62537 842.16064 4291542709
40.618347 841.62537 842.16064 4290688947
44.07523 840.96472 841.60358 4289833900
46.667889 841.62537 842.16064 4293386212
48.396332 841.62537 842.16064 4293583845
52.71743 841.62537 842.16064 4293254112
-10.337615 845.01947 841.09851 4291870148
-7.753211 845.01947 841.09851 4291607233
-4.3073397 845.01947 841.09851 4291608001
18.952293 845.01947 841.09851 4287454335
61.164223 845.01947 841.09851 4293123299
64.610092 845.01947 841.09851 4292925662
68.055969 845.01947 841.09851 4292925659
70.640366 845.01947 841.09851 4293189085
-15.473394 847.7157 840.75574 4291405731
-12.922018 846.33667 842.20911 4291142575
-10.337615 846.33667 842.20911 4290286736
-7.753211 846.33667 842.20911 4290814374
65.471558 846.33667 842.20911 4292925913
68.055969 846.33667 842.20911 4292860378
-1.7284404 842.94678 843.2749 4291740097
0.86605507 841.56494 844.72583 4290222254
4.3302751 841.56494 844.72583 4292253585
7.7899084 842.57251 844.92139 4294553265
10.381651 842.91797 844.55865 4294967295
12.977064 842.91797 844.55865 4290677365
16.437614 842.91797 844.55865 4290345064
20.763302 842.91797 844.55865 4290155095
22.469725 842.94678 843.2749 4290417724
25.062386 842.94678 843.2749 4290881192
28.519266 842.94678 843.2749 4291276975
32.28746 842.92755 844.13068 4290947738
34.605503 842.91797 844.55865 4290028420
36.899082 842.92755 844.13068 4291739555
40.661469 842.91797 844.55859 4290425257
43.817738 842.92755 844.13068 4289833902
46.156574 842.90839 844.98657 4293056985
49.312843 842.91797 844.55859 4293386211
52.773396 842.91797 844.55859 4293254114
55.368809 842.91797 844.55865 4293123294
57.902752 842.94678 843.2749 4293254883
-7.7779818 845.5896 845.50317 4290815662
-4.3211012 844.26819 844.38904 4291541442
-1.7284404 844.26819 844.38904 4291148737
19.012844 844.26819 844.38904 4290682526
22.469725 844.26819 844.38904 4291076741
25.062386 844.26819 844.38904 4290550687
28.519266 844.26819 844.38904 4290550939
31.111927 844.26819 844.38904 4290156170
38.025688 844.26819 844.38904 4291806664
58.190826 844.70868 844.76044 4292992221
61.359634 844.92883 844.94617 4292926172
64.528442 845.14911 845.13184 4293057243
67.409172 845.5896 845.50317 4293188565
-12.634862 848.09296 843.68994 4291015359
-10.337615 848.3125 843.875 4291014828
-13.783486 850.28827 845.54102 4292267986
-10.337615 850.28827 845.54102 4291478215
0.86880732 840.82068 848.02234 4290025114
4.3440366 840.82068 848.02234 4289753937
-6.9284406 845.5376 848.07544 4291738570
-4.3302751 844.87549 847.51721 4291805389
-1.7321101 844.21338 846.95898 4291148991
17.3211 844.21338 846.95898 4291541700
19.053211 844.21338 846.95898 4291804616
25.981651 844.21338 846.95898 4291014320
28.579817 844.21338 846.95898 4290421427
31.177982 844.21338 846.95898 4290158760
38.106422 844.21338 846.95898 4291345609
55.427525 844.21338 846.95898 4293123296
57.737003 845.09619 847.70331 4292926172
-8.6422014 846.91101 846.61743 4291148991
61.359634 847.57178 847.1745 4293057501
63.952293 846.91101 846.61743 4292925659
0.86880732 842.14911 849.14246 4289500568
4.3440366 842.14911 849.14246 4289100136
7.8192658 842.14911 849.14246 4293309087
10.425688 842.14911 849.14246 4294961919
13.03211 842.14911 849.14246 4293705948
15.638532 842.14911 849.14246 4292388281
20.851376 842.14911 849.14246 4291672766
22.588991 842.14911 849.14246 4291409595
24.326605 842.14911 849.14246 4291409078
33.883484 842.14911 849.14246 4289304207
36.48991 842.14911 849.14246 4291541668
40.833946 842.14911 849.14246 4290424504
43.440369 842.14911 849.14246 4290753209
46.046791 842.14911 849.14246 4293121997
49.522018 842.14911 849.14246 4293386214
52.997246 842.14911 849.14246 4293123043
-7.8192658 844.80591 851.38269 4290952130
-4.3440366 844.80591 851.38269 4291412424
-1.7376146 844.14172 850.82263 4291346116
7.8192658 843.47754 850.26257 4291079834
10.425688 843.47754 850.26257 4291608575
12.742508 843.92035 850.63593 4291082449
16.507339 843.47754 850.26257 4290951102
19.692966 843.92035 850.63593 4291280835
22.588991 843.47754 850.26257 4291346884
25.195412 843.47754 850.26257 4291674565
28.670643 844.14172 850.82263 4291411651
