# .PCD v0.7 - Point Cloud Data file format
VERSION 0.7
FIELDS x y z rgb
SIZE 4 4 4 4
TYPE F F F U
COUNT 1 1 1 1
WIDTH 1154
HEIGHT 1
VIEWPOINT 0 0 0 1 0 0 0
POINTS 1154
DATA ascii
-26.258715 775.58698 1256.0615 4286738307
-23.871559 775.58698 1256.0615 4287131014
-19.097248 775.58698 1256.0615 4283715675
-16.710093 775.58698 1256.0615 4281807678
-26.177982 779.61444 1254.2253 4285950838
-26.177982 781.43384 1255.7594 4284241239
-23.798164 781.43384 1255.7594 4286276209
-16.658716 781.43384 1255.7594 4282724414
-14.278899 781.43384 1255.7594 4283050752
-26.077065 787.80475 1254.5909 4287790461
-16.594496 787.80475 1254.5909 4287788415
-14.223853 787.80475 1254.5909 4287000931
-26.077065 789.61713 1256.1191 4288184706
-23.706423 789.61713 1256.1191 4287660131
-16.594496 789.61713 1256.1191 4288250511
-14.223853 789.61713 1256.1191 4287330194
-10.667891 789.61713 1256.1191 4283646301
-2.3706422 789.61713 1256.1191 4289238945
9.4825687 789.61713 1256.1191 4289630378
-32.93211 805.85742 1256.7322 4285680738
-49.051376 817.82971 1255.0547 4288178794
-46.715595 817.82971 1255.0547 4287522438
-44.379818 817.82971 1255.0547 4287522438
-49.051376 819.61542 1256.5604 4286465613
-6.9798164 827.59943 1256.7522 4284429892
-4.6532111 827.59943 1256.7522 4285550185
-2.3266056 827.59943 1256.7522 4292392658
-4.6348624 833.76971 1255.4147 4285616496
-2.3174312 833.76971 1255.4147 4291603659
-13.904587 835.54144 1256.9084 4284305508
-10.42844 835.54144 1256.9084 4283318618
-6.9522934 835.54144 1256.9084 4283252573
-4.6348624 835.54144 1256.9084 4284169064
-2.3174312 835.54144 1256.9084 4287063956
-18.480734 839.39221 1254.9232 4285090134
-16.170643 839.39221 1254.9232 4285616478
-13.860551 839.39221 1254.9232 4284895069
-10.395412 839.39221 1254.9232 4284698726
-6.9302754 839.39221 1254.9232 4283976294
-4.6201835 839.39221 1254.9232 4283975290
-2.3100917 839.39221 1254.9232 4285356943
-18.480734 841.15833 1256.4124 4284958803
-16.170643 841.15833 1256.4124 4285616476
-13.860551 841.15833 1256.4124 4284960865
-10.395412 841.15833 1256.4124 4286541443
-6.9302754 841.15833 1256.4124 4284371822
-4.6201835 841.15833 1256.4124 4283844976
-2.3009174 847.26819 1255.0239 4284043606
-12.073395 756.23022 1259.361 4286932088
-36.082569 764.54956 1259.8354 4282067785
-33.677063 764.54956 1259.8354 4282789166
-31.271559 764.54956 1259.8354 4283249717
-28.866055 763.63 1259.0601 4283515503
-25.257799 763.63 1259.0601 4283384432
-21.649542 763.63 1259.0601 4284239999
-19.244038 763.63 1259.0601 4284109177
-16.838531 763.63 1259.0601 4283517041
-14.433027 763.63 1259.0601 4283054173
-7.2165136 763.63 1259.0601 4286272876
-38.341286 770.07874 1257.9574 4285754239
-35.944954 770.07874 1257.9574 4285688446
-31.152294 769.16278 1257.1851 4285488742
-28.755962 769.16278 1257.1851 4285096574
-26.359632 769.16278 1257.1851 4283715177
-22.765137 770.07874 1257.9574 4282398309
-19.170643 770.99475 1258.7297 4282528305
-10.783486 770.99475 1258.7297 4282068286
-4.7926607 770.99475 1258.7297 4281401360
-2.3963304 770.99475 1258.7297 4286597983
-31.033028 778.32446 1258.3698 4286148247
-28.645872 778.32446 1258.3698 4284898660
-22.280123 778.02032 1258.1133 4287394952
-19.097248 778.32446 1258.3698 4287000952
-16.710093 777.41199 1257.6003 4282592814
-14.322936 777.41199 1257.6003 4282004289
-11.14006 778.6286 1258.6262 4285355343
-28.557798 784.16296 1258.0605 4285817193
-26.177982 783.25323 1257.2935 4285027941
-22.608255 784.1629 1258.0605 4287066742
-19.038532 784.16296 1258.0605 4286802281
-16.658716 783.25323 1257.2935 4285289803
-14.278899 783.25323 1257.2935 4284304677
-11.105809 784.46613 1258.3162 4283778364
-2.3798165 785.07263 1258.8275 4288975265
-26.077065 791.42944 1257.6473 4287856772
-23.706423 791.42944 1257.6473 4287464063
-18.965137 791.42944 1257.6473 4284569700
-16.594496 791.42944 1257.6473 4285885560
-14.223853 791.42944 1257.6473 4287198608
-10.667891 791.42944 1257.6473 4284367944
-7.1119266 791.42944 1257.6473 4289761662
-4.7412844 791.42944 1257.6473 4289106601
-2.3706422 791.42944 1257.6473 4289238443
10.667891 791.42944 1257.6473 4289433758
14.223853 791.42944 1257.6473 4289499303
-26.077065 793.24188 1259.1754 4287393629
-22.521101 793.24188 1259.1754 4286804080
-18.965137 793.24188 1259.1754 4285226108
-16.594496 793.24188 1259.1754 4285226108
-14.223853 793.24188 1259.1754 4286211959
-10.667891 793.24188 1259.1754 4285027669
-2.3706422 793.24188 1259.1754 4289566891
10.667891 793.24188 1259.1754 4289433487
14.223853 793.24188 1259.1754 4289433508
16.594496 793.24188 1259.1754 4289499301
-33.060551 799.56366 1257.9657 4284890709
-21.25321 799.56366 1257.9657 4286009178
-33.060551 801.36902 1259.4879 4285613916
-30.699083 801.36902 1259.4879 4285548123
-28.337614 801.36902 1259.4879 4285679691
-21.25321 801.36902 1259.4879 4285875780
-7.0844035 801.36902 1259.4879 4287788654
-4.7229357 801.36902 1259.4879 4288447374
-2.3614678 801.36902 1259.4879 4289434269
-31.755962 808.55493 1259.0067 4285352521
-28.227524 808.55493 1259.0067 4284891462
23.522936 807.65576 1258.2485 4292791513
-4.6715598 823.18689 1259.5718 4285878901
-2.3357799 823.18689 1259.5718 4292787166
-10.469725 829.37817 1258.252 4284497487
-6.9798164 829.37817 1258.252 4285351260
-4.6532111 829.37817 1258.252 4286206832
-2.3266056 829.37817 1258.252 4292457167
-18.612844 831.15686 1259.7517 4284433222
-16.286238 831.15686 1259.7517 4284564808
-13.959633 831.15686 1259.7517 4284106337
-10.469725 831.15686 1259.7517 4284105054
-6.9798164 831.15686 1259.7517 4285025643
-27.809174 839.08484 1259.8962 4284500341
-25.491743 838.19897 1259.1493 4284236398
-23.174313 838.19897 1259.1493 4284496467
-20.85688 838.19897 1259.1493 4284890969
1.1587156 839.08484 1259.8962 4283122245
4.6348624 839.08484 1259.8962 4283448103
-27.721102 842.92438 1257.9015 4284627803
-23.100918 842.92438 1257.9015 4284230226
-18.480734 842.92438 1257.9015 4284498000
-16.170643 842.92438 1257.9015 4285550431
-13.860551 842.92438 1257.9015 4285289827
-11.550459 842.92438 1257.9015 4286803066
-4.6201835 842.92438 1257.9015 4284108147
-18.480734 844.69049 1259.3906 4284495172
-16.170643 844.69049 1259.3906 4284495172
-13.860551 844.69049 1259.3906 4283314768
-10.395412 844.69049 1259.3906 4284237416
-6.9302754 844.69049 1259.3906 4283976046
-4.6201835 844.69049 1259.3906 4283648848
-28.976147 758.07629 1260.9175 4286475426
-25.35413 758.07629 1260.9175 4286080667
-21.732111 758.07629 1260.9175 4285816983
-36.220184 759.92236 1262.474 4282003026
-33.805504 759.92236 1262.474 4282857301
-31.390825 759.92236 1262.474 4283712354
-21.649542 766.38855 1261.3861 4282071642
-19.244038 766.38855 1261.3861 4282463827
-16.838531 766.38855 1261.3861 4282792535
-13.230275 766.38855 1261.3861 4282791497
-9.6220188 766.38855 1261.3861 4281145137
-7.2165136 766.38855 1261.3861 4280026655
-4.8110094 766.38855 1261.3861 4281405440
-2.4055047 766.38855 1261.3861 4287260998
-14.433027 768.2276 1262.9366 4282595381
-7.2165136 768.2276 1262.9366 4279370023
-38.341286 772.82678 1260.2744 4285753988
-34.746788 772.82678 1260.2744 4286017676
-21.566973 772.82678 1260.2744 4286670463
-14.377981 772.82678 1260.2744 4282005041
-10.783486 772.82678 1260.2744 4283320131
-7.1889906 772.82678 1260.2744 4283582792
-4.7926607 772.82678 1260.2744 4285814069
-2.3963304 772.82678 1260.2744 4286471998
-34.746788 774.65881 1261.8191 4286410649
-9.5853214 774.65881 1261.8191 4286540342
-7.1889906 774.65881 1261.8191 4287395394
-4.7926607 774.65881 1261.8191 4288578419
-2.3963304 774.65881 1261.8191 4289433728
-33.420185 782.88696 1262.2168 4285359495
-31.033028 781.97449 1261.4474 4285820047
-9.548624 781.06195 1260.678 4285881461
-7.161468 781.97449 1261.4474 4289436082
-4.774312 781.97449 1261.4474 4289698216
-2.387156 781.06195 1260.678 4289236895
1.193578 782.88696 1262.2168 4288907666
4.774312 782.88696 1262.2168 4289234316
-28.557798 787.80176 1261.1287 4287066740
-21.418348 787.80176 1261.1287 4286542433
-19.038532 786.89203 1260.3616 4286540149
-7.1394496 786.89203 1260.3616 4288779439
-4.7596331 786.89203 1260.3616 4289304738
1.1899083 787.80176 1261.1287 4289237398
4.7596331 787.80176 1261.1287 4288973472
7.1394496 787.80176 1261.1287 4289499560
-33.188992 795.0542 1260.7036 4284164403
-30.818348 795.96045 1261.4677 4284889674
-28.447706 795.96045 1261.4677 4284693808
-26.077065 795.96045 1261.4677 4284956980
-22.916208 795.65839 1261.213 4285155406
-18.965137 795.96045 1261.4677 4285814368
-16.594496 795.96045 1261.4677 4286143333
-14.223853 795.96045 1261.4677 4286210426
-10.66789 795.96045 1261.4677 4285684066
-7.1119266 795.96045 1261.4677 4288513664
-4.7412844 795.96045 1261.4677 4289041063
-2.3706422 795.96045 1261.4677 4289567151
18.965137 796.86664 1262.2317 4289956772
21.335779 796.86664 1262.2317 4290483116
-30.699083 803.17438 1261.0101 4285351773
-28.337614 803.17438 1261.0101 4285548875
-25.976147 803.17438 1261.0101 4285877840
-22.433945 803.17438 1261.0101 4285943873
-18.891743 803.17438 1261.0101 4285548375
-7.0844035 803.17438 1261.0101 4287328366
-4.7229357 803.17438 1261.0101 4289366890
-2.3614678 803.17438 1261.0101 4290353785
23.614679 803.17438 1261.0101 4293251803
-25.976147 804.97974 1262.5323 4285747285
-22.433945 804.97974 1262.5323 4286074951
-18.891743 804.97974 1262.5323 4285352529
-11.80734 804.97974 1262.5323 4286273125
-7.0844035 804.97974 1262.5323 4287986282
-4.7229357 804.97974 1262.5323 4289760420
-2.3614678 804.97974 1262.5323 4293773792
-31.755962 811.25244 1261.2811 4285679947
-28.227524 811.25244 1261.2811 4285612594
-31.755962 813.05078 1262.7975 4285680461
-28.227524 813.05078 1262.7975 4285089830
-2.3522935 813.05078 1262.7975 4294170111
-44.519264 817.49701 1260.0063 4287519083
23.431192 817.49701 1260.0063 4292329176
-49.205505 819.28833 1261.5167 4285219921
-46.862385 819.28833 1261.5167 4285023816
-4.6862388 819.28833 1261.5167 4286867597
-2.3431194 819.28833 1261.5167 4293578226
-16.350458 824.9726 1261.0774 4286206789
-14.014679 824.9726 1261.0774 4285877840
-10.511009 824.9726 1261.0774 4285746002
-18.686239 826.7583 1262.583 4284105276
-16.350458 826.7583 1262.583 4284171069
-14.014679 826.7583 1262.583 4284038216
0 826.7583 1262.583 4292658919
-27.919266 832.93555 1261.2515 4286209410
-25.592661 832.93555 1261.2515 4285025393
-23.266054 832.93555 1261.2515 4284958553
-20.939449 832.93555 1261.2515 4285155675
-30.245872 834.71423 1262.7512 4286803818
-27.919266 834.71423 1262.7512 4286341260
1.1633028 834.71423 1262.7512 4282987872
-30.126606 841.74231 1262.137 4285615716
-27.809174 842.62817 1262.8839 4287783549
-25.491743 841.74231 1262.137 4285152860
-23.174313 842.62817 1262.8839 4286597231
-20.85688 841.74231 1262.137 4284755799
1.1587156 841.74231 1262.137 4288048233
4.6348624 841.74231 1262.137 4291536508
-18.480734 847.3396 1261.6243 4287655051
-16.170643 847.3396 1261.6243 4287655052
-13.860551 848.22266 1262.3688 4289829808
-10.395412 847.3396 1261.6243 4285752439
-6.9302754 847.3396 1261.6243 4284307557
-4.6201835 846.45654 1260.8796 4283845728
-2.3100917 846.45654 1260.8796 4284372072
-33.933945 755.28107 1265.1007 4285883528
-31.510092 755.28107 1265.1007 4287396510
-9.6954126 755.28107 1265.1007 4286473318
-34.746788 776.49084 1263.3638 4286343041
-7.1889906 776.49084 1263.3638 4290550185
-4.7926607 776.49084 1263.3638 4289698213
-2.3963304 776.49084 1263.3638 4289303455
-34.746788 778.32281 1264.9086 4285423480
1.1981652 778.32281 1264.9086 4289236892
-33.420185 784.71198 1263.7555 4287067015
-31.033028 784.71198 1263.7555 4286738307
-33.420185 786.53699 1265.2943 4286472053
-31.033028 786.53699 1265.2943 4287261569
-30.937614 790.53076 1263.4297 4286273881
-28.557798 790.53076 1263.4297 4287130458
-7.1394496 790.53076 1263.4297 4289041282
-4.7596331 790.53076 1263.4297 4289303718
1.1899083 790.53076 1263.4297 4289631384
4.7596331 790.53076 1263.4297 4289630882
7.1394496 790.53076 1263.4297 4289433760
1.1899083 792.35016 1264.9637 4289696412
4.7596331 792.35016 1264.9637 4289696944
7.1394496 792.35016 1264.9637 4289565357
10.709174 792.35016 1264.9637 4289565078
14.278899 792.35016 1264.9637 4289367965
-35.559631 799.58514 1264.5239 4286008658
-26.077065 798.67896 1263.7599 4285679691
-23.706423 798.67896 1263.7599 4285875780
-18.965137 798.67896 1263.7599 4285284424
-16.594496 799.58514 1264.5239 4285876822
-14.223853 799.58514 1264.5239 4286141803
-10.667891 799.58508 1264.5239 4286405990
1.1853211 799.58514 1264.5239 4289760923
21.335779 800.49133 1265.2881 4293579470
-35.42202 806.7851 1264.0547 4286663254
-25.976147 806.7851 1264.0547 4286075221
-22.433945 806.7851 1264.0547 4286204742
-18.891743 806.7851 1264.0547 4286138195
-10.626606 806.7851 1264.0547 4286797662
-7.0844035 806.7851 1264.0547 4288444782
-4.7229357 806.7851 1264.0547 4290090177
-2.3614678 806.7851 1264.0547 4294103807
23.614679 806.7851 1264.0547 4292791259
-35.42202 808.59045 1265.5769 4286401104
-25.976147 808.59045 1265.5769 4286073145
-22.433945 808.59045 1265.5769 4286203725
-18.891743 808.59045 1265.5769 4286466897
-10.626606 808.59045 1265.5769 4286860622
-7.0844035 808.59045 1265.5769 4286795835
-4.7229357 808.59045 1265.5769 4290023869
-2.3614678 808.59045 1265.5769 4294103035
-35.284405 814.84912 1264.3138 4285880420
-31.755962 814.84912 1264.3138 4286208613
-28.227524 814.84912 1264.3138 4286341971
-25.875229 814.84912 1264.3138 4286210384
-4.704587 814.84912 1264.3138 4287985310
-2.3522935 814.84912 1264.3138 4293840630
21.170643 814.84912 1264.3138 4292527069
-44.693577 816.64746 1265.8301 4285879125
-30.579817 816.64746 1265.8301 4286079596
-28.227524 816.64746 1265.8301 4286669139
-25.875229 816.64746 1265.8301 4286800725
-16.466055 816.64746 1265.8301 4286597450
-10.585321 816.64746 1265.8301 4287256653
-7.056881 816.64746 1265.8301 4286599991
22.34679 816.64746 1265.8301 4292987357
-7.0293579 821.07971 1263.0272 4284428586
-18.744955 822.87103 1264.5376 4285943873
1.1715597 822.87103 1264.5376 4292791009
-30.365137 829.43689 1264.8416 4285159009
-28.029358 828.54401 1264.0887 4284237396
1.16789 829.43689 1264.8416 4289764263
4.6715598 830.32977 1265.5945 4284108647
-30.245872 836.49298 1264.251 4284237905
6.9798164 836.49298 1264.251 4286211409
-32.572475 838.27167 1265.7507 4283905108
6.9798164 838.27167 1265.7507 4290945602
9.3064222 838.27167 1265.7507 4291275167
-27.809174 844.3999 1264.3777 4289299871
-25.491743 844.3999 1264.3777 4288905113
-23.174313 844.3999 1264.3777 4288049317
-20.85688 844.3999 1264.3777 4287128216
-13.904587 844.3999 1264.3777 4284301152
2.3174312 844.3999 1264.3777 4289366929
-27.809174 846.17163 1265.8716 4291539651
-23.174313 846.17163 1265.8716 4291670227
-20.85688 846.17163 1265.8716 4290025658
-4.6348624 846.17163 1265.8716 4284373078
-2.3174312 846.17163 1265.8716 4284241491
-38.781651 758.06067 1267.4445 4281936716
1.2027524 773.74469 1267.5885 4289367974
-35.944954 781.07086 1267.2256 4286345091
-34.613762 788.36194 1266.8331 4285483601
-35.807339 790.18695 1268.3719 4284758589
16.710093 790.18695 1268.3719 4289236122
19.097248 790.18695 1268.3719 4289236122
-35.697247 794.16956 1266.4978 4284890431
1.1899083 794.16956 1266.4978 4289564574
4.7596331 794.16956 1266.4978 4289499842
7.1394496 794.16956 1266.4978 4289434049
10.709174 794.16956 1266.4978 4289696930
4.7596331 795.98895 1268.0319 4288973220
7.1394496 795.98895 1268.0319 4289104806
9.5192661 795.98895 1268.0319 4289499814
21.418348 795.98895 1268.0319 4293836746
-35.559631 802.30371 1266.8162 4286532692
-16.594496 802.30371 1266.8162 4285352529
-14.223853 802.30371 1266.8162 4285483865
-9.4825687 802.30371 1266.8162 4285551941
1.1853211 802.30371 1266.8162 4292857308
4.7412844 802.30371 1266.8162 4293250780
21.335779 802.30371 1266.8162 4292922847
-16.594496 804.11609 1268.3444 4286138195
-14.223853 804.11609 1268.3444 4286269280
1.1853211 804.11609 1268.3444 4293842404
4.7412844 804.11609 1268.3444 4293448927
7.1119266 804.11609 1268.3444 4293448927
21.335779 804.11609 1268.3444 4292725988
-42.50642 812.20117 1268.6213 4287064176
-37.783485 812.20117 1268.6213 4286472557
-35.42202 810.39581 1267.0991 4285812548
-25.976147 810.39581 1267.0991 4285352745
-22.433945 811.29846 1267.8602 4286598750
-18.891743 811.29846 1267.8602 4286597715
-16.530275 812.20117 1268.6213 4286334797
-14.168807 812.20117 1268.6213 4286728797
-10.626606 811.29846 1267.8602 4287651423
-7.0844035 811.29846 1267.8602 4286271035
-4.7229357 810.39581 1267.0991 4288906673
1.1807339 812.20117 1268.6213 4292922067
22.433945 810.39581 1267.0991 4292593373
-49.398167 818.44586 1267.3464 4283120457
-47.045872 818.44586 1267.3464 4283644221
-44.693577 818.44586 1267.3464 4283841857
-31.755962 818.44586 1267.3464 4282858802
-28.227524 818.44586 1267.3464 4284826424
-18.818348 818.44586 1267.3464 4286926151
-16.466055 818.44586 1267.3464 4286926151
-14.113762 818.44586 1267.3464 4286663506
-10.585321 818.44586 1267.3464 4286269769
1.1761467 818.44586 1267.3464 4292462559
-43.517433 820.2442 1268.8628 4283777365
-37.636696 820.2442 1268.8628 4283188045
-35.284405 820.2442 1268.8628 4282859336
-31.755962 820.2442 1268.8628 4283055664
-28.227524 820.2442 1268.8628 4283972171
-21.170643 820.2442 1268.8628 4285811281
4.704587 820.2442 1268.8628 4292856272
7.056881 820.2442 1268.8628 4292922066
-46.862385 824.66235 1266.048 4283907909
-44.519264 824.66235 1266.048 4284434253
-30.46055 824.66235 1266.048 4283383611
-28.117432 824.66235 1266.048 4283579208
2.3431194 824.66235 1266.048 4293317105
4.6862388 824.66235 1266.048 4293317344
-22.259632 826.45374 1267.5583 4284564560
4.6862388 826.45374 1267.5583 4292068053
23.431192 826.45374 1267.5583 4284434796
-32.700916 833.0083 1267.8529 4284830292
4.6715598 832.11548 1267.1001 4281999942
7.0073395 832.11548 1267.1001 4280486702
10.511009 833.90118 1268.6057 4288644242
-39.552292 841.8291 1268.7502 4289698201
-37.225689 841.8291 1268.7502 4290026660
-34.899082 840.93976 1268.0004 4288776077
-31.796942 841.23615 1268.2504 4289301127
0 841.8291 1268.7502 4285814363
4.6532111 841.8291 1268.7502 4291801241
6.9798164 840.93976 1268.0004 4293707970
-27.809174 847.9433 1267.3655 4290816944
-23.174313 847.9433 1267.3655 4291277258
-18.53945 847.9433 1267.3655 4290486146
-16.222019 847.9433 1267.3655 4291210126
-13.904587 847.9433 1267.3655 4290751149
-10.42844 847.9433 1267.3655 4289237678
-6.9522934 847.9433 1267.3655 4287000741
-4.6348624 847.9433 1267.3655 4285223547
-2.3174312 847.9433 1267.3655 4285026167
-13.904587 849.71497 1268.8593 4290817207
-10.42844 849.71497 1268.8593 4291146179
-6.9522934 849.71497 1268.8593 4291409358
-2.3174312 849.71497 1268.8593 4288647065
-40.893578 777.42273 1270.6898 4286083203
-38.488075 777.42273 1270.6898 4284899194
-35.944954 783.81885 1269.5426 4286274159
11.93578 793.83698 1271.4495 4289499814
14.322936 792.92444 1270.6802 4290484124
16.710093 792.01196 1269.9108 4289760922
19.097248 793.83698 1271.4495 4292389044
4.7596331 797.80835 1269.5659 4290157476
7.1394496 797.80835 1269.5659 4290618027
9.5192661 797.80835 1269.5659 4290815442
19.038532 797.80835 1269.5659 4293250506
7.1394496 799.62775 1271.1001 4293382367
10.709174 799.62775 1271.1001 4293251049
14.278899 799.62775 1271.1001 4293186267
16.658716 799.62775 1271.1001 4293120473
19.038532 799.62775 1271.1001 4293120225
-37.930275 805.92847 1269.8724 4286401104
-16.594496 805.92847 1269.8724 4286203725
-14.223853 805.92847 1269.8724 4286596446
1.1853211 805.92847 1269.8724 4293185755
4.7412844 805.92847 1269.8724 4292923351
7.1119266 805.92847 1269.8724 4292923351
22.521101 805.92847 1269.8724 4292659422
-40.300919 807.74084 1271.4006 4286536787
-37.930275 807.74084 1271.4006 4286470479
-16.594496 807.74084 1271.4006 4286400338
-14.223853 807.74084 1271.4006 4286728801
1.1853211 807.74084 1271.4006 4293186257
4.7412844 807.74084 1271.4006 4292988372
7.1119266 807.74084 1271.4006 4293186007
9.4825687 807.74084 1271.4006 4292659913
18.965137 807.74084 1271.4006 4292725216
-42.50642 814.90918 1270.9047 4284565589
-40.144955 815.81189 1271.6658 4283645005
-37.783485 814.90918 1270.9047 4284107095
-34.634865 814.60834 1270.651 4284567387
-25.976147 815.81189 1271.6658 4285023546
-22.433945 814.90924 1270.9047 4286728285
-18.891743 814.00653 1270.1436 4286729292
-14.168807 814.00653 1270.1436 4286663506
1.1807339 814.00653 1270.1436 4292790999
4.7229357 814.90918 1270.9047 4292592860
7.0844035 815.81189 1271.6658 4292658648
9.4458714 815.81189 1271.6658 4292723923
22.433945 815.81189 1271.6658 4293184488
-43.125385 823.24146 1271.39 4284699996
-39.988991 822.94171 1271.1372 4284173654
-37.636696 822.94171 1271.1372 4284174426
-35.284405 822.94171 1271.1372 4284371804
-32.93211 822.94171 1271.1372 4284173136
-25.875229 822.94171 1271.1372 4284105809
-22.34679 822.04254 1270.3792 4283974218
7.056881 822.94171 1271.1372 4292067793
9.409174 822.94171 1271.1372 4291410094
-37.48991 830.03638 1270.5792 4285357406
-35.14679 829.14069 1269.824 4285292386
-32.803669 828.245 1269.0688 4285816421
7.0293579 828.245 1269.0688 4281740099
10.153518 829.43927 1270.0757 4280686636
23.431192 829.14069 1269.824 4290160077
-37.372478 835.68689 1270.1115 4283577402
-35.036697 835.68689 1270.1115 4283511609
11.678899 835.68689 1270.1115 4291669925
-39.708256 837.47266 1271.6172 4288118413
-37.372478 837.47266 1271.6172 4288051582
10.511009 837.47266 1271.6172 4292723925
14.014679 837.47266 1271.6172 4292394706
-39.552292 844.49719 1270.9999 4291802830
-37.225689 844.49719 1270.9999 4291408583
-34.899082 844.49719 1270.9999 4291342790
-31.409174 844.49719 1270.9999 4291210682
-25.592661 844.49719 1270.9999 4291671745
-20.939449 845.38654 1271.7498 4289697970
1.1633028 843.60779 1270.25 4282860116
4.6532111 843.60779 1270.25 4283909960
6.9798164 843.60779 1270.25 4290949811
-38.634861 772.8446 1273.3698 4284960865
-40.893578 779.26178 1272.2404 4288513673
-38.488075 779.26178 1272.2404 4287659144
-40.893578 781.10083 1273.791 4286404197
-38.488075 781.10083 1273.791 4286142572
-40.737614 787.48291 1272.6321 4286335310
-38.341286 787.48291 1272.6321 4285877326
-40.737614 789.31494 1274.1768 4286270036
-38.341286 789.31494 1274.1768 4285811533
-40.58165 796.57446 1273.7577 4285809725
-38.194496 796.57446 1273.7577 4285678666
11.93578 795.66199 1272.9883 4291604702
14.322936 795.66199 1272.9883 4292262836
16.710093 795.66199 1272.9883 4292723387
-38.077065 801.44714 1272.6342 4286202703
10.709174 802.35681 1273.4011 4292923104
14.278899 802.35681 1273.4011 4292791515
16.658716 802.35681 1273.4011 4292857308
19.038532 802.35681 1273.4011 4292791780
-40.300919 809.55322 1272.9287 4286537832
4.7412844 809.55322 1272.9287 4292592853
7.1119266 809.55322 1272.9287 4292987611
10.667891 809.55322 1272.9287 4292594384
14.223853 809.55322 1272.9287 4292594650
16.594496 809.55322 1272.9287 4292528856
18.965137 809.55322 1272.9287 4292329947
-40.300919 811.3656 1274.4569 4285617502
7.1119266 811.3656 1274.4569 4293053415
10.667891 811.3656 1274.4569 4292922838
14.223853 811.3656 1274.4569 4292790746
16.594496 811.3656 1274.4569 4292724952
18.965137 811.3656 1274.4569 4292789979
-49.590824 817.61731 1273.188 4283513685
-47.229359 817.61731 1273.188 4283709512
-40.144955 817.61731 1273.188 4283515997
-25.976147 817.61731 1273.188 4284432722
-23.614679 817.61731 1273.188 4285021766
10.626606 817.61731 1273.188 4292921818
21.25321 817.61731 1273.188 4292791011
-51.952293 819.42261 1274.7102 4283843147
11.80734 819.42261 1274.7102 4291738570
21.25321 819.42261 1274.7102 4286471535
-43.517433 826.53839 1274.1699 4285950059
-39.988991 826.53839 1274.1699 4286081388
-37.636696 825.63922 1273.4117 4284766559
11.761468 825.63922 1273.4117 4279768613
14.113762 827.43756 1274.9281 4281217353
16.466055 827.43756 1274.9281 4284835968
-39.833027 833.61902 1273.6 4283384154
-37.48991 831.8277 1272.0896 4282792246
-35.14679 831.8277 1272.0896 4283515713
14.058716 832.72339 1272.8447 4288056999
16.401834 833.61902 1273.6 4285554058
-42.044037 839.25836 1273.1228 4290158752
10.511009 839.25836 1273.1228 4293051607
14.014679 839.25836 1273.1228 4292526526
16.350458 839.25836 1273.1228 4292526526
-46.715595 841.04407 1274.6284 4291802819
-43.211929 841.04407 1274.6284 4291803079
10.511009 841.04407 1274.6284 4291869394
14.014679 841.04407 1274.6284 4292130237
16.350458 841.04407 1274.6284 4292393410
18.686239 841.04407 1274.6284 4292001495
-39.552292 848.05457 1273.9994 4290881707
-37.225689 847.16522 1273.2495 4291013567
-34.899082 848.05457 1273.9994 4290948283
-31.796942 847.75812 1273.7494 4289831086
-27.919266 847.16522 1273.2495 4288778390
-25.592661 847.16522 1273.2495 4290554801
-23.266054 848.05457 1273.9994 4290750900
-19.38838 847.75812 1273.7494 4290223776
-16.286238 848.05457 1273.9994 4290881184
-13.959633 848.94397 1274.7493 4290816678
-10.469725 848.94397 1274.7493 4291014324
-6.9798164 848.94397 1274.7493 4291672264
-4.6532111 847.16522 1273.2495 4289897389
-45.878899 776.53674 1276.4828 4288711556
-43.464222 776.53674 1276.4828 4288579466
-40.893578 782.93982 1275.3417 4286270815
-38.488075 782.93982 1275.3417 4285614166
-43.299084 784.77881 1276.8922 4286137932
-43.133945 791.14691 1275.7214 4286074449
-40.737614 791.14691 1275.7214 4286074449
-38.341286 791.14691 1275.7214 4285877072
16.774311 791.14691 1275.7214 4291207327
11.899082 805.08594 1275.7023 4292659913
14.278899 805.08594 1275.7023 4292528856
16.658716 805.08594 1275.7023 4292594650
11.853211 813.17798 1275.9851 4292855509
14.223853 814.08417 1276.7491 4292921821
16.594496 814.08417 1276.7491 4293053662
18.965137 814.08417 1276.7491 4292856291
11.80734 821.22803 1276.2325 4288844912
21.25321 821.22803 1276.2325 4284827746
14.168807 823.03333 1277.7548 4280888093
16.530275 823.03333 1277.7548 4285493602
21.25321 823.03333 1277.7548 4290290361
-42.341286 829.23596 1276.4443 4282928212
-39.988991 829.23596 1276.4443 4282862419
16.466055 829.23596 1276.4443 4282862417
23.522936 829.23596 1276.4443 4289634503
-43.517433 831.0343 1277.9607 4284371308
18.818348 831.0343 1277.9607 4285817487
23.522936 831.0343 1277.9607 4290816678
-42.176147 835.4104 1275.1105 4288381329
16.401834 835.4104 1275.1105 4291802569
18.744955 835.4104 1275.1105 4291933862
22.259632 835.4104 1275.1105 4292329675
-44.519264 837.20172 1276.6208 4290159000
18.744955 837.20172 1276.6208 4292526780
22.259632 837.20172 1276.6208 4292330958
25.774311 837.20172 1276.6208 4291214291
28.117432 837.20172 1276.6208 4290293703
-53.722935 842.82983 1276.1342 4292131780
-49.051376 842.82983 1276.1342 4291474617
-46.715595 842.82983 1276.1342 4291736522
-43.211929 842.82983 1276.1342 4291802317
1.16789 842.82983 1276.1342 4283318884
4.6715598 842.82983 1276.1342 4283846715
7.0073395 842.82983 1276.1342 4288189053
10.511009 842.82983 1276.1342 4290423453
14.014679 842.82983 1276.1342 4289896355
16.350458 842.82983 1276.1342 4290028198
18.686239 842.82983 1276.1342 4291278290
21.022018 842.82983 1276.1342 4291541205
-53.722935 844.61554 1277.6399 4291409858
-49.051376 844.61554 1277.6399 4291279553
-46.715595 844.61554 1277.6399 4291014854
-43.211929 844.61554 1277.6399 4290420655
1.16789 844.61554 1277.6399 4286936715
4.6715598 844.61554 1277.6399 4284638827
7.0073395 844.61554 1277.6399 4282072644
16.350458 844.61554 1277.6399 4288388274
18.686239 844.61554 1277.6399 4289240531
30.365137 844.61554 1277.6399 4291009608
-45.878899 778.38275 1278.0393 4286272084
-43.464222 778.38275 1278.0393 4286206819
-45.878899 780.22882 1279.5958 4285284935
-43.464222 780.22882 1279.5958 4285678678
-43.299084 786.61786 1278.4429 4286138193
14.223853 817.70892 1279.8054 4288646828
16.594496 817.70892 1279.8054 4286607244
18.965137 817.70892 1279.8054 4286735225
21.25321 824.83875 1279.277 4290361839
-47.229359 826.6441 1280.7992 4285422949
-44.867889 826.6441 1280.7992 4284896605
18.891743 826.6441 1280.7992 4279582506
21.25321 826.6441 1280.7992 4287543459
-47.045872 832.83264 1279.4771 4288185740
-44.693577 832.83264 1279.4771 4288185740
-52.720184 838.99304 1278.1312 4291342268
22.259632 838.99304 1278.1312 4290688214
25.774311 838.99304 1278.1312 4283387770
28.117432 838.99304 1278.1312 4283779349
-51.548622 840.78436 1279.6416 4291869375
23.431192 840.78436 1279.6416 4288120782
25.774311 840.78436 1279.6416 4284172946
28.117432 840.78436 1279.6416 4284830056
-46.715595 846.40125 1279.1455 4291015365
-43.211929 847.29419 1279.8983 4288911513
-39.708256 848.18701 1280.6511 4289374858
-37.372478 847.29413 1279.8983 4290357176
-35.036697 848.18701 1280.6511 4290884297
-31.14373 847.5918 1280.1493 4290619570
-28.029358 847.29413 1279.8983 4290289317
-25.693579 847.29413 1279.8983 4290552488
-21.800611 847.5918 1280.1493 4290354863
-18.686239 848.18701 1280.6511 4291012270
-16.350458 848.18701 1280.6511 4291144112
-14.014679 848.18701 1280.6511 4290880431
-10.511009 848.18701 1280.6511 4289960104
-7.0073395 848.18701 1280.6511 4291013053
-4.6715598 846.40125 1279.1455 4291080112
-2.3357799 846.40125 1279.1455 4289566872
30.365137 846.40125 1279.1455 4287986825
-45.878899 782.07483 1281.1523 4286073684
18.965137 820.42749 1282.0977 4288053399
18.965137 822.23987 1283.6259 4286085551
-47.229359 828.44946 1282.3214 4285292155
-51.548622 842.57568 1281.1521 4291279553
10.544037 842.57568 1281.1521 4282532418
14.058716 842.57568 1281.1521 4283190627
22.259632 842.57568 1281.1521 4286934684
25.774311 842.57568 1281.1521 4286011004
28.117432 842.57568 1281.1521 4288772902
-51.548622 844.36707 1282.6625 4291407282
-49.205505 844.36707 1282.6625 4292328384
1.1715597 844.36707 1282.6625 4289106088
4.6862388 844.36707 1282.6625 4287660940
7.0293579 844.36707 1282.6625 4282989637
10.544037 844.36707 1282.6625 4282729797
14.058716 844.36707 1282.6625 4284700296
16.401834 844.36707 1282.6625 4289832150
18.744955 844.36707 1282.6625 4289897411
22.259632 844.36707 1282.6625 4284964719
25.774311 844.36707 1282.6625 4283979094
28.117432 844.36707 1282.6625 4286539379
32.803669 844.36707 1282.6625 4287657849
-18.686239 849.97272 1282.1569 4291274415
-16.350458 849.97272 1282.1569 4291669173
-14.014679 850.8656 1282.9097 4290812073
-11.678899 849.97272 1282.1569 4289957787
21.335779 825.86462 1286.6821 4290488790
-56.675228 833.86554 1286.8882 4290815670
-58.807339 838.22766 1284.026 4291671982
-56.455048 838.22766 1284.026 4291671229
-58.807339 840.026 1285.5424 4291738057
-56.455048 840.026 1285.5424 4291146942
-52.329662 846.75555 1284.6764 4289890977
-49.205505 847.05408 1284.9281 4292127685
-46.862385 847.05408 1284.9281 4290686914
-43.347706 847.94971 1285.6833 4289963430
-39.833027 847.94971 1285.6833 4290029722
-37.48991 847.94971 1285.6833 4290750131
-35.14679 847.94971 1285.6833 4291210682
-31.632111 847.94971 1285.6833 4291276212
-28.117432 847.94971 1285.6833 4291275180
-25.774311 847.94971 1285.6833 4290288285
-22.259632 847.94971 1285.6833 4290549949
-9.3724775 847.94971 1285.6833 4290221734
-7.0293579 847.94971 1285.6833 4291340471
-4.6862388 847.05408 1284.9281 4290947755
-2.3431194 846.15839 1284.1729 4290751153
16.401834 846.15839 1284.1729 4287985308
18.744955 846.15839 1284.1729 4287855796
22.650152 846.75555 1284.6764 4283978330
25.774311 847.05408 1284.9281 4285230173
28.117432 847.05408 1284.9281 4287461487
31.632111 847.05408 1284.9281 4289566101
35.14679 847.94971 1285.6833 4291472821
-55.2789 841.82434 1287.0586 4290881217
1.1761467 843.62268 1288.575 4290947774
4.704587 843.62268 1288.575 4291080393
7.056881 843.62268 1288.575 4288053915
10.585321 843.62268 1288.575 4284502846
14.113762 843.62268 1288.575 4285485173
-51.548622 849.74103 1287.1937 4290816444
-43.347706 849.74103 1287.1937 4290947514
-28.117432 849.74103 1287.1937 4291736013
-25.774311 849.74103 1287.1937 4290288311
-22.259632 849.74103 1287.1937 4290351276
-18.744955 849.74103 1287.1937 4290482082
-16.401834 850.63672 1287.949 4290482340
-14.058716 851.53235 1288.7041 4290484409
-11.715596 849.74103 1287.1937 4290547878
32.803669 849.74103 1287.1937 4291407046
-61.398167 839.28162 1291.4548 4291803862
-59.036697 839.28162 1291.4548 4291606739
-61.398167 841.08698 1292.9771 4291738069
-59.036697 841.08698 1292.9771 4291014602
-56.675228 841.08698 1292.9771 4290023328
-54.102753 845.42102 1290.0913 4289300664
-2.3522935 845.42102 1290.0913 4291210407
14.113762 845.42102 1290.0913 4285026658
16.466055 845.42102 1290.0913 4286013553
18.818348 845.42102 1290.0913 4287130469
21.170643 845.42102 1290.0913 4286209367
-55.2789 847.21942 1291.6075 4290949054
-49.398167 847.21942 1291.6075 4291145153
-47.045872 847.21942 1291.6075 4291145155
-39.988991 847.21942 1291.6075 4290815922
-37.636696 847.21942 1291.6075 4290682285
-35.284405 847.21942 1291.6075 4290090405
-31.755962 847.21942 1291.6075 4290945200
-9.409174 847.21942 1291.6075 4290418075
-7.056881 847.21942 1291.6075 4290812832
-4.704587 847.21942 1291.6075 4290616230
-2.3522935 847.21942 1291.6075 4291010988
18.818348 847.21942 1291.6075 4290225588
22.34679 847.21942 1291.6075 4291145139
25.875229 847.21942 1291.6075 4291867567
28.227524 847.21942 1291.6075 4291999169
30.579817 847.21942 1291.6075 4291933376
35.284405 847.21942 1291.6075 4291407046
-61.398167 842.89233 1294.4993 4291606471
-59.036697 842.89233 1294.4993 4290751162
-56.675228 842.89233 1294.4993 4289958850
1.1807339 842.89233 1294.4993 4290815420
4.7229357 842.89233 1294.4993 4291079364
7.0844035 842.89233 1294.4993 4289763504
10.626606 842.89233 1294.4993 4284567166
-47.045872 849.01776 1293.1239 4291077563
-43.517433 849.01776 1293.1239 4291407302
-37.636696 849.01776 1293.1239 4290946467
-30.579817 849.01776 1293.1239 4292126903
-28.227524 849.01776 1293.1239 4291931590
-25.875229 849.01776 1293.1239 4290615731
-22.34679 849.01776 1293.1239 4290152877
-18.818348 849.01776 1293.1239 4290285219
-11.761468 849.01776 1293.1239 4291011009
31.755962 849.01776 1293.1239 4291736524
35.284405 849.01776 1293.1239 4291275975
37.636696 849.01776 1293.1239 4291538877
-61.398167 844.69769 1296.0215 4290948292
-59.036697 844.69769 1296.0215 4291277256
0 844.69769 1296.0215 4290748852
7.0844035 844.69769 1296.0215 4291407559
10.626606 844.69769 1296.0215 4290160041
14.168807 844.69769 1296.0215 4288320151
16.530275 844.69769 1296.0215 4289504682
-55.494495 846.50305 1297.5438 4290949041
-51.952293 846.50305 1297.5438 4290948292
-49.590824 846.50305 1297.5438 4290619326
-40.144955 846.50305 1297.5438 4290815940
-34.241287 846.50305 1297.5438 4289957525
-9.4458714 846.50305 1297.5438 4290420401
-7.0844035 846.50305 1297.5438 4290420401
-4.7229357 846.50305 1297.5438 4290486457
-2.3614678 846.50305 1297.5438 4290749629
18.891743 846.50305 1297.5438 4291737778
22.433945 846.50305 1297.5438 4291868858
25.976147 846.50305 1297.5438 4291999682
28.337614 846.50305 1297.5438 4291934157
2.3706422 842.17603 1300.4354 4290880182
4.7412844 842.17603 1300.4354 4290947008
-61.636696 843.9884 1301.9636 4291277495
-59.266056 843.9884 1301.9636 4291540667
1.1853211 843.9884 1301.9636 4290683570
4.7412844 843.9884 1301.9636 4290815674
7.1119266 843.9884 1301.9636 4291868362
10.667891 843.9884 1301.9636 4291081129
14.223853 843.9884 1301.9636 4290817459
16.594496 843.9884 1301.9636 4290949046
-47.229359 848.30841 1299.066 4289564072
-43.687157 848.30841 1299.066 4290682812
-40.144955 848.30841 1299.066 4291275208
-37.783485 848.30841 1299.066 4291340469
-34.241287 848.30841 1299.066 4290285207
-30.699083 848.30841 1299.066 4290677647
-28.337614 848.30841 1299.066 4290347943
-25.976147 848.30841 1299.066 4290085028
-22.433945 848.30841 1299.066 4290282918
-18.891743 848.30841 1299.066 4290682539
-16.530275 848.30841 1299.066 4291011761
-14.168807 848.30841 1299.066 4290947523
-10.626606 848.30841 1299.066 4290815932
-7.0844035 848.30841 1299.066 4290881719
-4.7229357 848.30841 1299.066 4290817207
-2.3614678 848.30841 1299.066 4290751414
30.699083 848.30841 1299.066 4291079110
34.241287 848.30841 1299.066 4291079108
-30.699083 850.11377 1300.5883 4289561743
-55.710091 845.80078 1303.4917 4290356405
-52.154129 845.80078 1303.4917 4290882753
-49.783485 845.80078 1303.4917 4290356152
1.1853211 845.80078 1303.4917 4290685371
4.7412844 845.80078 1303.4917 4290553267
7.1119266 845.80078 1303.4917 4291211198
10.667891 845.80078 1303.4917 4291408828
14.223853 845.80078 1303.4917 4291671231
16.594496 845.80078 1303.4917 4291539901
18.965137 845.80078 1303.4917 4291604924
22.521101 845.80078 1303.4917 4291539131
26.077065 845.80078 1303.4917 4291736511
28.447706 845.80078 1303.4917 4291144903
-52.154129 847.61316 1305.0199 4291143858
-49.783485 847.61316 1305.0199 4290683307
-46.227524 847.61316 1305.0199 4290615479
-42.671558 847.61316 1305.0199 4290748350
-40.300919 847.61316 1305.0199 4291669452
-37.930275 847.61316 1305.0199 4291209653
-34.374313 847.61316 1305.0199 4290155423
-28.447706 847.61316 1305.0199 4289692285
-26.077065 847.61316 1305.0199 4290416008
-22.521101 847.61316 1305.0199 4290878389
-18.965137 847.61316 1305.0199 4290816426
-16.594496 847.61316 1305.0199 4291013805
-14.223853 847.61316 1305.0199 4291079625
-10.667891 847.61316 1305.0199 4291013824
-7.1119266 847.61316 1305.0199 4290685108
-4.7412844 847.61316 1305.0199 4290685869
-2.3706422 847.61316 1305.0199 4290751662
16.594496 847.61316 1305.0199 4291408063
18.965137 847.61316 1305.0199 4291407548
21.335779 847.61316 1305.0199 4291407548
28.447706 847.61316 1305.0199 4291210180
30.818348 847.61316 1305.0199 4291012801
33.188992 847.61316 1305.0199 4291012801
-49.783485 849.42554 1306.5481 4291076016
-46.227524 849.42554 1306.5481 4290812328
-28.447706 849.42554 1306.5481 4290483870
-26.077065 849.42554 1306.5481 4291273129
-2.3706422 849.42554 1306.5481 4290094765
-57.115597 845.11249 1309.4515 4290947258
-54.735779 845.11249 1309.4515 4291407809
1.1899083 845.11249 1309.4515 4290816703
4.7596331 845.11249 1309.4515 4290683320
7.1394496 845.11249 1309.4515 4291275458
10.709174 845.11249 1309.4515 4291408315
14.278899 845.11249 1309.4515 4291342270
23.798164 845.11249 1309.4515 4291538877
26.177982 845.11249 1309.4515 4292197064
-57.115597 846.93188 1310.9856 4290879416
-54.735779 846.93188 1310.9856 4290945466
-52.355965 846.93188 1310.9856 4291141809
-42.836697 846.93188 1310.9856 4290813877
-40.456882 846.93188 1310.9856 4291603137
-38.077065 846.93188 1310.9856 4291340483
-34.507339 846.93188 1310.9856 4291077046
-30.937614 846.93188 1310.9856 4291010475
-22.608257 846.93188 1310.9856 4290947008
-19.038532 846.93188 1310.9856 4290751412
-16.658716 846.93188 1310.9856 4290883254
-14.278899 846.93188 1310.9856 4290356670
-10.709174 846.93188 1310.9856 4290554298
-7.1394496 846.93188 1310.9856 4290620596
-4.7596331 846.93188 1310.9856 4290555316
1.1899083 846.93188 1310.9856 4290355123
4.7596331 846.93188 1310.9856 4290288033
7.1394496 846.93188 1310.9856 4291472308
10.709174 846.93188 1310.9856 4291408329
14.278899 846.93188 1310.9856 4290816190
16.658716 846.93188 1310.9856 4291079362
19.038532 846.93188 1310.9856 4291210428
22.608257 846.93188 1310.9856 4291342269
26.177982 846.93188 1310.9856 4291276475
28.557798 846.93188 1310.9856 4290947260
30.937614 846.93188 1310.9856 4290881467
33.317432 846.93188 1310.9856 4291012272
-59.678898 841.28699 1311.4581 4290815674
-62.066055 843.112 1312.9969 4290815420
-59.678898 843.112 1312.9969 4291210178
-52.355965 848.75128 1312.5198 4290681762
-49.976147 848.75128 1312.5198 4290944934
-46.406422 848.75128 1312.5198 4291077034
-42.836697 848.75128 1312.5198 4290947512
-40.456882 848.75128 1312.5198 4291342270
-38.077065 848.75128 1312.5198 4290948292
-35.697247 848.75128 1312.5198 4290816705
-30.937614 848.75128 1312.5198 4290815420
-28.557798 848.75128 1312.5198 4290683059
-26.177982 848.75128 1312.5198 4290945975
-23.798164 848.75128 1312.5198 4290619072
-11.899082 848.75128 1312.5198 4290751164
-7.1394496 848.75128 1312.5198 4290751666
-4.7596331 848.75128 1312.5198 4290488747
-2.3798165 848.75128 1312.5198 4290159525
4.7596331 848.75128 1312.5198 4290485416
14.278899 848.75128 1312.5198 4291013317
16.658716 848.75128 1312.5198 4291079110
26.177982 848.75128 1312.5198 4291013305
28.557798 848.75128 1312.5198 4290947260
30.937614 848.75128 1312.5198 4291342018
-62.066055 844.93701 1314.5358 4290879930
-59.678898 844.93701 1314.5358 4290748600
-62.066055 846.76196 1316.0745 4290417334
-58.485321 846.76196 1316.0745 4290220209
-54.904587 846.76196 1316.0745 4290614965
-33.420185 846.76196 1316.0745 4290749627
-21.484404 846.76196 1316.0745 4290684865
-19.097248 846.76196 1316.0745 4290685621
-16.710093 846.76196 1316.0745 4290948794
-14.322936 846.76196 1316.0745 4290685115
-9.548624 846.76196 1316.0745 4290751666
1.193578 846.76196 1316.0745 4290355123
7.161468 846.76196 1316.0745 4291603641
10.742202 846.76196 1316.0745 4291145168
19.097248 846.76196 1316.0745 4291079612
22.677982 846.76196 1316.0745 4291210941
28.557798 850.57068 1314.0537 4290815420
30.937614 850.57068 1314.0537 4291275971
-58.305504 852.39001 1315.5879 4291075508
28.557798 852.39001 1315.5879 4290684352
-62.066055 848.58698 1317.6133 4290546592
-58.485321 848.58698 1317.6133 4290678692
-54.904587 848.58698 1317.6133 4291074222
-52.517429 848.58698 1317.6133 4290879139
-50.130276 848.58698 1317.6133 4291142311
-46.549541 848.58698 1317.6133 4291275182
-42.968807 848.58698 1317.6133 4290883012
-40.58165 848.58698 1317.6133 4289896117
-38.194496 848.58698 1317.6133 4288713903
-34.613762 848.58698 1317.6133 4287330960
-31.033028 848.58698 1317.6133 4288184467
-28.645872 848.58698 1317.6133 4288513160
-26.258715 848.58698 1317.6133 4288776075
-22.677982 848.58698 1317.6133 4288711314
-19.097248 848.58698 1317.6133 4289435806
-16.710093 848.58698 1317.6133 4290291115
-14.322936 848.58698 1317.6133 4290356406
-10.742202 848.58698 1317.6133 4290751416
-7.161468 848.58698 1317.6133 4290356654
-4.774312 848.58698 1317.6133 4290158498
-2.387156 848.58698 1317.6133 4290355621
14.322936 848.58698 1317.6133 4291013818
16.710093 848.58698 1317.6133 4291211198
19.097248 848.58698 1317.6133 4291080123
22.677982 848.58698 1317.6133 4290948536
26.258715 848.58698 1317.6133 4290750899
-62.066055 850.41199 1319.1521 4290548139
-54.904587 850.41199 1319.1521 4291339706
-52.517429 850.41199 1319.1521 4291340973
-50.130276 850.41199 1319.1521 4291472560
-28.645872 850.41199 1319.1521 4287789698
-26.258715 850.41199 1319.1521 4288710800
23.871559 850.41199 1319.1521 4290817198
26.258715 850.41199 1319.1521 4290751149
1.1981652 846.10736 1322.0627 4290683055
4.7926607 846.10736 1322.0627 4290880424
7.1889906 846.10736 1322.0627 4291406768
10.783486 846.10736 1322.0627 4290947526
-58.485321 853.14954 1321.4603 4291143351
-46.728439 847.93939 1323.6074 4291209905
-43.133945 847.93939 1323.6074 4290882764
-40.737614 847.93939 1323.6074 4289698490
-38.341286 847.93939 1323.6074 4287332786
-34.746788 847.93939 1323.6074 4286147469
-31.152294 847.93939 1323.6074 4287068042
-22.765137 847.93939 1323.6074 4288842636
-19.170643 847.93939 1323.6074 4289566361
-16.774311 847.93939 1323.6074 4290487463
-14.377981 847.93939 1323.6074 4290225338
-10.783486 847.93939 1323.6074 4290488503
-7.1889906 847.93939 1323.6074 4289896103
-4.7926607 847.93939 1323.6074 4290092185
-2.3963304 847.93939 1323.6074 4290355614
9.5853214 847.93939 1323.6074 4291210432
14.377981 847.93939 1323.6074 4291210678
16.774311 847.93939 1323.6074 4291539899
19.170643 847.93939 1323.6074 4291014070
21.566973 847.93939 1323.6074 4290948277
-55.115597 849.77142 1325.1521 4291472060
-52.719265 849.77142 1325.1521 4291277245
-50.322937 849.77142 1325.1521 4291277245
-46.728439 849.77142 1325.1521 4290882485
-43.133945 849.77142 1325.1521 4290554312
-40.737614 849.77142 1325.1521 4289567417
-38.341286 849.77142 1325.1521 4287201423
-34.746788 849.77142 1325.1521 4286673789
-31.152294 849.77142 1325.1521 4287593602
-28.755962 849.77142 1325.1521 4287987325
-26.359632 849.77142 1325.1521 4289368978
-22.765137 849.77142 1325.1521 4289567141
-19.170643 849.77142 1325.1521 4290223521
-16.774311 849.77142 1325.1521 4290223521
-14.377981 849.77142 1325.1521 4289633710
-10.783486 849.77142 1325.1521 4289831346
-7.1889906 849.77142 1325.1521 4289831346
-4.7926607 849.77142 1325.1521 4290683039
-2.3963304 849.77142 1325.1521 4290880674
16.774311 849.77142 1325.1521 4290881967
23.963303 849.77142 1325.1521 4290948275
1.2027524 845.4668 1328.0627 4291011506
4.8110094 845.4668 1328.0627 4291274926
7.2165136 845.4668 1328.0627 4291603891
12.027523 845.4668 1328.0627 4291210432
-55.115597 851.60339 1326.6968 4291342266
-52.719265 851.60339 1326.6968 4291277506
-50.322937 851.60339 1326.6968 4291606471
-47.926605 851.60339 1326.6968 4290947510
-40.737614 851.60339 1326.6968 4289961147
-21.566973 851.60339 1326.6968 4290224066
-19.170643 851.60339 1326.6968 4289960363
-16.774311 851.60339 1326.6968 4289894570
-14.377981 851.60339 1326.6968 4289961649
-11.981651 851.60339 1326.6968 4290290613
-7.1889906 851.60339 1326.6968 4290422198
-52.719265 853.43542 1328.2416 4289830062
-50.322937 853.43542 1328.2416 4290356406
-47.926605 853.43542 1328.2416 4290552232
-7.1889906 853.43542 1328.2416 4291012533
1.2027524 847.30579 1329.6134 4291274160
4.8110094 847.30579 1329.6134 4291274678
7.2165136 847.30579 1329.6134 4291472058
9.6220188 847.30579 1329.6134 4291210950
13.230275 847.30579 1329.6134 4290816183
19.244038 847.30579 1329.6134 4290685106
21.649542 847.30579 1329.6134 4291014070
-45.704586 849.14484 1331.1641 4291013303
-43.299084 849.14484 1331.1641 4290750662
-37.285324 849.14484 1331.1641 4288185251
-33.677063 849.14484 1331.1641 4288645520
-31.271559 849.14484 1331.1641 4289237658
-28.866055 849.14484 1331.1641 4289434271
-25.257797 849.14484 1331.1641 4289960627
-9.6220188 849.14484 1331.1641 4290290611
-4.8110094 849.14484 1331.1641 4290816426
-2.4055047 849.14484 1331.1641 4291013805
2.4055047 849.14484 1331.1641 4291209653
4.8110094 849.14484 1331.1641 4291012801
7.2165136 849.14484 1331.1641 4291210180
9.6220188 849.14484 1331.1641 4291079373
13.230275 849.14484 1331.1641 4290619063
16.838531 849.14484 1331.1641 4290882219
19.244038 849.14484 1331.1641 4290816694
21.649542 849.14484 1331.1641 4291079866
24.055046 849.14484 1331.1641 4290816696
-50.322937 856.18347 1330.5586 4290487737
-47.926605 856.18347 1330.5586 4290618796
-45.704586 850.98389 1332.7146 4290749867
-43.299084 850.98389 1332.7146 4290749629
-40.893578 850.98389 1332.7146 4290289078
-37.285324 850.98389 1332.7146 4290092201
-33.677063 850.98389 1332.7146 4289829799
-31.271559 850.98389 1332.7146 4289829799
-28.866055 850.98389 1332.7146 4290091933
-25.257797 850.98389 1332.7146 4290092197
-21.649542 850.98389 1332.7146 4290092205
-19.244038 850.98389 1332.7146 4289697177
-16.838531 850.98389 1332.7146 4290157728
-13.230275 850.98389 1332.7146 4290880683
-9.6220188 850.98389 1332.7146 4290749617
-4.8110094 850.98389 1332.7146 4290816694
-2.4055047 850.98389 1332.7146 4291013816
14.433027 850.98389 1332.7146 4290751153
16.838531 850.98389 1332.7146 4290948275
19.244038 850.98389 1332.7146 4290817207
21.649542 850.98389 1332.7146 4290817207
-45.704586 852.82288 1334.2653 4290684322
-43.299084 852.82288 1334.2653 4290618296
-40.893578 852.82288 1334.2653 4290486709
-37.285324 852.82288 1334.2653 4290420412
-33.677063 852.82288 1334.2653 4290683318
-25.257797 852.82288 1334.2653 4290749347
-21.649542 852.82288 1334.2653 4290749602
-19.244038 852.82288 1334.2653 4290684576
-16.838531 852.82288 1334.2653 4291013285
-13.230275 852.82288 1334.2653 4290948264
-9.6220188 852.82288 1334.2653 4290815924
-7.2165136 852.82288 1334.2653 4290947510
0.80489296 847.91699 1336.6688 4290948024
4.8293576 848.53235 1337.1876 4290882753
7.2440367 848.53235 1337.1876 4290882753
9.6587152 848.53235 1337.1876 4290948296
12.073395 848.53235 1337.1876 4290750660
-45.704586 854.66193 1335.8159 4290947771
-43.299084 854.66193 1335.8159 4290816190
-40.893578 854.66193 1335.8159 4290289846
-37.285324 854.66193 1335.8159 4290748852
-19.244038 854.66193 1335.8159 4290816444
-16.838531 854.66193 1335.8159 4290947773
-14.433027 854.66193 1335.8159 4291014068
-45.704586 856.50098 1337.3665 4290948557
-43.299084 856.50098 1337.3665 4290947775
-40.893578 856.50098 1337.3665 4290816190
