# .PCD v0.7 - Point Cloud Data file format
VERSION 0.7
FIELDS x y z rgb
SIZE 4 4 4 4
TYPE F F F U
COUNT 1 1 1 1
WIDTH 1155
HEIGHT 1
VIEWPOINT 0 0 0 1 0 0 0
POINTS 1155
DATA ascii
-54.825687 844.92255 1241.2738 4283644501
-52.541283 844.92255 1241.2738 4284236894
-50.256882 844.92255 1241.2738 4284435291
-57.293579 844.58984 1246.2255 4283582803
-52.710091 844.58984 1246.2255 4284958577
-49.272476 844.58984 1246.2255 4285221724
-57.522934 844.62964 1252.7991 4283053124
-55.222019 843.75006 1252.0575 4283575875
-52.921101 843.75006 1252.0575 4285220957
-49.469727 843.75006 1252.0575 4286466647
-23.431192 813.91437 1256.9856 4285812578
-23.357798 819.61542 1256.5604 4284037964
-23.431192 815.70569 1258.496 4284561757
-23.357798 821.40112 1258.066 4283645518
-23.357798 823.18689 1259.5718 4282725940
-18.686239 823.18689 1259.5718 4284893525
-16.350458 823.18689 1259.5718 4286274922
-14.014679 823.18689 1259.5718 4286996080
-10.511009 823.18689 1259.5718 4291998410
-7.0073395 823.18689 1259.5718 4293513453
-55.442204 842.92438 1257.9015 4284294224
-53.132111 842.92438 1257.9015 4285741670
-16.902752 759.92236 1262.474 4282463554
-14.488073 759.92236 1262.474 4283182916
-16.838531 768.2276 1262.9366 4282529620
-16.594496 796.86664 1262.2317 4287198311
-14.223853 796.86664 1262.2317 4287657890
-11.853211 796.86664 1262.2317 4289697216
-23.614679 803.17438 1261.0101 4286536563
-18.891743 803.17438 1261.0101 4285879664
-16.530275 803.17438 1261.0101 4286537850
-14.168807 803.17438 1261.0101 4287391885
-22.433945 804.97974 1262.5323 4286142068
-18.891743 804.97974 1262.5323 4285747312
-16.530275 804.97974 1262.5323 4286471035
-14.168807 804.97974 1262.5323 4287916171
-11.80734 804.97974 1262.5323 4293574369
-21.170643 811.25244 1261.2811 4286273129
-18.818348 811.25244 1261.2811 4285813358
-16.466055 811.25244 1261.2811 4285879151
-35.284405 813.05078 1262.7975 4283714132
-25.875229 813.05078 1262.7975 4283318350
-21.170643 813.05078 1262.7975 4286469755
-18.818348 813.05078 1262.7975 4286142572
-16.466055 813.05078 1262.7975 4285879401
-14.113762 813.05078 1262.7975 4286604157
-25.774311 817.49701 1260.0063 4282729034
-21.088074 817.49701 1260.0063 4286406512
-18.744955 817.49701 1260.0063 4286274412
-16.401834 817.49701 1260.0063 4285550433
-14.058716 817.49701 1260.0063 4285945963
-11.715596 817.49701 1260.0063 4292459470
-28.117432 819.28833 1261.5167 4283582805
-25.774311 819.28833 1261.5167 4283188047
-21.088074 819.28833 1261.5167 4284895842
-18.744955 819.28833 1261.5167 4285484656
-16.401834 819.28833 1261.5167 4285813621
-14.058716 819.28833 1261.5167 4286274412
-10.544037 819.28833 1261.5167 4292263374
-7.0293579 819.28833 1261.5167 4293580776
-25.693579 824.9726 1261.0774 4283122493
-22.189907 824.9726 1261.0774 4283187257
-18.686239 824.9726 1261.0774 4283975501
-16.350458 824.9726 1261.0774 4285488740
-14.014679 824.9726 1261.0774 4286471787
-10.511009 824.9726 1261.0774 4291407036
-7.0073395 824.9726 1261.0774 4293710564
-4.6715598 824.9726 1261.0774 4293317866
-2.3357799 824.9726 1261.0774 4292989157
-25.693579 826.7583 1262.583 4283254090
-22.189907 826.7583 1262.583 4282990652
-18.686239 826.7583 1262.583 4282857799
-16.350458 826.7583 1262.583 4283910743
-14.014679 826.7583 1262.583 4286077813
-10.511009 826.7583 1262.583 4290881220
-7.0073395 826.7583 1262.583 4293118443
-4.6715598 826.7583 1262.583 4293185507
-2.3357799 826.7583 1262.583 4292790750
-25.592661 834.71423 1262.7512 4283581792
-23.266054 834.71423 1262.7512 4283384145
-19.776146 834.71423 1262.7512 4283581275
-10.469725 834.71423 1262.7512 4289501594
-6.9798164 834.71423 1262.7512 4292724923
-4.6532111 834.71423 1262.7512 4292198329
-53.300919 842.62817 1262.8839 4287057503
-50.21101 841.44702 1261.8881 4286268241
-23.174313 842.62817 1262.8839 4282987600
-19.698166 842.62817 1262.8839 4283712080
-16.222019 842.62817 1262.8839 4286146921
-13.904587 842.62817 1262.8839 4286212701
-10.042202 842.0376 1262.3859 4285818467
-6.9522934 841.74231 1262.137 4283515975
-4.6348624 841.74231 1262.137 4282200922
-2.3174312 841.74231 1262.137 4281740628
-21.814678 755.28107 1265.1007 4284498515
-19.390825 755.28107 1265.1007 4283645518
-16.966972 755.28107 1265.1007 4285750895
-14.543119 755.28107 1265.1007 4286210955
-16.902752 761.76837 1264.0305 4281674558
-19.31743 763.61444 1265.587 4285096324
-16.902752 763.61444 1265.587 4282135638
-14.488073 763.61444 1265.587 4280755230
-19.244038 770.06665 1264.4873 4284041598
-16.838531 770.06665 1264.4873 4282331237
-14.433027 770.06665 1264.4873 4281411107
-14.322936 786.53699 1265.2943 4287660440
-11.93578 786.53699 1265.2943 4289305009
-16.658716 792.35016 1264.9637 4287068273
-14.278899 792.35016 1264.9637 4287986854
-11.899082 792.35016 1264.9637 4289697216
-26.077065 800.49133 1265.2881 4286077822
-21.335779 799.58514 1264.5239 4286207343
-18.965137 798.67896 1263.7599 4286077279
-16.594496 798.67896 1263.7599 4286801259
-14.223853 798.67896 1263.7599 4287064719
-11.853211 799.58514 1264.5239 4289893047
-25.976147 806.7851 1264.0547 4285748582
-21.25321 806.7851 1264.0547 4286273129
-18.891743 806.7851 1264.0547 4285879155
-16.530275 806.7851 1264.0547 4286273657
-14.168807 806.7851 1264.0547 4287261571
-11.80734 806.7851 1264.0547 4293380320
-34.241287 808.59045 1265.5769 4283517012
-28.337614 808.59045 1265.5769 4284168267
-25.976147 808.59045 1265.5769 4285615713
-14.168807 808.59045 1265.5769 4286999174
-11.80734 808.59045 1265.5769 4293183972
-35.284405 814.84912 1264.3138 4282597443
-31.755962 814.84912 1264.3138 4283253072
-28.227524 814.84912 1264.3138 4283321171
-9.409174 814.84912 1264.3138 4292528606
-35.284405 816.64746 1265.8301 4282989641
-31.755962 816.64746 1265.8301 4283449952
-28.117432 821.07971 1263.0272 4283714128
-25.774311 821.07971 1263.0272 4283121991
-21.088074 821.07971 1263.0272 4283580993
-4.6862388 821.07971 1263.0272 4292988905
-2.3431194 821.07971 1263.0272 4292857319
-35.14679 822.87103 1264.5376 4283910754
-31.632111 822.87103 1264.5376 4283977047
-28.117432 822.87103 1264.5376 4283977801
-31.533026 829.43689 1264.8416 4283911261
-28.029358 829.43689 1264.8416 4283780186
-25.693579 829.43689 1264.8416 4283319636
-22.189907 829.43689 1264.8416 4283253324
-18.686239 829.43689 1264.8416 4283513941
-16.350458 829.43689 1264.8416 4283448148
-14.014679 829.43689 1264.8416 4284499558
-10.511009 829.43689 1264.8417 4290749898
-7.0073395 829.43689 1264.8416 4293250292
-4.6715598 829.43689 1264.8416 4293184481
-2.3357799 829.43689 1264.8416 4293052894
-25.592661 836.49298 1264.251 4283513935
-23.266054 836.49298 1264.251 4283515985
-19.776146 836.49298 1264.251 4283712086
-16.286238 836.49298 1264.251 4284171358
-13.959633 836.49298 1264.251 4284895571
-10.469725 836.49298 1264.251 4285422955
-6.9798164 836.49298 1264.251 4284568685
-4.6532111 836.49298 1264.251 4283449200
-2.3266056 836.49298 1264.251 4281409617
-34.899082 838.27167 1265.7507 4284952642
-31.409174 838.27167 1265.7507 4283970888
-27.919266 838.27167 1265.7507 4283315770
-25.592661 838.27167 1265.7507 4283447612
-23.266054 838.27167 1265.7507 4283449688
-19.776146 838.27167 1265.7507 4283581530
-16.286238 838.27167 1265.7507 4285358197
-13.959633 838.27167 1265.7507 4285423199
-11.633027 838.27167 1265.7507 4285752164
-23.174313 844.3999 1264.3777 4283446860
-19.698166 844.3999 1264.3777 4283908179
-16.222019 844.3999 1264.3777 4285817457
-13.904587 844.3999 1264.3777 4286211670
-10.42844 844.3999 1264.3777 4286739312
-6.9522934 844.3999 1264.3777 4283845461
-23.174313 846.17163 1265.8716 4286674577
-19.698166 846.17163 1265.8716 4285095537
-13.904587 846.17163 1265.8716 4284632652
-11.587156 846.17163 1265.8716 4286474856
-31.510092 758.98718 1268.2257 4281938746
-29.086239 758.98718 1268.2257 4283187034
-25.046484 758.36945 1267.705 4284832363
-21.814678 758.06067 1267.4445 4283977307
-19.390825 758.06067 1267.4445 4283714138
-13.331193 758.06067 1267.4445 4285355882
-28.976147 767.30652 1268.7001 4285949041
-24.951683 766.69116 1268.1813 4283384139
-21.732111 766.38348 1267.9219 4284831841
-19.31743 765.46045 1267.1436 4285490048
-12.878288 766.07587 1267.6625 4280557333
-9.6587152 767.30652 1268.7001 4278191104
-21.649542 773.74469 1267.5885 4282069504
-19.244038 772.8252 1266.8132 4282988627
-16.838531 772.8252 1266.8132 4283646814
-13.230275 772.82513 1266.8132 4284300879
-22.765137 781.98688 1267.9979 4287922817
-19.170643 781.98688 1267.9979 4287790967
-16.774311 781.98688 1267.9979 4288119676
-14.377981 781.98688 1267.9979 4288250501
-10.783486 781.98688 1267.9979 4289894548
-7.1889906 781.98688 1267.9979 4289762441
-4.7926607 781.07086 1267.2256 4289302171
-2.3963304 780.15485 1266.4532 4289762722
0 780.15485 1266.4532 4289632415
-16.710093 788.36194 1266.8331 4287069335
-14.322936 788.36194 1266.8331 4287856550
-11.93578 788.36194 1266.8331 4289435582
-4.774312 788.36194 1266.8331 4289698201
-21.484404 790.18695 1268.3719 4286736521
-19.097248 790.18695 1268.3719 4286805102
-9.548624 790.18695 1268.3719 4289500316
-7.161468 790.18695 1268.3719 4289631902
-4.774312 790.18695 1268.3719 4289697695
-21.418348 794.16956 1266.4978 4287196798
-19.038532 794.16956 1266.4978 4286869602
-9.5192661 794.16956 1266.4978 4289631904
-26.177982 795.98895 1268.0319 4286340478
-23.798164 795.98895 1268.0319 4286799482
-9.5192661 795.98895 1268.0319 4289039252
-28.447706 802.30371 1266.8162 4283380811
-26.077065 802.30371 1266.8162 4285749359
-34.374313 804.11609 1268.3444 4283187026
-30.818348 804.11609 1268.3444 4282660936
-28.447706 804.11609 1268.3444 4283577413
-23.706423 804.11609 1268.3444 4286404715
-40.144955 812.20117 1268.6213 4283977297
-37.783485 811.29846 1267.8602 4283385935
-33.060551 810.39581 1267.0991 4283582803
-30.699083 810.39581 1267.0991 4283319887
-28.337614 810.39581 1267.0991 4283515985
-11.80734 810.39581 1267.0991 4293183457
-7.0844035 812.20117 1268.6213 4293317866
-35.284405 818.44586 1267.3464 4284237396
-31.755962 818.44586 1267.3464 4284041044
-37.636696 820.2442 1268.8628 4283910754
-35.14679 824.66235 1266.048 4283583087
-31.632111 824.66235 1266.048 4283583838
-28.117432 824.66235 1266.048 4283912277
-35.14679 826.45374 1267.5583 4283844989
-46.715595 833.90118 1268.6057 4286205283
-42.044037 833.90118 1268.6057 4286269532
-37.372478 833.0083 1267.8529 4285417821
-35.036697 833.0083 1267.8529 4284825684
-31.533028 833.0083 1267.8529 4284433489
-28.029358 833.0083 1267.8529 4283909724
-16.350458 832.11548 1267.1001 4282857301
-14.014679 832.11548 1267.1001 4284106839
-2.3357799 832.11548 1267.1001 4289961367
0 833.90118 1268.6057 4279967032
-55.838531 841.8291 1268.7502 4288771730
-52.348625 841.8291 1268.7502 4288969368
-48.858715 840.93976 1268.0004 4288113028
-44.205505 841.8291 1268.7502 4288511132
-41.878899 841.8291 1268.7502 4287986071
-34.899082 840.93976 1268.0004 4285876337
-31.409176 840.93976 1268.0004 4284694097
-27.919266 840.93976 1268.0004 4283708244
-25.592661 840.93976 1268.0004 4283313486
-4.6532111 841.8291 1268.7502 4282860381
-2.3266056 841.8291 1268.7502 4283978863
-18.53945 847.9433 1267.3655 4285222293
-9.7394495 753.78827 1271.6902 4288646817
-7.3045874 753.78827 1271.6902 4288976039
-4.8697248 753.78827 1271.6902 4289630880
-2.4348624 753.78827 1271.6902 4289696673
-31.510092 760.84021 1269.7881 4283516499
-29.086239 760.84021 1269.7881 4283649102
-25.450459 760.84021 1269.7881 4284108895
-21.814678 760.84021 1269.7881 4285227131
-12.119267 760.84021 1269.7881 4280755230
-33.933945 762.6933 1271.3506 4282989399
-31.510092 762.6933 1271.3506 4284042087
-29.086239 762.6933 1271.3506 4284107087
-26.662386 762.6933 1271.3506 4283909708
-9.6954126 762.6933 1271.3506 4282594098
-4.8477063 762.6933 1271.3506 4289040560
-28.976147 770.07556 1271.0349 4287724942
-25.35413 770.07562 1271.035 4282528554
-21.732111 769.15259 1270.2567 4283449895
-9.6587152 770.07556 1271.0349 4284299348
-7.2440367 770.07556 1271.0349 4285746538
-4.8293576 770.07556 1271.0349 4287787374
-25.257797 775.58368 1269.1392 4283118628
-21.649542 775.58368 1269.1392 4284235788
-19.244038 775.58368 1269.1392 4284893019
-16.838531 775.58368 1269.1392 4286406514
-13.230275 775.58368 1269.1392 4288709739
-9.6220188 775.58368 1269.1392 4290024843
-7.2165136 775.58368 1269.1392 4289893514
-4.8110094 775.58368 1269.1392 4289630369
-2.4055047 775.58368 1269.1392 4289827748
-28.866055 777.42273 1270.6898 4283650176
-25.257797 777.42273 1270.6898 4285161082
-21.649542 777.42273 1270.6898 4287987847
-19.244038 777.42273 1270.6898 4288052607
-16.838531 777.42273 1270.6898 4288578951
-13.230275 777.42273 1270.6898 4289302676
-9.6220188 777.42273 1270.6898 4289763224
-7.2165136 777.42273 1270.6898 4289500053
-22.765137 784.73486 1270.3149 4286608269
-19.170643 784.73486 1270.3149 4285556599
-16.774311 783.81885 1269.5426 4287004291
-9.5853214 784.73486 1270.3149 4289566354
-7.1889906 784.73486 1270.3149 4289566611
-4.7926607 783.81885 1269.5426 4289170833
-2.3963304 784.73486 1270.3149 4289697689
-28.645872 793.83698 1271.4495 4283248464
-26.258715 792.01196 1269.9108 4286603907
-23.871559 792.01196 1269.9108 4287131005
-7.161468 792.92444 1270.6802 4289368474
-4.774312 792.92444 1270.6802 4289171361
-2.387156 792.92444 1270.6802 4288842396
-28.557798 797.80835 1269.5659 4283314516
-9.5192661 797.80835 1269.5659 4290483868
-30.937614 799.62775 1271.1001 4282594629
-9.5192661 799.62775 1271.1001 4292789975
-40.300919 805.92847 1269.8724 4284567640
-37.930275 805.92847 1269.8724 4283648085
-30.818348 805.92847 1269.8724 4283122254
-40.300919 807.74084 1271.4006 4284306262
-9.4825687 807.74084 1271.4006 4293318872
-40.144955 814.90918 1270.9047 4283778896
-37.783485 814.90918 1270.9047 4283712080
-39.988991 822.04254 1270.3792 4283977050
-37.636696 822.94171 1271.1372 4283977082
1.1761467 822.94171 1271.1372 4292988386
-39.833027 830.03638 1270.5792 4285155925
-37.48991 828.245 1269.0688 4284108147
-35.14679 828.245 1269.0688 4284042354
1.1715597 829.14069 1269.824 4288386224
4.6862388 830.03638 1270.5792 4285227114
-46.715595 835.68689 1270.1115 4285940049
-43.211929 835.68689 1270.1115 4285742926
-39.708256 835.68689 1270.1115 4285545291
-37.372478 835.68689 1270.1115 4285544780
1.16789 835.68689 1270.1115 4284168533
4.6715598 835.68689 1270.1115 4289041530
-46.715595 837.47266 1271.6172 4286927727
-43.211929 837.47266 1271.6172 4286071645
-39.708256 837.47266 1271.6172 4286005079
-37.372478 837.47266 1271.6172 4285806945
1.16789 837.47266 1271.6172 4289233294
4.6715598 837.47266 1271.6172 4290819286
-58.165138 844.49719 1270.9999 4291933118
-55.838531 845.38654 1271.7498 4291934128
-52.348621 844.49719 1270.9999 4292263116
-48.858715 844.49719 1270.9999 4292000727
-41.878899 844.49719 1270.9999 4291870678
-37.225689 843.60779 1270.25 4290818000
-34.899082 844.49719 1270.9999 4290817991
-31.409174 844.49713 1270.9999 4290882486
-27.919266 844.49719 1270.9999 4290355123
-25.592661 844.49719 1270.9999 4289894572
-23.266054 845.38654 1271.7498 4288512695
-20.939449 845.38654 1271.7498 4287197091
-16.286238 844.49719 1270.9999 4284172143
-13.959633 845.38654 1271.7498 4285223004
-10.081958 844.79364 1271.2499 4286278266
-6.9798164 844.49719 1270.9999 4284042591
-4.6532111 844.49719 1270.9999 4282858825
-2.3266056 844.49719 1270.9999 4282990411
-36.522934 755.64972 1273.2598 4283385388
-34.088074 755.64972 1273.2598 4282925641
-12.174312 755.64972 1273.2598 4286344830
-9.7394495 755.64972 1273.2598 4287987354
-7.3045874 755.64972 1273.2598 4289434800
-4.8697248 755.64972 1273.2598 4289630617
-36.522934 757.51123 1274.8293 4283055432
-34.088074 757.51123 1274.8293 4282924105
-9.7394495 757.51123 1274.8293 4284827480
-7.3045874 757.51123 1274.8293 4289498783
-4.8697248 757.51123 1274.8293 4289630378
-2.4348624 757.51123 1274.8293 4289433256
-33.933945 764.54633 1272.913 4285027439
-31.510092 764.54633 1272.913 4286277506
-7.2715597 764.54633 1272.913 4281941800
-4.8477063 764.54633 1272.913 4286078805
-2.4238532 764.54633 1272.913 4289697164
-33.933945 766.39941 1274.4755 4283910017
-31.510092 766.39941 1274.4755 4287462839
-31.390825 772.8446 1273.3698 4286869391
-28.976147 772.8446 1273.3698 4286804352
-33.805504 774.69067 1274.9263 4281937451
-31.390825 774.69067 1274.9263 4284305999
-28.866055 779.26178 1272.2404 4283583044
-26.46055 779.26178 1272.2404 4285227612
-2.4055047 779.26178 1272.2404 4289762720
-31.271559 781.10083 1273.791 4281741875
-28.866055 781.10083 1273.791 4282461496
-26.46055 781.10083 1273.791 4287527557
-28.755962 787.48291 1272.6321 4283314257
-26.359632 787.48291 1272.6321 4287064458
-23.963303 787.48291 1272.6321 4287065487
-2.3963304 787.48291 1272.6321 4289631902
-34.746788 789.31494 1274.1768 4283055688
-31.152294 789.31494 1274.1768 4282266434
-28.755962 789.31494 1274.1768 4283248464
0 789.31494 1274.1768 4289367461
-42.968807 797.48694 1274.5271 4284104789
-40.58165 797.48694 1274.5271 4284038995
-38.194496 797.48694 1274.5271 4283318102
-34.2159 796.8786 1274.0142 4282858056
-31.033028 795.66199 1272.9883 4282464058
-7.161468 796.57446 1273.7577 4291472567
-4.774312 795.66199 1272.9883 4289893025
-2.387156 795.66199 1272.9883 4289827232
-42.836697 802.35681 1273.4011 4284435539
-40.456882 801.44714 1272.6342 4284171853
-38.077065 801.44714 1272.6342 4283515481
-9.5192661 802.35681 1273.4011 4293778409
-42.671558 809.55322 1272.9287 4284109140
-42.671558 811.3656 1274.4569 4283845711
-2.3706422 811.3656 1274.4569 4292922851
-40.144955 817.61731 1273.188 4283910754
1.1807339 817.61731 1273.188 4292659673
-42.50642 819.42261 1274.7102 4283911256
-47.045872 827.43756 1274.9281 4285616498
-43.517433 827.43756 1274.9281 4285550695
-39.988991 825.63922 1273.4117 4284370009
-39.833027 831.8277 1272.0896 4286203738
2.3431194 831.8277 1272.0896 4283388524
4.6862388 831.8277 1272.0896 4287197802
7.0293579 833.61902 1273.6 4291936678
9.3724775 833.61902 1273.6 4290951357
-58.394497 839.25836 1273.1228 4288705672
-46.715595 839.25836 1273.1228 4288642718
-39.708256 839.25836 1273.1228 4287591313
-37.372478 839.25836 1273.1228 4287129747
1.16789 839.25836 1273.1228 4289498810
4.6715598 839.25836 1273.1228 4291211995
-60.730274 841.04407 1274.6284 4291866817
-56.058716 841.04407 1274.6284 4291801022
-46.715595 841.04407 1274.6284 4291804114
-44.379818 841.04407 1274.6284 4291869907
-39.708256 841.04407 1274.6284 4291214032
0 841.04407 1274.6284 4285222002
4.6715598 841.04407 1274.6284 4285687482
-52.348625 847.16522 1273.2495 4290749628
-48.858715 848.05457 1273.9994 4292063941
-46.532108 847.16522 1273.2495 4291540928
-23.266054 847.16522 1273.2495 4291540174
-19.776146 847.16522 1273.2495 4290684357
-16.286238 847.16522 1273.2495 4290289348
-13.959633 847.16522 1273.2495 4288122777
-10.469725 848.05463 1273.9994 4286475909
-6.9798164 848.05457 1273.9994 4283975790
-4.6532111 848.05457 1273.9994 4283056707
-2.3266056 848.05457 1273.9994 4283254086
-43.827522 761.23413 1277.9684 4287724922
-41.392662 760.30341 1277.1836 4288645765
-37.740364 760.30334 1277.1836 4284634204
-7.3045874 759.37268 1276.3989 4288252552
-36.3578 770.10547 1277.6003 4281279798
-33.933945 769.17896 1276.8191 4283119702
-31.510092 768.25244 1276.038 4287594395
-33.805504 776.53674 1276.4828 4281612113
-31.390825 776.53674 1276.4828 4283059559
0 776.53674 1276.4828 4289696925
-31.271559 782.93982 1275.3417 4281543988
-28.866055 782.93982 1275.3417 4282724686
-26.46055 782.93982 1275.3417 4287593112
0 782.93982 1275.3417 4289631134
-55.326607 784.77881 1276.8922 4283186502
-52.921101 784.77881 1276.8922 4282728532
-49.312843 784.77881 1276.8922 4283255121
-45.704586 784.77881 1276.8922 4282531900
-43.299084 784.77881 1276.8922 4282463043
-40.893578 784.77881 1276.8922 4282989387
-37.285324 784.77881 1276.8922 4283120734
-33.677063 784.77881 1276.8922 4282331707
-31.271559 784.77881 1276.8922 4282134584
1.2027524 784.77881 1276.8922 4289696927
9.6220188 784.77881 1276.8922 4289434271
13.230275 784.77881 1276.8922 4289302158
-43.133945 791.14691 1275.7214 4284041044
-40.737614 791.14691 1275.7214 4283975251
-38.341286 791.14691 1275.7214 4283318352
-34.746788 791.14691 1275.7214 4283187019
-31.152294 791.14691 1275.7214 4282463293
0 791.14691 1275.7214 4288973205
11.981651 791.14691 1275.7214 4292460233
-43.133945 792.97894 1277.2662 4284039247
-40.737614 792.97894 1277.2662 4283907661
-38.341286 792.97894 1277.2662 4283383382
-35.944954 792.97894 1277.2662 4283185746
-45.355965 799.31195 1276.0659 4284631398
-7.161468 799.31195 1276.0659 4293777376
-4.774312 799.31195 1276.0659 4293449429
-2.387156 799.31195 1276.0659 4293581015
-45.355965 801.13696 1277.6047 4284108134
-7.161468 801.13696 1277.6047 4293384684
-4.774312 801.13696 1277.6047 4293187806
-2.387156 801.13696 1277.6047 4293055964
-42.836697 805.08594 1275.7023 4284174933
-4.7596331 806.90527 1277.2363 4293317094
-2.3798165 806.90527 1277.2363 4293185507
-45.042202 814.08417 1276.7491 4283910753
-42.671558 814.08417 1276.7491 4283976027
1.1853211 813.17798 1275.9851 4292594398
-42.50642 821.22803 1276.2325 4284304212
-40.144955 821.22803 1276.2325 4284436054
-47.229359 823.03333 1277.7548 4284566888
-42.50642 823.03333 1277.7548 4284501595
-44.693577 829.23596 1276.4443 4286073697
7.0293579 835.4104 1275.1105 4289898184
7.0293579 837.20172 1276.6208 4287922345
9.3724775 837.20172 1276.6208 4285228707
-60.730274 842.82983 1276.1342 4292131005
-46.715595 842.82983 1276.1342 4291869898
-44.379818 842.82983 1276.1342 4291738311
-39.708256 842.82983 1276.1342 4292001749
-37.372478 842.82983 1276.1342 4291409606
0 842.82983 1276.1342 4283648098
-58.394497 844.61554 1277.6399 4291867077
-56.058716 844.61554 1277.6399 4291210950
-43.211929 844.61554 1277.6399 4291408834
-39.708256 844.61554 1277.6399 4291671499
-37.372478 844.61554 1277.6399 4291145157
-35.036697 844.61554 1277.6399 4291539915
-31.533028 844.61554 1277.6399 4291475399
-28.029358 844.61554 1277.6399 4291015113
-25.693579 844.61554 1277.6399 4291146700
-43.992661 754.737 1279.0303 4289237660
-40.326607 754.737 1279.0303 4288251794
-43.992661 756.60547 1280.6058 4288381819
-2.4440367 756.60547 1280.6058 4289172146
-43.827522 763.09564 1279.538 4287724670
-41.392662 763.09564 1279.538 4288316808
-37.740364 763.09564 1279.538 4284569437
-2.4348624 763.09564 1279.538 4289696664
-49.688992 771.95856 1279.1628 4286938526
-46.053211 772.88513 1279.9441 4287068563
-41.205505 772.88513 1279.9441 4288578949
-37.569725 772.88513 1279.944 4284304205
2.4238532 773.81165 1280.7252 4289631132
4.8477063 773.81165 1280.7252 4289368228
7.2715597 773.81165 1280.7252 4289565607
9.6954126 773.81165 1280.7252 4289500327
-45.878899 778.38275 1278.0393 4288908447
-41.049541 778.38275 1278.0393 4289434008
-37.427521 778.38275 1278.0393 4284896619
-33.805504 778.38275 1278.0393 4281610033
1.2073394 778.38275 1278.0393 4289367964
-53.122936 780.22882 1279.5958 4286539881
-49.500916 780.22882 1279.5958 4287264120
-45.878899 780.22882 1279.5958 4286869877
-43.464222 780.22882 1279.5958 4287132799
-41.049541 780.22882 1279.5958 4287724937
-37.427521 780.22882 1279.5958 4285094468
-33.805504 780.22882 1279.5958 4281675830
2.4146788 780.22882 1279.5958 4289631134
4.8293576 780.22882 1279.5958 4289500053
7.2440367 780.22882 1279.5958 4289697175
9.6587152 780.22882 1279.5958 4289500579
12.073395 780.22882 1279.5958 4289237408
-57.732109 787.53735 1279.2183 4283253832
-55.326607 787.53735 1279.2183 4283253576
-52.921101 787.53735 1279.2183 4283385422
-49.312843 787.53741 1279.2183 4283844945
-45.704586 787.53735 1279.2183 4283712332
-43.299084 786.61786 1278.4429 4283252046
-40.893578 786.61786 1278.4429 4283317839
-38.488075 786.61786 1278.4429 4283384647
2.4055047 787.53735 1279.2183 4289433504
4.8110094 787.53735 1279.2183 4289367706
7.2165136 787.53735 1279.2183 4289696671
9.6220188 787.53735 1279.2183 4290420652
12.027523 786.61786 1278.4429 4289367965
-45.530273 794.81097 1278.8109 4284300368
-4.7926607 794.81097 1278.8109 4292722372
-2.3963304 794.81097 1278.8109 4293709523
-47.926605 796.64294 1280.3556 4284894313
-46.549541 802.96198 1279.1434 4284042843
-7.161468 802.96198 1279.1434 4293516251
-4.774312 802.96198 1279.1434 4293449958
-2.387156 802.96198 1279.1434 4293120994
-46.549541 804.78699 1280.6823 4284042841
-45.216515 808.72467 1278.7704 4283911254
-4.7596331 808.72467 1278.7704 4293251560
-47.596329 810.54407 1280.3044 4284042593
-49.783485 818.61511 1280.5696 4284435802
-46.227524 817.70892 1279.8054 4284238948
7.0844035 826.6441 1280.7992 4291737262
9.4458714 826.6441 1280.7992 4290886623
9.409174 832.83264 1279.4771 4284247999
11.761468 834.63098 1280.9934 4287926220
2.3431194 838.99304 1278.1312 4286669448
7.0293579 838.99304 1278.1312 4284832429
9.3724775 838.99304 1278.1312 4285818457
2.3431194 840.78436 1279.6416 4283648098
4.6862388 840.78436 1279.6416 4283972964
7.0293579 840.78436 1279.6416 4287788958
10.544037 840.78436 1279.6416 4289831554
-58.394497 846.40125 1279.1455 4292392910
-56.058716 846.40125 1279.1455 4291470804
-52.555046 847.29419 1279.8983 4290942385
-49.051376 848.18701 1280.6511 4291399571
-46.715595 846.40125 1279.1455 4291867319
-43.211929 846.40125 1279.1455 4291670459
-39.708256 846.40125 1279.1455 4291670979
-37.372478 846.40125 1279.1455 4291473604
-35.036697 846.40125 1279.1455 4291539397
-28.029358 846.40125 1279.1455 4291079877
-25.693579 846.40125 1279.1455 4291211463
-22.189907 846.40125 1279.1455 4291211967
-18.686239 847.29413 1279.8983 4291343056
-16.350458 846.40125 1279.1455 4290685119
-14.014679 847.29413 1279.8983 4290223530
-10.511009 848.18701 1280.6511 4290684089
-7.0073395 848.18701 1280.6511 4289697970
-4.6715598 848.18701 1280.6511 4286086031
-2.3357799 848.18701 1280.6511 4282533465
-46.436699 758.474 1282.1813 4287592599
-46.436699 760.34247 1283.7567 4287593352
2.4440367 760.34247 1283.7567 4289566893
-43.827522 764.95709 1281.1075 4287659396
-41.392662 764.95709 1281.1075 4288317069
-37.740364 764.95709 1281.1075 4284240219
-48.697247 766.8186 1282.6771 4287463059
-46.262386 766.8186 1282.6771 4286805386
-43.827522 766.8186 1282.6771 4287395967
-41.392662 766.8186 1282.6771 4288185740
-38.957798 766.8186 1282.6771 4286477445
-53.324772 775.66467 1282.2877 4287130251
-49.688992 775.66467 1282.2877 4289368234
-43.629356 775.66467 1282.2877 4289302421
4.8477063 775.66467 1282.2877 4289434008
7.2715597 775.66467 1282.2877 4289697179
9.6954126 775.66467 1282.2877 4289500327
4.8293576 782.07483 1281.1523 4289631902
7.2440367 782.07483 1281.1523 4289500316
-45.704586 790.2959 1281.5442 4284104511
1.2027524 790.2959 1281.5442 4290550953
4.8110094 790.2959 1281.5442 4290879430
7.2165136 790.2959 1281.5442 4292063960
9.6220188 790.2959 1281.5442 4292724425
13.230275 790.2959 1281.5442 4293448660
-48.110092 792.13495 1283.0947 4284431955
1.2027524 792.13495 1283.0947 4293251548
4.8110094 792.13495 1283.0947 4293316062
7.2165136 792.13495 1283.0947 4293644771
9.6220188 792.13495 1283.0947 4293447908
13.230275 792.13495 1283.0947 4293317089
-52.719265 800.30701 1283.4451 4284304216
-50.322937 799.39099 1282.6726 4284566618
-47.926605 798.47498 1281.9003 4284173927
0 799.39099 1282.6726 4293054944
-47.743118 806.61194 1282.2211 4283977048
-52.517429 808.43701 1283.7599 4284106837
-50.130276 808.43701 1283.7599 4284370009
4.774312 808.43701 1283.7599 4292791513
7.161468 808.43701 1283.7599 4292725720
-47.596329 812.36346 1281.8385 4284371305
-52.355965 814.18286 1283.3726 4284304216
-49.976147 814.18286 1283.3726 4284501595
4.7596331 814.18286 1283.3726 4293250519
7.1394496 814.18286 1283.3726 4293316312
21.418348 814.18286 1283.3726 4289109683
-49.783485 820.42749 1282.0977 4284566620
-45.042202 820.42749 1282.0977 4284632681
11.80734 830.25482 1283.8436 4285169101
11.761468 836.42932 1282.5096 4289173900
-60.921101 842.57568 1281.1521 4291209403
1.1715597 842.57568 1281.1521 4282335319
4.6862388 842.57568 1281.1521 4284494920
7.0293579 842.57568 1281.1521 4290284447
10.544037 842.57568 1281.1521 4291605704
-31.632111 844.36707 1282.6625 4291410376
1.1715597 844.36707 1282.6625 4282861411
4.6862388 844.36707 1282.6625 4283644249
7.0293579 844.36707 1282.6625 4288710310
16.401834 844.36707 1282.6625 4285558714
-51.387157 849.97272 1282.1569 4291270047
-10.511009 849.97272 1282.1569 4291013564
-4.6715598 849.97272 1282.1569 4288646565
-49.06422 755.71381 1286.3942 4288184736
1.2266055 754.77606 1285.6035 4289435039
4.9064221 754.77606 1285.6035 4289171111
7.359633 755.71381 1286.3942 4289105317
-46.436699 762.21094 1285.3322 4287528852
-2.4440367 762.21094 1285.3322 4290154887
1.2220184 763.14526 1286.1199 4289566626
-52.349541 770.5415 1285.8162 4287854235
-48.697247 770.5415 1285.8162 4288776870
-43.827522 769.61078 1285.0314 4287394419
-57.952293 787.61298 1285.822 4283385681
-55.537613 787.61298 1285.822 4283319887
-53.122936 787.61298 1285.822 4284040011
-49.500916 787.61298 1285.822 4283907650
-52.921101 793.974 1284.6454 4284368975
-50.515594 793.974 1284.6454 4285092699
1.2027524 793.974 1284.6454 4293646304
4.8110094 793.974 1284.6454 4293645802
7.2165136 793.974 1284.6454 4293908974
9.6220188 793.974 1284.6454 4293448171
13.230275 793.974 1284.6454 4293185508
-55.326607 795.81299 1286.196 4283710798
-52.921101 795.81299 1286.196 4284434518
2.4055047 795.81299 1286.196 4293121248
4.8110094 795.81299 1286.196 4293186539
7.2165136 795.81299 1286.196 4293449454
9.6220188 795.81299 1286.196 4293185255
13.230275 795.81299 1286.196 4293119459
-52.719265 803.05505 1285.7621 4284237907
-50.322937 803.05505 1285.7621 4284303700
1.1981652 803.05505 1285.7621 4292988132
4.7926607 803.97107 1286.5344 4292988903
-52.517429 810.26196 1285.2987 4284435804
-50.130276 810.26196 1285.2987 4285027941
4.774312 810.26196 1285.2987 4292856524
7.161468 810.26196 1285.2987 4292922318
9.548624 812.08698 1286.8374 4293250530
14.322936 812.08698 1286.8374 4292987620
19.097248 812.08698 1286.8374 4290623178
4.7596331 816.91199 1285.6736 4290095544
7.1394496 816.91199 1285.6736 4289503664
9.5192661 817.82166 1286.4407 4284242814
14.278899 817.82166 1286.4407 4279899690
16.658716 817.82166 1286.4407 4280360241
19.038532 817.82166 1286.4407 4281411398
21.418348 816.91199 1285.6736 4284568428
11.853211 825.86462 1286.6821 4286543227
14.168807 833.86554 1286.8882 4289107105
16.530275 832.96289 1286.1271 4289699763
18.891743 833.86554 1286.8882 4288446079
14.113762 838.22766 1284.026 4288911509
16.466055 838.22766 1284.026 4283384897
18.818348 838.22766 1284.026 4284373117
14.113762 840.026 1285.5424 4290362091
16.466055 840.026 1285.5424 4284769686
18.818348 840.026 1285.5424 4282803286
-56.234863 847.05408 1284.9281 4291141064
-53.891743 847.94971 1285.6833 4291273420
-46.862385 846.15839 1284.1729 4291074470
-42.957184 846.75555 1284.6764 4291931334
-39.833027 847.05408 1284.9281 4292129747
-37.48991 847.05408 1284.9281 4291670998
-35.14679 846.15839 1284.1729 4291605456
-25.774311 846.15839 1284.1729 4291014850
-22.259632 846.15839 1284.1729 4290949307
-16.401834 847.05408 1284.9281 4290816200
-14.058716 847.94971 1285.6833 4291210680
-7.0293579 847.94971 1285.6833 4290290361
-2.3431194 847.94971 1285.6833 4284172642
0 846.15839 1284.1729 4282467159
4.6862388 846.15839 1284.1729 4283058789
-49.06422 757.58936 1287.9755 4288382612
0 757.58936 1287.9755 4289435050
4.9064221 757.58936 1287.9755 4289566893
7.359633 757.58936 1287.9755 4289501100
9.8128443 757.58936 1287.9755 4289499816
-49.06422 759.46484 1289.5569 4288252832
4.9064221 759.46484 1289.5569 4289436590
7.359633 759.46484 1289.5569 4289238954
9.8128443 759.46484 1289.5569 4289435050
2.4440367 765.94794 1288.4832 4289566622
-55.537613 790.38202 1288.1567 4283514696
-53.122936 789.45898 1287.3785 4284170317
-50.708256 789.45898 1287.3785 4284499026
-60.137615 797.65204 1287.7466 4284626280
-57.732109 797.65204 1287.7466 4284168028
-55.326607 797.65204 1287.7466 4284365408
2.4055047 797.65204 1287.7466 4293251812
4.8110094 797.65204 1287.7466 4293382896
7.2165136 797.65204 1287.7466 4293448945
9.6220188 797.65204 1287.7466 4293119460
13.230275 797.65204 1287.7466 4292988385
-57.732109 799.49109 1289.2972 4284431707
-55.326607 799.49109 1289.2972 4284299864
4.8110094 799.49109 1289.2972 4292988392
7.2165136 799.49109 1289.2972 4292922599
9.6220188 799.49109 1289.2972 4292856543
13.230275 799.49109 1289.2972 4293119712
16.838531 799.49109 1289.2972 4292923101
-57.511925 805.80304 1288.0791 4283972952
-55.115597 805.80304 1288.0791 4284433503
9.5853214 805.80304 1288.0791 4292922068
-55.115597 807.63507 1289.6239 4284172396
9.5853214 807.63507 1289.6239 4292922068
14.377981 807.63507 1289.6239 4293513966
16.774311 807.63507 1289.6239 4293251051
19.170643 807.63507 1289.6239 4292857306
10.742202 814.82446 1289.1456 4287201700
14.322936 813.91199 1288.3762 4290884508
16.710093 813.91199 1288.3762 4289042304
19.097248 813.91199 1288.3762 4288383646
7.1394496 819.64099 1287.9747 4283582290
10.709174 820.55072 1288.7417 4285162105
14.278899 821.46045 1289.5088 4286669137
16.658716 821.46045 1289.5088 4289892993
19.038532 821.46045 1289.5088 4288385707
21.418348 820.55072 1288.7417 4282594635
16.594496 827.677 1288.2102 4291740599
14.223853 829.48938 1289.7384 4289502905
18.965137 829.48938 1289.7384 4292066214
10.585321 841.82434 1287.0586 4290554287
14.113762 841.82434 1287.0586 4289046000
18.818348 841.82434 1287.0586 4284967536
-31.755962 843.62268 1288.575 4291147470
-28.227524 843.62268 1288.575 4290620092
2.3522935 843.62268 1288.575 4282598488
7.056881 843.62268 1288.575 4288059314
10.585321 843.62268 1288.575 4289371840
14.113762 843.62268 1288.575 4287070141
16.466055 843.62268 1288.575 4284570263
18.818348 843.62268 1288.575 4286407768
-52.720184 849.74103 1287.1937 4291932107
-14.058716 849.74103 1287.1937 4291079875
-10.544037 849.74103 1287.1937 4290356407
-7.0293579 849.74103 1287.1937 4290685115
-4.6862388 849.74103 1287.1937 4290882753
-2.3431194 849.74103 1287.1937 4289764015
4.9064221 761.34033 1291.1383 4289501350
7.359633 761.34033 1291.1383 4289303714
4.9064221 763.21582 1292.7196 4289039776
7.359633 763.21582 1292.7196 4289368998
-58.172478 786.78302 1291.6624 4283450442
-60.366974 793.15112 1290.4916 4283251292
-57.952293 793.15112 1290.4916 4283579212
-57.732109 801.33008 1290.8479 4284498526
-55.326607 801.33008 1290.8479 4284498526
7.2165136 801.33008 1290.8479 4292725988
9.6220188 801.33008 1290.8479 4292988122
13.631192 802.55615 1291.8816 4293053660
16.838531 802.24963 1291.6232 4292988126
-57.511925 809.46704 1291.1686 4282988106
11.981651 809.46704 1291.1686 4293316323
16.774311 809.46704 1291.1686 4292856291
-57.511925 811.29907 1292.7133 4283318352
11.981651 811.29907 1292.7133 4291213276
11.93578 817.56201 1291.4539 4280818984
14.322936 817.56201 1291.4539 4281079594
16.710093 817.56201 1291.4539 4282395453
19.097248 817.56201 1291.4539 4282725188
14.278899 823.27979 1291.0428 4288844828
16.658716 823.27979 1291.0428 4292002891
19.038532 823.27979 1291.0428 4291343272
21.418348 823.27979 1291.0428 4285750867
14.278899 825.09918 1292.5769 4289240208
19.038532 825.09918 1292.5769 4292262605
21.418348 825.09918 1292.5769 4291802054
-61.398167 839.28162 1291.4548 4291603137
-61.398167 841.08698 1292.9771 4291602612
-59.036697 841.08698 1292.9771 4291471026
-49.398167 845.42102 1290.0913 4290546581
-47.045872 845.42102 1290.0913 4290940835
-44.693577 845.42102 1290.0913 4292651452
-35.284405 845.42102 1290.0913 4291736540
-28.227524 845.42102 1290.0913 4290488756
-25.875229 845.42102 1290.0913 4290686391
-22.34679 845.42102 1290.0913 4291080633
-18.818348 845.42102 1290.0913 4291408074
1.1761467 845.42102 1290.0913 4282926156
4.704587 845.42102 1290.0913 4283780718
16.466055 845.42102 1290.0913 4282201193
18.818348 845.42102 1290.0913 4285094486
21.170643 845.42102 1290.0913 4287397241
-56.455048 847.21942 1291.6075 4291867862
-47.045872 847.21942 1291.6075 4290806668
-25.875229 847.21942 1291.6075 4289173411
-22.34679 847.21942 1291.6075 4289698213
-18.818348 847.21942 1291.6075 4291603407
-16.466055 847.21942 1291.6075 4291603407
0 847.21942 1291.6075 4287135895
4.704587 847.21942 1291.6075 4283379529
-60.596329 788.63611 1293.2249 4283121241
-58.172478 788.63611 1293.2249 4283579462
12.073395 798.68921 1295.1613 4293514466
12.027523 805.00818 1293.9491 4293316825
-59.036697 842.89233 1294.4993 4291011240
-33.060551 842.89233 1294.4993 4291080404
-30.699083 842.89233 1294.4993 4290356938
7.0844035 842.89233 1294.4993 4289636038
10.626606 842.89233 1294.4993 4289371070
14.168807 842.89233 1294.4993 4284701327
-51.750458 849.01776 1293.1239 4291931075
-16.466055 849.01776 1293.1239 4291671251
-14.113762 849.01776 1293.1239 4291079612
-10.97737 849.61719 1293.6294 4290355883
-7.056881 849.01776 1293.1239 4290948527
-4.704587 849.01776 1293.1239 4290947258
-2.3522935 849.01776 1293.1239 4290552756
-64.007339 838.55127 1297.3792 4291406528
-64.007339 840.36365 1298.9072 4291144375
-61.636696 840.36365 1298.9072 4291208620
-61.398167 844.69769 1296.0215 4291078326
-59.036697 844.69769 1296.0215 4291670719
-49.590824 844.69769 1296.0215 4290417321
-43.687157 844.69769 1296.0215 4291269285
-40.144955 844.69769 1296.0215 4292126403
-37.783485 844.69769 1296.0215 4291407559
-35.42202 844.69769 1296.0215 4291210180
-30.699083 844.69769 1296.0215 4289042095
-28.337614 844.69769 1296.0215 4289304998
2.3614678 844.69769 1296.0215 4282332750
7.0844035 844.69769 1296.0215 4287393159
10.626606 844.69769 1296.0215 4285818513
14.168807 844.69769 1296.0215 4282925641
16.530275 844.69769 1296.0215 4282399297
18.891743 844.69769 1296.0215 4286079557
21.25321 844.69769 1296.0215 4288250470
-59.036697 846.50305 1297.5438 4291934407
-55.494495 846.50305 1297.5438 4291669968
-49.590824 846.50305 1297.5438 4290352043
-47.229359 846.50305 1297.5438 4290677897
-43.687157 846.50305 1297.5438 4290744729
-28.337614 846.50305 1297.5438 4288189348
-25.976147 846.50305 1297.5438 4287531419
-22.433945 846.50305 1297.5438 4288908724
-18.891743 846.50305 1297.5438 4291013065
1.1807339 846.50305 1297.5438 4286014859
4.7229357 846.50305 1297.5438 4283513918
10.626606 846.50305 1297.5438 4285815628
14.168807 846.50305 1297.5438 4285028736
16.530275 846.50305 1297.5438 4287397284
18.891743 846.50305 1297.5438 4288645791
21.25321 846.50305 1297.5438 4290224566
-51.902752 755.86212 1299.5995 4287529134
-64.007339 842.17603 1300.4354 4290947771
-33.188992 842.17603 1300.4354 4289963197
-61.636696 843.9884 1301.9636 4291473856
-40.300919 843.9884 1301.9636 4291864248
-37.930275 843.9884 1301.9636 4291342259
-34.374313 843.9884 1301.9636 4290356660
-30.818348 843.9884 1301.9636 4288976561
7.1119266 843.9884 1301.9636 4284961364
23.706423 843.9884 1301.9636 4291605667
-55.494495 848.30841 1299.066 4290747067
-51.952293 848.30841 1299.066 4291205819
-49.590824 848.30841 1299.066 4291271612
-47.229359 848.30841 1299.066 4291206823
-21.25321 848.30841 1299.066 4288778624
-18.891743 848.30841 1299.066 4289501100
-16.530275 848.30841 1299.066 4289829808
-14.168807 848.30841 1299.066 4290026662
-9.4458714 848.30841 1299.066 4290421418
-7.0844035 848.30841 1299.066 4290618797
-4.7229357 848.30841 1299.066 4290816444
-2.3614678 848.30841 1299.066 4291539911
16.530275 848.30841 1299.066 4292131259
-54.313763 850.11377 1300.5883 4291077313
-51.952293 850.11377 1300.5883 4291470774
-47.229359 850.11377 1300.5883 4291800493
-11.80734 850.11377 1300.5883 4291012785
-66.634865 838.74463 1304.0823 4291473599
-59.266056 845.80078 1303.4917 4291013303
-45.042202 845.80078 1303.4917 4291206823
-42.671558 845.80078 1303.4917 4290879409
-40.300919 845.80078 1303.4917 4291668669
-37.930275 845.80078 1303.4917 4291407811
-34.374313 845.80078 1303.4917 4290291641
-30.818348 845.80078 1303.4917 4285293941
-28.447706 845.80078 1303.4917 4283845728
-26.077065 845.80078 1303.4917 4283779934
-23.706423 845.80078 1303.4917 4284897093
1.1853211 845.80078 1303.4917 4290357435
4.7412844 845.80078 1303.4917 4288515971
7.1119266 845.80078 1303.4917 4290029211
10.667891 845.80078 1303.4917 4290752182
14.223853 845.80078 1303.4917 4292065210
18.965137 845.80078 1303.4917 4292131270
22.521101 845.80078 1303.4917 4292131018
26.077065 845.80078 1303.4917 4291999180
-69.227524 835.81201 1306.8418 4291276993
-66.634865 841.47369 1306.3834 4291474371
-64.255043 841.47369 1306.3834 4291276993
-61.875229 843.29309 1307.9175 4291342268
-59.266056 847.61316 1305.0199 4291144121
-56.895412 847.61316 1305.0199 4291077313
-49.783485 847.61316 1305.0199 4292194497
-45.042202 847.61316 1305.0199 4291866286
-42.671558 847.61316 1305.0199 4291734977
-40.300919 847.61316 1305.0199 4291800770
-28.447706 847.61316 1305.0199 4284634991
-26.077065 847.61316 1305.0199 4283385181
-22.521101 847.61316 1305.0199 4286803594
-18.965137 847.61316 1305.0199 4289499803
-16.594496 847.61316 1305.0199 4289762718
-14.223853 847.61316 1305.0199 4290091683
-9.4825687 847.61316 1305.0199 4290552752
-7.1119266 847.61316 1305.0199 4290552752
-4.7412844 847.61316 1305.0199 4290684606
-2.3706422 847.61316 1305.0199 4291605708
11.853211 847.61316 1305.0199 4292001206
14.223853 847.61316 1305.0199 4292000452
16.594496 847.61316 1305.0199 4292000452
18.965137 847.61316 1305.0199 4291868877
22.521101 847.61316 1305.0199 4291737042
26.077065 847.61316 1305.0199 4291868121
-55.710091 849.42554 1306.5481 4291013058
-52.154129 849.42554 1306.5481 4290879405
-49.783485 849.42554 1306.5481 4290813612
-46.227524 849.42554 1306.5481 4291274163
-16.594496 849.42554 1306.5481 4290421405
-14.223853 849.42554 1306.5481 4290880683
-10.667891 849.42554 1306.5481 4290881203
-7.1119266 849.42554 1306.5481 4290420916
-4.7412844 849.42554 1306.5481 4290224566
-2.3706422 849.42554 1306.5481 4291145668
14.223853 849.42554 1306.5481 4291408322
16.594496 849.42554 1306.5481 4291540165
18.965137 849.42554 1306.5481 4291277768
26.077065 849.42554 1306.5481 4291277520
-70.023239 838.2453 1308.8934 4291803334
-61.875229 845.11249 1309.4515 4291341757
-38.077065 845.11249 1309.4515 4291472571
-34.507339 845.11249 1309.4515 4290618805
-30.937614 845.11249 1309.4515 4286146168
1.1899083 845.11249 1309.4515 4291343286
4.7596331 845.11249 1309.4515 4291408061
7.1394496 845.11249 1309.4515 4291539903
9.5192661 845.11249 1309.4515 4291671984
-59.495415 846.93188 1310.9856 4291078599
-42.836697 846.93188 1310.9856 4291670719
-40.456882 846.93188 1310.9856 4291275962
-34.507339 846.93188 1310.9856 4291078589
-30.937614 846.93188 1310.9856 4290685106
-28.557798 846.93188 1310.9856 4290160045
-26.177982 846.93188 1310.9856 4289962666
-22.608257 846.93188 1310.9856 4290225558
-19.038532 846.93188 1310.9856 4290552734
1.1899083 846.93188 1310.9856 4291670729
4.7596331 846.93188 1310.9856 4291799737
7.1394496 846.93188 1310.9856 4291997372
10.709174 846.93188 1310.9856 4291605193
22.608257 846.93188 1310.9856 4291343565
-55.710091 851.23792 1308.0762 4290816192
-52.154129 851.23792 1308.0762 4290551208
-49.783485 851.23792 1308.0762 4289827228
-47.412846 851.23792 1308.0762 4290748600
-16.594496 851.23792 1308.0762 4291080618
-14.223853 851.23792 1308.0762 4291080125
-11.853211 851.23792 1308.0762 4290948796
26.077065 851.23792 1308.0762 4291276743
-55.710091 853.05029 1309.6044 4290685635
-52.154129 853.05029 1309.6044 4290947760
-49.783485 853.05029 1309.6044 4291210932
26.077065 853.05029 1309.6044 4291539663
-71.889908 833.28326 1311.2498 4291408322
-64.453209 841.28699 1311.4581 4291211200
-64.453209 843.112 1312.9969 4291341768
-59.495415 848.75128 1312.5198 4290815940
-45.216515 848.75128 1312.5198 4291603909
-42.836697 848.75128 1312.5198 4291340469
-26.177982 848.75128 1312.5198 4290817961
-22.608257 848.75128 1312.5198 4290949295
-19.038532 848.75128 1312.5198 4290948775
-9.5192661 848.75128 1312.5198 4290355641
-7.1394496 848.75128 1312.5198 4290224055
-4.7596331 848.75128 1312.5198 4290355389
-2.3798165 848.75128 1312.5198 4291210698
11.899082 848.75128 1312.5198 4291408343
14.278899 848.75128 1312.5198 4291145418
16.658716 848.75128 1312.5198 4291342798
19.038532 848.75128 1312.5198 4291409097
22.608257 848.75128 1312.5198 4291605964
-54.524769 854.86267 1311.1324 4290619842
-52.154129 854.86267 1311.1324 4290947764
-74.28624 836.94727 1314.3391 4291802597
-71.889908 836.94727 1314.3391 4291869379
-74.28624 838.7793 1315.8839 4290816946
-70.691742 838.7793 1315.8839 4291143858
-67.097244 838.7793 1315.8839 4291145407
-62.066055 844.93701 1314.5358 4291802065
-38.194496 844.93701 1314.5358 4290945473
-62.066055 846.76196 1316.0745 4291737042
-40.58165 846.76196 1316.0745 4290551210
-38.194496 846.76196 1316.0745 4290878903
-34.613762 846.76196 1316.0745 4291735738
-31.033028 846.76196 1316.0745 4291671471
-28.645872 846.76196 1316.0745 4291278512
1.193578 846.76196 1316.0745 4291999442
4.774312 846.76196 1316.0745 4291538877
7.161468 846.76196 1316.0745 4291670719
9.548624 846.76196 1316.0745 4291671258
-59.495415 850.57068 1314.0537 4290685651
-46.406422 850.57068 1314.0537 4291342259
-16.658716 850.57068 1314.0537 4290883504
-14.278899 850.57068 1314.0537 4290752700
-11.899082 850.57068 1314.0537 4290160306
16.658716 850.57068 1314.0537 4291343553
19.038532 850.57068 1314.0537 4291736522
22.608257 850.57068 1314.0537 4291342024
-58.305504 852.39001 1315.5879 4290882760
-49.976147 852.39001 1315.5879 4291474108
-47.596329 852.39001 1315.5879 4291407016
19.038532 852.39001 1315.5879 4291210698
-70.691742 840.61133 1317.4286 4290224035
-67.097244 841.52734 1318.2009 4290815421
-64.70092 842.44336 1318.9733 4291802569
-42.968807 848.58698 1317.6133 4291143108
-35.807339 848.58698 1317.6133 4290876577
-31.033028 848.58698 1317.6133 4291340721
-28.645872 848.58698 1317.6133 4291015606
-26.258715 848.58698 1317.6133 4290817970
-22.677982 848.58698 1317.6133 4290817709
-19.097248 848.58698 1317.6133 4290817711
-9.548624 848.58698 1317.6133 4289699757
-7.161468 848.58698 1317.6133 4289897137
-4.774312 848.58698 1317.6133 4290618550
-2.387156 848.58698 1317.6133 4291342016
11.93578 848.58698 1317.6133 4291212747
14.322936 848.58698 1317.6133 4290751160
-45.355965 850.41199 1319.1521 4291472810
-16.710093 850.41199 1319.1521 4290949046
-14.322936 850.41199 1319.1521 4290555064
11.93578 850.41199 1319.1521 4291540928
14.322936 850.41199 1319.1521 4291277243
16.710093 850.41199 1319.1521 4291474621
21.484404 850.41199 1319.1521 4291079112
-57.115597 854.20941 1317.1219 4291212243
-76.976151 838.11066 1321.8602 4290816692
-74.570641 838.11066 1321.8602 4290158762
-76.682571 844.27539 1320.5181 4291081408
-74.28624 844.27539 1320.5181 4290555064
-71.889908 844.27539 1320.5181 4290159302
-64.70092 844.27539 1320.5181 4292263370
-76.682571 846.10736 1322.0627 4290885579
-74.28624 846.10736 1322.0627 4289174960
-71.889908 846.10736 1322.0627 4289171099
-64.70092 846.10736 1322.0627 4291342018
-62.304588 846.10736 1322.0627 4290948566
-40.737614 846.10736 1322.0627 4290090420
-38.341286 846.10736 1322.0627 4289692046
-33.548622 846.10736 1322.0627 4290880170
1.1981652 846.10736 1322.0627 4291670731
4.7926607 846.10736 1322.0627 4291277758
7.1889906 846.10736 1322.0627 4291409345
9.5853214 846.10736 1322.0627 4291344333
-58.883179 853.45367 1321.7168 4291473088
-54.904587 852.237 1320.6909 4290685899
-52.517429 852.237 1320.6909 4289764002
14.322936 853.14954 1321.4603 4291211711
16.710093 852.237 1320.6909 4291277758
19.097248 852.237 1320.6909 4290947271
-76.976151 839.94971 1323.4109 4290883002
-73.367889 839.94971 1323.4109 4290093229
-69.759636 839.94971 1323.4109 4290356656
-69.759636 841.78876 1324.9615 4291080404
-67.354126 841.78876 1324.9615 4291408061
-62.304588 847.93939 1323.6074 4291079371
-43.133945 847.93939 1323.6074 4291011009
-40.737614 847.93939 1323.6074 4290221236
-38.341286 847.93939 1323.6074 4290088342
-34.746788 847.93939 1323.6074 4290352790
-31.152294 847.93939 1323.6074 4290748825
-28.755962 847.93939 1323.6074 4291013026
-26.359632 847.93939 1323.6074 4291144612
-22.765137 847.93939 1323.6074 4290750897
-19.170643 847.93939 1323.6074 4290883252
-10.783486 847.93939 1323.6074 4289699501
-7.1889906 847.93939 1323.6074 4290422713
-4.7926607 847.93939 1323.6074 4290816190
-2.3963304 847.93939 1323.6074 4291210948
