# .PCD v0.7 - Point Cloud Data file format
VERSION 0.7
FIELDS x y z rgb
SIZE 4 4 4 4
TYPE F F F U
COUNT 1 1 1 1
WIDTH 1151
HEIGHT 1
VIEWPOINT 0 0 0 1 0 0 0
POINTS 1151
DATA ascii
-10.395412 848.22266 1262.3688 4287261825
-6.9302754 848.22266 1262.3688 4293051880
-4.6201835 848.22266 1262.3688 4292594400
-2.3100917 848.22266 1262.3688 4292396764
-16.966972 755.28107 1265.1007 4279762986
-24.055046 770.06665 1264.4873 4281740617
-16.710093 786.53699 1265.2943 4287263114
-28.557798 790.53076 1263.4297 4287329633
-26.177982 790.53076 1263.4297 4285553222
-22.608257 790.53076 1263.4297 4285881213
-19.038532 790.53076 1263.4297 4286144891
-16.658716 790.53076 1263.4297 4287065993
-30.937614 792.35016 1264.9637 4286009689
-28.557798 792.35016 1264.9637 4286668907
-26.177982 792.35016 1264.9637 4287852925
-28.447706 799.58514 1264.5239 4285614680
-26.077065 800.49133 1265.2881 4285744984
-22.521101 800.49133 1265.2881 4285878651
-18.965137 799.58514 1264.5239 4287196784
-16.594496 799.58514 1264.5239 4288315522
-25.976147 808.59045 1265.5769 4285811290
-25.875229 816.64746 1265.8301 4286338640
-23.522936 816.64746 1265.8301 4286403684
-28.117432 822.87103 1264.5376 4286471242
-25.774311 822.87103 1264.5376 4287589979
-14.058716 822.87103 1264.5376 4286078072
-28.029358 828.54401 1264.0887 4283906918
-25.693579 828.54401 1264.0887 4284367469
-16.350458 830.32977 1265.5945 4285158748
-14.014679 830.32977 1265.5945 4286996082
-25.592661 838.27167 1265.7507 4286210948
-23.266054 838.27167 1265.7507 4285883498
-19.776146 838.27167 1265.7507 4285027686
-32.444038 844.3999 1264.3777 4284430412
-25.491743 844.3999 1264.3777 4285549627
-25.491743 846.17163 1265.8716 4284757839
-16.222019 846.17163 1265.8716 4285289816
-19.63578 849.98871 1263.8579 4284565330
-31.510092 758.98718 1268.2257 4287397536
-24.238533 758.06067 1267.4445 4284236648
-21.814678 758.06067 1267.4445 4283512925
-19.390825 757.13409 1266.6632 4283707968
-16.966972 758.06067 1267.4445 4282985256
-13.331194 758.06061 1267.4445 4281345586
-9.6954126 758.98718 1268.2257 4280486675
-33.805504 767.30652 1268.7001 4282200652
-31.390825 766.38348 1267.9219 4283187552
-28.976147 766.38348 1267.9219 4283517532
-25.756577 766.07587 1267.6625 4283583072
-21.732111 766.38348 1267.9219 4284569204
-19.31743 766.38348 1267.9219 4284305015
-16.902752 767.30652 1268.7001 4284173677
-14.488073 766.38348 1267.9219 4283839256
-19.170643 781.98688 1267.9979 4287395967
-16.774311 781.98688 1267.9979 4287462016
-14.377981 781.07086 1267.2256 4287658648
-10.783486 781.98688 1267.9979 4289368738
-14.322936 788.36194 1266.8331 4287921559
-40.58165 790.18695 1268.3719 4285418852
-33.420185 790.18695 1268.3719 4285812567
-14.322936 790.18695 1268.3719 4287921813
-11.93578 790.18695 1268.3719 4289698224
-33.317432 794.16956 1266.4978 4285811792
-30.937614 794.16956 1266.4978 4285877586
-14.278899 794.16956 1266.4978 4287987345
-33.317432 795.98895 1268.0319 4286075721
-30.937614 795.98895 1268.0319 4286009928
-14.278899 795.98895 1268.0319 4288184988
-28.447706 802.30371 1266.8162 4286270295
-26.077065 802.30371 1266.8162 4286204502
-22.521101 802.30371 1266.8162 4285090139
-18.965137 802.30371 1266.8162 4285156951
-16.594496 802.30371 1266.8162 4287854208
-28.447706 804.11609 1268.3444 4285942618
-26.077065 804.11609 1268.3444 4286073947
-22.521101 804.11609 1268.3444 4285549408
-18.965137 804.11609 1268.3444 4285288558
-16.594496 804.11609 1268.3444 4287262604
-11.853211 804.11609 1268.3444 4291077313
-4.7412844 804.11609 1268.3444 4291538125
-2.3706422 804.11609 1268.3444 4292130519
-28.337614 812.20117 1268.6213 4286206039
-25.976147 811.29846 1267.8602 4285745495
-22.827522 811.59937 1268.1139 4286138960
-18.891743 812.20117 1268.6213 4286141289
-16.530275 811.29846 1267.8602 4286273644
-14.168807 812.20117 1268.6213 4286998151
-11.80734 812.20117 1268.6213 4293314023
-28.227524 818.44586 1267.3464 4286734432
-25.875229 818.44586 1267.3464 4287589741
-23.522936 818.44586 1267.3464 4287523973
-14.113762 818.44586 1267.3464 4286472318
-37.636696 820.2442 1268.8628 4283512151
-35.284405 820.2442 1268.8628 4283972702
-30.579817 820.2442 1268.8628 4285222513
-22.34679 820.2442 1268.8628 4286866295
-18.818348 820.2442 1268.8628 4286273379
-16.466055 820.2442 1268.8628 4285483863
-11.761468 820.2442 1268.8628 4291802319
-30.46055 824.66235 1266.048 4283054679
-28.117432 824.66235 1266.048 4283708229
-25.774311 824.66235 1266.048 4285089882
-14.058716 824.66235 1266.048 4286208365
-35.14679 826.45374 1267.5583 4283253801
-30.46055 826.45374 1267.5583 4283187034
-22.259632 826.45374 1267.5583 4284830532
-18.744955 826.45374 1267.5583 4286144862
-16.401834 826.45374 1267.5583 4287197550
-14.058716 826.45374 1267.5583 4286801270
-35.036697 833.90118 1268.6057 4285422697
-30.365137 833.90118 1268.6057 4286999162
-28.029358 833.0083 1267.8529 4285357679
-25.693579 833.0083 1267.8529 4285226093
-22.189907 833.90118 1268.6057 4285356906
-18.686239 833.90118 1268.6057 4285026408
-16.350458 833.0083 1267.8529 4284631910
-14.014679 833.0083 1267.8529 4284894570
-11.678899 833.90118 1268.6057 4288646054
-37.225689 841.8291 1268.7502 4283772509
-34.899082 840.93976 1268.0004 4283773530
-31.021408 840.64331 1267.7504 4284367440
-27.919266 840.93976 1268.0004 4284761157
-25.592661 840.05042 1267.2505 4285485925
-23.174313 847.9433 1267.3655 4285156697
-16.222019 847.9433 1267.3655 4284632150
-13.904587 847.9433 1267.3655 4284828520
-10.42844 847.9433 1267.3655 4286604935
-6.9522934 847.9433 1267.3655 4292855017
-4.6348624 847.9433 1267.3655 4292594398
-2.3174312 847.9433 1267.3655 4292397018
-23.174313 849.71497 1268.8593 4290421948
-19.698166 849.71497 1268.8593 4288713898
-13.904587 849.71497 1268.8593 4284697693
-6.9522934 849.71497 1268.8593 4292789466
-36.3578 760.84021 1269.7881 4282987841
-33.933945 760.84021 1269.7881 4283185762
-31.510092 760.84021 1269.7881 4284238450
-29.086239 760.84021 1269.7881 4284502642
-25.450459 760.84021 1269.7881 4284501616
-21.814678 760.84021 1269.7881 4284303212
-19.390825 760.84021 1269.7881 4284237142
-16.966972 760.84021 1269.7881 4282394938
-13.331193 760.84021 1269.7881 4280821505
-37.569725 762.6933 1271.3506 4282002240
-33.933945 762.6933 1271.3506 4282003026
-16.966972 762.6933 1271.3506 4281475926
-12.119267 762.6933 1271.3506 4284693788
-31.390825 770.9986 1271.8132 4287657612
-28.976147 770.07556 1271.0349 4287131779
-25.35413 770.07562 1271.035 4285882991
-21.732111 769.15259 1270.2567 4283648335
-16.902752 770.9986 1271.8132 4287328338
-14.488073 770.07556 1271.0349 4288710016
-28.866055 775.58368 1269.1392 4286868850
-25.257797 775.58368 1269.1392 4286605162
-13.230275 775.58368 1269.1392 4289105558
-25.257797 777.42273 1270.6898 4286473319
-19.244038 777.42273 1270.6898 4286999385
-16.838531 777.42273 1270.6898 4287525729
-12.027523 777.42273 1270.6898 4289434800
-9.6220188 777.42273 1270.6898 4289434260
-7.2165136 777.42273 1270.6898 4289302673
-40.737614 785.65088 1271.0874 4286605420
-33.548622 785.65088 1271.0874 4287460481
-31.152294 785.65088 1271.0874 4288052618
-28.755962 783.81885 1269.5426 4287068542
-26.359632 783.81885 1269.5426 4285555302
-14.377981 783.81885 1269.5426 4287921563
-10.783485 784.73486 1270.3149 4289631146
-7.1889906 784.73486 1270.3149 4289564064
-4.7926607 784.73486 1270.3149 4289433246
-2.3963304 785.65088 1271.0874 4289499553
9.5853214 785.65088 1271.0874 4289565857
-42.968807 793.83698 1271.4495 4286474887
-40.58165 792.92444 1270.6802 4284894563
-38.194496 792.92444 1270.6802 4285287763
-35.807339 792.92444 1270.6802 4285616471
-10.742202 792.9245 1270.6801 4289763763
-7.161468 793.83698 1271.4495 4289500594
-4.774312 793.83698 1271.4495 4289435556
-2.387156 793.83698 1271.4495 4289303714
-33.317432 797.80835 1269.5659 4286073645
-30.937614 797.80835 1269.5659 4286797111
-14.278899 797.80835 1269.5659 4288250011
-40.456882 799.62775 1271.1001 4285879929
-38.077065 799.62775 1271.1001 4286138445
-33.317432 799.62775 1271.1001 4285676338
-30.937614 799.62775 1271.1001 4286728769
-14.278899 799.62775 1271.1001 4287526544
-10.709174 799.62775 1271.1001 4289499820
-7.1394496 799.62775 1271.1001 4289170597
-4.7596331 799.62775 1271.1001 4289433758
-2.3798165 799.62775 1271.1001 4289960102
-28.447706 805.92847 1269.8724 4285614168
-22.521101 805.92847 1269.8724 4285943896
-18.965137 805.92847 1269.8724 4285485925
-16.594496 805.92847 1269.8724 4286670200
-14.223853 805.92847 1269.8724 4287917966
-10.667891 805.92847 1269.8724 4293907694
-7.1119266 805.92847 1269.8724 4293778417
-4.7412844 805.92847 1269.8724 4293909478
-2.3706422 805.92847 1269.8724 4293580513
-37.930275 807.74084 1271.4006 4286270036
-33.188992 807.74084 1271.4006 4285549159
-30.818348 807.74084 1271.4006 4285483109
-28.447706 807.74084 1271.4006 4285679709
-21.335779 807.74084 1271.4006 4286338127
-18.965137 807.74084 1271.4006 4285748068
-14.223853 807.74084 1271.4006 4287393166
-10.667891 807.74084 1271.4006 4293841904
-7.1119266 807.74084 1271.4006 4294106355
-4.7412844 807.74084 1271.4006 4293778399
-2.3706422 807.74084 1271.4006 4293646556
-40.144955 815.81189 1271.6658 4283053908
-37.783485 814.90918 1270.9047 4284234077
-34.634861 815.21014 1271.1583 4284826213
-30.699083 814.90918 1270.9047 4286536818
-28.337614 814.00653 1270.1436 4286404434
-21.25321 814.90918 1270.9047 4286141544
-18.891743 814.90918 1270.9047 4286271594
-16.530275 814.90918 1270.9047 4286074472
-14.168807 814.00653 1270.1436 4286604420
-11.80734 814.90918 1270.9047 4292328154
-7.0844035 815.81189 1271.6658 4293449454
-4.7229357 815.81189 1271.6658 4292856804
-2.3614678 815.81189 1271.6658 4292725218
-39.988991 822.94171 1271.1372 4282923850
-37.636696 822.94171 1271.1372 4282858288
-35.284405 822.04254 1270.3792 4283252548
-32.93211 822.94171 1271.1372 4283252314
-22.34679 822.04254 1270.3792 4285551205
-18.818348 822.04254 1270.3792 4286670172
-16.466055 822.04254 1270.3792 4285683277
-11.761468 822.04254 1270.3792 4291932357
-4.704587 822.04254 1270.3792 4292987359
-37.48991 830.03638 1270.5792 4284437095
-35.14679 829.14069 1269.824 4283780440
-30.46055 829.14069 1269.824 4283780191
-28.117432 828.245 1269.0688 4284108386
-25.774311 828.245 1269.0688 4284174179
-22.259632 829.14075 1269.824 4283845720
-18.744955 829.14069 1269.824 4284171608
-37.372478 835.68689 1270.1115 4285553752
-35.036697 835.68689 1270.1115 4285553752
-31.533028 835.68689 1270.1115 4286933621
-28.029358 835.68689 1270.1115 4286671499
-39.708256 837.47266 1271.6172 4283444560
-37.372478 837.47266 1271.6172 4283314257
-37.225689 844.49719 1270.9999 4289827227
-34.899082 844.49719 1270.9999 4289498518
-31.409176 844.49719 1270.9999 4287919263
-27.919266 844.49719 1270.9999 4286337673
-25.592661 845.38654 1271.7498 4286141096
0 845.38654 1271.7498 4292001495
-36.522934 755.64972 1273.2598 4286604922
-34.088074 755.64972 1273.2598 4286673556
-29.218349 755.64972 1273.2598 4286673808
-26.783485 755.64972 1273.2598 4285752706
-19.478899 755.64972 1273.2598 4283513126
-41.392662 757.51123 1274.8293 4282528084
-38.957798 757.51123 1274.8293 4282790461
-9.7394495 757.51123 1274.8293 4284168991
-37.569725 764.54633 1272.913 4281674279
-12.119267 764.54633 1272.913 4287919190
-37.569725 766.39941 1274.4755 4284038996
-33.933945 766.39941 1274.4755 4285487990
-31.510092 766.39941 1274.4755 4286343299
-19.390825 766.39941 1274.4755 4284303460
-16.966972 766.39941 1274.4755 4285750906
-12.119267 766.39941 1274.4755 4290157183
-36.220184 772.8446 1273.3698 4287262362
-33.805504 772.8446 1273.3698 4286934405
-31.390825 772.8446 1273.3698 4286079096
-21.732111 772.8446 1273.3698 4285289299
-19.31743 772.8446 1273.3698 4285224759
-16.902752 772.8446 1273.3698 4287461721
-9.6587152 772.8446 1273.3698 4289368716
-41.049541 774.69067 1274.9263 4287460958
-36.220184 774.69067 1274.9263 4287194763
-33.805504 774.69067 1274.9263 4286082176
-31.390825 774.69067 1274.9263 4284831852
-28.976147 774.69067 1274.9263 4286278508
-21.732111 774.69067 1274.9263 4286471008
-4.8293576 774.69067 1274.9263 4289039254
-2.4146788 774.69067 1274.9263 4289367963
-28.866055 779.26178 1272.2404 4286871147
-25.257797 779.26178 1272.2404 4287132783
-7.2165136 779.26178 1272.2404 4289302158
-4.8110094 779.26178 1272.2404 4289498781
-2.4055047 779.26178 1272.2404 4289630367
-40.893578 781.10083 1273.791 4287000459
-33.677063 781.10083 1273.791 4287198856
-31.271559 781.10083 1273.791 4287133063
-24.055046 781.10083 1273.791 4285879125
-2.4055047 781.10083 1273.791 4289696160
9.6220188 781.10083 1273.791 4289631650
-45.530273 787.48291 1272.6321 4286870143
-43.133945 787.48291 1272.6321 4286471283
-38.341286 787.48291 1272.6321 4285942618
-35.944954 787.48291 1272.6321 4285942618
-9.5853214 787.48291 1272.6321 4289761968
-7.1889906 787.48291 1272.6321 4289630382
-4.7926607 787.48291 1272.6321 4289630882
-2.3963304 787.48291 1272.6321 4289696675
9.5853214 787.48291 1272.6321 4289105819
-57.511925 789.31494 1274.1768 4283846704
-55.115597 789.31494 1274.1768 4282859809
-52.719265 789.31494 1274.1768 4282924891
-50.322937 789.31494 1274.1768 4282464340
-46.728439 789.31494 1274.1768 4285421932
-43.133945 789.31494 1274.1768 4286735475
-7.1889906 789.31494 1274.1768 4289631414
-4.7926607 789.31494 1274.1768 4289631652
-2.3963304 789.31494 1274.1768 4289697446
7.1889906 789.31494 1274.1768 4289368228
9.5853214 789.31494 1274.1768 4289171365
-45.355965 796.57446 1273.7577 4287063670
-42.968807 796.57446 1273.7577 4286932872
-40.58165 795.66199 1272.9883 4285156459
-38.194496 795.66199 1272.9883 4285352779
-35.807339 796.57446 1273.7577 4285548361
-10.742202 795.66199 1272.9883 4289631658
-7.161468 795.66199 1272.9883 4289368224
-4.774312 795.66199 1272.9883 4289237147
-2.387156 795.66199 1272.9883 4289368476
1.193578 797.48694 1274.5271 4291999158
4.774312 797.48694 1274.5271 4292394960
7.161468 796.57446 1273.7577 4291604413
10.742202 796.57446 1273.7577 4292262879
-40.456882 802.35681 1273.4011 4286733936
-38.077065 802.35681 1273.4011 4286469975
-34.110703 802.65997 1273.6569 4285548374
-30.937614 802.35681 1273.4011 4285810779
-14.278899 801.44714 1272.6342 4287721870
-9.5192661 801.44714 1272.6342 4291867579
-7.1394496 801.44714 1272.6342 4291472821
1.1899083 803.26648 1274.1682 4293645273
-40.300919 809.55322 1272.9287 4285219435
-37.930275 809.55322 1272.9287 4285807195
-34.374313 809.55322 1272.9287 4286797169
-30.818348 809.55322 1272.9287 4286339183
-9.4825687 809.55322 1272.9287 4293120744
-7.1119266 809.55322 1272.9287 4293581295
-4.7412844 809.55322 1272.9287 4292989409
-2.3706422 809.55322 1272.9287 4293120996
-46.227524 811.3656 1274.4569 4283383645
-42.671558 811.3656 1274.4569 4284300381
-40.300919 811.3656 1274.4569 4284563554
-33.188992 811.3656 1274.4569 4286339687
-9.4825687 811.3656 1274.4569 4292989405
-7.1119266 811.3656 1274.4569 4293581799
-4.7412844 811.3656 1274.4569 4293580774
-2.3706422 811.3656 1274.4569 4293646568
-51.952293 817.61731 1273.188 4284501595
-49.590824 817.61731 1273.188 4283777615
-47.229359 817.61731 1273.188 4283186780
-43.687157 817.61731 1273.188 4283252058
-40.144955 817.61731 1273.188 4283185751
-33.060551 817.61731 1273.188 4284235618
-9.4458714 817.61731 1273.188 4292461796
-7.0844035 817.61731 1273.188 4293646070
-4.7229357 817.61731 1273.188 4292856293
-2.3614678 817.61731 1273.188 4292658657
-54.313763 819.42261 1274.7102 4284240233
-51.952293 819.42261 1274.7102 4284174179
-49.590824 819.42261 1274.7102 4283647835
-47.229359 819.42261 1274.7102 4283123035
-43.687157 819.42261 1274.7102 4283056981
-9.4458714 819.42261 1274.7102 4292264935
-7.0844035 819.42261 1274.7102 4292988402
-2.3614678 819.42261 1274.7102 4292921566
-56.455048 827.43756 1274.9281 4283976548
-49.398167 827.43756 1274.9281 4283516749
-42.341286 827.43756 1274.9281 4283383645
-39.988991 826.53839 1274.1699 4284370539
-37.636696 825.63922 1273.4117 4283716179
-32.93211 826.53839 1274.1699 4283780447
-39.833027 833.61902 1273.6 4285223551
-37.48991 831.8277 1272.0896 4285751662
-32.803669 831.8277 1272.0896 4285880681
-51.387157 839.25836 1273.1228 4285087822
-49.051376 839.25836 1273.1228 4285153615
-46.715595 839.25836 1273.1228 4285155177
-43.211929 839.25836 1273.1228 4284760155
-39.708256 839.25836 1273.1228 4283970374
-51.387157 841.04407 1274.6284 4290617012
-49.051376 841.04407 1274.6284 4290551219
-46.715595 841.04407 1274.6284 4290419899
-43.211929 841.04407 1274.6284 4290222253
-39.708256 841.04407 1274.6284 4289761437
-37.225689 847.16522 1273.2495 4291605956
-34.899082 847.16522 1273.2495 4291474369
-31.409174 847.16522 1273.2495 4291145416
-27.919266 847.16522 1273.2495 4290948296
-25.592661 847.16522 1273.2495 4290684867
-23.266054 848.94397 1274.7493 4291145405
-19.776146 848.94397 1274.7493 4289829557
-16.286238 848.05457 1273.9994 4286213259
-13.959633 848.94397 1274.7493 4286408322
-10.469725 848.05463 1273.9994 4285618796
-6.9798164 848.94397 1274.7493 4292461769
-4.6532111 848.05457 1273.9994 4292462813
-2.3266056 848.05457 1273.9994 4292133849
-43.827522 760.30341 1277.1836 4283122518
-41.392662 760.30341 1277.1836 4281740865
-9.7394495 760.30341 1277.1836 4288116347
-7.3045874 760.30341 1277.1836 4289826709
-43.629356 770.10547 1277.6003 4284633113
-41.205505 769.17896 1276.8191 4287199816
-37.973698 768.87012 1276.5587 4287461525
-33.933945 768.25244 1276.038 4287591563
-21.814678 768.25244 1276.038 4283514952
-19.390825 768.25244 1276.038 4284038688
-12.119267 768.25244 1276.038 4289762468
-9.6954126 768.25244 1276.038 4289302419
-7.2715597 770.10547 1277.6003 4289237130
-41.049541 776.53674 1276.4828 4286737805
-36.220184 776.53674 1276.4828 4287130503
-33.805504 776.53674 1276.4828 4286409855
-31.390825 776.53674 1276.4828 4285028202
-21.732111 776.53674 1276.4828 4287921020
1.2073394 776.53674 1276.4828 4289763225
-45.704586 782.93982 1275.3417 4287200904
-43.299084 782.93982 1275.3417 4287592571
-37.285324 782.93982 1275.3417 4287326597
7.2165136 782.93982 1275.3417 4289697677
-55.326607 784.77881 1276.8922 4281875803
-52.921101 784.77881 1276.8922 4282792776
-49.312843 784.77881 1276.8922 4283383885
1.2027524 784.77881 1276.8922 4289696925
4.8110094 784.77881 1276.8922 4289566361
7.2165136 784.77881 1276.8922 4289434519
-57.511925 791.14691 1275.7214 4283451474
-55.115597 791.14691 1275.7214 4282859336
-52.719265 791.14691 1275.7214 4283055192
-50.322937 791.14691 1275.7214 4282660690
-46.728439 791.14691 1275.7214 4285158757
7.1889906 791.14691 1275.7214 4288645268
9.5853214 791.14691 1275.7214 4289500066
-57.511925 792.97894 1277.2662 4283648598
-55.115597 792.97894 1277.2662 4282925132
-52.719265 792.97894 1277.2662 4283187034
-50.322937 792.97894 1277.2662 4283055192
-47.926605 792.97894 1277.2662 4283972171
1.1981652 792.97894 1277.2662 4289630621
4.7926607 792.97894 1277.2662 4289695128
-50.130276 799.31195 1276.0659 4283319356
-46.549541 799.31195 1276.0659 4284958035
-42.968807 799.31195 1276.0659 4286734682
-35.807339 799.31195 1276.0659 4285613375
1.193578 799.31195 1276.0659 4293052604
4.774312 799.31195 1276.0659 4293448425
7.161468 799.31195 1276.0659 4293580011
10.742202 799.31195 1276.0659 4293712102
-50.130276 801.13696 1277.6047 4283514437
-46.549541 801.13696 1277.6047 4283971657
-42.968807 801.13696 1277.6047 4284627814
4.774312 801.13696 1277.6047 4293316573
7.161468 801.13696 1277.6047 4293382367
10.742202 801.13696 1277.6047 4293318370
-46.406422 806.90527 1277.2363 4283710298
-42.836697 805.99561 1276.4692 4284627300
-40.456882 805.08594 1275.7023 4286008954
-35.697247 805.08594 1275.7023 4286006607
1.1899083 805.99561 1276.4692 4293383392
4.7596331 805.99561 1276.4692 4293251802
7.1394496 805.08594 1275.7023 4293449175
-54.524769 814.99036 1277.5132 4284305779
-52.154129 813.17798 1275.9851 4284830306
-49.783485 813.17798 1275.9851 4283777617
-46.227524 813.17798 1275.9851 4283383897
-42.671558 813.17798 1275.9851 4283185751
-9.4825687 813.17798 1275.9851 4292528352
0 814.99036 1277.5132 4292856291
-55.494495 821.22803 1276.2325 4284042841
-51.952293 821.22803 1276.2325 4284109147
-49.590824 821.22803 1276.2325 4283648596
-47.229359 821.22803 1276.2325 4283383906
-43.687157 821.22803 1276.2325 4283186518
-55.494495 823.03333 1277.7548 4284043357
-51.952293 823.03333 1277.7548 4284372072
-49.590824 823.03333 1277.7548 4283648348
-47.229359 823.03333 1277.7548 4283581277
-43.687157 823.03333 1277.7548 4283252056
-51.750458 829.23596 1276.4443 4283581027
-49.398167 829.23596 1276.4443 4283383391
-47.045872 829.23596 1276.4443 4283449938
-42.341286 829.23596 1276.4443 4283644253
-39.988991 829.23596 1276.4443 4285486457
-51.750458 831.0343 1277.9607 4284104037
-49.398167 831.0343 1277.9607 4284104037
-47.045872 831.0343 1277.9607 4283907409
-43.517433 831.0343 1277.9607 4283907422
-51.548622 835.4104 1275.1105 4283705678
-49.205505 835.4104 1275.1105 4283837521
-46.862385 835.4104 1275.1105 4284036951
-43.347706 835.4104 1275.1105 4283378766
-53.891743 837.20172 1276.6208 4285482341
-49.051376 842.82983 1276.1342 4291079352
-46.715595 842.82983 1276.1342 4291079110
-43.211929 842.82983 1276.1342 4290947251
-39.708256 842.82983 1276.1342 4290684063
2.3357799 842.82983 1276.1342 4292198874
-49.051376 844.61554 1277.6399 4291409608
-42.044037 844.61554 1277.6399 4291015104
-39.708256 844.61554 1277.6399 4291146690
1.16789 844.61554 1277.6399 4291870672
-10.469725 850.72266 1276.249 4287331191
-6.9798164 850.72266 1276.249 4291805358
-4.6532111 850.72266 1276.249 4292002262
-2.3266056 850.72266 1276.249 4292199642
-43.992661 754.737 1279.0303 4282791256
-7.3321099 754.737 1279.0303 4286998090
-4.8880734 754.737 1279.0303 4289298546
-2.4440367 754.737 1279.0303 4290087806
-46.436699 756.60547 1280.6058 4284697661
-4.8880734 756.60547 1280.6058 4290090655
-2.4440367 756.60547 1280.6058 4289959068
-43.827522 763.09564 1279.538 4283054912
-41.392662 763.09564 1279.538 4281673259
-9.7394495 763.09564 1279.538 4289893277
-7.3045874 763.09564 1279.538 4289630106
-46.053211 773.81165 1280.7252 4286018934
-43.629356 772.88513 1279.9441 4287000436
-38.781651 772.88513 1279.9441 4287195273
4.8477063 773.81165 1280.7252 4289566361
7.2715597 773.81165 1280.7252 4289566361
9.6954126 773.81165 1280.7252 4289630880
-45.878899 778.38275 1278.0393 4287003780
-43.464222 778.38275 1278.0393 4287921561
-37.427521 778.38275 1278.0393 4287196810
1.2073394 778.38275 1278.0393 4289631384
4.8293576 778.38275 1278.0393 4289631632
7.2440367 778.38275 1278.0393 4289763474
-48.293579 780.22882 1279.5958 4283516497
1.2073394 780.22882 1279.5958 4289499549
4.8293576 780.22882 1279.5958 4289434762
1.2027524 787.53741 1279.2183 4289368733
4.8110094 787.53735 1279.2183 4289171359
-52.719265 794.81097 1278.8109 4283254344
-50.322937 794.81097 1278.8109 4282991173
-47.926605 794.81097 1278.8109 4284168519
-55.115597 796.64294 1280.3556 4283253338
-52.719265 796.64294 1280.3556 4283385149
-50.130276 802.96198 1279.1434 4283514189
-46.549541 802.96198 1279.1434 4283774806
10.742202 802.96198 1279.1434 4293318109
-52.517429 804.78699 1280.6823 4284830298
-50.130276 804.78699 1280.6823 4283843147
7.161468 804.78699 1280.6823 4293186271
9.548624 804.78699 1280.6823 4293053665
-52.355965 808.72467 1278.7704 4284830278
-49.976147 808.72467 1278.7704 4283777847
1.1899083 808.72467 1278.7704 4293054182
4.7596331 808.72467 1278.7704 4292923362
-54.735779 810.54407 1280.3044 4284371826
1.1899083 810.54407 1280.3044 4293119462
4.7596331 810.54407 1280.3044 4292660193
1.5804281 817.40692 1279.5508 4292790240
-54.313763 824.83875 1279.277 4284634478
-51.952293 824.83875 1279.277 4284306264
-47.229359 824.83875 1279.277 4283581275
-44.867889 824.83875 1279.277 4283449688
-54.313763 826.6441 1280.7992 4284432720
-44.867889 826.6441 1280.7992 4283055180
-54.102753 832.83264 1279.4771 4283968073
-53.891743 838.99304 1278.1312 4290813360
-52.720184 840.78436 1279.6416 4291473340
-39.708256 846.40125 1279.1455 4291540165
-37.372478 847.29413 1279.8983 4291209146
-35.036697 846.40125 1279.1455 4292131020
-31.533028 846.40125 1279.1455 4291869377
-28.029358 846.40125 1279.1455 4291803571
-25.693579 846.40125 1279.1455 4291080104
-22.189907 848.18701 1280.6511 4291078592
-18.686239 848.18701 1280.6511 4291077565
-16.350458 848.18701 1280.6511 4291209151
-14.014679 848.18701 1280.6511 4290357169
0.7785933 846.99652 1279.6473 4292002512
4.6715598 846.40125 1279.1455 4292067792
7.0073395 846.40125 1279.1455 4292067792
9.3431196 846.40125 1279.1455 4291936465
-46.436699 758.474 1282.1813 4286341248
-4.8880734 758.474 1282.1813 4289566111
-2.4440367 758.474 1282.1813 4289434269
-48.880733 760.34247 1283.7567 4287657901
-46.436699 760.34247 1283.7567 4286144662
-4.8880734 760.34247 1283.7567 4289302421
-2.4440367 760.34247 1283.7567 4289368214
-46.262386 764.95709 1281.1075 4284961937
-43.827522 764.95709 1281.1075 4282332168
-7.3045874 764.95709 1281.1075 4289302419
-46.262386 766.8186 1282.6771 4283316567
-4.8697248 766.8186 1282.6771 4289170329
-2.4348624 766.8186 1282.6771 4289367965
-53.324772 777.5177 1283.8501 4281940281
-50.900917 777.5177 1283.8501 4282335039
-57.732109 792.13495 1283.0947 4283450970
-55.326607 792.13495 1283.0947 4283122004
-55.115597 798.47498 1281.9003 4283450974
-52.719265 799.39099 1282.6726 4283974735
7.161468 806.61194 1282.2211 4293120742
9.548624 806.61194 1282.2211 4292857065
7.161468 808.43701 1283.7599 4292660193
10.742202 808.43701 1283.7599 4292791022
2.3798165 812.36346 1281.8385 4293251049
4.7596331 812.36346 1281.8385 4292725734
4.7596331 814.18286 1283.3726 4292725986
-54.313763 828.44946 1282.3214 4284036699
-52.720184 842.57568 1281.1521 4291605958
-46.862385 842.57568 1281.1521 4291672516
-44.519264 842.57568 1281.1521 4291738309
4.6862388 842.57568 1281.1521 4292001999
7.0293579 842.57568 1281.1521 4292067792
10.544037 842.57568 1281.1521 4292001999
14.058716 842.57568 1281.1521 4292199894
16.401834 842.57568 1281.1521 4292199894
-58.57798 844.36707 1282.6625 4291869377
-49.205505 844.36707 1282.6625 4291606719
-42.176147 844.36707 1282.6625 4291540165
11.715596 844.36707 1282.6625 4291936465
14.058716 844.36707 1282.6625 4292068307
16.401834 844.36707 1282.6625 4292068307
18.744955 844.36707 1282.6625 4292001745
-16.350458 849.97272 1282.1569 4291342266
-14.014679 849.97272 1282.1569 4291145909
-10.511009 850.8656 1282.9097 4289763482
-7.0073395 850.8656 1282.9097 4291605418
-4.6715598 850.8656 1282.9097 4291737797
-2.3357799 850.8656 1282.9097 4292395471
-51.517429 755.71381 1286.3942 4287656315
-49.06422 755.71381 1286.3942 4288117659
0 754.77606 1285.6035 4289499289
-48.880733 763.1452 1286.1199 4286869661
-4.8880734 762.21094 1285.3322 4289302167
-2.4440367 762.21094 1285.3322 4289368216
1.2220184 764.07947 1286.9076 4289631384
4.8880734 764.07947 1286.9076 4289499549
-48.697247 769.61078 1285.0314 4283254624
-46.262386 768.68005 1284.2466 4284371844
1.2174312 768.68005 1284.2466 4289500055
4.8697248 768.68005 1284.2466 4289039250
-55.115597 802.13904 1284.9897 4284107884
11.981651 803.05505 1285.7621 4292988390
7.161468 811.17444 1286.0681 4292725732
10.742201 811.17444 1286.0681 4292724978
4.7596331 816.00226 1284.9066 4292726238
-58.807339 840.026 1285.5424 4291473854
-56.455048 840.026 1285.5424 4291539649
-65.607338 847.94971 1285.6833 4291273413
-39.833027 846.15839 1284.1729 4290158250
-37.48991 847.94971 1285.6833 4289700009
-35.14679 846.15839 1284.1729 4291537080
-31.632111 846.15839 1284.1729 4291803067
-28.117432 846.15839 1284.1729 4291738057
-25.774311 846.15839 1284.1729 4290948798
-22.259632 847.94971 1285.6833 4290553270
-18.744955 847.94971 1285.6833 4290947764
1.5620795 847.3526 1285.1798 4292067275
4.6862388 847.05408 1284.9281 4292001233
7.0293579 847.05408 1284.9281 4292067026
10.544037 847.05408 1284.9281 4292002771
14.058716 846.15839 1284.1729 4292133851
16.401834 846.15839 1284.1729 4291739093
18.744955 846.15839 1284.1729 4291803850
1.2266055 757.58936 1287.9755 4289631386
1.2266055 759.46484 1289.5569 4289696925
4.9064221 759.46484 1289.5569 4289565857
7.3321099 765.94794 1288.4832 4289236628
9.7761469 765.94794 1288.4832 4289432733
-48.697247 772.40302 1287.3857 4283121993
14.433027 799.49109 1289.2972 4293118945
14.377981 805.80304 1288.0791 4292791263
-63.511925 841.82434 1287.0586 4292131018
-61.159634 841.82434 1287.0586 4291738048
-55.2789 841.82434 1287.0586 4291738055
-51.750458 841.82434 1287.0586 4291738561
-47.045872 841.82434 1287.0586 4291673016
-44.693577 841.82434 1287.0586 4291804602
-63.511925 843.62268 1288.575 4291275460
-61.159634 843.62268 1288.575 4291341253
-58.807339 843.62268 1288.575 4292064975
-55.2789 843.62268 1288.575 4291409872
-51.750458 843.62268 1288.575 4291738570
-49.398167 843.62268 1288.575 4291541448
-47.045872 843.62268 1288.575 4291279807
-43.517433 843.62268 1288.575 4290093995
-16.401834 849.74103 1287.1937 4290816955
-14.058716 849.74103 1287.1937 4290947260
-11.715596 851.53235 1288.7041 4290553267
-4.6862388 851.53235 1288.7041 4290620074
-2.3431194 851.53235 1288.7041 4290422951
0 849.74103 1287.1937 4292198597
4.6862388 849.74103 1287.1937 4291870148
-51.710091 754.83624 1292.1943 4287131296
4.9247708 754.83624 1292.1943 4289565859
7.387156 754.83624 1292.1943 4289565859
-51.517429 761.34033 1291.1383 4286149014
7.359633 761.34033 1291.1383 4289631134
9.8128443 761.34033 1291.1383 4289433771
12.266055 761.34033 1291.1383 4289433771
-51.517429 763.21582 1292.7196 4284304715
-51.324772 767.81641 1290.0586 4282137939
-52.546791 769.68494 1291.634 4281086773
14.433027 801.33008 1290.8479 4292987620
16.838531 803.16913 1292.3984 4292791263
-63.511925 845.42102 1290.0913 4291141571
-61.159634 845.42102 1290.0913 4291602111
-58.807339 845.42102 1290.0913 4292523212
-56.455048 845.42102 1290.0913 4292195024
-51.750458 845.42102 1290.0913 4292195780
-49.398167 845.42102 1290.0913 4292195780
-47.045872 845.42102 1290.0913 4291737278
-43.517433 845.42102 1290.0913 4289829800
-39.988991 845.42102 1290.0913 4289764269
-35.284405 845.42102 1290.0913 4289700009
-28.227524 845.42102 1290.0913 4290949059
-25.875229 845.42102 1290.0913 4290817217
14.113762 845.42102 1290.0913 4292001243
16.466055 845.42102 1290.0913 4291738071
18.818348 845.42102 1290.0913 4291803854
-25.875229 847.21942 1291.6075 4289040778
-22.34679 847.21942 1291.6075 4289501595
-18.818348 847.21942 1291.6075 4290619576
2.3522935 847.21942 1291.6075 4292132804
7.056881 847.21942 1291.6075 4292330699
10.585321 847.21942 1291.6075 4292199112
14.113762 847.21942 1291.6075 4291738337
16.466055 847.21942 1291.6075 4291475164
21.170643 847.21942 1291.6075 4292132304
-51.710091 756.71875 1293.7816 4287198093
7.387156 756.71875 1293.7816 4289565857
9.8495417 756.71875 1293.7816 4289499814
12.311927 756.71875 1293.7816 4289499814
16.902752 798.68921 1295.1613 4292856291
14.433027 805.00818 1293.9491 4292857567
16.838531 805.00818 1293.9491 4292989409
11.981651 814.04712 1295.0303 4292397017
14.377981 814.04712 1295.0303 4292462295
-54.313763 842.89233 1294.4993 4292458453
-33.060551 842.89233 1294.4993 4290293902
-30.699083 842.89233 1294.4993 4290754453
-16.466055 849.01776 1293.1239 4291145659
-14.113762 849.01776 1293.1239 4291079612
-10.585321 849.91693 1293.8821 4290421688
-7.056881 849.01776 1293.1239 4291013315
13.230275 808.68622 1297.0503 4292659670
11.981651 816.79517 1297.3474 4292462811
14.377981 817.71118 1298.1198 4292463062
-67.301834 844.69769 1296.0215 4291208120
-63.759632 844.69769 1296.0215 4291403695
-61.398167 844.69769 1296.0215 4290941616
-59.036697 844.69769 1296.0215 4290875823
-55.494495 844.69769 1296.0215 4291400102
-51.952293 844.69769 1296.0215 4291665075
-49.590824 844.69769 1296.0215 4291928247
-47.229359 844.69769 1296.0215 4292127938
-43.687157 844.69769 1296.0215 4290485677
-40.144955 844.69769 1296.0215 4289698726
-37.783485 844.69769 1296.0215 4286811012
-34.241287 844.69769 1296.0215 4286284930
-30.699083 844.69769 1296.0215 4286548108
-28.337614 844.69769 1296.0215 4288448898
18.891743 844.69769 1296.0215 4291539911
-61.398167 846.50305 1297.5438 4290942913
-59.036697 846.50305 1297.5438 4290350776
-55.494495 846.50305 1297.5438 4291071637
-49.590824 846.50305 1297.5438 4291402684
-28.337614 846.50305 1297.5438 4288513376
-25.976147 846.50305 1297.5438 4289302892
-22.433945 846.50305 1297.5438 4289829032
-18.891743 846.50305 1297.5438 4291013816
4.7229357 846.50305 1297.5438 4291804602
14.168807 846.50305 1297.5438 4292263661
16.530275 846.50305 1297.5438 4291737317
18.891743 846.50305 1297.5438 4291409608
22.433945 846.50305 1297.5438 4291870155
-67.563309 843.9884 1301.9636 4290748340
-64.007339 843.9884 1301.9636 4291273643
-52.154129 843.9884 1301.9636 4290942133
-46.227524 843.9884 1301.9636 4291273409
-42.671558 843.9884 1301.9636 4290356154
-40.300919 843.9884 1301.9636 4289829810
-37.930275 843.9884 1301.9636 4287400587
-34.374313 843.9884 1301.9636 4284571258
-30.818348 843.9884 1301.9636 4285360288
1.1853211 843.9884 1301.9636 4291345334
7.1119266 843.9884 1301.9636 4292331202
10.667891 843.9884 1301.9636 4292329654
-22.433945 848.30841 1299.066 4291471537
-18.891743 848.30841 1299.066 4291275962
-16.530275 848.30841 1299.066 4291538877
-14.168807 848.30841 1299.066 4291079873
-9.4458714 848.30841 1299.066 4290421164
-7.0844035 848.30841 1299.066 4290815922
-4.7229357 848.30841 1299.066 4288713885
-2.3614678 848.30841 1299.066 4285621357
14.168807 848.30841 1299.066 4292132052
16.530275 848.30841 1299.066 4291737294
18.891743 848.30841 1299.066 4291475119
21.25321 848.30841 1299.066 4291738548
-11.80734 850.11377 1300.5883 4290356141
-66.377983 845.80078 1303.4917 4290484896
-61.636696 845.80078 1303.4917 4291998417
-59.266056 845.80078 1303.4917 4290879680
-49.783485 845.80078 1303.4917 4291074483
-37.930275 845.80078 1303.4917 4289175462
-34.374313 845.80078 1303.4917 4287528589
-30.818348 845.80078 1303.4917 4288184215
-28.447706 845.80078 1303.4917 4290154371
-26.077065 845.80078 1303.4917 4291075473
4.7412844 845.80078 1303.4917 4286737753
7.1119266 845.80078 1303.4917 4287198304
10.667891 845.80078 1303.4917 4291337360
23.706423 845.80078 1303.4917 4291671753
26.077065 845.80078 1303.4917 4291934668
-64.255043 843.29309 1307.9175 4291932342
-57.115597 843.29309 1307.9175 4291205801
-54.735779 843.29309 1307.9175 4291205801
-52.355965 843.29309 1307.9175 4290745518
-46.406422 843.29309 1307.9175 4291274426
-42.836697 843.29309 1307.9175 4291408845
-40.456882 843.29309 1307.9175 4290750658
1.1899083 843.29309 1307.9175 4285623131
-30.818348 847.61316 1305.0199 4290816694
-28.447706 847.61316 1305.0199 4291473063
-26.077065 847.61316 1305.0199 4291735979
-22.521101 847.61316 1305.0199 4291276990
-18.965137 847.61316 1305.0199 4291210932
-16.594496 847.61316 1305.0199 4291737276
-14.223853 847.61316 1305.0199 4290948277
-9.4825687 847.61316 1305.0199 4290552752
-7.1119266 847.61316 1305.0199 4291013303
-4.7412844 847.61316 1305.0199 4289634485
-2.3706422 847.61316 1305.0199 4284304995
11.853211 847.61316 1305.0199 4289962591
14.223853 847.61316 1305.0199 4290752168
16.594496 847.61316 1305.0199 4291410099
18.965137 847.61316 1305.0199 4291540383
22.521101 847.61316 1305.0199 4292131774
26.077065 847.61316 1305.0199 4292459479
-21.335779 849.42554 1306.5481 4290686391
-18.965137 849.42554 1306.5481 4290619311
-16.594496 849.42554 1306.5481 4290948275
-14.223853 849.42554 1306.5481 4290487222
-10.667891 849.42554 1306.5481 4290684341
-7.1119266 849.42554 1306.5481 4291144373
-4.7412844 849.42554 1306.5481 4290948796
16.594496 849.42554 1306.5481 4285290566
-46.406422 845.11249 1309.4515 4291537600
-42.836697 845.11249 1309.4515 4291670997
-40.456882 845.11249 1309.4515 4291210446
-38.077065 845.11249 1309.4515 4289896385
-34.507339 845.11249 1309.4515 4290093239
2.3798165 845.11249 1309.4515 4283780718
4.7596331 845.11249 1309.4515 4286605660
7.1394496 845.11249 1309.4515 4286737247
9.5192661 845.11249 1309.4515 4288975696
-34.507339 846.93188 1310.9856 4291077807
-30.937614 846.93188 1310.9856 4291603628
-28.557798 846.93188 1310.9856 4291276464
-26.177982 846.93188 1310.9856 4291210670
-23.798164 846.93188 1310.9856 4290883514
-2.3798165 846.93188 1310.9856 4290685367
4.7596331 846.93188 1310.9856 4290620609
7.1394496 846.93188 1310.9856 4289765301
10.709174 846.93188 1310.9856 4284640651
14.278899 846.93188 1310.9856 4283843120
19.038532 846.93188 1310.9856 4286933580
22.608257 846.93188 1310.9856 4289102715
26.177982 846.93188 1310.9856 4291469229
-4.7412844 851.23792 1308.0762 4290816944
-69.227524 843.112 1312.9969 4291078851
-66.84037 843.112 1312.9969 4291408563
-64.453209 843.112 1312.9969 4292132286
-62.066055 843.112 1312.9969 4291736013
-58.485321 843.112 1312.9969 4290813113
-54.904587 843.112 1312.9969 4291008438
-52.517429 843.112 1312.9969 4290813112
-50.130276 843.112 1312.9969 4290878905
0 843.112 1312.9969 4283714925
-34.507339 848.75128 1312.5198 4290945955
-30.937614 848.75128 1312.5198 4291405724
-21.418348 848.75128 1312.5198 4291275176
-19.038532 848.75128 1312.5198 4291078065
-16.658716 848.75128 1312.5198 4291143858
-14.278899 848.75128 1312.5198 4290685369
-10.709174 848.75128 1312.5198 4291080120
-7.1394496 848.75128 1312.5198 4290751149
-2.3798165 848.75128 1312.5198 4291408824
14.278899 848.75128 1312.5198 4281744976
16.658716 848.75128 1312.5198 4281547854
19.038532 848.75128 1312.5198 4284236651
22.608257 848.75128 1312.5198 4287526010
26.177982 848.75128 1312.5198 4289630839
-57.291744 844.93701 1314.5358 4290220975
-45.355965 844.93701 1314.5358 4291472821
-42.968807 844.93701 1314.5358 4291210950
-40.58165 844.93701 1314.5358 4290947521
-38.194496 844.93701 1314.5358 4290617779
1.193578 844.93701 1314.5358 4290686146
-40.58165 846.76196 1316.0745 4290290600
-38.194496 846.76196 1316.0745 4290683822
-28.645872 846.76196 1316.0745 4291011488
-26.258715 846.76196 1316.0745 4290748573
-23.871559 846.76196 1316.0745 4290946467
1.193578 846.76196 1316.0745 4290688983
4.774312 846.76196 1316.0745 4290161871
7.161468 846.76196 1316.0745 4290096078
10.742202 846.76196 1316.0745 4285294246
-19.038532 850.57068 1314.0537 4289760131
19.038532 850.57068 1314.0537 4283255378
22.608257 850.57068 1314.0537 4282991695
26.177982 850.57068 1314.0537 4282859598
-70.691742 842.44336 1318.9733 4291737038
-67.097244 842.44336 1318.9733 4291738561
-64.70092 842.44336 1318.9733 4291672768
-62.304588 842.44336 1318.9733 4290881747
-59.908257 842.44336 1318.9733 4290486989
-55.115597 842.44336 1318.9733 4291207870
-52.719265 842.44336 1318.9733 4291471806
-50.322937 842.44336 1318.9733 4291340219
-47.926605 842.44336 1318.9733 4291209905
-33.420185 848.58698 1317.6133 4290415756
-28.645872 848.58698 1317.6133 4290351246
-26.258715 848.58698 1317.6133 4290285453
-22.677982 848.58698 1317.6133 4290021270
-16.710093 848.58698 1317.6133 4290812819
-14.322936 848.58698 1317.6133 4290027703
-10.742202 848.58698 1317.6133 4291080646
-7.161468 848.58698 1317.6133 4290159543
-4.774312 848.58698 1317.6133 4290092453
-2.387156 848.58698 1317.6133 4290355625
11.93578 848.58698 1317.6133 4283779446
14.322936 848.58698 1317.6133 4282797407
16.710093 848.58698 1317.6133 4282928736
-19.097248 850.41199 1319.1521 4289825922
-16.710093 850.41199 1319.1521 4291075989
-14.322936 850.41199 1319.1521 4290947271
-11.93578 850.41199 1319.1521 4291737044
-7.161468 850.41199 1319.1521 4289831094
-4.774312 850.41199 1319.1521 4289437103
-2.387156 850.41199 1319.1521 4290029240
14.322936 850.41199 1319.1521 4286474887
16.710093 850.41199 1319.1521 4286474887
19.097248 850.41199 1319.1521 4285950299
21.484404 850.41199 1319.1521 4284108095
-74.28624 844.27539 1320.5181 4291540674
-70.691742 844.27539 1320.5181 4291542225
-67.097244 844.27539 1320.5181 4291148737
-64.70092 844.27539 1320.5181 4290753979
-62.304588 844.27539 1320.5181 4290750410
-58.710091 844.27539 1320.5181 4290749893
-52.719265 844.27539 1320.5181 4291079864
-50.322937 844.27539 1320.5181 4290816692
-46.728439 844.27539 1320.5181 4290882736
-43.133945 844.27539 1320.5181 4291014322
-74.28624 846.10736 1322.0627 4291541696
-70.691742 846.10736 1322.0627 4289964990
-67.097244 846.10736 1322.0627 4289505456
-64.70092 846.10736 1322.0627 4289637042
-59.908257 846.10736 1322.0627 4290554314
-46.728439 846.10736 1322.0627 4289962398
-43.133945 846.10736 1322.0627 4290883514
-40.737614 846.10736 1322.0627 4290883514
-38.341286 846.10736 1322.0627 4291013567
-35.944954 846.10736 1322.0627 4289500327
-31.152294 846.10736 1322.0627 4290876307
1.1981652 846.10736 1322.0627 4286678951
4.7926607 846.10736 1322.0627 4285749895
7.1889906 846.10736 1322.0627 4286868119
9.5853214 846.10736 1322.0627 4285884822
-55.326607 841.78876 1324.9615 4291473356
-74.28624 847.93939 1323.6074 4291345087
-71.889908 847.93939 1323.6074 4290818754
-40.737614 847.93939 1323.6074 4291278010
-38.341286 847.93939 1323.6074 4290815420
-34.746788 847.93939 1323.6074 4289629856
-31.152294 847.93939 1323.6074 4290878889
-28.755962 847.93939 1323.6074 4290879391
-26.359632 847.93939 1323.6074 4290550426
-22.765137 847.93939 1323.6074 4289758123
-9.5853214 847.93939 1323.6074 4291015111
4.7926607 847.93939 1323.6074 4283783307
7.1889906 847.93939 1323.6074 4283454599
10.783486 847.93939 1323.6074 4285292112
-28.755962 849.77142 1325.1521 4291340221
-26.359632 849.77142 1325.1521 4289760933
-22.765137 849.77142 1325.1521 4290218631
-19.170643 849.77142 1325.1521 4291010986
-16.774311 849.77142 1325.1521 4291603380
-14.377981 849.77142 1325.1521 4291474120
-10.783486 849.77142 1325.1521 4290817998
-7.1889906 849.77142 1325.1521 4286280345
-4.7926607 849.77142 1325.1521 4285947015
-2.3963304 849.77142 1325.1521 4288644785
7.1889906 849.77142 1325.1521 4281875801
10.783486 849.77142 1325.1521 4285091616
14.377981 849.77142 1325.1521 4289891738
16.774311 849.77142 1325.1521 4290089373
19.170643 849.77142 1325.1521 4287135630
21.566973 849.77142 1325.1521 4283714393
-69.759636 845.4668 1328.0627 4288187034
-67.354126 845.4668 1328.0627 4289438884
-64.948624 845.4668 1328.0627 4289899435
-61.741283 844.85376 1327.5459 4290751434
-57.732109 844.54724 1327.2875 4291079117
-55.326607 844.54724 1327.2875 4291210703
-52.921101 844.54724 1327.2875 4290488513
-49.71376 844.85376 1327.5459 4290159541
-45.704586 845.4668 1328.0627 4290422699
-43.299084 845.4668 1328.0627 4290949046
1.2027524 845.4668 1328.0627 4287005606
-71.889908 851.60339 1326.6968 4291147453
-23.963303 851.60339 1326.6968 4289431941
-19.170643 851.60339 1326.6968 4290947010
-16.774311 851.60339 1326.6968 4291539148
-14.377981 851.60339 1326.6968 4291081145
-10.783486 851.60339 1326.6968 4288517555
-7.1889906 851.60339 1326.6968 4283848332
-4.7926607 851.60339 1326.6968 4285421984
-2.3963304 851.60339 1326.6968 4288185290
11.981651 851.60339 1326.6968 4286346109
14.377981 851.60339 1326.6968 4289959291
16.774311 851.60339 1326.6968 4290617221
-73.367889 847.30579 1329.6134 4291409345
-64.948624 847.30579 1329.6134 4290487722
-48.110092 847.30579 1329.6134 4290619572
-45.704586 847.30579 1329.6134 4290488243
-43.299084 847.30579 1329.6134 4290619072
-40.893578 847.30579 1329.6134 4290487743
-37.285324 847.30579 1329.6134 4289828781
-33.677063 847.30579 1329.6134 4290089373
-31.271559 847.30579 1329.6134 4291339440
1.2027524 847.30579 1329.6134 4287397797
4.8110094 847.30579 1329.6134 4283586419
-69.759636 849.14484 1331.1641 4291213247
-67.354126 849.14484 1331.1641 4290949296
-64.948624 849.14484 1331.1641 4289830814
-62.543118 849.14484 1331.1641 4290156974
-37.285324 849.14484 1331.1641 4290224820
-33.677063 849.14484 1331.1641 4290224555
-31.271559 849.14484 1331.1641 4290816692
-28.866055 849.14484 1331.1641 4290881215
-26.46055 849.14484 1331.1641 4289104804
-21.649542 849.14484 1331.1641 4291077022
1.2027524 849.14484 1331.1641 4288841391
4.8110094 849.14484 1331.1641 4284505250
7.2165136 849.14484 1331.1641 4282794375
9.6220188 849.14484 1331.1641 4283451474
-67.097244 857.09949 1331.3309 4291080127
-64.70092 857.09949 1331.3309 4290948798
-62.304588 857.09949 1331.3309 4290619574
-70.025688 844.84027 1334.0746 4290883262
-67.611008 844.84027 1334.0746 4290751151
-61.57431 844.84027 1334.0746 4290421179
-57.952293 844.84027 1334.0746 4289894307
-55.537613 844.84027 1334.0746 4291012787
-53.122936 844.84027 1334.0746 4290554303
-50.708256 844.84027 1334.0746 4290488254
-69.759636 850.98389 1332.7146 4291213512
-67.354126 850.98389 1332.7146 4291015613
-64.948624 850.98389 1332.7146 4290028718
-28.866055 850.98389 1332.7146 4290159295
-25.257797 850.98389 1332.7146 4290224296
-21.649542 850.98389 1332.7146 4291144862
-19.244038 850.98389 1332.7146 4291079362
-16.838531 850.98389 1332.7146 4291408326
-13.230275 850.98389 1332.7146 4289636557
-9.6220188 850.98389 1332.7146 4283855776
-7.2165136 850.98389 1332.7146 4282868881
-4.8110094 850.98389 1332.7146 4286604952
-2.4055047 850.98389 1332.7146 4291604963
2.4055047 850.98389 1332.7146 4291474903
4.8110094 850.98389 1332.7146 4291080908
7.2165136 850.98389 1332.7146 4289830842
9.6220188 850.98389 1332.7146 4288780956
12.027523 850.98389 1332.7146 4289438886
-67.354126 852.82288 1334.2653 4291080895
-64.948624 852.82288 1334.2653 4290949309
-61.340366 852.82288 1334.2653 4291079611
-19.244038 852.82288 1334.2653 4290161342
-16.838531 852.82288 1334.2653 4290687686
-13.230275 852.82288 1334.2653 4289831859
-9.6220188 852.82288 1334.2653 4285953709
-7.2165136 852.82288 1334.2653 4285229985
-4.8110094 852.82288 1334.2653 4286803889
-2.4055047 852.82288 1334.2653 4291080434
7.2165136 852.82288 1334.2653 4291080656
9.6220188 852.82288 1334.2653 4290818241
-64.70092 858.93146 1332.8756 4291210178
-62.304588 858.93146 1332.8756 4291276221
-61.171864 847.91699 1336.6688 4290024357
-57.952293 847.60938 1336.4094 4289960845
-55.537613 846.68634 1335.6311 4291210659
-53.122936 846.68634 1335.6311 4291080897
-49.098469 847.3017 1336.15 4290421681
-45.878899 847.60938 1336.4094 4290552240
-43.464222 846.68634 1335.6311 4290618824
-41.049541 847.60938 1336.4094 4290421190
-37.427521 848.53235 1337.1876 4290028459
-33.805504 848.53235 1337.1876 4290028722
-31.390825 848.53235 1337.1876 4290489273
0 848.53235 1337.1876 4291737819
-60.137615 854.66193 1335.8159 4291080125
-57.732109 854.66193 1335.8159 4290949820
-55.326607 854.66193 1335.8159 4290818491
-52.921101 854.66193 1335.8159 4290684606
-48.110092 854.66193 1335.8159 4290749086
-40.893578 854.66193 1335.8159 4290026419
-4.8110094 854.66193 1335.8159 4285221752
-60.137615 856.50098 1337.3665 4291342270
-57.732109 856.50098 1337.3665 4291145659
-55.326607 856.50098 1337.3665 4291013816
-52.921101 856.50098 1337.3665 4290947762
-49.312843 856.50098 1337.3665 4291079092
-45.704586 856.50098 1337.3665 4291275960
-43.299084 856.50098 1337.3665 4290750647
-40.893578 856.50098 1337.3665 4290092717
-37.285324 856.50098 1337.3665 4290486943
-33.677063 856.50098 1337.3665 4290947521
-31.271559 856.50098 1337.3665 4291145157
-57.952293 850.37842 1338.7441 4291081149
-55.537613 850.37842 1338.7441 4291081149
-49.500916 850.37842 1338.7441 4289894044
-45.878899 850.37842 1338.7441 4290616973
-43.464222 850.37842 1338.7441 4290552262
-41.049541 850.37842 1338.7441 4290223553
-37.427521 850.37842 1338.7441 4289434782
-33.805504 850.37842 1338.7441 4290027192
-31.390825 850.37842 1338.7441 4290619072
-28.976147 850.37842 1338.7441 4290685115
-25.35413 850.37842 1338.7441 4290489276
-21.732111 850.37842 1338.7441 4290227387
1.2073394 850.37842 1338.7441 4292196562
4.8293576 850.37842 1338.7441 4291278292
-50.708256 852.22449 1340.3008 4290486970
-45.878899 852.22449 1340.3008 4291143844
-43.464222 852.22449 1340.3008 4290947521
-37.427521 852.22449 1340.3008 4289105028
-33.805504 852.22449 1340.3008 4290289076
-31.390825 852.22449 1340.3008 4290815420
-28.976147 852.22449 1340.3008 4290554049
-16.902752 852.22449 1340.3008 4284899698
-13.280734 852.22449 1340.3008 4287525774
-9.6587152 852.22449 1340.3008 4286543238
-7.2440367 852.22449 1340.3008 4284043104
-2.4146788 852.22449 1340.3008 4286537612
4.8293576 852.22449 1340.3008 4290618311
-55.326607 858.33997 1338.9171 4291604422
-52.921101 858.33997 1338.9171 4291209919
