# .PCD v0.7 - Point Cloud Data file format
VERSION 0.7
FIELDS x y z rgb
SIZE 4 4 4 4
TYPE F F F U
COUNT 1 1 1 1
WIDTH 1173
HEIGHT 1
VIEWPOINT 0 0 0 1 0 0 0
POINTS 1173
DATA ascii
40.758411 766.1499 791.60205 4285622125
-5.2293577 769.45544 791.77319 4280098077
7.8440366 768.78912 791.2113 4280157201
10.458715 768.78912 791.21136 4280550912
12.782875 768.56708 791.02411 4280879879
16.559633 768.78918 791.21136 4281141260
19.174313 768.78912 791.21136 4279894017
26.14679 769.45544 791.77319 4283781199
28.761467 768.78912 791.2113 4285425247
31.376146 768.78912 791.21136 4285227616
33.700306 768.56708 791.02411 4285227099
37.767586 768.56708 791.02411 4285555556
40.091743 769.45544 791.77319 4286015086
13.900917 772.40698 790.33777 4280483846
16.507339 773.07117 790.89783 4280549389
34.173084 772.62842 790.52441 4285358434
37.069118 772.62842 790.52441 4285555817
13.856881 776.67853 790.01526 4280355089
12.976147 778.76099 790.46313 4280359438
16.420183 779.51923 789.79443 4280488467
19.053211 778.00275 791.13184 4280553238
25.115597 778.00275 791.13184 4282068010
28.548624 778.76099 790.46313 4285293662
32.044037 778.00275 791.13184 4285227115
34.6422 778.00275 791.13184 4285622627
37.240368 778.00275 791.13184 4285951087
12.099083 780.84064 790.90857 4280491551
19.012844 780.84064 790.90857 4280687134
29.383486 780.84064 790.90857 4285423201
31.976147 780.84064 790.90857 4285554785
8.6146793 785.74554 791.12024 4281083437
12.922018 784.42834 790.00952 4280623655
16.367889 784.42834 790.00952 4280753953
19.813763 784.42834 790.00952 4280950303
22.398165 784.42834 790.00952 4279700239
24.982569 785.74554 791.12024 4283119679
28.42844 785.74554 791.12024 4285622129
31.874311 785.74554 791.12024 4285884002
37.904587 785.74554 791.12024 4286279021
8.5963306 788.56799 790.88403 4281412651
10.315597 787.2536 789.77576 4280754728
12.894495 787.2536 789.77576 4280688935
16.333027 787.2536 789.77576 4281017894
18.911926 787.2536 789.77576 4280952352
22.350458 787.2536 789.77576 4279702290
25.78899 788.56799 790.88403 4285883748
28.367889 788.56799 790.88403 4286279777
30.946789 788.56799 790.88403 4286146406
6.8770642 789.88245 791.99219 4281543988
34.385323 789.88245 791.99219 4286540910
36.964218 789.88245 791.99219 4286475887
41.262386 789.88245 791.99219 4286280052
42.981651 789.88245 791.99219 4286214259
5.1412845 793.44629 791.073 4281741623
7.7027521 794.19604 790.39722 4281544240
10.26055 794.94586 789.72144 4281149486
16.245872 794.94586 789.72144 4281149481
18.811008 794.94586 789.72144 4281478447
25.6789 793.54102 789.84491 4286411111
28.246788 793.54095 789.84491 4286345324
31.670639 793.54102 789.84485 4286475115
35.095413 794.19604 790.39722 4286540910
37.702751 793.44629 791.073 4286344049
39.930279 794.00928 789.80371 4286476146
42.844036 793.44629 791.073 4286344562
5.1302752 797.56061 791.92615 4282005324
7.410398 796.68903 791.19122 4281675572
10.26055 796.25323 790.82385 4281478447
35.056881 796.25323 790.82385 4286410357
37.622017 796.25323 790.82385 4286344562
41.042202 796.25323 790.82385 4286345848
43.322327 797.12482 791.55878 4286214256
8.5229359 799.80164 789.89172 4281675826
11.079817 799.80164 789.89172 4281413160
13.636697 799.80164 789.89172 4280953134
16.193579 799.80164 789.89172 4281018413
35.796329 799.80164 789.89172 4286541948
37.500916 799.80164 789.89172 4286542198
40.0578 799.80164 789.89172 4286674299
8.5229359 801.10486 790.99048 4281873204
11.079817 801.10486 790.99048 4281412654
13.60734 803.24622 790.18005 4281281070
16.166973 802.87341 790.51971 4281149989
18.710093 802.59607 789.63184 4281742125
35.719265 802.59607 789.63184 4286738042
37.460548 802.50061 790.85938 4286280054
40.284405 802.53241 790.4502 4286412150
8.5045872 805.19684 791.82471 4281741873
11.906422 805.19684 791.82471 4281609531
8.4770641 808.72137 790.87231 4281938998
10.172477 808.72137 790.87231 4282201670
13.563303 807.42523 789.77942 4281281324
15.258716 807.42523 789.77942 4281281324
38.994495 807.42523 789.77942 4286345846
40.689907 808.0733 790.32587 4286345580
7.6165137 811.77429 791.48438 4282202172
10.714374 811.49756 790.59717 4282004797
13.533945 810.20422 789.50659 4281281072
38.06422 810.20422 789.50659 4286280055
40.601833 811.49756 790.59717 4286606959
11.80367 815.00671 789.63184 4281610283
38.783485 815.00671 789.63184 4286607737
40.469727 815.00671 789.63184 4286542194
42.155964 815.00671 789.63184 4286542194
7.8691125 817.15527 791.44354 4281413433
10.679511 816.72559 791.08124 4281609783
13.46055 817.77026 789.34595 4281675826
37.857796 817.77026 789.34595 4286607991
40.381653 817.77026 789.34595 4286607991
42.905502 817.77026 789.34595 4286476151
45.429359 817.77026 789.34595 4286804863
7.5715594 820.34296 791.51514 4280954681
11.777982 819.05658 790.43054 4281543738
13.46055 819.05658 790.43054 4281543988
8.3853207 823.82825 790.52979 4281282099
10.900917 823.18713 789.98926 4281149734
8.3853207 825.11035 791.61084 4282202174
10.900917 825.11035 791.61084 4281347367
13.387156 825.93384 789.68915 4281083183
15.060551 825.93384 789.68915 4281609528
41.834862 825.29419 789.14978 4286607991
43.508255 825.93384 789.68915 4286805621
46.018349 825.93384 789.68921 4286740076
53.548622 827.21313 790.76782 4286538795
11.675229 830.04333 789.2301 4281019179
13.34312 830.04333 789.2301 4281083187
15.011009 830.04333 789.2301 4281214773
43.365139 830.04333 789.2301 4286805113
45.866974 830.04333 789.2301 4286541679
49.202751 830.04333 789.2301 4286474337
51.704586 830.04333 789.2301 4286143828
11.675229 831.31848 790.3053 4280297257
13.34312 831.31848 790.3053 4280952352
45.866974 831.31848 790.3053 4285948485
49.202751 831.31848 790.3053 4288511071
52.538532 831.31848 790.3053 4292523674
46.598164 834.0484 789.99097 4287526544
49.926605 834.0484 789.99097 4292000671
1.6605505 838.67688 791.27753 4280623147
0 842.11377 790.25134 4279965217
4.1376147 842.11383 790.25134 4281542962
7.1718655 842.32471 790.4292 4281082156
9.930275 842.74646 790.78479 4281806114
18.205505 842.74646 790.78479 4281411107
21.515596 842.74646 790.78479 4281477400
25.65321 842.74646 790.78479 4281609781
29.239143 842.32471 790.4292 4285813866
31.445871 842.74646 790.78479 4294960895
33.92844 842.74646 790.78479 4294897402
37.514374 842.32471 790.4292 4293978083
40.548622 842.11377 790.25134 4293780710
43.582874 841.90289 790.07355 4293452511
47.168808 842.11377 790.25134 4292992483
49.651375 842.11377 790.25134 4292926947
52.133945 842.11377 790.25134 4293058275
54.616512 842.11377 790.25134 4292926687
8.2752295 844.01178 791.85168 4281214232
11.025077 844.07111 791.02979 4282134579
14.036697 844.82117 789.91809 4281675053
16.513762 844.82117 789.91809 4281871658
19.294189 844.07111 791.02979 4281674531
22.601837 844.07111 791.02979 4281543220
25.65321 844.01178 791.85168 4281610034
28.963303 844.01178 791.85168 4283320662
31.445871 844.01178 791.85168 4293123837
47.99633 844.01178 791.85168 4293255655
49.651375 844.01178 791.85168 4292795878
52.133945 844.01178 791.85168 4292860899
54.616512 844.01178 791.85168 4293057249
58.754128 844.01178 791.85168 4292926173
61.236698 844.01178 791.85168 4292925661
5.3009176 752.11389 794.15558 4278190091
7.0678897 750.08752 792.44702 4278193739
35.339451 750.08752 792.44702 4285754212
37.989906 750.08752 792.44702 4285687916
40.640366 750.76294 793.01654 4285293162
42.407341 752.78931 794.7251 4285358950
40.51376 755.09766 792.74731 4285293661
42.27523 756.44434 793.88281 4285424744
-3.5119267 761.43335 794.16541 4280163870
-1.7559633 761.43335 794.16541 4280032284
0.87798166 760.09094 793.03345 4282456838
42.14312 760.09094 793.03345 4285556586
-3.5045872 764.30353 793.96936 4280097575
-1.7522936 764.30353 793.96936 4280426540
0.87614679 762.96387 792.83972 4279507998
4.380734 762.96387 792.83972 4279566863
42.93119 763.63367 793.40454 4285687916
-3.493578 767.93054 793.10339 4280358950
-1.746789 767.93054 793.10339 4280951087
0 767.93054 793.10339 4281609781
5.2403669 767.93054 793.10339 4280688433
20.961468 767.93054 793.10339 4279174929
22.708258 767.93054 793.10339 4278190080
24.455046 767.93054 793.10339 4278190080
41.922935 767.93054 793.10339 4286015086
-4.3577981 770.78809 792.89673 4280228899
-1.7431192 770.78809 792.89673 4280754478
0.87339449 770.02698 793.56305 4281870631
4.3614678 770.02698 793.56305 4281870906
7.8440366 770.78809 792.89673 4280424967
10.458715 770.78809 792.89673 4279174425
12.201835 770.78809 792.89673 4278911252
20.06789 770.02698 793.56305 4280026132
22.708258 769.26593 794.22937 4278190081
25.27523 770.78809 792.89673 4281280551
28.761467 770.78809 792.89673 4285294166
31.376146 770.78809 792.89673 4285096035
40.963303 770.78809 792.89673 4285818226
43.669724 769.26593 794.22937 4286146419
-1.7431192 772.12073 794.02039 4280360472
0 772.12073 794.02039 4281739045
4.3577981 772.12073 794.02039 4281936174
10.458715 772.12073 794.02039 4280491801
20.917431 772.12073 794.02039 4280094732
22.660551 772.12073 794.02039 4278583296
25.27523 772.12073 794.02039 4281609001
40.963303 772.12073 794.02039 4285753970
-4.3440366 774.3996 792.01782 4279837472
7.8192658 775.06384 792.57788 4280886557
10.425688 775.72803 793.13794 4280755730
12.163302 774.3996 792.01782 4279899921
19.982569 775.06384 792.57788 4280553490
22.588991 775.72803 793.13794 4279042048
28.670643 774.3996 792.01782 4285491038
31.277063 774.3996 792.01782 4285162341
33.883484 774.3996 792.01782 4285425257
37.358719 774.3996 792.01782 4285688690
39.965137 775.72803 793.13794 4285950840
-4.3440366 777.05646 794.25806 4279965968
-1.7376146 777.05646 794.25806 4280162074
0 777.05646 794.25806 4281281322
5.2128439 777.05646 794.25806 4281019942
7.8055043 778.19171 793.25323 4280886310
10.39266 779.32697 792.24841 4280952102
20.78532 779.32697 792.24841 4280686364
22.517431 779.32697 792.24841 4279107589
25.115597 779.32697 792.24841 4282591793
27.713762 779.32697 792.24841 4285949545
34.6422 779.32697 792.24841 4285949543
37.240368 779.32697 792.24841 4286081902
40.833946 777.05646 794.25806 4285950314
43.440369 777.05646 794.25806 4286212711
0 781.9754 794.48145 4281869359
5.1963301 781.9754 794.48145 4281806635
7.7853212 781.40662 792.69385 4281017900
10.370643 782.16205 792.02271 4280690218
25.062386 782.16205 792.02271 4282659641
28.519266 782.16205 792.02271 4285753458
31.976147 782.16205 792.02271 4285884000
34.568806 782.16205 792.02271 4285949543
37.161469 782.16205 792.02271 4286212714
40.704586 780.65118 793.36499 4286147171
43.302753 780.65118 793.36499 4286213214
46.766972 781.9754 794.48145 4286344301
48.499084 781.9754 794.48145 4286344814
5.1853213 784.80487 794.2511 4281610283
6.9137616 783.48346 793.13696 4281609781
34.568806 783.48346 793.13696 4286079846
36.297249 783.48346 793.13696 4286474604
40.618347 783.48346 793.13696 4286279021
44.07523 783.48346 793.13696 4286212972
46.667889 784.80487 794.2511 4286017133
48.396332 784.80487 794.2511 4286344814
5.1688075 788.37994 793.34143 4281347640
6.8917432 787.06274 792.23083 4281610287
32.735779 787.06274 792.23083 4286146406
34.458717 787.06274 792.23083 4286277995
37.043121 787.06274 792.23083 4286475885
40.488991 787.06274 792.23083 4286476658
44.222015 787.50177 792.60107 4286148207
46.519264 788.37994 793.34143 4286214511
48.242203 788.37994 793.34143 4286214511
0.8614679 789.69714 794.45203 4280820297
3.4458716 789.69714 794.45203 4281872952
44.700916 791.19678 793.10046 4286214511
46.420185 791.19678 793.10046 4286214511
49.103668 789.69714 794.45203 4286410607
0.85963303 792.51123 794.20874 4280295749
4.2899084 793.63385 793.19324 4281807941
44.557796 794.75647 792.17773 4286344299
46.271561 794.75647 792.17773 4286607470
48.13945 792.51123 794.20874 4286280302
0 796.72174 793.83484 4280030258
3.4275229 796.72174 793.83484 4282070853
46.842815 796.94012 794.01898 4286411629
4.560245 799.73956 793.76343 4282071087
6.8403668 798.86798 793.02856 4281873204
43.607338 798.86798 793.02856 4286411381
46.172478 800.17542 794.13086 4286476150
5.1137614 803.71118 793.18811 4281742125
7.3865438 802.84247 792.45557 4281741870
10.795719 802.84247 792.45557 4281609778
43.466972 803.05957 792.63867 4286345588
4.2614679 805.01434 794.28687 4281742627
6.8036699 806.49719 792.92114 4281873204
43.421101 805.75574 793.604 4286541944
5.1027522 807.79755 794.01758 4281742902
4.2385321 811.96179 793.60455 4281479476
4.5113149 814.94653 793.50519 4281216810
6.7669725 814.08429 792.7782 4281545271
1.6917431 816.67096 794.95923 4282004278
4.2211008 817.77258 793.92603 4281216808
4.2155962 820.16327 793.97974 4281282851
6.7302752 821.62927 792.59973 4281282099
5.0477066 822.91565 793.68433 4281019179
6.7302752 822.91565 793.68433 4281609781
8.3853207 826.39252 792.69189 4282006074
10.062386 827.03357 793.23242 4280493607
-1.6605505 841.85065 793.95361 4279832602
0.83027524 841.21594 793.4184 4280161825
4.1513762 841.85065 793.95361 4282066738
6.6422019 841.85065 793.95361 4280753681
34.041283 841.85065 793.95361 4293650933
37.362385 841.85065 793.95361 4293255648
40.960247 841.42749 793.59686 4293124069
44.281342 841.42749 793.59686 4293123808
46.495415 841.85065 793.95361 4292861153
56.458717 841.21594 793.4184 4293123808
11.585321 845.27704 792.91846 4281543486
14.06789 845.27704 792.91846 4281477945
16.550459 845.27704 792.91846 4281544490
19.033028 845.27704 792.91846 4281740842
22.343121 845.27704 792.91846 4281872437
49.651375 845.27704 792.91846 4292926694
51.306423 845.27704 792.91846 4292860901
54.616512 845.27704 792.91846 4292991456
58.754128 845.27704 792.91846 4293057501
43.471558 748.35498 796.21826 4285358953
44.311928 751.15845 797.27405 4285424743
-1.7669724 755.49103 797.00305 4282916889
44.036697 757.79095 795.01831 4285622379
44.036697 759.13763 796.15381 4285753710
46.678898 760.48425 797.28918 4286212463
1.7522936 765.64319 795.09888 4281543988
3.5045872 765.64319 795.09888 4281280570
43.807339 765.64319 795.09888 4286146415
46.176758 766.02899 796.29614 4285884793
1.746789 770.60138 795.35547 4282594098
43.669724 770.60138 795.35547 4285819501
46.36422 769.46191 796.35675 4285885045
-3.4862385 773.45331 795.14404 4280162825
-1.7431192 773.45331 795.14404 4280031239
0.87155962 773.45331 795.14404 4282398002
4.3577981 773.45331 795.14404 4281806115
41.834862 773.45331 795.14404 4285885547
43.57798 773.45331 795.14404 4285885547
46.581039 772.38202 796.85675 4285950573
48.910091 773.27228 797.60742 4286278508
1.7431192 774.78595 796.2677 4282860098
3.4862385 774.78595 796.2677 4281480493
45.321102 774.78595 796.2677 4286212715
48.807339 776.11859 797.39136 4286475371
-3.4752293 779.04907 795.93817 4280358170
-1.7376146 779.04907 795.93817 4280095254
1.1584097 778.82764 795.75146 4282726205
4.0544343 778.82764 795.75146 4282333472
46.046791 778.38489 795.37817 4286278508
50.390827 779.71332 796.49817 4286410607
1.7376146 781.04175 797.61829 4282596430
52.997246 781.04175 797.61829 4286279805
-1.7321101 783.96167 796.15631 4280162830
0.57737005 784.18237 796.34247 4280952128
3.4642203 783.29956 795.59802 4282531385
50.231194 783.29956 795.59802 4286410607
53.695412 785.28589 797.27283 4286017136
-3.4568808 788.7691 797.59363 4280097575
-1.7284404 787.44769 796.47949 4279768862
3.4568808 786.12628 795.36523 4282202949
50.124771 786.12628 795.36523 4286280304
52.429356 787.44769 796.47949 4286280306
-1.7229358 791.01434 795.56274 4279702817
49.965137 791.01434 795.56274 4286346096
51.688072 791.01434 795.56274 4286346098
-3.4458716 792.99011 797.22864 4280228125
-1.7192661 793.82556 795.31702 4280162335
1.7192661 793.82556 795.31702 4281544019
48.999084 793.82556 795.31702 4286542448
52.549541 792.99011 797.22864 4286346610
-3.4385321 796.45435 797.53357 4280096030
-1.7192661 795.79718 796.97943 4280096027
1.7192661 795.14001 796.42529 4281477182
49.858715 795.79718 796.97943 4286346101
51.57798 796.45435 797.53357 4286346611
-1.7137614 799.99719 796.59656 4280097298
1.1425077 799.12372 795.86017 4281017398
47.985321 799.3421 796.04425 4286214261
-1.7137614 801.30737 797.70129 4280294155
0.57003057 802.35431 795.96808 4280426792
3.4201834 801.48279 795.23315 4281544490
46.742508 802.35431 795.96808 4286476671
49.699081 801.30737 797.70129 4286345850
0.85504586 804.09753 797.43787 4280558632
3.4091742 806.3175 795.38562 4281348144
43.466972 806.3175 795.38562 4286673018
46.172478 804.09753 797.43787 4286673284
0.5681957 808.05518 796.85077 4280360743
3.401835 809.0979 795.11401 4281413685
44.223854 809.0979 795.11401 4286541946
52.842201 808.92389 797.58325 4286281336
54.546787 808.92389 797.58325 4286412156
1.7009175 810.39825 796.21045 4281282351
52.728439 811.69861 797.30688 4286412154
54.429359 811.69861 797.30688 4286542198
1.6954129 813.90601 795.2439 4281741857
1.6917431 817.96436 796.04968 4281742400
-7.5055046 840.24432 797.8313 4279504645
-3.9941285 841.93671 796.64221 4279438601
-1.6642202 842.31836 796.96399 4279306762
1.2481651 842.00037 796.6958 4279437844
4.1605506 842.95453 797.50037 4281081122
7.4889908 842.95453 797.50037 4281674781
9.985321 842.95453 797.50037 4281543738
25.795414 842.95453 797.50037 4281808437
29.123852 842.95453 797.50037 4282600264
34.116516 841.68225 796.42761 4293716460
37.444954 841.68225 796.42761 4293189601
40.496021 842.10638 796.78516 4293386472
43.824467 842.53046 797.14276 4293254626
46.598164 842.95453 797.50037 4292925663
64.072479 842.95453 797.50037 4292991708
0 843.12018 795.02393 4279898395
4.1513762 843.12018 795.02393 4281937201
7.472477 843.12018 795.02393 4281936670
10.793578 843.75488 795.55914 4281477947
14.114679 844.38965 796.09436 4281019183
16.605505 844.38965 796.09436 4281478697
19.096329 844.38965 796.09436 4281478700
22.417431 844.38965 796.09436 4281610035
25.738533 843.12018 795.02393 4281938745
29.059633 843.12018 795.02393 4282992716
31.550459 843.12018 795.02393 4292073182
44.834862 843.12018 795.02393 4292925659
46.495415 843.12018 795.02393 4292860901
48.709484 843.96649 795.73755 4293189095
52.584103 843.96649 795.73755 4293057507
55.794495 844.64355 796.30847 4292860380
58.949539 845.02441 796.62952 4292991707
61.440369 843.75488 795.55914 4292860123
63.93119 844.38965 796.09436 4292991452
66.42202 845.65918 797.16479 4292925659
-1.7761468 750.29993 799.16614 4284818722
0.88807338 750.29993 799.16614 4283899952
47.06789 750.29993 799.16614 4285688420
51.508255 751.65778 800.31116 4285885547
46.970642 753.19104 798.98792 4285819754
49.629356 753.86859 799.5592 4286016360
46.824768 756.84186 798.14209 4286212462
49.475231 758.19275 799.28113 4286146917
51.242203 758.19275 799.28113 4286212711
54.776146 758.19275 799.28113 4286214761
47.559631 761.83093 798.42468 4285950838
49.321102 761.83093 798.42468 4285951344
52.045872 760.68726 799.42242 4285885803
54.776146 759.54358 800.42017 4285885799
49.321102 763.17761 799.56018 4285885297
51.963303 763.85095 800.12793 4286016108
54.605503 764.52423 800.69568 4286278506
50.044952 766.80316 798.69312 4286212463
50.303364 769.09863 799.75653 4286212715
52.678898 769.4881 800.95691 4286278506
50.816513 772.34143 800.7467 4286475371
52.403671 775.94312 799.8595 4286410357
54.150459 775.94312 799.8595 4286410357
-3.4862385 778.78381 799.63867 4280162825
-3.4862385 780.11646 800.76221 4280163091
-3.4752293 783.69855 799.85852 4279900192
55.603668 783.69855 799.85852 4286279260
55.427525 787.27222 798.94763 4286346096
57.737003 787.71362 799.31982 4286477428
-6.9137616 791.41193 799.82202 4280163091
-5.1853213 791.41193 799.82202 4280097298
55.310093 790.75122 799.26489 4286412405
-7.753211 794.96594 798.89453 4280097816
-5.1688075 794.96594 798.89453 4279966491
53.411011 794.96594 798.89453 4286346611
55.133945 794.96594 798.89453 4286346861
57.902752 792.73328 800.93616 4286346864
-10.337615 796.28314 800.00525 4280294173
-7.753211 796.28314 800.00525 4280228380
-4.2981653 797.7688 798.64185 4280228632
49.858715 797.7688 798.64185 4286345848
52.494495 797.026 799.32355 4286607987
55.133945 796.28314 800.00525 4286608243
-6.8770642 800.39758 800.85828 4280228884
-4.2981653 799.74036 800.3042 4280228623
52.437614 799.74036 800.3042 4286411124
55.876144 800.39758 800.85828 4286411641
-3.4275229 803.27264 799.3584 4280162835
-1.7137614 802.61755 798.80603 4280097298
47.985321 802.61755 798.80603 4286673532
49.699081 803.27264 799.3584 4286607739
53.126606 803.92773 799.91077 4286675062
55.697247 803.92773 799.91077 4286411389
-3.4201834 806.71228 799.64258 4280163091
-1.7100917 806.05859 799.09143 4279965455
47.312542 805.84064 798.90771 4286542460
51.302753 806.05859 799.09143 4286280821
56.433029 806.71228 799.64258 4286346363
0 810.22705 798.68213 4279702275
52.728439 812.99902 798.40332 4286674036
55.34037 811.61304 798.54272 4286607731
54.429359 814.29938 799.49976 4286408295
-10.040367 838.0874 799.93677 4280096784
-7.5055046 842.15698 799.44397 4278912002
-4.1697249 842.79456 799.98157 4279435776
1.66789 842.79456 799.98157 4279959552
5.0036697 842.79456 799.98157 4282588717
7.5055046 842.79456 799.98157 4281672982
10.841284 842.79456 799.98157 4280820014
16.6789 842.79456 799.98157 4281149482
25.852295 842.79456 799.98157 4282070586
28.354128 842.79456 799.98157 4282794556
31.133947 842.36945 799.62323 4287930274
34.191742 842.15698 799.44397 4293255663
37.527523 842.15698 799.44397 4293386466
41.141285 842.36945 799.62323 4293452005
43.365139 842.79456 799.98157 4293255394
45.033028 842.79456 799.98157 4293255394
-1.6642202 844.22687 798.57312 4279500800
0 844.22687 798.57312 4280287235
3.3284404 844.22687 798.57312 4281009685
14.145872 844.22687 798.57312 4280952884
19.138531 844.22687 798.57312 4281544242
22.466972 844.22687 798.57312 4281807162
46.598164 844.22687 798.57312 4292926431
49.094498 844.22687 798.57312 4293189349
52.422935 844.22687 798.57312 4292991969
55.751373 845.49915 799.64587 4292991966
58.247707 845.49915 799.64587 4293057501
61.576145 844.22687 798.57312 4292991706
63.240368 844.22687 798.57312 4292991708
49.886238 747.99573 801.14746 4285885295
53.449543 749.35785 802.29602 4285951344
52.655659 753.97754 801.39502 4286082409
55.060551 753.01569 801.45605 4286017133
53.009174 760.89447 801.5592 4285819501
54.776146 760.89447 801.5592 4285885295
56.543118 762.92078 803.26764 4286147950
52.844036 765.87091 801.83105 4286213466
54.605503 766.54425 802.3988 4286344548
52.678898 770.83051 802.08887 4286279021
55.897247 778.61401 802.11145 4286279271
57.644035 778.61401 802.11145 4286410857
-5.2293577 781.4491 801.88586 4280031782
57.522934 781.4491 801.88586 4286608224
57.159634 789.92065 801.18079 4286412658
57.902752 794.05469 802.05029 4286411634
-7.7669725 796.48822 802.1402 4280227867
-5.1688075 797.60034 801.11584 4280359452
55.995415 797.60034 801.11584 4286411641
58.579815 797.60034 801.11584 4286412404
-7.753211 799.57617 802.78174 4280162843
58.579815 798.91754 802.22644 4286608243
-5.1577983 801.71198 801.96655 4280032284
58.455048 801.71198 801.96655 4286542194
49.699081 805.23792 801.0155 4286411902
-11.164525 839.31573 801.84442 4279502603
-10.040367 841.28577 802.63348 4279436546
-8.3669729 841.92542 803.17285 4280487427
1.6733944 841.92542 803.17285 4281270286
5.0201836 841.92542 803.17285 4281597955
10.877064 841.92542 803.17285 4278255638
30.957798 841.92542 803.17285 4286218373
34.304588 841.92542 803.17285 4292926193
37.651375 841.92542 803.17285 4293452007
41.834862 841.92542 803.17285 4293255142
-6.6715598 844.06964 801.05664 4281274628
-4.1697249 844.06964 801.05664 4282326293
-1.66789 844.06964 801.05664 4282720026
0 844.70715 801.59424 4284035136
3.3357799 844.06964 801.05664 4281597955
7.5055046 844.06964 801.05664 4280025102
13.34312 844.06964 801.05664 4278717980
15.844954 844.06964 801.05664 4279967261
19.180733 844.06964 801.05664 4281873454
22.516514 844.06964 801.05664 4282069559
25.852295 844.06964 801.05664 4282332731
28.354128 844.06964 801.05664 4281610033
40.029358 844.06964 801.05664 4293255142
43.365139 844.70715 801.59424 4293254885
45.86697 844.70715 801.59424 4293189092
49.202751 844.70715 801.59424 4293189094
52.538532 844.70715 801.59424 4293057762
55.874313 845.34473 802.13184 4293123807
58.376148 845.34473 802.13184 4292860636
60.877983 844.70715 801.59424 4292991708
63.93578 844.49463 801.41504 4292925660
66.715599 844.06964 801.05664 4292991708
56.543118 764.94708 804.9762 4286344301
56.543118 766.29791 806.11523 4286279021
54.605503 768.56421 804.10205 4286279021
-6.8917432 801.55194 804.44775 4280162578
-13.46055 837.7085 806.15729 4278583558
-11.180428 841.35065 805.3042 4282134310
-15.093578 843.06018 806.74561 4290621107
-10.900917 843.06018 806.74561 4291476668
-7.5385323 843.13245 805.49854 4288187270
-4.1880732 843.13245 805.49854 4288449931
-1.6752293 843.13245 805.49854 4288580492
1.1168195 843.58301 805.44238 4288646806
4.1880732 843.13245 805.49854 4286737284
7.5339451 843.4884 805.14465 4285223280
10.883486 843.4884 805.14465 4283910492
13.401834 843.13245 805.49854 4281940565
15.897248 843.84436 804.79083 4280295991
19.244038 843.84436 804.79077 4279834912
22.590824 843.84436 804.79083 4281083432
25.937614 843.84436 804.79083 4281938230
28.478899 843.13245 805.49854 4282332730
30.991743 843.13245 805.49854 4284575864
34.342201 843.13245 805.49854 4292203242
37.671562 843.4884 805.14465 4293452009
40.998165 843.84436 804.79083 4293320165
43.508255 844.48401 805.3302 4293254881
46.018349 844.48401 805.3302 4292991963
49.365135 844.48401 805.3302 4293123554
52.711926 844.48401 805.3302 4293123302
56.058716 844.48401 805.3302 4293057762
58.568806 844.48401 805.3302 4293057762
61.078899 844.48401 805.3302 4292794845
64.704582 844.05762 804.97064 4292859868
67.009171 843.13245 805.49854 4292662231
-13.46055 839.638 807.78418 4282921255
-19.349541 841.5675 809.41113 4290880135
-16.264832 841.78192 809.59198 4291542197
-13.46055 841.5675 809.41113 4291738808
-10.936697 842.21069 809.95349 4291871676
-7.5715594 842.21069 809.95349 4291675068
-5.0477066 842.21069 809.95349 4292003516
1.6825688 842.21069 809.95349 4292265920
4.2064219 842.21069 809.95349 4291541696
11.777982 842.21069 809.95349 4289767297
20.190826 842.21069 809.95349 4279965446
68.144035 842.21069 809.95349 4293057249
70.667892 842.21069 809.95349 4292860138
-3.3541284 844.34229 807.82666 4291937206
-1.6770642 844.34229 807.82666 4291542704
0 844.34229 807.82666 4291936956
7.5467887 844.34229 807.82666 4291344817
10.062386 844.34229 807.82666 4290951314
13.416513 844.34229 807.82666 4287728071
15.93211 844.34229 807.82666 4284438439
18.447706 844.34229 807.82666 4281214344
22.640366 844.34229 807.82666 4279374106
25.994495 844.34229 807.82666 4280624441
28.510092 844.34229 807.82666 4282466123
31.025688 844.34229 807.82666 4282864981
34.379814 844.34229 807.82666 4290756332
37.454433 844.76971 808.18701 4293715183
41.088074 844.34229 807.82666 4293582824
43.603668 844.34229 807.82666 4293452255
46.119267 844.34229 807.82666 4293255128
49.473396 844.34229 807.82666 4293058270
52.827522 844.34229 807.82666 4293123816
55.343121 844.9834 808.36719 4292992226
58.138226 844.76971 808.18701 4293057763
61.492355 844.76971 808.18701 4292860384
64.566971 844.34229 807.82666 4293057501
-21.921101 842.07874 812.45825 4292199362
-19.391743 842.07874 812.45825 4291543997
-10.96055 842.07874 812.45825 4291279291
1.6862385 842.07874 812.45825 4291147194
4.2155962 842.07874 812.45825 4290882989
20.234863 842.07874 812.45825 4289833392
21.921101 842.07874 812.45825 4289372841
49.744034 842.07874 812.45825 4293124578
52.273396 842.07874 812.45825 4292992999
67.449539 842.07874 812.45825 4292925659
69.978897 842.07874 812.45825 4292859871
-15.703975 843.92578 811.3996 4291279286
-13.46055 843.49701 811.03809 4291279025
-7.5715594 843.49701 811.03809 4291148218
-4.2064219 843.49701 811.03809 4291477431
-1.6825688 843.49701 811.03809 4291740347
0 843.49701 811.03809 4291870661
7.5715594 843.49701 811.03809 4291410360
10.936697 843.49701 811.03809 4291215547
13.46055 843.49701 811.03809 4291216081
15.984404 843.49701 811.03809 4291281363
18.508257 843.49701 811.03809 4290820301
23.555964 843.49701 811.03809 4284119688
26.079817 843.49701 811.03809 4279445801
28.60367 843.49701 811.03809 4280693028
31.127522 843.49701 811.03809 4281614873
34.492661 843.49701 811.03809 4290951639
38.699081 843.49701 811.03809 4293189099
40.381653 843.49701 811.03809 4293254629
42.905502 843.49701 811.03809 4293123299
46.270645 843.49701 811.03809 4293255393
53.842201 843.49701 811.03809 4293057762
55.524769 844.78339 812.12268 4292926431
57.7682 844.35455 811.76117 4292926178
61.133331 844.35455 811.76117 4292926176
64.7789 843.49701 811.03809 4292991967
1.6917431 841.24463 815.67908 4289633703
3.3834863 841.24463 815.67908 4289894025
72.744957 841.24463 815.67908 4292925661
-21.921101 843.36786 813.54529 4291675335
-19.391743 843.36786 813.54529 4291411895
-16.300306 844.22729 814.26984 4291079334
-13.489908 844.01245 814.08875 4291208606
-10.96055 843.36786 813.54529 4291802042
-7.5880728 844.01245 814.08875 4290811034
-4.4966359 843.79761 813.90753 4291470234
-1.6862385 843.36786 813.54529 4292526776
0 843.36786 813.54529 4291804616
5.0587158 843.36786 813.54529 4290288783
7.5880733 843.36786 813.54529 4290422447
10.96055 844.01245 814.08875 4290424228
13.489908 844.01245 814.08875 4290425521
16.019266 844.01245 814.08875 4291543240
19.391743 843.36786 813.54529 4291740355
22.764221 843.36786 813.54529 4289437332
26.136696 843.36786 813.54529 4283777366
28.666056 843.36786 813.54529 4281736265
31.195412 843.36786 813.54529 4281350486
34.56789 843.36786 813.54529 4289835471
37.659328 843.79761 813.90753 4293913333
40.469727 843.36786 813.54529 4293189349
42.999084 843.36786 813.54529 4293123557
46.371559 843.36786 813.54529 4293123810
49.744034 843.36786 813.54529 4293255395
53.116516 843.36786 813.54529 4292992225
59.018349 844.65704 814.6322 4292926433
62.390827 844.65704 814.6322 4292991454
64.920181 843.36786 813.54529 4292991454
67.449539 843.36786 813.54529 4292794330
69.978897 843.36786 813.54529 4292925916
-21.873394 846.0697 813.20728 4291281606
-19.455046 842.53802 816.76965 4291148723
-10.99633 842.53802 816.76965 4290942106
-3.3834863 842.53802 816.76965 4289890945
-1.6917431 842.53802 816.76965 4292457128
0.84770644 841.83167 817.48212 4290291631
4.2293577 842.53802 816.76965 4289827453
7.612844 842.53802 816.76965 4289829794
19.455046 842.53802 816.76965 4291147712
22.838531 842.53802 816.76965 4290158761
25.376146 842.53802 816.76965 4289564828
27.913761 842.53802 816.76965 4288709262
31.297249 842.53802 816.76965 4281548337
34.680733 842.53802 816.76965 4288322204
38.910091 842.53802 816.76965 4293715958
40.601833 842.53802 816.76965 4293255394
43.13945 842.53802 816.76965 4293123810
46.522934 842.53802 816.76965 4293123300
49.906422 842.53802 816.76965 4293189092
52.444038 842.53802 816.76965 4293123556
54.981651 842.53802 816.76965 4293057761
57.519264 842.53802 816.76965 4293057762
60.902752 842.53802 816.76965 4293057247
65.132111 842.53802 816.76965 4292530907
67.669724 842.53802 816.76965 4292531157
70.207336 842.53802 816.76965 4292728538
72.902756 841.12531 818.19458 4292794332
-18.609175 843.83136 817.86011 4290753450
-16.07156 843.83136 817.86011 4290554021
-13.533945 843.83136 817.86011 4290879139
-10.150458 843.83136 817.86011 4290413209
-7.612844 843.83136 817.86011 4290281101
-4.2293577 843.83136 817.86011 4289756544
-1.6917431 843.83136 817.86011 4292653488
0 843.83136 817.86011 4291345602
5.0752292 843.83136 817.86011 4290159232
7.612844 843.83136 817.86011 4290226882
11.278287 844.26245 818.22363 4290031289
13.533945 844.47803 818.4054 4290753723
16.07156 844.47803 818.4054 4291149512
19.455046 843.83136 817.86011 4289702311
22.838531 843.83136 817.86011 4289240212
25.376146 843.83136 817.86011 4288579979
32.14312 843.83136 817.86011 4280620880
33.834862 843.83136 817.86011 4284045348
42.293579 843.83136 817.86011 4293189599
45.677063 843.83136 817.86011 4293057762
67.669724 843.83136 817.86011 4292925663
70.489296 844.26245 818.22363 4292859869
-20.344954 842.42151 819.28735 4291608758
-11.86789 842.42151 819.28735 4290155416
1.6954129 842.42151 819.28735 4288911005
3.3908257 842.42151 819.28735 4289238130
27.974312 842.42151 819.28735 4289433251
30.517431 842.42151 819.28735 4285686941
35.603668 842.42151 819.28735 4292730024
38.14679 842.42151 819.28735 4293782255
40.689907 842.42151 819.28735 4293321441
44.080734 842.42151 819.28735 4293123556
47.471561 842.42151 819.28735 4293123042
50.014679 842.42151 819.28735 4293057503
52.557796 842.42151 819.28735 4293123294
55.100918 842.42151 819.28735 4293254626
58.491745 842.42151 819.28735 4293123044
61.882568 842.42151 819.28735 4293123295
64.42569 842.42151 819.28735 4292860134
66.121101 842.42151 819.28735 4292860134
72.902756 842.42151 819.28735 4292596696
-18.649542 843.71765 820.38025 4291674563
-16.106422 843.71765 820.38025 4291477954
-13.563303 843.71765 820.38025 4292263109
-11.020184 843.71765 820.38025 4290153614
-7.6293578 843.71765 820.38025 4290806911
-4.2385321 843.71765 820.38025 4289888121
0 843.71765 820.38025 4292069598
7.6293578 843.71765 820.38025 4290557881
11.020184 844.36572 820.9267 4289900225
13.563303 845.01379 821.47314 4290687416
16.106422 845.01379 821.47314 4291806404
19.497248 844.36572 820.9267 4287992206
22.888073 844.36572 820.9267 4289306513
25.431192 843.71765 820.38025 4290160549
27.974312 843.71765 820.38025 4291210932
42.385323 843.71765 820.38025 4293321187
45.776146 843.71765 820.38025 4293189349
50.862385 843.71765 820.38025 4293254629
67.816513 843.71765 820.38025 4292991454
70.359634 844.36572 820.9267 4292925660
73.467888 844.58173 821.10889 4292794331
-22.111927 841.60706 822.5249 4291674831
-19.560551 842.2572 823.07312 4291806150
-16.158716 842.90741 823.62134 4291872457
-13.60734 842.90741 823.62134 4292329928
-11.055964 842.90741 823.62134 4290088851
-7.6541286 842.90741 823.62134 4290807426
-4.2522936 842.90741 823.62134 4290347900
-1.7009175 842.2572 823.07312 4293311156
0.85229355 841.55371 823.7879 4292068308
4.2522936 841.60706 822.5249 4291674810
7.6541286 842.90741 823.62134 4290359457
10.205504 842.90741 823.62134 4289636544
25.513762 842.90741 823.62134 4291410582
28.065138 842.90741 823.62134 4291212971
31.466972 842.25726 823.07312 4289898414
34.58532 842.04053 822.89038 4289241944
37.420185 841.60706 822.5249 4292665583
39.971558 841.60706 822.5249 4293519600
43.373394 842.2572 823.07312 4293320676
46.77523 842.2572 823.07312 4293188836
49.326607 842.2572 823.07312 4293188836
52.161469 842.47394 823.25586 4293057506
55.279816 842.2572 823.07312 4293123041
58.681648 841.60706 822.5249 4293188836
62.083488 841.60706 822.5249 4292926685
64.634865 841.60706 822.5249 4292925659
66.902748 842.47394 823.25586 4292860120
69.737617 842.90741 823.62134 4292925659
-11.055964 844.20776 824.71777 4290945450
-7.6541286 844.20776 824.71777 4290413961
11.906422 844.20776 824.71777 4289964729
13.60734 844.20776 824.71777 4290162357
19.560551 844.20776 824.71777 4291080625
22.962385 844.20776 824.71777 4291409590
25.513762 844.20776 824.71777 4290950842
71.43853 844.20776 824.71777 4292728285
73.13945 844.20776 824.71777 4292728285
16.106422 846.30994 822.56604 4291675081
74.598167 846.30994 822.56604 4292728285
-22.231194 839.39679 827.20129 4291674833
1.7100917 839.39679 827.20129 4292396240
-19.602753 842.15479 825.60266 4291740359
-16.193579 842.80634 826.1521 4291675335
-13.636697 842.80634 826.1521 4292067524
-4.2614679 842.80634 826.1521 4290348673
-1.7045871 842.80634 826.1521 4292587433
0 842.80634 826.1521 4291604409
4.2614679 841.50317 825.05322 4292265925
7.6706419 842.80634 826.1521 4290293679
10.227523 842.80634 826.1521 4289701556
28.125687 842.80634 826.1521 4290820276
31.534863 842.80634 826.1521 4290755012
35.228134 842.37201 825.78583 4289901195
37.500916 842.15479 825.60266 4290689219
40.0578 841.50317 825.05322 4293781743
43.466972 842.15479 825.60266 4293452009
46.876144 842.15479 825.60266 4293254886
49.433029 842.80634 826.1521 4293123042
51.989906 842.80634 826.1521 4292926178
55.399082 842.80634 826.1521 4293123045
58.808258 842.15479 825.60266 4293057246
61.365139 842.15479 825.60266 4292925915
63.92202 842.15479 825.60266 4292794328
67.331192 842.80634 826.1521 4292925661
69.888077 842.80634 826.1521 4292794078
-16.193579 844.1095 827.25085 4291544258
-13.636697 844.1095 827.25085 4291674302
-11.079817 844.1095 827.25085 4291803322
-7.6706419 844.1095 827.25085 4289758086
-4.2614679 844.1095 827.25085 4290480776
-1.7045871 844.1095 827.25085 4292325290
0 844.1095 827.25085 4291735218
11.93211 844.1095 827.25085 4289965244
13.636697 844.1095 827.25085 4290489521
16.158716 845.50818 825.81421 4291674822
19.602753 844.1095 827.25085 4290293169
23.011927 844.1095 827.25085 4289962664
25.568808 844.1095 827.25085 4290948277
54.546787 844.1095 827.25085 4293123304
57.955963 844.1095 827.25085 4292991456
61.365139 844.1095 827.25085 4292925661
63.92202 844.1095 827.25085 4292991455
67.331192 844.1095 827.25085 4292859870
70.6633 844.80884 826.53253 4292794079
73.297249 844.1095 827.25085 4292728287
-22.278898 839.30273 829.73804 4291871696
-22.278898 840.61292 830.84277 4291806664
-19.96575 841.10956 829.51752 4291609032
1.7119266 840.65857 829.57324 4289893531
4.2798166 840.65857 829.57324 4290550654
7.7027521 841.31226 830.12439 4290621873
10.26055 842.01154 829.40601 4289702072
28.216515 842.01154 829.40601 4291146940
31.636698 842.01154 829.40601 4291017403
35.056881 842.01154 829.40601 4290030769
37.622017 842.01154 829.40601 4289635761
40.187157 841.35785 828.85486 4293386217
43.892353 841.57574 829.03857 4293518060
47.34679 841.10956 829.51752 4293189095
49.592659 842.01154 829.40601 4293123556
52.157799 842.01154 829.40601 4293123556
56.433029 842.01154 829.40601 4293057510
59.85321 842.01154 829.40601 4292991456
-16.245872 843.31891 830.50842 4291675846
-13.680734 843.31891 830.50842 4291609542
-11.099083 844.36578 829.42908 4292002251
-7.6706419 845.41266 828.34973 4289824920
-4.2697248 844.36578 829.42908 4290611859
-1.7100917 843.31891 830.50842 4292719542
0 843.31891 830.50842 4292064192
11.970642 843.31891 830.50842 4290096047
13.636697 845.41266 828.34973 4290162094
16.193579 845.41266 828.34973 4291018435
19.602753 845.41266 828.34973 4287860879
23.050459 844.36578 829.42908 4287265136
25.651377 843.31891 830.50842 4290091411
28.216515 843.31891 830.50842 4290751396
30.781651 843.31891 830.50842 4290754485
34.201836 843.31891 830.50842 4291017403
53.012844 843.31891 830.50842 4293123556
55.57798 843.31891 830.50842 4292991206
58.998165 843.31891 830.50842 4292991456
61.563301 843.31891 830.50842 4292925661
64.128441 843.31891 830.50842 4292925661
67.54863 843.31891 830.50842 4292794333
70.968811 843.31891 830.50842 4292728541
73.533943 843.31891 830.50842 4292794078
-24.069725 837.85779 832.44379 4291806412
-19.708256 841.9231 831.94751 4291281090
1.7137614 841.9231 831.94751 4289827230
4.2844038 841.9231 831.94751 4290418461
8.5688076 841.9231 831.94751 4290160810
10.282569 841.9231 831.94751 4289635496
32.561466 841.9231 831.94751 4290951607
35.988991 841.9231 831.94751 4290293680
37.702751 841.9231 831.94751 4289767338
40.273396 841.9231 831.94751 4290688961
42.844036 841.9231 831.94751 4293386995
51.412846 841.9231 831.94751 4293123556
-16.280735 843.23328 833.05212 4291807171
-13.710092 843.23328 833.05212 4291938001
-11.128441 843.92981 832.33142 4292133582
-7.6954126 844.62628 831.61072 4290219178
-4.2807341 843.92981 832.33142 4290085535
-1.7137614 843.23328 833.05212 4293574601
0 843.23328 833.05212 4292527278
11.99633 843.23328 833.05212 4289702840
13.680734 844.62628 831.61072 4290687406
16.245872 844.62628 831.61072 4291148730
19.666054 844.62628 831.61072 4288517267
23.086239 844.62628 831.61072 4288778380
25.706423 843.23328 833.05212 4289631886
28.277065 843.23328 833.05212 4290685885
31.704586 843.23328 833.05212 4291017401
34.27523 843.23328 833.05212 4291017401
56.554127 843.23328 833.05212 4292991204
59.124771 843.23328 833.05212 4292925663
61.695412 843.23328 833.05212 4292991708
64.266052 843.23328 833.05212 4292860120
67.693581 843.23328 833.05212 4292728537
71.121101 843.23328 833.05212 4292662746
73.691742 843.23328 833.05212 4292991708
-24.956881 839.13141 834.82574 4292004557
-22.350458 839.82935 834.1062 4291675848
5.1688075 839.75073 836.65588 4291344553
6.8844037 839.79004 835.38104 4290687662
41.35046 839.75073 836.65588 4289964242
44.190216 839.77692 835.80597 4293517808
46.469727 839.79004 835.38104 4293254884
49.051376 839.79004 835.38098 4293189348
-24.069725 841.14374 835.21448 4292004809
-22.350458 841.8009 835.76862 4292071116
-20.058104 841.58185 835.58392 4291676613
-16.333027 842.45813 836.32275 4291806921
-12.894495 842.45813 836.32275 4291938512
-5.1577983 842.45813 836.32275 4290676382
-1.7192661 842.45813 836.32275 4293247926
0.85963303 841.8009 835.76862 4290818731
3.4385321 841.14374 835.21448 4289370763
8.5963306 841.14374 835.21448 4289767838
10.315597 841.14374 835.21448 4289373875
12.894495 842.45813 836.32275 4290491573
15.473394 842.45813 836.32275 4291346365
20.631193 842.45813 836.32275 4290817718
22.350458 842.45813 836.32275 4291607491
24.929358 842.45813 836.32275 4291475639
29.227524 842.45813 836.32275 4291672764
34.385323 842.45813 836.32275 4291082942
36.964218 841.14374 835.21448 4290820277
39.543118 841.14374 835.21448 4289439136
52.724163 841.58185 835.58392 4293123297
55.5896 842.02002 835.95331 4292991457
58.455048 842.45813 836.32275 4293056999
61.033943 842.45813 836.32275 4292991202
64.472473 842.45813 836.32275 4292859355
67.911011 842.45813 836.32275 4292793820
70.489906 842.45813 836.32275 4292662491
73.06881 842.45813 836.32275 4292728032
-10.282569 844.54346 834.15686 4292000714
-7.7119265 844.54346 834.15686 4290154145
-3.4275229 844.54346 834.15686 4289958275
17.137615 844.54346 834.15686 4290753979
18.851376 844.54346 834.15686 4290490806
41.482571 838.98254 839.93237 4289305503
43.21101 838.98254 839.93237 4293318620
-24.121101 841.72644 838.3219 4291742638
-22.398165 842.38507 838.8772 4292795556
-19.526606 841.94598 838.50702 4292136905
-16.367889 842.38507 838.8772 4291938251
-12.922018 842.38507 838.8772 4291938252
1.7229358 841.72644 838.3219 4291674312
4.0201836 841.5069 838.13678 4291412414
7.753211 841.72644 838.3219 4289965738
10.337615 841.72644 838.3219 4289439666
12.922018 842.38507 838.8772 4290623422
16.367889 842.38507 838.8772 4291083447
19.813763 842.38507 838.8772 4291345594
22.398165 842.38507 838.8772 4292068292
24.982569 842.38507 838.8772 4292263620
28.141283 841.94598 838.50702 4291344572
31.874311 841.06787 837.7666 4291279553
37.043121 841.06787 837.7666 4291082941
39.627522 841.06787 837.7666 4289767336
44.796329 841.06787 837.7666 4293779691
46.519264 841.72644 838.3219 4293648617
49.103668 841.72644 838.3219 4293123295
52.262386 841.94598 838.50702 4293188825
55.133945 842.38507 838.8772 4293254110
60.302753 842.38507 838.8772 4293254379
67.194496 842.38507 838.8772 4293123044
74.086235 842.38507 838.8772 4292991206
-24.121101 843.70227 839.98779 4279833600
-22.398165 843.70227 839.98779 4282531094
-19.813763 843.70227 839.98779 4291075991
-16.367889 843.70227 839.98779 4291540664
-12.922018 843.70227 839.98779 4291476932
-10.326606 843.73743 838.70941 4291802818
-7.7412844 844.08356 838.34729 4289629341
-4.3027525 843.73737 838.70947 4291603373
-1.7211009 843.73743 838.70941 4291935146
0 843.73743 838.70941 4291539889
49.965137 843.70227 839.98779 4293189601
52.549541 843.70227 839.98779 4293189337
56.242203 843.72577 839.13556 4293188574
58.517433 843.73743 838.70941 4293254378
61.407337 843.72577 839.13556 4292925666
64.541283 843.73743 838.70941 4292991457
68.294197 843.72577 839.13556 4292728543
70.489906 844.42969 837.98517 4292596958
72.28624 843.73743 838.70941 4292662238
37.240368 838.9165 842.4928 4291017404
1.7284404 841.62537 842.16064 4290683029
4.6091743 841.18488 841.78925 4290685089
7.7779818 841.62537 842.16064 4289700514
10.370643 841.62537 842.16064 4288651153
12.963303 841.62537 842.16064 4290624441
16.420183 841.62537 842.16064 4290426810
19.877064 841.62537 842.16064 4288383359
22.469725 841.62537 842.16064 4290089345
25.062386 841.62537 842.16064 4291273867
28.519266 841.62537 842.16064 4291477699
31.976147 840.30396 841.04651 4291148487
34.568806 840.30396 841.04651 4291017149
40.618347 840.30396 841.04651 4289767329
44.07523 840.96472 841.60358 4292728276
46.667889 841.62537 842.16064 4293452789
48.396332 841.62537 842.16064 4293058014
74.322937 841.62537 842.16064 4292662491
76.051376 841.62537 842.16064 4292728287
-22.398165 845.01947 841.09851 4279968026
-20.67523 845.01947 841.09851 4281679001
-16.367889 845.01947 841.09851 4291017403
-12.060551 845.01947 841.09851 4291674311
65.471558 845.01947 841.09851 4292925663
68.917435 845.01947 841.09851 4292991708
70.640366 845.01947 841.09851 4292991708
72.363304 845.01947 841.09851 4292596950
-24.121101 846.33667 842.20911 4278190080
-22.398165 846.33667 842.20911 4278190080
-20.67523 846.33667 842.20911 4278197248
34.752293 838.16382 845.78223 4291016119
37.358719 838.16382 845.78223 4291016120
-19.012844 842.94678 843.2749 4289639935
-13.827523 842.94678 843.2749 4291147967
-10.370643 842.94678 843.2749 4291212467
-7.7862387 842.91797 844.55859 4289896866
-4.3256884 842.91797 844.55859 4291936451
-1.7321101 842.22705 845.28412 4290423730
0.57737005 842.46698 844.61444 4289960572
4.3302751 841.56494 844.72583 4290157422
7.7944956 841.56494 844.72583 4289896358
10.370643 842.94678 843.2749 4289109907
12.977982 842.25586 844.00037 4290952123
16.731499 842.46698 844.61444 4290492347
19.909174 842.57251 844.92139 4287859326
22.493578 842.91797 844.55865 4288450163
25.115597 841.56494 844.72583 4290617697
28.579817 841.56494 844.72583 4291346115
32.044037 840.24072 843.60938 4290951619
40.704586 840.24072 843.60938 4290030243
43.302753 841.56494 844.72583 4291807938
46.156574 842.46698 844.61444 4293255404
49.312847 842.91797 844.55865 4293255133
52.466053 842.92755 844.13068 4293123290
55.368809 842.91797 844.55865 4293123040
57.655045 842.92755 844.13068 4292925663
61.359634 842.94678 843.2749 4293123042
63.952293 842.94678 843.2749 4292794330
67.409172 842.94678 843.2749 4293057249
74.480736 842.22705 845.28412 4292597207
-22.469725 845.5896 845.50317 4281282156
-19.588991 845.14911 845.13184 4287140782
-16.420183 844.92889 844.94611 4291347127
-12.963303 844.26819 844.38904 4291346370
-10.370643 844.26819 844.38904 4291082944
53.58165 844.26819 844.38904 4293123292
58.766972 844.26819 844.38904 4292925663
61.359634 844.26819 844.38904 4292991454
64.816513 844.26819 844.38904 4292925660
67.409172 844.92889 844.94611 4292991453
70.001831 844.92889 844.94611 4292925662
72.594498 844.26819 844.38904 4292597463
-24.121101 847.65387 843.3197 4278190127
31.277063 839.49225 846.90234 4291017664
33.883484 839.49225 846.90234 4290819513
37.358719 839.49225 846.90234 4290950582
40.833946 839.49225 846.90234 4290162089
1.7376146 840.82068 848.02234 4289829781
4.3440366 840.82068 848.02234 4290551680
7.8192658 840.82068 848.02234 4290356127
10.425688 840.82068 848.02234 4290029199
13.03211 840.82068 848.02234 4291675069
15.638532 840.82068 848.02234 4291675857
25.195412 840.82068 848.02234 4288710741
28.670643 840.82068 848.02234 4289963400
41.702751 840.82068 848.02234 4289964699
43.440369 840.82068 848.02234 4291872696
45.177982 840.82068 848.02234 4292400089
-19.053211 845.5376 848.07544 4291933846
-12.990826 844.21338 846.95898 4292199096
-10.39266 844.21338 846.95898 4292199364
52.829357 844.21338 846.95898 4293057499
58.891743 844.21338 846.95898 4293057249
61.489906 844.21338 846.95898 4292925917
64.954132 844.21338 846.95898 4293057502
67.552292 845.5376 848.07544 4292991706
69.284401 845.5376 848.07544 4292925157
72.748627 844.21338 846.95898 4292662745
31.376146 838.75214 850.20239 4291215306
33.990826 838.75214 850.20239 4290557112
37.477066 838.75214 850.20239 4290885556
40.091743 838.75214 850.20239 4290293932
-7.8192658 842.14911 849.14246 4292001981
-4.3440366 842.14911 849.14246 4292133313
-1.7376146 842.14911 849.14246 4291738561
