# .PCD v0.7 - Point Cloud Data file format
VERSION 0.7
FIELDS x y z rgb
SIZE 4 4 4 4
TYPE F F F U
COUNT 1 1 1 1
WIDTH 1155
HEIGHT 1
VIEWPOINT 0 0 0 1 0 0 0
POINTS 1155
DATA ascii
-20.790825 841.15833 1256.4124 4283318352
-13.860551 841.15833 1256.4124 4285092701
-4.6201835 841.15833 1256.4124 4288710314
-2.3100917 841.15833 1256.4124 4293052652
-23.009174 847.26819 1255.0239 4286141568
-9.2036695 847.26819 1255.0239 4285288019
-6.9027524 847.26819 1255.0239 4285550935
-23.009174 849.02728 1256.5071 4287062965
-21.649542 764.54956 1259.8354 4285813859
-16.774311 769.16278 1257.1851 4284764011
-14.377981 770.07874 1257.9574 4284828712
-7.1889906 770.07874 1257.9574 4289631134
-4.7926607 770.07874 1257.9574 4289367966
-21.484404 777.41199 1257.6003 4287328645
-19.097248 777.41199 1257.6003 4287857022
-16.710093 777.41199 1257.6003 4287133299
-14.322936 777.41199 1257.6003 4287067519
-10.742202 779.23694 1259.1392 4288908942
-21.418348 784.16296 1258.0605 4286279798
-19.038532 784.16296 1258.0605 4286936201
-16.658716 784.16296 1258.0605 4287001994
-14.278899 784.16296 1258.0605 4286673014
-11.899082 783.25323 1257.2935 4288515218
-22.521101 791.42944 1257.6473 4285684836
-18.965137 791.42944 1257.6473 4286605965
-16.594496 791.42944 1257.6473 4287198102
-21.335779 793.24188 1259.1754 4286280052
-18.965137 793.24188 1259.1754 4286410387
-16.594496 793.24188 1259.1754 4287199903
-14.223853 793.24188 1259.1754 4287462764
-11.853211 793.24188 1259.1754 4287594606
-9.4458714 801.36902 1259.4879 4287198595
-7.0844035 801.36902 1259.4879 4289567143
-18.818348 809.4541 1259.7649 4283644249
-9.409174 809.4541 1259.7649 4287130501
-7.056881 809.4541 1259.7649 4294170352
-21.088074 815.70569 1258.496 4284038214
-18.744955 815.70569 1258.496 4284104789
-16.401834 815.70569 1258.496 4285354855
-9.3724775 815.70569 1258.496 4285290107
-10.511009 821.40112 1258.066 4284372056
-7.0073395 821.40112 1258.066 4290885562
-2.3357799 821.40112 1258.066 4293450199
-18.686239 823.18689 1259.5718 4284301133
-16.350458 823.18689 1259.5718 4285156699
-14.014679 823.18689 1259.5718 4284437848
-9.3431196 823.18689 1259.5718 4284766563
-7.0073395 823.18689 1259.5718 4290293432
-4.6715598 823.18689 1259.5718 4291739093
-2.3357799 823.18689 1259.5718 4292988903
-18.612844 829.37817 1258.252 4283646270
-16.286238 829.37817 1258.252 4284567372
-13.959633 829.37817 1258.252 4284371551
-10.469725 829.37817 1258.252 4283779927
-6.9798164 829.37817 1258.252 4288977832
-4.6532111 829.37817 1258.252 4290949070
-2.3266056 829.37817 1258.252 4292988654
-18.612844 831.15686 1259.7517 4283449379
-16.286238 831.15686 1259.7517 4284633654
-13.959633 831.15686 1259.7517 4284568937
-30.126606 839.08484 1259.8962 4282659139
-27.809174 837.31311 1258.4023 4283319385
-25.491743 837.31311 1258.4023 4283385179
-4.6348624 837.31311 1258.4023 4289106633
-2.3174312 837.31311 1258.4023 4293053951
2.3174312 839.08484 1259.8962 4292198862
-30.031193 842.92438 1257.9015 4283707705
-4.6201835 842.92438 1257.9015 4287855503
-31.186239 844.69049 1259.3906 4288906144
-27.721102 844.69049 1259.3906 4287131005
-25.411009 844.69049 1259.3906 4286604405
-19.63578 844.69049 1259.3906 4284693854
-16.170643 844.69049 1259.3906 4284957015
-13.860551 844.69049 1259.3906 4285155675
-11.550459 844.69049 1259.3906 4285419104
-4.6201835 844.69049 1259.3906 4287526290
-2.3100917 844.69049 1259.3906 4292789473
-28.866055 766.38855 1261.3861 4285091415
-21.649542 766.38855 1261.3861 4287261789
-19.244038 766.38855 1261.3861 4286474885
-2.4055047 766.38855 1261.3861 4289236643
-28.866055 768.2276 1262.9366 4284370763
-25.257797 768.2276 1262.9366 4285159756
-2.4055047 768.2276 1262.9366 4289499803
-23.963303 772.82678 1260.2744 4282663477
-9.5853214 772.82678 1260.2744 4288777107
-7.1889906 772.82678 1260.2744 4288843156
-4.7926607 772.82678 1260.2744 4289040528
-28.755962 774.65881 1261.8191 4282529338
-23.963303 774.65881 1261.8191 4283381065
-10.783486 774.65881 1261.8191 4288908681
-7.1889906 774.65881 1261.8191 4289105017
-28.645872 781.97449 1261.4474 4282199870
-26.258715 781.97449 1261.4474 4282792263
-23.871559 781.97449 1261.4474 4283384650
-10.344342 782.27863 1261.7039 4288712089
-7.161468 781.97449 1261.4474 4289172642
-4.774312 781.97449 1261.4474 4289367702
-30.937614 788.71143 1261.8956 4283184965
-28.557798 787.80176 1261.1287 4282855235
-26.177982 787.80176 1261.1287 4282987077
-23.798164 786.89203 1260.3616 4283909960
-14.278899 787.80176 1261.1287 4286740086
-10.709174 787.80176 1261.1285 4287922832
-7.1394496 787.80176 1261.1287 4289500849
-4.7596331 788.71143 1261.8956 4289433756
-22.521101 795.96045 1261.4677 4283384637
-18.965137 795.96045 1261.4677 4284897397
-16.594496 795.96045 1261.4677 4287529117
-14.223853 795.96045 1261.4677 4287660929
-10.667891 795.96045 1261.4677 4287659915
-7.1119266 795.96045 1261.4677 4289632692
-4.7412844 796.86664 1262.2317 4289829295
-18.891743 803.17438 1261.0101 4283449450
-16.530275 803.17438 1261.0101 4284567931
-9.4458714 803.17438 1261.0101 4287329147
-7.0844035 803.17438 1261.0101 4290158246
-22.433945 804.97974 1262.5323 4282990666
-18.891743 804.97974 1262.5323 4283708761
-16.530275 804.97974 1262.5323 4284695656
-14.168807 804.97974 1262.5323 4283712063
-10.626606 804.97974 1262.5323 4286604395
-7.0844035 804.97974 1262.5323 4294562532
-4.7229357 804.97974 1262.5323 4293384432
-2.3614678 804.97974 1262.5323 4292858087
-22.34679 811.25244 1261.2811 4283711815
-18.818348 811.25244 1261.2811 4283776343
-16.466055 811.25244 1261.2811 4284697445
-10.585321 811.25244 1261.2811 4284763997
-7.056881 811.25244 1261.2811 4293381100
-2.3522935 811.25244 1261.2811 4293054960
-25.875229 813.05078 1262.7975 4284496468
-23.522936 813.05078 1262.7975 4284104007
-14.113762 813.05078 1262.7975 4284568140
-11.761468 813.05078 1262.7975 4283383865
-7.056881 813.05078 1262.7975 4292724716
-4.704587 813.05078 1262.7975 4293121005
-2.3522935 813.05078 1262.7975 4293186798
-22.259632 817.49701 1260.0063 4284761167
-18.744955 817.49701 1260.0063 4284236374
-16.401834 817.49701 1260.0063 4285223269
-14.058716 817.49701 1260.0063 4284832858
-11.715596 817.49701 1260.0063 4283451205
-7.0293579 817.49701 1260.0063 4291935700
-4.6862388 817.49701 1260.0063 4292594915
-22.259632 819.28833 1261.5167 4285024843
-18.744955 819.28833 1261.5167 4284171351
-16.401834 819.28833 1261.5167 4284894817
-14.058716 819.28833 1261.5167 4284635230
-4.6862388 819.28833 1261.5167 4292397255
21.088074 819.28833 1261.5167 4292660697
-18.686239 824.9726 1261.0774 4283908945
-16.350458 824.9726 1261.0774 4284764253
-14.014679 824.9726 1261.0774 4284372055
-7.0073395 824.9726 1261.0774 4289766834
-4.6715598 824.9726 1261.0774 4291475414
-22.189907 826.7583 1262.583 4283514437
-25.592661 832.93555 1261.2515 4283188049
-23.266054 832.93555 1261.2515 4283254090
0 832.93555 1261.2515 4292856791
-30.245872 834.71423 1262.7512 4283384156
1.1633028 834.71423 1262.7512 4292724689
-53.300919 842.62817 1262.8839 4289691031
-37.078899 842.62817 1262.8839 4289432483
-34.761467 841.74231 1262.137 4286471797
-32.444038 840.85651 1261.39 4283707705
1.1587156 841.74231 1262.137 4292330710
-30.801224 847.04523 1261.3761 4290681532
-27.721102 847.3396 1261.6243 4290352299
-25.411009 847.3396 1261.6243 4290286506
-23.100918 848.22266 1262.3688 4291144907
-20.020796 847.04523 1261.3761 4287524768
-16.170643 846.45654 1260.8796 4284498274
-13.860551 846.45654 1260.8796 4285090665
-10.395412 846.45654 1260.8796 4285025377
-6.9302754 846.45654 1260.8796 4285223004
-19.31743 761.76837 1264.0305 4286735477
-9.6587152 761.76837 1264.0305 4284761619
-31.390825 763.61444 1265.587 4282990154
-25.35413 763.61444 1265.587 4286143834
-36.082569 770.06665 1264.4873 4281151294
-31.271559 770.06665 1264.4873 4282923594
-28.866055 770.06665 1264.4873 4282530883
-26.46055 770.06665 1264.4873 4281938746
-2.4055047 770.06665 1264.4873 4289303957
-28.755962 776.49084 1263.3638 4282792258
-26.359632 776.49084 1263.3638 4282397500
-23.963303 776.49084 1263.3638 4283054664
-7.1889906 776.49084 1263.3638 4289302923
-4.7926607 776.49084 1263.3638 4289629072
-31.152294 778.32281 1264.9086 4282986298
-2.3963304 778.32281 1264.9086 4289564824
-31.033028 784.71198 1263.7555 4283053106
-4.774312 784.71198 1263.7555 4289302169
-2.387156 784.71198 1263.7555 4289236376
-2.387156 786.53699 1265.2943 4289367963
-30.937614 790.53076 1263.4297 4283643456
-28.557798 790.53076 1263.4297 4282526290
-26.177982 790.53076 1263.4297 4283052634
-23.798164 790.53076 1263.4297 4283648589
-9.5192661 790.53076 1263.4297 4288184988
-7.1394496 790.53076 1263.4297 4289763763
-4.7596331 790.53076 1263.4297 4289894811
-30.937614 792.35016 1264.9637 4283904859
-28.557798 792.35016 1264.9637 4282527553
-26.177982 792.35016 1264.9637 4283053897
-4.7596331 792.35016 1264.9637 4289499553
-30.818348 800.49133 1265.2881 4283771696
-28.447706 799.58514 1264.5239 4282397256
-26.077065 799.58514 1264.5239 4282923600
-22.521101 799.58508 1264.5239 4283055438
-18.965137 798.67896 1263.7599 4283648098
-16.594496 798.67896 1263.7599 4284371822
-14.223853 799.58514 1264.5239 4284175438
-11.853211 799.58514 1264.5239 4285425505
-4.7412844 799.58514 1264.5239 4289893807
-2.3706422 799.58514 1264.5239 4289169829
-28.337614 806.7851 1264.0547 4283643721
-25.976147 806.7851 1264.0547 4283709514
-22.433945 806.7851 1264.0547 4283187268
-16.530275 806.7851 1264.0547 4284236642
-14.168807 806.7851 1264.0547 4284041294
-11.80734 806.7851 1264.0547 4284765016
-4.7229357 806.7851 1264.0547 4293908724
-2.3614678 806.7851 1264.0547 4293777395
-28.337614 808.59045 1265.5769 4283578960
-25.976147 808.59045 1265.5769 4283644753
-14.168807 808.59045 1265.5769 4284436556
-4.7229357 808.59045 1265.5769 4293120753
-25.875229 814.84912 1264.3138 4285874255
-2.3522935 814.84912 1264.3138 4293187052
-30.579817 816.64746 1265.8301 4285218377
-28.227524 816.64746 1265.8301 4285088585
-25.875229 816.64746 1265.8301 4285352014
1.1761467 816.64746 1265.8301 4293054937
11.761468 816.64746 1265.8301 4293251560
14.113762 816.64746 1265.8301 4292725988
-22.259632 821.07971 1263.0272 4284366665
0 821.07971 1263.0272 4293053406
-25.774311 822.87103 1264.5376 4283907400
-22.259632 822.87103 1264.5376 4283973200
0 822.87103 1264.5376 4292856802
-30.365137 830.32977 1265.5945 4282990423
-28.029358 830.32977 1265.5945 4283188049
-25.693579 828.54401 1264.0887 4283252559
-22.189907 828.54401 1264.0887 4283186764
1.5571866 829.13922 1264.5907 4292725714
0 836.49298 1264.251 4292791000
4.6532111 836.49298 1264.251 4292329165
-40.715595 838.27167 1265.7507 4283773241
-37.225689 838.27167 1265.7507 4283839819
4.6532111 838.27167 1265.7507 4292198610
-39.396332 844.3999 1264.3777 4290945963
-37.078899 844.3999 1264.3777 4290880433
-34.761467 844.3999 1264.3777 4290551469
-4.6348624 844.3999 1264.3777 4286999698
-2.3174312 844.3999 1264.3777 4292855019
-37.078899 846.17163 1265.8716 4291209405
-34.761467 846.17163 1265.8716 4291011770
-32.444038 846.17163 1265.8716 4291272641
-18.53945 846.17163 1265.8716 4290356418
-16.222019 846.17163 1265.8716 4290159295
-13.904587 846.17163 1265.8716 4287991722
-10.42844 846.17163 1265.8716 4285357430
-6.9522934 846.17163 1265.8716 4284499808
-4.6348624 846.17163 1265.8716 4286142570
-2.3174312 846.17163 1265.8716 4292393162
-30.031193 849.98871 1263.8579 4290681522
-27.721102 849.98871 1263.8579 4291471789
-23.100918 849.98871 1263.8579 4291472573
-29.086239 758.98718 1268.2257 4283907657
-25.450459 758.98718 1268.2257 4284564818
-21.814678 757.13409 1266.6632 4286669679
-19.390825 757.13409 1266.6632 4286867576
-16.966972 757.13409 1266.6632 4286143854
-41.049541 767.30652 1268.7001 4286474363
-37.829967 766.07587 1267.6625 4282530393
-33.805504 766.38348 1267.9219 4281805377
-31.390825 765.46045 1267.1436 4282792535
0.80489296 766.69116 1268.1813 4289106081
-36.082569 771.90564 1266.038 4281935375
-33.677063 773.74469 1267.5885 4283120205
-31.271559 772.8252 1266.8132 4282725954
-26.46055 771.90564 1266.038 4281937201
-4.8110094 771.90564 1266.038 4289236615
-2.4055047 772.8252 1266.8132 4289827473
-33.548622 781.07086 1267.2256 4287263350
-31.152294 780.15485 1266.4532 4282920249
-2.3963304 780.15485 1266.4532 4289434010
0 781.98688 1267.9979 4289432985
-33.420185 788.36194 1266.8331 4287262071
-2.387156 788.36194 1266.8331 4289697175
-33.420185 790.18695 1268.3719 4286339200
-2.387156 790.18695 1268.3719 4289762468
-30.937614 794.16956 1266.4978 4284103516
-28.557798 794.16956 1266.4978 4282725961
-26.177982 794.16956 1266.4978 4282923596
-2.3798165 794.16956 1266.4978 4289566122
-57.115597 795.98895 1268.0319 4286728801
-34.507339 795.98895 1268.0319 4286865006
-30.937614 795.98895 1268.0319 4283249223
0 795.98895 1268.0319 4289038228
7.1394496 795.98895 1268.0319 4289433489
-30.818348 802.30371 1266.8162 4284362066
-28.447706 802.30371 1266.8162 4283707464
-26.077065 802.30371 1266.8162 4284102222
0 802.30371 1266.8162 4293186271
-34.374313 804.11609 1268.3444 4288636797
-30.818348 804.11609 1268.3444 4285744219
1.1853211 804.11609 1268.3444 4293450210
-30.699083 811.29846 1267.8602 4285805644
-28.337614 811.29846 1267.8602 4285021008
1.1807339 811.29846 1267.8602 4292792280
4.7229357 811.29846 1267.8602 4292792282
11.80734 812.20117 1268.6213 4292923101
-30.579817 818.44586 1267.3464 4283512624
-28.227524 818.44586 1267.3464 4283840317
-25.875229 818.44586 1267.3464 4284235075
2.3522935 818.44586 1267.3464 4292987357
4.704587 818.44586 1267.3464 4292855772
7.056881 818.44586 1267.3464 4292855772
11.761468 818.44586 1267.3464 4293119712
-30.579817 820.2442 1268.8628 4283316764
-28.227524 820.2442 1268.8628 4283709764
2.3522935 820.2442 1268.8628 4292856802
4.704587 820.2442 1268.8628 4292790748
7.056881 820.2442 1268.8628 4292724954
11.761468 820.2442 1268.8628 4293119458
-25.774311 824.66235 1266.048 4283252809
1.1715597 824.66235 1266.048 4292725466
-42.044037 833.90118 1268.6057 4282332711
-39.708256 833.0083 1267.8529 4284962647
-37.372478 833.0083 1267.8529 4284304237
-35.036697 833.0083 1267.8529 4282790742
-32.700916 833.0083 1267.8529 4282594122
7.0073395 833.90118 1268.6057 4292460751
-51.960857 841.23615 1268.2504 4290483368
-48.858715 840.93976 1268.0004 4290220197
-46.532108 840.93976 1268.0004 4290351538
-44.205505 840.93976 1268.0004 4290614966
-41.103363 840.64331 1267.7504 4290155680
1.1633028 841.8291 1268.7502 4292330710
4.6532111 840.93976 1268.0004 4292199114
6.9798164 841.8291 1268.7502 4292396746
-34.761467 847.9433 1267.3655 4290880182
-32.444038 847.9433 1267.3655 4290813364
-25.491743 847.9433 1267.3655 4292063927
-19.698166 847.9433 1267.3655 4291473090
-16.222019 847.9433 1267.3655 4291013055
-10.42844 847.9433 1267.3655 4286934432
-6.9522934 847.9433 1267.3655 4284433553
-34.761467 849.71497 1268.8593 4291340473
-31.285322 849.71497 1268.8593 4291406519
-27.809174 849.71497 1268.8593 4291274415
-29.218349 753.78827 1271.6902 4282265914
-25.566055 753.78827 1271.6902 4283448133
2.4348624 753.78827 1271.6902 4289103521
-36.3578 760.84021 1269.7881 4282987089
-33.933945 760.84021 1269.7881 4282792776
1.2119266 760.84021 1269.7881 4289104036
-43.629356 762.6933 1271.3506 4283252577
-41.205505 762.6933 1271.3506 4281870924
2.4238532 762.6933 1271.3506 4289500077
-45.878899 770.07556 1271.0349 4286148740
-43.464222 770.07556 1271.0349 4287132043
-41.049541 770.07556 1271.0349 4288250523
-37.829967 770.3833 1271.2944 4286408821
-33.805504 769.15259 1270.2567 4281805615
1.2073394 770.9986 1271.8132 4289236626
7.2440367 770.9986 1271.8132 4289237147
9.6587152 770.9986 1271.8132 4289105306
13.280734 770.9986 1271.8132 4289368475
-36.082569 775.58368 1269.1392 4286670463
-33.677063 775.58368 1269.1392 4285683555
0 775.58368 1269.1392 4289302167
12.027523 775.58368 1269.1392 4289564824
-40.893578 777.42273 1270.6898 4285622892
-37.285324 777.42273 1270.6898 4287261346
1.2027524 777.42273 1270.6898 4289433756
7.2165136 777.42273 1270.6898 4289433756
9.6220188 777.42273 1270.6898 4289629337
12.027523 777.42273 1270.6898 4289629337
-40.737614 785.65088 1271.0874 4286010439
-38.341286 785.65088 1271.0874 4286731118
-35.146175 784.4295 1270.0575 4287853193
0 784.73486 1270.3149 4289499269
7.1889906 783.81885 1269.5426 4289433758
10.783486 785.65088 1271.0874 4289499553
-54.904587 792.92444 1270.6802 4286137949
-42.968807 793.83698 1271.4495 4285153074
-40.58165 793.83698 1271.4495 4286008383
-38.194496 793.83698 1271.4495 4286203988
-34.613762 792.01196 1269.9108 4286666609
1.193578 792.92444 1270.6802 4289367968
-34.507339 797.80835 1269.5659 4287650660
0 797.80835 1269.5659 4289564603
4.7596331 797.80835 1269.5659 4291274678
7.1394496 797.80835 1269.5659 4291603387
10.709174 797.80835 1269.5659 4292657083
14.278899 797.80835 1269.5659 4293183455
-38.077065 799.62775 1271.1001 4287973209
-34.507339 799.62775 1271.1001 4288963712
2.3798165 799.62775 1271.1001 4293317857
4.7596331 799.62775 1271.1001 4293580000
7.1394496 799.62775 1271.1001 4293448414
9.5192661 799.62775 1271.1001 4293381583
-37.930275 805.92847 1269.8724 4286134613
-34.374313 805.92847 1269.8724 4286531697
-30.818348 805.92847 1269.8724 4285415029
1.1853211 805.92847 1269.8724 4292923866
4.7412844 805.92847 1269.8724 4292726238
-37.930275 807.74084 1271.4006 4286265436
-34.374313 807.74084 1271.4006 4286661214
7.1119266 807.74084 1271.4006 4293055453
9.4825687 807.74084 1271.4006 4293120977
-37.783485 815.81189 1271.6658 4282986046
-34.241283 814.90918 1270.9047 4284234049
4.7229357 814.00653 1270.1436 4292791259
7.0844035 814.00653 1270.1436 4292725466
9.4458714 815.81189 1271.6658 4292659161
14.168807 815.81189 1271.6658 4292594913
18.891743 814.00653 1270.1436 4292660697
21.25321 815.81189 1271.6658 4292726490
-39.988991 822.94171 1271.1372 4284896095
-37.636696 822.94171 1271.1372 4284831856
-35.284405 822.94171 1271.1372 4284173926
-31.755962 822.94171 1271.1373 4282794055
-28.227524 822.94171 1271.1372 4283252812
4.704587 822.94171 1271.1372 4292725204
7.056881 822.94171 1271.1372 4292527825
11.761468 822.94171 1271.1372 4292592857
-43.347706 830.03638 1270.5792 4284501095
-39.833027 828.245 1269.0688 4287656315
-37.48991 828.245 1269.0688 4286805910
-35.14679 828.245 1269.0688 4283713639
-32.803669 828.245 1269.0688 4282661201
4.6862388 829.14069 1269.824 4292527312
7.0293579 829.14069 1269.824 4292856534
-46.715595 835.68689 1270.1115 4284628053
-44.379818 835.68689 1270.1115 4284364880
7.0073395 835.68689 1270.1115 4292198610
10.511009 835.68689 1270.1115 4292329944
-56.058716 837.47266 1271.6172 4289033101
7.0073395 837.47266 1271.6172 4292198862
10.511009 837.47266 1271.6172 4292198606
-52.348625 843.60779 1270.25 4291536570
-48.858715 843.60779 1270.25 4290089636
-46.532108 843.60779 1270.25 4290089132
-44.205505 843.60779 1270.25 4292391887
-40.715595 844.49713 1270.9999 4291408322
-37.225689 845.38654 1271.7498 4291143610
-13.959633 845.38654 1271.7498 4289895605
-4.6532111 845.38654 1271.7498 4285159302
-2.3266056 845.38654 1271.7498 4291146209
20.163914 844.20068 1270.7499 4291803854
-37.740364 755.64972 1273.2598 4282528836
-34.088074 755.64972 1273.2598 4282463545
-31.653212 755.64972 1273.2598 4282726461
1.2174312 755.64972 1273.2598 4288906912
-38.957798 757.51123 1274.8293 4282789709
4.8697248 757.51123 1274.8293 4289039515
-46.053211 764.54633 1272.913 4287855514
-43.629356 764.54633 1272.913 4287987858
4.8477063 764.54633 1272.913 4289303964
7.2715597 764.54633 1272.913 4289303964
1.2119266 766.39941 1274.4755 4289631889
4.8477063 766.39941 1274.4755 4289368728
7.2715597 766.39941 1274.4755 4289105556
9.6954126 766.39941 1274.4755 4289105056
12.119267 766.39941 1274.4755 4289236643
-45.878899 772.8446 1273.3698 4284701538
-43.464222 772.8446 1273.3698 4285226360
-41.049541 772.8446 1273.3698 4288121253
-38.634861 772.8446 1273.3698 4288710046
2.4146788 772.8446 1273.3698 4289236374
4.8293576 772.8446 1273.3698 4289367963
7.2440367 772.8446 1273.3698 4289828513
9.6587152 772.8446 1273.3698 4289564824
-45.878899 774.69067 1274.9263 4284108649
-43.464222 774.69067 1274.9263 4283451724
4.8293576 774.69067 1274.9263 4289433756
-45.704586 779.26178 1272.2404 4284239956
-43.299084 779.26178 1272.2404 4284371572
-40.893578 779.26178 1272.2404 4285555845
-37.285324 779.26178 1272.2404 4287787409
2.4055047 779.26178 1272.2404 4289498779
4.8110094 779.26178 1272.2404 4289367711
7.2165136 779.26178 1272.2404 4289367711
9.6220188 779.26178 1272.2404 4289498783
12.027523 779.26178 1272.2404 4289432733
-48.110092 781.10083 1273.791 4285818748
-45.704586 781.10083 1273.791 4285226610
-43.299084 781.10083 1273.791 4286078562
-40.893578 781.10083 1273.791 4286078562
-38.488075 781.10083 1273.791 4286406010
2.4055047 781.10083 1273.791 4289565326
4.8110094 781.10083 1273.791 4289499551
9.6220188 781.10083 1273.791 4289433760
12.027523 781.10083 1273.791 4289367711
-52.719265 787.48291 1272.6321 4286138434
-50.322937 787.48291 1272.6321 4286335812
-45.530273 787.48291 1272.6321 4285941586
-43.133945 787.48291 1272.6321 4286005562
-40.737614 787.48291 1272.6321 4286597699
-38.341286 787.48291 1272.6321 4286532188
-35.944954 787.48291 1272.6321 4287321704
0 787.48291 1272.6321 4289632154
11.981651 787.48291 1272.6321 4289302167
14.377981 787.48291 1272.6321 4289499532
-52.719265 789.31494 1274.1768 4286268239
-50.322937 789.31494 1274.1768 4286662741
-46.728439 789.31494 1274.1768 4285677649
-43.133945 789.31494 1274.1768 4285087279
-40.737614 789.31494 1274.1768 4286205503
-38.341286 789.31494 1274.1768 4286400602
2.3963304 789.31494 1274.1768 4289565609
4.7926607 789.31494 1274.1768 4289630619
11.981651 789.31494 1274.1768 4289761687
14.377981 789.31494 1274.1768 4289891978
-57.291744 796.57446 1273.7577 4286401890
-54.904587 796.57446 1273.7577 4286533476
-52.517429 797.48694 1274.5271 4286862175
-46.549541 797.48694 1274.5271 4286267733
-42.968807 796.57446 1273.7577 4286595655
-40.58165 796.57446 1273.7577 4286924363
-38.194496 795.66199 1272.9883 4286858320
2.387156 795.66199 1272.9883 4291012050
-42.836697 802.35681 1273.4011 4286533717
-40.456882 802.35681 1273.4011 4286007373
-38.077065 801.44714 1272.6342 4287450208
4.7596331 801.44714 1272.6342 4293580772
7.1394496 802.35681 1273.4011 4293318116
9.5192661 802.35681 1273.4011 4293252314
19.038532 803.26648 1274.1682 4292660445
-37.930275 809.55322 1272.9287 4286527059
-34.374313 809.55322 1272.9287 4286593109
7.1119266 809.55322 1272.9287 4292660697
9.4825687 809.55322 1272.9287 4292725466
-42.671558 811.3656 1274.4569 4285353812
-40.300919 811.3656 1274.4569 4284893261
-37.930275 811.3656 1274.4569 4285153615
9.4825687 811.3656 1274.4569 4292725216
16.594496 811.3656 1274.4569 4292594402
-42.50642 817.61731 1273.188 4283581277
-40.144955 817.61731 1273.188 4283054932
-37.783485 817.61731 1273.188 4283120457
-34.241287 817.61731 1273.188 4282922543
9.4458714 817.61731 1273.188 4292658907
14.168807 817.61731 1273.188 4292594652
21.25321 817.61731 1273.188 4292660693
-47.229359 819.42261 1274.7102 4284435804
-43.687157 819.42261 1274.7102 4283844437
9.4458714 819.42261 1274.7102 4292395219
14.168807 819.42261 1274.7102 4292527069
16.530275 819.42261 1274.7102 4292658911
18.891743 819.42261 1274.7102 4292462798
21.25321 819.42261 1274.7102 4292528847
-42.341286 825.63922 1273.4117 4285353560
10.585321 826.53839 1274.1699 4292527829
-44.519264 831.8277 1272.0896 4282988131
10.544037 831.8277 1272.0896 4292527060
14.058716 833.61902 1273.6 4292330962
-58.394497 839.25836 1273.1228 4290087086
-56.058716 839.25836 1273.1228 4290943146
10.511009 839.25836 1273.1228 4292264656
14.014679 839.25836 1273.1228 4292264653
16.350458 839.25836 1273.1228 4292133067
18.686239 839.25836 1273.1228 4291935700
-58.394497 841.04407 1274.6284 4292195778
-56.058716 841.04407 1274.6284 4292588489
1.16789 841.04407 1274.6284 4292197593
4.6715598 841.04407 1274.6284 4291869379
7.0073395 841.04407 1274.6284 4292198345
10.511009 841.04407 1274.6284 4292001736
14.014679 841.04407 1274.6284 4292198862
16.350458 841.04407 1274.6284 4292198862
-39.552292 847.16522 1273.2495 4290814407
-37.225689 848.05457 1273.9994 4291208627
-34.899082 848.94397 1274.7493 4291537330
-25.592661 847.16522 1273.2495 4291208622
-23.266054 847.16522 1273.2495 4291273393
-18.612844 847.16522 1273.2495 4291471808
-16.286238 847.16522 1273.2495 4291603137
-13.959633 847.16522 1273.2495 4291473356
-10.469725 847.16522 1273.2495 4290947785
-6.9798164 847.16522 1273.2495 4289172659
-4.6532111 847.16522 1273.2495 4287137651
-2.3266056 847.16522 1273.2495 4290164129
4.8697248 759.37268 1276.3989 4289434523
7.3045874 759.37268 1276.3989 4289500316
9.7394495 761.23413 1277.9684 4289237156
12.174312 761.23413 1277.9684 4289171363
4.8477063 768.25244 1276.038 4289237147
-48.293579 776.53674 1276.4828 4287397764
-49.312843 782.93982 1275.3417 4286603352
-45.704586 782.93982 1275.3417 4286537065
-43.299084 782.93982 1275.3417 4286405197
2.4055047 782.93982 1275.3417 4289696384
4.8110094 782.93982 1275.3417 4289630880
7.2165136 782.93982 1275.3417 4289499551
-48.110092 784.77881 1276.8922 4286204502
2.4055047 784.77881 1276.8922 4289500568
4.8110094 784.77881 1276.8922 4289499549
7.2165136 784.77881 1276.8922 4289499549
9.6220188 784.77881 1276.8922 4289434010
-52.719265 791.14691 1275.7214 4286728536
-50.322937 791.14691 1275.7214 4287057501
-46.728439 791.14691 1275.7214 4285613398
4.7926607 791.14691 1275.7214 4289170318
10.783486 791.14691 1275.7214 4291997611
14.377981 791.14691 1275.7214 4292261823
-52.719265 792.97894 1277.2662 4286925660
-50.322937 792.97894 1277.2662 4286925660
-46.728439 792.97894 1277.2662 4286203225
-52.517429 799.31195 1276.0659 4286993243
-50.130276 799.31195 1276.0659 4286335056
-46.549541 799.31195 1276.0659 4286664544
-52.517429 801.13696 1277.6047 4286992737
-50.130276 801.13696 1277.6047 4286926944
-46.549541 801.13696 1277.6047 4287058782
-45.216515 806.90527 1277.2363 4287059286
-42.836697 805.99561 1276.4692 4286136926
-40.456882 805.99561 1276.4692 4285610838
11.899082 805.08594 1275.7023 4292792013
-52.154129 814.99036 1277.5132 4284959068
-49.783485 814.99036 1277.5132 4284959068
-45.832417 814.38623 1277.0038 4284171611
-42.671558 813.17798 1275.9851 4283582292
-40.300919 813.17798 1275.9851 4282726983
16.594496 814.08417 1276.7491 4292463068
18.965137 814.08417 1276.7491 4292660695
-47.229359 821.22803 1276.2325 4285421654
-43.687157 821.22803 1276.2325 4284828753
9.4458714 821.22803 1276.2325 4292395738
14.168807 821.22803 1276.2325 4292593896
16.530275 821.22803 1276.2325 4292528103
23.614679 821.22803 1276.2325 4292528341
-47.229359 823.03333 1277.7548 4286868110
-44.867889 823.03333 1277.7548 4284959857
14.168807 823.03333 1277.7548 4292528352
23.614679 823.03333 1277.7548 4292396244
14.113762 829.23596 1276.4443 4292527573
16.466055 831.0343 1277.9607 4292265169
14.058716 835.4104 1275.1105 4292330708
16.401834 835.4104 1275.1105 4292067792
-58.394497 842.82983 1276.1342 4291540928
-56.058716 842.82983 1276.1342 4291276725
-52.555046 842.82983 1276.1342 4290749618
-49.051376 842.82983 1276.1342 4290288817
-46.715595 842.82983 1276.1342 4290617275
-44.379818 842.82983 1276.1342 4292064721
1.16789 842.82983 1276.1342 4291870420
4.6715598 842.82983 1276.1342 4291869898
7.0073395 842.82983 1276.1342 4292330449
10.511009 842.82983 1276.1342 4292067272
14.014679 842.82983 1276.1342 4292133319
16.350458 842.82983 1276.1342 4292264905
18.686239 842.82983 1276.1342 4291803854
-52.555046 844.61554 1277.6399 4289767092
-49.051376 844.61554 1277.6399 4290357169
-46.715595 844.61554 1277.6399 4290815672
-43.211929 844.61554 1277.6399 4290880704
-21.022018 844.61554 1277.6399 4291602614
1.16789 844.61554 1277.6399 4291410905
4.6715598 844.61554 1277.6399 4292001731
11.678899 844.61554 1277.6399 4292133065
16.350458 844.61554 1277.6399 4292329676
18.686239 844.61554 1277.6399 4292000202
22.189907 844.61554 1277.6399 4291934923
-43.992661 754.737 1279.0303 4281281574
-41.548622 754.737 1279.0303 4281544490
7.3321099 754.737 1279.0303 4289368224
-46.436699 756.60547 1280.6058 4285685887
7.2165136 786.61786 1278.4429 4289630619
9.6220188 786.61786 1278.4429 4289893273
-50.322937 794.81097 1278.8109 4286335831
11.981651 794.81097 1278.8109 4293250254
-55.115597 796.64294 1280.3556 4286994024
11.981651 796.64294 1280.3556 4292988626
14.377981 796.64294 1280.3556 4293119712
16.774311 796.64294 1280.3556 4293185505
-52.517429 802.96198 1279.1434 4287255647
-50.130276 802.96198 1279.1434 4287189854
-46.549541 802.96198 1279.1434 4286861401
-52.517429 804.78699 1280.6823 4288176997
-50.130276 804.78699 1280.6823 4287716446
-47.743118 804.78699 1280.6823 4287256408
-46.406422 808.72467 1278.7704 4286339154
-52.355965 810.54407 1280.3044 4285088585
-49.976147 810.54407 1280.3044 4285088585
-47.596329 810.54407 1280.3044 4284040011
-52.154129 816.80273 1279.0414 4284500564
-49.783485 817.70892 1279.8054 4285551185
18.965137 818.61511 1280.5696 4292330951
21.335779 818.61511 1280.5696 4292528073
14.168807 824.83875 1279.277 4292462296
-47.229359 826.6441 1280.7992 4283843440
16.530275 826.6441 1280.7992 4292396244
18.818348 832.83264 1279.4771 4292066768
-63.264221 838.99304 1278.1312 4291735468
-60.921101 838.99304 1278.1312 4292064192
-63.264221 840.78436 1279.6416 4292526276
-60.921101 840.78436 1279.6416 4291804356
-52.165752 846.99652 1279.6473 4290882494
-49.051376 847.29413 1279.8983 4291474623
-46.715595 847.29413 1279.8983 4290882745
-43.211929 847.29419 1279.8983 4291012797
-39.708256 847.29413 1279.8983 4291011008
-37.372478 848.18701 1280.6511 4290812081
-35.036697 848.18701 1280.6511 4291074996
-31.533028 846.40125 1279.1455 4291668923
-28.029358 846.40125 1279.1455 4291076770
-25.693579 846.40125 1279.1455 4291010977
-23.357798 846.40125 1279.1455 4291142063
-18.686239 846.40125 1279.1455 4291473073
-16.350458 846.40125 1279.1455 4291604915
-14.014679 846.40125 1279.1455 4291539400
-10.511009 847.29413 1279.8983 4291408070
-7.0073395 846.40125 1279.1455 4290027955
-4.6715598 846.40125 1279.1455 4289701261
-2.3357799 846.40125 1279.1455 4290227605
14.014679 846.40125 1279.1455 4292198860
16.350458 846.40125 1279.1455 4292067274
18.686239 846.40125 1279.1455 4291934920
22.189907 847.29419 1279.8983 4290748847
25.693579 847.29413 1279.8983 4291800249
28.029358 848.18701 1280.6511 4291603366
30.245872 854.28009 1279.2485 4285101173
14.433027 792.13495 1283.0947 4292855257
16.838531 792.13495 1283.0947 4293250015
-57.511925 798.47498 1281.9003 4286664793
-55.115597 799.39099 1282.6726 4287125095
11.981651 798.47498 1281.9003 4292726742
14.377981 799.39099 1282.6726 4292792283
16.774311 799.39099 1282.6726 4292989405
-52.517429 806.61194 1282.2211 4287390284
-50.130276 806.61194 1282.2211 4286732354
16.594496 820.42749 1282.0977 4292265437
18.965137 820.42749 1282.0977 4292264651
21.335779 820.42749 1282.0977 4292330701
16.594496 822.23987 1283.6259 4292396503
18.965137 822.23987 1283.6259 4292330199
21.335779 822.23987 1283.6259 4292395992
18.891743 828.44946 1282.3214 4292330449
21.25321 828.44946 1282.3214 4292725206
-64.435776 842.57568 1281.1521 4291673032
-60.921101 842.57568 1281.1521 4291082955
-58.57798 842.57568 1281.1521 4290359489
-56.234863 842.57568 1281.1521 4288387243
7.0293579 842.57568 1281.1521 4292001731
9.3724775 842.57568 1281.1521 4291804356
14.058716 842.57568 1281.1521 4292329676
-58.57798 844.36707 1282.6625 4290357169
-56.234863 844.36707 1282.6625 4290093509
-21.088074 844.36707 1282.6625 4291865530
1.1715597 844.36707 1282.6625 4291672276
4.6862388 844.36707 1282.6625 4292198329
7.0293579 844.36707 1282.6625 4292264122
10.544037 844.36707 1282.6625 4292133067
-39.708256 849.97272 1282.1569 4291405263
-37.372478 849.97272 1282.1569 4291338934
25.693579 849.97272 1282.1569 4288712106
28.029358 850.8656 1282.9097 4287335532
9.8128443 753.83832 1284.8127 4289302951
12.266055 753.83832 1284.8127 4289171365
-57.511925 803.05505 1285.7621 4287915636
-55.115597 803.05505 1285.7621 4287652465
14.377981 802.13904 1284.9897 4292594398
16.774311 802.13904 1284.9897 4292594398
18.965137 824.05225 1285.1539 4292394960
21.335779 824.05225 1285.1539 4292460753
-67.950462 847.05408 1284.9281 4292001735
-65.607338 846.15839 1284.1729 4291078860
-52.720184 847.05408 1284.9281 4291210168
-49.205505 847.94971 1285.6833 4291408574
-46.862385 847.94971 1285.6833 4291604913
-42.176147 847.94971 1285.6833 4291733971
-35.14679 847.94971 1285.6833 4291010225
-32.803669 846.15839 1284.1729 4291140789
-28.117432 846.15839 1284.1729 4289232270
-25.774311 846.15839 1284.1729 4291337389
-22.259632 846.15839 1284.1729 4291142840
-18.744955 846.15839 1284.1729 4290946227
-16.401834 846.15839 1284.1729 4291012020
-14.058716 847.05408 1284.9281 4291013052
-10.544037 847.94971 1285.6833 4290817208
-7.0293579 846.15839 1284.1729 4290685119
-4.6862388 846.15839 1284.1729 4290357919
-2.3431194 846.15839 1284.1729 4290423969
10.544037 846.15839 1284.1729 4290355662
14.058716 847.05408 1284.9281 4286803854
16.401834 847.05408 1284.9281 4286935697
18.744955 847.05408 1284.9281 4287263895
22.259632 847.94971 1285.6833 4287330722
28.029358 853.54419 1285.1682 4287398831
-60.137615 797.65204 1287.7466 4286467426
-57.732109 797.65204 1287.7466 4286927979
-60.137615 799.49109 1289.2972 4288047226
-57.511925 805.80304 1288.0791 4285021236
-55.115597 805.80304 1288.0791 4285481787
-68.216515 841.82434 1287.0586 4291672253
-64.688072 841.82434 1287.0586 4291868880
-61.159634 841.82434 1287.0586 4291344065
-63.511925 843.62268 1288.575 4289039276
-61.159634 843.62268 1288.575 4289298587
-58.807339 843.62268 1288.575 4289495967
-56.455048 843.62268 1288.575 4290617516
-30.579817 843.62268 1288.575 4290022565
1.1761467 843.62268 1288.575 4291408840
4.704587 843.62268 1288.575 4291999932
7.056881 843.62268 1288.575 4292460483
-39.833027 849.74103 1287.1937 4291667124
-37.48991 849.74103 1287.1937 4291471037
21.088074 849.74103 1287.1937 4286481822
25.774311 849.74103 1287.1937 4286481309
-60.137615 801.33008 1290.8479 4287261308
-54.102753 845.42102 1290.0913 4291079360
-44.693577 845.42102 1290.0913 4292065464
-31.755962 845.42102 1290.0913 4290547121
-28.227524 845.42102 1290.0913 4289956270
-25.875229 845.42102 1290.0913 4291732681
-22.34679 845.42102 1290.0913 4291341766
-18.818348 845.42102 1290.0913 4291079612
-16.466055 845.42102 1290.0913 4291079612
-7.056881 845.42102 1290.0913 4290488243
-4.704587 845.42102 1290.0913 4290422953
-2.3522935 845.42102 1290.0913 4290751662
0 845.42102 1290.0913 4291210680
4.704587 845.42102 1290.0913 4291934657
10.585321 845.42102 1290.0913 4287726817
-51.750458 847.21942 1291.6075 4290883264
-49.398167 847.21942 1291.6075 4290817471
-47.045872 847.21942 1291.6075 4290680742
-43.517433 847.21942 1291.6075 4290351520
-35.284405 847.21942 1291.6075 4289892262
-28.227524 847.21942 1291.6075 4290284188
-25.875229 847.21942 1291.6075 4292257978
-16.466055 847.21942 1291.6075 4291015617
-14.113762 847.21942 1291.6075 4290819006
-10.585321 847.21942 1291.6075 4290752706
-7.056881 847.21942 1291.6075 4290488769
-4.704587 847.21942 1291.6075 4289896357
-2.3522935 847.21942 1291.6075 4290159273
11.761468 847.21942 1291.6075 4280233315
14.113762 847.21942 1291.6075 4281544271
16.466055 847.21942 1291.6075 4282004822
18.818348 847.21942 1291.6075 4282008155
23.522936 847.21942 1291.6075 4286678687
-66.121101 842.89233 1294.4993 4291210709
-63.759632 842.89233 1294.4993 4288645039
-61.398167 842.89233 1294.4993 4288577679
-59.036697 842.89233 1294.4993 4288841107
-56.675228 842.89233 1294.4993 4290224307
2.3614678 842.89233 1294.4993 4291868866
7.0844035 842.89233 1294.4993 4292592331
-44.693577 849.01776 1293.1239 4289628080
-39.988991 849.91693 1293.8821 4291471798
-37.636696 849.91693 1293.8821 4290813368
-35.284405 849.01776 1293.1239 4289628833
-11.761468 849.01776 1293.1239 4291080895
21.170643 849.01776 1293.1239 4288123303
25.875229 849.01776 1293.1239 4288844989
-67.301834 844.69769 1296.0215 4290879922
-63.759632 844.69769 1296.0215 4291274426
-61.398167 844.69769 1296.0215 4290750381
-59.036697 844.69769 1296.0215 4290947760
-55.494495 844.69769 1296.0215 4291079861
-33.060551 844.69769 1296.0215 4290477717
-30.699083 844.69769 1296.0215 4290806939
-22.433945 844.69769 1296.0215 4291539663
-18.891743 844.69769 1296.0215 4291081410
1.1807339 844.69769 1296.0215 4291472575
4.7229357 844.69769 1296.0215 4291672292
7.0844035 844.69769 1296.0215 4289764295
9.4458714 844.69769 1296.0215 4285101997
-67.301834 846.50305 1297.5438 4289763748
-63.759632 846.50305 1297.5438 4291803573
-61.398167 846.50305 1297.5438 4291606973
-59.036697 846.50305 1297.5438 4291541180
-55.494495 846.50305 1297.5438 4291409078
-51.952293 846.50305 1297.5438 4291210950
-49.590824 846.50305 1297.5438 4291210950
-47.229359 846.50305 1297.5438 4290681024
-42.50642 846.50305 1297.5438 4290023328
-33.060551 846.50305 1297.5438 4290020496
-30.699083 846.50305 1297.5438 4290415254
-28.337614 846.50305 1297.5438 4290154412
-25.976147 846.50305 1297.5438 4292522961
-22.433945 846.50305 1297.5438 4291605204
-18.891743 846.50305 1297.5438 4291080647
-16.530275 846.50305 1297.5438 4291343563
-14.168807 846.50305 1297.5438 4291015102
-9.4458714 846.50305 1297.5438 4290817487
-7.0844035 846.50305 1297.5438 4290620107
-4.7229357 846.50305 1297.5438 4290159291
-2.3614678 846.50305 1297.5438 4290159291
0 846.50305 1297.5438 4290619324
4.7229357 846.50305 1297.5438 4289305835
10.626606 846.50305 1297.5438 4282534480
14.168807 846.50305 1297.5438 4282139486
16.530275 846.50305 1297.5438 4281942107
18.891743 846.50305 1297.5438 4283123035
23.614679 846.50305 1297.5438 4288582074
2.3706422 843.9884 1301.9636 4291409097
7.1119266 843.9884 1301.9636 4286674116
-61.398167 848.30841 1299.066 4290817739
-54.313763 848.30841 1299.066 4290355371
-51.952293 848.30841 1299.066 4290485162
-49.590824 848.30841 1299.066 4290682285
-47.229359 848.30841 1299.066 4291471289
-43.687157 848.30841 1299.066 4291406261
-34.241287 848.30841 1299.066 4290154399
-30.699083 848.30841 1299.066 4290811286
-25.976147 848.30841 1299.066 4291471537
-23.614679 848.30841 1299.066 4291013317
-18.891743 848.30841 1299.066 4289961649
-16.530275 848.30841 1299.066 4290158771
-14.168807 848.30841 1299.066 4290815674
-10.626606 848.30841 1299.066 4290750654
-7.0844035 848.30841 1299.066 4290619842
-4.7229357 848.30841 1299.066 4290160056
-2.3614678 848.30841 1299.066 4290160056
16.530275 848.30841 1299.066 4283187293
18.891743 848.30841 1299.066 4283644991
22.433945 848.30841 1299.066 4286868092
25.976147 848.30841 1299.066 4287064971
28.337614 848.30841 1299.066 4288247951
30.699083 848.30841 1299.066 4290419119
-49.590824 850.11377 1300.5883 4290353313
-47.229359 850.11377 1300.5883 4291142575
-43.687157 850.11377 1300.5883 4291801023
-40.144955 850.11377 1300.5883 4291603907
-37.783485 850.11377 1300.5883 4291011509
-35.42202 850.11377 1300.5883 4290748080
-10.626606 850.11377 1300.5883 4290553793
-7.0844035 850.11377 1300.5883 4290487993
-4.7229357 850.11377 1300.5883 4290159543
-2.3614678 850.11377 1300.5883 4290488508
-67.563309 845.80078 1303.4917 4290356394
-64.007339 845.80078 1303.4917 4291474617
-59.266056 845.80078 1303.4917 4290357188
-56.895412 845.80078 1303.4917 4290158248
-28.447706 845.80078 1303.4917 4291208622
-21.335779 845.80078 1303.4917 4290552766
1.1853211 845.80078 1303.4917 4289765562
4.7412844 845.80078 1303.4917 4286611373
7.1119266 845.80078 1303.4917 4284835218
10.667891 845.80078 1303.4917 4283784815
14.223853 845.80078 1303.4917 4285095290
-49.590824 851.91919 1302.1105 4291141811
-47.229359 851.91919 1302.1105 4291010486
-43.687157 851.91919 1302.1105 4290879672
-40.144955 851.91919 1302.1105 4291340481
-67.563309 847.61316 1305.0199 4291015617
-64.007339 847.61316 1305.0199 4291278790
-61.636696 847.61316 1305.0199 4290816985
-59.266056 847.61316 1305.0199 4290356434
-55.710091 847.61316 1305.0199 4290617775
-52.154129 847.61316 1305.0199 4290353313
-33.188992 847.61316 1305.0199 4290814368
-30.818348 847.61316 1305.0199 4291143077
-28.447706 847.61316 1305.0199 4290749615
-26.077065 847.61316 1305.0199 4290683822
-22.521101 847.61316 1305.0199 4290158512
-18.965137 847.61316 1305.0199 4289895855
-16.594496 847.61316 1305.0199 4289961649
-14.223853 847.61316 1305.0199 4290027201
7.1119266 847.61316 1305.0199 4283781763
10.667891 847.61316 1305.0199 4288054657
14.223853 847.61316 1305.0199 4288251518
16.594496 847.61316 1305.0199 4283711802
18.965137 847.61316 1305.0199 4283904829
22.521101 847.61316 1305.0199 4286470756
26.077065 847.61316 1305.0199 4286733928
28.447706 847.61316 1305.0199 4287327584
30.818348 847.61316 1305.0199 4290354319
-68.748627 849.42554 1306.5481 4291147205
-61.636696 849.42554 1306.5481 4290685647
-59.266056 849.42554 1306.5481 4290554060
-55.710091 849.42554 1306.5481 4291077815
-52.154129 849.42554 1306.5481 4291273141
-37.930275 849.42554 1306.5481 4290881213
-34.374313 849.42554 1306.5481 4290749618
-30.818348 849.42554 1306.5481 4288973711
-28.447706 849.42554 1306.5481 4288773763
-26.077065 849.42554 1306.5481 4288050040
-22.521101 849.42554 1306.5481 4288052100
-18.965137 849.42554 1306.5481 4287986825
-16.594496 849.42554 1306.5481 4288907927
-14.223853 849.42554 1306.5481 4289698474
-10.667891 849.42554 1306.5481 4290487740
-7.1119266 849.42554 1306.5481 4290355902
-4.7412844 849.42554 1306.5481 4290158771
-2.3706422 849.42554 1306.5481 4290948544
14.223853 849.42554 1306.5481 4289764547
16.594496 849.42554 1306.5481 4285882759
18.965137 849.42554 1306.5481 4286863951
22.521101 849.42554 1306.5481 4289561997
26.077065 849.42554 1306.5481 4288246669
28.447706 849.42554 1306.5481 4287196528
30.818348 849.42554 1306.5481 4288381058
1.1899083 845.11249 1309.4515 4289173943
4.7596331 845.11249 1309.4515 4284110727
-66.634865 846.93188 1310.9856 4291212997
-64.255043 846.93188 1310.9856 4291081410
1.1899083 846.93188 1310.9856 4287661483
4.7596331 846.93188 1310.9856 4283772979
7.1394496 846.93188 1310.9856 4285352012
10.709174 846.93188 1310.9856 4289432988
-54.524769 851.23792 1308.0762 4292063940
-52.154129 851.23792 1308.0762 4291406028
-49.783485 851.23792 1308.0762 4291142856
-46.227524 851.23792 1308.0762 4290748350
-42.671558 851.23792 1308.0762 4290683320
-40.300919 851.23792 1308.0762 4291143871
-37.930275 851.23792 1308.0762 4290815420
-34.374313 851.23792 1308.0762 4290618804
-16.594496 851.23792 1308.0762 4288973720
-14.223853 851.23792 1308.0762 4290225068
-10.667891 851.23792 1308.0762 4290685891
-7.1119266 851.23792 1308.0762 4290094282
-4.7412844 851.23792 1308.0762 4289963443
-2.3706422 851.23792 1308.0762 4290687166
26.077065 851.23792 1308.0762 4287592851
28.447706 851.23792 1308.0762 4286540397
30.818348 851.23792 1308.0762 4285685344
-49.783485 853.05029 1309.6044 4290289848
-10.667891 853.05029 1309.6044 4290358202
-7.1119266 853.05029 1309.6044 4289570495
-4.7412844 853.05029 1309.6044 4289176243
-2.3706422 853.05029 1309.6044 4289636794
26.077065 853.05029 1309.6044 4283056236
28.447706 853.05029 1309.6044 4282528836
-66.634865 848.75128 1312.5198 4290818493
-64.255043 848.75128 1312.5198 4290357942
-61.875229 848.75128 1312.5198 4290750401
-58.305504 848.75128 1312.5198 4290880699
-30.937614 848.75128 1312.5198 4288579727
-28.557798 848.75128 1312.5198 4286541446
-26.177982 848.75128 1312.5198 4285620344
-22.608257 848.75128 1312.5198 4287394442
-19.038532 848.75128 1312.5198 4288118411
1.1899083 848.75128 1312.5198 4287070102
4.7596331 848.75128 1312.5198 4281940311
7.1394496 848.75128 1312.5198 4282203482
10.709174 848.75128 1312.5198 4287002022
14.278899 848.75128 1312.5198 4289829306
16.658716 848.75128 1312.5198 4287460758
19.038532 848.75128 1312.5198 4287460479
22.608257 848.75128 1312.5198 4288316052
-61.875229 850.57068 1314.0537 4290223801
-58.305504 850.57068 1314.0537 4290419638
-54.735779 850.57068 1314.0537 4291207868
-52.355965 850.57068 1314.0537 4290750399
-47.596329 850.57068 1314.0537 4289630630
-26.177982 850.57068 1314.0537 4285293659
-19.038532 850.57068 1314.0537 4288775571
-16.658716 850.57068 1314.0537 4289828516
-14.278899 850.57068 1314.0537 4290750381
14.278899 850.57068 1314.0537 4288447403
16.658716 850.57068 1314.0537 4289039797
19.038532 850.57068 1314.0537 4288975017
22.608257 850.57068 1314.0537 4284699767
-49.976147 852.39001 1315.5879 4290285984
-14.278899 852.39001 1315.5879 4290619549
-4.7596331 852.39001 1315.5879 4288322231
-2.3798165 852.39001 1315.5879 4288388025
16.658716 852.39001 1315.5879 4291801481
19.038532 852.39001 1315.5879 4289370043
22.608257 852.39001 1315.5879 4284174192
26.177982 852.39001 1315.5879 4282728541
-66.84037 848.58698 1317.6133 4290685621
-64.453209 848.58698 1317.6133 4290619572
-45.355965 848.58698 1317.6133 4290683318
-42.968807 848.58698 1317.6133 4290618296
-40.58165 848.58698 1317.6133 4291078847
-38.194496 848.58698 1317.6133 4290684865
-34.613762 848.58698 1317.6133 4290422971
-31.033028 848.58698 1317.6133 4287858067
-28.645872 848.58698 1317.6133 4285820003
-22.677982 848.58698 1317.6133 4287395442
1.193578 848.58698 1317.6133 4286676650
4.774312 848.58698 1317.6133 4285622125
7.161468 848.58698 1317.6133 4283714128
10.742202 848.58698 1317.6133 4284899949
-64.453209 850.41199 1319.1521 4290816678
-62.066055 850.41199 1319.1521 4290353854
-58.485321 850.41199 1319.1521 4290747836
-54.904587 850.41199 1319.1521 4290681524
-52.517429 850.41199 1319.1521 4290614949
-47.743118 850.41199 1319.1521 4289891742
-28.645872 850.41199 1319.1521 4287003287
-26.258715 850.41199 1319.1521 4286805908
-22.677982 850.41199 1319.1521 4287857819
-19.097248 850.41199 1319.1521 4288974263
-16.710093 850.41199 1319.1521 4290224587
-10.742202 850.41199 1319.1521 4290357931
-7.161468 850.41199 1319.1521 4289701554
10.742202 850.41199 1319.1521 4287526801
14.322936 850.41199 1319.1521 4290419828
19.038532 854.20941 1317.1219 4286808488
21.418348 854.20941 1317.1219 4283518838
-59.678898 852.237 1320.6909 4290877881
-16.710093 852.237 1320.6909 4290160047
-14.322936 852.237 1320.6909 4290422953
-7.161468 852.237 1320.6909 4289241005
-4.774312 854.06201 1322.2297 4286608313
-2.387156 854.06201 1322.2297 4285489576
14.322936 853.14954 1321.4603 4289827741
16.710093 853.14954 1321.4603 4289301141
-45.530273 847.93939 1323.6074 4291141809
-43.133945 847.93939 1323.6074 4290816696
-40.737614 847.93939 1323.6074 4291277247
-38.341286 847.93939 1323.6074 4290948805
-34.746788 847.93939 1323.6074 4290751429
-31.152294 847.93939 1323.6074 4289238193
1.1981652 847.93939 1323.6074 4288188340
4.7926607 847.93939 1323.6074 4288121775
7.1889906 847.93939 1323.6074 4287858346
-57.511925 849.77142 1325.1521 4291010225
-55.115597 849.77142 1325.1521 4290220710
-52.719265 849.77142 1325.1521 4290283421
-50.322937 849.77142 1325.1521 4290151834
-46.728439 849.77142 1325.1521 4290548877
-43.133945 849.77142 1325.1521 4290882753
-40.737614 849.77142 1325.1521 4291211461
-38.341286 849.77142 1325.1521 4290752198
-34.746788 849.77142 1325.1521 4290816961
-31.152294 849.77142 1325.1521 4291145153
-28.755962 849.77142 1325.1521 4291079614
-26.359632 849.77142 1325.1521 4290684856
-22.765137 849.77142 1325.1521 4290225584
-19.170643 849.77142 1325.1521 4289896618
-10.783486 849.77142 1325.1521 4290160816
-4.7926607 849.77142 1325.1521 4285429384
-2.3963304 849.77142 1325.1521 4284574075
7.1889906 849.77142 1325.1521 4288378767
10.783486 849.77142 1325.1521 4289562502
14.322936 855.88696 1323.7686 4285823880
-57.511925 851.60339 1326.6968 4290682285
-55.115597 851.60339 1326.6968 4290024612
-52.719265 851.60339 1326.6968 4290154666
-50.322937 851.60339 1326.6968 4290088873
-47.926605 851.60339 1326.6968 4290024110
-26.359632 851.60339 1326.6968 4290816969
-22.765137 851.60339 1326.6968 4290356920
-19.170643 851.60339 1326.6968 4290225068
-16.774311 851.60339 1326.6968 4290619826
-14.377981 851.60339 1326.6968 4290488495
-10.783486 851.60339 1326.6968 4290291125
-7.1889906 851.60339 1326.6968 4289699253
10.783486 851.60339 1326.6968 4288316778
19.170643 851.60339 1326.6968 4284964208
21.566973 851.60339 1326.6968 4283648348
-52.719265 853.43542 1328.2416 4290749629
