# .PCD v0.7 - Point Cloud Data file format
VERSION 0.7
FIELDS x y z rgb
SIZE 4 4 4 4
TYPE F F F U
COUNT 1 1 1 1
WIDTH 1171
HEIGHT 1
VIEWPOINT 0 0 0 1 0 0 0
POINTS 1171
DATA ascii
4.444037 817.36328 777.66656 4283115053
7.4972477 817.39886 777.26056 4283181365
10.829357 817.39893 777.26062 4283442984
13.878288 817.85944 777.21289 4283771152
16.110704 816.93829 777.30829 4283381033
19.587614 817.66431 778.13843 4279242262
22.099543 816.97345 778.20984 4283388771
25.018349 816.01709 777.40356 4285889170
28.354128 817.29224 778.47864 4286543197
31.133947 817.29224 778.4787 4286411382
3.3284404 820.05298 778.19031 4283704356
10.81743 820.05298 778.19031 4284097320
14.145872 820.05298 778.19031 4284624917
16.642202 820.68909 778.72668 4283842369
18.306421 820.68909 778.72668 4279238656
3.8746178 823.23126 778.25415 4284098583
23.247707 822.80811 777.89734 4282134121
3.3100917 827.56287 777.98242 4284493345
-1.6550459 828.82819 779.04932 4284828479
0.82752293 828.82819 779.04932 4285087811
3.3027523 830.30255 777.67639 4284429097
46.238533 830.30255 777.67639 4285750606
-3.3027523 832.82751 779.8053 4281997070
-1.6513761 832.82751 779.8053 4282326035
1.1009175 831.98584 779.0957 4283641646
4.119266 833.03662 777.3656 4284036390
47.783485 833.03662 777.3656 4287722109
51.192661 831.56506 778.74084 4291343263
54.495415 831.56506 778.74084 4293975256
-3.2954128 835.55603 779.48987 4281737271
-1.6477064 835.55603 779.48987 4281539893
0.82385319 834.92615 778.9588 4282064177
0.54740059 838.59198 778.12567 4281344823
3.2844036 837.755 777.41992 4282327850
49.813457 838.59198 778.12567 4293385956
52.550457 838.38269 777.94922 4293321182
55.013763 838.38269 777.94922 4292992221
57.477066 839.01044 778.47852 4292861153
-6.5688071 840.26593 779.53711 4282134049
-4.1055045 840.26593 779.53711 4282328867
-1.6422018 840.26593 779.53711 4282655014
0.54740059 841.17023 779.42755 4283638060
4.0963306 841.72632 778.15234 4282392877
7.373394 841.72632 778.15234 4281542187
10.650459 841.72632 778.15234 4280753707
13.763669 841.97687 778.36359 4281078032
16.385321 842.35266 778.68048 4281539371
18.843121 841.72632 778.15234 4282392619
22.120182 841.09998 777.62427 4282327077
25.397247 841.09998 777.62427 4282524462
28.690826 840.73486 777.97046 4292328122
31.951378 841.09998 777.62427 4292001972
34.409176 841.09998 777.62427 4292857543
36.86697 841.72638 778.15234 4293253842
40.144035 841.72632 778.15234 4293450982
43.421101 841.72632 778.15234 4293451746
46.698166 841.72632 778.15234 4293188832
49.975227 841.72632 778.15234 4292991456
52.550457 840.26593 779.53711 4293255131
25.408257 749.5675 781.54431 4285883500
28.912844 748.89771 780.97949 4285490794
31.541285 749.5675 781.54431 4285425007
33.363304 748.00891 782.84619 4285425007
31.541285 750.9071 782.67383 4285227884
0.87339449 754.57617 781.84332 4279110163
4.6581039 753.68585 781.09277 4283254341
1.7431192 758.79437 782.78406 4281730834
4.6483178 758.35016 782.40948 4281472007
6.972477 756.79547 781.09857 4283647078
6.9504585 761.11542 780.81702 4280029765
37.358719 761.11542 780.81702 4285751913
0.86880732 762.44385 781.93701 4281405964
5.2128439 762.44385 781.93701 4281537553
0.86605507 767.40906 782.19946 4281346865
4.3302751 767.40906 782.19946 4280425005
6.9284406 766.08484 781.08301 4281601796
38.106422 766.08484 781.08301 4285488740
5.1853213 770.26941 781.99512 4281218611
7.4899082 769.38849 781.25238 4281672214
38.025688 769.6087 781.43805 4286081126
39.754128 769.6087 781.43805 4286278506
7.753211 773.23218 780.56921 4281544253
37.043121 773.23218 780.56921 4285819249
39.627522 773.89075 781.12451 4285885295
-1.7229358 775.20795 782.23523 4278454063
0.8614679 775.20795 782.23523 4278190110
4.3073397 775.20795 782.23523 4279110400
7.7366972 776.73846 780.90967 4279767090
6.8770642 778.05286 782.01782 4279635230
7.7119269 781.6546 781.13062 4278912523
11.13945 780.34442 780.02588 4279176725
15.423853 780.34442 780.02588 4280292903
7.6954126 785.1405 781.45386 4280558119
11.115597 784.48682 780.90271 4278782217
47.882568 785.79419 782.005 4286410357
49.592659 785.79419 782.005 4286410357
8.5229359 788.07312 780.00244 4278190087
11.079817 788.07312 780.00244 4278650369
13.636697 788.07312 780.00244 4279503893
15.341285 788.07312 780.00244 4280424739
43.466972 788.07312 780.00244 4286344814
46.023853 788.07312 780.00244 4286344814
-1.7045871 790.67944 782.20007 4284830757
0.85229355 790.67944 782.20007 4285161823
3.4091742 790.67944 782.20007 4283520340
7.6706419 789.37628 781.10132 4281476678
44.319267 790.67944 782.20007 4286083180
46.592052 789.81061 781.46759 4286214000
49.433029 789.37628 781.10132 4286214259
-6.8036699 793.49353 781.95679 4284436554
-5.1027522 793.49353 781.95679 4285357656
0 793.49353 781.95679 4285293952
4.53578 793.06006 781.59131 4282664528
7.6541286 792.19318 780.86035 4284108647
40.255047 792.62665 781.22583 4286214521
43.089905 793.06006 781.59131 4286279283
45.92477 793.49353 781.95679 4286410344
-4.2385321 797.05597 781.03638 4285886054
1.6954129 797.05597 781.03638 4284833919
4.2385321 797.05597 781.03638 4281810230
38.994495 797.05597 781.03638 4286476404
-3.3908257 798.35211 782.12927 4285951340
-1.6917431 799.85742 780.78247 4286740855
0.84587157 799.85742 780.78247 4285425524
4.2293577 799.85742 780.78247 4282137633
6.7669725 799.85742 780.78247 4282005291
38.06422 799.85742 780.78247 4286476401
40.689907 798.35211 782.12927 4286476404
43.233028 798.35211 782.12927 4286476146
-4.5113149 801.58185 782.23651 4283514944
3.3834863 801.15076 781.87292 4283715386
40.601833 801.15076 781.87292 4286476654
43.13945 801.79742 782.41821 4286542968
45.677063 802.44409 782.9635 4286346109
-3.3724771 805.33813 781.47955 4283114783
-1.6862385 805.33813 781.47955 4283180832
1.6862385 804.69354 780.93604 4284366945
4.2155962 804.69354 780.93604 4284567095
42.155964 804.69354 780.93604 4286542949
0.84128439 808.12274 781.21136 4283771954
3.9259937 807.90839 781.03058 4283511593
6.7302752 807.47955 780.66907 4283314223
-1.6825688 810.05225 782.83826 4284034850
0 812.28906 780.80017 4284231480
0.83669722 815.05957 780.52026 4283838009
40.998165 815.05957 780.52026 4286739295
-1.66789 819.84247 780.62891 4284102183
0.83394498 819.84247 780.62891 4283508781
-3.3357799 822.3927 782.7793 4283442240
-1.6660551 822.49512 781.55762 4284100414
0.83211011 822.5976 780.33594 4283903523
0.83027524 825.34711 780.03821 4284297762
48.986237 826.61664 781.10864 4285815096
-3.3100917 830.09351 780.11609 4284434214
-1.6550459 830.09351 780.11609 4284697130
49.651375 830.09351 780.11609 4288579957
-6.6055045 835.35254 781.93433 4280950806
-4.3975534 835.90717 780.65796 4281279525
-1.6477064 836.81567 780.552 4280622636
-9.8862381 839.33508 782.67627 4282857019
-8.2385321 838.7052 782.1452 4283646800
52.726604 839.33508 782.67627 4293057501
55.198166 838.70526 782.14526 4293123552
58.21896 838.4953 781.9682 4292926178
-6.5688071 841.52142 780.5957 4285030501
-4.3792052 841.93994 780.94855 4281802273
-1.6422018 842.14917 781.125 4284361012
1.0948012 842.3584 781.30145 4284359733
4.1055045 842.77686 781.6543 4283771460
7.3899078 842.77686 781.6543 4283319117
10.674313 842.77686 781.6543 4282001711
13.958715 842.77686 781.6543 4283053060
16.422018 842.77686 781.6543 4282594600
18.885323 842.14917 781.125 4280753437
22.169724 841.52142 780.5957 4281674288
25.454128 841.52142 780.5957 4281999912
28.738533 841.52142 780.5957 4293974502
32.022934 841.52142 780.5957 4293977580
34.48624 842.14917 781.125 4293451746
36.949539 842.77686 781.6543 4293715181
40.233948 842.77686 781.6543 4293122790
43.518349 842.77686 781.6543 4293123043
46.80275 842.77686 781.6543 4293123043
50.087158 841.52142 780.5957 4293122526
59.119267 842.14917 781.125 4292860127
60.761467 842.77686 781.6543 4292925663
0 844.03235 782.71289 4282449953
8.211009 844.03235 782.71289 4282200389
3.5045872 752.24677 783.80334 4278190080
3.5045872 753.58643 784.93286 4278779904
0 757.24707 784.09534 4282059543
-4.0672784 760.57123 784.28223 4281012757
-1.7431192 760.12701 783.90771 4281272320
3.4862385 760.12701 783.90771 4281537553
-1.7376146 763.77222 783.05713 4281872702
0.86880732 763.77222 783.05713 4280623138
4.3440366 763.77222 783.05713 4281603609
-1.7376146 765.76489 784.7373 4282400856
0.86605507 768.73328 783.31604 4281021255
3.4642203 768.73328 783.31604 4280955183
-3.4642203 771.38165 785.54919 4278454063
-1.7284404 771.59082 783.10938 4280032854
0.8642202 771.59082 783.10938 4280888390
4.3211012 771.59082 783.10938 4281742119
-4.3211012 774.23358 785.33765 4281938753
-1.7229358 776.52515 783.34583 4279439172
0.8614679 776.52515 783.34583 4278518051
4.3073397 776.52515 783.34583 4278650112
-3.4458716 778.50098 785.01172 4284900221
-1.7229358 778.50098 785.01172 4284439670
0.8614679 777.84235 784.45642 4283124305
4.3018351 778.6048 783.79126 4278914839
-1.7192661 781.99603 785.34265 4282862928
0.85963303 780.68164 784.23438 4284438353
4.2981653 780.68164 784.23438 4280951094
-1.7137614 785.58514 784.4447 4283124555
0.85688072 784.93005 783.8924 4284766533
4.2844038 784.27496 783.34009 4285685087
-4.2807341 787.6521 784.87958 4284171820
4.2752295 787.10156 783.10742 4284963888
47.882568 788.40894 784.20972 4286345598
49.592659 788.40894 784.20972 4286345598
51.302753 788.40894 784.20972 4286280054
-1.7045871 791.98267 783.29883 4285293659
1.7045871 791.98267 783.29883 4285030781
47.728439 791.98267 783.29883 4286345346
49.433029 791.98267 783.29883 4286345346
52.157799 789.71637 785.31213 4286345846
-6.8036699 794.79388 783.05322 4285293659
40.822018 794.79388 783.05322 4286280054
43.373394 794.79388 783.05322 4286214513
47.127216 794.2229 784.31573 4286280054
49.433029 793.93738 784.94708 4286345595
51.137615 794.58899 785.49646 4286345848
-6.8036699 796.74438 784.69788 4284240713
-5.1027522 796.09424 784.14966 4285951592
46.77523 796.74438 784.69788 4286411379
-6.7816515 800.94446 784.31506 4282524209
44.080734 799.64832 783.22217 4286412154
45.776146 799.64832 783.22217 4286412154
-6.7816515 802.2406 785.40796 4282785819
-5.0752292 803.73743 784.05396 4283048990
-5.0752292 805.03082 785.14453 4282983466
-3.3724773 808.56104 784.19696 4283443479
-1.6862385 807.27185 783.10999 4283639831
-1.6825688 811.33856 783.92285 4283839774
-3.3357799 823.66779 783.85437 4284894273
-10.710092 841.22461 784.26941 4282202170
-7.4146791 841.22461 784.26941 4283976262
-3.8446484 841.43457 784.44647 4280682004
-1.6477064 841.85443 784.80054 4281206537
1.6477064 841.85443 784.80054 4281925657
4.119266 841.85443 784.80054 4282980627
6.5908256 841.85443 784.80054 4284963695
10.710092 841.85443 784.80054 4282791213
14.005505 841.85443 784.80054 4284832613
16.477064 841.85443 784.80054 4284765807
19.772476 840.59473 783.7384 4280753724
22.244038 840.59473 783.7384 4281674039
25.53945 840.59473 783.7384 4281803045
28.834862 840.59473 783.7384 4293778401
32.404892 841.01465 784.09247 4293847017
34.601833 841.85443 784.80054 4293386210
37.073395 841.85443 784.80054 4293255146
40.368805 841.85443 784.80054 4293188836
43.664223 841.85443 784.80054 4293123295
49.431194 840.59473 783.7384 4293057249
51.902752 840.59473 783.7384 4293123040
55.198166 840.59473 783.7384 4293057508
58.493576 841.22461 784.26947 4292860387
60.965137 841.85443 784.80054 4292860638
-13.181651 843.11414 785.86267 4281476398
-10.710092 843.11414 785.86267 4281012766
-7.4146786 843.11414 785.86267 4280879397
-4.119266 843.11414 785.86267 4279828499
-1.6477064 843.11414 785.86267 4280418312
0 843.11414 785.86267 4280942599
4.943119 843.11414 785.86267 4282914827
7.4146786 843.11414 785.86267 4281541410
9.8862381 843.11414 785.86267 4280163075
-5.2568808 757.60535 788.32153 4282004539
-6.9871559 762.58875 788.59937 4282859598
-4.0709481 763.1687 787.34424 4282860889
-6.972477 765.45752 788.40222 4281346638
-4.3522935 766.60754 787.40979 4280624210
-5.2128439 769.08594 787.53748 4280426540
-5.1853213 776.2157 787.00897 4284570966
-6.8917432 780.47675 786.67773 4283783770
-4.3073397 780.47675 786.67773 4280231206
-6.8770642 783.31042 786.45093 4284306510
-4.2981653 783.31042 786.45093 4280557596
51.302753 791.02374 786.41443 4286345848
-6.7816515 803.53674 786.50085 4283180588
-6.7816515 805.48096 788.1402 4283509290
-5.0752292 806.32416 786.23499 4283443498
-6.7669725 808.91089 788.41602 4283181090
-5.0752292 808.26416 787.87079 4283444263
-6.7449541 812.42841 787.45789 4283509042
-4.2155962 811.78381 786.91443 4283839537
-7.5880733 813.71759 788.54492 4283376677
-4.2155962 813.71759 788.54492 4283376423
-6.7302752 816.48395 788.26135 4283180088
-5.0477066 816.48395 788.26135 4282916917
62.891743 838.95056 787.58423 4292926433
-18.165138 842.92749 788.32129 4280820019
-16.513762 842.92749 788.32129 4279435264
-14.862386 842.29626 787.78906 4279700231
-6.6055045 842.92749 788.32129 4284893771
-4.1284404 842.92749 788.32129 4284696390
1.6513761 842.29626 787.78906 4281866776
3.8532112 842.50665 787.96649 4282194960
7.4311924 842.92749 788.32129 4279568173
11.009174 842.50665 787.96649 4279768847
14.311927 842.08588 787.61163 4282729303
16.513762 841.66498 787.25684 4284109899
19.001835 840.67145 787.07312 4280424739
22.31835 840.3092 787.42169 4281082672
25.624771 840.3092 787.42169 4281084469
28.931192 840.30914 787.42163 4291019992
31.376146 841.03369 786.72461 4293584639
33.85321 841.66498 787.25684 4293715427
37.155964 841.66498 787.25684 4293124076
40.458717 841.66498 787.25684 4293320422
43.761467 841.66498 787.25684 4293123294
47.089905 840.67139 787.07312 4293189355
49.596329 840.3092 787.42169 4292926179
52.047707 840.67151 787.07312 4292926176
55.321106 841.03369 786.72461 4293057507
58.348621 841.24414 786.90204 4292859872
61.926605 841.66498 787.25684 4293057246
64.403671 842.29626 787.78906 4292728537
66.055046 842.92749 788.32129 4292596698
-13.181651 844.37378 786.9248 4283113728
-10.710092 844.37378 786.9248 4284167967
-8.2385321 844.37378 786.9248 4284959036
-1.6477064 844.37378 786.9248 4284301374
0 844.37378 786.9248 4284104763
65.908257 845.63348 787.98694 4292728546
67.555962 845.63348 787.98694 4292926181
-5.2568808 758.94495 789.45117 4283320139
-8.5045872 803.89642 790.72827 4283444748
-8.4587154 810.20422 789.50659 4283313664
-10.117432 815.00671 789.63184 4283511340
-8.4311924 815.00671 789.63184 4283050789
-10.679511 816.72559 791.08124 4284369473
-7.5807338 817.03308 790.03241 4284369997
-7.5715594 819.05658 790.43054 4284371009
46.495415 839.31165 791.81274 4293255146
49.816513 839.31165 791.81274 4292860640
53.137615 839.31165 791.81274 4293123556
-18.205505 842.74646 790.78479 4282657846
-6.6201835 842.74646 790.78479 4287988599
-4.9651375 842.74646 790.78479 4287988599
1.6550459 842.74646 790.78479 4287921257
4.1376147 842.74646 790.78479 4286863229
7.4477062 842.74646 790.78479 4283974247
10.757798 842.74646 790.78479 4279242806
14.06789 842.11377 790.25134 4278190349
16.550459 841.48114 789.7179 4279702567
19.033028 841.48114 789.7179 4280163106
22.343121 841.48114 789.7179 4280820783
25.65321 841.48114 789.7179 4280297272
28.963303 841.48114 789.7179 4289180870
31.445871 841.48114 789.7179 4293324799
33.92844 841.48114 789.7179 4293847267
37.238533 841.48114 789.7179 4293255142
40.548622 841.48114 789.7179 4293188836
43.858715 841.48114 789.7179 4293189088
47.99633 841.48114 789.7179 4293255146
51.306423 841.48114 789.7179 4293123556
55.444038 841.48114 789.7179 4292991971
59.029968 841.90289 790.07355 4292794334
62.06422 842.11383 790.25134 4292728538
-16.53211 844.10083 790.61877 4287396987
-14.052294 844.10083 790.61877 4288119941
-10.740367 844.461 790.26843 4289633179
-7.7174315 844.07111 791.02979 4290423980
-3.8593273 844.07111 791.02979 4290358445
-1.6513761 844.82117 789.91809 4289831586
0 844.82117 789.91809 4290355350
4.1376147 844.01178 791.85168 4291139476
7.4477062 844.01178 791.85168 4291869393
64.475235 844.10083 790.61877 4292925914
66.055046 845.45245 790.45032 4292597730
67.631195 846.80408 790.28198 4292795109
-8.5688076 796.06665 793.28247 4283050274
-13.533945 814.08429 792.7782 4285749850
41.605503 839.13763 794.28198 4293123556
44.101837 839.13763 794.28198 4293123043
46.598164 839.13763 794.28198 4293254629
49.094498 839.13763 794.28198 4293188835
53.255047 839.13763 794.28198 4293123296
54.919266 839.13763 794.28198 4293057247
-19.096329 841.21594 793.4184 4286870651
1.6605505 841.85065 793.95361 4290025625
10.793578 841.85065 793.95361 4290097334
14.114679 841.21594 793.4184 4283123787
16.605505 840.58118 792.88318 4278191616
19.096329 840.58118 792.88318 4278916365
22.417431 840.58118 792.88318 4280756277
25.738533 840.58118 792.88318 4280559156
29.059633 840.58118 792.88318 4287929254
31.550459 840.58118 792.88318 4294308863
34.041283 840.58118 792.88318 4294044382
37.362385 840.58118 792.88318 4293584095
39.85321 840.58118 792.88318 4293123556
51.477066 840.58118 792.88318 4293188836
56.458717 840.58118 792.88318 4292991456
58.949539 841.21594 793.4184 4292794333
61.440369 841.85065 793.95361 4292925661
63.100918 841.85065 793.95361 4292991706
-9.930275 845.27704 792.91846 4291939006
-1.6550459 845.27704 792.91846 4292267217
0 845.27704 792.91846 4292263872
66.201836 845.27704 792.91846 4292926696
67.85688 846.54236 793.98535 4292926433
69.357796 847.97742 792.57935 4292597209
69.357796 849.23993 793.6438 4292662743
-22.206728 840.77881 796.5379 4290751889
-19.415901 841.68231 796.42755 4291280566
-16.642202 842.95453 797.50037 4290821555
-14.977982 842.95453 797.50037 4291018934
-7.4889908 842.95453 797.50037 4291478723
-4.9926605 842.95453 797.50037 4291478213
1.6642202 842.31836 796.96399 4288711566
4.1605506 842.95453 797.50037 4289624654
8.3211012 842.95453 797.50037 4292326833
10.81743 841.68225 796.42761 4291346593
13.868503 841.25812 796.07001 4289438621
16.642202 841.04608 795.89124 4284311188
19.138531 841.04608 795.89124 4281085520
22.466972 841.04608 795.89124 4279175448
25.823854 840.32709 796.59314 4280362026
28.867279 840.35474 796.18036 4285692039
31.110704 840.29956 797.00586 4291480035
34.154129 840.32709 796.59314 4293781219
37.486237 840.32709 796.59314 4293452255
40.818348 840.32715 796.59314 4293123556
43.856274 840.35474 796.18036 4293057501
46.110703 840.2995 797.00586 4293123042
49.148624 840.32715 796.59314 4293057249
52.480732 840.32715 796.59314 4293057503
55.812843 840.32715 796.59308 4293057503
59.079819 841.68225 796.42761 4292991712
61.576145 842.31836 796.96399 4292859871
64.072479 842.31836 796.96399 4292925914
-18.266054 843.12018 795.02393 4292464306
-16.605505 843.12018 795.02393 4291938743
-13.837921 843.54327 795.38068 4291741624
-11.070336 843.96649 795.73755 4291412921
-7.472477 843.12018 795.02393 4291872709
-3.8746178 843.54327 795.38068 4291675080
-1.6605505 844.38965 796.09436 4291806664
0 844.38965 796.09436 4291870146
4.1513762 843.12018 795.02393 4290876559
7.1957188 843.54327 795.38068 4291078565
66.42202 845.02441 796.62958 4292991967
67.85688 847.80762 795.05225 4293123294
-21.68257 841.51941 798.90637 4292067772
-20.014679 842.15698 799.44397 4291478208
-5.0036697 842.79456 799.98157 4291543999
1.66789 842.79456 799.98157 4290227115
4.1697249 842.79456 799.98157 4287921284
7.5055046 842.79456 799.98157 4290223031
10.841284 841.51941 798.90637 4291346370
13.34312 841.51941 798.90637 4291214530
15.844954 841.51941 798.90637 4291476935
19.180733 841.51941 798.90637 4290884293
22.516514 841.51941 798.90637 4287073180
25.018349 841.51941 798.90637 4279446068
38.361469 841.51941 798.90637 4293321441
40.863304 841.51941 798.90637 4293189099
43.365139 841.51941 798.90637 4293517800
45.866974 841.51941 798.90637 4293254631
49.202751 841.51941 798.90637 4293123042
52.538532 841.51941 798.90637 4293123294
56.152294 841.94452 799.26483 4292860121
58.376148 842.15698 799.44397 4292860120
60.877983 842.79456 799.98157 4292991456
-18.306421 844.22687 798.57312 4291215036
-16.642202 844.22687 798.57312 4291149500
-14.145872 844.22687 798.57312 4291149755
-10.81743 844.22687 798.57312 4290886586
-7.4889908 844.22687 798.57312 4291083708
-3.3284404 844.22687 798.57312 4291740093
-1.6642202 844.86304 799.1095 4291015318
0 844.86304 799.1095 4291607999
64.072479 844.22687 798.57312 4292859870
67.400917 845.49915 799.64587 4293057501
69.897247 845.49915 799.64587 4292728537
-23.427523 839.36676 801.01538 4292133821
26.774311 839.36676 801.01538 4278193152
28.447706 839.36676 801.01538 4279247104
30.957798 839.36676 801.01538 4288322229
34.050156 839.31573 801.84442 4293716717
36.814678 839.36676 801.01538 4293321441
-28.447706 841.92542 803.17285 4291478201
-26.216513 841.49896 802.81329 4291609031
-22.869726 841.07251 802.45367 4291543227
-20.080734 841.92542 803.17285 4291215043
5.0201836 841.92542 803.17285 4290029724
8.3669729 841.92542 803.17285 4291345589
10.877064 841.28571 802.63354 4290820545
13.387156 841.28577 802.63348 4290688956
15.897249 841.28577 802.63354 4291214526
19.244038 841.28577 802.63348 4291477695
22.869722 841.07251 802.45367 4289504176
25.937614 840.64606 802.09412 4283255868
28.447706 840.64606 802.09412 4279507456
30.957798 840.64606 802.09412 4287403662
35.141285 840.64606 802.09412 4293584356
37.651375 840.64606 802.09412 4293386466
40.998165 840.64606 802.09412 4293189360
43.508255 841.28577 802.63348 4293189093
46.018349 840.64606 802.09412 4293320424
49.644032 841.07251 802.45367 4293057246
52.711922 841.28577 802.63348 4293057757
55.779816 841.49902 802.81329 4293057504
58.568806 841.92542 803.17285 4292926179
-21.68257 844.06964 801.05664 4291346111
-18.346788 844.06964 801.05664 4291281092
-15.844954 844.06964 801.05664 4291281088
-13.34312 844.70715 801.59424 4291412415
-10.563302 844.49463 801.41504 4290755002
-7.5055051 844.70715 801.59424 4286541411
-3.8917434 844.49463 801.41504 4288117583
-1.66789 845.34473 802.13184 4289829476
0.83394498 844.70715 801.59424 4290817711
3.3357799 844.06964 801.05664 4290029724
6.6715598 844.06964 801.05664 4290555816
60.877983 844.06964 801.05664 4292925663
64.21376 844.06964 801.05664 4292794331
-28.510092 841.77808 805.66455 4291411906
-26.833027 841.77808 805.66455 4291346636
11.73945 841.77808 805.66455 4289110446
13.416513 841.77808 805.66455 4289833392
15.93211 841.77808 805.66455 4290752942
19.28624 841.77808 805.66455 4291672747
22.360855 841.35065 805.3042 4291411635
25.714987 840.92328 804.94385 4290556328
28.510092 841.13696 805.12402 4285556570
31.025688 840.49591 804.5835 4288254266
34.379814 840.49591 804.5835 4292796910
37.733944 841.13696 805.12402 4293583845
41.367584 840.92328 804.94385 4293189352
43.603668 841.77808 805.66455 4293189090
46.119267 841.13696 805.12402 4293254628
49.193882 841.35065 805.3042 4293320420
52.827522 841.77808 805.66455 4293452516
-30.187157 843.06018 806.74561 4291346884
-28.510092 843.06018 806.74561 4291346884
-25.678289 843.58301 805.44238 4291411911
-22.615595 843.13245 805.49854 4291412162
-19.244038 843.84436 804.79083 4291477967
-15.897249 843.84436 804.79083 4291740870
-13.387156 844.48401 805.3302 4291806666
-11.164525 843.58301 805.44238 4290754233
-7.5376148 843.77209 806.0379 4289042056
-4.4660549 843.58301 805.44238 4288119395
-1.6733944 844.48401 805.3302 4290289787
1.1168195 843.58301 805.44238 4291343547
4.1880732 843.13245 805.49854 4290753722
7.5385313 843.13245 805.49854 4290951105
10.051376 843.13245 805.49854 4290096823
53.666054 843.06018 806.74561 4292926179
55.820187 843.15656 805.08282 4293189352
58.095413 843.1084 805.91425 4292926187
61.14587 843.13245 805.49854 4292861153
64.49633 843.13245 805.49854 4292861154
67.542503 843.15656 805.08282 4292860381
-30.286238 839.638 807.78418 4291675335
26.921101 839.638 807.78418 4291148720
31.127522 839.638 807.78418 4288124026
34.492661 839.638 807.78418 4293057245
40.381653 839.638 807.78418 4293386984
-26.921101 842.21069 809.95349 4291477700
1.6825688 842.21069 809.95349 4291148991
5.0477066 842.21069 809.95349 4291082944
7.5715594 842.21069 809.95349 4291148469
11.217125 841.78192 809.59198 4289767595
13.46055 841.5675 809.41113 4289568688
15.703975 841.35309 809.23029 4288908960
19.349541 840.92438 808.86877 4290682531
22.71468 840.92438 808.86877 4291869877
26.079817 840.92438 808.86877 4290820023
28.60367 840.92438 808.86877 4290030001
31.127522 840.92438 808.86877 4290094456
33.651375 840.92438 808.86877 4291214280
37.016514 840.92438 808.86877 4293518315
43.746788 840.92438 808.86877 4293057501
45.429359 840.92438 808.86877 4293057501
49.63578 840.92438 808.86877 4293057248
52.159634 840.92438 808.86877 4293057249
55.524769 842.21069 809.95349 4293056997
58.889908 842.21069 809.95349 4293057510
61.413761 842.21069 809.95349 4292991454
64.7789 842.21069 809.95349 4292860136
68.424461 841.78192 809.59198 4292991462
70.667892 842.21069 809.95349 4293188836
-31.86422 844.34229 807.82666 4291477700
-25.155964 844.34229 807.82666 4291477700
-22.640366 844.34229 807.82666 4291543745
-19.006729 844.76971 808.18701 4289436586
-15.93211 844.9834 808.36719 4289628812
-13.416513 844.9834 808.36719 4290422959
-10.900917 844.34229 807.82666 4290819522
-7.5467887 844.34229 807.82666 4290621615
-4.1926603 844.34229 807.82666 4291278759
-1.6770642 844.34229 807.82666 4291081127
0 844.34229 807.82666 4290622647
3.3541284 844.34229 807.82666 4291214530
35.411011 839.50043 810.2843 4293977586
38.783485 839.50043 810.2843 4293518315
40.469727 839.50043 810.2843 4293386984
42.155964 839.50043 810.2843 4293255142
47.21468 839.50043 810.2843 4292991454
7.5880733 842.07874 812.45825 4290950324
10.96055 842.07874 812.45825 4291543749
13.489908 842.07874 812.45825 4291608006
16.300306 841.64911 812.09595 4289629346
19.391743 841.43414 811.91479 4290221476
22.764219 841.43414 811.91479 4291739325
26.136696 841.43414 811.91479 4290754744
28.666056 841.4342 811.91479 4290491060
31.195414 841.4342 811.91479 4290292652
34.56789 841.4342 811.91479 4291477967
37.659328 841.2193 811.73364 4293255147
40.469727 840.78961 811.37134 4293321189
42.155964 840.78961 811.37134 4293255396
49.744034 840.78961 811.37134 4293123303
53.116516 840.78961 811.37134 4293057255
55.64587 842.07874 812.45825 4293123044
57.894192 841.64911 812.09595 4293057252
61.547707 842.07874 812.45825 4292991456
64.920181 842.07874 812.45825 4293057254
67.449539 842.07874 812.45825 4292991202
69.13578 842.07874 812.45825 4293715182
-28.60367 843.49701 811.03809 4291872459
-25.799387 843.92578 811.3996 4291872972
-22.995108 843.92578 811.3996 4291741124
-19.629969 844.35455 811.76117 4288974725
-15.984404 844.78339 812.12268 4285285978
-13.46055 844.78339 812.12268 4285619603
-10.936697 844.1402 811.58038 4291804878
-7.571559 844.1402 811.58038 4291740615
-4.4868503 843.92578 811.3996 4291543491
-1.6825688 843.49701 811.03809 4290754485
0.56085628 843.92578 811.3996 4289768887
4.2064219 843.49701 811.03809 4290228666
70.667892 843.49701 811.03809 4293781247
38.910091 839.95129 814.58862 4293519086
40.601833 839.95129 814.58862 4293517800
43.421406 839.5202 814.2251 4293189090
46.522934 839.30463 814.04333 4293254883
49.906422 839.95129 814.58862 4293255143
52.444038 839.95129 814.58862 4293123558
54.13578 839.95129 814.58862 4293188838
16.917431 841.24463 815.67908 4290552734
20.300917 841.24463 815.67908 4290949046
22.838531 841.24463 815.67908 4291870917
25.376146 841.24463 815.67908 4290818743
27.913761 841.24463 815.67908 4291081658
31.297249 841.24463 815.67908 4290622129
34.680733 841.24463 815.67908 4290293691
38.06422 841.24463 815.67908 4292464358
40.601833 841.24463 815.67908 4293649387
42.293579 841.24463 815.67908 4293254629
49.906422 841.24463 815.67908 4293254881
52.444038 841.24463 815.67908 4292925659
54.981651 841.24463 815.67908 4293057249
58.365135 841.24463 815.67908 4293123042
61.748623 841.24463 815.67908 4293056997
65.132111 841.24463 815.67908 4293254629
67.669724 841.24463 815.67908 4293124328
69.361465 841.24463 815.67908 4293782001
-32.038532 843.36786 813.54529 4291609542
-28.666056 844.01245 814.08875 4289373870
-26.136696 844.65704 814.6322 4288581719
-22.595596 844.91486 814.84961 4291147712
-19.110703 845.08673 814.99457 4290160547
-16.300306 845.51642 815.35693 4287721604
-13.489908 845.30164 815.17572 4285553977
-10.96055 845.30157 815.17578 4289963669
-7.5880728 845.30164 815.17572 4291083703
-3.9345562 844.22729 814.26984 4291477955
-1.6862385 844.01245 814.08875 4290688441
0.84311926 844.01245 814.08875 4290030513
4.2155962 843.36786 813.54529 4290555834
7.5880733 843.36786 813.54529 4291407557
10.96055 844.01245 814.08875 4291540930
13.489908 844.01245 814.08875 4291608777
15.176147 843.36786 813.54529 4290095535
18.548624 843.36786 813.54529 4290816163
70.822021 843.36786 813.54529 4292533746
-15.143119 846.0697 813.20728 4285611047
44.080734 839.82916 817.10168 4293386212
46.623856 839.82916 817.10168 4293320418
1.6917431 842.53802 816.76965 4290227115
4.2293577 842.53802 816.76965 4290027689
7.612844 842.53802 816.76965 4289954969
16.07156 842.53802 816.76965 4291411909
19.455046 842.53802 816.76965 4291477444
22.838531 842.53802 816.76965 4290093218
25.376146 842.53802 816.76965 4289893775
27.913761 842.53802 816.76965 4290422152
31.297249 842.53802 816.76965 4290951608
34.719265 841.83167 817.48212 4290096816
38.14679 841.12531 818.19458 4291872196
40.689907 841.12531 818.19458 4293517548
43.233028 841.12531 818.19458 4293385958
46.623856 841.12531 818.19458 4293056989
50.014679 841.12531 818.19458 4292991196
52.557796 841.12531 818.19458 4293056988
55.100918 841.12531 818.19458 4293057249
58.491745 841.12531 818.19458 4293056999
61.882568 841.12531 818.19458 4293189353
64.42569 841.12531 818.19458 4293517561
66.895416 841.83167 817.48212 4293256186
70.207336 842.53802 816.76965 4284908716
72.902756 841.12531 818.19458 4278190136
-20.300917 843.83136 817.86011 4292069055
-16.07156 845.12469 818.95068 4291281086
-13.533945 845.12469 818.95068 4290885801
-10.99633 845.12469 818.95068 4290228390
-7.612844 845.12469 818.95068 4289110679
-4.5113149 844.26245 818.22363 4291149743
-1.6917431 843.83136 817.86011 4291148989
0 843.83136 817.86011 4290951605
3.3834863 843.83136 817.86011 4291147172
7.612844 843.83136 817.86011 4289759922
10.99633 843.83136 817.86011 4291407284
13.533945 843.83136 817.86011 4292132552
16.07156 843.83136 817.86011 4292263879
19.455046 843.83136 817.86011 4292000190
71.053207 844.47803 818.4054 4278190130
1.6954129 842.42151 819.28735 4290951605
5.0862384 842.42151 819.28735 4289239175
22.888073 842.42151 819.28735 4289433476
25.431192 842.42151 819.28735 4289959291
27.974312 842.42151 819.28735 4290752920
31.365139 842.42151 819.28735 4291149241
34.813759 841.36414 820.35791 4290359986
37.420185 840.3067 821.42847 4290358703
39.971558 840.3067 821.42847 4293122529
43.373394 840.3067 821.42847 4293320679
46.77523 840.3067 821.42847 4292991967
50.014679 842.42151 819.28735 4292860126
52.557796 842.42151 819.28735 4293386212
55.279816 840.3067 821.42847 4293057251
58.681648 840.3067 821.42847 4293122542
62.083488 840.3067 821.42847 4293715699
64.634865 840.3067 821.42847 4293322745
66.968811 842.42151 819.28735 4290495192
69.511925 842.42151 819.28735 4282403942
72.902756 842.42151 819.28735 4278190155
-18.649542 843.71765 820.38025 4291806666
-16.106422 845.01379 821.47314 4291479239
-13.563303 845.01379 821.47314 4291478213
-11.020184 845.01379 821.47314 4290162598
-7.6293578 845.01379 821.47314 4289372822
-4.2385321 844.36572 820.9267 4291148733
-1.6954129 843.71765 820.38025 4291543497
0 843.71765 820.38025 4291345852
7.6293578 843.71765 820.38025 4290222517
11.302752 844.14972 820.74457 4290483633
13.563303 844.36572 820.9267 4290085248
16.106422 844.36572 820.9267 4290349176
19.214678 844.14972 820.74457 4290679169
22.605505 844.14972 820.74457 4291670193
25.431192 843.71765 820.38025 4291869879
27.974312 843.71765 820.38025 4291412408
67.816513 843.71765 820.38025 4278190137
69.511925 843.71765 820.38025 4278190134
72.902756 844.36572 820.9267 4278190094
71.053207 846.41809 820.04114 4278190105
-25.568808 840.19995 823.95447 4289626380
-22.111927 841.60706 822.5249 4292724171
-19.560551 842.2572 823.07312 4292004552
-3.401835 842.90741 823.62134 4291671751
-1.7009175 842.90741 823.62134 4292198095
0.85045874 842.2572 823.07312 4291476926
4.53578 842.04053 822.89038 4291081919
7.6541286 842.90741 823.62134 4291537848
10.205504 842.90741 823.62134 4291141058
20.411009 842.90741 823.62134 4290748832
23.812843 842.90741 823.62134 4292068294
25.513762 842.90741 823.62134 4292265417
28.065138 842.90741 823.62134 4291346379
31.466972 842.25726 823.07312 4290755008
34.58532 842.04053 822.89038 4290491573
37.420185 841.60706 822.5249 4290096299
39.971558 841.60706 822.5249 4292070352
43.373394 841.60706 822.5249 4293255656
46.77523 841.60706 822.5249 4293124068
49.326607 841.60706 822.5249 4293057762
51.877983 841.60706 822.5249 4292860122
55.399082 840.19995 823.95447 4293254631
58.808258 840.19995 823.95447 4293846265
61.365139 840.19995 823.95447 4293782015
63.92202 840.19995 823.95447 4289312476
67.186234 842.2572 823.07312 4279180864
69.737617 842.90741 823.62134 4278190098
-16.158716 844.20776 824.71777 4291084994
-13.60734 844.20776 824.71777 4291478215
-11.055964 844.20776 824.71777 4290886076
-7.6541286 844.20776 824.71777 4289635225
-4.2522936 844.20776 824.71777 4289104521
0 844.20776 824.71777 4290750633
11.906422 844.20776 824.71777 4289691285
13.60734 844.20776 824.71777 4289822844
16.158716 844.20776 824.71777 4291338650
18.710093 844.20776 824.71777 4291604645
69.737617 844.20776 824.71777 4278257685
71.207336 846.30994 822.56604 4278387459
72.902756 846.30994 822.56604 4278190080
-27.361467 838.7431 826.65015 4287194880
-23.941284 838.7431 826.65015 4290158760
-28.125687 842.80634 826.1521 4289766539
-25.568808 842.15479 825.60266 4288448815
-22.159634 842.15479 825.60266 4292134599
-19.88685 842.37201 825.78583 4291676616
-1.7045871 842.80634 826.1521 4290153631
1.7045871 842.15479 825.60266 4291870143
3.97737 842.37189 825.78583 4291411403
7.6706419 842.80634 826.1521 4290353577
10.227523 842.80634 826.1521 4289691285
20.455046 842.80634 826.1521 4291410360
23.011927 842.80634 826.1521 4291740355
25.568808 842.80634 826.1521 4291543493
28.125687 842.80634 826.1521 4291018186
31.534863 842.80634 826.1521 4290820289
35.228134 842.37189 825.78583 4290688697
37.500916 842.15479 825.60266 4290491831
40.0578 842.15479 825.60266 4291149252
43.466972 842.15479 825.60266 4293583592
46.876144 842.15479 825.60266 4293057758
49.433029 842.15479 825.60266 4293189087
51.989906 842.15479 825.60266 4293452260
55.399082 842.15479 825.60266 4293649650
58.808258 842.15472 825.60266 4290429407
61.365139 841.50317 825.05322 4291416035
64.206116 841.93756 825.41949 4281681520
67.047096 842.37189 825.78583 4278190378
-27.273394 844.1095 827.25085 4291148989
-25.568808 844.1095 827.25085 4290622645
-18.750458 844.1095 827.25085 4290887111
-16.193579 844.1095 827.25085 4290886332
-13.636697 844.1095 827.25085 4291017662
-11.079817 844.1095 827.25085 4291544523
-7.6706419 844.1095 827.25085 4290490535
-4.2614679 844.1095 827.25085 4289169551
-1.7045871 844.1095 827.25085 4289824432
0 844.1095 827.25085 4291012524
11.079817 844.1095 827.25085 4290018422
13.636697 844.1095 827.25085 4290351764
16.193579 844.1095 827.25085 4291999155
19.602753 844.1095 827.25085 4291607739
23.011927 844.1095 827.25085 4291477698
25.568808 844.1095 827.25085 4291346111
27.273394 844.1095 827.25085 4291215043
32.387157 844.1095 827.25085 4290952641
34.944038 844.1095 827.25085 4291017914
37.500916 844.1095 827.25085 4290886333
52.842201 844.1095 827.25085 4294110451
68.183487 844.1095 827.25085 4278192680
70.6633 844.80884 826.53253 4278190093
-28.367889 833.25739 828.56494 4286410563
-29.227524 835.229 830.22729 4287068544
-23.371254 841.57574 829.03857 4290557118
-20.521101 842.01154 829.40601 4291282126
1.7100917 842.01154 829.40601 4292591556
4.2752295 842.01154 829.40601 4291209898
7.6954126 842.01154 829.40601 4290283145
29.07156 842.01154 829.40601 4291083457
30.781651 842.01154 829.40601 4290952641
40.187157 842.01154 829.40601 4290688700
43.607338 842.01154 829.40601 4293649388
47.027523 842.01154 829.40601 4293188836
49.592659 842.01154 829.40601 4293583593
51.302753 842.01154 829.40601 4293649900
55.57798 842.01154 829.40601 4291612636
58.998165 842.01154 829.40601 4281945728
61.563301 841.35785 828.85486 4278195798
63.843426 841.57574 829.03857 4278190122
66.693581 842.01154 829.40601 4278191877
-19.666054 843.31891 830.50842 4289768115
-16.245872 843.31891 830.50842 4290096816
-13.680734 843.31891 830.50842 4290491056
-11.115597 843.31891 830.50842 4291609799
-7.6954126 843.31891 830.50842 4291871430
-4.2614679 845.41266 828.34973 4289104004
-1.7045871 845.41266 828.34973 4290613900
0.85504586 844.36578 829.42908 4291601842
4.2752295 843.31891 830.50842 4289888665
7.6954126 843.31891 830.50842 4290409092
11.115597 843.31891 830.50842 4290476622
13.680734 843.31891 830.50842 4290813071
16.245872 843.31891 830.50842 4292000694
19.666054 843.31891 830.50842 4291148736
23.086239 843.31891 830.50842 4291017151
25.651377 843.31891 830.50842 4291148737
28.216515 843.31891 830.50842 4291215297
31.636698 843.31891 830.50842 4290887361
35.056881 843.31891 830.50842 4290820539
37.622017 843.31891 830.50842 4290754233
40.187157 843.31891 830.50842 4290556859
42.752293 843.31891 830.50842 4293714930
49.592659 843.31891 830.50842 4294175481
52.157799 843.31891 830.50842 4291676643
55.57798 843.31891 830.50842 4281027448
58.998165 843.31891 830.50842 4278190136
61.563301 843.31891 830.50842 4278190087
64.128441 843.31891 830.50842 4278322189
67.54863 843.31891 830.50842 4278190080
69.888077 845.41266 828.34973 4278190080
-22.278898 841.9231 831.94751 4290688699
44.557796 841.9231 831.94751 4293584107
47.128441 841.9231 831.94751 4293518060
-22.278898 843.23328 833.05212 4290096549
-19.708256 843.23328 833.05212 4289898669
-16.280735 843.23328 833.05212 4290686650
-13.710092 843.23328 833.05212 4291276723
-11.13945 843.23328 833.05212 4292067011
-7.704587 843.92981 832.33142 4292068297
-3.9902141 845.06207 831.97821 4290750625
-1.7100917 844.62628 831.61072 4291537821
0.85688072 843.92981 832.33142 4290482866
4.2807341 843.92981 832.33142 4290017654
7.7119265 843.23328 833.05212 4290015885
11.13945 843.23328 833.05212 4290283084
13.710092 843.23328 833.05212 4291013274
16.280735 843.23328 833.05212 4291739061
19.708256 843.23328 833.05212 4291083199
23.13578 843.23328 833.05212 4291017154
25.706423 843.23328 833.05212 4291082692
28.277065 843.23328 833.05212 4291215295
31.669725 843.92981 832.33142 4290886846
35.056881 844.62628 831.61072 4290426297
37.622017 844.62628 831.61072 4290425782
40.273396 843.23328 833.05212 4290688450
49.699081 843.23328 833.05212 4292994046
52.269726 843.23328 833.05212 4286550477
55.697247 843.23328 833.05212 4278195310
58.998165 844.62628 831.61072 4278190096
61.695412 843.23328 833.05212 4278388270
64.266052 843.23328 833.05212 4278190098
67.693581 843.23328 833.05212 4278452224
-19.771561 842.45813 836.32275 4290422702
-16.333027 842.45813 836.32275 4290225072
1.7192661 842.45813 836.32275 4290741157
5.1577983 842.45813 836.32275 4289294449
7.7366972 842.45813 836.32275 4290542202
10.315597 842.45813 836.32275 4290617234
12.894495 842.45813 836.32275 4291606187
16.333027 842.45813 836.32275 4291345850
19.771561 842.45813 836.32275 4291017408
22.350458 842.45813 836.32275 4291017153
24.929358 842.45813 836.32275 4291082942
28.367889 842.45813 836.32275 4291083711
30.946789 842.45813 836.32275 4290886848
36.964218 842.45813 836.32275 4289702572
43.841286 841.14374 835.21448 4293649394
46.420185 841.14374 835.21448 4293781742
48.71254 842.02002 835.95331 4288719805
52.437614 842.45813 836.32275 4278190104
55.876144 842.45813 836.32275 4278190097
64.472473 842.45813 836.32275 4278190082
67.051376 842.45813 836.32275 4281344287
-13.710092 844.54346 834.15686 4290744475
-11.13945 844.54346 834.15686 4290285972
-7.7119265 844.54346 834.15686 4292067006
-4.2844038 845.19855 834.70923 4291476926
-1.7137614 844.54346 834.15686 4289697931
0 844.54346 834.15686 4289754261
3.4275229 844.54346 834.15686 4290807688
32.561466 844.54346 834.15686 4291018434
34.27523 844.54346 834.15686 4289703089
59.124771 844.54346 834.15686 4278586400
61.695412 844.54346 834.15686 4278190361
-19.813763 842.38507 838.8772 4290819771
-17.229359 842.38507 838.8772 4291408574
5.1688075 842.38507 838.8772 4288967544
7.753211 842.38507 838.8772 4290678680
10.337615 842.38507 838.8772 4291801787
12.922018 842.38507 838.8772 4291869887
16.367889 842.38507 838.8772 4291083195
19.813763 842.38507 838.8772 4291017664
22.398165 842.38507 838.8772 4290886081
24.982569 842.38507 838.8772 4291017401
28.42844 842.38507 838.8772 4291083709
31.874311 842.38507 838.8772 4291215559
34.458717 842.38507 838.8772 4289571251
37.043121 842.38507 838.8772 4289570990
40.488991 841.72644 838.3219 4290622399
43.93486 841.72644 838.3219 4293714675
46.519264 841.72644 838.3219 4293781489
48.242203 842.38507 838.8772 4292073434
-18.952293 843.70227 839.98779 4291873489
-16.058716 844.18726 838.65265 4290357171
-12.894495 844.42969 837.98517 4289692314
-10.315597 844.42969 837.98517 4290156697
-7.7366972 844.42969 837.98517 4292001728
-4.5847096 844.64874 838.16992 4291674819
-1.7192661 844.42969 837.98517 4290028708
0.86055046 844.0835 838.34729 4290353563
3.4422019 843.73743 838.70941 4290349711
7.753211 843.70227 839.98779 4291010712
10.337615 843.70227 839.98779 4291540415
12.060551 843.70227 839.98779 4292066759
18.952293 843.70227 839.98779 4291281090
46.519264 843.70227 839.98779 4293583595
49.35535 843.72577 839.13556 4288650144
52.493576 843.73737 838.70947 4281676083
55.93578 843.73743 838.70941 4278190080
58.455048 844.42969 837.98517 4278192143
61.033943 844.42969 837.98523 4279173381
64.231194 843.74908 838.28326 4284889374
5.1853213 841.62537 842.16064 4290547859
13.827523 841.62537 842.16064 4291477702
16.420183 841.62537 842.16064 4291280578
20.741285 841.62537 842.16064 4291215810
22.469725 841.62537 842.16064 4290952639
25.062386 841.62537 842.16064 4291017914
28.519266 841.62537 842.16064 4291083709
31.976147 841.62537 842.16064 4291018432
34.568806 841.62537 842.16064 4289374125
37.161469 841.62537 842.16064 4289964975
40.618347 841.62537 842.16064 4291214012
44.07523 841.62537 842.16064 4293582821
-15.506422 845.01947 841.09851 4291739072
-12.922018 845.01947 841.09851 4291998892
-10.337615 845.01947 841.09851 4291804868
-7.753211 845.01947 841.09851 4291542722
-4.3073397 845.01947 841.09851 4291280573
-1.7229358 845.01947 841.09851 4291872194
0 845.01947 841.09851 4292133569
53.411011 845.01947 841.09851 4287201675
55.133945 845.01947 841.09851 4278190247
58.579815 845.01947 841.09851 4278190080
61.164223 845.01947 841.09851 4278190080
-12.060551 846.33667 842.20911 4291541682
-4.3073397 846.33667 842.20911 4291280047
-17.302752 842.91797 844.55865 4292463060
1.7284404 842.94678 843.2749 4290357158
4.3256884 842.91797 844.55859 4290946988
7.7862387 842.91797 844.55859 4290618291
10.381651 842.91797 844.55865 4290225573
12.977064 842.91797 844.55865 4290358706
16.437614 842.91797 844.55859 4290031027
19.898165 842.91797 844.55859 4290557106
22.493578 842.91797 844.55865 4291083447
25.088991 842.91797 844.55865 4291148733
28.549541 842.91797 844.55865 4291082940
32.027523 842.57251 844.92139 4290360759
34.6422 841.56494 844.72583 4289636027
37.220184 842.57251 844.92139 4290555826
40.661469 842.91797 844.55865 4291806150
43.817738 842.92755 844.13068 4293583587
45.851376 842.91797 844.55865 4293386723
49.260551 842.94678 843.2749 4293583593
51.85321 842.94678 843.2749 4292596700
57.038532 842.94678 843.2749 4278190231
-16.132111 845.14911 845.13184 4291342778
-13.251376 845.14911 845.13184 4290946732
-10.370643 844.92889 844.94611 4291147167
-7.7779818 844.92889 844.94611 4290226568
-4.3211012 845.5896 845.50317 4291279524
-1.7284404 844.26819 844.38904 4291675083
0.57614678 844.70868 844.76044 4291609549
46.667889 844.26819 844.38904 4293255394
49.260551 844.26819 844.38904 4293320426
53.005505 844.70868 844.76044 4293845993
55.310093 844.92889 844.94611 4293649133
57.902752 844.92883 844.94617 4287664302
60.495415 844.26819 844.38904 4278190093
34.752293 840.82068 848.02234 4289634451
-7.7944956 845.5376 848.07544 4291802789
-4.3302751 845.5376 848.07544 4291410869
-1.7321101 844.87549 847.51721 4290885828
0 845.5376 848.07544 4289966789
12.124771 844.21338 846.95898 4288582292
46.766972 844.21338 846.95898 4293123296
49.365139 844.87549 847.51721 4293123046
52.540668 845.09619 847.70331 4293320416
58.025688 845.5376 848.07544 4294043895
-16.132111 847.3515 846.98877 4290677885
-13.251376 847.3515 846.98877 4290745494
-10.370643 846.91101 846.61743 4291209887
55.310093 846.91101 846.61743 4293188838
1.7376146 842.14911 849.14246 4291676109
4.3440366 842.14911 849.14246 4291345877
7.8192658 842.14911 849.14246 4290029236
10.425688 842.14911 849.14246 4289437601
13.900917 842.14911 849.14246 4288384915
16.507339 842.14911 849.14246 4288122520
19.982569 842.14911 849.14246 4289372836
22.588991 842.14911 849.14246 4290885549
25.195412 842.14911 849.14246 4291083460
28.670643 842.14911 849.14246 4290952128
31.277063 842.14911 849.14246 4290557383
33.883484 842.14911 849.14246 4289438892
37.358719 842.14911 849.14246 4290622384
40.833946 842.14911 849.14246 4292924886
43.440369 842.14911 849.14246 4293517287
45.177982 842.14911 849.14246 4293123296
-6.9504585 844.80591 851.38269 4292002764
-1.7376146 844.80591 851.38269 4291017401
12.163302 843.47754 850.26257 4289962662
29.53945 843.47754 850.26257 4290492601
38.227524 843.47754 850.26257 4291081899
40.833946 843.47754 850.26257 4293582304
43.440369 843.47754 850.26257 4293451244
46.046791 843.47754 850.26257 4293057249
49.522018 844.80591 851.38269 4293057249
52.128441 844.80591 851.38269 4293057247
-12.124771 847.52393 849.75031 4291736769
-10.39266 846.86182 849.19202 4291672264
-8.6605501 846.86182 849.19202 4292396244
-4.3302751 846.86182 849.19202 4291674565
0 846.86182 849.19202 4287666394
53.695412 846.86182 849.19202 4293189090
55.427525 846.86182 849.19202 4293057501
1.7431192 842.08374 853.01141 4285296794
4.3577981 842.08374 853.01141 4284835948
7.8440366 842.08374 853.01141 4285164921
10.458715 842.08374 853.01141 4287859854
13.363914 842.30585 853.19873 4288846999
16.559633 842.08374 853.01141 4288319360
20.045872 842.08374 853.01147 4289503636
22.660551 842.08374 853.01141 4290424492
25.27523 842.08374 853.01147 4290754493
28.470947 842.30585 853.19873 4290492598
31.376146 842.08374 853.01141 4289702084
33.990826 842.08374 853.01141 4289898928
37.186543 842.30585 853.19873 4291016624
40.963303 842.75006 853.57324 4293582566
43.57798 842.75006 853.57324 4293385449
46.192661 842.75006 853.57324 4293057249
13.073395 844.0827 854.6969 4284180019
16.559633 844.0827 854.6969 4290491771
20.045872 844.0827 854.6969 4290358951
22.660551 844.0827 854.6969 4290949029
24.403669 844.0827 854.6969 4291214530
33.990826 844.0827 854.6969 4290753710
37.477066 844.0827 854.6969 4292594885
40.963303 844.0827 854.6969 4293583333
43.57798 844.0827 854.6969 4293321191
46.192661 844.0827 854.6969 4292991454
50.550457 844.0827 854.6969 4292991708
-10.425688 846.13434 852.50269 4292002760
-7.8192658 846.79852 853.06274 4291805890
-4.3440366 846.79858 853.06274 4291937992
-1.7376146 846.79858 853.06274 4291477959
0 846.79858 853.06274 4287601036
48.65321 846.13434 852.50269 4293057501
52.997246 846.13434 852.50269 4292992224
1.746789 842.7149 856.15967 4278190080
4.3669724 842.7149 856.15967 4278190080
7.8605504 842.7149 856.15967 4279442707
10.480734 842.7149 856.15967 4281487691
26.201836 842.7149 856.15967 4291346115
28.822018 842.7149 856.15967 4289769134
31.442202 842.7149 856.15967 4289242277
1.746789 844.05029 857.28564 4278190080
3.493578 844.05029 857.28564 4278190080
13.100918 844.05029 857.28564 4285030512
16.577982 844.73279 856.5531 4291344805
20.045872 845.41528 855.82056 4291608757
22.708258 844.05029 857.28564 4291675067
25.328442 844.05029 857.28564 4290951873
28.822018 844.05029 857.28564 4289504675
