# .PCD v0.7 - Point Cloud Data file format
VERSION 0.7
FIELDS x y z rgb
SIZE 4 4 4 4
TYPE F F F U
COUNT 1 1 1 1
WIDTH 1172
HEIGHT 1
VIEWPOINT 0 0 0 1 0 0 0
POINTS 1172
DATA ascii
16.477064 829.25757 774.1792 4278719238
18.948624 829.25757 774.1792 4282796613
21.420183 829.25757 774.1792 4286413437
29.658716 830.51727 775.24133 4286476150
31.376146 829.04004 776.61182 4286476150
34.678898 829.04004 776.61182 4286541944
7.4009171 832.88275 775.2738 4281412402
32.07798 832.88275 775.2738 4286475884
34.601833 831.77698 776.30347 4286410861
36.249542 831.77698 776.30347 4286541416
7.6636086 835.66254 775.65558 4281741621
9.8532114 836.49951 776.36133 4281872450
36.949539 836.49951 776.36133 4285553976
10.923547 838.80341 775.68781 4281478450
13.927523 838.59467 775.51184 4281084206
16.385321 838.5946 775.51184 4280887088
18.843119 838.5946 775.51184 4279964713
22.120182 838.5946 775.51184 4285818490
25.397249 838.5946 775.51184 4286672749
28.674313 838.5946 775.51184 4286343266
31.951376 838.5946 775.51184 4286276960
34.409176 838.5946 775.51184 4286276697
36.866974 839.22095 776.03992 4287920961
39.324772 839.22095 776.03992 4288974503
10.480734 751.90527 779.59143 4285751914
13.100918 751.90527 779.59143 4285620073
15.721101 751.90527 779.59143 4286606970
10.458715 754.79651 779.41309 4285556336
13.073395 754.79651 779.41309 4285490288
15.688073 754.79651 779.41309 4286345598
22.660551 754.79651 779.41309 4285556332
13.900917 758.45856 778.57678 4283518545
17.376146 757.13013 777.45667 4286017137
20.851376 757.13013 777.45667 4285622125
22.588991 758.45856 778.57678 4285557347
22.588991 759.78699 779.6969 4285492349
24.326605 759.78699 779.6969 4285819753
17.3211 763.43634 778.84991 4279308562
20.092478 763.17157 778.62659 4280558123
22.517431 763.4364 778.84985 4285426533
24.249542 763.4364 778.84985 4285556586
16.367889 771.25635 778.90332 4278190080
0 779.03424 778.92114 4281681209
22.278898 779.03424 778.92114 4285885295
0 781.87207 778.698 4283715143
6.8403668 781.21838 778.14679 4282198050
20.521101 781.87207 778.698 4282794306
23.086239 781.87207 778.698 4285557353
-3.4091742 785.4668 777.80493 4280094720
-1.7100917 783.17944 779.80029 4284634689
0.85504586 784.32312 778.80261 4285686621
4.2752295 783.17944 779.80029 4285161573
7.6954126 783.17944 779.80029 4281020740
11.115597 783.17944 779.80029 4278911259
13.680734 783.17944 779.80029 4279697429
16.245872 783.17944 779.80029 4278583301
19.666054 783.17944 779.80029 4281872428
23.047707 784.32312 778.80261 4285754217
25.651377 783.17944 779.80029 4285359202
28.216515 783.17944 779.80029 4286081381
0 786.76996 778.90369 4285554767
19.602753 786.76996 778.90369 4282136887
23.011927 786.76996 778.90369 4286018158
25.568808 786.76996 778.90369 4285885797
28.125687 786.76996 778.90369 4285754212
30.68257 786.76996 778.90369 4286344049
17.009174 790.89282 779.76392 4279107584
19.560551 790.89282 779.76392 4282925372
22.6789 790.02588 779.03296 4286018674
25.513762 789.59241 778.66748 4285886046
28.065136 790.24261 779.2157 4285754974
31.466972 790.24261 779.2157 4286082409
16.106422 794.46368 778.85059 4279829760
19.497248 794.46368 778.85059 4283056443
22.888073 793.81555 778.30414 4285953391
25.431192 793.16748 777.75769 4285427544
28.822018 794.46368 778.85059 4285822263
31.365139 793.81555 778.30414 4286017640
5.0862384 795.75983 779.94348 4283845713
7.6293578 795.75983 779.94348 4284241242
10.99633 797.27069 778.60144 4282003760
13.533945 797.27069 778.60144 4280815904
16.07156 797.27069 778.60144 4281343512
19.455046 797.27069 778.60144 4283320123
23.120489 796.8396 778.23798 4285690472
25.376146 796.62402 778.05615 4283520060
27.631805 796.8396 778.23798 4284374566
31.015291 796.8396 778.23798 4286213740
33.908257 795.75983 779.94348 4286410107
5.0752292 798.56403 779.69189 4283451476
7.612844 798.56403 779.69189 4284109399
10.96055 800.82611 777.67517 4282399288
13.489908 800.82611 777.67517 4281804588
16.019266 800.82611 777.67517 4281870104
19.42477 799.69507 778.68353 4283647276
22.838531 798.56403 779.69189 4286674294
26.136696 800.82611 777.67517 4286147407
28.666056 800.82611 777.67517 4286410553
31.247707 799.69507 778.68353 4286475115
33.834862 798.56403 779.69189 4286344564
0 802.75989 779.3056 4283846464
5.0587158 802.75989 779.3056 4284306276
7.5788989 802.86792 778.08868 4283912551
10.095413 803.62054 777.41528 4284372307
13.46055 803.62054 777.41528 4280621371
16.002752 802.86792 778.08868 4283055662
19.672783 802.54498 779.12445 4284437568
22.764219 802.75989 779.30566 4286477167
26.136696 802.1153 778.76208 4286345311
28.666056 802.1153 778.76208 4286345314
31.162384 802.86792 778.08868 4286279019
34.28685 802.97467 779.48682 4286411126
0 806.19324 779.58447 4283780105
5.0477066 806.19324 779.58447 4285227381
7.5715594 804.90686 778.49988 4284176995
16.825687 804.90686 778.49988 4283386401
19.349541 805.55005 779.04218 4284833356
22.71468 806.19324 779.58447 4286476916
26.079817 804.90686 778.49988 4286476652
28.60367 804.90686 778.49988 4286542448
31.407951 805.33563 778.86139 4286541943
33.651375 806.19324 779.58447 4286608243
0 809.72479 778.63806 4280555283
5.0311928 809.72479 778.63806 4281742148
7.5467887 808.44269 777.55701 4284964965
16.770641 808.44269 777.55701 4283385899
18.447706 808.44269 777.55701 4284833601
21.801834 809.72479 778.63806 4286476934
26.274008 808.87006 777.9173 4286410350
28.510092 809.08374 778.09753 4286936181
30.746178 809.29742 778.27765 4286541945
-1.6770642 811.00696 779.71912 4280292901
0 811.00696 779.71912 4280357692
4.1926603 811.00696 779.71912 4281083437
7.2513757 811.64801 777.64374 4284831034
16.733946 811.22162 777.28418 4282397220
19.244038 811.22162 777.28418 4285358179
22.590824 811.86127 777.82355 4286542464
25.937614 811.86127 777.82355 4286542196
28.447706 812.50092 778.36292 4286805365
30.957798 812.50092 778.36292 4286280825
33.541283 811.00696 779.71912 4286608243
0 813.78027 779.44153 4280556843
5.0201836 813.78027 779.44153 4281016099
10.040367 813.78027 779.44153 4281741646
28.447706 813.78027 779.44153 4286347381
31.794495 813.78027 779.44153 4286346363
-3.3357799 818.56732 779.55383 4280228380
-1.66789 818.56732 779.55383 4280228380
0 817.92981 779.01624 4280620574
4.1697249 818.56732 779.55383 4281474853
7.5009174 817.02673 777.60083 4281016095
14.160551 817.39886 777.26056 4279570192
16.642202 818.78064 777.11755 4278715648
18.90275 816.44214 777.7619 4284438867
22.466972 818.78064 777.11755 4286806394
26.656881 817.39886 777.26056 4286412916
28.354128 817.29224 778.47864 4286478451
30.577982 816.86719 778.1203 4286412156
34.191742 818.56732 779.55383 4286607991
0 821.32526 779.26306 4280554785
4.9926605 821.32526 779.26306 4281474601
6.6568809 820.05298 778.19031 4281277992
29.123852 820.05298 778.19031 4286674550
31.620184 820.68909 778.72668 4286805113
34.116516 821.32526 779.26306 4286541944
6.6422019 824.07758 778.96777 4281737517
26.568808 822.80811 777.89734 4286674034
29.059633 822.80811 777.89734 4286739573
34.041283 824.07758 778.96777 4286607737
33.100918 827.56287 777.98242 4286476150
49.651375 827.56287 777.98242 4286669137
51.306423 827.56287 777.98242 4288511341
4.9651375 828.82819 779.04932 4281609031
49.651375 828.82819 779.04932 4291142286
51.306423 828.82819 779.04932 4293247405
-3.3027523 832.82751 779.8053 4280422942
1.1009175 831.98584 779.0957 4280885294
4.1284404 832.19629 779.27307 4281412653
37.073395 833.03662 777.3656 4286673518
40.70459 832.47638 778.63721 4287197538
43.761467 832.82751 779.8053 4292131232
-4.119266 835.55603 779.48987 4280358950
-1.6477064 834.92615 778.9588 4280423971
0.54923546 835.13617 779.1358 4280687655
4.119266 834.92615 778.9588 4281543722
6.5908256 834.29633 778.42773 4281675826
39.544952 834.29633 778.42773 4287262293
49.431194 835.55603 779.48987 4293188317
-4.9266057 839.01044 778.47852 4280293153
-1.6422018 839.01044 778.47852 4280424739
0 839.01044 778.47852 4280688935
4.9266057 838.38269 777.94922 4281675306
7.1162076 838.17352 777.77277 4281610283
41.055046 838.38269 777.94922 4292462805
43.518349 839.01044 778.47852 4293387232
45.981651 839.01044 778.47852 4292992740
50.908257 838.38269 777.94922 4293056989
52.550457 838.38269 777.94922 4292991969
-6.5541286 841.72632 778.15234 4280162074
-4.1055045 840.26593 779.53711 4280227613
-1.6422018 840.26593 779.53711 4280293153
0.54740059 841.65704 778.966 4280490793
4.1055045 840.26593 779.53711 4281216031
7.6574922 840.33514 778.72345 4281609256
10.662386 840.36975 778.31665 4281281072
13.934862 840.73486 777.97046 4280952618
16.385321 841.09998 777.62427 4280952621
18.85413 840.73486 777.97046 4280293149
22.144955 840.36975 778.31665 4285421916
25.425688 840.36975 778.31665 4290684583
28.689907 840.73486 777.97046 4290290596
32.115231 841.47577 777.9411 4292264890
34.409176 841.72632 778.15234 4293515466
36.866974 841.72638 778.15234 4293385182
39.980183 841.97687 778.36365 4293386213
43.421101 842.35266 778.68048 4293255142
46.460552 841.65704 778.966 4293057764
50.030273 840.99609 778.84473 4292925663
52.433029 842.35266 778.68048 4292860380
53.950459 844.43658 777.82153 4293057499
7.8853211 749.5675 781.54431 4285424996
26.339449 748.00891 782.84619 4285622125
0.87614679 750.9071 782.67383 4285228386
3.5045872 750.9071 782.67383 4285425257
4.5416517 754.84326 782.06854 4282663486
7.8605504 754.57617 781.84332 4283451984
25.619574 753.68585 781.09277 4285359220
10.458715 757.46173 781.6604 4281084208
12.899083 757.72827 781.88513 4280623655
15.688073 757.46173 781.6604 4281149997
25.27523 756.79547 781.09857 4285425001
27.889908 758.12805 782.22223 4285161571
26.06422 761.11542 780.81702 4285096035
15.638532 762.44385 781.93701 4278714889
19.113762 762.44385 781.93701 4278190080
22.588991 762.44385 781.93701 4285228929
25.195412 762.44385 781.93701 4285293414
27.801834 762.44385 781.93701 4285095785
17.3211 766.08484 781.08301 4278190080
19.919266 766.08484 781.08301 4280162590
22.517431 766.08484 781.08301 4285491574
25.115597 767.40906 782.19946 4285359455
28.579817 767.40906 782.19946 4285359202
41.570641 767.40906 782.19946 4285885058
43.302753 767.40906 782.19946 4286082437
4.3211012 770.26941 781.99512 4284104511
6.9137616 770.26941 781.99512 4281542693
10.370643 770.26941 781.99512 4283189342
12.963303 770.26941 781.99512 4280294179
15.555964 770.26941 781.99512 4278190080
19.877064 769.60876 781.43805 4280558886
22.469725 769.6087 781.43805 4285689716
1.7229358 773.89075 781.12451 4283055414
4.3073397 773.89075 781.12451 4283251234
6.8917432 773.89075 781.12451 4283116330
17.229359 773.23218 780.56921 4278190080
19.813763 773.89075 781.12451 4281150005
22.398165 773.89075 781.12451 4286083704
1.7192661 776.73846 780.90967 4280694314
4.2981653 776.73846 780.90967 4279574043
8.6146793 775.20795 782.23523 4281734927
10.315597 776.73846 780.90967 4280684067
12.034863 776.73846 780.90967 4280815654
17.229359 775.20795 782.23523 4278190080
19.771561 776.73846 780.90967 4281478190
24.956881 775.97321 781.57245 4285556582
28.42844 775.20795 782.23523 4285622375
31.012844 775.20795 782.23523 4285819251
18.911926 778.05286 782.01782 4280229413
30.946789 778.05286 782.01782 4286082176
-5.1412845 782.30969 781.68298 4279044378
-1.7137614 780.34442 780.02588 4284437083
1.7137614 780.34442 780.02588 4282662455
4.2844038 780.34442 780.02588 4280688458
8.5688076 780.34442 780.02588 4280687384
11.13945 780.34442 780.02588 4279962416
13.710092 780.34442 780.02588 4279697939
25.706423 780.34442 780.02588 4285359202
28.277065 780.34442 780.02588 4285753961
30.847706 781.6546 781.13062 4286016633
-3.4201834 785.1405 781.45386 4278846221
-1.7100917 785.1405 781.45386 4283912274
1.7100917 785.1405 781.45386 4284963922
4.2752295 785.1405 781.45386 4284439135
7.6954131 785.1405 781.45386 4283319376
11.115597 785.1405 781.45386 4280227111
13.680734 785.1405 781.45386 4279830564
16.245872 784.48682 780.90271 4278517776
32.491745 784.48682 780.90271 4286344049
34.201836 785.79419 782.005 4286278258
0 788.07312 780.00244 4284767835
16.193579 788.07312 780.00244 4278648840
19.602753 788.07312 780.00244 4282333493
32.387157 788.07312 780.00244 4286279021
-1.7045871 790.67944 782.20007 4283911491
0.85229355 790.02783 781.6507 4284306521
3.97737 789.81061 781.46759 4283911769
7.6706419 789.37628 781.10132 4284108883
11.079817 789.37628 781.10132 4281870871
13.636697 789.37628 781.10132 4280224007
15.341285 789.37628 781.10132 4280289800
34.944038 790.02783 781.6507 4286278262
-1.7009175 793.49353 781.95679 4283320900
0.56697249 793.06006 781.59131 4284372556
4.2522936 792.84338 781.40857 4283977559
7.6541286 792.19318 780.86035 4284240470
11.055964 792.19318 780.86035 4281609002
13.60734 792.19318 780.86035 4280092160
34.018349 792.19318 780.86035 4286344314
-1.6954129 797.05597 781.03638 4282993732
0.84770644 797.05597 781.03638 4283387718
3.3908257 797.05597 781.03638 4283912027
35.603668 797.05597 781.03638 4286476150
37.299084 797.05597 781.03638 4286476400
-3.3908257 798.35211 782.12927 4282269246
-1.6917431 799.85742 780.78247 4283190348
1.6917431 799.85742 780.78247 4283846211
3.3834863 799.85742 780.78247 4284042843
35.526604 799.85742 780.78247 4286607737
37.299084 798.35211 782.12927 4286542448
-5.0752292 802.44409 782.9635 4281083689
-1.6917431 801.15076 781.87292 4282073668
1.6917431 801.15076 781.87292 4285952094
3.3834863 801.15076 781.87292 4285885056
38.346176 801.58185 782.23651 4286411639
40.601833 802.44409 782.9635 4286477182
-3.9345562 805.55298 781.66071 4281015836
-1.6862385 804.69354 780.93604 4281872160
1.6862385 804.69354 780.93604 4286477617
3.3724771 804.69354 780.93604 4285753725
35.411011 805.33813 781.47955 4286608243
37.659328 805.55298 781.66071 4286411897
-4.2064219 808.76587 781.75366 4280227362
-1.6825688 807.47955 780.66907 4280423448
1.6825688 808.12268 781.21136 4281147186
3.3651376 807.47955 780.66907 4281084474
34.492661 808.12268 781.21136 4286542450
-4.2009172 811.17065 781.81921 4280228382
-1.6770642 812.28906 780.80017 4280491299
1.6770642 812.28906 780.80017 4281148980
3.3541284 812.28906 780.80017 4281410857
11.73945 812.28906 780.80017 4280886337
34.379814 812.28906 780.80017 4286542450
37.016514 810.05225 782.83826 4286542198
42.06422 810.05225 782.83826 4286542198
-4.1889906 814.31543 781.20074 4280097816
-1.6733944 815.05957 780.52026 4280294173
1.6733944 815.05957 780.52026 4281146665
4.183486 815.05957 780.52026 4281474853
10.877064 815.05957 780.52026 4280491802
13.387156 815.05957 780.52026 4280293153
34.304588 815.05957 780.52026 4286607991
36.895412 813.57123 781.88123 4286607991
40.249542 814.85333 782.9624 4286608243
43.603668 814.85333 782.9624 4286674286
-5.0201836 816.97858 782.13831 4279900946
1.6733944 816.33893 781.599 4281212708
37.930279 816.76538 781.9585 4286607735
41.277065 817.19183 782.31805 4286673268
43.508255 817.61823 782.67761 4286608243
45.181652 816.97858 782.13831 4286805362
48.528439 816.33893 781.599 4286478451
-4.1697249 820.47998 781.1665 4280096027
-1.66789 819.84247 780.62891 4280359452
1.66789 820.47998 781.1665 4281082158
3.3357799 820.47998 781.1665 4281737779
37.527523 820.47998 781.1665 4286673014
40.863304 821.11755 781.7041 4286869611
43.365139 821.11755 781.7041 4286804850
45.866974 820.47998 781.1665 4286608754
48.368809 819.84247 780.62891 4286412658
-3.8868504 822.95337 781.508 4281472546
-1.6642202 823.23376 780.87231 4281014302
0.55474007 823.4458 781.05109 4280754225
4.4379206 823.4458 781.05109 4281870662
37.195721 822.95337 781.508 4286606964
40.863304 822.3927 782.7793 4286804322
44.149544 823.13129 782.09399 4286344815
46.598164 823.23376 780.87231 4286344555
49.094498 822.5976 780.33594 4285949780
-4.1541286 826.88269 781.987 4283310113
-1.6605505 826.61664 781.10864 4282059543
0.83027524 826.61664 781.10864 4280951349
3.321101 826.61664 781.10864 4281543238
6.6422019 825.34711 780.03821 4281542443
38.277065 825.14221 782.48145 4286541416
40.773392 825.14221 782.48145 4286409565
44.101837 825.14221 782.48145 4285225545
46.495415 826.61664 781.10864 4286801197
48.155964 825.98187 780.57343 4287329110
-1.6550459 830.09351 780.11609 4281537035
3.3100917 830.09351 780.11609 4281544240
43.858715 830.09351 780.11609 4286604618
47.168808 830.09351 780.11609 4290223246
49.651375 830.09351 780.11609 4292856776
47.168808 831.35876 781.18298 4293383884
49.651375 831.35876 781.18298 4293253597
51.306423 831.35876 781.18298 4293056218
-3.2954128 836.81567 780.552 4280358946
1.6477064 836.81567 780.552 4281083437
3.2954128 836.81567 780.552 4281215781
43.761467 834.09003 780.86987 4293713580
47.303974 834.9986 780.76392 4293451492
49.431194 836.81567 780.552 4292925661
-8.2385321 839.33508 782.67627 4279966491
-4.119266 839.33508 782.67627 4280227865
1.6477064 839.33508 782.67627 4281214003
18.948624 839.33508 782.67627 4281213214
22.244038 839.33508 782.67627 4285355355
-6.5688071 842.14917 781.125 4280031240
-1.6422018 842.14917 781.125 4280096027
0 842.77686 781.6543 4280161322
4.1055045 841.52142 780.5957 4281281318
7.6636086 841.93994 780.94855 4281741353
10.674313 841.52142 780.5957 4281544490
13.958715 841.52142 780.5957 4281674279
16.422018 841.52142 780.5957 4281674535
25.454128 841.52142 780.5957 4294832636
28.738533 841.52142 780.5957 4293715693
31.749235 842.3584 781.30145 4293715175
34.48624 842.77686 781.6543 4293649888
36.128441 842.77686 781.6543 4293255135
41.055046 842.77686 781.6543 4293189351
43.518349 842.77686 781.6543 4293123554
47.07645 842.3584 781.30145 4293123809
50.087158 841.52142 780.5957 4292991708
37.195103 844.09882 781.89679 4293189344
39.930889 844.09882 781.89679 4293123043
54.953209 844.13202 781.48883 4293189087
-7.0238533 749.35132 783.97815 4285429872
-4.3899083 749.35132 783.97815 4283389525
-1.7559633 749.35132 783.97815 4284441192
29.020184 748.18451 784.95636 4285358953
-7.0238533 750.69379 785.11011 4281218109
-4.3899083 750.69379 785.11011 4282137666
-1.7559633 750.69379 785.11011 4282991686
0.87614679 752.24677 783.80334 4282992701
28.944036 751.47028 784.45673 4285228134
31.60734 750.69379 785.11011 4285096548
33.363304 750.69379 785.11011 4285162341
0.87614679 753.58643 784.93286 4280953636
29.78899 753.58643 784.93286 4285293157
31.541285 753.58643 784.93286 4285096283
33.293579 753.58643 784.93286 4285096283
0.87339449 758.58246 785.22144 4279961667
4.3669724 757.91479 784.65833 4278190109
7.8605504 757.24707 784.09534 4278190080
29.695414 757.24707 784.09534 4285096035
31.442202 757.24707 784.09534 4285488992
34.062386 758.58246 785.22144 4285292402
36.682568 758.58246 785.22144 4285818752
7.8440366 760.12701 783.90771 4278190080
10.458715 760.79333 784.46948 4280426789
13.073395 760.79333 784.46948 4278847755
29.633028 760.12701 783.90771 4285227114
31.376146 760.12701 783.90771 4285226860
33.990826 761.45966 785.03125 4285620848
37.477066 761.45966 785.03125 4285424755
40.963303 761.45966 785.03125 4285623157
43.57798 761.45966 785.03125 4285755257
15.638532 763.77222 783.05713 4278190080
25.195412 763.77222 783.05713 4285358950
28.670643 763.77222 783.05713 4285292903
31.277063 763.77222 783.05713 4285751914
7.8192658 765.10065 784.17725 4282330694
10.425688 765.10065 784.17725 4283320667
31.277063 765.10065 784.17725 4285883498
33.883484 765.10065 784.17725 4285752434
37.069115 765.54346 784.5506 4285687670
40.544342 765.98633 784.92401 4285753717
43.440369 766.42908 785.29736 4285753979
8.6605501 768.73328 783.31604 4283187517
25.115597 768.73328 783.31604 4285228387
28.579817 768.73328 783.31604 4285424996
32.332722 769.17462 783.68823 4285818986
34.6422 769.39539 783.87433 4286015853
37.529053 769.61603 784.06036 4285885033
39.838531 770.0575 784.43262 4285885547
8.6422014 771.59082 783.10938 4282195228
10.370643 771.59082 783.10938 4281869359
13.251376 772.03125 783.48077 4280686625
15.555964 772.25153 783.66644 4278190080
25.062386 771.59082 783.10938 4285425765
28.519266 771.59082 783.10938 4285491041
31.976147 772.25153 783.66644 4285950062
34.568806 772.91223 784.22351 4286212711
37.200001 772.14697 784.88635 4286081897
39.838531 771.38165 785.54919 4285951340
16.392662 775.37939 784.34174 4278386688
32.735779 776.52515 783.34583 4285884797
34.458717 776.52515 783.34583 4285819501
37.161469 774.23358 785.33765 4286082671
39.754128 774.23358 785.33765 4285885547
32.666054 779.36725 783.1261 4285950840
34.458717 777.84235 784.45642 4286212715
37.904587 779.15955 785.56702 4286016633
39.627522 779.15955 785.56702 4286016633
-6.8770642 781.33887 784.78851 4280162582
34.385323 780.68164 784.23438 4286212465
36.104588 780.68164 784.23438 4286278258
-5.1412845 784.93005 783.8924 4279043596
35.988991 784.27496 783.34009 4286344051
37.702751 785.58514 784.4447 4286409844
40.273396 785.58514 784.4447 4286344306
-3.9938838 787.46857 784.28888 4280885806
-1.7100917 787.10156 783.10742 4283517812
1.7100917 787.10156 783.10742 4283912277
35.911926 787.10156 783.10742 4286344051
37.622017 788.40894 784.20972 4286474865
40.187157 788.40894 784.20972 4286409582
42.752293 788.40894 784.20972 4286607470
-4.2697248 790.84949 784.30548 4282004793
35.796329 791.98267 783.29883 4286410107
37.500916 791.98267 783.29883 4286344562
40.187157 789.71637 785.31213 4286279020
44.462387 789.71637 785.31213 4286280304
-6.8183484 794.58899 785.49646 4280754478
-4.2577982 794.03986 783.72546 4281940023
40.015594 794.03986 783.72546 4286475887
42.614677 794.58899 785.49646 4286344564
-6.8036699 797.39459 785.24609 4280557093
-5.1027522 796.09424 784.14966 4282530633
39.971558 796.09424 784.14966 4286476402
44.223854 797.39459 785.24609 4286344814
-6.7816515 800.94446 784.31506 4280557345
-4.2385321 799.64832 783.22217 4282203458
40.689907 799.64832 783.22217 4286345850
42.950459 800.51239 783.95074 4286345333
-7.6220183 802.98901 784.73096 4280227618
40.601833 803.73743 784.05396 4286411643
43.13945 803.73743 784.05396 4286346102
45.776146 802.2406 785.40796 4286411891
43.985321 805.03082 785.14453 4286542448
45.677063 805.03082 785.14453 4286608241
-6.7449546 808.56097 784.19696 4280228636
38.221405 807.70148 783.47235 4286411382
40.469727 807.91638 783.6535 4286541943
42.999084 807.91638 783.6535 4286542193
45.528439 808.56097 784.19702 4286608493
-6.7302752 812.62494 785.00745 4280098581
38.699081 811.33856 783.92285 4286607991
40.381653 811.33856 783.92285 4286608243
42.905502 811.33856 783.92285 4286542698
45.429359 811.33856 783.92285 4286477154
-6.7082567 817.4176 785.12451 4279898395
-10.733945 839.14001 785.12781 4280097816
18.990826 839.14001 785.12781 4281674785
22.293579 839.14001 785.12781 4283646285
-7.4146786 841.22461 784.26947 4279571209
-4.119266 841.22461 784.26947 4279702026
-1.6477064 841.85443 784.80054 4279438350
0.82385319 841.22461 784.26947 4280751401
4.119266 840.59473 783.7384 4281608486
7.4146786 841.22461 784.26947 4282068520
10.710092 840.59473 783.7384 4282003750
14.005505 840.59473 783.7384 4282003494
16.477064 840.59473 783.7384 4282135336
25.53945 840.59473 783.7384 4294897661
28.834862 840.59473 783.7384 4293978094
32.130276 841.85443 784.80054 4293255394
34.601833 841.85443 784.80054 4293518563
43.664223 841.85443 784.80054 4293189088
46.959633 841.85443 784.80054 4293123043
49.431194 840.59473 783.7384 4293255131
51.902752 840.59473 783.7384 4293057750
54.374313 841.85443 784.80054 4292991708
-6.5908256 843.11414 785.86267 4279173120
0 843.11414 785.86267 4279959581
37.073395 843.11414 785.86267 4293123808
56.022018 843.11414 785.86267 4292991454
35.229359 748.36438 787.07007 4285228136
37.871559 749.03772 787.63782 4285358439
40.51376 749.03772 787.63776 4285950062
-3.5119267 752.03625 786.24194 4281083939
-1.7559633 752.03625 786.24194 4281149732
35.119267 752.03625 786.24194 4285227110
-1.7559633 753.37866 787.3739 4280028939
0.87614679 754.92603 786.0625 4278191378
34.169724 754.92603 786.0625 4285357926
37.753212 753.37866 787.3739 4285819250
40.387157 753.37866 787.3739 4286016883
42.14312 753.37866 787.3739 4285753708
38.550457 756.26569 787.19202 4285819501
40.302753 756.26569 787.19202 4285951344
42.055046 756.26569 787.19202 4285819501
0.87339449 759.91791 786.34741 4282654787
4.3669724 759.91791 786.34741 4281074982
7.8605504 759.91791 786.34741 4281607216
1.7431192 762.7923 786.15491 4282984522
4.3577981 762.7923 786.15491 4281930021
13.073395 762.7923 786.15491 4280096797
41.702751 767.75751 786.41736 4285885297
43.440369 767.75751 786.41736 4285885297
45.177982 767.75751 786.41736 4285819503
41.702751 769.08594 787.53748 4285951090
43.440369 769.75012 788.09753 4285951089
45.757187 769.52875 787.91083 4285951344
41.570641 772.70587 786.66565 4285951344
37.161469 775.55499 786.4519 4286081903
40.93578 775.48712 787.26678 4286147183
43.302753 774.6922 788.34052 4286344047
45.034863 774.6922 788.34052 4286344305
-8.6422014 778.19781 788.68018 4280229162
41.482571 778.19781 788.68018 4286344562
43.21101 778.19781 788.68018 4286344562
-8.6146793 781.79395 787.78833 4280359970
37.904587 780.47675 786.67773 4286344312
39.627522 780.47675 786.67773 4286344312
-7.4562688 783.68213 787.63641 4280359710
-6.8550458 788.20551 786.65417 4280556843
-11.13945 790.82587 788.86365 4280424469
-7.704587 790.26971 787.08667 4280491554
43.607338 791.02374 786.41443 4286410609
-11.970642 793.63849 788.61914 4280227328
-8.5504589 792.33112 787.51672 4280556843
44.462387 792.33112 787.51672 4286410357
46.172478 792.33112 787.51672 4286476150
-13.636697 797.19531 787.69409 4282727194
-10.795719 796.76093 787.32782 4280424223
-8.5229359 795.89215 786.59521 4280883498
46.023853 795.89215 786.59521 4286476400
-13.636697 798.49847 788.79285 4281937451
-11.055964 799.99536 787.43896 4280162078
-8.5045872 798.69501 786.34253 4280359993
45.92477 798.69501 786.34253 4286542448
-10.205504 801.29572 788.5354 4280097325
-8.4770641 803.53674 786.50085 4280163118
-10.172477 805.48096 788.1402 4280425510
-8.4587154 806.32416 786.23499 4280293927
-8.4587154 807.61749 787.32556 4280359970
-8.4311924 811.78381 786.91443 4280359724
-7.5715594 814.55444 786.63434 4279965466
-18.205505 838.95056 787.58423 4279373075
-14.895412 838.95056 787.58423 4279635729
19.86055 838.95056 787.58423 4281805615
21.515596 838.95056 787.58423 4281081892
-18.205505 840.21588 788.651 4280352780
-13.772477 840.76117 787.3667 4279960581
-10.733945 841.66498 787.25684 4280684293
-7.8440371 841.98059 787.52295 4281275662
-3.8532112 842.08588 787.61163 4280354319
-1.6513761 842.29626 787.78906 4279762949
1.1021407 841.18195 787.7215 4281406244
4.1284404 841.03369 786.72461 4282459703
7.1559634 841.24414 786.90204 4282657580
10.740367 840.67139 787.07312 4282461998
14.052294 840.3092 787.42169 4282331693
16.53211 840.3092 787.42169 4282201397
18.743731 840.27808 787.83148 4281872692
22.601835 840.27808 787.83148 4281940295
25.624771 840.30914 787.42163 4293190898
28.931192 840.3092 787.42169 4293518573
31.376146 841.66498 787.25684 4293518052
33.85321 841.66498 787.25684 4293386979
37.155964 842.92749 788.32129 4293123808
40.183487 842.08588 787.61163 4293188833
44.036697 842.08575 787.61163 4293057756
47.06422 842.2962 787.78906 4293123046
49.541283 841.03369 786.72461 4293057763
52.018349 841.03369 786.72461 4292860382
54.495415 841.66498 787.25684 4292991456
45.034863 776.67853 790.01526 4286082676
-10.39266 778.00275 791.13184 4280491299
43.21101 779.51923 789.79443 4286410355
-8.6146793 784.42834 790.00952 4280687118
-10.315597 787.2536 789.77576 4280491551
-18.811008 797.56061 791.92615 4284430893
-15.390825 797.56061 791.92615 4284501595
-13.636697 799.80164 789.89172 4280229958
-11.93211 799.80164 789.89172 4279571772
-16.176147 802.50061 790.85938 4283184969
-13.622019 802.50061 790.85938 4279962909
-11.906422 803.24622 790.18005 4280555046
-16.158716 805.19684 791.82471 4284362575
-13.60734 805.19684 791.82471 4282978848
-11.906422 805.19684 791.82471 4281991953
-10.172477 807.42523 789.77942 4280358950
-16.605505 836.77264 789.67188 4279832852
-21.587156 839.31165 791.81274 4278779978
-19.926605 839.31165 791.81274 4280745984
-16.605505 838.67688 791.27753 4281467649
19.926605 839.31165 791.81274 4282266445
-18.205505 841.48114 789.7179 4281401344
-13.792048 841.90289 790.07355 4284035100
-10.757798 842.74646 790.78479 4286803294
-4.9651375 841.48114 789.7179 4282259225
-1.6550459 842.74646 790.78479 4284434014
0.82752293 842.11377 790.25134 4281799702
4.1376147 841.48114 789.7179 4281139991
7.1718655 841.90289 790.07355 4282389536
10.757798 841.48114 789.7179 4283444253
14.06789 841.48114 789.7179 4282788910
16.550459 841.48114 789.7179 4282857269
18.205505 841.48114 789.7179 4282528305
22.343121 841.48114 789.7179 4281612354
25.65321 841.48114 789.7179 4291351002
28.963303 841.48114 789.7179 4293715958
31.445871 841.48114 789.7179 4293583593
33.92844 841.48114 789.7179 4293255394
38.066055 842.74646 790.78479 4293254881
40.548622 842.11377 790.25134 4293320417
43.858715 842.11377 790.25134 4293189345
47.168808 842.74646 790.78479 4293452525
49.651375 842.11377 790.25134 4293057508
52.133945 841.48114 789.7179 4292991715
55.168194 841.90289 790.07355 4292925662
57.926605 841.48114 789.7179 4292991454
-11.585321 844.01178 791.85168 4291740608
-12.163302 775.06384 792.57788 4280098587
-10.425688 774.3996 792.01782 4280229162
-10.39266 779.32697 792.24841 4280491801
-10.370643 782.16205 792.02271 4280555789
47.985321 794.75647 792.17773 4286345848
-18.811008 798.86798 793.02856 4286401104
-19.970642 836.59302 792.13647 4281339420
-23.299082 838.50146 793.74561 4280551736
-19.970642 839.13763 794.28198 4284036921
1.6642202 839.13763 794.28198 4281273874
-21.587156 840.58118 792.88318 4283573049
-18.266054 841.21594 793.4184 4288381313
-16.605505 841.21594 793.4184 4288449415
-14.391438 841.42749 793.59686 4289765789
-9.9633026 841.85065 793.95361 4291805120
-7.472477 841.21594 793.4184 4289040784
-4.1513762 841.21588 793.4184 4288514453
-1.6605505 841.85065 793.95361 4291147203
0 841.85065 793.95361 4290687156
4.4281344 841.00439 793.23999 4283577677
7.7492356 841.42749 793.59686 4284175201
10.793578 840.58118 792.88318 4282397965
14.114679 840.58118 792.88318 4282591787
16.605505 840.58118 792.88318 4283184170
19.096329 840.58118 792.88318 4282790974
22.417431 840.58118 792.88318 4282072641
25.738533 840.58118 792.88318 4290232257
29.059633 840.58118 792.88318 4293782010
31.550459 840.58118 792.88318 4293518063
34.041283 840.58118 792.88318 4293255142
37.362385 841.21594 793.4184 4293320674
40.683487 841.21594 793.4184 4293517797
43.174313 841.21594 793.4184 4293123554
46.495415 841.85065 793.95361 4293189097
48.986237 841.85065 793.95361 4293123302
52.584103 841.00439 793.23999 4293122785
56.458717 840.58118 792.88318 4292991708
58.119267 841.21594 793.4184 4293057244
-14.047707 765.46075 797.56116 4280098077
-12.201835 774.78595 796.2677 4280361249
1.66789 838.96918 796.7561 4290094763
26.686239 838.96918 796.7561 4290099408
-25.823854 840.32709 796.59314 4290484886
-22.466972 841.04608 795.89124 4291540656
-19.138531 841.68225 796.42761 4291674297
-16.642202 841.68225 796.42761 4291675583
-14.145872 841.68225 796.42761 4291806912
-10.81743 842.95453 797.50037 4291149241
-7.4889908 842.31842 796.96399 4291411642
-3.8831806 842.10638 796.78516 4291344567
-1.6642202 842.31836 796.96399 4291673279
0.83394498 840.96326 797.12946 4291739829
3.8892968 840.29956 797.00586 4290227880
7.4981651 840.96326 797.12946 4288122790
10.829357 840.32715 796.59308 4281874813
13.878288 840.35474 796.18036 4281865732
16.110704 840.2995 797.00586 4281935127
19.159632 840.32709 796.59314 4282264633
22.491743 840.32715 796.59308 4281807930
25.555964 840.2995 797.00586 4288125601
28.867279 840.35474 796.18036 4293716731
31.110704 840.29956 797.00586 4293649902
34.154129 840.32715 796.59308 4293255907
37.194492 840.77881 796.5379 4293255652
41.050762 841.25812 796.07001 4293254885
44.379208 841.25812 796.07001 4293123557
46.598164 841.68225 796.42761 4293189351
49.094498 841.68225 796.42761 4293189094
52.145565 841.25812 796.07001 4292991201
55.751373 841.04608 795.89124 4293254369
59.079819 841.04608 795.89124 4292794074
60.877983 840.24432 797.8313 4292925663
-10.793578 843.12018 795.02393 4291674814
-28.354128 842.15698 799.44397 4292267463
-25.852295 842.15698 799.44397 4291871935
-22.516514 842.15698 799.44397 4291345600
-19.458715 842.36945 799.62323 4290952630
-15.844954 842.15698 799.44397 4291214257
-13.34312 842.15698 799.44397 4291607736
-10.841284 842.79456 799.98157 4291541177
-7.5055046 842.79456 799.98157 4291542972
-4.4477067 842.36945 799.62323 4291016373
-1.66789 842.79456 799.98157 4291343553
0 842.15698 799.44397 4291410102
6.6715598 841.51941 798.90637 4291675083
28.354128 841.51941 798.90637 4294306815
31.689909 841.51941 798.90637 4293584107
34.191742 841.51941 798.90637 4293321956
37.527523 841.51941 798.90637 4293255655
40.863304 841.51941 798.90637 4293189349
43.365139 842.15698 799.44397 4293255143
45.86697 842.15698 799.44397 4293254889
49.202751 842.15698 799.44397 4293189095
52.538532 842.15698 799.44397 4292991968
55.874313 842.15698 799.44397 4292991711
58.376148 842.15698 799.44397 4293188834
60.877983 842.15698 799.44397 4292991707
63.240368 844.22687 798.57312 4293057501
64.904587 846.77148 800.71875 4292991456
1.6733944 839.36676 801.01538 4291740095
4.183486 839.36676 801.01538 4291609036
7.8201833 839.26483 802.6734 4291544003
10.88899 839.29028 802.25891 4291215047
13.387156 839.36676 801.01538 4289570484
15.629359 839.31573 801.84442 4287468185
19.244038 839.36676 801.01538 4279703590
22.590824 839.36676 801.01538 4280622097
25.937614 839.36676 801.01538 4286347895
30.121101 839.36676 801.01538 4294176244
-25.937614 841.92542 803.17285 4292003791
-22.590824 841.92542 803.17285 4289901236
-19.244038 841.92542 803.17285 4289307300
-15.897248 841.92542 803.17285 4289370016
-13.387156 841.92542 803.17285 4289168230
-10.877064 841.92542 803.17285 4288775010
-6.6935778 841.92542 803.17285 4291675587
0.83669722 841.28577 802.63348 4291869115
4.183486 840.64606 802.09412 4291740608
13.387156 840.64606 802.09412 4291149502
16.733946 840.64606 802.09412 4286873516
19.244038 840.64606 802.09412 4282925911
22.590824 840.64606 802.09412 4279506201
25.937614 840.64606 802.09412 4284638336
28.447706 841.28577 802.63348 4293716990
30.957798 840.64606 802.09412 4293978351
34.304588 840.64606 802.09412 4293452518
37.651375 841.28577 802.63348 4293452263
40.998165 841.28571 802.63354 4293255399
43.508255 841.92542 803.17285 4293255142
46.018349 841.92542 803.17285 4293189350
49.365135 841.92542 803.17285 4293123557
52.711926 841.92542 803.17285 4293189347
56.058716 841.92542 803.17285 4293057760
58.568806 841.92542 803.17285 4293057249
60.242203 841.92542 803.17285 4293057762
-8.3394499 844.06964 801.05664 4292263577
-4.1697249 844.06964 801.05664 4290817968
-1.66789 844.06964 801.05664 4290355108
61.711926 844.06964 801.05664 4293057762
63.379818 844.70715 801.59424 4293057249
64.21376 846.61987 803.20703 4292991456
66.715599 846.61987 803.20703 4292991454
10.936697 838.35168 806.69958 4290951873
15.143119 838.35168 806.69958 4291543245
-28.510092 840.49591 804.5835 4291938712
-25.155964 841.77808 805.66455 4292004296
-22.640366 841.77808 805.66455 4290097330
-19.28624 841.77808 805.66455 4289241003
-15.93211 841.77808 805.66455 4289041071
-13.416513 841.77808 805.66455 4288512083
-11.73945 841.77808 805.66455 4287196223
-5.0311928 841.77808 805.66455 4291543747
0.83853209 841.13696 805.12402 4291802816
4.1926603 840.49591 804.5835 4291543746
7.5467887 840.49591 804.5835 4291083196
13.416513 840.49591 804.5835 4291148487
16.770641 840.49591 804.5835 4291675085
19.28624 840.49591 804.5835 4290361028
22.919876 840.92334 804.94385 4283849848
25.994495 841.13702 805.12402 4281678154
28.510092 841.77808 805.66455 4293060050
31.025688 841.13696 805.12402 4293978869
34.379814 841.13702 805.12402 4293452007
37.733944 841.77808 805.66455 4293320417
41.088074 841.77808 805.66455 4293385960
43.603668 841.77808 805.66455 4293189351
51.988991 841.77808 805.66455 4293255142
-13.416513 843.06018 806.74561 4291215032
-10.040367 843.20471 804.25146 4288580248
-7.5302753 843.20471 804.25146 4292002763
-3.3504586 843.13245 805.49854 4290289581
-1.6752293 843.13245 805.49854 4290092202
46.018349 843.20471 804.25146 4293386729
49.680737 843.15656 805.08282 4292991970
53.607338 843.13245 805.49854 4293386722
55.820187 843.15656 805.08282 4293255138
58.095413 843.1084 805.91425 4292991202
61.078896 843.84436 804.79077 4292925667
63.588989 845.76337 806.40894 4292991456
65.047707 847.89502 804.2821 4292925663
66.715599 847.89502 804.2821 4292991456
-28.60367 839.638 807.78418 4291347024
-26.921101 839.638 807.78418 4291938503
1.6825688 839.638 807.78418 4292657874
4.2064219 839.638 807.78418 4291674286
7.5715594 839.638 807.78418 4291214782
10.936697 839.638 807.78418 4291083207
13.46055 839.638 807.78418 4291346113
15.984404 839.638 807.78418 4291280574
19.349541 839.638 807.78418 4291215047
21.873394 839.638 807.78418 4288583339
-28.60367 840.92438 808.86877 4289572253
-25.799387 841.35309 809.23029 4290952123
-22.71468 841.5675 809.41113 4291280315
-19.349541 841.56757 809.41113 4291015870
-15.984404 841.5675 809.41113 4291674059
-13.46055 842.21069 809.95349 4292135114
-11.217125 841.35321 809.23029 4291477948
-7.2911315 841.35309 809.23029 4291938251
-4.4868503 841.78192 809.59198 4290883514
-1.6825688 842.21069 809.95349 4290485414
0 841.5675 809.41113 4290948020
8.4128437 840.92438 808.86877 4291148989
10.936697 840.92438 808.86877 4291083459
13.46055 840.92438 808.86877 4291018434
15.984404 840.92438 808.86877 4290031282
19.349541 840.92438 808.86877 4290228405
26.079817 840.92438 808.86877 4285622333
28.60367 840.92438 808.86877 4292793466
31.127522 840.92438 808.86877 4293321716
34.492661 840.92438 808.86877 4293517549
37.857796 840.92438 808.86877 4293386214
40.381653 840.92438 808.86877 4293451757
42.905502 840.92438 808.86877 4293188582
46.270645 840.92438 808.86877 4293254887
48.794495 840.92438 808.86877 4293123304
53.000916 841.5675 809.41113 4293123556
55.524769 842.21069 809.95349 4293123556
58.048622 842.21069 809.95349 4293057764
61.212845 844.34229 807.82666 4292926179
63.728439 845.62445 808.90771 4292662491
65.333939 846.97461 808.73816 4292859871
66.935783 847.04266 807.48755 4292728537
1.6862385 839.50043 810.2843 4292000198
4.2155962 839.50043 810.2843 4291149243
6.7449541 839.50043 810.2843 4291148989
22.764221 839.50043 810.2843 4290951872
-30.352293 841.4342 811.91479 4289963181
-28.666056 841.4342 811.91479 4290094510
-26.417738 841.64911 812.09595 4291148205
-22.764221 842.07874 812.45825 4290951871
-20.234863 842.07874 812.45825 4290754492
-16.019266 842.07874 812.45825 4291148735
-13.489908 842.07874 812.45825 4291147696
-10.679511 841.64911 812.09595 4291806151
-7.8691125 841.64911 812.09595 4291608264
-4.2155962 842.07874 812.45825 4289695644
-1.6862385 842.07874 812.45825 4291666352
0.84311926 841.4342 811.91479 4291540926
4.4966359 841.2193 811.73364 4291149242
7.5880733 841.4342 811.91479 4291082938
10.96055 841.4342 811.91479 4291082686
13.489908 841.4342 811.91479 4290952125
16.019266 841.4342 811.91479 4290557369
19.391743 841.4342 811.91479 4290229170
23.045259 841.2193 811.73364 4290557618
26.136696 841.43414 811.91479 4289109898
28.666056 841.4342 811.91479 4291083409
31.195412 841.43414 811.91479 4293320162
34.56789 841.4342 811.91479 4293714930
37.940369 841.4342 811.91479 4293452009
40.469727 841.4342 811.91479 4293583857
42.999084 841.4342 811.91479 4293452267
46.371559 841.43414 811.91479 4293254887
49.744034 841.43414 811.91479 4293189350
52.835476 841.64911 812.09595 4293057762
55.64587 842.07874 812.45825 4293123042
57.332111 842.07874 812.45825 4293122790
-18.508257 843.49701 811.03809 4291017664
58.889908 843.49701 811.03809 4293122790
61.413761 843.49701 811.03809 4293057249
63.937614 844.78339 812.12268 4292925663
67.30275 844.78339 812.12268 4292925913
1.6917431 839.95129 814.58862 4291607491
3.3834863 839.95129 814.58862 4291346111
21.992661 839.95129 814.58862 4289967029
-27.913761 841.24463 815.67908 4290950296
-10.99633 841.24463 815.67908 4291209903
-8.4587154 841.24463 815.67908 4290749881
-4.2293577 841.24463 815.67908 4289365134
-1.6917431 841.24463 815.67908 4291470020
0.84587157 841.24463 815.67908 4291542715
4.2293577 841.24463 815.67908 4291148986
7.612844 841.24463 815.67908 4291082164
10.150458 841.24463 815.67908 4291147967
19.455046 841.24463 815.67908 4291478217
22.838531 841.24463 815.67908 4289964967
25.376146 841.24463 815.67908 4291148970
27.913761 841.24463 815.67908 4290359232
31.297249 841.24463 815.67908 4292661196
34.680733 841.24463 815.67908 4293978351
38.06422 841.24463 815.67908 4293451753
40.601833 841.24463 815.67908 4293320939
43.13945 841.24463 815.67908 4293320679
46.522934 841.24463 815.67908 4293189089
49.906422 841.24463 815.67908 4293386465
52.444038 841.24463 815.67908 4293189085
54.13578 841.24463 815.67908 4293123042
-25.293577 843.36786 813.54529 4291609260
-22.764221 843.36786 813.54529 4290688701
-19.391743 843.36786 813.54529 4290688951
-16.300306 843.79761 813.90753 4290357167
-13.489908 843.36786 813.54529 4290222479
-6.7449541 843.36786 813.54529 4290615690
11.80367 843.36786 813.54529 4291279553
13.489908 843.36786 813.54529 4291083205
16.019266 843.36786 813.54529 4291149252
55.64587 843.36786 813.54529 4293123042
58.456268 843.79761 813.90753 4292991458
61.547707 843.36786 813.54529 4292925659
64.920181 844.65704 814.6322 4292991456
67.449539 844.65704 814.6322 4292991708
-33.908257 839.82916 817.10168 4288514897
-30.517431 839.82916 817.10168 4289173107
-34.755962 841.12531 818.19458 4288447333
-31.365139 841.12531 818.19458 4290156904
-27.944954 841.83167 817.48212 4292133043
-25.376146 842.53802 816.76965 4291477186
-22.838531 842.53802 816.76965 4289899955
-19.455046 842.53802 816.76965 4289768353
-15.225688 842.53802 816.76965 4289632154
-13.533945 842.53802 816.76965 4290417784
-10.99633 842.53802 816.76965 4291141019
-7.612844 842.53802 816.76965 4291008161
-4.2385321 841.12531 818.19458 4289559939
-1.6954129 841.12531 818.19458 4292060594
0.84770644 841.83167 817.48212 4291674059
4.2293577 842.53802 816.76965 4291280323
7.612844 842.53802 816.76965 4291278772
10.99633 842.53802 816.76965 4291148735
13.533945 842.53802 816.76965 4291214795
16.07156 842.53802 816.76965 4291148999
19.455046 842.53802 816.76965 4291148996
22.838531 842.53802 816.76965 4290293938
25.376146 842.53802 816.76965 4289636261
27.913761 842.53802 816.76965 4290031023
31.297249 842.53802 816.76965 4291542461
34.680733 842.53802 816.76965 4293451753
38.06422 842.53802 816.76965 4293518314
40.601833 842.53802 816.76965 4293057764
43.13945 842.53802 816.76965 4293320678
46.522934 842.53802 816.76965 4293189089
49.906422 842.53802 816.76965 4293254881
52.444038 842.53802 816.76965 4293254881
54.981651 842.53802 816.76965 4293254111
57.519264 842.53802 816.76965 4293057251
61.748623 842.53802 816.76965 4292728284
-18.609175 843.83136 817.86011 4290426284
-16.917431 843.83136 817.86011 4290555316
10.99633 843.83136 817.86011 4291148737
13.533945 843.83136 817.86011 4291346384
16.07156 843.83136 817.86011 4291346120
18.609175 843.83136 817.86011 4291148991
31.297249 843.83136 817.86011 4290886344
34.680733 843.83136 817.86011 4292793583
38.06422 843.83136 817.86011 4293912558
40.601833 843.83136 817.86011 4293255142
43.13945 843.83136 817.86011 4293255398
46.522934 843.83136 817.86011 4293123556
49.060551 843.83136 817.86011 4293123556
-34.868805 840.3067 821.42847 4287923318
-31.466972 840.3067 821.42847 4290225292
-28.021101 841.36414 820.35791 4292068556
-25.431192 842.42151 819.28735 4291477450
-22.888073 842.42151 819.28735 4290425541
-20.344954 842.42151 819.28735 4290228904
-15.258716 842.42151 819.28735 4289173663
-13.563303 842.42151 819.28735 4289894531
-11.020184 842.42151 819.28735 4290814886
-7.6293578 842.42151 819.28735 4290548653
-4.246789 841.36414 820.35791 4289427346
-1.6954129 842.42151 819.28735 4292518847
0.85045874 841.36414 820.35791 4291934151
4.2385321 842.42151 819.28735 4291477447
7.6293578 842.42151 819.28735 4291280827
20.344954 842.42151 819.28735 4291148991
22.888073 842.42151 819.28735 4291017156
25.431192 842.42151 819.28735 4289043375
27.974312 842.42151 819.28735 4290030760
50.862385 842.42151 819.28735 4293189088
52.557796 842.42151 819.28735 4293189088
55.100918 842.42151 819.28735 4292991708
58.491745 842.42151 819.28735 4292859871
61.882568 842.42151 819.28735 4293057250
64.42569 842.42151 819.28735 4292991456
-16.954128 843.71765 820.38025 4291938253
11.86789 843.71765 820.38025 4291281604
13.563303 843.71765 820.38025 4291543756
15.823853 844.14972 820.74457 4291215043
19.214678 844.14972 820.74457 4291280575
23.735781 843.71765 820.38025 4291411908
28.822018 843.71765 820.38025 4290885551
31.365139 843.71765 820.38025 4290295488
34.755962 843.71765 820.38025 4292399835
38.14679 843.71765 820.38025 4293583593
40.689907 843.71765 820.38025 4293057762
43.233028 843.71765 820.38025 4293189349
46.623856 843.71765 820.38025 4293189349
-34.905502 840.9035 823.23969 4290885809
-31.534863 840.19995 823.95447 4291938236
-28.065138 841.60706 822.5249 4292070350
-25.513762 842.2572 823.07312 4292004554
-22.962385 842.25726 823.07312 4291609794
-19.560551 842.25726 823.07312 4291675592
-16.158716 842.2572 823.07312 4292004042
-13.60734 841.60706 822.5249 4291675333
-11.055964 841.60706 822.5249 4292200404
-7.6541286 841.60706 822.5249 4290418858
-3.9688072 842.04053 822.89038 4289950583
-1.7009175 842.2572 823.07312 4290935931
0.5681957 841.57147 823.36688 4290417556
4.2522936 841.60706 822.5249 4291412678
7.6541281 842.25726 823.07312 4291215547
10.772476 842.47394 823.25586 4291150010
13.60734 842.90741 823.62134 4291215297
17.009174 842.90741 823.62134 4291214782
20.411009 842.90741 823.62134 4291083961
22.6789 842.47394 823.25586 4291149242
25.513762 842.2572 823.07312 4290886073
27.781652 842.47394 823.25586 4290294446
31.466972 842.90741 823.62134 4290163134
34.868805 842.90741 823.62134 4291939800
37.420185 842.90741 823.62134 4293649900
39.971558 842.90741 823.62134 4293189349
43.373394 842.90741 823.62134 4293386471
46.77523 842.90741 823.62134 4293189093
49.326607 842.2572 823.07312 4293123556
51.594494 842.04053 822.89038 4292991970
55.279816 841.60706 822.5249 4293123294
58.681648 841.60706 822.5249 4293056738
62.083488 841.60706 822.5249 4293056736
64.634865 841.60706 822.5249 4292991456
16.158716 844.20776 824.71777 4289767336
18.710093 844.20776 824.71777 4290425011
23.812843 844.20776 824.71777 4290885047
-32.491745 839.39679 827.20129 4292135636
-30.68257 841.50317 825.05322 4292004561
-28.125687 842.15479 825.60266 4291214775
-25.568808 842.80634 826.1521 4291345068
-23.011927 842.80634 826.1521 4290951871
-19.602753 842.80634 826.1521 4291346111
-16.193579 842.15479 825.60266 4291871944
-13.636697 842.15479 825.60266 4291344829
-10.795719 841.93756 825.41949 4292463069
-7.6706419 842.15472 825.60266 4290155426
-4.5455661 842.37189 825.78583 4290347140
-1.7045871 842.80634 826.1521 4290673787
0.85229355 842.15479 825.60266 4291403676
4.2614679 842.15472 825.60266 4291609534
7.6706419 842.80634 826.1521 4291544510
11.079817 842.80634 826.1521 4290229949
13.636697 842.80634 826.1521 4289240990
20.455046 842.80634 826.1521 4290557104
22.159634 842.80634 826.1521 4290688690
25.568808 842.80634 826.1521 4291345598
28.125687 842.80634 826.1521 4289965744
31.534863 842.80634 826.1521 4290096049
34.944038 842.80634 826.1521 4291610835
37.500916 842.80634 826.1521 4293584879
40.0578 842.80634 826.1521 4293386728
43.466972 842.80634 826.1521 4293386213
46.876144 842.80634 826.1521 4293123298
49.433029 842.80634 826.1521 4293254629
52.274006 842.37189 825.78583 4293057764
55.399082 842.15472 825.60266 4293123040
58.808258 842.15479 825.60266 4293123556
61.365139 842.15479 825.60266 4293189090
63.92202 842.15479 825.60266 4292926176
-22.159634 844.1095 827.25085 4290492099
-18.750458 844.1095 827.25085 4290886583
-3.4091742 844.1095 827.25085 4290740625
-1.7045871 844.1095 827.25085 4290411660
0 844.1095 827.25085 4290350998
