# .PCD v0.7 - Point Cloud Data file format
VERSION 0.7
FIELDS x y z rgb
SIZE 4 4 4 4
TYPE F F F U
COUNT 1 1 1 1
WIDTH 1168
HEIGHT 1
VIEWPOINT 0 0 0 1 0 0 0
POINTS 1168
DATA ascii
13.03211 765.10065 784.17725 4278190080
16.507339 766.42908 785.29736 4278190083
8.6605501 770.0575 784.43262 4278255633
10.39266 770.0575 784.43262 4278255627
16.455046 770.0575 784.43262 4278190092
19.053211 770.0575 784.43262 4278190092
7.7871561 772.14697 784.88635 4279895831
10.39266 771.38165 785.54919 4278648840
12.963303 772.25153 783.66644 4278321156
16.420183 772.91223 784.22351 4278648842
19.899082 772.14697 784.88635 4278452224
22.517431 771.38165 785.54919 4285357658
5.1853213 774.23358 785.33765 4279894041
7.7779818 774.23358 785.33765 4280091917
10.370643 774.23358 785.33765 4279238675
12.963303 774.23358 785.33765 4278714378
16.420183 774.23358 785.33765 4278780688
19.877064 774.23358 785.33765 4278648832
22.469725 774.23358 785.33765 4285423701
24.198166 774.23358 785.33765 4286015588
13.783486 778.50098 785.01172 4278911500
16.367889 778.50092 785.01172 4278912017
18.952293 778.50098 785.01172 4278190080
13.636697 794.58899 785.49646 4279963429
-1.6642202 828.95911 785.69983 4283641671
0 828.95911 785.69983 4283181610
4.1605506 828.95911 785.69983 4283575085
7.4889908 828.95911 785.69983 4284037155
10.81743 828.95911 785.69983 4283114770
1.6550459 833.8894 783.31677 4282065194
4.1458716 832.79199 784.35352 4283310630
7.472477 831.69464 785.39026 4283509808
9.930275 833.8894 783.31677 4283640348
13.240367 833.8894 783.31677 4283440384
31.550459 831.69464 785.39026 4286737773
4.9651375 835.15466 784.38354 4283377731
7.4477062 835.15466 784.38354 4283706684
33.92844 836.41998 785.45044 4285948480
36.411011 836.41998 785.45044 4286342736
-1.6513761 838.50879 784.59558 4280031514
0.82568806 838.50879 784.59558 4283118647
4.1284404 838.50879 784.59558 4284565332
7.4311929 838.50879 784.59558 4285221966
10.458715 838.29834 784.41815 4285416523
13.211009 838.50879 784.59558 4284560425
29.724771 839.14001 785.12781 4286539354
31.376146 838.50879 784.59558 4285948506
36.330276 839.14001 785.12781 4289040043
11.533945 840.59473 783.7384 4284824638
14.829358 841.22461 784.26947 4284232233
16.477064 840.59473 783.7384 4284691238
18.948624 841.85443 784.80054 4284627763
22.244038 841.22461 784.26941 4286210899
25.53945 841.22461 784.26947 4287856239
28.011009 840.59473 783.7384 4286736728
12.291743 754.72113 788.50586 4284503905
12.266055 757.60535 788.32153 4278190080
17.46789 761.25336 787.47339 4278190080
10.458715 762.7923 786.15491 4278190080
19.174313 764.12494 787.27856 4278190080
20.917431 765.45752 788.40222 4278779904
24.326605 769.08594 787.53748 4285817705
28.670643 770.41437 788.65759 4285424743
25.981651 772.70587 786.66565 4285555037
4.6116214 775.92853 787.63892 4281608005
7.7779818 776.2157 787.00897 4279304227
10.370643 776.2157 787.00897 4279763482
12.099083 776.2157 787.00897 4279829274
20.741285 776.2157 787.00897 4279829760
22.469725 776.2157 787.00897 4286014542
25.076147 775.83447 787.34155 4285752167
28.579817 774.6922 788.34052 4285424744
5.1853213 778.19781 788.68018 4280819265
6.9137616 778.19781 788.68018 4280820773
10.370643 778.19781 788.68018 4281541191
12.099083 778.19781 788.68018 4279830574
20.741285 778.19781 788.68018 4280357376
22.469725 778.19781 788.68018 4286147145
25.926605 778.19781 788.68018 4285751912
28.519266 778.19781 788.68018 4285883750
8.6146793 781.13538 787.23303 4281281570
13.209174 781.35492 787.41815 4278977305
16.367889 781.13538 787.23303 4278517768
19.526606 781.35492 787.41815 4278912512
22.398165 781.79395 787.78833 4286476107
24.121101 781.13538 787.23303 4286081130
8.0342512 784.05377 788.82178 4278649602
10.326606 784.52515 788.7832 4279897652
12.616513 784.55841 788.37518 4281082945
16.35046 784.52521 788.7832 4278977808
20.058105 785.06299 787.92865 4279964160
22.374311 784.52515 788.7832 4286542667
24.955963 784.52515 788.7832 4286213220
28.694801 784.05377 788.82178 4286015842
13.710092 788.20551 786.65417 4280951296
18.851376 788.20551 786.65417 4278190096
8.5688076 790.82587 788.86365 4280751896
11.13945 789.51569 787.75891 4279044614
13.680734 791.02374 786.41443 4279832352
16.280735 789.51569 787.75891 4278846222
19.708256 789.51569 787.75891 4279899406
23.13578 789.51569 787.75891 4286542953
25.706423 789.51569 787.75891 4286147942
28.277065 789.51569 787.75891 4285885799
31.704586 790.17078 788.31128 4285885549
8.5504589 793.63849 788.61914 4284434285
10.830582 792.76691 787.88422 4281082903
16.245872 792.33112 787.51672 4279436561
19.666054 792.33112 787.51672 4280359448
23.086239 792.33112 787.51672 4286543474
25.651377 792.9848 788.06793 4285754213
28.216515 792.9848 788.06793 4285820008
31.636698 792.9848 788.06793 4285885804
8.5229359 797.19531 787.69409 4284764792
11.363914 796.76093 787.32782 4281411880
13.636697 796.5437 787.14465 4279304474
16.193579 796.5437 787.14465 4279436305
19.602753 796.5437 787.14465 4280884509
23.011927 796.5437 787.14465 4286411888
25.568808 797.19531 787.69409 4285885801
28.125687 797.19531 787.69409 4285754212
30.68257 796.5437 787.14465 4285885804
8.5229359 798.49847 788.79285 4284369494
11.079817 798.49847 788.79285 4283912020
13.636697 798.49847 788.79285 4282133547
16.193579 798.49847 788.79285 4279962633
19.560551 799.99536 787.43896 4281475357
22.986238 799.24695 788.11591 4286738801
25.513762 799.99536 787.43896 4286081643
28.125687 798.49847 788.79285 4286146917
31.534863 798.49847 788.79285 4286278506
17.009174 801.29572 788.5354 4279438350
19.560551 801.29572 788.5354 4282465083
22.962385 801.29572 788.5354 4286609015
25.431192 803.53674 786.50085 4286015853
28.065138 801.29572 788.5354 4286146922
30.616514 801.29572 788.5354 4286278245
1.6954129 806.12909 788.68665 4285818177
16.954128 806.12909 788.68665 4281609216
19.497248 804.83289 787.59375 4283250475
22.888073 804.83289 787.59375 4286673522
25.431192 804.83289 787.59375 4286279021
28.256882 805.26495 787.95801 4286279018
30.517431 806.12909 788.68665 4286344562
-5.0752292 808.91089 788.41602 4282261775
0.84587157 808.91089 788.41602 4281870615
4.2293577 808.91089 788.41602 4283316272
16.07156 808.91089 788.41602 4282461985
19.455046 807.61749 787.32556 4283582770
22.838531 807.61749 787.32556 4286542969
25.376146 807.61749 787.32556 4286344812
27.631805 808.47974 788.05255 4286214252
-4.2155962 811.78381 786.91443 4282392078
-1.6862385 811.78381 786.91443 4282457870
4.2155962 812.42841 787.45789 4283247671
7.5880733 812.42841 787.45789 4284237350
16.019266 812.42841 787.45789 4283252282
19.110703 811.56903 786.73322 4284171819
22.764219 811.78381 786.91443 4286477436
25.855658 811.99872 787.09552 4286148972
-6.7449541 813.71759 788.54492 4283247385
-3.9296634 814.27545 787.27118 4283246882
-1.6825688 815.19757 787.17664 4283444015
0 813.71759 788.54492 4283181360
4.2100916 814.45758 787.86078 4282983717
7.5880733 813.71759 788.54492 4282785573
13.489908 813.71759 788.54492 4282856263
16.000917 814.45758 787.86078 4283779397
19.629969 814.7688 786.81512 4283912020
22.71468 815.19757 787.17664 4286411897
26.109175 814.45758 787.86078 4285951337
28.666056 813.71759 788.54492 4286083432
-4.2064219 816.48395 788.26135 4283510051
-1.6825688 816.48395 788.26135 4283378221
5.0477066 816.48395 788.26135 4282983466
7.5715594 816.48395 788.26135 4282653231
15.956881 817.5918 787.23346 4284304714
18.508257 816.48395 788.26135 4283714611
-4.4721713 820.40924 787.64697 4283443225
-1.6770642 819.98187 787.28662 4283574317
0.83853209 821.26398 788.36768 4283180327
4.1926603 820.62292 787.82715 4283246376
6.7082567 819.98187 787.28662 4283312440
10.062386 821.26398 788.36768 4283903491
15.93211 821.26398 788.36768 4284036418
18.447706 821.26398 788.36768 4284237122
-4.183486 823.37518 787.53174 4282852383
-1.6733944 822.73553 786.99243 4283311663
1.6733944 824.01483 788.07104 4282721059
4.4623852 823.58838 787.71149 4283641130
7.5302753 823.37518 787.53174 4283905593
10.040367 824.01483 788.07104 4284231454
-3.8917434 827.06812 786.72144 4282918193
-1.66789 826.21802 786.00464 4283576379
0 826.21802 786.00464 4283312939
35.025688 827.49316 787.07983 4286606959
-4.1660552 829.49988 787.46375 4284829521
-1.6642202 830.23145 786.77258 4284500561
0 830.23145 786.77258 4283117625
34.116516 830.23145 786.77258 4286606696
37.527523 828.76825 788.15491 4285947746
-3.3284404 831.50378 787.84534 4284567640
-1.6642202 831.50378 787.84534 4284436054
34.041283 832.96411 786.46069 4286739045
36.532108 832.96411 786.46069 4286079328
39.941284 832.77606 788.91809 4290748825
-6.6422019 834.23364 787.53113 4279176192
-4.1513762 834.23364 787.53113 4280360210
38.192661 834.23364 787.53113 4287922024
41.51376 835.50317 788.60144 4293843908
-9.930275 838.95056 787.58423 4281806114
-7.4477062 838.31793 787.05078 4280557072
-4.4134555 838.10712 786.87299 4280492307
34.204281 838.10712 786.87299 4289893776
38.066055 838.31793 787.05078 4292265941
40.272781 838.52881 787.22858 4293121741
-9.930275 840.21588 788.651 4281413153
-7.4477062 840.21588 788.651 4281741854
-3.8568809 840.76105 787.3667 4281085220
-1.6513761 841.66504 787.25684 4280098337
0.8266055 840.3092 787.42163 4280359711
4.2935781 841.41241 787.04395 4281734927
7.4311924 841.66486 787.25684 4282982949
10.733945 841.66498 787.25684 4283707948
13.871559 841.9176 787.46973 4284233261
16.513762 841.66498 787.25684 4284494909
18.990826 842.29626 787.78906 4285416514
22.293577 842.29626 787.78906 4289233773
25.596329 842.29626 787.78906 4293580485
28.899084 841.66498 787.25684 4292331459
31.376146 841.66504 787.25684 4293186770
33.688072 841.91748 787.46973 4293253324
37.007706 841.62775 787.74854 4293714663
40.548622 840.21588 788.651 4293452005
7.0678897 748.73669 791.30798 4285095781
10.601835 748.73669 791.30798 4286082939
13.252294 748.73669 791.30798 4285885304
21.203671 748.06128 790.73853 4285819761
25.621101 748.73669 791.30798 4285359214
28.271559 748.73669 791.30798 4285424494
7.9266057 752.40436 790.47644 4283978070
10.568808 752.40436 790.47644 4284306783
14.091743 752.40436 790.47644 4284242273
16.733946 751.73102 789.90869 4285161579
19.376146 751.73102 789.90869 4285489517
8.7798166 756.0636 789.6377 4278190080
10.53578 756.0636 789.6377 4278190080
14.047707 756.0636 789.6377 4278190080
16.377981 757.02411 789.5755 4278190080
29.851376 758.74847 791.90161 4285227110
28.912844 761.62427 791.71021 4285096035
26.201836 765.25964 790.85144 4285422947
28.822018 765.25964 790.85144 4285227365
34.062386 766.59509 791.97742 4286017134
31.376146 768.78912 791.21136 4285687141
33.119267 769.45544 791.77319 4286146921
31.277063 773.07117 790.89783 4285883248
0.86605507 776.67853 790.01526 4279439641
3.4642203 776.67853 790.01526 4281476939
31.177982 776.67853 790.01526 4286015086
0.8642202 779.51923 789.79443 4279043884
4.3211012 779.51923 789.79443 4280031786
6.9137616 779.51923 789.79443 4280492555
10.370643 779.51923 789.79443 4281214275
25.926605 779.51923 789.79443 4285883748
28.519266 779.51923 789.79443 4285949795
32.011009 778.76099 790.46313 4286146670
0.8642202 780.84064 790.90857 4281609530
4.3211012 780.84064 790.90857 4279111703
31.976147 780.84064 790.90857 4286212208
1.1486238 785.30646 790.75 4283583833
4.3073397 785.08691 790.56488 4282263101
6.8917432 784.42834 790.00952 4278386688
27.566973 784.42834 790.00952 4286147171
31.874311 784.42834 790.00952 4285885296
34.458717 785.74554 791.12024 4285950588
36.181652 785.74554 791.12024 4286016381
1.7192661 788.56799 790.88403 4282990421
4.2981653 788.56799 790.88403 4284434989
7.4501529 787.69171 790.1452 4282003763
32.666054 787.2536 789.77576 4285951344
34.385323 788.56799 790.88403 4285951344
36.104588 788.56799 790.88403 4285951344
1.7192661 789.88245 791.99219 4280886085
3.4385321 789.88245 791.99219 4280156160
36.104588 789.88245 791.99219 4286214259
1.7137614 793.44629 791.073 4280885542
4.5639143 794.00928 789.80371 4281211657
6.8477063 793.54102 789.84491 4282198093
32.491745 794.94586 789.72144 4285885547
34.27523 792.7912 790.52069 4285951344
1.7100917 796.25323 790.82385 4282069591
4.2752295 796.25323 790.82385 4282198588
6.8403668 796.25323 790.82385 4281540394
35.056881 796.90692 791.375 4286278251
1.7045871 799.80164 789.89172 4282990154
4.2614679 799.80164 789.89172 4282858848
7.6706419 799.80164 789.89172 4283776575
11.079817 799.80164 789.89172 4284304675
13.636697 799.80164 789.89172 4282726944
15.341285 799.80164 789.89172 4279634432
32.387157 799.80164 789.89172 4286475367
34.091743 799.80164 789.89172 4286409324
0.56697249 803.02954 789.99731 4285488983
4.2522936 803.24622 790.18005 4284833632
7.6623855 802.50067 790.85938 4285620847
11.06789 802.50061 790.85938 4283714129
13.60734 803.24622 790.18005 4283058001
15.87523 803.02954 789.99731 4280818978
31.750458 803.02948 789.99731 4286409837
34.906422 802.50061 790.85938 4286540909
8.5045872 805.19684 791.82471 4284304717
11.055964 805.19684 791.82471 4282531153
13.60734 805.19684 791.82471 4283189331
35.719265 805.19684 791.82471 4286410355
37.420185 805.19684 791.82471 4286410607
-8.4770641 808.72137 790.87231 4283641632
6.7816515 807.42523 789.77942 4284107339
11.020184 808.72137 790.87231 4282527555
31.647707 807.85724 790.14374 4286279804
34.473392 808.28931 790.508 4286410356
37.299084 808.72137 790.87231 4286410355
-10.161468 811.40424 791.82642 4283444253
-7.8948007 811.49756 790.59717 4283312414
1.1278287 810.63531 789.87012 4282720808
10.99633 811.49756 790.59717 4282916903
13.533945 810.20422 789.50659 4282529620
28.759632 810.20422 789.50659 4286280304
31.128073 811.75623 790.81525 4286344824
34.680733 812.14423 791.1424 4286410355
37.258717 811.40424 791.82642 4286344565
-6.7449541 815.00671 789.63184 4283313171
0.84311926 815.00671 789.63184 4283508774
3.3724771 815.00671 789.63184 4283180588
10.96055 815.00671 789.63184 4282983436
13.489908 815.00671 789.63184 4283117893
28.666056 815.00671 789.63184 4286279008
-7.8642197 817.21704 790.62354 4283443734
0.84311926 817.03308 790.03241 4283507754
3.3651376 817.77026 789.34595 4283311913
8.4128437 817.77026 789.34595 4282917682
10.96055 816.29584 790.71887 4283113487
13.489908 816.29584 790.71887 4282784565
15.984404 817.77026 789.34595 4284037949
18.508257 817.77026 789.34595 4283975473
26.979816 816.29584 790.71887 4286345314
32.038532 817.58502 791.80579 4286278506
33.72477 817.58502 791.80579 4286212715
37.940369 817.58502 791.80579 4286541180
-6.7302752 819.05658 790.43054 4283312399
11.777982 819.05658 790.43054 4282785024
13.46055 819.05658 790.43054 4282979893
35.333946 819.05658 790.43054 4286278508
40.381653 820.34296 791.51514 4286212213
-6.7082567 822.54614 789.44873 4283182362
11.73945 822.54614 789.44873 4282520836
13.416513 823.18719 789.98926 4282716928
15.652599 822.97345 789.80908 4283705620
18.447706 822.54614 789.44873 4284301624
31.025688 822.54614 789.44873 4286083180
34.379814 822.54614 789.44873 4286344814
37.733944 822.54614 789.44873 4286410357
40.249542 823.82825 790.52979 4286409594
-6.6935778 825.29419 789.14978 4283510575
1.6733944 825.29419 789.14978 4282655266
31.794495 825.29419 789.14978 4286279021
33.467892 825.29419 789.14978 4286540910
37.651375 825.29419 789.14978 4286409076
41.044037 825.84192 790.91968 4285291613
-6.6715598 830.04333 789.2301 4284502347
38.361469 830.04333 789.2301 4285816412
40.029358 830.04333 789.2301 4286210134
43.365139 832.59363 791.38037 4293911000
45.033028 832.59363 791.38037 4293845207
44.004585 836.77264 789.67188 4293188836
46.495415 836.77264 789.67188 4293255396
-11.623854 839.31165 791.81274 4283582792
44.004589 838.67694 791.27747 4293189095
46.495415 838.67688 791.27753 4292991712
48.986237 839.31165 791.81274 4292991966
-9.930275 841.48114 789.7179 4283123535
-7.4477062 841.48114 789.7179 4282070589
-3.8617737 841.90289 790.07355 4281741369
-1.6550459 842.74646 790.78479 4281083187
0.82752293 841.48114 789.7179 4281080095
3.8617737 842.32471 790.4292 4282066695
7.4477062 842.74646 790.78479 4281803566
9.930275 842.74646 790.78479 4281738037
18.205505 842.74646 790.78479 4284890438
24.825687 842.74646 790.78479 4294961919
31.445871 842.74646 790.78479 4293649387
33.92844 842.74646 790.78479 4293584358
37.238533 842.74646 790.78479 4293255148
40.548622 842.11383 790.25134 4293254624
4.9651375 844.01178 791.85168 4281803566
7.4477062 844.01178 791.85168 4282457910
11.025077 844.07111 791.02979 4282394415
14.052294 844.10083 790.61877 4282525999
16.53211 844.10083 790.61877 4282983729
19.294189 844.07111 791.02979 4284104005
22.318348 844.10083 790.61877 4287198083
25.909479 844.07111 791.02979 4294307322
28.931192 844.10083 790.61877 4293452266
31.445871 844.01178 791.85168 4293518313
33.92844 844.01178 791.85168 4293321956
37.238533 844.01178 791.85168 4293189862
39.7211 844.01178 791.85168 4293255394
19.436697 752.11389 794.15558 4278190080
21.910458 751.70862 793.81384 4281676853
25.444405 751.16815 793.35828 4285096046
28.271559 750.76294 793.01654 4285161573
30.922018 752.11389 794.15558 4285030243
34.455963 752.78931 794.7251 4285293666
37.106422 752.78931 794.7251 4285754212
26.422018 755.09766 792.74731 4285029738
29.06422 755.09766 792.74731 4285029988
21.137615 756.44434 793.88281 4278583296
25.541285 756.44434 793.88281 4285751144
28.183487 756.44434 793.88281 4285095781
22.827522 760.09094 793.03345 4285291609
25.461468 760.09094 793.03345 4285488738
31.60734 760.09094 793.03345 4285359202
33.363304 760.09094 793.03345 4285556582
36.875229 761.43335 794.16541 4285951344
31.541285 762.96387 792.83972 4285424744
34.169724 762.96387 792.83972 4285819501
37.674309 764.30353 793.96936 4285819505
34.93578 767.93054 793.10339 4286146669
36.682568 767.93054 793.10339 4286146669
33.990826 770.78809 792.89673 4286015087
37.555962 769.26593 794.22937 4286146669
34.862385 772.12073 794.02039 4286212465
36.605503 772.12073 794.02039 4286278258
33.883484 775.06384 792.57788 4286212208
34.6422 779.32697 792.24841 4285950849
37.358719 777.05646 794.25806 4285951096
0 782.16205 792.02271 4282793280
34.568806 782.16205 792.02271 4286082441
37.240368 780.65118 793.36499 4286147197
41.570641 781.9754 794.48145 4286212715
43.302753 781.9754 794.48145 4286278508
38.025688 783.48346 793.13696 4286278256
40.330273 784.36444 793.8797 4285950569
44.3633 784.36444 793.8797 4286016876
46.667889 784.14417 793.69403 4286214000
48.396332 784.80487 794.2511 4286082930
0 787.72131 792.78613 4286149261
37.904587 787.72131 792.78613 4285951340
36.964218 791.19678 793.10046 4286082927
39.627522 789.69714 794.45203 4286083180
35.988991 794.75647 792.17773 4286344301
37.823853 792.51123 794.20874 4286017650
37.702751 796.06665 793.28247 4286213755
39.416515 796.72174 793.83484 4286345079
37.622017 798.86798 793.02856 4286476404
39.332111 800.17542 794.13086 4286540910
37.500916 802.40802 792.08923 4286606959
39.205505 803.71118 793.18811 4286410607
40.0578 805.01434 794.28687 4286410356
39.971558 807.79755 794.01758 4286344562
38.994495 811.31372 793.05811 4286475898
40.689907 812.60986 794.151 4286411639
-10.99633 814.73096 793.32343 4283509796
28.759632 814.73096 793.32343 4286345314
31.015291 814.51538 793.14166 4286278507
34.680733 814.08429 792.7782 4286213485
38.06422 814.08429 792.7782 4286409587
40.601833 815.37762 793.86865 4286279553
-10.99633 816.67096 794.95923 4283444774
-8.4311924 818.87415 792.89282 4283838241
28.759632 816.67096 794.95923 4286344812
43.070641 817.77258 793.92603 4286607734
45.677063 816.67096 794.95923 4286016103
-10.117432 820.16327 793.97974 4283707956
-8.4128437 821.62927 792.59973 4283707956
42.953209 820.89624 793.28973 4286409330
43.746788 823.55884 794.22662 4286013780
41.926605 826.39252 792.69189 4285881170
43.603668 827.67462 793.77295 4292726723
45.280735 827.67462 793.77295 4293845205
41.834862 829.13214 792.38586 4292919737
-15.011009 836.41895 794.60583 4283840778
-13.313762 836.59302 792.13647 4281739547
-11.649541 836.59302 792.13647 4281739547
-13.868503 838.71356 793.92438 4284700979
-11.649541 839.13763 794.28198 4284372559
43.269726 839.13763 794.28198 4293123544
46.598164 839.13763 794.28198 4293123292
49.094498 839.13763 794.28198 4293189083
-9.9633026 841.21594 793.4184 4284569186
-7.1957188 841.00439 793.23999 4282200120
-4.4281344 841.42749 793.59686 4282858570
-1.6605505 841.85065 793.95361 4282860379
0.83027524 840.58118 792.88318 4282530094
3.321101 841.85065 793.95361 4283711563
41.51376 841.85065 793.95361 4293518565
44.834862 841.21594 793.4184 4293057755
22.343121 845.27704 792.91846 4285356905
31.904587 749.12585 795.56018 4285554789
34.599998 748.35498 796.21826 4285620581
-8.8348627 755.49103 797.00305 4281338624
22.970642 754.14014 795.86414 4284766035
31.805504 754.14014 795.86414 4285293157
34.455963 754.14014 795.86414 4285490791
37.106422 754.14014 795.86414 4285885547
35.229359 757.79095 795.01831 4285753960
37.871559 757.79095 795.01831 4286016108
40.51376 757.79095 795.01831 4286278256
-8.8073397 760.48425 797.28918 4283453272
38.752293 759.13763 796.15381 4285951090
40.51376 759.13763 796.15381 4286016883
42.27523 759.81091 796.7215 4286343549
40.387157 763.44702 795.86328 4286015858
38.550457 765.64319 795.09888 4286146415
40.302753 766.98285 796.22839 4286212463
38.429359 770.60138 795.35547 4286212463
40.302753 768.32245 797.35803 4286344049
37.517433 772.69507 795.81274 4286212464
41.049541 772.60455 797.04443 4286147444
43.669724 773.27228 797.60742 4286016631
45.416515 773.27228 797.60742 4285951603
40.091743 774.78595 796.2677 4285951344
40.833946 778.38489 795.37817 4286278257
43.440369 778.38489 795.37817 4286344049
45.177982 778.38489 795.37817 4285951090
40.906422 786.56671 795.73663 4286017385
44.07523 787.44769 796.47949 4286082922
46.667889 787.44769 796.47949 4286214252
49.087708 787.18341 796.25665 4286213747
40.488991 791.01434 795.56274 4286148976
41.262386 793.82556 795.31702 4286214509
44.222015 792.77057 797.04352 4286213987
46.519264 792.99011 797.22864 4286411105
48.242203 792.99011 797.22864 4286280304
41.262386 795.14001 796.42529 4286410861
43.841286 795.79718 796.97943 4286344555
41.130276 798.68701 795.49194 4286344812
43.700916 799.3421 796.04425 4286475884
41.042202 801.48279 795.23315 4286607472
43.322323 802.35431 795.96808 4286410353
46.271561 801.30737 797.70129 4286476400
43.466972 806.3175 795.38562 4286475885
46.172478 804.09753 797.43787 4286607209
-17.045872 808.92389 797.58325 4282591520
40.822018 809.0979 795.11401 4286476400
43.466972 807.62073 796.4845 4286410597
46.876144 808.92389 797.58325 4286608240
-15.308257 811.04846 796.75867 4282721822
43.373394 810.39825 796.21045 4286411120
47.625687 811.69861 797.30688 4286410355
51.027523 811.69861 797.30688 4286539836
-13.563303 813.90601 795.2439 4283180588
43.233028 813.90601 795.2439 4286410874
46.623856 814.55408 795.79034 4285884507
52.557796 814.55408 795.79034 4288709949
-13.563303 816.49835 797.42969 4283970883
-11.842202 817.96436 796.04968 4283642175
46.522934 817.96436 796.04968 4285947990
50.014679 816.49835 797.42969 4289105258
52.557796 816.49835 797.42969 4293447837
-10.96055 821.45245 795.06677 4284960331
-8.4311924 821.45245 795.06677 4284895308
46.448624 820.3551 796.10352 4288381271
49.060551 819.25769 797.14026 4292852890
52.444038 819.25769 797.14026 4293318348
54.13578 819.25769 797.14026 4292794078
-10.117432 822.74158 796.15369 4284304967
46.652599 823.1712 796.51605 4292067775
50.587154 823.38611 796.6972 4293122275
53.397552 823.60101 796.87842 4292794079
55.64587 824.0307 797.24072 4292991456
53.000916 826.77466 796.93811 4292925917
-21.754128 834.8891 797.23999 4281280039
-19.244038 834.8891 797.23999 4282198332
-16.733946 834.24945 796.70068 4282525184
-16.122936 838.54413 796.39777 4284767038
52.816513 838.11914 796.03937 4293123292
-18.346788 840.24432 797.8313 4282921809
-16.6789 840.24432 797.8313 4283052895
-13.729817 841.68225 796.42761 4281276187
-10.983852 841.93671 796.64221 4282590244
-7.6554132 841.93671 796.64221 4281275677
-4.1605506 842.31836 796.96399 4280752417
-1.6642202 842.95453 797.50037 4278190111
0.83211011 840.68658 796.24219 4283584322
4.1605506 841.68225 796.42761 4282724670
7.7663612 842.53046 797.14276 4284228639
10.81743 842.95453 797.50037 4284232737
25.795414 842.95453 797.50037 4294173690
29.123852 842.95453 797.50037 4293452265
31.620184 842.95453 797.50037 4293386210
34.116516 842.95453 797.50037 4293189088
37.444954 842.95453 797.50037 4293255394
40.773392 842.95453 797.50037 4293189603
44.101837 841.68225 796.42761 4293123553
46.598164 841.68231 796.42755 4293189091
48.928078 841.42773 796.21307 4293189089
52.145565 841.25812 796.07001 4293057500
55.751373 841.04602 795.89124 4292991707
-1.6605505 843.12018 795.02393 4282728780
6.6422019 843.12018 795.02393 4282914350
10.793578 843.12018 795.02393 4283443996
14.114679 843.75488 795.55908 4282398005
16.605505 843.75488 795.55914 4282199368
19.096329 843.75488 795.55908 4282657847
22.417431 844.38965 796.09436 4284958555
25.738533 843.12018 795.02393 4294372860
29.059633 843.12018 795.02393 4293518055
31.550459 843.12018 795.02393 4293715686
34.041283 843.12018 795.02393 4293518050
37.362385 843.12018 795.02393 4293189601
40.683487 843.12018 795.02393 4293321187
-10.601835 757.51733 798.71161 4283255889
-8.8348627 756.84186 798.14209 4282992969
-10.601835 759.54358 800.42017 4282665817
-8.8348627 759.54358 800.42017 4282468437
43.155964 761.83093 798.42468 4286211709
-8.8073397 763.17761 799.56018 4279902272
43.155964 763.17761 799.56018 4286278006
43.021103 766.80316 798.69312 4286343799
42.93119 769.66211 798.48755 4286343801
45.559631 769.66211 798.48755 4286016883
50.124771 790.75122 799.26489 4286346353
46.519264 794.96594 798.89453 4286410348
49.183487 793.84961 799.91534 4286542699
51.85321 792.73328 800.93616 4286345846
46.420185 797.7688 798.64185 4286738544
49.103668 796.28314 800.00525 4286542450
48.999084 799.74036 800.3042 4286542196
47.985321 802.61755 798.80603 4286410607
49.699081 803.92773 799.91077 4286476400
51.412846 803.92773 799.91077 4286344564
47.027523 805.40491 798.54028 4286541926
49.592659 806.71228 799.64258 4286147692
51.302753 806.71228 799.64258 4285949011
-15.909481 811.53021 799.78094 4284366917
-13.60734 812.99902 798.40332 4282985514
49.379818 811.61304 798.54272 4284963408
51.027523 812.99902 798.40332 4287458570
50.862385 817.79449 798.52258 4293318348
-15.225688 821.84436 799.32129 4280357376
-13.533945 821.19769 798.776 4282198543
-11.842202 821.84436 799.32129 4280553992
49.060551 821.19769 798.776 4293647566
52.444038 820.55103 798.23071 4293121507
47.21468 825.31989 798.32764 4293385697
49.744038 825.96448 798.87109 4292991452
52.159634 828.06097 798.02271 4292991708
-22.590824 836.80811 798.85803 4285225070
-19.244038 836.80811 798.85803 4283515981
-25.100918 838.0874 799.93677 4284768097
-22.590824 838.0874 799.93677 4284372557
-20.080734 838.0874 799.93677 4282856016
-15.844954 842.15698 799.44397 4281209100
-10.007339 842.79456 799.98157 4282653467
-7.5055046 842.79456 799.98157 4281732620
-4.1697249 842.79456 799.98157 4279894034
-1.66789 842.79456 799.98157 4278911008
0.83394498 841.51941 798.90637 4279700493
4.1697249 842.15698 799.44397 4280815120
7.5055046 842.79456 799.98157 4282391305
10.841284 842.79456 799.98157 4283512354
15.844954 842.79456 799.98157 4282596160
20.014679 842.79456 799.98157 4282395201
25.852295 842.79456 799.98157 4293649658
28.354128 842.79456 799.98157 4293715956
30.855965 842.79456 799.98157 4293254881
34.191742 842.79456 799.98157 4293123295
37.527523 842.79456 799.98157 4293255398
40.863304 842.79456 799.98157 4293189349
43.365139 842.15698 799.44397 4293189349
45.866974 842.79456 799.98157 4293189092
49.480732 842.36945 799.62323 4293123041
52.538532 842.15698 799.44397 4292991708
55.874313 842.15698 799.44397 4292991962
-13.313762 844.22687 798.57312 4282785317
-11.649541 844.22687 798.57312 4282522144
13.313762 844.22687 798.57312 4283056697
18.306421 844.22687 798.57312 4281280570
22.466972 844.22687 798.57312 4283449448
-10.601835 760.89447 801.5592 4280889167
51.963303 789.92065 801.18079 4286280054
51.85321 794.05469 802.05029 4286542198
-19.771561 802.36914 802.52069 4283442473
-19.422628 806.11133 801.75195 4283179560
-19.708256 807.85828 803.22485 4285156402
-17.100918 809.32703 801.84729 4285289564
-17.100918 810.6344 802.94971 4285879907
-16.193579 814.78809 802.52789 4283641119
-13.636697 814.13654 801.97852 4284893511
-16.158716 817.55029 802.24084 4281670403
-11.842202 824.43109 801.50232 4281805865
-25.155964 838.57275 802.96191 4279567107
-22.344954 838.8374 802.31305 4279238935
-19.244038 839.36676 801.01538 4279173120
-18.965139 841.07251 802.45367 4284566076
-15.897248 841.92542 803.17285 4290883764
-10.040367 841.92542 803.17285 4290817459
-7.5302753 841.92542 803.17285 4290422960
-4.183486 841.92542 803.17285 4289764524
-1.6733944 841.92542 803.17285 4288842913
1.1155963 841.07251 802.45367 4282393914
4.183486 841.92542 803.17285 4281739586
7.5302753 841.92542 803.17285 4280418304
10.877064 841.92542 803.17285 4279439886
16.733946 841.92542 803.17285 4283188297
20.080734 841.92542 803.17285 4282992701
25.937614 841.92542 803.17285 4293058555
28.447706 841.92542 803.17285 4293585142
30.957798 841.92542 803.17285 4293452259
34.304588 841.92542 803.17285 4293189349
37.651375 841.92542 803.17285 4293254626
40.161469 841.92542 803.17285 4293386984
43.508255 841.92542 803.17285 4293056997
45.181652 841.92542 803.17285 4293122790
49.365135 841.92542 803.17285 4293189090
52.711926 841.92542 803.17285 4292992220
55.222019 841.92542 803.17285 4293058012
-13.34312 844.70715 801.59424 4291345338
-11.675229 844.06964 801.05664 4290817970
13.34312 844.06964 801.05664 4282990652
15.011009 844.06964 801.05664 4283188288
18.346788 844.06964 801.05664 4283451726
22.516514 844.06964 801.05664 4280426547
41.697247 844.06964 801.05664 4293321191
46.700916 844.06964 801.05664 4293254629
56.708256 844.06964 801.05664 4293058014
58.376148 844.70715 801.59424 4293058016
60.044037 845.34473 802.13184 4292860636
60.044037 846.61987 803.20703 4292729050
-22.398165 801.55194 804.44775 4284038214
-24.069725 805.65515 805.29138 4284761402
-22.350458 805.65509 805.29132 4284300856
-19.708256 809.16846 804.32959 4285353256
-19.993883 811.35205 806.17084 4282982421
-17.100918 811.94177 804.052 4283772466
-26.921101 837.7085 806.15729 4284627764
-23.555964 837.7085 806.15729 4285419605
-25.155964 840.49591 804.5835 4290943372
-21.801834 840.49591 804.5835 4290422701
-19.56575 841.35065 805.3042 4291279550
-16.770641 841.77808 805.66455 4291543745
-11.73945 841.77808 805.66455 4291938754
-7.5467887 841.77808 805.66455 4291609024
-4.1926603 841.77808 805.66455 4291016375
-1.6770642 841.77808 805.66455 4290423717
0.55902141 841.35065 805.3042 4289106591
4.1926603 841.77808 805.66455 4285619115
-18.447706 843.06018 806.74561 4290753202
-15.64159 843.1084 805.91425 4290886072
-13.416513 843.06018 806.74561 4290756280
-10.051376 843.13245 805.49854 4290820534
-1.6770642 843.06018 806.74561 4290621109
7.5385323 843.13245 805.49854 4286015871
10.88899 843.13245 805.49854 4283649366
13.401834 843.13245 805.49854 4281417537
15.729909 844.22815 805.11444 4280295478
19.244038 843.84436 804.79077 4284571219
22.603668 843.4884 805.14465 4279901223
25.966057 843.13245 805.49854 4291678441
28.478899 843.13245 805.49854 4293979637
30.991743 843.13245 805.49854 4293649894
34.050152 843.15656 805.08282 4293189097
37.692661 843.13245 805.49854 4293386725
41.043121 843.13245 805.49854 4293386474
43.555962 843.13245 805.49854 4292926181
46.06881 843.13245 805.49854 4292991972
49.419266 843.13245 805.49854 4293123554
52.740364 843.4884 805.14465 4293058014
56.058716 843.84436 804.79077 4292992221
58.568806 845.12366 805.86957 4293123551
60.044037 847.89502 804.2821 4292991454
-24.121101 806.82074 808.89026 4283112474
-22.350458 808.94116 808.06207 4282654239
-18.911926 808.28394 807.50793 4284360458
-18.851376 813.09906 807.6438 4279701523
-26.109175 838.92468 808.49078 4291474551
-22.71468 839.638 807.78418 4291673018
-21.873394 840.92438 808.86877 4290228391
-19.349541 841.5675 809.41113 4290490029
-15.984404 842.21069 809.95349 4290622643
-13.46055 842.21069 809.95349 4290623408
-11.217125 841.78192 809.59198 4290228655
-7.571559 841.5675 809.41113 4290096308
-4.2064219 841.5675 809.41113 4290621874
-1.6825688 842.21069 809.95349 4290424216
0.84128439 840.92438 808.86877 4290819008
4.2064219 840.92438 808.86877 4291674313
7.5715594 842.21069 809.95349 4291214782
10.936697 842.21069 809.95349 4289108397
13.46055 842.21069 809.95349 4283713962
16.825687 842.21069 809.95349 4281217024
19.349541 842.21069 809.95349 4283125039
22.71468 842.21069 809.95349 4279770419
26.079817 842.21069 809.95349 4290230492
28.60367 842.21069 809.95349 4294241791
31.127522 842.21069 809.95349 4293715681
34.77309 841.78192 809.59198 4293452262
37.857796 842.21069 809.95349 4293254880
42.06422 842.21069 809.95349 4293649389
46.270645 842.21069 809.95349 4293189090
49.63578 842.21069 809.95349 4293058015
52.159634 842.21069 809.95349 4293058014
53.666054 844.34229 807.82666 4293057499
55.343121 844.34229 807.82666 4293057499
57.858715 844.9834 808.36719 4293056990
60.308258 846.97461 808.73816 4292991451
-24.121101 808.13794 810.00085 4282328102
-26.136696 839.50043 810.2843 4291411382
-23.60734 839.50043 810.2843 4290228391
-25.293577 841.4342 811.91479 4291476408
-22.764219 841.4342 811.91479 4291148216
-19.672783 841.64911 812.09595 4291674049
-16.019266 842.07874 812.45825 4292069587
-13.489908 842.07874 812.45825 4291806151
-10.96055 842.07874 812.45825 4291674822
-7.5880733 842.07874 812.45825 4291674823
-4.2155962 842.07874 812.45825 4291608777
-1.6862385 842.07874 812.45825 4290293178
0.84311926 841.4342 811.91479 4290359472
4.2155962 841.4342 811.91479 4291017648
7.5880733 842.07874 812.45825 4290096816
10.96055 842.07874 812.45825 4290620598
13.489908 842.07874 812.45825 4291410639
16.019266 842.07874 812.45825 4289570223
19.391743 842.07874 812.45825 4282336330
22.764221 842.07874 812.45825 4278191878
26.136696 842.07874 812.45825 4289178280
28.666056 842.07874 812.45825 4294175999
31.195412 842.07874 812.45825 4293715429
34.56789 842.07874 812.45825 4293189088
37.940369 842.07874 812.45825 4293386214
40.469727 841.4342 811.91479 4293320166
43.280121 841.64911 812.09595 4293188836
46.371559 842.07874 812.45825 4293123040
49.744034 842.07874 812.45825 4293189347
52.273396 842.07874 812.45825 4292926433
53.842201 843.49701 811.03809 4292794582
55.524769 843.49701 811.03809 4292925911
58.048622 844.1402 811.58038 4292925409
-31.015289 839.5202 814.2251 4290425775
-27.913761 839.30463 814.04333 4291147699
-25.376146 841.24463 815.67908 4291872196
-22.838531 841.24463 815.67908 4291675344
-19.455046 841.24463 815.67908 4291872980
-16.07156 841.24463 815.67908 4292135130
-13.533945 841.24463 815.67908 4292070089
-10.99633 841.24463 815.67908 4291938504
-8.4587154 841.24463 815.67908 4291938505
0.84587157 841.24463 815.67908 4289769134
4.2293577 841.24463 815.67908 4290556599
7.612844 841.24463 815.67908 4290160558
27.913761 841.24463 815.67908 4291742430
32.14312 841.24463 815.67908 4293452259
34.680733 841.24463 815.67908 4293188836
38.06422 841.24463 815.67908 4293320421
40.601833 841.24463 815.67908 4293188836
43.13945 841.24463 815.67908 4293123041
46.522934 841.24463 815.67908 4293057499
49.906422 841.24463 815.67908 4293518050
52.444038 841.24463 815.67908 4293057247
-6.7449541 843.36786 813.54529 4291938251
-4.2155962 843.36786 813.54529 4291215052
-1.6862385 843.36786 813.54529 4289702338
11.24159 843.79761 813.90753 4290884783
13.489908 844.01245 814.08875 4290687940
15.738227 843.79761 813.90753 4290687937
19.391743 843.36786 813.54529 4285293706
22.764221 843.36786 813.54529 4278453809
25.293577 843.36786 813.54529 4285233804
30.352293 843.36786 813.54529 4294044396
53.959633 843.36786 813.54529 4292728535
55.64587 843.36786 813.54529 4292925913
57.894192 844.22729 814.26984 4292991458
61.413761 846.0697 813.20728 4292795356
-27.974312 839.82916 817.10168 4291938249
-27.126606 841.12531 818.19458 4291609540
-25.431192 841.12531 818.19458 4291675333
-22.888073 841.12531 818.19458 4290689485
-19.477064 841.83167 817.48212 4290491325
-16.106422 841.12531 818.19458 4291608518
-13.563303 841.12531 818.19458 4291741137
-11.020184 841.12531 818.19458 4290162347
-7.6220183 841.83167 817.48212 4291742920
-4.2293577 842.53802 816.76965 4289443520
-1.6917431 842.53802 816.76965 4286484891
0.84770644 841.12531 818.19458 4287532924
4.2348623 841.83167 817.48212 4290424752
7.612844 842.53802 816.76965 4291149239
10.150458 842.53802 816.76965 4291017149
16.917431 842.53802 816.76965 4290686652
19.455046 842.53802 816.76965 4291279559
22.838531 842.53802 816.76965 4284112467
25.376146 842.53802 816.76965 4280366353
27.913761 842.53802 816.76965 4291608017
31.297249 842.53802 816.76965 4293780972
34.680733 842.53802 816.76965 4293385697
38.06422 842.53802 816.76965 4293385953
40.601833 842.53802 816.76965 4293123294
43.13945 842.53802 816.76965 4293057503
46.522934 842.53802 816.76965 4293188832
49.906422 842.53802 816.76965 4293123039
52.444038 842.53802 816.76965 4293188836
54.981651 842.53802 816.76965 4292991708
11.842202 843.83136 817.86011 4290754244
13.533945 843.83136 817.86011 4290556350
16.07156 843.83136 817.86011 4290029741
19.455046 843.83136 817.86011 4291345342
22.838531 843.83136 817.86011 4286215586
25.376146 843.83136 817.86011 4279703914
55.827522 843.83136 817.86011 4292991708
58.365135 843.83136 817.86011 4292991708
61.748623 843.83136 817.86011 4292992476
-34.018349 838.35614 819.78381 4291083455
-31.466972 838.35614 819.78381 4291083453
-28.915596 839.00635 820.33203 4291806655
-34.755962 842.42151 819.28735 4292003781
-31.466972 840.3067 821.42847 4291741119
-28.065138 840.3067 821.42847 4291544000
-25.513762 840.3067 821.42847 4291806662
-22.926605 841.36414 820.35791 4290360279
-19.530275 841.36414 820.35791 4289768379
-16.158716 840.3067 821.42847 4291017389
-13.60734 840.3067 821.42847 4289833922
-11.055964 840.3067 821.42847 4287662973
-7.6431193 841.36414 820.35791 4290557092
-4.246789 841.36414 820.35791 4289504924
-1.6954129 842.42151 819.28735 4286940254
0.85045874 840.3067 821.42847 4287203192
4.2385321 842.42151 819.28735 4290885299
7.6293578 842.42151 819.28735 4291543227
10.172477 842.42151 819.28735 4291214795
27.974312 842.42151 819.28735 4289902011
31.365139 842.42151 819.28735 4293649904
34.755962 842.42151 819.28735 4293583076
38.14679 842.42151 819.28735 4293254881
40.689907 842.42151 819.28735 4293056986
43.233028 842.42151 819.28735 4293122782
46.623856 842.42151 819.28735 4293123299
50.014679 842.42151 819.28735 4292991969
52.557796 842.42151 819.28735 4293452007
54.253212 842.42151 819.28735 4293057501
11.86789 843.71765 820.38025 4291149252
13.563303 844.36572 820.9267 4291346364
16.106422 844.36572 820.92676 4290754236
19.497248 844.36572 820.92676 4290029230
22.888073 844.36572 820.9267 4291081392
25.431192 844.36572 820.9267 4286213475
27.974312 843.71765 820.38025 4289109059
50.862385 843.71765 820.38025 4293123042
58.491745 843.71765 820.38025 4292991958
-34.018349 841.60706 822.5249 4291610051
-31.534863 840.19995 823.95447 4291610050
-28.094494 840.9035 823.23969 4291609795
-25.513762 841.60706 822.5249 4291543493
-22.962385 841.60706 822.5249 4289570232
-19.560551 841.60706 822.5249 4288911775
-16.193579 840.19995 823.95447 4288779659
-13.636697 840.19995 823.95447 4288124321
-11.079817 840.19995 823.95447 4285424993
-7.6706419 840.19995 823.95447 4286805344
-4.2577982 840.9035 823.23969 4288976779
-1.7009175 841.60706 822.5249 4287924100
0.85229355 840.19995 823.95447 4287464535
4.2614679 840.19995 823.95447 4290885286
7.6541286 841.60706 822.5249 4291478201
10.772477 842.47394 823.25586 4291083711
28.065138 842.90741 823.62134 4289243265
31.466974 842.2572 823.07312 4293716469
34.868805 841.60706 822.5249 4293386210
37.420185 841.60706 822.5249 4293189088
39.971558 841.60706 822.5249 4293123294
43.373394 841.60706 822.5249 4293123040
46.77523 842.2572 823.07312 4293188839
49.326607 842.2572 823.07312 4293123306
52.161469 842.47394 823.25586 4293057249
55.279816 842.2572 823.07312 4293123294
58.681648 842.90741 823.62134 4293123276
61.800003 842.04053 822.89038 4292860121
13.60734 844.20776 824.71777 4291083698
16.158716 844.20776 824.71777 4291477697
19.560551 844.20776 824.71777 4290753207
22.962385 844.20776 824.71777 4290883505
25.513762 844.20776 824.71777 4290422699
27.21468 844.20776 824.71777 4289833310
51.877983 844.20776 824.71777 4293123043
55.279816 844.20776 824.71777 4292991968
58.681648 844.20776 824.71777 4292860373
61.233028 844.20776 824.71777 4292925659
0.85504586 839.39679 827.20129 4288254810
3.4201834 839.39679 827.20129 4290358414
-34.944038 841.50317 825.05322 4291477709
-31.534863 841.50317 825.05322 4291609798
-28.125687 841.50317 825.05322 4291609798
-25.568808 841.50317 825.05322 4291411908
-23.011927 841.50317 825.05322 4289503673
-19.602753 841.50317 825.05322 4288386210
-16.193579 841.50317 825.05322 4288847013
-13.636697 841.50317 825.05322 4288521378
-11.079817 841.50317 825.05322 4284311664
-7.6706419 841.50317 825.05322 4284309571
-4.2614679 841.50317 825.05322 4286544996
-1.7045871 841.50317 825.05322 4287006885
5.1137614 841.50317 825.05322 4292068776
7.95474 841.93756 825.41949 4291412923
11.079817 842.80634 826.1521 4291083961
28.977982 842.80634 826.1521 4292004479
31.534863 842.80634 826.1521 4292992753
34.944038 842.15472 825.60266 4293320423
37.500916 842.15479 825.60266 4293320421
40.0578 842.15479 825.60266 4293254883
43.466972 842.15472 825.60266 4293320677
46.876144 842.80634 826.1521 4292925665
49.433029 842.80634 826.1521 4293057251
63.069725 842.15479 825.60266 4292859866
13.636697 844.1095 827.25085 4291478703
16.193579 844.1095 827.25085 4291478458
19.602753 844.1095 827.25085 4291214014
23.011927 844.1095 827.25085 4291147184
25.568808 844.1095 827.25085 4291475625
28.125687 844.1095 827.25085 4291214505
31.534863 844.1095 827.25085 4292926193
34.091743 844.1095 827.25085 4293846511
49.433029 844.1095 827.25085 4292991708
51.989906 844.1095 827.25085 4293123297
55.399082 844.1095 827.25085 4293123810
58.744034 844.80884 826.53253 4292991708
61.233028 845.50818 825.81421 4292794080
63.069725 844.1095 827.25085 4292925409
0.85688072 839.30273 829.73804 4289503857
-37.622017 840.70416 828.30371 4291083194
-34.796329 840.67377 829.15009 4291477953
-31.670643 840.65857 829.57324 4291872964
-28.246788 840.65857 829.57324 4291872705
-25.6789 840.65857 829.57324 4292004035
-23.11101 840.65857 829.57324 4291872192
-19.687157 840.65857 829.57324 4289635759
-16.263304 840.65857 829.57324 4289306766
-13.695413 840.65857 829.57324 4289244061
-11.127523 840.65851 829.57324 4280558901
-7.7036695 840.65857 829.57324 4278190098
-4.2798166 840.65857 829.57324 4278190080
-1.7119266 840.65857 829.57324 4286086259
4.2798166 840.65857 829.57324 4291541941
7.4152904 841.10956 829.51752 4291280575
11.115597 842.01154 829.40601 4291478453
35.911926 842.01154 829.40601 4293517802
37.622017 842.01154 829.40601 4293386214
40.187157 842.01154 829.40601 4293386214
43.607338 842.01154 829.40601 4293188835
47.027523 842.01154 829.40601 4292991454
11.970642 843.31891 830.50842 4291149239
13.680734 843.31891 830.50842 4291215286
16.245872 843.31891 830.50842 4291215036
19.666054 843.31891 830.50842 4291280062
23.086239 843.31891 830.50842 4291476665
25.651377 843.31891 830.50842 4291345589
28.216515 843.31891 830.50842 4290820528
31.636698 843.31891 830.50842 4292661725
35.056881 843.31891 830.50842 4293583341
37.622017 843.31891 830.50842 4292991454
40.187157 843.31891 830.50842 4293122782
47.882568 843.31891 830.50842 4293188317
49.592659 843.31891 830.50842 4293254110
52.072479 844.36578 829.42908 4293189090
55.399082 845.41266 828.34973 4292991456
58.808258 845.41266 828.34973 4293057249
61.365139 845.41266 828.34973 4292465112
63.069725 845.41266 828.34973 4292991456
58.808258 846.71582 829.44849 4293123043
61.365139 847.36743 829.99786 4292925920
63.069725 846.71582 829.44849 4292991456
-36.964218 838.51495 832.99792 4291281581
0.85963303 838.51495 832.99792 4291344278
-34.27523 841.9231 831.94751 4291676098
-31.704586 841.9231 831.94751 4292136391
-27.420183 841.9231 831.94751 4292267717
-25.706423 841.9231 831.94751 4292267717
-23.13578 841.9231 831.94751 4292267202
-19.708256 841.9231 831.94751 4291082442
-16.280735 841.9231 831.94751 4291539881
-10.282569 841.9231 831.94751 4287664276
-8.5688076 841.9231 831.94751 4282005822
8.5688076 841.9231 831.94751 4291412160
10.282569 841.9231 831.94751 4291149239
43.700916 841.9231 831.94751 4293188576
46.271561 841.9231 831.94751 4293057249
13.710092 843.23328 833.05212 4291149239
16.280735 843.23328 833.05212 4290951099
19.708256 843.23328 833.05212 4290555060
23.13578 843.23328 833.05212 4291147186
25.706423 843.23328 833.05212 4291476918
28.245872 843.92981 832.33142 4290688697
31.636698 844.62628 831.61072 4292071122
35.056881 844.62628 831.61072 4293715697
37.702751 843.23328 833.05212 4293386210
40.273396 843.23328 833.05212 4293386463
44.557796 843.23328 833.05212 4293057249
47.128441 843.23328 833.05212 4293057504
49.699081 843.23328 833.05212 4293386212
52.157799 844.62628 831.61072 4293189088
55.577984 845.27997 832.16187 4292925409
58.998165 845.93365 832.71301 4293057763
63.273396 845.93365 832.71301 4292860640
58.998165 847.24103 833.81543 4293058014
61.563301 847.24103 833.81543 4292925663
-36.964218 839.82935 834.1062 4291610044
-29.227524 839.82935 834.1062 4292333512
-12.894495 839.82935 834.1062 4290226353
-6.8770642 839.82935 834.1062 4283052544
-4.2981653 839.82935 834.1062 4286931981
-1.7192661 839.82935 834.1062 4292061757
0.86055046 839.4411 835.74078 4292066744
4.3027525 839.79004 835.38104 4291017411
6.8844037 839.79004 835.38104 4290951870
-36.104588 841.14374 835.21448 4292396225
-34.385323 841.8009 835.76862 4291670445
-31.806421 841.80096 835.76855 4291998637
-28.367889 841.80096 835.76855 4291733917
-24.929358 841.80096 835.76855 4292128416
-22.350458 841.8009 835.76862 4292326054
-19.771561 841.80096 835.76855 4291535791
-16.333027 841.80096 835.76855 4291470241
-12.894495 841.14374 835.21448 4291276489
-10.315597 841.8009 835.76862 4290556091
-7.7366972 841.8009 835.76862 4288582544
-4.2981653 841.8009 835.76862 4290094751
-1.7192661 841.14374 835.21448 4292592585
8.5963306 841.14374 835.21448 4291280838
10.315597 841.14374 835.21448 4291149241
12.607951 842.02002 835.95331 4291280571
16.333027 842.45813 836.32275 4290818999
19.771561 842.45813 836.32275 4290487462
22.350458 842.45813 836.32275 4291012259
27.508257 842.45813 836.32275 4290951609
37.823853 842.45813 836.32275 4293452007
40.402752 842.45813 836.32275 4293189087
43.554737 842.02002 835.95331 4293320670
46.420185 842.45813 836.32275 4293189090
48.13945 842.45813 836.32275 4293123294
23.992661 844.54346 834.15686 4290619565
25.706423 844.54346 834.15686 4291474617
29.133945 844.54346 834.15686 4290491058
31.704586 844.54346 834.15686 4291150790
35.132111 844.54346 834.15686 4293453291
49.699081 844.54346 834.15686 4293123294
52.269726 845.19855 834.70923 4293057504
55.697247 845.85364 835.2616 4293057501
56.554127 847.16382 836.36633 4293057499
59.060551 847.85608 835.64203 4293123294
61.563301 848.5484 834.91772 4292794332
-31.012844 842.38507 838.8772 4291139987
-28.42844 842.38507 838.8772 4289690738
-24.982569 842.38507 838.8772 4289754736
-22.398165 842.38507 838.8772 4291268239
-19.813763 842.38507 838.8772 4291137932
-16.367889 842.38507 838.8772 4291336874
-12.922018 841.72644 838.3219 4292327878
-10.337615 842.38507 838.8772 4292266168
-7.753211 842.38507 838.8772 4291477176
-4.3073397 842.38507 838.8772 4291476673
-1.7229358 841.72644 838.3219 4291936707
0.8614679 841.06787 837.7666 4291608770
4.3073397 841.06787 837.7666 4291215045
7.753211 841.72644 838.3219 4291477183
10.337615 841.72644 838.3219 4291673528
12.060551 842.38507 838.8772 4291737780
37.904587 842.38507 838.8772 4293648366
