# .PCD v0.7 - Point Cloud Data file format
VERSION 0.7
FIELDS x y z rgb
SIZE 4 4 4 4
TYPE F F F U
COUNT 1 1 1 1
WIDTH 1172
HEIGHT 1
VIEWPOINT 0 0 0 1 0 0 0
POINTS 1172
DATA ascii
41.702751 767.75751 786.41736 4285622379
43.57798 765.45752 788.40222 4285819501
46.192661 765.45752 788.40222 4285885547
48.807339 765.45752 788.40222 4286017137
8.6880732 770.41437 788.65759 4278519552
10.425688 770.41437 788.65759 4278255616
13.03211 769.08594 787.53748 4279304963
16.507339 769.08594 787.53748 4281143074
19.113762 769.08594 787.53748 4281536814
45.177982 769.08594 787.53748 4286017137
49.522018 770.41437 788.65759 4285951603
12.990826 772.70587 786.66565 4279436044
16.455046 772.70587 786.66565 4280683299
19.919266 772.70587 786.66565 4281013820
22.517431 772.70587 786.66565 4278517801
24.249542 772.70587 786.66565 4280621845
43.302753 772.70587 786.66565 4286082930
45.900917 772.70587 786.66565 4286016883
5.1963301 775.35431 788.8988 4280887341
8.0831804 774.9129 788.52661 4279768330
10.39266 774.6922 788.34052 4279174418
12.983486 775.07275 788.00732 4279567903
16.437614 775.45325 787.67407 4280685112
19.877066 776.2157 787.00897 4281278267
22.469725 776.2157 787.00897 4280292133
25.062386 775.55499 786.4519 4278979090
40.618347 775.55499 786.4519 4285754993
44.07523 775.55499 786.4519 4285951351
46.667889 775.55499 786.4519 4285951351
49.365139 774.03009 787.78223 4285951603
51.963303 774.03009 787.78223 4285885308
8.6422014 778.19781 788.68018 4279307278
12.963303 778.19781 788.68018 4279766055
49.260551 778.19781 788.68018 4286344051
13.783486 781.79395 787.78833 4280622636
16.367889 781.13538 787.23303 4280621871
19.526606 780.91583 787.04791 4282397766
22.398165 780.47675 786.67773 4280752927
24.982569 780.47675 786.67773 4279108900
31.012844 780.47675 786.67773 4278190080
40.77615 780.91583 787.04791 4286082934
43.93486 781.13538 787.23303 4286214001
46.519264 781.13538 787.23303 4286016874
48.242203 781.79395 787.78833 4286016883
13.199388 784.05377 788.82178 4283713094
16.333027 784.62482 787.5592 4280822834
20.631193 783.31042 786.45093 4282199828
22.350458 783.96765 787.00507 4281148453
24.642813 783.74854 786.82031 4280490564
28.367889 783.31042 786.45093 4278190080
31.806423 783.96765 787.00507 4278453253
34.385323 783.96765 787.00507 4279506213
36.677677 783.74854 786.82031 4282992730
40.116207 784.18671 787.18976 4286214777
43.841286 784.62482 787.5592 4286082674
46.420185 784.62482 787.5592 4285951340
49.103668 783.11115 788.89893 4286017137
16.280735 788.20551 786.65417 4282661403
19.708256 788.20551 786.65417 4279372836
23.13578 788.20551 786.65417 4281807958
25.706423 788.20551 786.65417 4282861133
28.277065 788.20551 786.65417 4279373583
31.704586 788.20551 786.65417 4278190103
35.132111 788.20551 786.65417 4278584838
41.130276 788.20551 786.65417 4286346629
43.700916 788.20551 786.65417 4286017400
47.128441 788.20551 786.65417 4286017135
11.99633 790.82587 788.86365 4281741121
13.710092 789.51569 787.75891 4284504659
16.245872 791.02374 786.41443 4284044114
19.666054 791.02374 786.41443 4278452229
23.111927 790.26971 787.08667 4280428090
25.706423 789.51569 787.75891 4279573823
28.216515 791.02374 786.41443 4278190105
31.704586 789.51569 787.75891 4278190080
35.093578 790.26971 787.08667 4284365581
40.187157 791.02374 786.41443 4286672749
43.653214 790.26971 787.08667 4286017143
47.078899 790.26971 787.08667 4286279538
11.970642 793.63849 788.61914 4281343517
13.680734 792.33112 787.51672 4284305920
16.245872 792.33112 787.51672 4284240923
23.941284 792.33112 787.51672 4279572276
25.651377 792.33112 787.51672 4278519588
32.491745 792.33112 787.51672 4283509539
34.201836 792.33112 787.51672 4285355329
43.607338 792.33112 787.51672 4286148468
47.312542 792.76691 787.88422 4286279025
11.93211 797.19531 787.69409 4280820271
13.636697 795.89215 786.59521 4280951850
16.193579 795.89215 786.59521 4280820782
18.750458 795.89215 786.59521 4278518543
23.86422 795.89215 786.59521 4279044635
25.568808 796.5437 787.14465 4278649881
44.319267 795.89215 786.59521 4286016883
46.023853 796.5437 787.14465 4286016883
11.906422 799.99536 787.43896 4280031000
13.60734 799.34521 786.89075 4280359723
16.158716 799.34515 786.89075 4279635736
18.710093 798.69501 786.34253 4279307282
23.245871 799.12848 786.70801 4283384889
25.513762 799.99536 787.43896 4285030488
35.719265 798.69501 786.34253 4286870645
44.223854 799.34521 786.89075 4286082675
46.826607 799.24695 788.11591 4286213490
49.433029 798.49847 788.79285 4286344051
51.137615 798.49847 788.79285 4286082426
11.055964 801.29572 788.5354 4281083147
13.563303 803.53674 786.50085 4279504432
16.106422 803.53674 786.50085 4278517776
19.497248 803.53674 786.50085 4284833637
22.888073 803.53674 786.50085 4284703320
25.431192 803.53674 786.50085 4284835907
27.974312 803.53674 786.50085 4286017385
31.365139 803.53674 786.50085 4286935686
34.755962 803.53674 786.50085 4286673777
40.689907 803.53674 786.50085 4286542194
44.080734 803.53674 786.50085 4286410607
46.623856 803.53674 786.50085 4286410353
49.326607 801.29572 788.5354 4286410355
8.4770641 804.83289 787.59375 4282202951
11.007339 805.57849 786.91437 4281084972
13.533945 806.32416 786.23499 4279900196
18.609175 806.32416 786.23499 4283716692
28.822018 804.83289 787.59375 4286675314
35.526604 806.32416 786.23499 4286673264
37.218349 806.32416 786.23499 4286608243
40.601833 806.32416 786.23499 4286542194
46.623856 804.83289 787.59375 4286410611
7.8948007 808.47974 788.05255 4281412415
10.150458 807.61749 787.32556 4281873454
4.2155962 812.42841 787.45789 4280623421
7.5880733 812.42841 787.45789 4280623919
10.96055 811.13928 786.37097 4280821548
4.2064219 815.19757 787.17664 4280689962
7.5788989 814.45758 787.86078 4280032032
10.936697 813.91125 786.09204 4280623919
50.587154 813.71759 788.54492 4286411643
53.116516 813.71759 788.54492 4286476921
5.0477066 816.48395 788.26135 4280623919
7.5715594 816.48395 788.26135 4280096031
10.062386 818.69971 786.20557 4280949804
50.311928 818.69971 786.20557 4286673284
53.000916 816.48395 788.26135 4286607741
4.1926603 821.26398 788.36768 4281938496
7.2672782 820.40924 787.64697 4282197284
53.666054 820.62292 787.82715 4286541946
55.343121 820.62292 787.82715 4286476153
57.020184 821.26398 788.36768 4286475860
4.183486 824.01483 788.07104 4281479228
7.809175 823.58838 787.71149 4282399808
10.877064 822.73553 786.99243 4281674753
13.387156 822.73553 786.99243 4280488490
16.733946 822.73553 786.99243 4280553486
46.297245 823.16193 787.35199 4286607218
49.365135 823.37518 787.53174 4286738806
52.433025 823.58838 787.71149 4286147185
3.3357799 827.49316 787.07983 4281610283
8.3394499 827.49316 787.07983 4282201924
10.841284 826.85559 786.54224 4281742385
13.34312 826.21802 786.00464 4280686632
15.844954 826.21802 786.00464 4280555040
40.863304 826.21802 786.00464 4286673016
43.365139 826.21802 786.00464 4286803314
45.866974 826.85559 786.54224 4286672757
49.202751 827.49316 787.07983 4286278003
52.538532 827.49316 787.07983 4286144873
1.66789 828.76825 788.15491 4281281556
3.3357799 828.76825 788.15491 4281544240
8.3394499 828.76825 788.15491 4282071871
10.81743 830.23145 786.77258 4281808445
46.598164 830.23145 786.77258 4286278258
49.094498 830.23145 786.77258 4285751127
52.422935 830.23145 786.77258 4288577904
55.813759 829.49988 787.46375 4292328367
58.376148 828.76825 788.15491 4293909455
10.804587 832.23395 787.15302 4281346865
53.137615 832.96411 786.46069 4292264363
55.690826 832.23395 787.15302 4293844432
1.6605505 835.50317 788.60144 4281149736
4.1513762 835.50317 788.60144 4281673777
8.3027525 834.23364 787.53113 4281149486
56.458717 834.23364 787.53113 4293386212
58.119267 834.86841 788.06628 4292991709
1.6550459 838.95056 787.58423 4281214234
4.1376147 838.95056 787.58423 4282265139
7.4477062 838.31799 787.05078 4280687134
9.930275 837.6853 786.51733 4279899690
52.961468 837.6853 786.51733 4293517789
55.444038 838.31799 787.05078 4293057500
57.926605 838.95056 787.58423 4292925661
0.82752293 840.21588 788.651 4280885517
4.1376147 840.21588 788.651 4282200623
7.4477062 840.21588 788.651 4280884513
10.733944 841.66504 787.25684 4280622645
14.036697 841.66498 787.25684 4281479208
16.513762 841.66504 787.25684 4281544252
18.990826 842.92749 788.32129 4280228394
22.293579 842.92749 788.32129 4280622111
24.770641 842.92749 788.32129 4280884513
31.376146 842.92749 788.32129 4288119958
33.85321 842.92749 788.32129 4292463074
37.431194 842.50665 787.96649 4293845735
40.458717 842.29626 787.78906 4293518051
43.761467 842.29626 787.78906 4293254631
47.229359 841.91748 787.46973 4293254890
49.541279 841.66504 787.25684 4293057251
51.876698 841.12268 787.32275 4292991456
55.444038 840.21588 788.651 4293188834
26.363302 844.37378 786.9248 4281408808
28.834862 844.37378 786.9248 4281145896
7.9266057 751.73102 789.90869 4278190080
10.568808 751.05768 789.34094 4283773774
40.51376 751.05768 789.34094 4285490539
42.27523 751.05768 789.34094 4285556586
47.559631 751.05768 789.34094 4285294180
5.2844038 753.75098 791.61194 4282064674
4.3899083 758.74847 791.90161 4280942597
7.8972473 757.11951 789.87402 4282064642
10.513762 758.94495 789.45117 4281468732
4.380734 761.62427 791.71021 4280288290
7.0091743 760.28461 790.58069 4281532416
7.8605504 763.92419 789.72546 4280091413
1.746789 766.59509 791.97742 4281216031
4.3669724 765.25964 790.85144 4281542443
7.8440366 766.79016 789.52588 4278913803
10.458715 766.79016 789.52588 4278517760
47.06422 766.79016 789.52588 4286017137
49.678898 766.79016 789.52588 4285951603
0.58103973 769.01123 791.39862 4281282093
4.3577981 768.1228 790.64954 4281347612
6.972477 768.1228 790.64954 4280888064
4.0544343 772.18555 790.15106 4280952613
6.9504585 771.7428 789.77771 4280952602
52.997246 773.07117 790.89783 4285885045
4.3302751 776.67853 790.01526 4281084972
6.9284406 776.67853 790.01526 4281215275
10.39266 776.67853 790.01526 4279238696
4.3247709 778.76099 790.46313 4281018927
7.7779818 779.51923 789.79443 4280097825
10.370643 779.51923 789.79443 4279698243
12.099083 779.51923 789.79443 4281277531
50.124771 779.51923 789.79443 4286082676
51.963303 778.00275 791.13184 4286279299
4.3211012 780.84064 790.90857 4282466123
7.7779818 780.84064 790.90857 4281745733
10.370643 780.84064 790.90857 4282461760
51.85321 780.84064 790.90857 4286016883
5.1688075 785.74554 791.12024 4283979367
7.753211 785.08691 790.56482 4282664014
10.337615 784.42834 790.00952 4282068285
12.060551 784.42834 790.00952 4284963178
49.965137 784.42834 790.00952 4286017133
52.549545 785.08691 790.56488 4286278756
8.5963306 788.56799 790.88403 4282465094
10.315597 787.91077 790.3299 4281346358
12.034863 787.2536 789.77576 4283780950
49.858715 787.91077 790.3299 4286344814
52.437614 788.56799 790.88403 4286344049
7.7366972 789.88245 791.99219 4281148728
52.437614 789.88245 791.99219 4286344051
55.016514 789.88245 791.99219 4286410355
8.5688076 793.44629 791.073 4280687931
10.27156 793.54102 789.84491 4280686880
47.882568 794.94586 789.72144 4286278006
49.64587 793.54102 789.84491 4286212466
52.269726 793.44629 791.073 4286082174
7.6954126 796.90692 791.375 4282464573
10.26055 796.25323 790.82385 4281083689
53.012844 796.25323 790.82385 4286082426
54.722935 796.90692 791.375 4286214261
8.5229359 799.80164 789.89172 4282399798
51.989906 799.80164 789.89172 4286214007
6.8110094 802.50061 790.85938 4282005321
47.625687 803.89642 790.72827 4286410355
49.326607 803.24622 790.18005 4286410611
51.877983 802.59607 789.63184 4286280055
54.546787 801.10486 790.99048 4286280054
3.401835 805.19684 791.82471 4280688935
47.625687 805.19684 791.82471 4286542194
5.0862384 807.42523 789.77942 4281083437
50.014679 808.0733 790.32587 4286411380
52.557796 807.42523 789.77942 4286477688
1.6954129 810.01758 791.96521 4281282099
1.6862385 815.00671 789.63184 4281149486
3.3724771 815.00671 789.63184 4281018677
5.0477066 817.77026 789.34595 4281148984
57.020184 823.82825 790.52979 4287064428
1.6733944 827.85284 791.30713 4280887593
5.0201836 826.57349 790.22852 4281281576
6.6935782 826.57349 790.22852 4281281331
55.222019 825.29419 789.14978 4286012769
61.078899 827.85284 791.30713 4293385183
3.3357799 830.04333 789.2301 4281478697
8.3394499 830.04333 789.2301 4281412401
58.376148 830.04333 789.2301 4294306019
-4.1697249 832.59363 791.38037 4281017643
1.66789 831.31848 790.3053 4281083939
3.3357799 831.31848 790.3053 4281281072
6.6715598 831.31848 790.3053 4281281072
61.155964 831.74347 790.66364 4292925661
63.379818 832.59363 791.38037 4292729040
-1.6642202 834.68457 790.52734 4280821029
0 834.0484 789.99097 4280952100
59.845871 835.41052 789.83142 4292925661
61.576145 835.32068 791.06372 4292991454
-3.321101 838.04218 790.74231 4280952352
-1.6605505 838.67688 791.27753 4281148961
58.949539 838.67688 791.27753 4292991711
61.440369 839.31165 791.81274 4293058014
63.93119 839.31165 791.81274 4292926176
66.42202 839.31165 791.81274 4292794078
0.55168194 841.90289 790.07355 4281345566
4.1376147 842.11383 790.25134 4281806886
7.4477067 842.11383 790.25134 4280294437
10.757798 842.74646 790.78479 4280557876
13.240367 842.74646 790.78479 4281478946
44.686237 842.74646 790.78479 4293386210
47.168808 842.74646 790.78479 4293123560
49.651375 842.74646 790.78479 4293123558
52.409786 842.32471 790.4292 4293123298
55.168194 841.90289 790.07355 4293123040
67.305199 842.32471 790.4292 4292794079
69.511925 842.74646 790.78479 4292728285
4.1376147 844.01178 791.85168 4280689180
7.4477062 844.01178 791.85168 4279175179
10.757798 844.01178 791.85168 4280162828
14.332722 844.07111 791.02979 4281083941
16.53211 844.10083 790.61877 4280754758
19.011927 844.10083 790.61877 4280228398
22.318348 844.10083 790.61877 4280622373
25.624769 844.10083 790.61877 4280884782
28.931192 844.10083 790.61877 4280359724
31.411009 844.10083 790.61877 4285361532
33.890827 844.10083 790.61877 4291214814
37.19725 844.10083 790.61877 4293649646
40.50367 844.10083 790.61877 4293320419
43.551071 844.07111 791.02979 4293254884
47.168808 844.01178 791.85168 4293320685
49.651375 844.01178 791.85168 4293123558
67.029358 844.01178 791.85168 4292859870
69.511925 844.01178 791.85168 4292859353
4.4174314 751.43842 793.58606 4280290313
5.2844038 755.09766 792.74731 4282851096
0.87155962 770.78809 792.89673 4281544239
0 772.12073 794.02039 4281675830
1.1584097 775.28522 792.76459 4281412910
53.28685 774.84247 792.39117 4286082174
55.603668 775.72803 793.13794 4286278258
-1.7321101 779.32697 792.24841 4282465090
0.86605507 779.32697 792.24841 4281741616
53.695412 779.32697 792.24841 4286016883
55.603668 777.05646 794.25806 4286474865
-3.4642203 780.65118 793.36499 4282333503
-1.7321101 781.31329 793.92322 4282268228
0.8642202 781.40662 792.69385 4281676332
4.3211012 782.16205 792.02271 4282992471
55.310093 782.16205 792.02271 4286278258
-1.7284404 784.80487 794.2511 4282201684
1.1522936 783.92389 793.5083 4281611063
3.4568808 783.48346 793.13696 4281018425
55.310093 783.48346 793.13696 4286410355
57.902752 784.14417 793.69403 4286410355
-1.7229358 788.37994 793.34143 4282135875
0.57431191 787.94086 792.97119 4282005047
4.3073397 787.72131 792.78613 4281675572
6.8917432 787.06274 792.23083 4282596680
56.282574 787.50177 792.60107 4286410609
58.579815 788.37994 793.34143 4286410607
-1.7229358 789.69714 794.45203 4281939248
0.8614679 790.44696 793.77625 4282266922
4.2981653 791.19678 793.10046 4281476900
6.8770642 791.19678 793.10046 4281477191
55.876144 791.19678 793.10046 4286214010
58.455048 791.19678 793.10046 4286410861
60.174313 791.19678 793.10046 4286542448
0.85963303 792.51123 794.20874 4282661173
4.2981653 792.51123 794.20874 4282332710
6.8550458 794.75647 792.17773 4282792776
56.735779 792.51123 794.20874 4286345848
58.455048 792.51123 794.20874 4286346098
-1.7137614 797.37683 794.38721 4282134580
0.57125384 796.94012 794.01898 4282071102
3.4275229 796.06665 793.28247 4282005291
56.554127 796.72174 793.83484 4286280054
58.267891 796.72174 793.83484 4286279803
-3.4201834 799.52173 793.57971 4282201146
-1.7100917 800.17542 794.13086 4282004539
0.85504586 800.17542 794.13086 4281807941
3.9902141 799.30377 793.396 4282004788
54.722935 800.17542 794.13086 4286411639
-3.4091742 803.71118 793.18811 4281938998
-1.7045871 803.71118 793.18811 4281873204
0.85229355 803.71118 793.18811 4281413435
5.1137614 802.40802 792.08923 4282202174
51.989906 802.40802 792.08923 4286345848
54.546787 803.71118 793.18811 4286412152
-3.4091742 805.01434 794.28687 4282004539
-1.7045871 805.01434 794.28687 4281872952
0.85045874 806.49719 792.92114 4281282351
52.842201 805.01434 794.28687 4286345846
54.546787 805.01434 794.28687 4286542194
-1.7009175 807.79755 794.01758 4281938996
0 807.79755 794.01758 4281413685
55.64587 818.87415 792.89282 4284964195
58.175232 818.87415 792.89282 4286605601
58.889908 821.62927 792.59973 4290354078
60.572475 821.62927 792.59973 4291540131
60.572475 822.91565 793.68433 4293517019
5.0201836 829.13214 792.38586 4281281072
64.70459 829.55859 792.74542 4292925912
66.935783 829.77185 792.92523 4292925915
-3.3357799 833.86871 792.45557 4280821800
64.21376 833.86871 792.45557 4292991708
67.549545 833.86871 792.45557 4293123294
-4.1697249 836.41895 794.60583 4281542440
61.576145 836.59302 792.13647 4293189090
64.072479 836.59302 792.13647 4292991456
67.400917 836.59302 792.13647 4293189087
-3.3284404 839.13763 794.28198 4281478697
-1.6605505 840.58118 792.88318 4281281574
1.1070336 841.42749 793.59686 4281083173
52.307343 841.85065 793.95361 4292991713
55.905201 841.42749 793.59686 4292991197
58.949539 841.21588 793.4184 4292991452
61.440369 841.21594 793.4184 4292860123
63.93119 841.21594 793.41846 4292925662
11.585321 845.27704 792.91846 4280030735
14.06789 845.27704 792.91846 4279833108
16.550459 845.27704 792.91846 4280358444
19.033028 845.27704 792.91846 4280094998
22.343121 845.27704 792.91846 4280884247
25.65321 845.27704 792.91846 4280818993
29.790825 845.27704 792.91846 4279770952
34.755962 845.27704 792.91846 4292798463
40.548622 845.27704 792.91846 4293386466
67.029358 845.27704 792.91846 4292794078
69.511925 845.27704 792.91846 4292794584
19.86055 846.54236 793.98535 4278452224
22.343121 846.54236 793.98535 4279568384
67.85688 846.54236 793.98535 4292925663
69.357796 847.97742 792.57935 4292925659
3.5449541 749.12585 795.56018 4282262053
1.7669724 754.14014 795.86414 4280091413
-3.493578 772.60455 797.04443 4282268214
-1.746789 771.93683 796.48145 4282860599
-3.4752293 779.71332 796.49817 4282202697
-5.2128439 781.04175 797.61829 4282399047
-3.4642203 784.62378 796.71454 4282201924
-3.4568808 788.7691 797.59363 4282004789
-1.7229358 791.01434 795.56274 4281938996
60.302753 791.01434 795.56274 4286477684
-3.4385321 793.82556 795.31702 4282398002
-1.7192661 793.82556 795.31702 4282266416
1.7192661 793.82556 795.31702 4282334005
5.1577983 793.82556 795.31702 4282137133
60.302753 792.99011 797.22864 4286477438
56.554127 799.3421 796.04425 4286412152
58.839142 799.56049 796.22833 4286411392
56.554127 801.30737 797.70129 4286542194
59.124771 801.30737 797.70129 4286542198
-3.4091742 806.3175 795.38562 4282004789
56.433029 804.09753 797.43787 4286607991
58.998165 804.09753 797.43787 4286739059
-3.4091742 807.62073 796.4845 4282397752
-1.7009175 809.0979 795.11401 4282265910
0 809.0979 795.11401 4281478195
-10.841284 838.33167 796.21857 4282200893
-7.5055051 838.33167 796.21863 4281675323
-5.0036697 838.33167 796.21857 4281017896
-13.34312 840.24432 797.8313 4280952100
-10.841284 840.24432 797.8313 4282069561
-7.5055046 840.24432 797.8313 4281673265
-3.9941285 841.93671 796.64221 4281406472
-1.6642202 841.68219 796.42755 4281670406
1.1094801 842.53046 797.14276 4281800964
4.1605506 842.95453 797.50037 4282260256
7.4889908 842.95453 797.50037 4281009948
9.985321 842.95453 797.50037 4279697408
31.620184 842.95453 797.50037 4281940781
33.284405 842.95453 797.50037 4282930799
44.933945 842.95453 797.50037 4293124326
46.598164 842.95453 797.50037 4293189099
49.094498 842.95453 797.50037 4293123559
52.422935 842.95453 797.50037 4293189092
55.751373 842.95453 797.50037 4293057506
58.247707 842.95453 797.50037 4293189349
61.576145 842.95453 797.50037 4292860640
0 843.12018 795.02393 4280948759
4.1513762 843.12018 795.02393 4280290314
7.472477 843.12018 795.02393 4278845952
10.793578 843.75488 795.55914 4278779904
14.114679 844.38965 796.09436 4278190080
16.605505 844.38965 796.09436 4278452224
19.096329 845.02441 796.62958 4278584320
22.417431 845.65918 797.16479 4279569685
25.738533 844.38965 796.09436 4281672713
28.782875 843.96649 795.73755 4282003501
31.550459 843.12018 795.02393 4282929016
34.041283 843.75488 795.55914 4288522699
37.362385 843.75488 795.55914 4293650416
40.683487 844.38965 796.09436 4293321191
43.727829 843.54327 795.38068 4293255398
46.495415 843.12018 795.02393 4293255407
48.986237 843.12018 795.02393 4293189355
52.307343 843.12018 795.02393 4293057506
55.628441 843.12018 795.02393 4293189087
59.226299 843.54327 795.38068 4293057504
61.440369 843.12018 795.02393 4293057247
63.931194 843.75488 795.55908 4293123294
66.975533 845.23602 796.80792 4292925410
70.339447 847.80762 795.05225 4292925663
0 748.94202 798.02124 4281997824
-5.2293577 777.45123 798.51501 4282333755
-5.2128439 782.37012 798.7384 4282202174
-5.2128439 784.36279 800.41858 4282201921
62.223854 790.09052 798.70776 4286345846
60.302753 794.96594 798.89453 4286214276
56.433029 805.40491 798.54028 4286607991
-13.34312 841.51941 798.90637 4278190080
-10.007339 842.15698 799.44397 4281143296
-7.5055051 842.15698 799.44397 4282457614
-5.0036697 842.79456 799.98157 4285680182
1.66789 842.79456 799.98157 4286603341
4.1697249 842.79456 799.98157 4285684836
7.5055046 842.79456 799.98157 4284107884
10.841284 842.79456 799.98157 4281672745
31.689909 842.79456 799.98157 4282269246
33.3578 842.79456 799.98157 4282534730
50.036697 842.79456 799.98157 4293123808
52.538532 842.79456 799.98157 4293123297
55.874313 842.79456 799.98157 4292991459
-3.3284404 844.22687 798.57312 4286268737
-1.6642202 844.22687 798.57312 4287255888
0 844.22687 798.57312 4286472012
14.145872 844.22687 798.57312 4280359464
16.642202 844.22687 798.57312 4279637504
19.138531 844.86304 799.1095 4282008383
23.299082 845.49915 799.64587 4283453522
25.795414 844.22687 798.57312 4283122999
29.123852 844.22687 798.57312 4284176961
34.948624 844.22687 798.57312 4290890441
37.444954 844.22687 798.57312 4293255396
40.773392 844.22687 798.57312 4293583596
44.101837 844.22687 798.57312 4293321189
46.598164 844.22687 798.57312 4293058535
48.262386 844.22687 798.57312 4293058535
59.079819 844.22687 798.57312 4293320681
61.576145 844.22687 798.57312 4293123556
64.072479 844.22687 798.57312 4293123556
-5.2128439 786.35541 802.09863 4282399549
-11.713761 839.36676 801.01538 4278847232
-11.155963 841.49902 802.81329 4287327337
4.183486 841.92542 803.17285 4291740871
7.5302753 841.92542 803.17285 4291411656
10.877064 841.92542 803.17285 4290885565
51.875229 841.92542 803.17285 4293058014
-7.5055051 844.70715 801.59424 4291473840
-4.1697249 844.70715 801.59424 4289561221
-1.66789 844.70715 801.59424 4292322462
0.55596334 844.49463 801.41504 4292133053
13.34312 844.06964 801.05664 4290162107
15.844954 844.06964 801.05664 4288847018
18.90275 844.91968 801.77344 4288452004
22.238533 844.91968 801.77344 4285296012
25.852295 844.70715 801.59424 4284175711
28.354128 844.06964 801.05664 4284897345
30.855965 844.06964 801.05664 4284044364
34.191742 844.06964 801.05664 4286613131
37.527523 844.06964 801.05664 4292270316
40.863304 844.06964 801.05664 4293452007
43.365139 844.06964 801.05664 4292926692
46.144955 844.49463 801.41504 4293190118
49.202751 844.06964 801.05664 4293189860
53.372478 844.06964 801.05664 4292991456
55.874313 844.06964 801.05664 4293056994
58.376148 844.06964 801.05664 4293188838
60.877983 844.06964 801.05664 4292992488
64.21376 844.06964 801.05664 4292795106
67.549545 844.06964 801.05664 4292860384
70.885323 844.06964 801.05664 4292794847
68.759636 841.77808 805.66455 4293189351
72.952293 841.77808 805.66455 4292925664
-13.387156 844.48401 805.3302 4291674565
-10.883486 843.4884 805.14465 4291739827
-7.2513757 844.91046 805.68976 4288382069
-4.183486 844.48401 805.3302 4287258160
-1.6733944 844.48401 805.3302 4293638986
1.1168195 843.58301 805.44238 4291871678
3.9070332 843.15656 805.08282 4291740612
7.8152905 843.15656 805.08282 4291412675
10.88899 843.13245 805.49854 4291412157
13.401834 843.13245 805.49854 4291346625
15.91468 843.13245 805.49854 4290885820
19.244038 844.48401 805.3302 4291280583
22.590824 844.48401 805.3302 4291215046
25.937614 844.48401 805.3302 4288783534
28.447706 843.84436 804.79083 4284573292
30.991743 843.13245 805.49854 4283584849
34.342201 843.13245 805.49854 4285232234
37.692661 843.13245 805.49854 4291742442
41.043121 843.13245 805.49854 4293649896
43.555962 843.13245 805.49854 4292794851
45.739452 844.05762 804.97064 4292992228
49.419266 843.13245 805.49854 4293189088
52.769722 843.13245 805.49854 4293057503
55.779816 843.63116 804.61102 4293254886
58.095413 843.1084 805.91425 4293057764
61.14587 843.13245 805.49854 4292991976
64.42569 843.20471 804.25146 4292794595
66.935783 843.20471 804.25146 4292794593
70.28257 843.20471 804.25146 4292991456
-11.777982 842.21069 809.95349 4291609538
1.6825688 842.21069 809.95349 4291740608
4.4868503 841.78192 809.59198 4291608263
7.2911315 841.78192 809.59198 4291345599
10.936697 842.21069 809.95349 4291148987
13.46055 842.21069 809.95349 4291149250
15.984404 842.21069 809.95349 4291017665
20.190826 842.21069 809.95349 4291347136
21.873394 842.21069 809.95349 4291610051
30.286238 842.21069 809.95349 4284569759
35.333946 842.21069 809.95349 4285034869
37.857796 842.21069 809.95349 4290888921
40.381653 842.21069 809.95349 4293979116
42.06422 842.21069 809.95349 4293255394
46.270645 842.21069 809.95349 4293255396
48.794495 842.21069 809.95349 4293057762
53.842201 842.21069 809.95349 4293057764
55.524769 842.21069 809.95349 4293189351
58.048622 842.21069 809.95349 4293189349
64.7789 841.5675 809.41113 4292925924
68.144035 841.5675 809.41113 4293057758
70.667892 841.5675 809.41113 4292729056
-13.416513 844.34229 807.82666 4290951607
-10.062386 844.34229 807.82666 4291477188
-7.5467887 844.9834 808.36719 4290029226
-4.1926603 844.34229 807.82666 4285486910
-1.6770642 844.34229 807.82666 4292262840
0 844.34229 807.82666 4291806401
18.447706 844.34229 807.82666 4291215045
23.478899 844.34229 807.82666 4291478717
25.994495 844.34229 807.82666 4289965234
28.510092 844.34229 807.82666 4287267733
31.86422 844.34229 807.82666 4283582864
33.541283 844.34229 807.82666 4282929236
73.351379 839.50043 810.2843 4292860385
1.6862385 842.07874 812.45825 4288123027
4.2155962 842.07874 812.45825 4289037437
7.5880733 842.07874 812.45825 4290223732
10.96055 842.07874 812.45825 4291280575
13.489908 842.07874 812.45825 4291544008
21.921101 842.07874 812.45825 4290887359
31.195412 842.07874 812.45825 4290423998
34.56789 842.07874 812.45825 4284511854
38.783485 842.07874 812.45825 4293586927
40.469727 842.07874 812.45825 4294242293
42.999084 841.4342 811.91479 4293189603
50.587154 840.78961 811.37134 4293057762
52.273396 840.78961 811.37134 4292860640
55.64587 842.07874 812.45825 4293123556
58.175232 842.07874 812.45825 4292991456
61.547707 841.4342 811.91479 4292991458
64.920181 842.07874 812.45825 4292925663
67.449539 842.07874 812.45825 4293057501
69.978897 842.07874 812.45825 4292728538
73.351379 840.78961 811.37134 4292728544
-13.46055 843.49701 811.03809 4289965481
-10.936697 843.49701 811.03809 4291806148
-7.8519874 844.35455 811.76117 4292529620
-4.4868503 843.92578 811.3996 4291017138
-1.6825688 843.49701 811.03809 4291477922
0 844.1402 811.58038 4290359991
15.984404 843.49701 811.03809 4291149766
19.349541 843.49701 811.03809 4290887364
23.555964 843.49701 811.03809 4290952639
26.079817 843.49701 811.03809 4291281092
28.60367 843.49701 811.03809 4291148739
37.016514 843.49701 811.03809 4286349441
43.985321 839.95129 814.58862 4293189601
46.522934 839.95129 814.58862 4293255395
49.906422 839.95129 814.58862 4293123811
52.444038 839.95129 814.58862 4293123556
54.13578 839.95129 814.58862 4293189349
73.590828 839.95129 814.58862 4292925667
38.910091 841.24463 815.67908 4293257161
40.601833 841.24463 815.67908 4293979116
42.293579 841.24463 815.67908 4293255394
58.365135 841.24463 815.67908 4292925411
61.748623 841.24463 815.67908 4293188835
64.28624 841.24463 815.67908 4293057501
69.361465 841.24463 815.67908 4292925659
72.744957 841.24463 815.67908 4293452259
-15.176147 843.36786 813.54529 4289963456
-13.489908 843.36786 813.54529 4290293428
-10.96055 844.01245 814.08875 4291016886
-7.5880733 844.65704 814.6322 4291017920
-3.9345567 844.22729 814.26984 4292069845
-1.6862385 844.01245 814.08875 4291345610
0.84311926 844.01245 814.08875 4288978086
4.2155962 843.36786 813.54529 4287067994
7.5880733 843.36786 813.54529 4290224275
10.96055 844.01245 814.08875 4291346370
13.489908 844.01245 814.08875 4291346626
16.019266 844.01245 814.08875 4291215299
19.391743 843.36786 813.54529 4291215301
22.764221 843.36786 813.54529 4290821053
26.136696 843.36786 813.54529 4290952378
28.666056 843.36786 813.54529 4291149241
31.195412 843.36786 813.54529 4290622391
34.56789 843.36786 813.54529 4285886623
37.097248 843.36786 813.54529 4286414945
65.763306 843.36786 813.54529 4293057501
67.449539 843.36786 813.54529 4292925659
70.822021 843.36786 813.54529 4292991708
44.080734 839.82916 817.10168 4293189601
46.623856 839.82916 817.10168 4293123807
50.014679 839.82916 817.10168 4293255649
52.557796 839.82916 817.10168 4293123808
55.100918 839.82916 817.10168 4293057763
74.598167 839.82916 817.10168 4293386995
-15.258716 841.12531 818.19458 4290750381
-13.533945 842.53802 816.76965 4291212708
1.6917431 842.53802 816.76965 4287662741
4.2293577 842.53802 816.76965 4288383838
7.612844 842.53802 816.76965 4291672225
19.455046 842.53802 816.76965 4291150020
22.838531 842.53802 816.76965 4290755258
25.376146 842.53802 816.76965 4290623926
27.913761 842.53802 816.76965 4290885299
31.297249 842.53802 816.76965 4291148991
34.680733 842.53802 816.76965 4289964463
38.06422 842.53802 816.76965 4289505690
40.689907 841.12531 818.19458 4291678940
42.385323 841.12531 818.19458 4293257972
58.491745 841.12531 818.19458 4292859870
61.882568 841.12531 818.19458 4292925918
65.201836 841.83167 817.48212 4292794078
67.669724 842.53802 816.76965 4292727514
70.207336 842.53802 816.76965 4293451497
73.750458 841.12531 818.19458 4293453307
-10.99633 843.83136 817.86011 4290029709
-7.612844 843.83136 817.86011 4290820014
-4.2293577 843.83136 817.86011 4291872443
-1.6917431 843.83136 817.86011 4291280055
0 843.83136 817.86011 4291017414
4.2293577 843.83136 817.86011 4289899142
7.8948007 844.26245 818.22363 4290952133
10.99633 844.47803 818.4054 4289701028
13.533945 844.47803 818.4054 4289959308
16.07156 844.47803 818.4054 4289959823
19.455046 843.83136 817.86011 4291280318
22.838531 843.83136 817.86011 4290952378
25.376146 843.83136 817.86011 4290755509
-17.009174 839.00635 820.33203 4290289830
44.223854 839.00635 820.33203 4293583845
46.77523 839.00635 820.33203 4293254883
49.326607 839.00635 820.33203 4293255142
51.877983 839.00635 820.33203 4293189601
55.279816 839.00635 820.33203 4293057504
-15.308257 840.3067 821.42847 4292068546
-13.563303 842.42151 819.28735 4291871374
1.6954129 842.42151 819.28735 4289372589
27.974312 842.42151 819.28735 4290951860
31.365139 842.42151 819.28735 4290951857
34.755962 842.42151 819.28735 4290819492
37.299084 842.42151 819.28735 4289965212
39.971558 840.3067 821.42847 4289570731
43.373394 840.3067 821.42847 4293518833
46.77523 840.3067 821.42847 4293255142
58.681648 840.3067 821.42847 4292925663
62.083488 840.3067 821.42847 4293057501
64.42569 842.42151 819.28735 4292925663
66.968811 842.42151 819.28735 4292859870
70.359634 842.42151 819.28735 4293453033
73.750458 842.42151 819.28735 4290955493
-10.172477 843.71765 820.38025 4290688953
-7.6293578 843.71765 820.38025 4290228402
0 843.71765 820.38025 4291016901
4.2385321 843.71765 820.38025 4291083166
7.3467889 844.58173 821.10889 4290953154
11.020184 845.01379 821.47314 4286939770
13.563303 845.01379 821.47314 4286144078
16.106422 845.01379 821.47314 4286077255
19.497248 844.36572 820.9267 4286999380
22.888073 844.36572 820.92676 4291477164
25.431192 843.71765 820.38025 4290821303
67.816513 843.71765 820.38025 4293782015
70.359634 843.71765 820.38025 4291219188
74.598167 843.71765 820.38025 4278192218
-19.602753 838.89679 822.85571 4289829779
-17.045872 838.89679 822.85571 4290818222
49.433029 838.89679 822.85571 4293189097
51.989906 838.89679 822.85571 4293123808
55.399082 838.89679 822.85571 4293189346
-15.341285 840.19995 823.95447 4292333510
-13.60734 841.60706 822.5249 4292332747
-11.33945 842.47394 823.25586 4291673287
-7.6541286 842.90741 823.62134 4290818751
-4.2522936 842.25726 823.07312 4289898922
-1.7009175 842.2572 823.07312 4290490546
0.85045874 842.2572 823.07312 4290885055
4.2522936 842.90741 823.62134 4291149504
25.513762 842.90741 823.62134 4290951857
28.065136 842.25726 823.07312 4290820793
31.466972 841.60706 822.5249 4290820791
34.868805 841.60706 822.5249 4290885553
37.420185 841.60706 822.5249 4290294443
40.015594 840.9035 823.23969 4288058502
43.466972 840.19995 823.95447 4291348157
46.876144 840.19995 823.95447 4293386472
49.433029 840.19995 823.95447 4293122790
51.989906 840.19995 823.95447 4293057763
56.251377 840.19995 823.95447 4293057249
58.808258 840.19995 823.95447 4293123294
61.365139 840.19995 823.95447 4293123294
63.852295 840.9035 823.23969 4293057503
67.186234 842.2572 823.07312 4293124342
70.588074 842.90741 823.62134 4286550993
73.706421 842.47394 823.25586 4279968854
7.6541286 844.20776 824.71777 4290821570
11.055964 844.20776 824.71777 4288782492
13.60734 844.20776 824.71777 4289370765
16.158716 844.20776 824.71777 4291411386
18.710093 844.20776 824.71777 4290425530
22.962385 844.20776 824.71777 4290225817
25.513762 844.20776 824.71777 4291146913
74.84037 844.20776 824.71777 4278190083
-22.231194 838.7431 826.65015 4291798961
-19.666054 838.7431 826.65015 4292395723
-16.530888 838.961 826.8338 4292463811
44.462387 839.39679 827.20129 4290228441
47.027523 839.39679 827.20129 4293452022
49.592659 839.39679 827.20129 4292991206
52.157799 839.39679 827.20129 4293123043
55.292965 838.961 826.8338 4293056996
61.563301 839.39679 827.20129 4293254108
-13.636697 842.15479 825.60266 4291408572
-11.079817 842.80634 826.1521 4290355113
-7.6706419 842.80634 826.1521 4291344319
-4.2614679 842.80634 826.1521 4289504164
-1.7045871 842.80634 826.1521 4289964197
1.1363914 842.37201 825.78583 4290555321
4.2614679 842.80634 826.1521 4291213749
20.455046 842.80634 826.1521 4290818474
28.125687 842.80634 826.1521 4290886076
31.534863 842.15479 825.60266 4290952638
34.659939 841.93756 825.41949 4290952120
37.500916 841.50317 825.05322 4290622904
40.0578 841.50317 825.05322 4289308304
42.614677 841.50317 825.05322 4289441407
58.808258 841.50317 825.05322 4293057501
64.206116 841.93756 825.41949 4293255403
67.047096 842.37201 825.78583 4289246425
70.740372 842.80634 826.1521 4278194009
73.297249 842.80634 826.1521 4278190152
-3.4091742 844.1095 827.25085 4289766568
-1.7045871 844.1095 827.25085 4289963947
0 844.1095 827.25085 4289898938
5.1137614 844.1095 827.25085 4291215788
7.6706419 844.1095 827.25085 4290952893
11.079817 844.1095 827.25085 4290821050
13.636697 844.1095 827.25085 4291412147
16.193579 844.1095 827.25085 4291806409
19.602753 844.1095 827.25085 4290293196
23.011927 844.1095 827.25085 4287660698
25.568808 844.1095 827.25085 4290949561
68.183487 844.1095 827.25085 4278198394
70.740372 844.1095 827.25085 4278190133
74.06881 844.80884 826.53253 4278387242
44.557796 839.30273 829.73804 4289768381
46.271561 839.30273 829.73804 4293518582
-22.817125 841.10956 829.51752 4290741912
-19.677063 841.00818 829.21405 4291533979
-16.263304 840.65857 829.57324 4291737019
-13.680734 842.01154 829.40601 4290747567
-11.115597 842.01154 829.40601 4290156454
-7.6954126 842.01154 829.40601 4291870143
-5.1302752 842.01154 829.40601 4289832863
1.7100917 842.01154 829.40601 4289767095
3.4201834 842.01154 829.40601 4290162844
28.216515 842.01154 829.40601 4291346881
31.636698 842.01154 829.40601 4291018436
35.341896 841.57574 829.03857 4290952381
37.622017 841.35785 828.85486 4290819779
40.230274 840.65851 829.57324 4290557117
43.384708 840.64331 829.9964 4289307568
47.933945 840.65857 829.57324 4293583600
49.64587 840.65857 829.57324 4293320427
52.21376 840.65857 829.57324 4293057506
55.637611 840.65857 829.57324 4292991708
58.998169 841.35785 828.85486 4293189087
61.563301 841.35785 828.85486 4293518322
63.843426 841.57574 829.03857 4292664314
66.693581 842.01154 829.40601 4284311460
-3.4201834 843.31891 830.50842 4291016647
-1.7100917 843.31891 830.50842 4290885060
0.85504586 843.31891 830.50842 4289374136
4.2752295 843.31891 830.50842 4289111457
7.6954126 843.31891 830.50842 4290294461
11.115597 843.31891 830.50842 4291346113
13.680734 843.31891 830.50842 4291478467
16.245872 843.31891 830.50842 4289505198
19.666054 843.31891 830.50842 4287531419
23.086239 843.31891 830.50842 4286937719
25.651377 843.31891 830.50842 4291411104
28.216515 843.31891 830.50842 4291346883
31.636698 843.31891 830.50842 4291215813
34.201836 843.31891 830.50842 4291018432
68.403671 843.31891 830.50842 4278190108
70.968811 843.31891 830.50842 4278453022
73.533943 843.31891 830.50842 4278782233
75.001831 845.41266 828.34973 4278190094
46.420185 838.51495 832.99792 4293780735
-22.278898 841.9231 831.94751 4290477696
-19.708256 841.9231 831.94751 4290806143
-16.280735 841.9231 831.94751 4291400102
-13.710092 841.9231 831.94751 4291866036
-11.13945 841.9231 831.94751 4291472310
-7.7119265 841.9231 831.94751 4292395981
-5.1412845 841.9231 831.94751 4291608004
35.988991 841.9231 831.94751 4290886846
37.702751 841.9231 831.94751 4290884797
39.416515 841.9231 831.94751 4291016639
59.124771 841.9231 831.94751 4293517298
61.695412 841.9231 831.94751 4291546616
64.266052 841.9231 831.94751 4282343833
66.8367 841.9231 831.94751 4278192720
-20.565138 843.23328 833.05212 4290152084
-13.710092 843.23328 833.05212 4291864478
-11.13945 843.23328 833.05212 4293116606
-7.7119265 843.23328 833.05212 4292527555
-4.2844038 843.23328 833.05212 4291672773
-1.7137614 843.23328 833.05212 4291277772
0.85688072 843.23328 833.05212 4290094261
4.2844038 843.23328 833.05212 4289701306
7.7119265 843.23328 833.05212 4290359246
11.99633 843.23328 833.05212 4291281092
13.710092 843.23328 833.05212 4291215545
16.280735 843.23328 833.05212 4288780943
19.708256 843.23328 833.05212 4287661442
23.13578 843.23328 833.05212 4288121764
25.706423 843.23328 833.05212 4291411688
28.277065 843.23328 833.05212 4291084225
31.704586 843.23328 833.05212 4291412678
35.132111 843.23328 833.05212 4291214782
65.122932 843.23328 833.05212 4278190112
68.550461 843.23328 833.05212 4278190080
71.121101 843.23328 833.05212 4278191636
73.691742 843.23328 833.05212 4278190091
75.244034 844.62628 831.61072 4278190080
-24.069725 839.82935 834.1062 4290017145
41.306423 839.79004 835.38104 4290687166
43.888077 839.79004 835.38104 4289832625
46.469727 839.79004 835.38104 4292925666
49.051376 839.79004 835.38104 4293453042
52.493576 839.79004 835.38104 4293189602
55.628742 839.80316 834.95605 4293123296
-24.069725 841.14374 835.21448 4289495700
-18.911926 841.14374 835.21448 4290020498
-16.046484 841.58185 835.58392 4290808479
-12.894495 842.45813 836.32275 4290807701
-10.315597 842.45813 836.32275 4291340719
-7.7366972 842.45813 836.32275 4292395723
-5.1577983 842.45813 836.32275 4290358455
1.7192661 842.45813 836.32275 4290618781
4.2981653 842.45813 836.32275 4290949307
7.7366972 842.45813 836.32275 4290819524
10.315597 841.8009 835.76862 4291018441
12.894495 842.45813 836.32275 4290361282
16.333027 842.45813 836.32275 4288649873
19.771561 842.45813 836.32275 4290095264
22.350458 842.45813 836.32275 4291345087
24.929358 842.45813 836.32275 4291280321
28.367889 842.45813 836.32275 4289175973
31.806421 842.45813 836.32275 4289832863
34.385323 842.45813 836.32275 4291278249
37.823853 841.14374 835.21448 4291016635
39.543118 841.14374 835.21448 4291016635
56.735779 841.14374 835.21448 4293715180
58.455048 841.14374 835.21448 4292271103
61.033943 841.14374 835.21448 4287472878
64.185928 842.02002 835.95331 4278192704
67.624466 842.02002 835.95331 4278256403
70.489906 842.45813 836.32275 4278257685
73.06881 842.45813 836.32275 4278190856
75.647705 842.45813 836.32275 4281401344
-3.4275229 844.54346 834.15686 4290550937
-1.7137614 844.54346 834.15686 4290616730
0 844.54346 834.15686 4290158230
46.667889 838.98254 839.93237 4292005583
-18.952293 841.06787 837.7666 4291276473
-16.655046 841.94598 838.50702 4290352058
1.7229358 842.38507 838.8772 4290815633
4.3073397 842.38507 838.8772 4291410614
7.753211 842.38507 838.8772 4291082176
10.337615 842.38507 838.8772 4290687949
12.922018 842.38507 838.8772 4289635507
16.367889 842.38507 838.8772 4289635734
19.813763 842.38507 838.8772 4291083172
24.982569 842.38507 838.8772 4291148473
28.42844 842.38507 838.8772 4288713882
31.874311 842.38507 838.8772 4288843665
34.458717 842.38507 838.8772 4289436319
37.043121 841.06787 837.7666 4291279284
40.488991 841.06787 837.7666 4290819771
43.93486 841.06787 837.7666 4289899182
49.390823 841.5069 838.13678 4293189606
52.549545 841.72644 838.3219 4293386472
55.995415 841.72644 838.3219 4293320422
58.579815 841.72644 838.3219 4290496971
61.164223 841.72644 838.3219 4278388246
64.610092 842.38507 838.8772 4278190089
68.055969 842.38507 838.8772 4278190875
70.640366 842.38507 838.8772 4278190097
73.22477 842.38507 838.8772 4280487696
-15.506422 843.70227 839.98779 4291477450
-12.908257 843.73743 838.70947 4290155174
-10.326606 843.73743 838.70941 4289695362
-7.7366972 844.42969 837.98517 4292395460
-4.2981653 844.42969 837.98517 4290290849
-1.7192661 844.42969 837.98517 4290355080
0.57431191 844.18726 838.65265 4290749336
3.4458716 843.70227 839.98779 4291803850
7.753211 843.70227 839.98779 4290620330
10.337615 843.70227 839.98779 4289503911
12.922018 843.70227 839.98779 4289766828
16.367889 843.70227 839.98779 4290754487
19.813763 843.70227 839.98779 4291347645
22.374311 843.73743 838.70941 4291149750
24.982569 843.70227 839.98779 4291279292
58.579815 843.70227 839.98779 4293845988
61.164223 843.70227 839.98779 4291609542
65.471558 843.70227 839.98779 4278190131
68.055969 843.70227 839.98779 4278190099
70.640366 843.70227 839.98779 4278190080
72.363304 843.70227 839.98779 4281466880
-19.012844 840.30396 841.04651 4291476666
-17.284403 841.62537 842.16064 4292332758
5.1853213 841.62537 842.16064 4291080127
28.519266 841.62537 842.16064 4289040531
31.976147 841.62537 842.16064 4288053329
34.568806 841.62537 842.16064 4288119904
37.161469 840.30396 841.04651 4291147456
40.906422 840.74445 841.41791 4291345863
44.07523 840.96466 841.60352 4290227637
46.667889 840.96466 841.60358 4292004303
48.972477 841.18488 841.78925 4292991710
52.71743 841.62537 842.16064 4293386214
55.310093 841.62537 842.16064 4293057247
57.038532 841.62537 842.16064 4293386212
63.952293 841.62537 842.16064 4283780948
-12.922018 845.01947 841.09851 4290486968
-10.337615 845.01947 841.09851 4289892742
-7.753211 845.01947 841.09851 4291868593
-4.3073397 845.01947 841.09851 4291739065
-1.7229358 845.01947 841.09851 4291541428
0 845.01947 841.09851 4291541696
-3.4458716 846.33667 842.20911 4291805647
-1.7229358 846.33667 842.20911 4290950594
-16.732721 842.46698 844.61444 4292070092
1.7302753 842.91797 844.55865 4291673793
4.3256884 842.91797 844.55859 4290882758
7.7862387 842.91797 844.55859 4289365618
10.381651 842.91797 844.55865 4290223242
12.977064 842.91797 844.55865 4290882730
16.437614 842.91797 844.55865 4291082691
20.179815 842.92755 844.13068 4290820023
22.469725 842.94678 843.2749 4290886062
25.088991 842.91797 844.55859 4290950834
28.549541 842.91797 844.55865 4289372063
32.044037 841.56494 844.72583 4287660588
34.6422 841.56494 844.72583 4288909492
37.240368 840.90283 844.1676 4291607745
40.415901 841.12354 844.3537 4291937230
43.848316 842.46698 844.61444 4290490042
46.189602 842.44775 845.47021 4291806922
49.312847 842.91797 844.55865 4293451751
52.773396 842.91797 844.55859 4293320419
55.368809 842.91797 844.55865 4293188831
57.655045 842.92755 844.13068 4293452004
61.691742 842.92755 844.13068 4293451486
64.5737 842.92755 844.13068 4287529650
67.409172 842.94678 843.2749 4278190206
70.001831 842.94678 843.2749 4278190080
72.671562 842.91797 844.55865 4278190080
-15.555964 844.26819 844.38904 4291675594
-12.963303 844.26819 844.38904 4291476416
-10.370643 844.26819 844.38904 4290817176
-7.7779818 844.26819 844.38904 4290816936
-4.3211012 844.92889 844.94611 4291803085
0 844.26819 844.38904 4290818995
19.012844 844.26819 844.38904 4290096310
22.469725 844.26819 844.38904 4289832109
58.766972 844.26819 844.38904 4293254629
60.495415 844.26819 844.38904 4293452007
65.680733 844.26819 844.38904 4293450992
67.409172 844.26819 844.38904 4290950602
70.001831 844.26819 844.38904 4281154132
31.277063 840.82068 848.02234 4290095256
33.883484 840.82068 848.02234 4291345582
37.358719 840.82068 848.02234 4291740102
40.833946 840.82068 848.02234 4290621117
-16.166361 844.65479 847.33112 4291411642
-12.990826 844.21338 846.95898 4291805631
-10.39266 844.21338 846.95898 4291147967
-7.7944956 844.21338 846.95898 4291147450
-5.1963301 844.21338 846.95898 4292265157
-1.7321101 844.21338 846.95898 4290486718
0 844.21338 846.95898 4290682764
19.919266 844.21338 846.95898 4290094007
22.517431 844.21338 846.95898 4289897148
58.891743 844.21338 846.95898 4293057501
61.489906 844.21338 846.95898 4293320672
64.954132 844.21338 846.95898 4294109931
67.552292 844.87549 847.51721 4292794074
70.150452 844.21338 846.95898 4284700062
74.954132 838.75214 850.20239 4278190080
76.858719 837.37317 851.65564 4278255643
1.7376146 842.14911 849.14246 4291406487
4.3440366 842.14911 849.14246 4290945213
7.8192658 842.14911 849.14246 4290879873
10.425688 842.14911 849.14246 4291606208
13.03211 842.14911 849.14246 4291803842
16.507339 842.14911 849.14246 4291080378
25.195412 842.14911 849.14246 4291213499
28.670643 842.14911 849.14246 4291410092
31.277063 842.14911 849.14246 4291083455
33.883484 842.14911 849.14246 4290886837
37.416512 841.11694 850.23419 4290293177
40.833946 842.14911 849.14246 4288118939
43.440369 842.14911 849.14246 4290553004
46.046791 842.14911 849.14246 4291871942
49.522018 842.14911 849.14246 4293320421
52.997246 842.14911 849.14246 4293253859
55.603668 842.14911 849.14246 4293123294
57.341286 842.14911 849.14246 4292991708
72.97982 842.14911 849.14246 4278190080
-15.638532 844.80591 851.38269 4288978045
-13.03211 844.14172 850.82263 4290753208
-10.425688 844.14172 850.82263 4291542983
-7.8192654 844.14172 850.82263 4291475909
-4.3440366 844.14172 850.82263 4290551718
-1.7376146 844.14172 850.82263 4289365125
0 844.14172 850.82263 4290015615
19.982569 843.47754 850.26257 4290553259
22.588991 843.47754 850.26257 4290489271
59.078899 843.47754 850.26257 4293057501
61.685318 843.47754 850.26257 4292991706
64.29174 843.47754 850.26257 4293123546
66.029358 844.14172 850.82263 4293320415
-17.3211 846.86182 849.19202 4287991149
1.7431192 841.41742 852.44958 4290541432
4.0672784 841.86163 852.82416 4290215827
7.8440361 842.08374 853.01141 4292128150
10.458715 841.41742 852.44958 4291937501
12.782875 841.86163 852.82416 4290355629
16.559633 842.08374 853.01147 4290025364
20.045872 842.75006 853.57324 4290816943
22.660551 842.75006 853.57324 4291278273
25.27523 842.08374 853.01141 4291806142
28.470947 841.86163 852.82416 4291937219
31.376146 841.41742 852.44958 4290953173
33.990826 841.41742 852.44958 4288717481
37.767586 841.86163 852.82416 4287661435
40.963303 842.08374 853.01147 4288645776
43.57798 841.41742 852.44958 4291079071
46.192661 841.41742 852.44958 4292463548
49.678898 841.41742 852.44958 4293648103
52.293579 841.41742 852.44958 4293056738
55.198776 841.86163 852.82416 4293188322
58.103973 842.30585 853.19873 4293254371
