# .PCD v0.7 - Point Cloud Data file format
VERSION 0.7
FIELDS x y z rgb
SIZE 4 4 4 4
TYPE F F F U
COUNT 1 1 1 1
WIDTH 1162
HEIGHT 1
VIEWPOINT 0 0 0 1 0 0 0
POINTS 1162
DATA ascii
7.0293579 821.07971 1263.0272 4292657878
9.3724775 821.07971 1263.0272 4292394454
-18.744955 822.87103 1264.5376 4283446860
-16.401834 822.87103 1264.5376 4283446860
-14.058716 822.87103 1264.5376 4283971408
-7.0293579 822.87103 1264.5376 4286274662
-4.6862388 822.87103 1264.5376 4286274131
-2.3431194 822.87103 1264.5376 4288247921
0 822.87103 1264.5376 4289367224
7.0293579 822.87103 1264.5376 4292592601
9.3724775 822.87103 1264.5376 4292527321
-21.022018 830.32977 1265.5945 4282923596
-18.686239 829.43689 1264.8416 4283120202
-16.350458 829.43689 1264.8416 4283185995
-14.014679 830.32977 1265.5945 4283384395
-11.678899 830.32977 1265.5945 4283713360
-7.0073395 830.32977 1265.5945 4283909458
-4.6715598 829.43689 1264.8416 4284107611
-2.3357799 830.32977 1265.5945 4283583573
0 830.32977 1265.5945 4286539906
-19.776146 836.49298 1264.251 4282987323
-16.286238 836.49298 1264.251 4285025874
-13.959633 836.49298 1264.251 4285684838
-10.469725 836.49298 1264.251 4284304725
-6.9798164 836.49298 1264.251 4283977300
-4.6532111 836.49298 1264.251 4284371805
-2.3266056 836.49298 1264.251 4283714132
0 836.49298 1264.251 4284106589
-19.776146 838.27167 1265.7507 4284500057
-16.286238 838.27167 1265.7507 4286342767
-13.959633 838.27167 1265.7507 4286146415
-10.469725 838.27167 1265.7507 4285357926
-6.9798164 838.27167 1265.7507 4284832608
-4.6532111 838.27167 1265.7507 4284832373
-2.3266056 838.27167 1265.7507 4283845478
0 838.27167 1265.7507 4283845226
-7.2715597 758.98718 1268.2257 4280747825
-4.8477063 758.98718 1268.2257 4284364032
-2.4238532 758.98718 1268.2257 4288706353
-21.732111 767.30652 1268.7001 4281939768
-19.31743 766.38348 1267.9219 4282004300
-16.902752 767.30652 1268.7001 4281939279
-14.488073 767.30652 1268.7001 4281414732
13.683181 766.69116 1268.1813 4289367708
16.902752 767.30652 1268.7001 4289367711
19.31743 766.38348 1267.9219 4289170580
21.732111 766.38348 1267.9219 4289302423
24.14679 767.30652 1268.7001 4289434021
14.433027 773.74469 1267.5885 4289236643
16.838531 773.74469 1267.5885 4289170849
19.244038 773.74469 1267.5885 4289237149
21.649542 773.74469 1267.5885 4289171099
24.055046 773.74469 1267.5885 4289039776
-16.774311 781.98688 1267.9979 4286606676
-14.377981 781.98688 1267.9979 4286275968
-10.783486 781.98688 1267.9979 4285618022
-7.1889906 781.98688 1267.9979 4287197552
-4.7926607 781.98688 1267.9979 4287855768
-2.3963304 781.98688 1267.9979 4289369007
0 781.98688 1267.9979 4289631132
-14.322936 788.36194 1266.8331 4287330453
-10.742202 788.36194 1266.8331 4286344301
-7.161468 788.36194 1266.8331 4286410580
-2.387156 788.36194 1266.8331 4289434843
0 788.36194 1266.8331 4289500303
-16.710093 790.18695 1268.3719 4286470481
-14.322936 790.18695 1268.3719 4286011754
-4.774312 790.18695 1268.3719 4286275466
-2.387156 790.18695 1268.3719 4289696703
0 790.18695 1268.3719 4289698209
-14.278899 794.16956 1266.4978 4285945418
-7.1394496 794.16956 1266.4978 4286146165
0 794.16956 1266.4978 4289698213
-16.658716 795.98895 1268.0319 4285684029
-14.278899 795.98895 1268.0319 4286011211
-4.7596331 795.98895 1268.0319 4287131012
-2.3798165 795.98895 1268.0319 4289433767
0 795.98895 1268.0319 4289236645
-10.667891 802.30371 1266.8162 4285878611
-7.1119266 802.30371 1266.8162 4285680974
-2.3706422 802.30371 1266.8162 4290023067
0 802.30371 1266.8162 4290420403
-14.223853 804.11609 1268.3444 4285483865
-10.667891 804.11609 1268.3444 4285812574
-7.1119266 804.11609 1268.3444 4285286230
-4.7412844 804.11609 1268.3444 4286009941
-2.3706422 804.11609 1268.3444 4290483866
0 804.11609 1268.3444 4292459427
-25.976147 812.20117 1268.6213 4282793026
-16.530275 812.20117 1268.6213 4285681008
-14.168807 812.20117 1268.6213 4285879123
-11.020184 811.59937 1268.1139 4285483853
-7.0844035 812.20117 1268.6213 4285877586
-4.7229357 810.39581 1267.0991 4286207073
-2.3614678 810.39581 1267.0991 4291338927
1.1807339 811.29846 1267.8602 4293117131
4.7229357 812.20117 1268.6213 4293053915
-25.875229 818.44586 1267.3464 4282202939
-21.170643 818.44586 1267.3464 4282529086
-18.818348 818.44586 1267.3464 4283576661
-16.466055 818.44586 1267.3464 4283971419
-14.113762 818.44586 1267.3464 4284691529
-11.761468 818.44586 1267.3464 4286665575
-7.056881 818.44586 1267.3464 4285944414
2.3522935 818.44586 1267.3464 4293183718
4.704587 818.44586 1267.3464 4293052380
-28.227524 820.2442 1268.8628 4283583053
-25.875229 820.2442 1268.8628 4282201400
-22.34679 820.2442 1268.8628 4282725420
-11.761468 820.2442 1268.8628 4285681769
2.3522935 820.2442 1268.8628 4293183218
4.704587 820.2442 1268.8628 4292987359
-16.401834 824.66235 1266.048 4283512653
-14.058716 824.66235 1266.048 4283315018
-11.715596 824.66235 1266.048 4283973204
-7.0293579 824.66235 1266.048 4285880681
0 824.66235 1266.048 4289168553
7.0293579 824.66235 1266.048 4292528091
9.3724775 824.66235 1266.048 4292396757
-21.088074 826.45374 1267.5583 4282989389
-14.058716 826.45374 1267.5583 4283185751
-11.715596 826.45374 1267.5583 4283712095
-7.0293579 826.45374 1267.5583 4285026656
-2.3431194 826.45374 1267.5583 4286934405
1.1715597 826.45374 1267.5583 4290421443
4.6862388 826.45374 1267.5583 4292923612
7.0293579 826.45374 1267.5583 4292594648
10.544037 826.45374 1267.5583 4292264914
14.058716 826.45374 1267.5583 4292331214
-25.693579 833.0083 1267.8529 4282858051
-23.357798 833.0083 1267.8529 4282791240
1.5571866 832.71069 1267.6019 4289371307
4.6715598 833.90118 1268.6057 4292198608
7.0073395 833.0083 1267.8529 4292528085
10.511009 833.0083 1267.8529 4292264158
14.014679 833.0083 1267.8529 4292133317
-25.592661 841.8291 1268.7502 4284830306
-23.266054 840.93976 1268.0004 4285091683
-19.776146 840.93976 1268.0004 4286671220
-16.286238 840.93976 1268.0004 4286934898
-13.959633 840.93976 1268.0004 4286607983
-10.469725 840.9397 1268.0004 4286740340
-6.9798164 840.93976 1268.0004 4286148720
-4.6532111 840.93976 1268.0004 4286083196
-2.3266056 840.93976 1268.0004 4284964458
0 840.93976 1268.0004 4284306021
9.3064222 841.8291 1268.7502 4292330701
-21.814678 760.84021 1269.7881 4283382821
-19.390825 760.84021 1269.7881 4282990434
-16.966972 760.84021 1269.7881 4284766845
-7.2715597 760.84021 1269.7881 4287327373
-4.8477063 760.84021 1269.7881 4287722842
-2.4238532 760.84021 1269.7881 4289104495
0 760.84021 1269.7881 4289628318
13.331193 760.84021 1269.7881 4289170848
-29.086239 762.6933 1271.3506 4284239174
-25.450459 762.6933 1271.3506 4283185713
-21.814678 762.6933 1271.3506 4282921768
-16.966972 762.6933 1271.3506 4284240233
-14.543119 762.6933 1271.3506 4284176476
-9.6954126 762.6933 1271.3506 4284829804
-7.2715597 762.6933 1271.3506 4287593110
-4.8477063 762.6933 1271.3506 4289564283
-2.4238532 762.6933 1271.3506 4289893247
0 762.6933 1271.3506 4289498783
7.2715597 762.6933 1271.3506 4289170581
9.6954126 762.6933 1271.3506 4289235872
12.119267 762.6933 1271.3506 4289301665
-21.732111 770.9986 1271.8132 4283258187
-19.31743 770.07556 1271.0349 4283843423
-16.902752 770.07556 1271.0349 4284567403
-13.280735 770.07556 1271.0349 4284564581
-9.6587152 770.9986 1271.8132 4285948498
-7.2440367 770.07556 1271.0349 4287987585
-4.8293576 770.9986 1271.8132 4288118945
-2.4146788 770.9986 1271.8132 4289040047
0 770.9986 1271.8132 4289235872
7.2440367 770.9986 1271.8132 4289302671
9.6587152 770.07556 1271.0349 4289302170
12.878288 769.76788 1270.7755 4289302171
16.902752 769.15259 1270.2567 4289301917
19.31743 769.15259 1270.2567 4289302171
21.732111 769.15259 1270.2567 4289367965
24.14679 769.15259 1270.2567 4289171363
-19.244038 775.58368 1269.1392 4287987325
-16.838531 775.58368 1269.1392 4287987325
-13.230275 775.58368 1269.1392 4287460974
-7.2165136 775.58368 1269.1392 4287593071
-4.8110094 775.58368 1269.1392 4287986600
-2.4055047 775.58368 1269.1392 4289039545
14.433027 775.58368 1269.1392 4289236645
16.838531 775.58368 1269.1392 4289170851
19.244038 775.58368 1269.1392 4289237149
21.649542 775.58368 1269.1392 4289237149
-21.649542 777.42273 1270.6898 4289037435
-19.244038 777.42273 1270.6898 4288316819
-16.838531 777.42273 1270.6898 4287067008
-13.230275 777.42273 1270.6898 4286013037
-9.6220188 777.42273 1270.6898 4285420619
-7.2165136 777.42273 1270.6898 4287460458
-4.8110094 777.42273 1270.6898 4287724189
-2.4055047 777.42273 1270.6898 4289302964
0 777.42273 1270.6898 4289499803
13.230275 777.42273 1270.6898 4289368222
16.838531 777.42273 1270.6898 4289237149
19.244038 777.42273 1270.6898 4289171353
21.649542 777.42273 1270.6898 4289237147
-19.170643 784.73486 1270.3149 4286803834
-16.774311 784.73486 1270.3149 4287461763
-14.377981 783.81885 1269.5426 4287067536
-10.783486 783.81885 1269.5426 4285422940
-7.1889906 783.81885 1269.5426 4286607700
-4.7926607 784.73486 1270.3149 4287460781
-2.3963304 783.81885 1269.5426 4289434299
0 783.81885 1269.5426 4289237398
-21.484404 793.83698 1271.4495 4284765807
-19.097248 793.83698 1271.4495 4284499755
-16.710093 792.01196 1269.9108 4285682521
-4.774312 792.01196 1269.9108 4286539910
-2.387156 792.01196 1269.9108 4289500596
2.387156 793.83698 1271.4495 4288776094
4.774312 793.83698 1271.4495 4288971923
-16.658716 797.80835 1269.5659 4285749322
-14.278899 797.80835 1269.5659 4286141525
-4.7596331 797.80835 1269.5659 4286736506
-16.658716 799.62775 1271.1001 4285616978
-14.278899 799.62775 1271.1001 4285484367
-4.7596331 799.62775 1271.1001 4286469988
2.3798165 799.62775 1271.1001 4291143869
-21.335779 805.92847 1269.8724 4285484408
-18.965137 805.92847 1269.8724 4285223771
-16.594496 805.92847 1269.8724 4285026392
-14.223853 805.92847 1269.8724 4285614670
-9.4825687 805.92847 1269.8724 4285680211
-7.1119266 805.92847 1269.8724 4285548625
0 805.92847 1269.8724 4292918735
-26.077065 807.74084 1271.4006 4283186252
-22.521101 807.74084 1271.4006 4284235105
-18.965137 807.74084 1271.4006 4285025111
-16.594496 807.74084 1271.4006 4286209128
-14.223853 807.74084 1271.4006 4285681488
-9.4825687 807.74084 1271.4006 4285614418
-7.1119266 807.74084 1271.4006 4286140762
2.3706422 807.74084 1271.4006 4294235599
4.7412844 807.74084 1271.4006 4293645275
-34.241287 815.81189 1271.6658 4283976545
-30.699083 815.81189 1271.6658 4283584088
-28.337614 814.90918 1270.9047 4283583820
-25.976147 814.00653 1270.1436 4282793532
-22.827522 814.60834 1270.651 4282986571
-18.891743 814.00653 1270.1436 4283707745
-16.530275 814.00653 1270.1436 4285484156
-14.168807 814.00653 1270.1436 4285877840
-10.233027 814.60834 1270.651 4286272860
-7.0844035 814.00653 1270.1436 4285746772
2.3614678 814.00653 1270.1436 4293644260
4.7229357 814.00653 1270.1436 4293316573
7.0844035 814.00653 1270.1436 4293053402
11.80734 815.81189 1271.6658 4292657626
-30.579817 822.94171 1271.1372 4283648081
-28.227524 822.94171 1271.1372 4283517005
-25.875229 822.94171 1271.1372 4282727488
-22.738838 822.64203 1270.8845 4282923074
-9.409174 822.94171 1271.1372 4284368212
2.3522935 822.04254 1270.3792 4293510634
4.704587 822.04254 1270.3792 4292922849
11.761468 822.04254 1270.3792 4292330708
14.113762 822.04254 1270.3792 4292265937
16.466055 823.84088 1271.8954 4292528593
-30.46055 830.03638 1270.5792 4283912510
-28.117432 830.03638 1270.5792 4283582540
-25.774311 828.245 1269.0688 4282859588
-23.431192 828.245 1269.0688 4282923596
-9.3724775 828.245 1269.0688 4284238166
2.3431194 828.245 1269.0688 4292658911
4.6862388 829.14069 1269.824 4292594652
7.0293579 828.245 1269.0688 4292462813
10.544037 828.245 1269.0688 4292198872
14.058716 828.245 1269.0688 4291936454
16.401834 829.14069 1269.824 4292462795
-30.365137 835.68689 1270.1115 4282530103
-28.029358 835.68689 1270.1115 4282857286
-25.693579 835.68689 1270.1115 4282791493
-23.357798 835.68689 1270.1115 4283249227
2.3357799 835.68689 1270.1115 4289832388
4.6715598 835.68689 1270.1115 4291935670
7.0073395 835.68689 1270.1115 4292593857
10.511009 835.68689 1270.1115 4292264669
14.014679 835.68689 1270.1115 4292330449
-35.036697 837.47266 1271.6172 4282725690
-31.533028 837.47266 1271.6172 4282593346
-28.029358 837.47266 1271.6172 4282527553
-25.693579 837.47266 1271.6172 4282527553
2.3357799 837.47266 1271.6172 4289306294
4.6715598 837.47266 1271.6172 4291146954
7.0073395 837.47266 1271.6172 4292594400
10.511009 837.47266 1271.6172 4291804886
14.014679 837.47266 1271.6172 4292199123
16.350458 837.47266 1271.6172 4291935952
-31.409174 845.38654 1271.7498 4290421418
-27.919266 844.49719 1270.9999 4289501347
-25.592661 844.49719 1270.9999 4289435554
-23.266054 844.49719 1270.9999 4289304221
-19.776146 844.49719 1270.9999 4288646548
-16.286238 844.49719 1270.9999 4287660168
-13.959633 844.49719 1270.9999 4287460998
-10.469725 844.49713 1270.9999 4287461774
-6.9798164 844.49719 1270.9999 4286541448
-4.6532111 844.49719 1270.9999 4285489262
-2.3266056 844.49719 1270.9999 4284502367
0 844.49719 1270.9999 4284765002
-34.088074 755.64972 1273.2598 4282987604
-31.653212 755.64972 1273.2598 4282921811
-29.218349 755.64972 1273.2598 4282792287
-25.566055 755.64972 1273.2598 4284371024
-21.913761 755.64972 1273.2598 4286476361
-19.478899 755.64972 1273.2598 4286410639
-17.044037 755.64972 1273.2598 4286213003
-13.391743 755.64972 1273.2598 4284042341
-9.7394495 755.64972 1273.2598 4283445339
0 755.64972 1273.2598 4288969884
13.391743 755.64972 1273.2598 4289039264
-34.088074 757.51123 1274.8293 4283445073
-31.653212 757.51123 1274.8293 4284103003
-29.218349 757.51123 1274.8293 4284041546
-25.566055 757.51123 1274.8293 4283251504
-13.391743 757.51123 1274.8293 4284702063
-9.7394495 757.51123 1274.8293 4285419376
2.4348624 757.51123 1274.8293 4289430939
4.8697248 757.51123 1274.8293 4289236374
7.3045874 757.51123 1274.8293 4289236374
9.7394495 757.51123 1274.8293 4289039515
17.044037 757.51123 1274.8293 4289170851
-29.086239 764.54633 1272.913 4286807189
-25.450459 764.54633 1272.913 4284110435
-12.119267 764.54633 1272.913 4280625216
-9.6954126 764.54633 1272.913 4283710266
-7.2715597 764.54633 1272.913 4288249983
-4.8477063 764.54633 1272.913 4289236643
-2.4238532 764.54633 1272.913 4289236643
7.2715597 764.54633 1272.913 4289301388
9.6954126 764.54633 1272.913 4289498779
-29.086239 766.39941 1274.4755 4287332506
-25.450459 766.39941 1274.4755 4284307047
-21.814678 766.39941 1274.4755 4281741882
-9.6954126 766.39941 1274.4755 4283644751
-4.8477063 766.39941 1274.4755 4288908949
-2.4238532 766.39941 1274.4755 4289171864
1.2119266 766.39941 1274.4755 4289367726
7.2715597 766.39941 1274.4755 4289499530
-25.35413 772.8446 1273.3698 4283844168
-21.732111 772.8446 1273.3698 4285883711
-9.6587152 772.8446 1273.3698 4286343004
1.2073394 772.8446 1273.3698 4289302419
4.8293576 772.8446 1273.3698 4289170581
7.2440367 772.8446 1273.3698 4289170581
9.6587152 772.8446 1273.3698 4289236124
12.073395 772.8446 1273.3698 4289367711
-28.976147 774.69067 1274.9263 4283449450
-25.35413 774.69067 1274.9263 4284039505
2.4146788 774.69067 1274.9263 4289434010
4.8293576 774.69067 1274.9263 4289236374
7.2440367 774.69067 1274.9263 4289170581
9.6587152 774.69067 1274.9263 4289236122
-24.055046 779.26178 1272.2404 4285684086
-21.649542 779.26178 1272.2404 4288381599
-19.244038 779.26178 1272.2404 4287725413
13.230275 779.26178 1272.2404 4289368219
21.649542 779.26178 1272.2404 4289039765
-28.866055 781.10083 1273.791 4282457914
-25.257797 781.10083 1273.791 4285617776
-21.649542 781.10083 1273.791 4286935434
2.4055047 781.10083 1273.791 4289237398
7.2165136 781.10083 1273.791 4289237396
9.6220188 781.10083 1273.791 4289171353
13.230275 781.10083 1273.791 4289302938
21.649542 781.10083 1273.791 4289236374
24.055046 781.10083 1273.791 4289237147
-21.566973 787.48291 1272.6321 4285617248
-19.170643 787.48291 1272.6321 4285483586
2.3963304 787.48291 1272.6321 4289303707
21.566973 787.48291 1272.6321 4289499803
-22.765137 789.31494 1274.1768 4285618781
-19.170643 789.31494 1274.1768 4284893261
2.3963304 789.31494 1274.1768 4289698213
4.7926607 789.31494 1274.1768 4289499553
7.1889906 789.31494 1274.1768 4289630882
9.5853214 789.31494 1274.1768 4289630880
14.377981 789.31494 1274.1768 4289499553
19.170643 789.31494 1274.1768 4289631134
21.566973 789.31494 1274.1768 4289631134
-21.484404 796.57446 1273.7577 4285749129
-19.097248 796.57446 1273.7577 4285946450
2.387156 795.66199 1272.9883 4289302169
4.774312 796.57446 1273.7577 4290091691
7.161468 797.48694 1274.5271 4291145153
9.548624 797.48694 1274.5271 4291408052
22.677982 796.57446 1273.7577 4292329927
-26.177982 803.26648 1274.1682 4283186248
-23.798164 803.26648 1274.1682 4283839327
-19.038532 801.44714 1272.6342 4285420119
-16.658716 801.44714 1272.6342 4285091154
2.3798165 802.35681 1273.4011 4293511366
4.7596331 803.26648 1274.1682 4293580000
7.1394496 803.26648 1274.1682 4293250778
9.5192661 803.26648 1274.1682 4292856272
22.608257 802.35681 1273.4012 4293053918
26.177982 803.26648 1274.1682 4292658911
-33.188992 809.55322 1272.9287 4283912025
-28.447706 809.55322 1272.9287 4283516749
-22.521101 809.55322 1272.9287 4283641169
-18.965137 809.55322 1272.9287 4283773011
7.1119266 809.55322 1272.9287 4292988122
9.4825687 809.55322 1272.9287 4292791263
-45.042202 811.3656 1274.4569 4283648848
-42.671558 811.3656 1274.4569 4284306262
-40.300919 811.3656 1274.4569 4284569691
-37.930275 811.3656 1274.4569 4284502388
-34.374313 811.3656 1274.4569 4284042852
-30.818348 811.3656 1274.4569 4283846232
11.853211 811.3656 1274.4569 4292725218
14.223853 811.3656 1274.4569 4292725718
-47.229359 817.61731 1273.188 4283647592
-44.867889 817.61731 1273.188 4284239986
-40.144955 817.61731 1273.188 4284042843
-37.783485 817.61731 1273.188 4283910249
-34.241287 817.61731 1273.188 4283713630
-30.699083 817.61731 1273.188 4283648598
-9.4458714 817.61731 1273.188 4286077027
11.80734 817.61731 1273.188 4292790750
14.168807 817.61731 1273.188 4292659409
-47.229359 819.42261 1274.7102 4284109399
-43.687157 819.42261 1274.7102 4284109402
-40.144955 819.42261 1274.7102 4283912027
-37.783485 819.42261 1274.7102 4283647583
-34.241287 819.42261 1274.7102 4283713626
16.530275 819.42261 1274.7102 4292529108
-37.636696 827.43756 1274.9281 4283450722
-35.284405 826.53839 1274.1699 4284173924
-32.14801 826.23871 1273.9171 4283911754
-28.227524 825.63922 1273.4117 4283714641
18.818348 827.43756 1274.9281 4292132565
-37.48991 833.61902 1273.6 4283121739
-35.14679 833.61902 1273.6 4283977048
-32.022629 832.4248 1272.5931 4283780683
-28.117432 831.8277 1272.0896 4283186250
16.401834 832.72339 1272.8447 4292330446
18.744955 832.72339 1272.8447 4292133074
21.088074 833.61902 1273.6 4292396503
-49.051376 839.25836 1273.1228 4284694865
-46.715595 839.25836 1273.1228 4284496970
-44.379818 839.25836 1273.1228 4284365128
-37.372478 839.25836 1273.1228 4283905860
-35.036697 839.25836 1273.1228 4283971910
-31.533028 839.25836 1273.1228 4284236881
-28.029358 839.25836 1273.1228 4284501597
2.3357799 839.25836 1273.1228 4288977061
4.6715598 839.25836 1273.1228 4291014602
7.0073395 839.25836 1273.1228 4292922599
11.678899 839.25836 1273.1228 4292198858
14.014679 839.25836 1273.1228 4292066768
16.350458 839.25836 1273.1228 4291738059
18.686239 839.25836 1273.1228 4291804116
22.189907 839.25836 1273.1228 4291935955
-37.372478 841.04407 1274.6284 4289102476
-35.036697 841.04407 1274.6284 4289628820
-31.533028 841.04407 1274.6284 4289368478
2.3357799 841.04407 1274.6284 4289040780
4.6715598 841.04407 1274.6284 4290290109
7.0073395 841.04407 1274.6284 4292395742
10.511009 841.04407 1274.6284 4291935436
14.014679 841.04407 1274.6284 4291606989
16.350458 841.04407 1274.6284 4291804368
18.686239 841.04407 1274.6284 4291870161
22.189907 841.04407 1274.6284 4291804366
25.693579 841.04407 1274.6284 4292199121
28.029358 841.04407 1274.6284 4291475916
31.533028 841.04407 1274.6284 4291607244
-34.899082 847.16522 1273.2495 4291801024
-31.409174 847.16522 1273.2495 4291474621
-27.919266 847.16522 1273.2495 4291540163
-25.592661 847.16522 1273.2495 4291540163
-23.266054 847.16522 1273.2495 4291344067
-19.38838 847.75812 1273.7494 4291146428
-16.286238 848.05457 1273.9994 4291014840
-13.959633 848.05457 1273.9994 4290883251
-10.469725 847.16522 1273.2495 4290225586
-6.9798164 848.05457 1273.9994 4290225574
-4.6532111 848.05457 1273.9994 4289041067
-2.3266056 848.05457 1273.9994 4287001484
0 847.16522 1273.2495 4285096035
-36.522934 760.30341 1277.1836 4282924375
-34.088074 760.30341 1277.1836 4283780188
-31.653212 760.30341 1277.1836 4285359220
-12.174312 759.37268 1276.3989 4283979096
1.6232415 760.61359 1277.4452 4289170339
4.8697248 760.30341 1277.1836 4289104527
-36.3578 770.10547 1277.6003 4285357951
-33.933945 770.10547 1277.6003 4284173929
-31.510092 770.10547 1277.6003 4284963189
-29.086239 769.17896 1276.8191 4285490580
-25.450459 768.25244 1276.038 4283388005
2.4238532 768.25244 1276.038 4289367715
4.8477063 768.25244 1276.038 4289302671
-31.390825 776.53674 1276.4828 4282528086
-28.976147 776.53674 1276.4828 4282919230
-26.561468 776.53674 1276.4828 4283708747
2.4146788 776.53674 1276.4828 4289434010
4.8293576 776.53674 1276.4828 4289368214
7.2440367 776.53674 1276.4828 4289236628
9.6587152 776.53674 1276.4828 4289302171
16.902752 776.53674 1276.4828 4289566109
19.31743 776.53674 1276.4828 4289039765
-28.866055 782.93982 1275.3417 4282460241
-25.257797 782.93982 1275.3417 4285881461
-21.649542 782.93982 1275.3417 4286868596
2.4055047 782.93982 1275.3417 4289302923
4.8110094 782.93982 1275.3417 4289302923
7.2165136 782.93982 1275.3417 4289368716
9.6220188 782.93982 1275.3417 4289302169
13.230275 782.93982 1275.3417 4289367962
16.838531 782.93982 1275.3417 4289499549
19.244038 782.93982 1275.3417 4289499803
21.649542 782.93982 1275.3417 4289631132
24.055046 782.93982 1275.3417 4289631132
-28.866055 784.77881 1276.8922 4282265139
-25.257797 784.77881 1276.8922 4285750373
4.8110094 784.77881 1276.8922 4289434008
7.2165136 784.77881 1276.8922 4289499801
9.6220188 784.77881 1276.8922 4289434269
13.230275 784.77881 1276.8922 4289434014
16.838531 784.77881 1276.8922 4289499551
19.244038 784.77881 1276.8922 4289631132
-23.963303 791.14691 1275.7214 4284963443
7.1889906 791.14691 1275.7214 4289432474
9.5853214 791.14691 1275.7214 4289302169
14.377981 791.14691 1275.7214 4289103762
22.765137 791.14691 1275.7214 4289762189
-23.963303 792.97894 1277.2662 4284565116
7.1889906 792.97894 1277.2662 4289169816
9.5853214 792.97894 1277.2662 4289235861
14.377981 792.97894 1277.2662 4289563794
19.170643 792.97894 1277.2662 4289631652
-22.677982 799.31195 1276.0659 4284826994
4.774312 799.31195 1276.0659 4292591306
7.161468 799.31195 1276.0659 4292393927
10.742202 799.31195 1276.0659 4292855225
14.322936 799.31195 1276.0659 4293186005
19.097248 799.31195 1276.0659 4293119962
11.93578 801.13696 1277.6047 4293053908
14.322936 801.13696 1277.6047 4293054167
16.710093 801.13696 1277.6047 4292857045
19.097248 801.13696 1277.6047 4292659161
-40.456882 806.90527 1277.2363 4284372826
-38.077065 806.90527 1277.2363 4284240233
-34.507339 805.99561 1276.4692 4283977562
-30.937614 806.90527 1277.2363 4283648596
-28.557798 805.08594 1275.7023 4283252046
7.1394496 805.08594 1275.7023 4293645275
11.105809 805.69238 1276.2135 4292791004
14.278899 806.90527 1277.2363 4293055451
16.658716 806.90527 1277.2363 4292989657
19.038532 806.90527 1277.2363 4292593116
22.608257 805.99561 1276.4692 4292724191
26.177982 805.99561 1276.4692 4292789730
-45.042202 813.17798 1275.9851 4284369494
-42.671558 814.08417 1276.7491 4284370780
-40.300919 813.17798 1275.9851 4284764767
-37.930275 813.17798 1275.9851 4284566638
14.223853 813.17798 1275.9851 4292330449
16.594496 814.08417 1276.7491 4292790997
18.965137 814.08417 1276.7491 4292396763
21.335779 814.08417 1276.7491 4292265177
-43.687157 821.22803 1276.2325 4284306265
-40.144955 821.22803 1276.2325 4284042841
-37.783485 821.22803 1276.2325 4283514980
-34.241287 821.22803 1276.2325 4283844957
18.891743 821.22803 1276.2325 4292396757
-47.229359 823.03333 1277.7548 4283845713
-43.687157 823.03333 1277.7548 4284503394
-40.144955 823.03333 1277.7548 4283976800
-37.783485 823.03333 1277.7548 4283252046
18.891743 823.03333 1277.7548 4291738059
-43.517433 829.23596 1276.4443 4284174949
-39.988991 829.23596 1276.4443 4283056988
-37.636696 829.23596 1276.4443 4283122252
-35.284405 829.23596 1276.4443 4284109147
22.34679 829.23596 1276.4443 4292199129
-43.517433 831.0343 1277.9607 4283977059
-39.988991 831.0343 1277.9607 4282924626
23.522936 831.0343 1277.9607 4292198869
-37.48991 835.4104 1275.1105 4281935917
18.744955 835.4104 1275.1105 4292000975
22.259632 835.4104 1275.1105 4291935696
-42.176147 837.20172 1276.6208 4284234312
-39.833027 837.20172 1276.6208 4284168519
25.774311 837.20172 1276.6208 4292199123
28.117432 837.20172 1276.6208 4291870157
31.632111 837.20172 1276.6208 4291804625
-39.708256 842.82983 1276.1342 4290813584
-37.372478 842.82983 1276.1342 4290682787
-35.036697 842.82983 1276.1342 4290748836
2.3357799 842.82983 1276.1342 4288121212
4.6715598 842.82983 1276.1342 4289304750
7.0073395 842.82983 1276.1342 4292265435
10.511009 842.82983 1276.1342 4292067524
14.014679 842.82983 1276.1342 4292001227
16.350458 842.82983 1276.1342 4292132813
18.686239 842.82983 1276.1342 4291804364
22.189907 842.82983 1276.1342 4291869899
25.693579 842.82983 1276.1342 4292330195
28.029358 842.82983 1276.1342 4291672014
31.533028 842.82983 1276.1342 4291737804
-39.708256 844.61554 1277.6399 4291339956
-37.372478 844.61554 1277.6399 4291274424
2.3357799 844.61554 1277.6399 4286674810
4.6715598 844.61554 1277.6399 4288187036
7.0073395 844.61554 1277.6399 4292068567
10.511009 844.61554 1277.6399 4292002249
14.014679 844.61554 1277.6399 4292001999
16.350458 844.61554 1277.6399 4292001999
18.686239 844.61554 1277.6399 4291278792
22.189907 844.61554 1277.6399 4291673033
25.693579 844.61554 1277.6399 4291672262
28.029358 844.61554 1277.6399 4291210428
31.533028 844.61554 1277.6399 4291671491
35.036697 844.61554 1277.6399 4291672003
-39.104588 754.737 1279.0303 4284106337
-36.660549 754.737 1279.0303 4282921807
-40.326607 756.60547 1280.6058 4283648088
-41.392662 763.09564 1279.538 4284568937
-37.740364 763.09564 1279.538 4283977318
-34.088074 763.09564 1279.538 4284109149
-31.653212 763.09564 1279.538 4287464592
4.8697248 763.09564 1279.538 4289302408
-36.3578 772.88513 1279.9441 4283645018
-33.933945 772.88513 1279.9441 4283118928
-31.510092 771.95856 1279.1628 4283578696
-37.427521 778.38275 1278.0393 4284044889
-33.805504 778.38275 1278.0393 4283320671
-31.390825 778.38275 1278.0393 4281807176
4.8293576 778.38275 1278.0393 4289237396
16.902752 778.38275 1278.0393 4289368730
19.31743 778.38275 1278.0393 4288907666
-41.049541 780.22882 1279.5958 4285096031
-37.427521 780.22882 1279.5958 4284504650
-33.805504 780.22882 1279.5958 4283188829
-31.390825 780.22882 1279.5958 4281478467
-36.082569 787.53735 1279.2183 4284698954
-28.866055 787.53735 1279.2183 4282002994
-26.46055 787.53735 1279.2183 4284897886
12.027523 787.53735 1279.2183 4289433500
16.838531 787.53735 1279.2183 4289235608
19.244038 788.45691 1279.9935 4289302408
-26.359632 794.81097 1278.8109 4283447110
-23.963303 794.81097 1278.8109 4284103787
11.981651 794.81097 1278.8109 4291999932
14.377981 794.81097 1278.8109 4291869379
16.774311 794.81097 1278.8109 4292527310
19.170643 794.81097 1278.8109 4292528075
-46.728439 796.64294 1280.3556 4284437599
-28.755962 796.64294 1280.3556 4282724936
-26.359632 796.64294 1280.3556 4283316816
16.774311 796.64294 1280.3556 4293186005
-35.807339 802.96198 1279.1434 4284109140
-31.033028 802.96198 1279.1434 4282925631
14.322936 802.96198 1279.1434 4293120210
16.710093 802.96198 1279.1434 4293120210
19.097248 802.96198 1279.1434 4292593116
16.658716 808.72467 1278.7704 4292725718
19.038532 808.72467 1278.7704 4292527323
22.608257 808.72467 1278.7704 4292658913
26.177982 808.72467 1278.7704 4292987368
23.798164 810.54407 1280.3044 4292659171
26.177982 810.54407 1280.3044 4292659171
18.965137 816.80273 1279.0414 4292396505
22.125994 818.01099 1280.0602 4292330711
-47.229359 824.83875 1279.277 4284108636
-43.687157 824.83875 1279.277 4284634727
-40.144955 824.83875 1279.277 4284042593
21.25321 824.83875 1279.277 4292198358
-47.229359 826.6441 1280.7992 4284305758
-47.045872 832.83264 1279.4771 4283714141
-43.517433 832.83264 1279.4771 4283253330
-39.988991 832.83264 1279.4771 4281740088
25.875229 832.83264 1279.4771 4292067540
28.227524 832.83264 1279.4771 4291739091
-49.205505 838.99304 1278.1312 4288110441
-46.862385 838.99304 1278.1312 4288178044
-42.176147 838.99304 1278.1312 4288839810
-39.833027 838.99304 1278.1312 4289036933
-49.205505 840.78436 1279.6416 4289691283
-46.862385 840.78436 1279.6416 4290614675
-43.347706 840.78436 1279.6416 4290615440
-37.372478 846.40125 1279.1455 4290748864
-35.036697 847.29413 1279.8983 4291473098
-31.922323 846.99652 1279.6473 4291407545
-28.029358 846.40125 1279.1455 4291539397
-25.693579 846.40125 1279.1455 4291670983
-22.189907 847.29413 1279.8983 4290683821
-18.686239 848.18701 1280.6511 4290487209
-16.350458 848.18701 1280.6511 4290421416
-14.014679 848.18701 1280.6511 4290947760
-10.511009 847.29413 1279.8983 4291145904
-7.0073395 848.18701 1280.6511 4291080116
-4.6715598 848.18701 1280.6511 4291145157
-2.3357799 848.18701 1280.6511 4290816192
0 847.29413 1279.8983 4288648100
7.0073395 846.40125 1279.1455 4292462548
10.511009 846.40125 1279.1455 4292199115
14.014679 846.40125 1279.1455 4292001999
16.350458 846.40125 1279.1455 4292199121
18.686239 846.40125 1279.1455 4292262866
22.579203 846.99652 1279.6473 4292000455
25.693579 847.29413 1279.8983 4292066500
28.029358 847.29413 1279.8983 4291737541
31.533026 847.29413 1279.8983 4291672004
35.036697 847.29413 1279.8983 4291737540
-43.992661 758.474 1282.1813 4284503907
-40.326607 758.474 1282.1813 4283779934
-43.992661 760.34247 1283.7567 4284568937
-43.827522 764.95709 1281.1075 4284437095
-41.392662 764.95709 1281.1075 4284963695
-37.740364 764.95709 1281.1075 4284897398
-34.088074 764.95709 1281.1075 4283451996
-31.653212 764.95709 1281.1075 4285557629
-43.827522 766.8186 1282.6771 4284830056
-41.392662 766.8186 1282.6771 4285422449
-38.957798 766.8186 1282.6771 4285357951
-46.053211 775.66467 1282.2877 4284569187
-43.629356 775.66467 1282.2877 4284504155
-41.205505 775.66467 1282.2877 4284570204
-46.053211 777.5177 1283.8501 4284830056
-43.629356 777.5177 1283.8501 4284569687
-41.049541 782.07483 1281.1523 4285225819
-37.427521 782.07483 1281.1523 4284897354
-33.805504 782.07483 1281.1523 4283057744
-31.390825 782.07483 1281.1523 4281215540
-43.464222 783.9209 1282.709 4284896855
-41.049541 783.9209 1282.709 4284896855
-38.634861 783.9209 1282.709 4284766020
-33.805504 783.9209 1282.709 4283321171
-31.390825 783.9209 1282.709 4281807932
-37.285324 790.2959 1281.5442 4283779169
-31.271559 790.2959 1281.5442 4282530624
-28.866055 790.2959 1281.5442 4282725711
-26.46055 790.2959 1281.5442 4283252055
12.027523 790.2959 1281.5442 4289235861
16.838531 790.2959 1281.5442 4289695380
-45.704586 792.13495 1283.0947 4284503644
-43.299084 792.13495 1283.0947 4283189081
-40.893578 792.13495 1283.0947 4282399565
-37.285324 792.13495 1283.0947 4283187529
-33.677063 792.13495 1283.0947 4283384145
-31.271559 792.13495 1283.0947 4282726215
-28.866055 792.13495 1283.0947 4283381317
-47.926605 798.47498 1281.9003 4285028189
-38.341286 800.30701 1283.4451 4284174933
-34.746788 798.47498 1281.9003 4283714900
-31.152294 798.47498 1281.9003 4282399815
-28.755962 798.47498 1281.9003 4282923333
23.798164 812.36346 1281.8385 4292592864
26.177982 812.36346 1281.8385 4292790500
23.798164 814.18286 1283.3726 4292592603
26.177982 814.18286 1283.3726 4292658396
28.557798 814.18286 1283.3726 4292592601
22.521101 820.42749 1282.0977 4292264408
23.706423 822.23987 1283.6259 4292396005
25.976147 828.44946 1282.3214 4292198869
28.337614 828.44946 1282.3214 4292067542
-44.693577 836.42932 1282.5096 4289230732
-49.205505 842.57568 1281.1521 4291336844
-46.862385 842.57568 1281.1521 4291799485
-43.347706 842.57568 1281.1521 4291602617
-39.833027 844.36707 1282.6625 4290551484
2.3431194 844.36707 1282.6625 4286543756
4.6862388 844.36707 1282.6625 4288646554
-14.014679 849.97272 1282.1569 4290816426
-11.678899 849.97272 1282.1569 4291276977
28.029358 849.97272 1282.1569 4292067270
31.533028 849.97272 1282.1569 4292001482
37.372478 850.8656 1282.9097 4291538100
-43.827522 769.61078 1285.0314 4284239448
-41.392662 769.61078 1285.0314 4283449932
-38.957798 769.61078 1285.0314 4283710811
-46.053211 779.37079 1285.4126 4285027941
-43.629356 779.37079 1285.4126 4285028441
-46.053211 781.22388 1286.9751 4285027939
-41.049541 785.76697 1284.2655 4283253581
-38.634861 785.76697 1284.2655 4283973702
-33.805504 785.76697 1284.2655 4283846232
-31.390825 785.76697 1284.2655 4282004028
-45.878899 787.61298 1285.822 4284569185
-43.464222 787.61298 1285.822 4283451494
-41.049541 787.61298 1285.822 4283056992
-33.805504 787.61298 1285.822 4283583055
-43.299084 793.974 1284.6454 4283648096
-40.893578 793.974 1284.6454 4282858580
-37.285324 793.974 1284.6454 4283318334
-33.677063 793.974 1284.6454 4283319633
-31.271559 793.974 1284.6454 4282332738
-45.704586 795.81299 1286.196 4284765016
-43.299084 795.81299 1286.196 4284830810
-40.893578 795.81299 1286.196 4284765016
-38.488075 795.81299 1286.196 4283977297
-45.530273 802.13904 1284.9897 4283715147
-43.133945 802.13904 1284.9897 4284241239
26.177982 816.91199 1285.6736 4292461276
26.077065 824.05225 1285.1539 4292133597
-51.750458 840.026 1285.5424 4290218363
-37.48991 847.05408 1284.9281 4290420919
-35.14679 847.94971 1285.6833 4291407813
-30.46055 846.15839 1284.1729 4289434273
-28.117432 846.15839 1284.1729 4289692817
-25.774311 847.05408 1284.9281 4289562512
-22.259632 847.94971 1285.6833 4289764002
-18.744955 847.94971 1285.6833 4289962402
-16.401834 847.94971 1285.6833 4289830560
-9.3724775 847.94971 1285.6833 4290752168
-7.0293579 847.94971 1285.6833 4290488997
-4.6862388 847.94971 1285.6833 4290554814
-2.3431194 847.94971 1285.6833 4290752194
1.1715597 847.05408 1284.9281 4289831082
4.6862388 846.15839 1284.1729 4289434523
7.0293579 846.15839 1284.1729 4291934657
10.544037 847.05408 1284.9281 4288975814
14.058716 847.05408 1284.9281 4288054159
16.401834 847.05408 1284.9281 4288909468
18.744955 847.05408 1284.9281 4290946440
21.869112 847.3526 1285.1798 4291210387
25.774311 847.94971 1285.6833 4291869866
35.14679 847.94971 1285.6833 4291672264
-46.053211 783.0769 1288.5375 4284962398
-43.629356 783.0769 1288.5375 4284042841
-45.704586 797.65204 1287.7466 4284372559
-43.299084 797.65204 1287.7466 4284503894
-40.893578 797.65204 1287.7466 4284635480
26.177982 819.64099 1287.9747 4292724714
-54.102753 841.82434 1287.0586 4290156726
-51.750458 841.82434 1287.0586 4289892451
-49.398167 841.82434 1287.0586 4290550637
-47.045872 841.82434 1287.0586 4291538866
-43.517433 841.82434 1287.0586 4291144121
-55.2789 843.62268 1288.575 4290750674
-51.750458 843.62268 1288.575 4290159002
-42.341286 843.62268 1288.575 4289303214
-39.988991 843.62268 1288.575 4289829558
-14.058716 849.74103 1287.1937 4290815420
-11.715596 849.74103 1287.1937 4290552504
0 849.74103 1287.1937 4290948546
16.401834 849.74103 1287.1937 4281609535
22.259632 849.74103 1287.1937 4282265105
25.774311 849.74103 1287.1937 4285158185
28.117432 849.74103 1287.1937 4286537567
31.632109 850.63672 1287.949 4287262312
35.14679 849.74103 1287.1937 4289038733
-49.590824 841.08698 1292.9771 4290553760
-47.229359 841.08698 1292.9771 4290883766
-44.867889 841.08698 1292.9771 4290883766
-58.807339 845.42102 1290.0913 4291472041
-55.2789 845.42102 1290.0913 4291013584
-51.750458 845.42102 1290.0913 4290815672
-49.398167 845.42102 1290.0913 4291079100
-47.045872 845.42102 1290.0913 4290948525
-43.517433 845.42102 1290.0913 4290553782
-39.988991 845.42102 1290.0913 4289961660
-31.755962 845.42102 1290.0913 4290026408
-28.227524 845.42102 1290.0913 4289234829
2.3522935 845.42102 1290.0913 4289896357
4.704587 845.42102 1290.0913 4289961898
7.056881 845.42102 1290.0913 4291146172
-51.750458 847.21942 1291.6075 4290354610
-37.636696 847.21942 1291.6075 4290749879
-35.284405 847.21942 1291.6075 4290815672
-28.227524 847.21942 1291.6075 4290815670
-25.875229 847.21942 1291.6075 4290815670
-22.34679 847.21942 1291.6075 4288977054
-18.818348 847.21942 1291.6075 4288184969
-16.466055 847.21942 1291.6075 4290224553
-9.409174 847.21942 1291.6075 4289568671
-7.056881 847.21942 1291.6075 4289173913
-4.704587 847.21942 1291.6075 4288056454
-2.3522935 847.21942 1291.6075 4290293160
7.056881 847.21942 1291.6075 4290488769
10.585321 847.21942 1291.6075 4282799996
14.113762 847.21942 1291.6075 4280688433
18.818348 847.21942 1291.6075 4281872160
-44.693577 850.8161 1294.6403 4291404477
-37.636696 849.01776 1293.1239 4290486707
-35.284405 849.01776 1293.1239 4290552756
0 849.01776 1293.1239 4290948292
22.34679 849.01776 1293.1239 4282919490
25.875229 849.01776 1293.1239 4283774022
28.227524 849.01776 1293.1239 4286076488
32.93211 850.8161 1294.6403 4286019728
35.284405 849.01776 1293.1239 4287724657
37.636696 849.01776 1293.1239 4289239636
-59.036697 844.69769 1296.0215 4291732917
-55.494495 844.69769 1296.0215 4291013573
-49.590824 844.69769 1296.0215 4290551732
-47.229359 844.69769 1296.0215 4290158764
-43.687157 844.69769 1296.0215 4290093489
-40.144955 844.69769 1296.0215 4290160056
-33.060551 844.69769 1296.0215 4290618046
-30.699083 844.69769 1296.0215 4290618046
4.7229357 844.69769 1296.0215 4290488769
-59.036697 846.50305 1297.5438 4291666381
-55.494495 846.50305 1297.5438 4291077300
-51.952293 846.50305 1297.5438 4290747319
-49.590824 846.50305 1297.5438 4290878905
-47.229359 846.50305 1297.5438 4290945711
-43.687157 846.50305 1297.5438 4290749617
-40.144955 846.50305 1297.5438 4290619315
-33.060551 846.50305 1297.5438 4290815674
-30.699083 846.50305 1297.5438 4290947260
-28.337614 846.50305 1297.5438 4291012801
-25.976147 846.50305 1297.5438 4291078851
-22.433945 846.50305 1297.5438 4289501095
-18.891743 846.50305 1297.5438 4289040310
-16.530275 846.50305 1297.5438 4290487756
-14.168807 846.50305 1297.5438 4290750410
-10.626606 846.50305 1297.5438 4290093748
-7.0844035 846.50305 1297.5438 4289568671
-4.7229357 846.50305 1297.5438 4289108107
-2.3614678 846.50305 1297.5438 4290621602
4.7229357 846.50305 1297.5438 4290684606
7.0844035 846.50305 1297.5438 4289829297
10.626606 846.50305 1297.5438 4285293385
14.168807 846.50305 1297.5438 4281542221
16.530275 846.50305 1297.5438 4282397530
18.891743 846.50305 1297.5438 4283446354
2.3706422 842.17603 1300.4354 4290816703
2.3706422 843.9884 1301.9636 4290882499
-59.036697 848.30841 1299.066 4290612900
-56.675228 848.30841 1299.066 4290151586
-51.952293 848.30841 1299.066 4290941348
-49.590824 848.30841 1299.066 4291336106
-47.229359 848.30841 1299.066 4291470526
-42.50642 848.30841 1299.066 4291143608
-40.144955 848.30841 1299.066 4290222506
-37.783485 848.30841 1299.066 4289102978
-34.241287 848.30841 1299.066 4290946221
-30.699083 848.30841 1299.066 4290486709
-18.891743 848.30841 1299.066 4290552734
-16.530275 848.30841 1299.066 4290750369
-14.168807 848.30841 1299.066 4290618559
-11.80734 848.30841 1299.066 4290355643
0 848.30841 1299.066 4289830844
16.530275 848.30841 1299.066 4288444030
21.25321 848.30841 1299.066 4286805910
25.976147 848.30841 1299.066 4288842120
28.337614 848.30841 1299.066 4290550708
30.699083 848.30841 1299.066 4289826728
35.42202 848.30841 1299.066 4281874770
37.783485 848.30841 1299.066 4282397220
-56.675228 850.11377 1300.5883 4290747580
-49.590824 850.11377 1300.5883 4290746533
-47.229359 850.11377 1300.5883 4291207870
-43.687157 850.11377 1300.5883 4291143358
33.060551 850.11377 1300.5883 4283519661
-54.524769 845.80078 1303.4917 4290875053
-28.447706 845.80078 1303.4917 4290287279
-26.077065 845.80078 1303.4917 4290418865
-22.521101 845.80078 1303.4917 4290420146
-9.4825687 845.80078 1303.4917 4290028970
-7.1119266 845.80078 1303.4917 4289831848
-4.7412844 845.80078 1303.4917 4289371549
-2.3706422 845.80078 1303.4917 4290095015
2.3706422 845.80078 1303.4917 4289304500
4.7412844 845.80078 1303.4917 4289367211
7.1119266 845.80078 1303.4917 4290222519
10.667891 845.80078 1303.4917 4286540145
14.223853 845.80078 1303.4917 4283641141
18.965137 845.80078 1303.4917 4287858598
23.706423 845.80078 1303.4917 4287131503
-54.524769 847.61316 1305.0199 4290550458
-52.154129 847.61316 1305.0199 4290614947
-40.300919 847.61316 1305.0199 4289828779
-37.930275 847.61316 1305.0199 4289763474
-34.374313 847.61316 1305.0199 4290814890
-30.818348 847.61316 1305.0199 4290419117
-28.447706 847.61316 1305.0199 4290352039
-26.077065 847.61316 1305.0199 4290483881
-22.521101 847.61316 1305.0199 4290879668
-18.965137 847.61316 1305.0199 4290683291
-16.594496 847.61316 1305.0199 4290551962
-14.223853 847.61316 1305.0199 4290420916
-10.667891 847.61316 1305.0199 4290355633
-7.1119266 847.61316 1305.0199 4290553265
-4.7412844 847.61316 1305.0199 4290290100
-2.3706422 847.61316 1305.0199 4290487222
0 847.61316 1305.0199 4289829306
16.594496 847.61316 1305.0199 4288057485
18.965137 847.61316 1305.0199 4288843195
21.335779 847.61316 1305.0199 4289303746
26.077065 847.61316 1305.0199 4291670674
28.447706 847.61316 1305.0199 4290291656
30.818348 847.61316 1305.0199 4289107639
35.559631 847.61316 1305.0199 4282203801
-59.266056 849.42554 1306.5481 4291670729
-55.710091 849.42554 1306.5481 4291474372
-52.154129 849.42554 1306.5481 4291406526
-49.783485 849.42554 1306.5481 4290945975
-46.227524 849.42554 1306.5481 4291076543
-42.671558 849.42554 1306.5481 4290750131
-16.594496 849.42554 1306.5481 4290154648
-14.223853 849.42554 1306.5481 4289828527
-10.667891 849.42554 1306.5481 4290617784
0 849.42554 1306.5481 4289894322
30.818348 849.42554 1306.5481 4285229442
34.374313 849.42554 1306.5481 4280435058
2.3798165 845.11249 1309.4515 4289237169
4.7596331 845.11249 1309.4515 4289433758
7.1394496 845.11249 1309.4515 4290223273
10.709174 845.11249 1309.4515 4286212463
14.278899 845.11249 1309.4515 4283386182
23.798164 845.11249 1309.4515 4290749573
-40.456882 846.93188 1310.9856 4290618801
-38.077065 846.93188 1310.9856 4290881437
-34.507339 846.93188 1310.9856 4290485158
-30.937614 846.93188 1310.9856 4290023341
-28.557798 846.93188 1310.9856 4289824398
-26.177982 846.93188 1310.9856 4290416791
-22.608257 846.93188 1310.9856 4290286250
-19.038532 846.93188 1310.9856 4289957270
-7.1394496 846.93188 1310.9856 4290288303
-4.7596331 846.93188 1310.9856 4290680488
-2.3798165 846.93188 1310.9856 4290680488
4.7596331 846.93188 1310.9856 4290421950
7.1394496 846.93188 1310.9856 4290619072
10.709174 846.93188 1310.9856 4285689201
14.278899 846.93188 1310.9856 4282468096
16.658716 846.93188 1310.9856 4285889071
19.038532 846.93188 1310.9856 4287724418
22.608257 846.93188 1310.9856 4291540156
26.177982 846.93188 1310.9856 4290355625
28.557798 846.93188 1310.9856 4287992748
-59.266056 851.23792 1308.0762 4291736774
-56.895412 851.23792 1308.0762 4291539899
-52.154129 851.23792 1308.0762 4291211452
-49.783485 851.23792 1308.0762 4290619315
-46.227524 851.23792 1308.0762 4290749377
-42.671558 851.23792 1308.0762 4290816172
-40.300919 851.23792 1308.0762 4290882221
33.188992 851.23792 1308.0762 4283845228
-54.735779 848.75128 1312.5198 4291737278
-21.418348 848.75128 1312.5198 4290153894
-19.038532 848.75128 1312.5198 4290022296
-16.658716 848.75128 1312.5198 4290088090
-14.278899 848.75128 1312.5198 4290287027
-10.709174 848.75128 1312.5198 4291208899
-7.1394496 848.75128 1312.5198 4289827760
-4.7596331 848.75128 1312.5198 4289695131
-2.3798165 848.75128 1312.5198 4289760924
0 848.75128 1312.5198 4290421418
30.937614 848.75128 1312.5198 4283646772
35.697247 848.75128 1312.5198 4284502901
2.387156 844.93701 1314.5358 4290420666
-38.194496 846.76196 1316.0745 4290749084
-34.613762 846.76196 1316.0745 4290221213
-31.033028 846.76196 1316.0745 4290219174
-28.645872 846.76196 1316.0745 4290022281
-26.258715 846.76196 1316.0745 4290351246
-23.871559 846.76196 1316.0745 4290351530
2.387156 846.76196 1316.0745 4291013555
4.774312 846.76196 1316.0745 4290487239
7.161468 846.76196 1316.0745 4290421446
10.742202 846.76196 1316.0745 4288251807
14.322936 846.76196 1316.0745 4286083443
16.710093 846.76196 1316.0745 4285491050
19.097248 846.76196 1316.0745 4288051855
23.871559 846.76196 1316.0745 4291735731
26.258715 846.76196 1316.0745 4288840583
28.645872 846.76196 1316.0745 4286673250
-58.305504 850.57068 1314.0537 4290749883
-54.735779 850.57068 1314.0537 4289565607
-52.355965 850.57068 1314.0537 4289171867
-49.976147 850.57068 1314.0537 4287724420
-47.596329 850.57068 1314.0537 4287921802
-16.658716 850.57068 1314.0537 4290350746
-9.5192661 850.57068 1314.0537 4290618300
-2.3798165 850.57068 1314.0537 4290352543
0 850.57068 1314.0537 4290750901
33.317432 850.57068 1314.0537 4289300902
-52.355965 852.39001 1315.5879 4286872707
33.317432 852.39001 1315.5879 4288249751
-45.355965 848.58698 1317.6133 4290026921
-42.968807 848.58698 1317.6133 4290815922
-40.58165 848.58698 1317.6133 4290487213
-34.613762 848.58698 1317.6133 4290154908
-31.033028 848.58698 1317.6133 4290350746
-28.645872 848.58698 1317.6133 4290351246
-26.258715 848.58698 1317.6133 4290482832
-22.677982 848.58698 1317.6133 4290220193
-19.097248 848.58698 1317.6133 4290284953
-14.322936 848.58698 1317.6133 4290484142
-11.93578 848.58698 1317.6133 4291010486
-7.161468 848.58698 1317.6133 4289828527
-4.774312 848.58698 1317.6133 4289891992
4.774312 848.58698 1317.6133 4290487491
7.161468 848.58698 1317.6133 4290618820
9.548624 848.58698 1317.6133 4291407030
28.645872 848.58698 1317.6133 4286935416
31.033028 848.58698 1317.6133 4286869623
-58.485321 850.41199 1319.1521 4289896126
-54.904587 850.41199 1319.1521 4287988136
-19.097248 850.41199 1319.1521 4290551210
-16.710093 850.41199 1319.1521 4290551210
-14.322936 850.41199 1319.1521 4290289066
-11.93578 850.41199 1319.1521 4290157224
-2.387156 850.41199 1319.1521 4290947762
0 850.41199 1319.1521 4290816694
31.033028 850.41199 1319.1521 4286148231
21.566973 844.27539 1320.5181 4291999178
-38.341286 846.10736 1322.0627 4290090657
2.3963304 846.10736 1322.0627 4291013816
11.981651 846.10736 1322.0627 4291407030
14.377981 846.10736 1322.0627 4291406264
16.774311 846.10736 1322.0627 4291472058
19.170643 846.10736 1322.0627 4291604663
22.765137 846.10736 1322.0627 4291539917
26.359632 846.10736 1322.0627 4288777402
-54.904587 852.237 1320.6909 4287465374
-52.517429 852.237 1320.6909 4286807178
-50.322937 847.93939 1323.6074 4286083191
-46.728439 847.93939 1323.6074 4287857047
-43.133945 847.93939 1323.6074 4290159010
-40.737614 847.93939 1323.6074 4290159010
-38.341286 847.93939 1323.6074 4289960115
-34.746788 847.93939 1323.6074 4290420655
-31.152294 847.93939 1323.6074 4290617766
-28.755962 847.93939 1323.6074 4290682787
-26.359632 847.93939 1323.6074 4290551458
-22.765137 847.93939 1323.6074 4290616746
-9.5853214 847.93939 1323.6074 4290552236
-7.1889906 847.93939 1323.6074 4290552236
-4.7926607 847.93939 1323.6074 4290487211
2.3963304 847.93939 1323.6074 4290948023
4.7926607 847.93939 1323.6074 4290159804
7.1889906 847.93939 1323.6074 4290094011
10.783486 847.93939 1323.6074 4291210934
14.377981 847.93939 1323.6074 4291868353
16.774311 847.93939 1323.6074 4292197062
28.755962 847.93939 1323.6074 4286806160
-58.710091 849.77142 1325.1521 4288911536
-50.322937 849.77142 1325.1521 4285359732
-47.926605 849.77142 1325.1521 4285029429
-22.765137 849.77142 1325.1521 4290683822
-19.170643 849.77142 1325.1521 4290619313
-16.774311 849.77142 1325.1521 4290553519
-14.377981 849.77142 1325.1521 4290553270
-10.783486 849.77142 1325.1521 4290224559
-7.1889906 849.77142 1325.1521 4290290350
-4.7926607 849.77142 1325.1521 4290553258
-2.3963304 849.77142 1325.1521 4290553258
0 849.77142 1325.1521 4289895853
31.152294 849.77142 1325.1521 4282794573
19.244038 845.4668 1328.0627 4291079373
21.649542 845.4668 1328.0627 4290684615
25.257797 845.4668 1328.0627 4289567165
-58.710091 851.60339 1326.6968 4289435831
-55.115597 851.60339 1326.6968 4289568439
