# .PCD v0.7 - Point Cloud Data file format
VERSION 0.7
FIELDS x y z rgb
SIZE 4 4 4 4
TYPE F F F U
COUNT 1 1 1 1
WIDTH 1158
HEIGHT 1
VIEWPOINT 0 0 0 1 0 0 0
POINTS 1158
DATA ascii
-2.4146788 767.30652 1268.7001 4288447642
-16.838531 773.74469 1267.5885 4283189594
-12.829358 773.13165 1267.0717 4281476157
-9.6220188 772.8252 1266.8132 4280424724
-7.2165136 772.8252 1266.8132 4280490517
0 781.98688 1267.9979 4289106058
10.742202 790.18695 1268.3719 4289105556
-18.818348 820.2442 1268.8628 4284494922
-14.113762 820.2442 1268.8628 4283447623
-10.585321 820.2442 1268.8628 4286672008
-10.544037 826.45374 1267.5583 4285617515
-7.0293579 826.45374 1267.5583 4293381102
-4.6862388 826.45374 1267.5583 4293185507
-2.3431194 826.45374 1267.5583 4292790750
0 826.45374 1267.5583 4292462798
-14.014679 833.90118 1268.6057 4282859348
-10.511009 833.0083 1267.8529 4284434017
-7.0073395 833.0083 1267.8529 4292129492
-4.6715598 833.0083 1267.8529 4291869117
-2.3357799 833.0083 1267.8529 4291013552
0 833.90118 1268.6057 4288381819
-44.205505 841.8291 1268.7502 4284297540
-18.612844 841.8291 1268.7502 4282987600
-16.286238 841.8291 1268.7502 4283448151
-13.959633 840.93976 1268.0004 4283384669
-9.3064222 841.8291 1268.7502 4283779682
-6.9798164 840.93976 1268.0004 4283320156
-4.6532111 840.93976 1268.0004 4283121747
-2.3266056 840.93976 1268.0004 4282529611
0 841.8291 1268.7502 4282267988
-11.587156 847.9433 1267.3655 4284368994
-11.587156 849.71497 1268.8593 4284629070
-21.913761 753.78827 1271.6902 4285414234
-19.478899 753.78827 1271.6902 4284564821
-17.044037 753.78827 1271.6902 4282393653
-13.391743 753.78827 1271.6902 4283383864
-9.7394495 753.78827 1271.6902 4287327364
-7.3045874 753.78827 1271.6902 4287787915
-19.390825 760.84021 1269.7881 4282331457
-16.966972 760.84021 1269.7881 4282792008
-12.119267 760.84021 1269.7881 4281212976
-9.6954126 760.84021 1269.7881 4283643467
-7.2715597 760.84021 1269.7881 4288841114
-21.814678 762.6933 1271.3506 4282528588
-19.390825 762.6933 1271.3506 4282463545
-16.966972 762.6933 1271.3506 4283055682
-13.331193 762.6933 1271.3506 4281804100
-4.8477063 762.6933 1271.3506 4287987868
-2.4238532 762.6933 1271.3506 4289303984
1.2119266 762.6933 1271.3506 4288711582
-19.31743 770.07556 1271.0349 4283385430
-16.902752 769.15259 1270.2567 4283252044
-14.488073 769.15259 1270.2567 4281870933
-4.8293576 770.07556 1271.0349 4284039741
-2.4146788 770.07556 1271.0349 4287987321
0 770.07556 1271.0349 4288250778
-16.838531 775.58368 1269.1392 4284174692
-13.230275 775.58368 1269.1392 4284762943
-9.6220188 775.58368 1269.1392 4285551687
-7.2165136 775.58368 1269.1392 4286538582
-4.8110094 775.58368 1269.1392 4286407818
-2.4055047 775.58368 1269.1392 4288052900
0 775.58368 1269.1392 4288249761
-16.838531 777.42273 1270.6898 4284634993
-13.230275 777.42273 1270.6898 4288310634
-9.6220188 777.42273 1270.6898 4289631902
-7.2165136 777.42273 1270.6898 4289368730
-4.8110094 777.42273 1270.6898 4289368212
-2.4055047 777.42273 1270.6898 4289302419
0 777.42273 1270.6898 4289105556
-16.774311 785.65088 1271.0874 4284370579
-14.377981 785.65088 1271.0874 4284566859
-10.783486 785.65088 1271.0874 4288777100
-7.1889906 784.73486 1270.3149 4289040020
-4.7926607 784.73486 1270.3149 4288843412
-2.3963304 784.73486 1270.3149 4289106583
0 784.73486 1270.3149 4289040279
-21.484404 793.83698 1271.4495 4283844192
-19.097248 793.83698 1271.4495 4282594098
-16.710093 792.92444 1270.6802 4282463804
-14.322936 793.83698 1271.4495 4283381065
10.742202 792.01196 1269.9108 4289499798
-19.038532 797.80835 1269.5659 4282924357
-16.658716 797.80835 1269.5659 4282463806
-21.418348 799.62775 1271.1001 4284695656
-19.038532 799.62775 1271.1001 4282924085
-16.658716 799.62775 1271.1001 4282594863
-14.278899 799.62775 1271.1001 4283777604
-11.899082 799.62775 1271.1001 4287330426
-21.335779 805.92847 1269.8724 4284102474
-18.965137 805.92847 1269.8724 4283184672
-16.594496 805.92847 1269.8724 4283250721
-14.223853 805.92847 1269.8724 4282791997
-11.853211 805.92847 1269.8724 4287134335
-22.521101 807.74084 1271.4006 4285810511
-18.965137 807.74084 1271.4006 4283381065
-16.594496 807.74084 1271.4006 4283315272
-14.223853 807.74084 1271.4006 4283118395
-10.667891 807.74084 1271.4006 4288776086
-21.25321 815.81189 1271.6658 4285546340
-18.891743 814.90918 1270.9047 4284102216
-16.530275 814.90918 1270.9047 4283575872
-14.168807 814.90918 1270.9047 4282987334
-11.020184 815.21014 1271.1583 4286803076
-7.0844035 815.81189 1271.6658 4293316592
-4.7229357 815.81189 1271.6658 4292660191
-18.818348 822.94171 1271.1372 4284956488
-16.466055 822.94171 1271.1372 4285022281
-14.113762 822.94171 1271.1372 4284235594
-10.585321 822.04254 1270.3792 4285881205
-7.056881 822.04254 1270.3792 4293119220
-4.704587 822.04254 1270.3792 4292792292
-2.3522935 822.04254 1270.3792 4292397790
0 822.04254 1270.3792 4292463061
4.704587 823.84088 1271.8954 4292264903
-21.088074 830.03638 1270.5792 4283054412
-18.744955 830.03638 1270.5792 4283642706
-16.401834 830.03638 1270.5792 4284498015
-14.058716 829.14069 1269.824 4284499538
-11.715596 828.245 1269.0688 4283708731
-2.3431194 828.245 1269.0688 4292854478
0 829.14069 1269.824 4292329911
-35.036697 835.68689 1270.1115 4285879425
-14.014679 835.68689 1270.1115 4283188327
-10.511009 835.68689 1270.1115 4284042341
-7.0073395 835.68689 1270.1115 4288448920
-4.6715598 835.68689 1270.1115 4288644766
-2.3357799 835.68689 1270.1115 4287526542
0 835.68689 1270.1115 4284765830
-21.022018 837.47266 1271.6172 4282986559
-18.686239 837.47266 1271.6172 4283250230
-16.350458 837.47266 1271.6172 4283842368
-10.511009 837.47266 1271.6172 4283780195
0 837.47266 1271.6172 4281085767
-18.612844 844.49719 1270.9999 4283184699
-16.286238 844.49719 1270.9999 4283579200
-13.959633 844.49719 1270.9999 4283712599
-9.3064222 844.49719 1270.9999 4284303985
-6.9798164 844.49719 1270.9999 4284106607
-4.6532111 844.49719 1270.9999 4283516758
-2.3266056 844.49719 1270.9999 4283319122
0 844.49719 1270.9999 4282792254
-24.348623 755.64972 1273.2598 4283641952
-21.913761 755.64972 1273.2598 4284102503
-19.478899 755.64972 1273.2598 4283710800
-17.044037 755.64972 1273.2598 4282789698
-13.391743 755.64972 1273.2598 4283515231
-7.3045874 755.64972 1273.2598 4288183482
-4.8697248 755.64972 1273.2598 4288248977
-2.4348624 755.64972 1273.2598 4288578199
-25.566055 757.51123 1274.8293 4282857305
-21.913761 757.51123 1274.8293 4282396496
-14.609175 757.51123 1274.8293 4282397250
-4.8697248 757.51123 1274.8293 4288777638
-2.4348624 757.51123 1274.8293 4288975017
1.2174312 757.51123 1274.8293 4288973720
-21.814678 764.54633 1272.913 4282593098
1.2119266 764.54633 1272.913 4288646052
4.8477063 764.54633 1272.913 4288644757
-21.814678 766.39941 1274.4755 4282723660
2.4238532 766.39941 1274.4755 4288777122
4.8477063 766.39941 1274.4755 4289039763
-19.31743 772.8446 1273.3698 4284174692
2.4146788 772.8446 1273.3698 4289170863
4.8293576 772.8446 1273.3698 4289171081
7.2440367 772.8446 1273.3698 4289171081
-21.732111 774.69067 1274.9263 4283321180
-19.31743 774.69067 1274.9263 4284042600
2.4146788 774.69067 1274.9263 4289171605
4.8293576 774.69067 1274.9263 4289236626
7.2440367 774.69067 1274.9263 4289368212
-19.244038 779.26178 1272.2404 4283649130
-16.838531 779.26178 1272.2404 4284043887
-13.230275 779.26178 1272.2404 4287458405
-9.6220188 779.26178 1272.2404 4289894309
-7.2165136 779.26178 1272.2404 4289696673
-4.8110094 779.26178 1272.2404 4289368728
-2.4055047 779.26178 1272.2404 4289434521
-24.055046 781.10083 1273.791 4283321934
-21.649542 781.10083 1273.791 4282400832
-19.244038 781.10083 1273.791 4283648628
-16.838531 781.10083 1273.791 4284109179
-13.230275 781.10083 1273.791 4286671719
-9.6220188 781.10083 1273.791 4289171867
2.4055047 781.10083 1273.791 4289040276
7.2165136 781.10083 1273.791 4289040026
9.6220188 781.10083 1273.791 4289040278
-21.566973 787.48291 1272.6321 4282135098
-19.170643 787.48291 1272.6321 4281804359
-16.774311 787.48291 1272.6321 4282857047
-14.377981 787.48291 1272.6321 4283381567
-10.783486 787.48291 1272.6321 4288842384
-7.1889906 787.48291 1272.6321 4289171603
-4.7926607 787.48291 1272.6321 4289039511
-2.3963304 787.48291 1272.6321 4289171353
0 787.48291 1272.6321 4289171111
7.1889906 787.48291 1272.6321 4289171365
-26.359632 789.31494 1274.1768 4288315306
-22.765137 789.31494 1274.1768 4285159523
-19.170643 789.31494 1274.1768 4281741373
-14.377981 789.31494 1274.1768 4283380561
-10.783486 789.31494 1274.1768 4288578963
-7.1889906 789.31494 1274.1768 4289237648
-4.7926607 789.31494 1274.1768 4289236122
-2.3963304 789.31494 1274.1768 4289302171
0 789.31494 1274.1768 4289170352
7.1889906 789.31494 1274.1768 4289170597
-28.645872 797.48694 1274.5271 4285745238
-26.258715 797.48694 1274.5271 4286600291
-23.075842 796.27032 1273.5012 4285946733
-14.322936 795.66199 1272.9883 4283513668
-10.742202 796.57446 1273.7577 4287922046
-7.161468 797.48694 1274.5271 4288908931
-4.774312 797.48694 1274.5271 4288971923
-2.387156 797.48694 1274.5271 4289037716
0 797.48694 1274.5271 4289037214
10.742201 796.57446 1273.7577 4289367691
-26.177982 803.26648 1274.1682 4287517288
-23.004892 802.05353 1273.1455 4285813605
-19.038532 801.44714 1272.6342 4282792510
-16.658716 801.44714 1272.6342 4282858303
-14.278899 801.44714 1272.6342 4283120955
-10.312538 802.05353 1273.1455 4288382330
-7.1394496 803.26648 1274.1682 4291867833
-26.077065 809.55322 1272.9287 4288831861
-22.521101 809.55322 1272.9287 4286270828
-18.965137 809.55322 1272.9287 4283511872
-16.594496 809.55322 1272.9287 4283511872
-14.223853 809.55322 1272.9287 4283379003
-10.667891 809.55322 1272.9287 4288971414
-7.1119266 809.55322 1272.9287 4293708515
-30.818348 811.3656 1274.4569 4286400854
-28.447706 811.3656 1274.4569 4286663004
-26.077065 811.3656 1274.4569 4288702843
-22.521101 811.3656 1274.4569 4286664805
-9.4825687 811.3656 1274.4569 4289500075
-7.1119266 811.3656 1274.4569 4294040049
-4.7412844 811.3656 1274.4569 4293251551
-2.3706422 811.3656 1274.4569 4292725206
0 811.3656 1274.4569 4292594402
-22.433945 817.61731 1273.188 4285872970
-16.530275 817.61731 1273.188 4284034371
-7.0844035 817.61731 1273.188 4293317116
-4.7229357 817.61731 1273.188 4292923362
-2.3614678 817.61731 1273.188 4292265689
0 817.61731 1273.188 4292265687
-47.229359 819.42261 1274.7102 4286071105
-40.144955 819.42261 1274.7102 4286528076
-30.699083 819.42261 1274.7102 4286660944
-28.337614 819.42261 1274.7102 4286595918
-25.976147 819.42261 1274.7102 4286727504
-22.433945 819.42261 1274.7102 4285349962
2.3614678 819.42261 1274.7102 4292397268
-22.738838 826.23871 1273.9171 4283445829
-18.818348 825.63922 1273.4117 4284363333
-16.466055 825.63922 1273.4117 4285284435
2.3522935 826.53839 1274.1699 4292198069
4.704587 826.53839 1274.1699 4291607985
-39.833027 831.8277 1272.0896 4284893525
-37.48991 832.72339 1272.8447 4285222006
-35.14679 831.8277 1272.0896 4284761966
-21.088074 833.61902 1273.6 4282858053
-18.744955 832.72339 1272.8447 4282660413
-16.401834 832.72339 1272.8447 4283449929
2.3431194 832.72339 1272.8447 4285290861
4.6862388 833.61902 1273.6 4284365675
-46.715595 839.25836 1273.1228 4285021264
-42.044037 839.25836 1273.1228 4284427843
-39.708256 839.25836 1273.1228 4284427843
-37.372478 839.25836 1273.1228 4285418072
-21.022018 839.25836 1273.1228 4282594631
-46.715595 841.04407 1274.6284 4285675334
-43.211929 841.04407 1274.6284 4285280830
-37.372478 841.04407 1274.6284 4284427591
-22.189907 841.04407 1274.6284 4282595649
-18.612844 848.05457 1273.9994 4285152604
-16.286238 848.05457 1273.9994 4284494675
-13.959633 848.05457 1273.9994 4283841350
-10.081958 848.35107 1274.2494 4283713370
-6.9798164 848.05457 1273.9994 4284043112
-4.6532111 848.05457 1273.9994 4284043600
-2.3266056 848.05457 1273.9994 4283451720
0 847.16522 1273.2495 4283909708
-31.653212 760.30341 1277.1836 4282792276
-29.218349 760.30341 1277.1836 4282922070
-25.566055 760.30334 1277.1836 4282922323
-24.238533 769.17896 1276.8191 4282725722
-21.814678 769.17896 1276.8191 4284107375
2.4238532 768.25244 1276.038 4288908708
4.8477063 768.25244 1276.038 4289105810
7.2715597 768.25244 1276.038 4289040017
-25.35413 776.53674 1276.4828 4282333507
-21.732111 776.53674 1276.4828 4282927939
2.4146788 776.53674 1276.4828 4289106058
4.8293576 776.53674 1276.4828 4289105558
7.2440367 776.53674 1276.4828 4289105558
9.6587152 776.53674 1276.4828 4289105306
-28.866055 782.93982 1275.3417 4286541442
-25.257797 782.93982 1275.3417 4286673775
-21.649542 782.93982 1275.3417 4282134805
-19.244038 782.93982 1275.3417 4282923133
2.4055047 782.93982 1275.3417 4289040026
4.8110094 782.93982 1275.3417 4289105821
7.2165136 782.93982 1275.3417 4289040028
9.6220188 782.93982 1275.3417 4288974222
12.027523 782.93982 1275.3417 4289040015
-31.271559 784.77881 1276.8922 4284373098
-28.866055 784.77881 1276.8922 4285160838
-25.257797 784.77881 1276.8922 4286871696
2.4055047 784.77881 1276.8922 4289105317
4.8110094 784.77881 1276.8922 4289171365
-28.755962 791.14691 1275.7214 4285682805
-26.359632 791.14691 1275.7214 4288117146
-23.963303 791.14691 1275.7214 4287528600
-10.783486 791.14691 1275.7214 4288447627
-7.1889906 791.14691 1275.7214 4289566609
-4.7926607 791.14691 1275.7214 4289499551
-2.3963304 791.14691 1275.7214 4289499551
0 791.14691 1275.7214 4289235624
7.1889906 791.14691 1275.7214 4289630632
9.5853214 791.14691 1275.7214 4289434521
-31.152294 792.97894 1277.2662 4285483613
-28.755962 792.97894 1277.2662 4286009187
-26.359632 792.97894 1277.2662 4287588220
-9.5853214 792.97894 1277.2662 4288908667
-7.1889906 792.97894 1277.2662 4289763976
-4.7926607 792.97894 1277.2662 4289696925
-2.3963304 792.97894 1277.2662 4289631132
0 792.97894 1277.2662 4289301417
-28.645872 799.31195 1276.0659 4286004306
-26.258715 799.31195 1276.0659 4286991457
-7.161468 799.31195 1276.0659 4289500273
-4.774312 799.31195 1276.0659 4289170068
-2.387156 799.31195 1276.0659 4288972688
1.193578 799.31195 1276.0659 4289038750
9.548624 799.31195 1276.0659 4290814881
-31.033028 801.13696 1277.6047 4285742395
-28.645872 801.13696 1277.6047 4286135636
-4.774312 801.13696 1277.6047 4291146942
-2.387156 801.13696 1277.6047 4291541700
0 801.13696 1277.6047 4291738822
-30.937614 806.90527 1277.2363 4286661457
-28.557798 805.99561 1276.4692 4286660692
-26.177982 805.08594 1275.7023 4288437103
-7.1394496 805.08594 1275.7023 4292920280
-4.7596331 805.99561 1276.4692 4293053396
-2.3798165 806.90527 1277.2363 4292856022
0 806.90527 1277.2363 4292725206
-30.818348 814.08417 1276.7491 4284953414
-28.447706 814.08417 1276.7491 4285151053
-26.077065 814.08417 1276.7491 4286335327
-23.706423 813.17798 1275.9851 4286861943
-2.3706422 813.17798 1275.9851 4292265689
1.1853211 814.08417 1276.7491 4292265689
4.7412844 814.99036 1277.5132 4292395992
-25.976147 821.22803 1276.2325 4285022531
-22.433945 821.22803 1276.2325 4284759625
2.3614678 821.22803 1276.2325 4292331212
-30.699083 823.03333 1277.7548 4282530372
-25.976147 823.03333 1277.7548 4283182916
7.0844035 823.03333 1277.7548 4292594116
-22.34679 829.23596 1276.4443 4282531666
4.704587 829.23596 1276.4443 4284965964
7.056881 829.23596 1276.4443 4284242241
9.409174 829.23596 1276.4443 4280108893
-23.522936 831.0343 1277.9607 4283318604
7.056881 831.0343 1277.9607 4286471051
10.585321 831.0343 1277.9607 4287855239
14.113762 831.0343 1277.9607 4288976537
-37.48991 835.4104 1275.1105 4285484656
-23.431192 835.4104 1275.1105 4283315268
2.3431194 835.4104 1275.1105 4281546318
4.6862388 835.4104 1275.1105 4287056483
-35.14679 837.20172 1276.6208 4285418072
-25.774311 837.20172 1276.6208 4284304465
-23.431192 837.20172 1276.6208 4282857547
2.3431194 837.20172 1276.6208 4282860381
4.6862388 837.20172 1276.6208 4285484406
7.0293579 837.20172 1276.6208 4289497779
9.3724775 837.20172 1276.6208 4289496732
-49.051376 842.82983 1276.1342 4286730344
-46.715595 842.82983 1276.1342 4286601065
-43.211929 842.82983 1276.1342 4286731620
-39.708256 842.82983 1276.1342 4286336088
-37.372478 842.82983 1276.1342 4285546840
-35.036697 842.82983 1276.1342 4284823117
-32.700916 842.82983 1276.1342 4284494168
-28.029358 842.82983 1276.1342 4283773270
-25.693579 842.82983 1276.1342 4283312719
-22.189907 842.82983 1276.1342 4283511620
-51.387157 844.61554 1277.6399 4290880184
-49.051376 844.61554 1277.6399 4290945977
-46.715595 844.61554 1277.6399 4290881719
-43.211929 844.61554 1277.6399 4290749366
-39.708256 844.61554 1277.6399 4290617012
-37.372478 844.61554 1277.6399 4290681522
-35.036697 844.61554 1277.6399 4290155178
-32.700916 844.61554 1277.6399 4289891229
-28.029358 844.61554 1277.6399 4289036962
-25.693579 844.61554 1277.6399 4288181654
-22.189907 844.61554 1277.6399 4285025125
-16.286238 850.72266 1276.249 4290290109
-13.959633 850.72266 1276.249 4286547354
-11.633027 850.72266 1276.249 4284113013
-34.216515 754.737 1279.0303 4283186784
-31.772476 754.737 1279.0303 4283713128
-29.32844 754.737 1279.0303 4283976044
-39.104588 756.60547 1280.6058 4282003022
-36.660549 756.60547 1280.6058 4281937229
-34.216515 756.60547 1280.6058 4282331988
-29.218349 763.09564 1279.538 4282002492
-25.566055 763.09564 1279.538 4282593608
-29.086239 773.81165 1280.7252 4287199637
-25.450459 771.95856 1279.1628 4282068548
-28.976147 778.38275 1278.0393 4287200921
-26.561468 778.38275 1278.0393 4285556095
4.8293576 778.38275 1278.0393 4289105819
-33.805504 780.22882 1279.5958 4284764767
-31.390825 780.22882 1279.5958 4285488490
-33.677063 787.53735 1279.2183 4285224556
-31.271559 787.53735 1279.2183 4284895591
-28.866055 786.61786 1278.4429 4285814916
2.4055047 787.53735 1279.2183 4289170092
4.8110094 787.53735 1279.2183 4289236389
-33.548622 794.81097 1278.8109 4285284676
-31.152294 794.81097 1278.8109 4285547591
2.3963304 794.81097 1278.8109 4288839835
4.7926607 794.81097 1278.8109 4289299860
7.1889906 794.81097 1278.8109 4289496982
-33.548622 796.64294 1280.3556 4285546035
-31.152294 796.64294 1280.3556 4285808951
4.7926607 796.64294 1280.3556 4289300904
7.1889906 796.64294 1280.3556 4290550971
-33.420185 802.96198 1279.1434 4286136137
-31.033028 802.96198 1279.1434 4285938502
-2.387156 802.96198 1279.1434 4292395460
0 802.96198 1279.1434 4292857026
-54.904587 804.78699 1280.6823 4286791751
-52.517429 804.78699 1280.6823 4286399837
-33.420185 804.78699 1280.6823 4286727506
2.387156 804.78699 1280.6823 4292791000
-46.406422 808.72467 1278.7704 4285482076
-42.836697 808.72467 1278.7704 4286203487
-40.456882 808.72467 1278.7704 4286335329
2.3798165 808.72467 1278.7704 4292462559
-54.735779 810.54407 1280.3044 4287786870
-45.216515 810.54407 1280.3044 4286472818
-33.317432 810.54407 1280.3044 4285153099
2.3798165 810.54407 1280.3044 4292199642
-45.042202 816.80273 1279.0414 4285939519
-42.671558 816.80273 1279.0414 4286264905
-34.374313 816.80273 1279.0414 4286792532
-30.818348 818.61511 1280.5696 4285089357
-28.447706 818.61511 1280.5696 4285219910
-37.783485 824.83875 1279.277 4284237918
-34.241287 824.83875 1279.277 4283778655
-30.699083 824.83875 1279.277 4282990171
-28.337614 824.83875 1279.277 4283055196
-25.976147 824.83875 1279.277 4282923353
7.0844035 824.83875 1279.277 4291740078
-33.060551 826.6441 1280.7992 4284042843
-30.699083 826.6441 1280.7992 4283977050
-28.337614 826.6441 1280.7992 4284109149
-25.976147 826.6441 1280.7992 4284109149
-25.875229 832.83264 1279.4771 4284829276
7.056881 832.83264 1279.4771 4291596200
10.585321 832.83264 1279.4771 4291731636
14.113762 832.83264 1279.4771 4289765287
-31.755962 834.63098 1280.9934 4285288757
-28.227524 834.63098 1280.9934 4285028189
11.761468 834.63098 1280.9934 4288707216
14.113762 834.63098 1280.9934 4289698181
16.466055 834.63098 1280.9934 4292000936
-49.205505 838.99304 1278.1312 4285804617
-39.833027 838.99304 1278.1312 4284754996
-35.14679 838.99304 1278.1312 4284493384
-32.803669 838.99304 1278.1312 4283774274
-28.117432 838.99304 1278.1312 4282724946
-25.774311 838.99304 1278.1312 4282922581
2.3431194 838.99304 1278.1312 4282595131
4.6862388 838.99304 1278.1312 4281936477
7.0293579 838.99304 1278.1312 4281870684
10.544037 838.99304 1278.1312 4285883516
-30.46055 840.78436 1279.6416 4284494168
2.3431194 840.78436 1279.6416 4282791997
4.6862388 840.78436 1279.6416 4282922342
7.0293579 840.78436 1279.6416 4281408847
10.544037 840.78436 1279.6416 4286213258
14.058716 840.78436 1279.6416 4289568197
16.401834 840.78436 1279.6416 4289107646
18.744955 840.78436 1279.6416 4285886873
-51.387157 846.40125 1279.1455 4291408563
-49.051376 846.40125 1279.1455 4291408563
-28.029358 846.40125 1279.1455 4289828273
-25.693579 847.29413 1279.8983 4289763248
-22.189907 847.29413 1279.8983 4288840877
-18.686239 848.18701 1280.6511 4290487745
-9.3431196 848.18701 1280.6511 4283650645
-7.0073395 848.18701 1280.6511 4283321936
-4.6715598 848.18701 1280.6511 4283451996
-2.3357799 848.18701 1280.6511 4282530894
0 847.29413 1279.8983 4284894287
-39.104588 758.474 1282.1813 4282927984
-36.660549 758.474 1282.1813 4280427851
-34.216515 758.474 1282.1813 4281804861
-34.216515 760.34247 1283.7567 4282265139
-31.772476 760.34247 1283.7567 4282265139
-29.218349 764.95709 1281.1075 4281542191
-26.783485 764.95709 1281.1075 4282463293
-31.653212 766.8186 1282.6771 4284500312
-29.218349 766.8186 1282.6771 4282855762
-26.783485 766.8186 1282.6771 4282461260
-41.205505 775.66467 1282.2877 4288776845
-37.569725 775.66467 1282.2877 4287067535
-33.933945 775.66467 1282.2877 4285485410
-31.510092 775.66467 1282.2877 4287656579
-43.629356 777.5177 1283.8501 4287064971
-41.205505 777.5177 1283.8501 4289038761
-37.569725 777.5177 1283.8501 4286869641
-41.049541 782.07483 1281.1523 4288117911
-36.220184 782.07483 1281.1523 4285161349
-33.805504 782.07483 1281.1523 4284439147
-41.049541 783.9209 1282.709 4286800768
-36.220184 783.9209 1282.709 4286935155
-36.082569 790.2959 1281.5442 4285155416
-33.677063 790.2959 1281.5442 4285352027
2.4055047 790.2959 1281.5442 4289038246
4.8110094 790.2959 1281.5442 4289169831
7.2165136 790.2959 1281.5442 4289433004
-52.921101 792.13495 1283.0947 4286665293
-43.299084 792.13495 1283.0947 4285482569
-40.893578 792.13495 1283.0947 4285482569
-37.285324 792.13495 1283.0947 4285548625
-55.115597 799.39099 1282.6726 4286728270
-52.719265 799.39099 1282.6726 4286400600
-50.322937 800.30701 1283.4451 4286465882
-46.728439 800.30701 1283.4451 4286005342
-43.133945 800.30701 1283.4451 4286072402
-40.737614 800.30701 1283.4451 4285809231
-38.341286 800.30701 1283.4451 4286005581
-35.146175 799.08563 1282.4152 4285743174
2.3963304 799.39099 1282.6726 4292396743
4.7926607 799.39099 1282.6726 4292593099
7.1889906 799.39099 1282.6726 4293119443
9.5853214 798.47498 1281.9003 4293120212
-54.904587 806.61194 1282.2211 4286268250
-52.517429 806.61194 1282.2211 4285942368
-50.130276 806.61194 1282.2211 4285810781
-38.194496 806.61194 1282.2211 4286597200
-34.613762 806.61194 1282.2211 4286531924
-52.517429 808.43701 1283.7599 4287065462
-50.130276 808.43701 1283.7599 4286736497
-47.743118 808.43701 1283.7599 4286736247
-42.968807 808.43701 1283.7599 4287062141
-40.58165 808.43701 1283.7599 4286798969
-38.194496 808.43701 1283.7599 4286466395
-35.807339 808.43701 1283.7599 4286071637
-46.406422 812.36346 1281.8385 4286996055
-42.836697 812.36346 1281.8385 4287453301
-40.456882 812.36346 1281.8385 4287453301
-33.317432 812.36346 1281.8385 4286003797
-49.976147 814.18286 1283.3726 4284629572
-38.077065 814.18286 1283.3726 4286529106
-34.374313 820.42749 1282.0977 4283385172
-28.447706 820.42749 1282.0977 4283182916
-33.847706 829.65302 1283.3363 4285090908
-30.699083 829.35217 1283.0825 4285223255
-28.337614 829.35217 1283.0825 4285816936
-25.976147 828.44946 1282.3214 4284633683
-30.579817 836.42932 1282.5096 4283905860
14.113762 836.42932 1282.5096 4289501100
16.466055 836.42932 1282.5096 4289895601
18.818348 836.42932 1282.5096 4287202259
-30.46055 842.57568 1281.1521 4289759386
2.3431194 842.57568 1281.1521 4287330944
4.6862388 842.57568 1281.1521 4286611364
7.0293579 842.57568 1281.1521 4285426833
10.544037 842.57568 1281.1521 4282534746
14.058716 842.57568 1281.1521 4283123074
16.401834 842.57568 1281.1521 4282794366
18.744955 842.57568 1281.1521 4281742959
-46.862385 844.36707 1282.6625 4291342759
-43.347706 844.36707 1282.6625 4291407539
-39.833027 844.36707 1282.6625 4291077563
-37.48991 844.36707 1282.6625 4291078067
-35.14679 844.36707 1282.6625 4291012274
-31.632111 844.36707 1282.6625 4290683543
2.3431194 844.36707 1282.6625 4289368730
4.6862388 844.36707 1282.6625 4289041062
7.0293579 844.36707 1282.6625 4287198858
10.544037 844.36707 1282.6625 4284696435
14.058716 844.36707 1282.6625 4284958312
16.401834 844.36707 1282.6625 4283708501
18.744955 844.36707 1282.6625 4282529622
-16.350458 849.97272 1282.1569 4290684354
-14.014679 849.97272 1282.1569 4289565616
-10.511009 849.97272 1282.1569 4285816959
-7.0073395 849.97272 1282.1569 4285028732
-4.6715598 849.97272 1282.1569 4284241782
-2.3357799 849.97272 1282.1569 4282333785
-44.157799 754.77606 1285.6035 4284437089
-41.704586 753.83832 1284.8127 4282396989
-36.660549 764.07947 1286.9076 4288382073
-34.216515 763.1452 1286.1199 4287066756
-31.772476 762.21094 1285.3322 4282856265
-48.697247 770.5415 1285.8162 4287792049
-46.262386 770.5415 1285.8162 4285621137
-43.827522 770.5415 1285.8162 4285027882
-41.392662 770.5415 1285.8162 4285685812
-37.740364 770.5415 1285.8162 4286144873
-34.088074 770.5415 1285.8162 4286406008
-31.653212 769.61078 1285.0314 4287853968
-29.218349 768.68005 1284.2466 4286671749
-46.053211 779.37079 1285.4126 4287327364
-43.629356 779.37079 1285.4126 4287196809
-38.781651 779.37079 1285.4126 4287135139
-50.900917 781.22388 1286.9751 4287130232
-46.053211 781.22388 1286.9751 4286867074
-43.629356 781.22388 1286.9751 4286866561
-38.781651 781.22388 1286.9751 4286606446
-41.049541 785.76697 1284.2655 4284561741
-37.427521 785.76697 1284.2655 4284632138
-45.878899 787.61298 1285.822 4284693027
-43.464222 787.61298 1285.822 4284823619
-41.049541 787.61298 1285.822 4285152584
-38.634861 787.61298 1285.822 4284891987
-52.921101 793.974 1284.6454 4286599246
-49.312843 793.974 1284.6454 4286204238
-45.704586 793.974 1284.6454 4286006609
-43.299084 793.974 1284.6454 4285877828
-40.893578 793.974 1284.6454 4285943621
-37.285324 793.974 1284.6454 4285482818
-49.312843 795.81299 1286.196 4286269270
-45.704586 795.81299 1286.196 4286137943
-43.299084 795.81299 1286.196 4286402135
-40.893578 795.81299 1286.196 4286336342
-38.488075 795.81299 1286.196 4285613648
-50.322937 802.13904 1284.9897 4286202457
-46.728439 802.13904 1284.9897 4286004050
-43.133945 802.13904 1284.9897 4286005331
-40.737614 802.13904 1284.9897 4286202453
-38.341286 802.13904 1284.9897 4286464846
-35.944954 802.13904 1284.9897 4286464846
-50.130276 810.26196 1285.2987 4286671206
-38.194496 810.26196 1285.2987 4286859093
-35.807339 810.26196 1285.2987 4286398542
-33.317432 816.00226 1284.9066 4285352529
-42.176147 846.15839 1284.1729 4290550458
-39.833027 846.15839 1284.1729 4291405511
-37.48991 847.05408 1284.9281 4291145416
-35.14679 846.15839 1284.1729 4290882499
-31.632111 846.15839 1284.1729 4290817205
-28.117432 847.05408 1284.9281 4290948025
-25.774311 847.94971 1285.6833 4291079862
-22.259632 847.94971 1285.6833 4291211186
-18.744955 847.94971 1285.6833 4290684354
1.1715597 847.05408 1284.9281 4286606706
4.6862388 846.15839 1284.1729 4288647086
7.0293579 846.15839 1284.1729 4285817986
10.544037 846.15839 1284.1729 4289824602
14.058716 846.15839 1284.1729 4291343801
16.401834 846.15839 1284.1729 4289698976
-40.477982 757.58936 1287.9755 4285949323
-36.798164 757.58936 1287.9755 4282790266
-44.157799 759.46484 1289.5569 4286344051
-39.251377 759.46484 1289.5569 4287393418
-36.798164 759.46484 1289.5569 4287853969
-46.436699 765.94794 1288.4832 4285948832
-43.992661 765.94794 1288.4832 4283251984
-40.326607 765.94794 1288.4832 4285291079
-36.660549 765.94794 1288.4832 4286145643
-34.216515 765.94794 1288.4832 4286340730
-48.697247 772.40302 1287.3857 4286213024
-46.262386 772.40302 1287.3857 4286015388
-43.827522 772.40302 1287.3857 4286737262
-48.697247 774.26447 1288.9552 4286669952
-46.262386 774.26447 1288.9552 4286932867
-49.688992 783.0769 1288.5375 4284234813
-46.053211 783.0769 1288.5375 4284431423
-43.629356 783.0769 1288.5375 4284364619
-49.500916 789.45898 1287.3785 4286006334
-45.878899 789.45898 1287.3785 4286071355
-38.194496 813.91199 1288.3762 4285220437
-35.807339 813.91199 1288.3762 4285352023
-54.102753 841.82434 1287.0586 4291801274
-54.102753 843.62268 1288.575 4291473858
-51.750458 843.62268 1288.575 4290422200
-49.398167 843.62268 1288.575 4289830062
-47.045872 843.62268 1288.575 4289500064
-44.693577 843.62268 1288.575 4290486959
18.818348 843.62268 1288.575 4285821330
-21.088074 849.74103 1287.1937 4290422703
-16.401834 849.74103 1287.1937 4290487224
-14.058716 849.74103 1287.1937 4291142829
-10.544037 849.74103 1287.1937 4290355112
-7.0293579 849.74103 1287.1937 4288975515
-4.6862388 849.74103 1287.1937 4288649143
-2.3431194 849.74103 1287.1937 4287530919
0 850.63672 1287.949 4285296219
-46.611008 761.34033 1291.1383 4286344105
-44.157799 761.34033 1291.1383 4285028191
-40.477982 761.34033 1291.1383 4285948513
-51.132111 776.12592 1290.5248 4287723153
-48.697247 776.12592 1290.5248 4287656073
-48.697247 777.98743 1292.0944 4286932867
-53.324772 784.92993 1290.1 4285614386
-49.688992 784.92993 1290.1 4284693028
-56.675228 841.08698 1292.9771 4291539651
-47.045872 845.42102 1290.0913 4289106342
-43.517433 845.42102 1290.0913 4290092728
-39.988991 845.42102 1290.0913 4291145420
-35.284405 845.42102 1290.0913 4290882247
-31.755962 845.42102 1290.0913 4291079863
2.3522935 845.42102 1290.0913 4285885047
4.704587 845.42102 1290.0913 4285945722
7.056881 845.42102 1290.0913 4284103518
10.585321 845.42102 1290.0913 4291009814
14.113762 845.42102 1290.0913 4292063886
16.466055 845.42102 1290.0913 4290748282
-42.341286 847.21942 1291.6075 4289370552
-39.988991 847.21942 1291.6075 4290884047
-37.636696 847.21942 1291.6075 4291211965
-35.284405 847.21942 1291.6075 4290948794
-31.755962 847.21942 1291.6075 4291014069
-28.227524 847.21942 1291.6075 4290948292
-25.875229 847.21942 1291.6075 4290816705
-23.522936 847.21942 1291.6075 4290422703
-18.818348 847.21942 1291.6075 4289960624
2.3522935 847.21942 1291.6075 4280825128
4.704587 847.21942 1291.6075 4283838550
7.056881 847.21942 1291.6075 4288312474
10.585321 847.21942 1291.6075 4291865491
14.113762 847.21942 1291.6075 4292063938
16.466055 847.21942 1291.6075 4290353576
18.818348 847.21942 1291.6075 4288118674
21.170643 847.21942 1291.6075 4281408045
-55.494495 842.89233 1294.4993 4290751426
-51.952293 842.89233 1294.4993 4290094250
-49.590824 842.89233 1294.4993 4289041562
18.891743 842.89233 1294.4993 4288645007
21.25321 842.89233 1294.4993 4282526258
-37.636696 849.01776 1293.1239 4291277227
-21.170643 849.01776 1293.1239 4289562775
-16.466055 849.01776 1293.1239 4290944180
-14.113762 849.01776 1293.1239 4291142282
-10.585321 849.01776 1293.1239 4291538070
-7.056881 849.01776 1293.1239 4289565568
-4.704587 849.01776 1293.1239 4289303732
-2.3522935 849.01776 1293.1239 4289040560
0 850.8161 1294.6403 4290225838
4.704587 849.01776 1293.1239 4283254120
7.056881 849.01776 1293.1239 4288846525
10.585321 849.01776 1293.1239 4289830576
16.466055 849.01776 1293.1239 4288250249
21.170643 849.01776 1293.1239 4281935902
-59.036697 844.69769 1296.0215 4289171365
-55.494495 844.69769 1296.0215 4287133063
-51.952293 844.69769 1296.0215 4286209899
-49.590824 844.69769 1296.0215 4285617761
-47.229359 844.69769 1296.0215 4285423126
-44.867889 844.69769 1296.0215 4289239376
-49.590824 846.50305 1297.5438 4283513918
-47.229359 846.50305 1297.5438 4285223726
-43.687157 846.50305 1297.5438 4289632412
-40.144955 846.50305 1297.5438 4291211743
-34.241287 846.50305 1297.5438 4291276462
-30.699083 846.50305 1297.5438 4291538868
-28.337614 846.50305 1297.5438 4291012553
-25.976147 846.50305 1297.5438 4290354367
-23.614679 846.50305 1297.5438 4290089375
-18.891743 846.50305 1297.5438 4289891492
2.3614678 846.50305 1297.5438 4281345550
14.168807 846.50305 1297.5438 4289829281
18.891743 846.50305 1297.5438 4287199598
23.614679 846.50305 1297.5438 4282592857
-61.636696 843.9884 1301.9636 4289829549
-59.266056 843.9884 1301.9636 4289237156
-55.710091 843.9884 1301.9636 4287328907
-52.154129 843.9884 1301.9636 4285882466
-43.687157 848.30841 1299.066 4290354846
-40.144955 848.30841 1299.066 4291406276
-37.783485 848.30841 1299.066 4290815922
-34.241287 848.30841 1299.066 4290551979
-16.530275 848.30841 1299.066 4290941587
-14.168807 848.30841 1299.066 4290616219
-10.626606 848.30841 1299.066 4291274412
-7.0844035 848.30841 1299.066 4290551208
-4.7229357 848.30841 1299.066 4290420151
-2.3614678 848.30841 1299.066 4291143873
2.3614678 848.30841 1299.066 4282922559
4.7229357 848.30841 1299.066 4282920234
7.0844035 848.30841 1299.066 4284499267
10.626606 848.30841 1299.066 4281684564
14.168807 848.30841 1299.066 4285161351
16.530275 848.30841 1299.066 4286806176
18.891743 848.30841 1299.066 4287855977
21.25321 848.30841 1299.066 4289303423
-10.626606 850.11377 1300.5883 4290484904
-7.0844035 850.11377 1300.5883 4290485416
-4.7229357 850.11377 1300.5883 4290355373
-2.3614678 850.11377 1300.5883 4291210682
0 850.11377 1300.5883 4290358201
16.530275 850.11377 1300.5883 4288580550
-55.710091 845.80078 1303.4917 4289433767
-52.154129 845.80078 1303.4917 4288645789
-49.783485 845.80078 1303.4917 4288053651
-47.412846 845.80078 1303.4917 4288448364
-30.818348 845.80078 1303.4917 4290419621
-28.447706 845.80078 1303.4917 4289890986
-26.077065 845.80078 1303.4917 4289693863
-22.521101 845.80078 1303.4917 4289692050
-18.965137 845.80078 1303.4917 4289823105
23.706423 845.80078 1303.4917 4289565870
26.077065 845.80078 1303.4917 4291013317
-61.875229 843.29309 1307.9175 4290619063
-59.495415 843.29309 1307.9175 4290355891
-46.227524 847.61316 1305.0199 4290618545
-42.671558 847.61316 1305.0199 4290749617
-40.300919 847.61316 1305.0199 4291275962
-37.930275 847.61316 1305.0199 4290617275
-34.374313 847.61316 1305.0199 4290222002
-30.818348 847.61316 1305.0199 4290089903
-16.594496 847.61316 1305.0199 4290090388
-14.223853 847.61316 1305.0199 4290221221
2.3706422 847.61316 1305.0199 4286542207
4.7412844 847.61316 1305.0199 4284305781
7.1119266 847.61316 1305.0199 4284239732
10.667891 847.61316 1305.0199 4285686925
14.223853 847.61316 1305.0199 4287462325
18.965137 847.61316 1305.0199 4290618992
22.521101 847.61316 1305.0199 4291605156
26.077065 847.61316 1305.0199 4291604424
-42.671558 849.42554 1306.5481 4290748852
-40.300919 849.42554 1306.5481 4290683059
-37.930275 849.42554 1306.5481 4290550708
-35.559631 849.42554 1306.5481 4290484915
-10.667891 849.42554 1306.5481 4289236637
-7.1119266 849.42554 1306.5481 4290223019
-4.7412844 849.42554 1306.5481 4290027442
-2.3706422 849.42554 1306.5481 4290422200
0 849.42554 1306.5481 4290881465
4.7412844 849.42554 1306.5481 4291274163
10.667891 849.42554 1306.5481 4291670718
14.223853 849.42554 1306.5481 4291670729
16.594496 849.42554 1306.5481 4291275971
18.965137 849.42554 1306.5481 4291340721
22.521101 849.42554 1306.5481 4291472062
26.077065 849.42554 1306.5481 4291208901
-64.255043 845.11249 1309.4515 4291408828
-57.115597 845.11249 1309.4515 4290352309
-54.735779 845.11249 1309.4515 4290549431
-52.355965 845.11249 1309.4515 4290091701
-49.976147 845.11249 1309.4515 4290486459
-28.557798 845.11249 1309.4515 4289891238
-26.177982 845.11249 1309.4515 4289891238
-22.608257 845.11249 1309.4515 4290154669
-19.038532 845.11249 1309.4515 4290287768
-49.976147 846.93188 1310.9856 4291206584
-46.406422 846.93188 1310.9856 4290814638
-16.658716 846.93188 1310.9856 4290092955
-14.278899 846.93188 1310.9856 4289039513
2.3798165 846.93188 1310.9856 4290947258
7.1394496 846.93188 1310.9856 4291668921
-7.1119266 851.23792 1308.0762 4289961145
-4.7412844 851.23792 1308.0762 4290092467
-2.3706422 851.23792 1308.0762 4290355639
0 851.23792 1308.0762 4290815672
16.594496 851.23792 1308.0762 4291210682
-62.066055 843.112 1312.9969 4290946229
-59.678898 843.112 1312.9969 4290946229
-42.836697 848.75128 1312.5198 4290749879
-14.278899 848.75128 1312.5198 4289765289
-10.709174 848.75128 1312.5198 4289764527
2.3798165 848.75128 1312.5198 4291539651
4.7596331 848.75128 1312.5198 4291670456
7.1394496 848.75128 1312.5198 4291670456
10.709174 848.75128 1312.5198 4291474108
14.278899 848.75128 1312.5198 4291342268
19.038532 848.75128 1312.5198 4291078849
22.608257 848.75128 1312.5198 4291143619
26.177982 848.75128 1312.5198 4291603405
-57.291744 844.93701 1314.5358 4290284449
-54.904587 844.93701 1314.5358 4290416035
-52.517429 844.93701 1314.5358 4290351276
-33.420185 844.93701 1314.5358 4290353063
-31.033028 844.93701 1314.5358 4290615978
-28.645872 844.93701 1314.5358 4290549424
-26.258715 844.93701 1314.5358 4289628322
-22.677982 844.93701 1314.5358 4290286491
-19.097248 844.93701 1314.5358 4290487713
-40.58165 846.76196 1316.0745 4290157999
-38.194496 846.76196 1316.0745 4290418867
-34.613762 846.76196 1316.0745 4290419885
-19.097248 846.76196 1316.0745 4290225559
-16.710093 846.76196 1316.0745 4290028179
-10.709174 850.57068 1314.0537 4289304996
-7.1394496 850.57068 1314.0537 4290159777
-4.7596331 850.57068 1314.0537 4290158250
-2.3798165 850.57068 1314.0537 4290552752
0 850.57068 1314.0537 4290749627
10.709174 850.57068 1314.0537 4290883001
14.278899 850.57068 1314.0537 4290817207
16.658716 850.57068 1314.0537 4290751414
19.038532 850.57068 1314.0537 4290881719
22.608257 850.57068 1314.0537 4290946747
26.177982 850.57068 1314.0537 4291209153
-64.70092 842.44336 1318.9733 4290485666
-62.304588 842.44336 1318.9733 4290484120
-59.908257 842.44336 1318.9733 4290484120
-16.710093 848.58698 1317.6133 4289832109
-14.322936 848.58698 1317.6133 4289897661
2.387156 848.58698 1317.6133 4291013055
4.774312 848.58698 1317.6133 4290618811
7.161468 848.58698 1317.6133 4290947775
-14.322936 850.41199 1319.1521 4290027453
-10.742202 850.41199 1319.1521 4288382091
-7.161468 850.41199 1319.1521 4290684565
-4.774312 850.41199 1319.1521 4290552486
-2.387156 850.41199 1319.1521 4290815659
0 850.41199 1319.1521 4290881217
10.742202 850.41199 1319.1521 4290817209
14.322936 850.41199 1319.1521 4290816946
16.710093 850.41199 1319.1521 4290751153
19.097248 850.41199 1319.1521 4290881967
22.677982 850.41199 1319.1521 4290881203
-64.70092 844.27539 1320.5181 4290091411
-62.304588 844.27539 1320.5181 4290285703
-58.710091 844.27539 1320.5181 4290680470
-55.115597 844.27539 1320.5181 4290680479
-52.719265 844.27539 1320.5181 4290549424
-50.322937 844.27539 1320.5181 4291141562
-46.728439 844.27539 1320.5181 4290945965
-31.152294 844.27539 1320.5181 4291210418
-28.755962 844.27539 1320.5181 4290420405
-26.359632 844.27539 1320.5181 4288906910
-22.765137 844.27539 1320.5181 4289959836
-74.28624 846.10736 1322.0627 4290946225
-70.691742 846.10736 1322.0627 4291013555
-64.70092 846.10736 1322.0627 4290157730
-62.304588 846.10736 1322.0627 4289825406
-58.710091 846.10736 1322.0627 4291009948
-55.115597 846.10736 1322.0627 4290944680
-52.719265 846.10736 1322.0627 4290484142
-50.322937 846.10736 1322.0627 4290155178
-46.728439 846.10736 1322.0627 4290747049
-43.133945 846.10736 1322.0627 4291012551
-40.737614 846.10736 1322.0627 4290288828
-38.341286 846.10736 1322.0627 4289235874
-34.746788 846.10736 1322.0627 4290157740
-31.152294 846.10736 1322.0627 4290224553
-28.755962 846.10736 1322.0627 4290159025
-26.359632 846.10736 1322.0627 4289369509
-22.765137 846.10736 1322.0627 4289632402
-19.170643 846.10736 1322.0627 4289371558
-10.742202 852.237 1320.6909 4288907161
-7.161468 852.237 1320.6909 4289631373
-4.774312 852.237 1320.6909 4289894309
-2.387156 852.237 1320.6909 4290881204
0 852.237 1320.6909 4291077563
-72.165138 839.94971 1323.4109 4291014068
-69.759636 839.94971 1323.4109 4290356395
-67.354126 839.94971 1323.4109 4290682789
-73.367889 841.78876 1324.9615 4290881969
-69.759636 841.78876 1324.9615 4289960865
-67.354126 841.78876 1324.9615 4290354326
-74.28624 847.93939 1323.6074 4290749617
-71.889908 847.93939 1323.6074 4290619313
-58.710091 847.93939 1323.6074 4290683298
-45.530273 847.93939 1323.6074 4290750401
-43.133945 847.93939 1323.6074 4290750658
-38.341286 847.93939 1323.6074 4289960878
-34.746788 847.93939 1323.6074 4289961385
-28.755962 847.93939 1323.6074 4289896607
-26.359632 847.93939 1323.6074 4289567643
-22.765137 847.93939 1323.6074 4289698726
-19.170643 847.93939 1323.6074 4289764267
-16.774311 847.93939 1323.6074 4290488247
2.3963304 847.93939 1323.6074 4291209926
4.7926607 847.93939 1323.6074 4291013315
7.1889906 847.93939 1323.6074 4291013315
-19.170643 849.77142 1325.1521 4289366418
-16.774311 849.77142 1325.1521 4289892762
-14.377981 849.77142 1325.1521 4289696444
14.377981 849.77142 1325.1521 4290685106
16.774311 849.77142 1325.1521 4290750899
23.963303 849.77142 1325.1521 4290683824
-69.759636 845.4668 1328.0627 4291408828
-67.354126 844.54724 1327.2875 4291276729
-64.948624 845.4668 1328.0627 4289829799
-62.543118 845.4668 1328.0627 4290156431
-55.326607 845.4668 1328.0627 4291209907
-52.921101 845.4668 1328.0627 4290157495
-49.312843 845.4668 1328.0627 4289565614
-40.893578 845.4668 1328.0627 4289895605
-31.271559 845.4668 1328.0627 4290028198
-10.783486 851.60339 1326.6968 4289960126
-7.1889906 851.60339 1326.6968 4289368242
-4.7926607 851.60339 1326.6968 4289893820
-2.3963304 851.60339 1326.6968 4290946508
0 851.60339 1326.6968 4290881715
-72.165138 847.30579 1329.6134 4289896105
-69.759636 847.30579 1329.6134 4290948794
-67.354126 847.30579 1329.6134 4290883516
-64.948624 847.30579 1329.6134 4290159793
-61.340366 847.30579 1329.6134 4290355123
-57.732109 847.30579 1329.6134 4290553016
-55.326607 847.30579 1329.6134 4291079360
-52.921101 847.30579 1329.6134 4290291643
-49.312843 847.30579 1329.6134 4289831600
-45.704586 847.30579 1329.6134 4288647835
-40.893578 847.30579 1329.6134 4290355393
-37.285324 847.30579 1329.6134 4290225068
-33.677063 847.30579 1329.6134 4289633960
-31.271559 847.30579 1329.6134 4289173409
-28.866055 847.30579 1329.6134 4289436065
-25.257797 847.30579 1329.6134 4290027692
-21.649542 847.30579 1329.6134 4289566118
2.4055047 847.30579 1329.6134 4291340735
4.8110094 847.30579 1329.6134 4291079100
7.2165136 847.30579 1329.6134 4290947258
9.6220188 847.30579 1329.6134 4290750649
12.027523 847.30579 1329.6134 4290816442
19.244038 847.30579 1329.6134 4290882219
21.649542 847.30579 1329.6134 4290619047
-72.165138 849.14484 1331.1641 4290224314
-69.759636 849.14484 1331.1641 4291145416
-67.354126 849.14484 1331.1641 4290817207
-64.948624 849.14484 1331.1641 4290948794
-61.340366 849.14484 1331.1641 4290356686
-57.732109 849.14484 1331.1641 4290552766
-37.285324 849.14484 1331.1641 4290619299
-33.677063 849.14484 1331.1641 4289435054
-31.271559 849.14484 1331.1641 4288776868
-28.866055 849.14484 1331.1641 4289237660
-25.257797 849.14484 1331.1641 4290882231
-21.649542 849.14484 1331.1641 4289566118
-19.244038 849.14484 1331.1641 4289039254
-16.838531 849.14484 1331.1641 4289367963
-14.433027 849.14484 1331.1641 4289828543
2.4055047 849.14484 1331.1641 4290947764
4.8110094 849.14484 1331.1641 4290815924
9.6220188 849.14484 1331.1641 4290816957
21.649542 849.14484 1331.1641 4290553256
24.055046 849.14484 1331.1641 4290749366
-59.908257 857.09949 1331.3309 4290879416
-43.464222 844.84027 1334.0746 4289236656
-64.948624 850.98389 1332.7146 4290422198
-61.340366 850.98389 1332.7146 4290093764
-36.082569 850.98389 1332.7146 4290092714
-33.677063 850.98389 1332.7146 4289302953
-31.271559 850.98389 1332.7146 4288842402
-12.027523 850.98389 1332.7146 4290486711
-9.6220188 850.98389 1332.7146 4290354860
-7.2165136 850.98389 1332.7146 4290354860
-4.8110094 850.98389 1332.7146 4290618296
-2.4055047 850.98389 1332.7146 4291013053
0 850.98389 1332.7146 4291013820
-60.137615 852.82288 1334.2653 4289894570
-57.732109 852.82288 1334.2653 4288774812
-36.082569 852.82288 1334.2653 4290157999
-33.677063 852.82288 1334.2653 4289499575
-31.271559 852.82288 1334.2653 4289236404
-2.4055047 852.82288 1334.2653 4291013307
-46.728439 860.76349 1334.4204 4290355625
-40.737614 860.76349 1334.4204 4290552234
-70.025688 848.53235 1337.1876 4290488247
-67.611008 848.53235 1337.1876 4290027696
-57.952293 848.53235 1337.1876 4288381067
-55.537613 846.68634 1335.6311 4291144903
-49.098469 847.3017 1336.15 4290488496
-45.878899 846.68634 1335.6311 4288318091
-43.464222 846.68634 1335.6311 4288907663
-41.049541 847.60938 1336.4094 4290682785
-38.634861 848.53235 1337.1876 4290224557
-28.976147 848.53235 1337.1876 4289105560
-25.35413 848.53235 1337.1876 4290750646
-21.732111 848.53235 1337.1876 4290487993
-19.31743 848.53235 1337.1876 4290289828
-16.902752 848.53235 1337.1876 4290289828
-14.488073 848.53235 1337.1876 4290354869
2.4146788 848.53235 1337.1876 4290816442
4.8293576 848.53235 1337.1876 4290289832
7.2440367 847.60938 1336.4094 4290881715
9.6587152 848.53235 1337.1876 4290817471
13.683181 847.3017 1336.1499 4290751673
16.902752 847.60938 1336.4094 4290751671
19.31743 847.60938 1336.4094 4290553259
21.732111 848.53235 1337.1876 4290619313
-64.948624 854.66193 1335.8159 4290485396
-62.543118 854.66193 1335.8159 4290682037
-57.732109 854.66193 1335.8159 4290618279
-55.326607 854.66193 1335.8159 4290421157
-52.921101 854.66193 1335.8159 4290224555
-49.312843 854.66193 1335.8159 4290487467
-45.704586 854.66193 1335.8159 4290487209
-40.893578 854.66193 1335.8159 4290355373
-36.082569 854.66193 1335.8159 4290420401
-33.677063 854.66193 1335.8159 4290354356
-31.271559 854.66193 1335.8159 4290420405
-64.948624 856.50098 1337.3665 4290485142
-61.340366 856.50098 1337.3665 4290880697
-57.732109 856.50098 1337.3665 4290882221
-49.312843 856.50098 1337.3665 4290816171
-45.704586 856.50098 1337.3665 4290882221
-43.299084 856.50098 1337.3665 4290750129
-40.893578 856.50098 1337.3665 4290881715
-37.285324 856.50098 1337.3665 4290683570
-33.677063 856.50098 1337.3665 4290617779
-31.271559 856.50098 1337.3665 4290420401
-33.548622 862.59552 1335.9651 4290815690
-53.324772 844.22778 1340.0984 4290685117
-65.196327 850.37842 1338.7441 4290553265
-62.781651 850.37842 1338.7441 4290618550
-48.293579 850.37842 1338.7441 4290291617
-45.878899 850.37842 1338.7441 4290028446
-41.049541 850.37842 1338.7441 4289961128
-38.634861 850.37842 1338.7441 4290157999
-7.2440367 850.37842 1338.7441 4290946479
-4.8293576 850.37842 1338.7441 4290618550
0 850.37842 1338.7441 4290948292
9.6587152 850.37842 1338.7441 4290684854
19.31743 850.37842 1338.7441 4290618811
-67.611008 852.22449 1340.3008 4289564294
-43.464222 852.22449 1340.3008 4290486959
-38.634861 852.22449 1340.3008 4290420401
-2.4146788 852.22449 1340.3008 4290815672
0 852.22449 1340.3008 4290815424
-61.340366 858.33997 1338.9171 4290881730
-52.921101 860.17902 1340.4678 4290815924
-37.285324 858.33997 1338.9171 4290748586
-33.677063 858.33997 1338.9171 4290618048
-31.271559 858.33997 1338.9171 4290420412
-67.867889 847.93384 1343.2231 4290026921
-55.748623 847.93384 1343.2231 4288708763
-53.324772 847.93384 1343.2231 4288907702
-50.900917 847.93384 1343.2231 4290421198
-46.053211 846.08081 1341.6608 4288646543
-43.629356 847.00732 1342.4419 4289630614
-29.086239 847.93384 1343.2231 4289696944
-26.662386 847.93384 1343.2231 4290552252
-13.331193 847.93384 1343.2231 4290617766
-9.6954126 847.93384 1343.2231 4290617514
2.4238532 847.93384 1343.2231 4290750912
4.8477063 847.93384 1343.2231 4290552234
7.2715597 847.93384 1343.2231 4291012785
12.927218 847.31616 1342.7023 4290619320
16.966972 847.93384 1343.2231 4290816957
-55.537613 854.0705 1341.8573 4290487463
-53.122936 854.0705 1341.8573 4290553254
-57.952293 855.91656 1343.4138 4290948025
-55.537613 855.91656 1343.4138 4290619061
-53.122936 855.91656 1343.4138 4290619311
-50.708256 855.91656 1343.4138 4290816946
-43.464222 855.91656 1343.4138 4290223269
-29.086239 850.7135 1345.5669 4290421166
-7.2715597 849.78693 1344.7856 4291078319
-4.8477063 849.78693 1344.7856 4290486707
-2.4238532 851.64001 1346.3481 4290750399
