# .PCD v0.7 - Point Cloud Data file format
VERSION 0.7
FIELDS x y z rgb
SIZE 4 4 4 4
TYPE F F F U
COUNT 1 1 1 1
WIDTH 1167
HEIGHT 1
VIEWPOINT 0 0 0 1 0 0 0
POINTS 1167
DATA ascii
-3.3467889 817.61823 782.67761 4281141271
-1.6733944 816.97858 782.13831 4284040785
0 817.61823 782.67761 4284829272
4.183486 817.61823 782.67761 4283117574
7.5302753 816.97858 782.13831 4282851104
10.877064 817.61823 782.67761 4283312192
22.590824 817.61823 782.67761 4286344815
25.658716 817.19183 782.31805 4286279535
28.447706 817.61823 782.67761 4286476404
30.957798 817.61823 782.67761 4286345094
-1.66789 821.11755 781.7041 4282063910
5.0036697 821.11755 781.7041 4282592010
7.5055046 821.11755 781.7041 4282391592
10.007339 821.11755 781.7041 4282588971
25.018349 821.11755 781.7041 4286606957
-3.3357799 822.3927 782.7793 4281669403
-1.66789 822.3927 782.7793 4281603609
4.1697249 822.3927 782.7793 4283579652
7.4963303 823.13129 782.09399 4282392887
19.180733 822.3927 782.7793 4286278002
22.516514 822.3927 782.7793 4286410097
25.018349 822.3927 782.7793 4286410607
4.9926605 825.14221 782.48145 4283844433
7.472477 826.61664 781.10864 4282791227
10.793578 825.34711 780.03821 4282720030
4.9651375 830.09351 780.11609 4285026898
6.6201835 830.09351 780.11609 4284172073
0.82752293 831.35876 781.18298 4281079076
3.3100917 831.35876 781.18298 4281997865
23.170643 831.35876 781.18298 4286936442
25.65321 831.35876 781.18298 4286739320
28.963303 832.62408 782.24988 4286541427
34.755962 832.62408 782.24988 4286408027
36.411011 832.62408 782.24988 4286539356
-6.6055045 836.61499 782.99878 4282201670
-4.1284404 835.35254 781.93433 4280359212
-1.6495413 835.45288 780.71094 4280292651
0.54923546 835.90717 780.65796 4279834392
19.772476 836.81567 780.552 4284372578
22.535782 835.90717 780.65796 4286674814
25.56789 835.45282 780.71094 4286082414
29.174311 835.77338 782.28912 4286015080
31.90214 835.41943 781.11871 4286474585
33.85321 834.72131 781.4021 4287460704
36.880733 836.19415 782.64398 4292461480
-3.8446484 838.91522 782.32227 4280359473
-1.6477064 838.7052 782.1452 4280161840
0.82385319 838.70526 782.14526 4280030482
19.772476 838.7052 782.1452 4284300362
22.244038 838.70526 782.14526 4289435036
25.53945 838.7052 782.1452 4288515975
28.011009 838.7052 782.1452 4289830801
32.130276 838.70526 782.14526 4291541700
34.601833 838.7052 782.1452 4292660175
4.1055045 842.14917 781.125 4280161820
7.3899083 842.14917 781.125 4280357927
10.674313 842.14917 781.125 4283246644
13.958715 842.14917 781.125 4283906116
16.422018 842.14917 781.125 4283575845
18.06422 841.52142 780.5957 4282587676
8.211009 844.03235 782.71289 4280424743
7.901835 749.35132 783.97815 4285228411
10.53578 749.35132 783.97815 4285556845
16.681652 749.35132 783.97815 4285358942
5.26789 750.69379 785.11011 4285227616
7.8926606 751.47028 784.45673 4285293678
10.53578 750.69379 785.11011 4285162087
13.142202 752.24677 783.80334 4285556844
16.681652 750.69379 785.11011 4285490794
7.8853211 753.58643 784.93286 4285686870
10.513762 753.58643 784.93286 4285162087
14.018349 753.58643 784.93286 4285425509
7.5694184 757.6922 784.4707 4285028962
10.480734 757.24707 784.09534 4284964697
16.594496 757.24707 784.09534 4285162591
20.088074 757.24707 784.09534 4285030495
22.708258 758.58246 785.22144 4285489244
25.328442 758.58246 785.22144 4285358950
27.948624 758.58246 785.22144 4285227866
8.7155962 760.79333 784.46948 4285817193
10.458715 760.79333 784.46948 4285228129
13.073395 760.12701 783.90771 4284768343
16.559633 760.12701 783.90771 4284308300
20.917431 760.12701 783.90771 4285423451
22.660551 761.45966 785.03125 4285293659
25.27523 761.45966 785.03125 4285751912
13.03211 763.77222 783.05713 4284308310
16.507339 763.77222 783.05713 4283256881
19.982569 763.77222 783.05713 4285032009
1.7376146 766.42908 785.29736 4281925645
4.3440366 766.42908 785.29736 4281467675
8.1088686 765.98633 784.92401 4280818711
10.425688 765.10065 784.17725 4285029738
13.321712 765.54346 784.5506 4285161058
16.507339 765.76489 784.7373 4284569929
19.113762 765.76489 784.7373 4285229129
1.7321101 770.0575 784.43262 4280156693
4.3302751 770.0575 784.43262 4281404193
8.6605501 770.0575 784.43262 4278714383
10.39266 769.39539 783.87433 4280946704
12.702141 769.61603 784.06036 4285027411
-1.7321101 771.38165 785.54919 4280554014
0.8642202 772.14697 784.88635 4281544240
4.3211012 772.91223 784.22351 4280754499
7.7779818 772.91223 784.22351 4280356899
10.370643 772.91223 784.22351 4279372805
12.963303 772.91223 784.22351 4279240720
16.420183 772.25153 783.66644 4285358942
19.919266 771.38165 785.54919 4285754216
22.517431 771.38165 785.54919 4285424744
25.115597 771.38165 785.54919 4285424996
28.519266 772.91223 784.22351 4285556331
31.976147 772.91223 784.22351 4286016631
-1.7284404 774.23358 785.33765 4280818997
0.8642202 774.23358 785.33765 4282006031
4.3128443 775.37939 784.34174 4280951628
7.7642202 775.37939 784.34174 4280752425
10.337615 776.52515 783.34583 4280159003
12.922018 776.52515 783.34583 4278452224
16.395412 775.37939 784.34174 4284044101
19.877064 774.23358 785.33765 4285885800
22.469725 774.23358 785.33765 4285556336
25.062386 774.23358 785.33765 4285491041
28.519266 774.23358 785.33765 4285753711
31.976147 774.23358 785.33765 4285951605
34.568806 774.23358 785.33765 4285820003
37.161469 774.23358 785.33765 4286017138
-4.3073397 777.84235 784.45642 4280164380
-1.7229358 777.84235 784.45642 4280032284
0.8614679 778.50098 785.01172 4280229161
4.3018351 778.6048 783.79126 4280820544
7.7458715 778.6048 783.79126 4282002490
10.337615 777.84235 784.45642 4280420896
12.922018 777.84235 784.45642 4278910987
16.367889 778.50098 785.01172 4278255620
19.526606 778.72046 785.19678 4282268234
22.398165 779.15955 785.56702 4285690232
24.121101 779.15955 785.56702 4285951853
28.715597 778.72046 785.19678 4285950059
31.874311 779.15955 785.56702 4286278256
34.458717 779.15955 785.56702 4285951344
37.043121 779.15955 785.56702 4286017137
39.627522 779.15955 785.56702 4285951344
-3.4385321 781.33887 784.78851 4280429859
-1.7192661 780.68164 784.23438 4278322944
0.85963303 781.33887 784.78851 4279374108
3.4385321 781.33887 784.78851 4279440404
10.315597 780.68164 784.23438 4280882490
13.181039 781.11981 784.60382 4279830560
17.192661 781.99603 785.34265 4278190080
19.771561 781.99603 785.34265 4278190080
28.367889 781.99603 785.34265 4286344818
-3.4275229 785.58514 784.4447 4284374081
-1.7137614 784.27496 783.34009 4278191370
0.85688072 784.93005 783.8924 4278255877
5.1412845 784.27496 783.34009 4278980614
11.99633 784.93005 783.8924 4280489265
13.710092 785.58514 784.4447 4280422942
29.133945 785.58514 784.4447 4286279800
-3.4201834 788.40894 784.20972 4285621373
-1.7100917 787.10156 783.10742 4278584064
0.85504586 787.75525 783.65857 4278255620
4.2752295 787.75525 783.65857 4278190592
7.6954126 787.10156 783.10742 4281411132
11.115597 787.75525 783.65857 4281541194
13.680734 788.40894 784.20972 4280554535
15.960856 787.53735 783.47485 4278845456
18.811008 788.40894 784.20972 4278452245
28.277065 786.89532 785.54944 4284964193
30.847706 786.89532 785.54944 4286477949
-3.4091742 791.98267 783.29883 4284175948
-1.7045871 791.98267 783.29883 4278715136
0.85229355 791.98267 783.29883 4278386693
4.2614679 791.98267 783.29883 4279042048
7.6706419 791.98267 783.29883 4278780172
11.079817 791.98267 783.29883 4279962673
13.636697 791.98267 783.29883 4280159007
16.218349 790.84949 784.30548 4278648856
19.666054 789.71637 785.31213 4278190103
22.231194 789.71637 785.31213 4278190085
29.07156 789.71637 785.31213 4285294724
-3.4091742 793.93738 784.94708 4280821035
-1.7045871 793.28583 784.39771 4278783516
0.85045874 794.03986 783.72546 4283051030
4.2559633 794.03986 783.72546 4284108647
7.6633029 794.03986 783.72546 4283188047
11.055964 794.79388 783.05322 4282266432
13.636697 793.28583 784.39771 4279043883
16.193579 793.93744 784.94708 4278714647
18.750458 793.93738 784.94708 4278452247
25.568808 793.28583 784.39771 4278190080
28.125687 793.28583 784.39771 4278190080
30.68257 794.58899 785.49646 4282133547
-3.401835 797.39459 785.24609 4280549632
-1.7009175 796.09424 784.14966 4280226833
0 796.74438 784.69788 4284897843
3.401835 796.09424 784.14966 4284570495
25.513762 796.09424 784.14966 4278190080
28.065138 796.09424 784.14966 4278190080
30.616514 797.39459 785.24609 4286472016
-1.6954129 799.64832 783.22217 4285549890
0.84770644 800.29639 783.76862 4285226090
4.2385321 800.29639 783.76855 4282727483
6.7816515 799.64832 783.22217 4281350220
22.888073 799.64832 783.22217 4278190080
25.431192 799.64832 783.22217 4278190080
27.974312 799.64832 783.22217 4282654727
30.517431 800.94446 784.31506 4286738046
0.84587157 803.73743 784.05396 4284567667
4.2293577 803.73743 784.05396 4284827691
6.7669725 803.73743 784.05396 4284832102
15.225688 803.73743 784.05396 4279570188
31.332111 802.98901 784.73096 4286738807
15.225688 805.03082 785.14453 4281673250
32.14312 805.03082 785.14453 4286410607
-3.9345562 808.13129 783.83466 4280423185
0.84311926 807.91638 783.65344 4283909979
4.4966359 807.70148 783.47235 4284562222
6.7449541 807.27185 783.10999 4285224523
11.80367 807.27185 783.10999 4283977036
13.489908 807.27185 783.10999 4283910212
16.187891 808.81885 784.41437 4283120682
26.979816 807.27185 783.10999 4286804322
28.666056 807.27185 783.10999 4286475358
31.195412 807.91638 783.6535 4286344816
34.56789 809.85016 785.28394 4286278519
-6.7302752 812.62494 785.00745 4280098077
-4.4868503 811.76733 784.28436 4279636244
0.84128439 811.33856 783.92285 4282726477
5.0477066 811.33856 783.92285 4283048729
11.777982 811.33856 783.92285 4284962607
13.46055 811.98175 784.46515 4284043054
18.508257 811.98175 784.46515 4286083157
28.60367 811.33856 783.92285 4286410861
31.968807 811.33856 783.92285 4286279800
34.492661 812.62494 785.00745 4286476148
-6.7082567 817.4176 785.12451 4280817700
-4.4660549 817.97687 783.85205 4280620060
1.1168195 817.97687 783.85205 4284103262
3.3467889 818.89758 783.75635 4284697130
11.713761 818.89758 783.75635 4282720557
13.401834 817.51654 783.8999 4282855733
15.652599 816.99023 784.76416 4284106311
19.27523 817.14648 784.24194 4286279019
22.590824 818.89758 783.75635 4286606704
26.774311 818.89758 783.75635 4286476404
28.447706 818.89758 783.75635 4286410355
30.957798 818.89758 783.75635 4286541691
34.342201 817.51654 783.8999 4286739058
36.895412 817.4176 785.12451 4286673264
-6.6935778 821.45618 785.9137 4281214773
-5.0201836 820.17688 784.83496 4280622636
0.83669722 820.17688 784.83496 4283904329
26.774311 820.17688 784.83496 4286410357
28.447706 820.17688 784.83496 4286344564
30.957798 820.17688 784.83496 4286541691
34.304588 820.81653 785.37433 4286607215
36.814678 820.81653 785.37433 4286607730
-4.1697249 824.30536 784.39197 4280554788
-1.66789 823.66779 783.85437 4280750110
0.83394498 823.66779 783.85437 4281605683
3.3357799 823.66779 783.85437 4283252296
19.180733 823.66779 783.85437 4286343289
22.238533 824.09283 784.21271 4286345344
25.852295 823.66779 783.85437 4286411127
28.354128 824.30536 784.39197 4286607224
30.855965 823.66779 783.85437 4286673014
33.3578 824.94293 784.92957 4286673014
36.693577 824.94293 784.92957 4286476150
-4.1605506 827.68683 784.62695 4280555046
-1.6642202 826.41449 783.5542 4280488490
0.83211011 826.41449 783.5542 4281012783
3.3284404 826.41449 783.5542 4283052852
23.299082 826.41449 783.5542 4286739059
25.795414 826.41449 783.5542 4286673013
29.955963 826.41449 783.5542 4286672750
31.620184 826.41449 783.5542 4286738544
36.612843 827.68683 784.62695 4285752160
-7.4816513 829.69214 785.00983 4282136601
-4.9816513 830.42511 784.31982 4280556300
-1.6605505 829.15564 783.24939 4280488490
29.059633 829.15564 783.24939 4286672755
31.550459 829.15564 783.24939 4286869362
33.21101 829.15564 783.24939 4286803566
38.192661 830.42511 784.31982 4286341721
39.85321 830.42511 784.31982 4286800766
-7.4614677 832.79199 784.35352 4281742903
38.066055 833.8894 783.31677 4292985269
39.7211 833.8894 783.31677 4292792265
-9.930275 835.15466 784.38354 4281083437
-8.2752295 835.15466 784.38354 4282004539
40.548622 835.78735 784.91699 4293648608
-14.036697 839.14001 785.12781 4281413435
-10.733945 838.50873 784.59558 4280886830
-7.4311924 837.8775 784.06335 4282071103
29.174311 838.71918 784.77295 4293780187
37.155964 838.50873 784.59558 4293451747
39.633026 838.50879 784.59558 4293320423
-9.8862381 841.85443 784.80054 4280557595
-7.4146791 841.22461 784.26947 4281216306
-4.119266 841.22461 784.26947 4280624688
-1.6477064 841.22461 784.26947 4279506210
0.82385319 841.22461 784.26941 4280031492
4.119266 841.85443 784.80054 4280161823
6.5908256 841.85443 784.80054 4280095779
10.710092 841.85443 784.80054 4280425763
14.005505 841.85443 784.80054 4283116347
16.477064 841.85443 784.80054 4285091138
18.948624 840.59473 783.7384 4283050273
22.244038 840.59473 783.7384 4293381302
25.53945 840.59473 783.7384 4293910723
32.130276 840.59473 783.7384 4294043626
34.601833 840.59473 783.7384 4293845998
-6.5908256 843.11414 785.86267 4280230460
-3.2954128 843.11414 785.86267 4280229667
-1.6477064 843.11414 785.86267 4280097825
4.943119 843.11414 785.86267 4280029985
7.4146786 843.11414 785.86267 4281540138
1.7614679 749.03772 787.63776 4285424740
3.5229359 749.03772 787.63776 4285227616
19.376146 748.36438 787.07007 4285753710
22.018349 749.03772 787.63776 4285686634
25.541285 748.36438 787.07007 4285753458
28.183487 749.03772 787.63776 4285556334
5.26789 752.03625 786.24194 4285227616
16.681652 752.03625 786.24194 4285622644
19.315596 752.03625 786.24194 4285556093
25.461468 752.03625 786.24194 4285490539
1.7559633 753.37866 787.3739 4279902233
4.3844037 754.15234 786.7182 4283978290
22.827522 753.37866 787.3739 4285227616
25.43578 754.15234 786.7182 4285358950
29.266054 753.82617 787.75122 4285359200
1.7522936 756.93555 787.75677 4278715655
4.088685 756.71222 787.56854 4281084428
-3.493578 761.25336 787.47339 4280686339
5.2403669 759.91791 786.34741 4278190080
6.9871559 759.91791 786.34741 4282919982
29.11315 760.36304 786.72272 4285556320
31.442202 761.25336 787.47339 4285490789
-4.3633027 763.35681 787.93896 4279107584
-1.7431192 764.12494 787.27856 4280025088
0.87155962 763.45862 786.71674 4281205768
4.3577981 762.7923 786.15491 4279566369
6.972477 762.7923 786.15491 4279963136
20.917431 763.45862 786.71674 4285228370
22.660551 763.45862 786.71674 4285228370
25.27523 763.45862 786.71667 4285359205
28.470947 763.68073 786.90399 4285752166
31.376146 764.12494 787.27856 4285817957
-6.972477 765.45752 788.40222 4278190080
-4.3577981 765.45752 788.40222 4278517767
-1.7376146 767.75751 786.41736 4279107602
0 767.75751 786.41736 4280025107
6.9504585 767.75751 786.41736 4280224550
19.982569 767.75751 786.41736 4285424722
22.588991 767.75751 786.41736 4285293661
25.236698 766.60754 787.40979 4285358951
28.670643 767.75751 786.41736 4285292907
-6.9504585 770.41437 788.65759 4279044635
-4.6336389 769.52875 787.91083 4278911242
-3.4642203 772.70587 786.66565 4279437344
-6.9137616 776.8764 787.56604 4281409810
-5.1853213 776.8764 787.56604 4280883466
0 775.55499 786.4519 4280360997
20.741285 775.55499 786.4519 4284832608
22.469725 775.55499 786.4519 4286280054
25.350458 775.99542 786.82324 4285885803
27.655046 775.55499 786.4519 4285819753
31.976147 775.55499 786.4519 4285950838
34.568806 775.55499 786.4519 4285885799
37.161469 775.55499 786.4519 4285951343
-6.8917432 781.13538 787.23303 4284898654
-5.1688075 780.47675 786.67773 4283650385
22.398165 780.47675 786.67773 4281678910
24.982569 780.47675 786.67773 4285294954
31.874311 780.47675 786.67773 4286212463
34.458717 780.47675 786.67773 4285951344
37.043121 781.13538 787.23303 4286081910
40.488991 781.13538 787.23303 4286212725
43.073395 780.47675 786.67773 4286278256
-6.8770642 785.28198 788.11334 4284505419
-5.1577983 783.96765 787.00507 4285424226
20.058105 783.74854 786.82031 4278190082
22.350458 783.96765 787.00507 4278848781
24.757429 784.36194 787.33752 4281019432
27.508257 783.31042 786.45093 4286345850
32.092968 783.74854 786.82031 4286147442
34.385323 783.96765 787.00507 4285950836
36.704586 784.55841 788.37518 4286082678
40.488991 783.11115 788.89893 4286016630
-5.1412845 788.20551 786.65417 4284308540
25.706423 788.20551 786.65417 4278387459
27.420183 788.20551 786.65417 4280820544
31.704586 788.20551 786.65417 4286148482
34.27523 788.20551 786.65417 4286082930
-6.8550458 790.17078 788.31128 4280823330
-5.1302752 791.02374 786.41443 4280889889
20.521101 791.02374 786.41443 4278190084
22.231194 791.02374 786.41443 4278190084
31.636698 791.02374 786.41443 4284174120
35.393272 790.45508 787.67902 4286148469
37.702751 790.82587 788.86365 4286343799
-6.8403668 793.63849 788.61914 4280162074
-5.1302752 792.33112 787.51672 4280953636
32.491745 792.33112 787.51672 4286476141
35.056881 792.9848 788.06793 4286214522
37.622017 793.63849 788.61914 4286343799
-5.1137614 795.89215 786.59521 4279635729
17.045872 795.89215 786.59521 4278452224
20.455046 795.89215 786.59521 4278255616
32.387157 795.89215 786.59521 4287721827
34.659939 796.76093 787.32782 4286740095
-4.2522936 798.69501 786.34253 4279897097
32.317432 798.69501 786.34253 4287329926
34.907341 799.24695 788.11591 4286412156
37.500916 798.49847 788.79285 4286278258
39.205505 798.49847 788.79285 4286344051
34.813759 802.41626 787.51813 4286410357
37.420185 801.29572 788.5354 4286146415
39.121101 801.29572 788.5354 4286278258
34.719265 805.57849 786.91437 4286344564
38.14679 806.12909 788.68665 4286476155
16.300306 811.56903 786.73322 4283846973
37.940369 811.78381 786.91443 4286475883
-10.106422 813.81445 787.31848 4280426015
-7.8581033 813.84668 786.90967 4280294173
37.857796 814.55444 786.63434 4286673518
40.381653 815.19757 787.17664 4286412152
-10.095413 816.48395 788.26135 4280359720
-7.5605502 817.5918 787.23346 4280359464
38.699081 816.48395 788.26135 4286673266
40.381653 816.48395 788.26135 4286608243
-10.062386 821.26398 788.36768 4280557093
-8.3853207 819.98187 787.28662 4281215529
38.572475 819.98187 787.28662 4286476400
41.088074 819.98187 787.28662 4286410607
-7.809175 823.16193 787.35199 4282135853
35.141285 822.73553 786.99243 4286673014
38.488075 822.73553 786.99243 4286410357
40.161469 822.73553 786.99243 4286278258
-10.007339 827.49316 787.07983 4280098304
-6.6715598 826.21802 786.00464 4282793028
35.025688 826.21802 786.00464 4286408809
38.361469 826.21802 786.00464 4285094486
40.029358 826.21802 786.00464 4285422136
-13.34312 828.76825 788.15491 4280953134
-10.830275 829.49988 787.46375 4280690466
41.697247 828.76825 788.15491 4293318609
-13.313762 831.50378 787.84534 4281150769
-11.623854 832.96411 786.46069 4281084720
41.605503 831.50378 787.84534 4294173916
44.101837 832.77606 788.91809 4293057762
-13.284404 834.23364 787.53113 4281150769
44.004585 835.50317 788.60144 4293057249
-18.205505 838.95056 787.58423 4281544490
-16.550459 838.95056 787.58423 4281084470
41.376148 837.6853 786.51733 4293122790
43.858715 838.95056 787.58423 4293057764
47.99633 838.95056 787.58423 4292926431
-18.205505 840.21588 788.651 4282853672
-16.550459 840.21588 788.651 4282654012
-14.036697 841.66498 787.25684 4282327084
-10.899083 841.91748 787.46973 4280685081
-7.7064223 842.50665 787.96649 4279833627
-4.4036698 842.50665 787.96649 4279899945
-1.6513761 842.92749 788.32129 4280293153
0.82568806 841.66498 787.25684 4279966491
3.3027523 841.66498 787.25684 4280161572
7.4311924 842.92749 788.32129 4283248947
10.733945 842.29626 787.78906 4282131757
14.036697 842.29626 787.78906 4281936179
16.513762 842.29626 787.78906 4282527801
18.990826 841.03369 786.72461 4284959313
22.458714 841.41248 787.04395 4293712354
25.596329 841.66504 787.25684 4293780712
28.899084 841.66498 787.25684 4293452001
31.376146 841.66504 787.25684 4293320674
33.85321 841.66498 787.25684 4293254883
37.155964 841.66504 787.25684 4293254627
40.293579 841.41248 787.04395 4293254888
43.858715 840.21588 788.651 4293057512
47.168808 840.21588 788.651 4293255144
49.651375 840.21588 788.651 4293057762
31.216513 747.83612 790.54865 4285359211
33.572475 748.73669 791.30798 4285293930
-7.0458717 752.40436 790.47644 4279107592
-4.4036698 752.40436 790.47644 4278517772
-1.7614679 752.40436 790.47644 4278190086
0 752.40436 790.47644 4278190080
-4.6788993 757.02411 789.5755 4280753678
-1.7541285 757.50427 789.54443 4280358670
0 757.50427 789.54443 4280553487
-7.8440366 766.79016 789.52588 4278714369
-8.7155962 768.1228 790.64954 4279637024
43.21101 779.51923 789.79443 4286278258
-8.6422014 780.84064 790.90857 4284638534
43.21101 780.84064 790.90857 4286016883
37.904587 784.42834 790.00952 4286344562
40.488991 785.08691 790.56488 4286278772
43.93486 785.74554 791.12024 4286344563
37.823853 787.2536 789.77576 4286410357
39.543118 788.56799 790.88403 4286278006
40.402752 789.88245 791.99219 4286343802
37.622017 794.94586 789.72144 4286344312
40.231194 794.19604 790.39722 4286344312
43.700916 793.44629 791.073 4286278772
41.042202 796.25323 790.82385 4286606455
43.607338 796.25323 790.82385 4286540914
40.910091 799.80164 789.89172 4286474615
43.466972 799.80164 789.89172 4286606707
46.023853 799.80164 789.89172 4286606957
37.420185 802.59607 789.63184 4286212465
40.284405 802.53241 790.4502 4286410098
43.37339 803.24622 790.18005 4286542192
45.92477 803.24622 790.18005 4286476652
40.822018 805.19684 791.82471 4286542194
43.373394 805.19684 791.82471 4286476916
38.994495 807.42523 789.77942 4286673266
40.689907 808.72137 790.87231 4286476150
43.233028 808.72137 790.87231 4286345083
-13.533945 812.79089 791.68762 4282134584
-11.86789 810.01758 791.96521 4280821023
43.233028 810.01758 791.96521 4286280570
-11.80367 815.00671 789.63184 4281410605
-13.489908 816.29584 790.71887 4281872952
-10.949541 817.03308 790.03241 4280754725
43.842201 817.58502 791.80579 4286407527
47.21468 817.58502 791.80579 4286933328
-13.46055 819.69977 790.97284 4280821033
-11.777982 819.05658 790.43054 4280623138
42.625076 819.91412 791.15363 4286802519
45.429359 819.05658 790.43054 4285618011
48.794495 820.34296 791.51514 4293513923
-13.416513 823.82825 790.52979 4280426790
-10.900917 822.54614 789.44873 4279900687
43.603668 823.82825 790.52979 4291013266
46.119267 822.54614 789.44873 4291933084
48.634861 823.82825 790.52979 4293778908
-11.713761 825.29419 789.14978 4280032032
41.834862 825.29419 789.14978 4289564072
43.508255 826.57349 790.22852 4293647058
46.185688 826.31769 790.01276 4293515993
49.121716 826.93866 791.40839 4292991459
51.875229 827.85284 791.30713 4293123296
43.365139 830.04333 789.2301 4293648868
45.033028 830.04333 789.2301 4293517539
46.700916 831.31848 790.3053 4293057762
48.368809 831.31848 790.3053 4292860640
52.538532 832.59363 791.38037 4292992224
46.546791 835.41052 789.83142 4292926171
49.335171 834.95648 789.88458 4292926428
52.366058 836.04663 790.3678 4292795101
-19.926605 838.04218 790.74231 4283051307
52.307343 838.67688 791.27753 4292925917
-21.515596 841.48114 789.7179 4284364096
-18.757187 841.90289 790.07355 4283904043
-16.550459 842.11377 790.25134 4284294679
-14.06789 842.74646 790.78479 4282386946
-10.757798 842.74646 790.78479 4280287237
-7.4477062 842.74646 790.78479 4279500812
-3.3100917 842.74646 790.78479 4279501833
0.82752293 841.48114 789.7179 4280358946
4.1376147 841.48114 789.7179 4280161322
7.4477062 842.74646 790.78479 4283909415
10.757798 842.74646 790.78479 4282922522
14.06789 842.74646 790.78479 4281740617
16.550459 842.74646 790.78479 4281610065
19.033028 842.11377 790.25134 4283847011
22.067278 842.32471 790.4292 4291611096
25.65321 842.74646 790.78479 4293781483
28.963303 842.74646 790.78479 4293517801
31.445871 842.74646 790.78479 4293583343
33.92844 842.74646 790.78479 4293254883
37.238533 842.74646 790.78479 4293189088
40.824463 842.32471 790.4292 4293189090
43.858715 842.11377 790.25134 4293057762
47.444653 841.90289 790.07355 4293189605
49.651375 841.48114 789.7179 4292925663
31.445871 844.01178 791.85168 4293452007
34.755962 844.01178 791.85168 4293452005
-8.6880732 774.3996 792.01782 4285945168
44.07523 782.16205 792.02271 4286410354
41.35046 787.06274 792.23083 4286408838
43.647705 787.94086 792.97119 4286409595
-18.851376 797.37683 794.38721 4281150765
-16.280735 797.37683 794.38721 4281215275
-13.636697 803.71118 793.18811 4280753681
-11.93211 803.71118 793.18811 4280885010
-13.636697 805.01434 794.28687 4280688128
-11.93211 805.01434 794.28687 4280885504
-13.60734 807.79755 794.01758 4281149732
-15.258716 812.60986 794.151 4282201924
-15.225688 815.37762 793.86865 4281607482
-15.176147 818.87415 792.89282 4280754226
50.477066 821.62927 792.59973 4293254108
50.477066 822.91565 793.68433 4292794330
52.159634 822.91565 793.68433 4292925659
50.201836 829.13214 792.38586 4292860636
52.711926 829.13214 792.38586 4292794845
1.6642202 839.13763 794.28198 4280029985
-24.908257 841.21594 793.4184 4281669926
-22.140673 841.00439 793.23999 4282653996
-19.096329 841.21594 793.4184 4282848525
-16.605505 841.85065 793.95361 4282782976
-14.114679 841.85065 793.95361 4282454272
-10.793578 841.85065 793.95361 4282784279
-7.472477 841.85065 793.95361 4281205267
-4.4281344 841.42749 793.59686 4279959575
-1.6605505 841.21594 793.4184 4279174675
0 840.58118 792.88318 4280095779
4.1513762 840.58118 792.88318 4280160820
6.6422019 841.85065 793.95361 4282528555
10.793578 841.85065 793.95361 4282990151
14.114679 841.85065 793.95361 4283319118
16.605505 841.85065 793.95361 4283256141
19.096329 841.85065 793.95361 4281678147
22.417431 841.85065 793.95361 4290955482
25.738533 841.85065 793.95361 4293716724
29.059633 841.85065 793.95361 4293188833
33.21101 841.85065 793.95361 4293452005
37.362385 841.85065 793.95361 4293254883
40.683487 841.85065 793.95361 4293254881
44.004585 841.85065 793.95361 4293189349
46.495415 841.21594 793.4184 4293189604
49.262997 841.42749 793.59686 4292926435
52.307343 841.21594 793.41846 4292992224
-22.398165 793.64874 797.78394 4281478976
-20.058105 796.0163 797.16412 4281675833
-19.708256 799.99719 796.59656 4281803566
-16.566362 799.12372 795.86017 4281475888
-19.708256 801.30737 797.70129 4281737517
-15.973088 801.86011 796.42334 4281147428
-20.521101 804.09753 797.43787 4281738539
-16.245872 804.09753 797.43787 4281805615
-20.455046 808.92389 797.58325 4282398002
-16.193579 808.27234 797.03387 4282069563
-30.855965 840.24432 797.8313 4282910724
-28.291742 841.68225 796.42761 4282777603
-25.961834 841.93671 796.64221 4285811536
-22.633394 841.93671 796.64221 4286734667
-19.554586 842.00031 796.6958 4287854457
-14.145872 842.95453 797.50037 4291937995
-11.0948 842.53046 797.14276 4289831593
-7.4889908 842.31836 796.96399 4288317847
-4.4379206 842.10638 796.78516 4285882751
-1.6642202 841.68225 796.42761 4280156986
0.83302754 840.32715 796.59314 4278386688
4.1651378 840.32715 796.59314 4279173896
7.7724776 840.77881 796.5379 4282201899
10.81743 841.68225 796.42761 4282859850
13.313762 841.68225 796.42761 4283319887
19.138531 842.95453 797.50037 4283189322
22.466972 842.95453 797.50037 4288584879
25.795414 842.31836 796.96399 4294044917
28.846481 842.53046 797.14276 4293386982
31.620184 841.68225 796.42761 4293386982
34.116516 841.68225 796.42761 4293452518
37.444954 841.68225 796.42761 4293189349
40.496021 842.53046 797.14276 4293189092
44.101837 842.95453 797.50037 4293123555
46.598164 842.95453 797.50037 4293057249
55.751373 842.95453 797.50037 4292925918
-18.266054 843.12018 795.02393 4286340958
-16.605505 843.75488 795.55914 4288909960
-14.114679 843.12018 795.02393 4286408284
-9.9633026 843.12018 795.02393 4285882216
14.944954 843.12018 795.02393 4284569698
16.605505 843.12018 795.02393 4284044106
19.096329 843.12018 795.02393 4281940544
22.417431 843.12018 795.02393 4289375434
29.889908 843.12018 795.02393 4293386982
41.51376 843.12018 795.02393 4293254629
44.004585 843.12018 795.02393 4293123555
46.495415 843.12018 795.02393 4293189349
48.986237 843.75488 795.55908 4293320679
52.307343 843.75488 795.55914 4292926430
54.798164 843.12018 795.02393 4293058012
-24.121101 794.96594 798.89453 4282068535
-22.398165 794.96594 798.89453 4282331707
-24.121101 796.28314 800.00525 4282655796
-22.350458 797.7688 798.64185 4282655796
-24.069725 799.08313 799.75012 4282001459
-22.350458 799.74036 800.3042 4281935409
-22.278898 803.92773 799.91077 4282395955
-19.422628 803.49103 799.54248 4281936940
-18.811008 806.71228 799.64258 4282069037
-17.100918 805.40491 798.54028 4282002994
-30.022018 842.15698 799.44397 4290023264
-28.354128 842.15698 799.44397 4291799675
-25.852295 842.79456 799.98157 4292461489
-22.516514 842.79456 799.98157 4292265167
-19.180733 842.79456 799.98157 4292069323
-15.844954 842.79456 799.98157 4291478458
-13.34312 842.79456 799.98157 4291149250
-10.841284 842.79456 799.98157 4291280579
-7.5055046 842.79456 799.98157 4291411907
-3.8917434 842.36945 799.62323 4291477190
-1.66789 842.15698 799.44397 4291016383
7.5055046 841.51941 798.90637 4279509304
10.841284 841.51941 798.90637 4279764251
13.34312 841.51941 798.90637 4282265389
16.122936 841.94452 799.26483 4283846223
19.180733 842.79456 799.98157 4284505697
22.516514 842.79456 799.98157 4287006103
25.852295 842.79456 799.98157 4294045175
28.354128 842.79456 799.98157 4293387236
30.855965 842.15698 799.44397 4293321448
34.469723 841.94452 799.26483 4293124329
37.527523 842.15698 799.44397 4293189349
40.863304 842.79456 799.98157 4293517796
43.365139 842.79456 799.98157 4293123556
45.866974 842.79456 799.98157 4293057762
53.372478 842.79456 799.98157 4292926433
55.874313 842.79456 799.98157 4292926177
49.094498 844.22687 798.57312 4293123557
51.590824 844.22687 798.57312 4293189351
-24.121101 798.91754 802.22644 4282395703
0.83669722 839.36676 801.01538 4289108140
4.183486 839.36676 801.01538 4286541705
-28.447706 841.92542 803.17285 4292069309
-25.100918 841.92542 803.17285 4291806401
-22.590824 841.92542 803.17285 4291082944
-19.244038 841.92542 803.17285 4291411908
-15.897248 841.92542 803.17285 4290624443
-13.387156 841.92542 803.17285 4289176993
-10.877064 841.92542 803.17285 4290360242
-7.5302753 841.92542 803.17285 4290491316
-4.183486 841.92542 803.17285 4290426296
-1.6733944 841.92542 803.17285 4290295481
0.83669722 840.64606 802.09412 4290556352
4.183486 840.64606 802.09412 4288121523
7.5302753 840.64606 802.09412 4282792355
10.877064 840.64606 802.09412 4279700770
13.387156 840.64606 802.09412 4281215781
15.897248 841.28577 802.63348 4281082138
19.244038 841.92542 803.17285 4283780919
22.590824 841.92542 803.17285 4284637538
25.937614 841.92542 803.17285 4294044408
28.447706 841.92542 803.17285 4293386984
31.236696 841.49902 802.81329 4293123556
34.025692 841.49902 802.81329 4293255146
37.651375 841.92542 803.17285 4293189601
40.998165 841.92542 803.17285 4293123810
43.508255 841.92542 803.17285 4292728798
56.895412 841.92542 803.17285 4292926694
45.866974 844.06964 801.05664 4293057763
49.480732 844.49463 801.41504 4293057765
52.538532 844.06964 801.05664 4292992486
55.040367 844.06964 801.05664 4292992740
58.376148 844.06964 801.05664 4292860901
60.044037 845.34473 802.13184 4293057249
60.044037 846.61987 803.20703 4292662743
63.240368 850.58838 803.93701 4292927206
-30.187157 840.49591 804.5835 4292003516
-26.833027 840.49591 804.5835 4291937987
-22.640366 841.77808 805.66455 4291477186
-19.28624 841.77808 805.66455 4291674831
-15.93211 841.77808 805.66455 4291019202
-13.416513 841.77808 805.66455 4290952891
-10.900917 841.77808 805.66455 4291018426
-7.5467887 841.77808 805.66455 4291018173
-4.1926603 841.77808 805.66455 4290228408
-1.6770642 841.77808 805.66455 4289964983
0.83853209 840.49591 804.5835 4289636542
4.1926603 840.49591 804.5835 4291080904
7.5467887 840.49591 804.5835 4291608268
10.900917 840.49591 804.5835 4289438393
13.416513 841.13696 805.12402 4285100439
15.652599 841.35065 805.3042 4281348672
18.447706 841.77808 805.66455 4282728220
21.801834 841.77808 805.66455 4282402869
31.86422 841.77808 805.66455 4293254881
34.379814 841.77808 805.66455 4293189349
19.551071 843.1084 805.91425 4283716681
22.90275 843.1084 805.91425 4284047445
25.966053 843.13245 805.49854 4292994535
28.478899 843.13245 805.49854 4293387760
30.154129 843.13245 805.49854 4293452003
34.379814 843.06018 806.74561 4293452007
37.692657 843.13245 805.49854 4293123039
41.307644 843.15656 805.08282 4293386468
43.555962 843.13245 805.49854 4293057760
46.06881 843.13245 805.49854 4293057760
49.121716 843.58301 805.44238 4293123553
52.740364 843.4884 805.14465 4293123300
56.058716 843.84436 804.79077 4293123558
58.568806 843.84436 804.79083 4293058024
60.242203 845.76337 806.40894 4292794584
61.711926 847.89502 804.2821 4292925913
61.711926 849.1701 805.3573 4292926685
-30.286238 839.638 807.78418 4291937221
-28.60367 839.638 807.78418 4292397772
-26.079817 839.638 807.78418 4291675083
0.84128439 839.638 807.78418 4290161074
4.2064219 839.638 807.78418 4290884281
7.5715594 839.638 807.78418 4291609276
10.936697 839.638 807.78418 4290162875
-31.407951 841.35309 809.23029 4290949561
-25.238533 840.92438 808.86877 4291477952
-22.71468 841.5675 809.41113 4291477439
-19.069113 841.35309 809.23029 4291411908
-15.703975 841.35309 809.23029 4291215040
-13.46055 841.5675 809.41113 4291018176
-10.936697 840.92438 808.86877 4291018174
-7.5715594 840.92438 808.86877 4291675846
-4.2064219 840.92438 808.86877 4291346370
-1.6825688 840.92438 808.86877 4291609288
13.46055 840.92438 808.86877 4291608006
15.984404 840.92438 808.86877 4290490550
19.349541 842.21069 809.95349 4286741392
22.71468 842.21069 809.95349 4283979622
26.079817 842.21069 809.95349 4292270288
28.60367 842.21069 809.95349 4293782776
31.407949 841.78192 809.59198 4293386462
34.492661 842.21069 809.95349 4293583339
37.857796 842.21069 809.95349 4293122793
40.381653 841.5675 809.41113 4293320423
46.270645 842.21069 809.95349 4293320671
49.63578 842.21069 809.95349 4293057247
52.159634 842.21069 809.95349 4292991202
53.666054 844.34229 807.82666 4293122790
55.343121 844.34229 807.82666 4293056997
58.138226 844.76971 808.18701 4293057508
60.844036 847.42377 808.68085 4292991710
61.915596 849.60132 809.64502 4292925663
-28.666056 839.50043 810.2843 4291805638
-26.979816 839.50043 810.2843 4291477952
0.84311926 839.50043 810.2843 4292067790
4.2155962 839.50043 810.2843 4291345864
7.5880733 839.50043 810.2843 4290098349
10.96055 839.50043 810.2843 4290358980
-30.914373 841.64899 812.09595 4290880936
-28.666056 840.78961 811.37134 4292263609
-25.855658 841.2193 811.73364 4292000943
-22.764221 842.07874 812.45825 4291477953
-19.672783 841.64899 812.09595 4291346112
-16.300306 841.64911 812.09595 4291280832
-13.489908 842.07874 812.45825 4291346113
-11.24159 841.2193 811.73364 4291214788
-7.3070335 841.2193 811.73364 4291609798
-4.2155962 841.4342 811.91479 4291412158
-1.6862385 841.4342 811.91479 4291938246
4.2155962 840.78961 811.37134 4291345864
7.5880733 840.78961 811.37134 4290031019
10.96055 840.78961 811.37134 4290226865
13.489908 841.4342 811.91479 4290293416
16.019266 841.4342 811.91479 4291016882
19.391743 842.07874 812.45825 4291739847
22.764221 842.07874 812.45825 4287003225
25.293577 842.07874 812.45825 4291806067
31.195412 842.07874 812.45825 4293452259
35.411011 842.07874 812.45825 4293188065
38.783485 842.07874 812.45825 4293188319
40.469727 842.07874 812.45825 4293123306
42.718044 841.2193 811.73364 4293386215
46.371559 842.07874 812.45825 4293255136
49.744034 842.07874 812.45825 4293188832
52.273396 842.07874 812.45825 4293188836
-33.651375 844.78339 812.12268 4291541707
26.921101 843.49701 811.03809 4292662505
28.60367 843.49701 811.03809 4293846779
33.651375 843.49701 811.03809 4293056736
37.016514 843.49701 811.03809 4292925148
53.842201 843.49701 811.03809 4292991206
55.524769 843.49701 811.03809 4293122792
58.048622 844.1402 811.58038 4293057253
-27.913761 839.95129 814.58862 4291076512
-10.150458 839.95129 814.58862 4291543756
-8.4587154 839.95129 814.58862 4291609549
0.84587157 839.30457 814.04333 4291805901
4.2293577 839.95129 814.58862 4290886846
7.612844 839.95129 814.58862 4291149241
10.99633 839.95129 814.58862 4290885565
43.985321 839.95129 814.58862 4293255394
-27.913761 841.24463 815.67908 4290485424
-25.376146 841.24463 815.67908 4292590273
-20.300917 841.24463 815.67908 4291543999
-16.07156 841.24463 815.67908 4291346365
-13.533945 841.24463 815.67908 4291477700
-10.99633 841.24463 815.67908 4291741132
-7.612844 841.24463 815.67908 4291609802
-4.2293577 841.24463 815.67908 4291215299
-1.6917431 841.24463 815.67908 4291543756
4.2293577 841.24463 815.67908 4291082666
7.612844 841.24463 815.67908 4291477702
10.99633 841.24463 815.67908 4290951621
13.533945 841.24463 815.67908 4289964460
16.07156 841.24463 815.67908 4290029988
18.609175 841.24463 815.67908 4291806390
21.992661 841.24463 815.67908 4289504432
40.601833 841.24463 815.67908 4293058031
43.13945 841.24463 815.67908 4293189355
46.522934 841.24463 815.67908 4293189090
49.906422 841.24463 815.67908 4293320419
52.444038 841.24463 815.67908 4293188836
-33.72477 844.65704 814.6322 4291671233
-31.195412 844.01245 814.08875 4291409348
-22.764221 843.36786 813.54529 4292001732
-18.548624 843.36786 813.54529 4291346363
20.234863 843.36786 813.54529 4291477965
23.60734 843.36786 813.54529 4288978798
26.136696 843.36786 813.54529 4291083692
28.666056 843.36786 813.54529 4294175481
31.195412 843.36786 813.54529 4293846754
34.56789 843.36786 813.54529 4293320167
37.940369 843.36786 813.54529 4293386466
53.959633 843.36786 813.54529 4292991206
55.64587 843.36786 813.54529 4293056999
57.894192 844.65698 814.63226 4292990951
60.704586 845.94617 815.71924 4292990689
58.889908 846.0697 813.20728 4292925157
61.413761 846.71289 813.74957 4293056738
0.84770644 839.82916 817.10168 4291149257
-27.913761 842.53802 816.76965 4291277751
-25.376146 842.53802 816.76965 4289762718
-22.838531 842.53802 816.76965 4291405735
-19.455046 842.53802 816.76965 4291610825
-16.07156 842.53802 816.76965 4291609538
-13.563303 841.12531 818.19458 4291478204
-11.020184 841.12531 818.19458 4291609794
-7.6220183 841.83167 817.48212 4291741897
-4.2348623 841.83167 817.48212 4290754750
-1.6954129 841.12531 818.19458 4289636531
0.84770644 841.12531 818.19458 4289963961
4.2385321 841.12531 818.19458 4290161299
7.6293578 841.12531 818.19458 4291477186
10.99633 842.53802 816.76965 4291018184
13.533945 842.53802 816.76965 4291149504
16.07156 842.53802 816.76965 4290229169
19.455046 842.53802 816.76965 4289175970
22.838531 842.53802 816.76965 4290490273
25.376146 842.53802 816.76965 4290621579
27.913761 842.53802 816.76965 4292464596
31.297249 842.53802 816.76965 4293714664
34.680733 842.53802 816.76965 4293320421
38.06422 842.53802 816.76965 4293518052
40.601833 842.53802 816.76965 4293056997
43.187157 841.83167 817.48212 4293320423
46.623856 841.12531 818.19458 4292991454
49.906422 842.53802 816.76965 4293188577
52.444038 842.53802 816.76965 4293188836
54.981651 842.53802 816.76965 4293056999
-33.834862 844.47803 818.4054 4291608007
-31.297249 843.83136 817.86011 4292266189
-22.838531 843.83136 817.86011 4291271067
-18.609175 843.83136 817.86011 4292395206
16.07156 843.83136 817.86011 4290623171
19.455046 843.83136 817.86011 4289175716
22.838531 843.83136 817.86011 4290623420
25.376146 843.83136 817.86011 4290360252
27.913761 843.83136 817.86011 4292070858
31.297249 843.83136 817.86011 4293649386
58.365135 844.47803 818.4054 4293254122
61.748623 845.12469 818.95068 4293977333
-27.974312 842.42151 819.28735 4291475387
-25.431192 842.42151 819.28735 4288775571
-20.344954 842.42151 819.28735 4292263620
-16.106422 842.42151 819.28735 4292461762
-13.60734 840.3067 821.42847 4292331964
-11.055964 840.3067 821.42847 4292004029
-7.6541286 840.3067 821.42847 4291939011
-4.2522936 840.3067 821.42847 4290360000
-1.7009175 840.3067 821.42847 4288386487
0.85045874 840.3067 821.42847 4288978876
4.2522936 840.3067 821.42847 4289767307
7.640367 841.36414 820.35791 4291542965
11.020184 842.42151 819.28735 4291477452
13.563303 842.42151 819.28735 4291215829
34.755962 842.42151 819.28735 4293320422
38.14679 842.42151 819.28735 4293583843
40.822018 840.3067 821.42847 4293057249
43.304588 841.36414 820.35791 4293057249
46.623856 842.42151 819.28735 4293057249
50.014679 842.42151 819.28735 4293123042
52.557796 842.42151 819.28735 4293123042
55.100918 842.42151 819.28735 4293188583
-33.908257 845.01379 821.47314 4292331714
-31.365139 843.71765 820.38025 4292201423
-25.431192 843.71765 820.38025 4288973218
-22.888073 843.71765 820.38025 4290410593
11.86789 843.71765 820.38025 4292133319
13.563303 844.36572 820.9267 4291609546
16.106422 844.36572 820.92676 4291280575
19.497248 844.36572 820.9267 4290886072
22.888073 844.36572 820.9267 4289832885
25.431192 844.36572 820.9267 4290556362
27.974312 844.36572 820.9267 4291018176
30.517431 843.71765 820.38025 4292861933
57.644035 843.71765 820.38025 4293254631
-31.466972 842.90741 823.62134 4292593865
-28.065136 842.25726 823.07312 4292132297
-25.513762 842.90741 823.62134 4289695131
-22.962385 842.90741 823.62134 4290085246
-19.560551 842.2572 823.07312 4291005085
-16.17523 840.9035 823.23969 4292523173
-13.636697 840.19995 823.95447 4293056468
-11.079817 840.19995 823.95447 4292201934
-7.6706419 840.19995 823.95447 4291807691
-4.2577982 840.9035 823.23969 4290228922
-1.7009175 841.60706 822.5249 4287795104
0.85229355 840.19995 823.95447 4288320673
4.2614679 840.19995 823.95447 4288714882
7.9376144 842.04053 822.89038 4287464085
10.772477 842.47394 823.25586 4289700288
31.750458 842.47394 823.25586 4292795381
34.58532 842.04053 822.89038 4293321188
37.420185 841.60706 822.5249 4293123808
39.971558 841.60706 822.5249 4292992222
43.373394 841.60706 822.5249 4292991967
46.77523 841.60706 822.5249 4293123042
49.326607 841.60706 822.5249 4293123042
51.877983 842.2572 823.07312 4293056744
55.279816 842.25726 823.07312 4293188582
58.681648 842.90741 823.62134 4293715429
62.083488 842.90741 823.62134 4293256425
-34.018349 844.20776 824.71777 4292068821
16.158716 844.20776 824.71777 4289504415
19.560551 844.20776 824.71777 4289635489
22.962385 844.20776 824.71777 4289963440
25.513762 844.20776 824.71777 4290686652
28.065138 844.20776 824.71777 4290294711
58.681648 844.20776 824.71777 4293058296
62.083488 844.20776 824.71777 4287010748
0.85504586 839.39679 827.20129 4288519063
-31.534863 842.80634 826.1521 4290154901
-28.125687 842.80634 826.1521 4291070841
-25.568808 842.80634 826.1521 4293243028
-23.011927 842.80634 826.1521 4291077031
-16.193579 841.50317 825.05322 4292258450
-13.636697 841.50317 825.05322 4293250754
-11.079817 841.50317 825.05322 4292857546
-7.6706419 841.50317 825.05322 4291872456
-3.97737 841.93756 825.41949 4289833142
-1.7045871 842.15479 825.60266 4288122276
4.2614679 841.50317 825.05322 4288913056
7.6706419 842.15479 825.60266 4287005845
11.079817 842.80634 826.1521 4289304720
13.636697 842.80634 826.1521 4290425011
31.534863 842.80634 826.1521 4292071649
35.228134 842.37201 825.78583 4293584105
37.500916 842.15479 825.60266 4293190116
39.773701 841.93756 825.41949 4293124066
43.466972 842.15479 825.60266 4293255140
46.876144 842.15479 825.60266 4293057251
49.433029 842.15479 825.60266 4292991203
51.989906 842.80634 826.1521 4292926181
55.399082 842.80634 826.1521 4293584107
-34.091743 844.1095 827.25085 4291607764
-1.7045871 844.1095 827.25085 4289436095
13.636697 844.1095 827.25085 4289767338
16.193579 844.1095 827.25085 4288912281
19.560551 845.50818 825.81421 4289109917
22.986238 844.80884 826.53253 4290491320
25.513762 845.50818 825.81421 4290424759
28.125687 844.1095 827.25085 4290491320
30.68257 844.1095 827.25085 4290493123
49.433029 844.1095 827.25085 4293386210
51.989906 844.1095 827.25085 4293254628
55.399082 844.1095 827.25085 4293585390
58.808258 844.1095 827.25085 4291021549
61.365139 844.1095 827.25085 4284841905
63.069725 844.1095 827.25085 4278190387
-31.636698 842.01154 829.40601 4289235587
-28.216515 842.01154 829.40601 4289890100
-25.651377 842.01154 829.40601 4294035783
-23.086239 842.01154 829.40601 4291540401
-19.666054 841.35785 828.85486 4291532682
-16.263304 840.65857 829.57324 4291532187
-13.695413 840.65857 829.57324 4291008662
-11.127523 840.65851 829.57324 4292195255
-7.6954126 841.35785 828.85486 4291934655
-4.5602446 841.57574 829.03857 4290685880
0.85504586 841.35785 828.85486 4288123033
4.2752295 841.35785 828.85486 4284572534
7.4103971 841.57574 829.03857 4284574595
11.115597 842.01154 829.40601 4288452504
32.491745 842.01154 829.40601 4293322223
35.056881 842.01154 829.40601 4293715693
37.622017 842.01154 829.40601 4293452005
40.472172 841.57574 829.03857 4293255140
43.607338 842.01154 829.40601 4293189350
47.027523 842.01154 829.40601 4293254884
-34.944038 845.41266 828.34973 4290358711
-32.491745 843.31891 830.50842 4289436586
-25.651377 843.31891 830.50842 4293578142
-23.086239 843.31891 830.50842 4292399585
-3.4201834 843.31891 830.50842 4291344319
-1.7100917 843.31891 830.50842 4291344319
11.970642 843.31891 830.50842 4289503298
13.680734 843.31891 830.50842 4287991690
16.193579 845.41266 828.34973 4286611052
19.602753 845.41266 828.34973 4288914060
23.011927 845.41266 828.34973 4291610050
25.568808 845.41266 828.34973 4290096564
28.216515 843.31891 830.50842 4290161578
31.636698 843.31891 830.50842 4291413194
35.056881 843.31891 830.50842 4293452269
47.027523 843.31891 830.50842 4293320418
49.592659 843.31891 830.50842 4293518052
52.157799 843.31891 830.50842 4294109685
55.57798 843.31891 830.50842 4291283429
58.808258 845.41266 828.34973 4280568717
61.365139 845.41266 828.34973 4278190127
63.069725 845.41266 828.34973 4278190122
-35.796329 846.71582 829.44849 4290162357
61.365139 846.71582 829.44849 4278190080
-30.847706 841.9231 831.94751 4290614391
-28.277065 841.9231 831.94751 4291602818
-19.708256 841.9231 831.94751 4292460238
-17.137615 841.9231 831.94751 4291398294
-7.7119265 841.9231 831.94751 4291338401
-5.1412845 841.9231 831.94751 4291866036
0.85688072 841.9231 831.94751 4282931535
4.2844038 841.9231 831.94751 4278190080
7.7119265 841.9231 831.94751 4278190080
10.282569 841.9231 831.94751 4284042496
37.702751 841.9231 831.94751 4293123294
40.273396 841.9231 831.94751 4293255137
43.700916 841.9231 831.94751 4293057759
-31.704586 843.23328 833.05212 4290817445
-28.277065 843.23328 833.05212 4292857023
-25.706423 843.23328 833.05212 4293186759
-23.13578 843.23328 833.05212 4293253345
-6.8550458 843.23328 833.05212 4291472039
-4.2807341 843.92981 832.33142 4291803055
-1.7100917 844.62628 831.61072 4291410348
0.85688072 843.23328 833.05212 4283782979
3.4275229 843.23328 833.05212 4278190336
11.99633 843.23328 833.05212 4288649356
13.710092 843.23328 833.05212 4288319108
16.245872 844.62628 831.61072 4287529344
19.666054 844.62628 831.61072 4290161580
23.371254 845.06207 831.97821 4291543493
25.651377 844.62628 831.61072 4289569702
28.216515 844.62628 831.61072 4290359461
31.704586 843.23328 833.05212 4291413703
35.132111 843.23328 833.05212 4293321455
47.128441 843.23328 833.05212 4293452257
49.699081 843.23328 833.05212 4293912808
52.157799 844.62628 831.61072 4293519851
55.57798 844.62628 831.61072 4286680764
58.998169 845.27997 832.16187 4278191699
61.563301 845.93365 832.71301 4278650631
63.273396 845.27997 832.16187 4278190080
59.85321 847.24103 833.81543 4278190897
-15.473394 839.82935 834.1062 4291200659
-12.894495 839.82935 834.1062 4291004801
-10.315597 839.82935 834.1062 4291337109
-30.946789 842.45813 836.32275 4291411647
-28.367889 842.45813 836.32275 4292465107
-24.929358 842.45813 836.32275 4292202196
-22.350458 842.45813 836.32275 4290095797
-19.771561 841.80096 835.76855 4291603902
-16.333027 841.14374 835.21448 4291202476
-12.607951 841.58185 835.58392 4291135118
-10.315597 841.8009 835.76862 4291138680
-8.023242 842.02002 835.95331 4291864211
-5.1577983 842.45813 836.32275 4292131255
0.85963303 842.45813 836.32275 4287005813
4.5847096 842.02002 835.95331 4281807653
8.023242 841.58185 835.58392 4280095744
10.315597 841.8009 835.76862 4286079817
12.894495 842.45813 836.32275 4289894783
15.473394 842.45813 836.32275 4290160797
32.666054 842.45813 836.32275 4292400589
34.385323 842.45813 836.32275 4292860647
