# .PCD v0.7 - Point Cloud Data file format
VERSION 0.7
FIELDS x y z rgb
SIZE 4 4 4 4
TYPE F F F U
COUNT 1 1 1 1
WIDTH 1156
HEIGHT 1
VIEWPOINT 0 0 0 1 0 0 0
POINTS 1156
DATA ascii
-14.113762 822.94171 1271.1372 4284306012
-10.585321 822.94171 1271.1372 4283846483
-7.056881 822.04254 1270.3792 4287859337
-4.704587 822.04254 1270.3792 4289765051
-2.3522935 822.94171 1271.1372 4292988913
-22.259632 830.03638 1270.5792 4283054665
-18.744955 829.14069 1269.824 4283319118
-16.401834 830.03638 1270.5792 4284371290
-14.058716 829.14069 1269.824 4284109398
-10.544037 828.245 1269.0688 4283057740
-7.0293579 828.245 1269.0688 4285163888
-4.6862388 828.245 1269.0688 4288317351
-2.3431194 828.245 1269.0688 4292922860
-14.014679 835.68689 1270.1115 4284438100
-10.511009 835.68689 1270.1115 4284109395
-7.0073395 835.68689 1270.1115 4284175192
-4.6715598 835.68689 1270.1115 4286472346
-2.3357799 835.68689 1270.1115 4292591095
-16.350458 837.47266 1271.6172 4284175196
-14.014679 837.47266 1271.6172 4284503907
-10.511009 837.47266 1271.6172 4284372573
-7.0073395 837.47266 1271.6172 4282991173
-4.6715598 837.47266 1271.6172 4285485951
-2.3357799 837.47266 1271.6172 4292328422
-10.469725 844.49719 1270.9999 4284634971
-6.9798164 844.49719 1270.9999 4283517256
-19.478899 757.51123 1274.8293 4284236374
-2.4146788 774.69067 1274.9263 4289105560
-19.244038 779.26178 1272.2404 4284109140
-16.838531 779.26178 1272.2404 4284174933
-13.230275 779.26178 1272.2404 4284569691
-9.6220188 779.26178 1272.2404 4286737523
-7.2165136 779.26178 1272.2404 4289369500
-2.4055047 779.26178 1272.2404 4289368212
-24.055046 781.10083 1273.791 4282265389
-21.649542 781.10083 1273.791 4283975751
-19.244038 781.10083 1273.791 4283911256
-13.230275 781.10083 1273.791 4284306262
-4.8110094 781.10083 1273.791 4289105306
-2.4055047 781.10083 1273.791 4289368478
-28.755962 787.48291 1272.6321 4282726215
-26.359632 787.48291 1272.6321 4282463043
-23.963303 787.48291 1272.6321 4282136381
-14.377981 787.48291 1272.6321 4284503644
-11.981651 787.48291 1272.6321 4284372057
-28.755962 789.31494 1274.1768 4282856767
-26.359632 789.31494 1274.1768 4282856767
-14.377981 789.31494 1274.1768 4284569437
-10.783486 789.31494 1274.1768 4284896862
-7.1889906 789.31494 1274.1768 4289961126
-21.484404 797.48694 1274.5271 4283384395
-19.097248 796.57446 1273.7577 4283450972
-16.710093 796.57446 1273.7577 4284569452
-14.322936 796.57446 1273.7577 4284372587
-11.93578 796.57446 1273.7577 4284109415
-10.667891 811.3656 1274.4569 4284107596
-7.1119266 811.3656 1274.4569 4290225055
-4.7412844 811.3656 1274.4569 4291934670
-2.3706422 811.3656 1274.4569 4293579496
-21.25321 817.61731 1273.188 4283119955
-18.891743 817.61731 1273.188 4283383643
-16.530275 817.61731 1273.188 4284699503
-14.168807 817.61731 1273.188 4284371805
-10.626606 817.61731 1273.188 4283648335
-7.0844035 817.61731 1273.188 4288253843
-4.7229357 817.61731 1273.188 4290224566
-2.3614678 817.61731 1273.188 4293317094
-30.699083 819.42261 1274.7102 4284366411
-28.337614 819.42261 1274.7102 4283251544
-25.976147 819.42261 1274.7102 4283053908
-22.433945 819.42261 1274.7102 4283054412
-35.284405 827.43756 1274.9281 4283119955
-31.755962 826.53839 1274.1699 4282857806
-28.227524 826.53839 1274.1699 4282792503
-25.875229 826.53839 1274.1699 4282924089
-22.34679 825.63922 1273.4117 4283120709
-16.466055 825.63922 1273.4117 4284109151
0 827.43756 1274.9281 4293053654
-35.14679 833.61902 1273.6 4283055180
-31.24159 833.02197 1273.0966 4283054162
-28.117432 833.61902 1273.6 4283120709
-25.774311 833.61902 1273.6 4283252296
-22.259632 833.61902 1273.6 4283251791
-18.744955 833.61902 1273.6 4283451476
-16.401834 833.61902 1273.6 4284240735
-16.350458 839.25836 1273.1228 4284240735
-14.014679 839.25836 1273.1228 4284634991
-4.6715598 839.25836 1273.1228 4284764013
-2.3357799 839.25836 1273.1228 4291803864
-28.029358 841.04407 1274.6284 4282198320
-23.357798 841.04407 1274.6284 4282793028
-16.350458 841.04407 1274.6284 4284175185
-14.014679 841.04407 1274.6284 4284371551
-4.6715598 841.04407 1274.6284 4284305006
-2.3357799 841.04407 1274.6284 4290884306
-10.469725 847.16522 1273.2495 4284238677
-6.9798164 847.16522 1273.2495 4283648589
-31.653212 759.37268 1276.3989 4283313723
-25.566055 760.30341 1277.1836 4282461777
-21.913761 760.30341 1277.1836 4284108401
-19.478899 760.30341 1277.1836 4284502626
-17.044037 759.37268 1276.3989 4283317064
-2.4238532 770.10547 1277.6003 4289039765
0 770.10547 1277.6003 4289040024
-24.14679 776.53674 1276.4828 4282003026
-21.732111 776.53674 1276.4828 4283845230
-4.8293576 776.53674 1276.4828 4289434262
1.2073394 776.53674 1276.4828 4289303189
4.8293576 776.53674 1276.4828 4289434523
-28.866055 782.93982 1275.3417 4282791754
-26.46055 782.93982 1275.3417 4282265410
-12.027523 782.93982 1275.3417 4284372055
-9.6220188 782.93982 1275.3417 4286144367
-4.8110094 782.93982 1275.3417 4289631650
-2.4055047 782.93982 1275.3417 4289368478
-31.271559 784.77881 1276.8922 4282595135
-9.6220188 784.77881 1276.8922 4285619045
-7.2165136 784.77881 1276.8922 4289566624
-4.8110094 784.77881 1276.8922 4289567406
-2.4055047 784.77881 1276.8922 4289172648
-28.755962 791.14691 1275.7214 4282792004
-26.359632 791.14691 1275.7214 4282792004
-23.963303 791.14691 1275.7214 4282397752
-10.783486 791.14691 1275.7214 4284830814
-7.1889906 791.14691 1275.7214 4289171867
-4.7926607 791.14691 1275.7214 4289040295
-28.755962 792.97894 1277.2662 4282857799
-26.359632 792.97894 1277.2662 4282529090
-22.765137 792.97894 1277.2662 4283054649
-9.5853214 792.97894 1277.2662 4285421414
-7.1889906 792.97894 1277.2662 4289105821
-4.7926607 792.97894 1277.2662 4289566372
-2.3963304 792.97894 1277.2662 4289303201
-19.097248 799.31195 1276.0659 4283582303
-16.710093 799.31195 1276.0659 4284634991
-14.322936 799.31195 1276.0659 4284503405
-10.742202 799.31195 1276.0659 4284568422
-7.161468 799.31195 1276.0659 4288186003
-4.774312 799.31195 1276.0659 4289500303
-26.258715 801.13696 1277.6047 4282924096
-21.484404 801.13696 1277.6047 4282859084
-19.097248 801.13696 1277.6047 4283385181
-16.710093 801.13696 1277.6047 4284700784
-14.322936 801.13696 1277.6047 4284503392
-10.742202 801.13696 1277.6047 4284305239
-7.161468 801.13696 1277.6047 4290094250
-4.774312 801.13696 1277.6047 4290949568
-2.387156 801.13696 1277.6047 4291212997
-28.557798 806.90527 1277.2363 4282923333
-26.177982 806.90527 1277.2363 4283054662
-23.798164 806.90527 1277.2363 4282989900
-19.038532 806.90527 1277.2363 4283057242
-16.658716 806.90527 1277.2363 4284570482
-14.278899 806.90527 1277.2363 4284635484
-10.709174 806.90527 1277.2363 4284501583
-7.1394496 806.90527 1277.2363 4290881187
-4.7596331 805.99561 1276.4692 4292526026
-2.3798165 805.99561 1276.4692 4293381335
-30.818348 814.99036 1277.5132 4284695626
-28.447706 814.08417 1276.7491 4283251294
-26.077065 814.08417 1276.7491 4282988122
-22.916208 813.78204 1276.4945 4283054415
-18.965137 813.17798 1275.9851 4283383643
-16.594496 813.17798 1275.9851 4284436331
-14.223853 813.17798 1275.9851 4283780434
-10.667891 813.17798 1275.9851 4283713097
-34.241287 821.22803 1276.2325 4283906125
-30.699083 821.22803 1276.2325 4283709512
-28.337614 821.22803 1276.2325 4283054664
-25.976147 821.22803 1276.2325 4283054664
-37.783485 823.03333 1277.7548 4283120205
-35.42202 823.03333 1277.7548 4283185998
1.1807339 823.03333 1277.7548 4292463062
-35.284405 829.23596 1276.4443 4283055694
-32.93211 829.23596 1276.4443 4282725198
1.1761467 829.23596 1276.4443 4292526544
1.1761467 831.0343 1277.9607 4292461010
-39.833027 835.4104 1275.1105 4283318341
-37.48991 835.4104 1275.1105 4283252046
-35.14679 835.4104 1275.1105 4283317839
-31.632111 835.4104 1275.1105 4283317589
-28.117432 835.4104 1275.1105 4283186498
-25.774311 835.4104 1275.1105 4283318341
-22.259632 835.4104 1275.1105 4283252809
-18.744955 835.4104 1275.1105 4283254094
1.1715597 835.4104 1275.1105 4292133333
-37.48991 837.20172 1276.6208 4283709514
-35.14679 837.20172 1276.6208 4283775308
-31.632111 837.20172 1276.6208 4283252568
-28.117432 837.20172 1276.6208 4283055414
-25.774311 837.20172 1276.6208 4283318843
-22.259632 837.20172 1276.6208 4283122252
-18.744955 837.20172 1276.6208 4283451476
1.1715597 837.20172 1276.6208 4292265171
-28.029358 842.82983 1276.1342 4282923596
-23.357798 842.82983 1276.1342 4282924105
-16.350458 842.82983 1276.1342 4284632665
-14.014679 842.82983 1276.1342 4284633433
-4.6715598 842.82983 1276.1342 4284371826
-2.3357799 842.82983 1276.1342 4290161353
-16.350458 844.61554 1277.6399 4283645268
-14.014679 844.61554 1277.6399 4283973200
-4.6715598 844.61554 1277.6399 4284175976
-2.3357799 844.61554 1277.6399 4289636794
-34.216515 754.737 1279.0303 4282331457
-31.772476 754.737 1279.0303 4282265664
-29.32844 754.737 1279.0303 4282724936
-25.662384 754.737 1279.0303 4283118414
-21.99633 754.737 1279.0303 4284301663
-17.108257 754.737 1279.0303 4283446858
-13.442202 754.737 1279.0303 4283510089
-9.7761469 754.737 1279.0303 4282002462
-2.4440367 754.737 1279.0303 4287983942
-34.216515 756.60547 1280.6058 4283313723
-29.32844 756.60547 1280.6058 4283248464
-14.66422 756.60547 1280.6058 4283512151
-2.4440367 756.60547 1280.6058 4290285453
0 756.60547 1280.6058 4289827500
-31.653212 763.09564 1279.538 4287262600
-25.566055 763.09564 1279.538 4282330702
-19.478899 763.09564 1279.538 4284372055
-31.510092 772.88513 1279.9441 4284962669
-29.086239 772.88513 1279.9441 4284306016
-25.854437 772.57623 1279.6837 4281937197
-21.814678 771.95856 1279.1628 4284371251
-19.390825 771.95856 1279.1628 4284306279
1.2119266 771.95856 1279.1628 4289171864
4.8477063 771.95856 1279.1628 4289171867
7.2715597 773.81165 1280.7252 4289500316
9.6954126 773.81165 1280.7252 4289301917
13.331193 772.88507 1279.9441 4289170326
-31.390825 778.38275 1278.0393 4282857301
-28.976147 778.38275 1278.0393 4282791504
-26.561468 778.38275 1278.0393 4282133831
-9.6587152 778.38275 1278.0393 4286604911
-7.2440367 778.38275 1278.0393 4289434010
1.2073394 778.38275 1278.0393 4289237658
4.8293576 778.38275 1278.0393 4289500064
13.280734 778.38275 1278.0393 4289236117
16.902752 778.38275 1278.0393 4289499284
-33.805504 780.22882 1279.5958 4282529872
-31.390825 780.22882 1279.5958 4282529872
-7.2440367 780.22882 1279.5958 4289434273
1.2073394 780.22882 1279.5958 4289237660
4.8293576 780.22882 1279.5958 4289302953
7.2440367 780.22882 1279.5958 4289302953
9.6587152 780.22882 1279.5958 4289367711
13.280734 780.22882 1279.5958 4289302162
16.902752 780.22882 1279.5958 4289697166
-31.271559 787.53735 1279.2183 4282660670
-4.8110094 786.61786 1278.4429 4289567406
-2.4055047 787.53735 1279.2183 4289172136
-31.152294 794.81097 1278.8109 4282857297
-28.755962 794.81097 1278.8109 4282857799
-26.359632 794.81097 1278.8109 4282792006
-23.963303 794.81097 1278.8109 4282595135
-9.5853214 794.81097 1278.8109 4285422697
-7.1889906 794.81097 1278.8109 4288646554
-4.7926607 794.81097 1278.8109 4289303201
-2.3963304 794.81097 1278.8109 4289105821
-31.152294 796.64294 1280.3556 4282529620
-28.755962 796.64294 1280.3556 4282857799
-26.359632 796.64294 1280.3556 4282792006
-22.765137 796.64294 1280.3556 4283120469
-2.3963304 796.64294 1280.3556 4289039752
-31.033028 802.96198 1279.1434 4282792778
-28.645872 802.96198 1279.1434 4282857269
-26.258715 802.96198 1279.1434 4282988856
-22.677982 802.96198 1279.1434 4282988883
-19.097248 802.96198 1279.1434 4283385181
-16.710093 802.96198 1279.1434 4284766834
-14.322936 802.96198 1279.1434 4284635230
-10.742202 802.96198 1279.1434 4284633685
-7.161468 802.96198 1279.1434 4290553767
-38.194496 804.78699 1280.6823 4284100425
-34.613762 804.78699 1280.6823 4283182151
-31.033028 804.78699 1280.6823 4283119442
-21.484404 804.78699 1280.6823 4282989900
2.387156 804.78699 1280.6823 4292789975
4.774312 804.78699 1280.6823 4292921052
-33.317432 808.72467 1278.7704 4283445073
-30.937614 808.72467 1278.7704 4283510866
-28.557798 808.72467 1278.7704 4282923333
-26.177982 808.72467 1278.7704 4283054662
-22.608257 808.72467 1278.7704 4283120205
-19.038532 808.72467 1278.7704 4283253592
-16.658716 808.72467 1278.7704 4284701038
-14.278899 808.72467 1278.7704 4284437850
-33.317432 810.54407 1280.3044 4284562509
-30.937614 810.54407 1280.3044 4284759888
1.1899083 810.54407 1280.3044 4292856790
4.7596331 810.54407 1280.3044 4292461267
7.1394496 810.54407 1280.3044 4292658646
9.5192661 810.54407 1280.3044 4292330199
-37.930275 818.61511 1280.5696 4283971408
-33.188992 816.80273 1279.0414 4284234825
1.1853211 817.70892 1279.8054 4292659926
4.7412844 817.70892 1279.8054 4292593878
7.1119266 817.70892 1279.8054 4292528342
9.4825687 817.70892 1279.8054 4292461030
-40.144955 824.83875 1279.277 4283186782
-37.783485 824.83875 1279.277 4283185748
2.3614678 824.83875 1279.277 4292593103
4.7229357 824.83875 1279.277 4292395473
-40.144955 826.6441 1280.7992 4283384408
-37.783485 826.6441 1280.7992 4283187536
4.7229357 826.6441 1280.7992 4292132302
7.0844035 826.6441 1280.7992 4292461267
9.4458714 826.6441 1280.7992 4292264665
4.704587 832.83264 1279.4771 4292067022
-39.988991 834.63098 1280.9934 4284365100
4.704587 834.63098 1280.9934 4292001227
-37.48991 838.99304 1278.1312 4284232776
-31.632111 838.99304 1278.1312 4282595912
-25.774311 838.99304 1278.1312 4282724664
-21.088074 838.99304 1278.1312 4282793028
-18.744955 838.99304 1278.1312 4283582792
1.1715597 838.99304 1278.1312 4292199640
-37.48991 840.78436 1279.6416 4285089882
-35.14679 840.78436 1279.6416 4284892760
-31.632111 840.78436 1279.6416 4283384911
-25.774311 840.78436 1279.6416 4282725961
-21.088074 840.78436 1279.6416 4283055948
-18.744955 840.78436 1279.6416 4283645770
1.1715597 840.78436 1279.6416 4292068553
4.6862388 840.78436 1279.6416 4292067522
-10.511009 847.29413 1279.8983 4285291380
-7.0073395 847.29413 1279.8983 4282991192
-4.6715598 847.29413 1279.8983 4283714097
-2.3357799 847.29413 1279.8983 4289569674
-34.216515 758.474 1282.1813 4286604670
-31.772476 758.474 1282.1813 4286736256
-29.32844 758.474 1282.1813 4285421947
4.8880734 758.474 1282.1813 4288973722
12.220183 758.474 1282.1813 4289039778
-34.216515 760.34247 1283.7567 4286604670
-29.32844 760.34247 1283.7567 4285487740
-21.99633 760.34247 1283.7567 4284240237
-17.108257 760.34247 1283.7567 4283911504
-14.66422 760.34247 1283.7567 4284041546
1.2220184 760.34247 1283.7567 4288842391
4.8880734 760.34247 1283.7567 4288973722
7.3321099 760.34247 1283.7567 4289368224
9.7761469 760.34247 1283.7567 4289171365
13.442202 760.34247 1283.7567 4289171364
-31.653212 764.95709 1281.1075 4285032327
-25.566055 764.95709 1281.1075 4281739820
-21.913761 764.95709 1281.1075 4284437044
-19.478899 764.95709 1281.1075 4284240735
-17.044037 764.95709 1281.1075 4283648598
1.2174312 764.95709 1281.1075 4288908697
13.391743 764.95709 1281.1075 4289105822
-34.088074 766.8186 1282.6771 4284502642
-31.653212 766.8186 1282.6771 4285621123
-29.218349 766.8186 1282.6771 4284766309
-25.566055 766.8186 1282.6771 4281543196
-21.913761 766.8186 1282.6771 4284175403
-19.478899 766.8186 1282.6771 4284241519
2.4348624 766.8186 1282.6771 4289237660
4.8697248 766.8186 1282.6771 4289171353
7.3045874 766.8186 1282.6771 4289039511
9.7394495 766.8186 1282.6771 4289302171
12.174312 766.8186 1282.6771 4289367965
-33.933945 775.66467 1282.2877 4282857301
7.2715597 775.66467 1282.2877 4289565857
9.6954126 775.66467 1282.2877 4289432987
-36.3578 777.5177 1283.8501 4282855752
-36.220184 782.07483 1281.1523 4282919980
-33.805504 782.07483 1281.1523 4282529086
1.2073394 782.07483 1281.1523 4289303455
4.8293576 782.07483 1281.1523 4288908706
7.2440367 782.07483 1281.1523 4289106342
9.6587152 782.07483 1281.1523 4289303455
13.280734 782.07483 1281.1523 4289303194
16.902752 782.07483 1281.1523 4289500055
-36.220184 783.9209 1282.709 4281805860
-33.805504 783.9209 1282.709 4282134830
1.2073394 783.9209 1282.709 4289303201
4.8293576 783.9209 1282.709 4289171363
7.2440367 783.9209 1282.709 4289171363
9.6587152 783.9209 1282.709 4289237149
13.280734 783.9209 1282.709 4289236890
16.902752 783.9209 1282.709 4289368216
-33.677063 790.2959 1281.5442 4282923090
-31.271559 790.2959 1281.5442 4282923090
1.2027524 790.2959 1281.5442 4289435806
-36.082569 792.13495 1283.0947 4283380300
-33.677063 792.13495 1283.0947 4282857297
1.2027524 792.13495 1283.0947 4289237144
4.8110094 792.13495 1283.0947 4289171613
7.2165136 792.13495 1283.0947 4288908697
9.6220188 792.13495 1283.0947 4288908177
-38.341286 800.30701 1283.4451 4283575875
-34.347401 799.69629 1282.9302 4283119947
-31.152294 798.47498 1281.9003 4282661969
-28.755962 798.47498 1281.9003 4282792510
-23.963303 798.47498 1281.9003 4282727498
1.1981652 800.30701 1283.4451 4292789214
4.7926607 800.30701 1283.4451 4292856795
19.170643 798.47498 1281.9003 4292922066
21.566973 800.30701 1283.4451 4292790229
-40.58165 806.61194 1282.2211 4286202916
-38.194496 806.61194 1282.2211 4284429408
-35.807339 806.61194 1282.2211 4283771222
1.193578 806.61194 1282.2211 4292922067
4.774312 806.61194 1282.2211 4292856022
7.161468 806.61194 1282.2211 4293250780
-40.58165 808.43701 1283.7599 4286071637
-38.194496 808.43701 1283.7599 4285482330
-35.807339 808.43701 1283.7599 4284890193
19.097248 808.43701 1283.7599 4292396757
-33.317432 812.36346 1281.8385 4284432710
1.1899083 812.36346 1281.8385 4292659927
4.7596331 812.36346 1281.8385 4292659159
7.1394496 812.36346 1281.8385 4292659159
9.5192661 812.36346 1281.8385 4292527071
19.038532 812.36346 1281.8385 4292527573
-38.077065 814.18286 1283.3726 4284691531
-35.697247 814.18286 1283.3726 4284757324
11.899082 814.18286 1283.3726 4292329697
19.038532 814.18286 1283.3726 4292461017
21.418348 814.18286 1283.3726 4292461017
-40.300919 820.42749 1282.0977 4282922581
4.7412844 820.42749 1282.0977 4292199123
7.1119266 820.42749 1282.0977 4292264917
10.667891 820.42749 1282.0977 4292330210
-42.671558 822.23987 1283.6259 4283055196
7.1119266 822.23987 1283.6259 4292395473
10.667891 822.23987 1283.6259 4292330458
14.223853 822.23987 1283.6259 4292265687
16.594496 822.23987 1283.6259 4292265687
-42.50642 830.25482 1283.8436 4283054912
-40.144955 828.44946 1282.3214 4283712595
-37.783485 828.44946 1282.3214 4283252559
4.7229357 828.44946 1282.3214 4292066770
7.0844035 829.35217 1283.0825 4292198611
10.233027 829.65308 1283.3363 4292132308
-39.988991 836.42932 1282.5096 4285215297
-35.284405 836.42932 1282.5096 4284232776
4.704587 836.42932 1282.5096 4291804102
7.056881 836.42932 1282.5096 4292067274
9.409174 836.42932 1282.5096 4292000975
-37.48991 842.57568 1281.1521 4289631402
-35.14679 842.57568 1281.1521 4289367974
-31.632111 842.57568 1281.1521 4288975013
-28.117432 842.57568 1281.1521 4287070872
-22.259632 842.57568 1281.1521 4285426057
-18.744955 842.57568 1281.1521 4284368992
1.1715597 842.57568 1281.1521 4291476952
4.6862388 842.57568 1281.1521 4291476168
-14.058716 844.36707 1282.6625 4284169298
1.1715597 844.36707 1282.6625 4291739091
4.6862388 844.36707 1282.6625 4292001229
16.401834 844.36707 1282.6625 4291409347
-7.0073395 849.97272 1282.1569 4284171919
-36.798164 754.77606 1285.6035 4284501068
-7.359633 753.83832 1284.8127 4284629279
2.4532111 754.77606 1285.6035 4289170340
4.9064221 753.83832 1284.8127 4289105308
7.359633 754.77606 1285.6035 4289105308
9.8128443 754.77606 1285.6035 4288842402
13.901528 754.46344 1285.34 4289040032
-36.660549 763.1452 1286.1199 4283911261
-34.216515 762.21094 1285.3322 4284571776
-29.32844 762.21094 1285.3322 4284174192
4.8880734 762.21094 1285.3322 4289105819
7.3321099 762.21094 1285.3322 4289237662
9.7761469 762.21094 1285.3322 4289237156
-36.522934 769.61078 1285.0314 4283513670
-34.088074 769.61078 1285.0314 4284041568
7.3045874 768.68005 1284.2466 4289040024
9.7394495 768.68005 1284.2466 4288907414
-38.781651 781.22388 1286.9751 4283385149
-36.220184 785.76697 1284.2655 4281939518
-33.805504 785.76697 1284.2655 4282726215
1.2073394 785.76697 1284.2655 4289303714
4.8293576 785.76697 1284.2655 4289237156
7.2440367 785.76697 1284.2655 4289171363
9.6587152 785.76697 1284.2655 4289433760
13.280734 785.76697 1284.2655 4289301913
16.902752 785.76697 1284.2655 4289236115
-36.220184 787.61298 1285.822 4282791002
4.8293576 787.61298 1285.822 4289368744
7.2440367 787.61298 1285.822 4289237158
9.6587152 787.61298 1285.822 4289302699
13.280734 787.61298 1285.822 4289302947
16.902752 787.61298 1285.822 4289171353
-36.082569 793.974 1284.6454 4283380552
-33.677063 793.974 1284.6454 4282529620
1.2027524 793.974 1284.6454 4289367951
4.8110094 793.974 1284.6454 4289237144
7.2165136 793.974 1284.6454 4289105558
9.6220188 793.974 1284.6454 4289697931
19.244038 793.974 1284.6454 4292723891
-37.285324 795.81299 1286.196 4283445574
1.2027524 795.81299 1286.196 4291539395
4.8110094 795.81299 1286.196 4291409606
7.2165136 795.81299 1286.196 4292067792
9.6220188 795.81299 1286.196 4292330951
14.433027 795.81299 1286.196 4293250267
16.838531 795.81299 1286.196 4293184474
-43.133945 803.97107 1286.5344 4287979327
-40.737614 802.13904 1284.9897 4286135636
0 802.13904 1284.9897 4293119197
7.1889906 802.13904 1284.9897 4293183968
10.384098 803.36035 1286.0195 4292921557
19.170643 803.97107 1286.5344 4292725718
-40.58165 811.17444 1286.0681 4285414990
-38.194496 810.26196 1285.2987 4285350982
-35.807339 810.26196 1285.2987 4284890431
11.93578 810.26196 1285.2987 4292856293
14.322936 812.08698 1286.8374 4292460753
16.710093 812.08698 1286.8374 4292657876
-42.836697 817.82166 1286.4407 4283053910
-40.456882 816.00226 1284.9066 4283839826
11.899082 816.00226 1284.9066 4292395240
14.278899 816.91199 1285.6736 4292264923
16.658716 816.91199 1285.6736 4292330459
19.038532 816.91199 1285.6736 4292133339
21.418348 816.91199 1285.6736 4292199132
-42.671558 824.05225 1285.1539 4283055444
11.853211 824.05225 1285.1539 4292330458
14.223853 824.05225 1285.1539 4292200153
16.594496 824.05225 1285.1539 4292200153
-45.042202 825.86462 1286.6821 4283512663
-42.671558 825.86462 1286.6821 4283186250
11.853211 825.86462 1286.6821 4292132565
14.223853 825.86462 1286.6821 4292264919
16.594496 825.86462 1286.6821 4292330712
-54.313763 833.86554 1286.8882 4283773522
-51.952293 833.86554 1286.8882 4284100423
-42.50642 832.96289 1286.1271 4284757302
7.0844035 832.06018 1285.366 4292001227
11.020184 832.66193 1285.8734 4292000979
14.168807 833.86554 1286.8882 4292132563
16.530275 833.86554 1286.8882 4292198356
-39.988991 838.22766 1284.026 4286071637
7.056881 838.22766 1284.026 4292199364
10.585321 838.22766 1284.026 4292067022
14.113762 838.22766 1284.026 4292067792
-39.988991 840.026 1285.5424 4290221475
-25.875229 840.026 1285.5424 4286939030
7.056881 840.026 1285.5424 4291541961
10.585321 840.026 1285.5424 4291738827
14.113762 840.026 1285.5424 4292001999
16.466055 840.026 1285.5424 4291738570
-14.058716 847.05408 1284.9281 4289435066
-10.544037 847.94971 1285.6833 4287396017
-4.6862388 847.94971 1285.6833 4284041294
-2.3431194 847.94971 1285.6833 4288449424
1.1715597 846.15839 1284.1729 4291343051
4.6862388 846.15839 1284.1729 4291869394
-39.251377 757.58936 1287.9755 4282725188
-36.798164 757.58936 1287.9755 4285554287
-39.251377 759.46484 1289.5569 4282004037
-39.104588 765.94794 1288.4832 4282986046
-37.740364 772.40302 1287.3857 4282002994
-41.392662 774.26447 1288.9552 4284369246
-38.957798 774.26447 1288.9552 4282526788
-38.781651 783.0769 1288.5375 4283123535
-38.634861 791.30505 1288.9351 4283117123
13.280734 790.38202 1288.1567 4289960857
16.902752 790.38202 1288.1567 4291144618
-40.893578 797.65204 1287.7466 4286135115
7.2165136 797.65204 1287.7466 4293119710
9.6220188 797.65204 1287.7466 4292988626
14.433027 797.65204 1287.7466 4293250797
16.838531 797.65204 1287.7466 4293053417
19.244038 797.65204 1287.7466 4292921816
-52.921101 799.49109 1289.2972 4287844450
-50.515594 799.49109 1289.2972 4287844450
-43.299084 799.49109 1289.2972 4288833148
13.230275 799.49109 1289.2972 4292921819
16.838531 799.49109 1289.2972 4292790498
19.244038 799.49109 1289.2972 4292594648
21.649542 799.49109 1289.2972 4292594648
-52.719265 805.80304 1288.0791 4285873756
-43.133945 805.80304 1288.0791 4285940051
11.981651 805.80304 1288.0791 4292856543
14.377981 805.80304 1288.0791 4292726490
21.566973 805.80304 1288.0791 4292396757
-52.719265 807.63507 1289.6239 4286465130
-46.728439 807.63507 1289.6239 4285612135
-43.133945 807.63507 1289.6239 4286072654
14.377981 807.63507 1289.6239 4292791250
16.774311 807.63507 1289.6239 4293120214
-45.355965 815.73694 1289.915 4282858580
-42.968807 813.91199 1288.3762 4284300377
-45.216515 820.55072 1288.7417 4283382102
19.038532 820.55072 1288.7417 4292199638
21.418348 820.55072 1288.7417 4292199893
-45.042202 827.677 1288.2102 4282923353
14.223853 827.677 1288.2102 4292132565
16.594496 827.677 1288.2102 4292198358
-46.227524 829.48938 1289.7384 4284367181
14.223853 829.48938 1289.7384 4292132311
16.594496 829.48938 1289.7384 4292395740
18.965137 829.48938 1289.7384 4292132311
21.335779 829.48938 1289.7384 4292264154
-54.313763 835.6709 1288.4104 4285347887
-51.952293 835.6709 1288.4104 4285219129
-49.590824 835.6709 1288.4104 4285284922
-42.50642 835.6709 1288.4104 4285940051
16.530275 835.6709 1288.4104 4292067792
18.891743 835.6709 1288.4104 4292000977
-43.687157 837.47626 1289.9326 4290353311
18.891743 837.47626 1289.9326 4291344587
-37.636696 841.82434 1287.0586 4291144360
-35.284405 841.82434 1287.0586 4290486430
-31.755962 841.82434 1287.0586 4290550955
-25.875229 841.82434 1287.0586 4289368224
-22.34679 841.82434 1287.0586 4287328437
-18.818348 841.82434 1287.0586 4286076807
-16.466055 841.82434 1287.0586 4284695154
7.056881 841.82434 1287.0586 4291738057
10.585321 841.82434 1287.0586 4291804368
14.113762 841.82434 1287.0586 4291869898
18.818348 841.82434 1287.0586 4291540944
21.170643 841.82434 1287.0586 4292067288
-25.875229 843.62268 1288.575 4291601590
-22.34679 843.62268 1288.575 4291405508
-18.818348 843.62268 1288.575 4290617794
-16.466055 843.62268 1288.575 4290025656
7.056881 843.62268 1288.575 4292198358
10.585321 843.62268 1288.575 4291541710
14.113762 843.62268 1288.575 4291475151
16.466055 843.62268 1288.575 4291409358
18.818348 843.62268 1288.575 4291539911
21.170643 843.62268 1288.575 4291868875
-10.544037 849.74103 1287.1937 4290553542
-7.0293579 849.74103 1287.1937 4289566137
-4.6862388 849.74103 1287.1937 4287660383
-2.3431194 849.74103 1287.1937 4288581485
-41.86055 754.83624 1292.1943 4282200398
-40.477982 761.34033 1291.1383 4282331459
-41.704586 763.21582 1292.7196 4282395453
-40.326607 767.81641 1290.0586 4282001185
-43.992661 769.68494 1291.634 4288777890
-41.548622 769.68494 1291.634 4283053899
-43.827522 776.12592 1290.5248 4287856038
-41.392662 776.12592 1290.5248 4284895097
-38.957798 776.12592 1290.5248 4284038718
-46.262386 777.98743 1292.0944 4288380054
-43.827522 777.98743 1292.0944 4288118443
-41.392662 777.98743 1292.0944 4286210446
-41.205505 784.92993 1290.1 4285615724
-38.781651 784.92993 1290.1 4282922588
-43.629356 786.78302 1291.6624 4286472057
-41.205505 786.78302 1291.6624 4283971667
-38.781651 786.78302 1291.6624 4282985542
-53.122936 794.99713 1292.0481 4287187792
-50.708256 794.99713 1292.0481 4287056206
-43.464222 794.99713 1292.0481 4288569456
-41.049541 793.15112 1290.4916 4285150800
12.073395 794.0741 1291.2698 4292988625
-57.732109 803.16913 1292.3984 4287977058
-55.326607 802.24963 1291.6232 4287582810
-52.921101 801.33008 1290.8479 4287517552
-49.312843 802.24963 1291.6232 4286530649
-45.704586 802.24963 1291.6232 4287254362
14.433027 801.33008 1290.8479 4292791263
16.838531 802.24963 1291.6232 4292528601
-52.719265 809.46704 1291.1686 4287385711
-50.322937 809.46704 1291.1686 4286135645
-46.728439 809.46704 1291.1686 4285744734
-43.133945 809.46704 1291.1686 4285481046
-52.719265 811.29907 1292.7133 4285550433
-50.322937 811.29907 1292.7133 4284629331
-46.728439 811.29907 1292.7133 4284827739
-52.517429 817.56201 1291.4539 4283514732
-50.130276 817.56201 1291.4539 4283317096
-47.743118 817.56201 1291.4539 4283383382
-54.904587 819.38696 1292.9927 4284960863
-50.130276 819.38696 1292.9927 4286340971
-47.743118 819.38696 1292.9927 4285881213
-52.355965 823.27979 1291.0428 4285881433
19.038532 823.27979 1291.0428 4292198871
21.418348 823.27979 1291.0428 4292067542
-52.355965 825.09918 1292.5769 4285422699
-47.596329 825.09918 1292.5769 4284502642
19.038532 825.09918 1292.5769 4291869396
21.418348 825.09918 1292.5769 4292066518
-49.783485 831.30176 1291.2666 4284560974
-46.227524 832.20795 1292.0306 4285283649
18.965137 831.30176 1291.2666 4291869648
21.335779 831.30176 1291.2666 4292066770
-42.50642 839.28162 1291.4548 4291407028
-40.144955 839.28162 1291.4548 4291341234
-28.337614 839.28162 1291.4548 4289828775
-51.952293 841.08698 1292.9771 4291145655
-49.590824 841.08698 1292.9771 4291079862
-43.687157 841.08698 1292.9771 4291473593
-40.144955 841.08698 1292.9771 4291342007
-37.783485 841.08698 1292.9771 4290749881
-34.241287 841.08698 1292.9771 4290813615
-30.699083 841.08698 1292.9771 4291140778
-28.337614 841.08698 1292.9771 4291141039
-18.818348 845.42102 1290.0913 4290552254
-16.466055 845.42102 1290.0913 4290749377
1.1761467 845.42102 1290.0913 4291408049
4.704587 845.42102 1290.0913 4292001747
7.056881 845.42102 1290.0913 4292198869
11.761468 845.42102 1290.0913 4291738318
14.113762 845.42102 1290.0913 4292130515
16.466055 845.42102 1290.0913 4292130515
18.818348 845.42102 1290.0913 4291672266
22.34679 845.42102 1290.0913 4291672521
-16.466055 847.21942 1291.6075 4290289596
-14.113762 847.21942 1291.6075 4290554310
1.1761467 847.21942 1291.6075 4291471287
4.704587 847.21942 1291.6075 4291278542
7.056881 847.21942 1291.6075 4289172909
14.113762 847.21942 1291.6075 4291994549
16.466055 847.21942 1291.6075 4292915651
-41.86055 756.71875 1293.7816 4282462543
-46.611008 766.9668 1295.8823 4289825726
-44.157799 765.09131 1294.301 4286540632
-52.546791 773.42188 1294.7849 4284768376
-48.880733 773.42188 1294.7849 4285621627
-46.436699 772.48767 1293.9972 4288317604
-43.992661 771.55341 1293.2095 4288514204
-43.827522 779.84888 1293.6639 4287592358
-41.392662 779.84888 1293.6639 4285881996
-52.349541 781.71033 1295.2334 4286141248
-46.262386 781.71033 1295.2334 4287124838
-43.827522 781.71033 1295.2334 4286668668
-53.324772 788.63611 1293.2249 4286266213
-43.629356 788.63611 1293.2249 4287257976
-41.205505 788.63611 1293.2249 4284428876
-53.324772 790.48914 1294.7874 4286591560
-46.053211 790.48914 1294.7874 4289223788
-43.629356 790.48914 1294.7874 4287782521
-55.537613 796.8432 1293.6047 4287190356
-48.293579 796.8432 1293.6047 4288630873
-45.878899 796.8432 1293.6047 4290012526
-60.137615 805.00818 1293.9491 4288108894
-57.732109 805.92767 1294.7244 4287909724
-55.326607 805.92767 1294.7244 4287843674
-50.515594 805.00818 1293.9491 4285872992
-57.511925 814.96313 1295.8027 4284501095
-55.115597 814.04712 1295.0303 4283975007
-52.719265 813.1311 1294.2579 4282922840
-50.322937 813.1311 1294.2579 4282594132
-47.926605 813.1311 1294.2579 4282661201
-54.904587 821.21198 1294.5314 4285552468
-50.130276 821.21198 1294.5314 4287197550
-47.743118 821.21198 1294.5314 4286013053
-52.355965 826.91858 1294.111 4284894315
-49.976147 826.91858 1294.111 4285091951
-54.524769 834.92651 1294.3229 4290218642
-52.154129 835.8327 1295.0869 4290813602
-49.783485 835.8327 1295.0869 4291010725
-46.622631 836.13477 1295.3417 4291077795
-51.952293 842.89233 1294.4993 4291474621
-42.50642 842.89233 1294.4993 4291474356
-40.144955 842.89233 1294.4993 4291013805
-37.783485 842.89233 1294.4993 4290879668
-34.241287 842.89233 1294.4993 4290615460
-30.699083 842.89233 1294.4993 4290745752
-28.337614 842.89233 1294.4993 4290746272
-25.976147 842.89233 1294.4993 4291601581
-22.433945 842.89233 1294.4993 4291078319
9.4458714 842.89233 1294.4993 4291870161
-10.585321 849.01776 1293.1239 4290554299
-7.056881 849.01776 1293.1239 4289633462
-4.704587 849.01776 1293.1239 4289501851
-2.3522935 849.91693 1293.8821 4289764761
0 849.01776 1293.1239 4289896105
-44.488075 753.9726 1298.0062 4282133579
-44.322937 760.48376 1296.9562 4283711313
-46.78532 762.36627 1298.5435 4287855003
-51.517429 768.84229 1297.4637 4285292676
-49.06422 768.84229 1297.4637 4286737292
-52.546791 775.29034 1296.3604 4285881983
-48.880733 775.29034 1296.3604 4286406008
-52.546791 777.15887 1297.9358 4286078567
-48.880733 777.15887 1297.9358 4286730598
-46.436699 777.15887 1297.9358 4288572802
-56.001835 784.50256 1297.5878 4285547842
-51.943729 784.19232 1297.3262 4286596445
-48.697247 785.43329 1298.3726 4287318369
-46.262386 784.50256 1297.5878 4288043118
-55.748623 792.34216 1296.3497 4287058254
-48.477066 792.34216 1296.3497 4288170324
-46.053211 792.34216 1296.3497 4289683563
-57.732109 808.68622 1297.0503 4286665825
-55.326607 808.68622 1297.0503 4286468189
-57.732109 810.52527 1298.601 4283317589
-57.511925 817.71118 1298.1198 4285355355
-52.719265 816.79517 1297.3474 4285353820
-57.291744 824.862 1297.609 4286143869
-54.904587 823.94946 1296.8396 4285091690
-50.130276 823.03699 1296.0702 4285883250
-47.412846 838.55127 1297.3792 4291079348
-54.524769 840.36365 1298.9072 4291606219
-49.783485 840.36365 1298.9072 4291277243
-46.227524 840.36365 1298.9072 4291474624
-43.687157 844.69769 1296.0215 4291474882
-40.144955 844.69769 1296.0215 4291080123
-37.783485 844.69769 1296.0215 4290945473
-34.241287 844.69769 1296.0215 4289495183
-30.699083 844.69769 1296.0215 4290940042
-28.337614 844.69769 1296.0215 4290351530
-25.976147 844.69769 1296.0215 4291601340
-22.433945 844.69769 1296.0215 4290551996
-18.891743 844.69769 1296.0215 4289960374
10.626606 844.69769 1296.0215 4289367183
18.891743 844.69769 1296.0215 4291803852
22.433945 844.69769 1296.0215 4291870158
-43.687157 846.50305 1297.5438 4291343803
-40.144955 846.50305 1297.5438 4291277495
-37.783485 846.50305 1297.5438 4290681285
-34.241287 846.50305 1297.5438 4289627034
-30.699083 846.50305 1297.5438 4290546831
-28.337614 846.50305 1297.5438 4290417334
-25.976147 846.50305 1297.5438 4291996366
-22.433945 846.50305 1297.5438 4290419912
-18.891743 846.50305 1297.5438 4289960374
-16.530275 846.50305 1297.5438 4290092217
-14.168807 846.50305 1297.5438 4290290861
2.3614678 846.50305 1297.5438 4291080123
4.7229357 846.50305 1297.5438 4288714941
7.0844035 846.50305 1297.5438 4286017428
10.626606 846.50305 1297.5438 4287135109
14.168807 846.50305 1297.5438 4290422912
16.530275 846.50305 1297.5438 4291014793
18.891743 846.50305 1297.5438 4291277247
22.433945 846.50305 1297.5438 4291737542
-44.488075 755.86212 1299.5995 4281870654
-46.959633 757.75165 1301.1926 4285488251
-49.247707 764.24878 1300.1307 4288509866
-48.880733 779.02734 1299.5114 4286664287
-48.880733 780.89581 1301.0868 4286991455
-56.001835 787.2948 1299.942 4286135869
-51.132111 787.2948 1299.942 4287775577
-48.697247 787.2948 1299.942 4287710806
-60.137615 814.20331 1301.7021 4284437850
-57.511925 820.45917 1300.4368 4286802817
-54.735779 834.19617 1300.2472 4291274915
-54.524769 842.17603 1300.4354 4291672001
-52.154129 842.17603 1300.4354 4291475905
-49.783485 842.17603 1300.4354 4291081147
-47.412846 842.17603 1300.4354 4290948025
-52.154129 843.9884 1301.9636 4291081149
-49.783485 843.9884 1301.9636 4291541700
-47.412846 843.9884 1301.9636 4291475905
-34.241287 848.30841 1299.066 4290350757
-30.699083 848.30841 1299.066 4290875805
-28.337614 848.30841 1299.066 4290285482
-18.891743 848.30841 1299.066 4290158260
-16.530275 848.30841 1299.066 4290224053
-14.168807 848.30841 1299.066 4290159043
-10.626606 848.30841 1299.066 4289699259
-7.0844035 848.30841 1299.066 4288844460
-4.7229357 848.30841 1299.066 4289369998
1.1807339 848.30841 1299.066 4287463563
4.7229357 848.30841 1299.066 4283979115
11.80734 848.30841 1299.066 4285166464
14.168807 848.30841 1299.066 4285686118
16.530275 848.30841 1299.066 4285422947
18.891743 848.30841 1299.066 4285289573
21.25321 848.30841 1299.066 4286605690
-10.626606 850.11377 1300.5883 4289566137
-7.0844035 850.11377 1300.5883 4288381347
-4.7229357 850.11377 1300.5883 4289697931
-2.3614678 850.11377 1300.5883 4290619033
-49.431194 759.64117 1302.7859 4289565620
-60.939449 817.26837 1304.2865 4287257191
-46.227524 845.80078 1303.4917 4291279557
-42.671558 845.80078 1303.4917 4291080647
-40.300919 845.80078 1303.4917 4290817219
-37.930275 845.80078 1303.4917 4290088882
-26.077065 845.80078 1303.4917 4290811827
-22.521101 845.80078 1303.4917 4290288313
7.1119266 845.80078 1303.4917 4284900217
9.4825687 845.80078 1303.4917 4284969085
23.706423 845.80078 1303.4917 4288576384
-49.651375 754.47314 1306.2765 4289172659
-60.939449 820.33344 1306.871 4286076001
-54.735779 841.47369 1306.3834 4291013805
-52.355965 843.29309 1307.9175 4289171855
-49.976147 843.29309 1307.9175 4291540403
-45.042202 847.61316 1305.0199 4291145405
-42.671558 847.61316 1305.0199 4291013053
-40.300919 847.61316 1305.0199 4290026158
-37.930275 847.61316 1305.0199 4290220210
-34.374313 847.61316 1305.0199 4290482866
-30.818348 847.61316 1305.0199 4291403966
-28.447706 847.61316 1305.0199 4290551206
-26.077065 847.61316 1305.0199 4290353826
-22.521101 847.61316 1305.0199 4290092707
-18.965137 847.61316 1305.0199 4289962164
-16.594496 847.61316 1305.0199 4290620094
-14.223853 847.61316 1305.0199 4290487756
1.1853211 847.61316 1305.0199 4287659911
4.7412844 847.61316 1305.0199 4284506446
7.1119266 847.61316 1305.0199 4286414443
10.667891 847.61316 1305.0199 4287401397
14.223853 847.61316 1305.0199 4286806426
16.594496 847.61316 1305.0199 4286214289
18.965137 847.61316 1305.0199 4286080904
22.521101 847.61316 1305.0199 4285488231
26.077065 847.61316 1305.0199 4288053622
-45.042202 849.42554 1306.5481 4290880184
-42.671558 849.42554 1306.5481 4290747580
-40.300919 849.42554 1306.5481 4290879166
-37.930275 849.42554 1306.5481 4291075514
-35.559631 849.42554 1306.5481 4290549170
-18.965137 849.42554 1306.5481 4289436849
-16.594496 849.42554 1306.5481 4290226365
-14.223853 849.42554 1306.5481 4289896648
-10.667891 849.42554 1306.5481 4289368751
-7.1119266 849.42554 1306.5481 4289564576
-4.7412844 849.42554 1306.5481 4290485414
-2.3706422 849.42554 1306.5481 4291143088
14.223853 849.42554 1306.5481 4288647589
16.594496 849.42554 1306.5481 4289108140
-52.133945 758.26904 1309.4771 4286407797
-57.291744 839.46198 1309.9193 4289434773
-47.596329 845.11249 1309.4515 4291211198
-47.596329 846.93188 1310.9856 4290945977
-33.317432 846.93188 1310.9856 4290483888
-30.937614 846.93188 1310.9856 4291010488
-28.557798 846.93188 1310.9856 4290355371
-26.177982 846.93188 1310.9856 4290158248
-22.608257 846.93188 1310.9856 4289896616
1.1899083 846.93188 1310.9856 4288776609
4.7596331 846.93188 1310.9856 4286340676
7.1394496 846.93188 1310.9856 4286603847
10.709174 846.93188 1310.9856 4287201155
19.038532 846.93188 1310.9856 4289175490
22.608257 846.93188 1310.9856 4283189087
26.177982 846.93188 1310.9856 4282663502
28.557798 846.93188 1310.9856 4282399744
-7.1119266 851.23792 1308.0762 4290355373
-2.3706422 851.23792 1308.0762 4290750397
-52.326607 753.646 1312.1191 4289302158
-57.291744 841.28699 1311.4581 4286671667
-54.904587 841.28699 1311.4581 4287395133
-57.291744 843.112 1312.9969 4287130624
-54.904587 843.112 1312.9969 4287722752
-52.517429 843.112 1312.9969 4289368214
-50.130276 843.112 1312.9969 4291342005
-40.456882 848.75128 1312.5198 4291339967
-38.077065 848.75128 1312.5198 4290747315
-34.507339 848.75128 1312.5198 4290418607
-30.937614 848.75128 1312.5198 4290879670
-28.557798 848.75128 1312.5198 4290158248
-26.177982 848.75128 1312.5198 4290092455
-22.608257 848.75128 1312.5198 4290094252
-19.038532 848.75128 1312.5198 4290027453
-16.658716 848.75128 1312.5198 4290488004
-14.278899 848.75128 1312.5198 4290289346
-10.709174 848.75128 1312.5198 4289894577
-4.7596331 848.75128 1312.5198 4290355639
1.1899083 848.75128 1312.5198 4289370038
4.7596331 848.75128 1312.5198 4285553783
7.1394496 848.75128 1312.5198 4283514200
10.709174 848.75128 1312.5198 4286475301
14.278899 848.75128 1312.5198 4287661194
16.658716 848.75128 1312.5198 4288253332
19.038532 848.75128 1312.5198 4286874781
22.608257 848.75128 1312.5198 4283058790
26.177982 848.75128 1312.5198 4282335069
28.557798 848.75128 1312.5198 4282921255
-52.517429 844.93701 1314.5358 4291010727
-50.130276 844.93701 1314.5358 4291273643
-46.549541 846.76196 1316.0745 4290682809
-42.968807 846.76196 1316.0745 4290879416
-64.948624 834.43262 1318.759 4289240001
-61.340366 834.43262 1318.759 4288778154
-62.304588 841.52734 1318.2009 4288776583
-59.109478 841.8327 1318.4584 4288907394
-55.115597 842.44336 1318.9733 4289958789
-45.355965 848.58698 1317.6133 4290681785
-42.968807 848.58698 1317.6133 4290418865
-40.58165 848.58698 1317.6133 4290484915
-38.194496 848.58698 1317.6133 4290023341
-34.613762 848.58698 1317.6133 4290419122
-31.033028 848.58698 1317.6133 4290617266
-28.645872 848.58698 1317.6133 4289829545
-26.258715 848.58698 1317.6133 4290224303
-22.677982 848.58698 1317.6133 4290093482
-19.097248 848.58698 1317.6133 4289302419
-16.710093 848.58698 1317.6133 4289434262
-14.322936 848.58698 1317.6133 4290024614
-10.742202 848.58698 1317.6133 4290617782
-7.161468 848.58698 1317.6133 4290421948
-4.774312 848.58698 1317.6133 4290355639
-2.387156 848.58698 1317.6133 4290684604
0 848.58698 1317.6133 4290424009
10.742202 848.58698 1317.6133 4288580245
14.322936 848.58698 1317.6133 4284247415
16.710093 848.58698 1317.6133 4280957509
19.097248 848.58698 1317.6133 4281411416
22.677982 848.58698 1317.6133 4282003025
26.258715 848.58698 1317.6133 4281541689
28.645872 848.58698 1317.6133 4283840768
26.258715 850.41199 1319.1521 4283317064
-64.948624 836.27161 1320.3097 4287463329
-61.340366 836.27161 1320.3097 4287327085
-64.948624 838.11066 1321.8602 4287593630
-67.097244 844.27539 1320.5181 4290224307
-64.70092 844.27539 1320.5181 4290355893
-62.304588 844.27539 1320.5181 4290815420
-58.710091 844.27539 1320.5181 4290551990
-55.115597 844.27539 1320.5181 4290617012
-52.719265 844.27539 1320.5181 4290550960
-50.322937 844.27539 1320.5181 4290682289
-67.097244 846.10736 1322.0627 4290881967
-64.70092 846.10736 1322.0627 4291079602
-62.304588 846.10736 1322.0627 4291210180
-58.710091 846.10736 1322.0627 4290551218
-55.115597 846.10736 1322.0627 4290221223
-52.719265 846.10736 1322.0627 4289299089
-50.322937 846.10736 1322.0627 4290614949
-47.926605 846.10736 1322.0627 4290484663
2.3963304 846.10736 1322.0627 4288121255
4.7926607 846.10736 1322.0627 4288250501
7.1889906 846.10736 1322.0627 4288711052
-67.354126 839.94971 1323.4109 4289698222
-64.948624 839.94971 1323.4109 4289566893
-67.097244 847.93939 1323.6074 4291080114
-64.70092 847.93939 1323.6074 4291277749
-62.304588 847.93939 1323.6074 4290947260
-58.710091 847.93939 1323.6074 4290354093
-55.115597 847.93939 1323.6074 4289892512
-52.719265 847.93939 1323.6074 4290089121
-50.322937 847.93939 1323.6074 4290615465
-46.728439 847.93939 1323.6074 4290419898
-43.133945 847.93939 1323.6074 4290551732
-40.737614 847.93939 1323.6074 4290551732
-38.341286 847.93939 1323.6074 4290354873
-34.746788 847.93939 1323.6074 4290289335
-31.152294 847.93939 1323.6074 4290355639
-28.755962 847.93939 1323.6074 4290158764
-26.359632 847.93939 1323.6074 4290553265
-22.765137 847.93939 1323.6074 4289895587
-19.170643 847.93939 1323.6074 4288908679
-16.774311 847.93939 1323.6074 4288251005
-14.377981 847.93939 1323.6074 4288908677
-10.783486 847.93939 1323.6074 4290685364
-7.1889906 847.93939 1323.6074 4290422211
-4.7926607 847.93939 1323.6074 4290487222
-2.3963304 847.93939 1323.6074 4290684858
10.783486 847.93939 1323.6074 4289500848
14.377981 847.93939 1323.6074 4285228177
16.774311 847.93939 1323.6074 4281477976
19.170643 847.93939 1323.6074 4283188045
22.765137 847.93939 1323.6074 4284963429
28.755962 847.93939 1323.6074 4286143072
-64.70092 849.77142 1325.1521 4290883516
-62.304588 849.77142 1325.1521 4290223801
-58.710091 849.77142 1325.1521 4290353841
-16.774311 849.77142 1325.1521 4288449420
-11.981651 849.77142 1325.1521 4290488999
-7.1889906 849.77142 1325.1521 4290159291
-2.3963304 849.77142 1325.1521 4290356152
22.765137 849.77142 1325.1521 4291278272
26.359632 849.77142 1325.1521 4290358453
28.755962 849.77142 1325.1521 4290881185
1.2027524 845.4668 1328.0627 4290094518
4.8110094 845.4668 1328.0627 4289370795
7.2165136 845.4668 1328.0627 4290357690
26.359632 851.60339 1326.6968 4290293682
-64.70092 853.43542 1328.2416 4290159806
-62.304588 853.43542 1328.2416 4290684606
-55.326607 847.30579 1329.6134 4290878383
-52.921101 847.30579 1329.6134 4290747828
-49.312843 847.30579 1329.6134 4289958571
-45.704586 847.30579 1329.6134 4290222258
-43.299084 847.30579 1329.6134 4290157747
-40.893578 847.30579 1329.6134 4290486711
-37.285324 847.30579 1329.6134 4290486973
-33.677063 847.30579 1329.6134 4290488258
-31.271559 847.30579 1329.6134 4290225086
-28.866055 847.30579 1329.6134 4289565857
-25.257797 847.30579 1329.6134 4289236383
-21.649542 847.30579 1329.6134 4290091183
-19.244038 847.30579 1329.6134 4289699744
-14.433027 847.30579 1329.6134 4288646795
-9.6220188 847.30579 1329.6134 4290554049
-4.8110094 847.30579 1329.6134 4290224566
0 847.30579 1329.6134 4289436088
4.8110094 847.30579 1329.6134 4288775825
7.2165136 847.30579 1329.6134 4291012787
9.6220188 847.30579 1329.6134 4290815956
13.230275 847.30579 1329.6134 4289369264
16.838531 847.30579 1329.6134 4288646552
19.244038 847.30579 1329.6134 4289237408
-64.948624 849.14484 1331.1641 4290356670
-61.340366 849.14484 1331.1641 4290157762
-57.732109 849.14484 1331.1641 4290681524
-55.326607 849.14484 1331.1641 4291602626
-52.921101 849.14484 1331.1641 4290878916
-48.110092 849.14484 1331.1641 4290156722
-45.704586 849.14484 1331.1641 4290156722
-43.299084 849.14484 1331.1641 4289895603
-40.893578 849.14484 1331.1641 4290158775
-16.838531 849.14484 1331.1641 4289370543
-13.230275 849.14484 1331.1641 4289897652
-9.6220188 849.14484 1331.1641 4290356920
-7.2165136 849.14484 1331.1641 4290225590
-4.8110094 849.14484 1331.1641 4290355639
-2.4055047 849.14484 1331.1641 4290618811
14.433027 849.14484 1331.1641 4290750381
16.838531 849.14484 1331.1641 4290355623
19.244038 849.14484 1331.1641 4290292410
21.649542 849.14484 1331.1641 4290752961
24.055046 849.14484 1331.1641 4290425011
-62.304588 856.18347 1330.5586 4290552759
-59.908257 856.18347 1330.5586 4290684345
2.4146788 844.84027 1334.0746 4287922593
-60.137615 850.98389 1332.7146 4290552764
-57.732109 850.98389 1332.7146 4290484394
-55.326607 850.98389 1332.7146 4290352809
21.649542 850.98389 1332.7146 4287004838
24.055046 850.98389 1332.7146 4283389287
-57.732109 852.82288 1334.2653 4290156726
-55.326607 852.82288 1334.2653 4289433004
-52.921101 852.82288 1334.2653 4290221986
-48.110092 852.82288 1334.2653 4290619049
-45.704586 852.82288 1334.2653 4291210930
-62.304588 858.93146 1332.8756 4290947260
-52.719265 860.76349 1334.4204 4290749629
-53.122936 848.53235 1337.1876 4290614445
-49.903362 847.91699 1336.6688 4290879417
-45.878899 848.53235 1337.1876 4290815924
-43.464222 848.53235 1337.1876 4290422461
-41.049541 848.53235 1337.1876 4290422461
-37.025074 847.3017 1336.15 4290290875
-33.805504 847.60938 1336.4094 4289369010
-31.390825 846.68634 1335.6311 4290093250
-28.976147 846.68634 1335.6311 4289499301
-25.35413 846.68634 1335.6311 4289564841
-21.732111 846.68634 1335.6311 4290354106
-19.31743 846.68634 1335.6311 4289765301
-13.280734 848.53235 1337.1876 4290488494
-9.6587152 848.53235 1337.1876 4290488256
-7.2440367 848.53235 1337.1876 4290093498
-4.8293576 848.53235 1337.1876 4290289832
-2.4146788 848.53235 1337.1876 4290881969
1.2073394 846.68634 1335.6311 4287724448
4.8293576 847.60938 1336.4094 4285685348
7.2440367 847.60938 1336.4094 4290027686
9.6587152 847.60938 1336.4094 4290881738
12.878288 847.91699 1336.6688 4291078596
16.902752 848.53235 1337.1876 4291932863
19.31743 848.53235 1337.1876 4289833937
-57.732109 854.66193 1335.8159 4290815674
-55.326607 854.66193 1335.8159 4290552502
-52.921101 854.66193 1335.8159 4290553267
-48.110092 854.66193 1335.8159 4290226088
-45.704586 854.66193 1335.8159 4290686639
-60.137615 856.50098 1337.3665 4290815674
-57.732109 856.50098 1337.3665 4290815420
