# .PCD v0.7 - Point Cloud Data file format
VERSION 0.7
FIELDS x y z rgb
SIZE 4 4 4 4
TYPE F F F U
COUNT 1 1 1 1
WIDTH 1157
HEIGHT 1
VIEWPOINT 0 0 0 1 0 0 0
POINTS 1157
DATA ascii
-16.710093 788.36194 1266.8331 4284108134
-31.033028 790.18695 1268.3719 4283912547
-28.645872 790.18695 1268.3719 4283978596
-26.258715 790.18695 1268.3719 4283781218
-22.677982 790.18695 1268.3719 4283715424
-19.097248 790.18695 1268.3719 4284109149
-16.710093 790.18695 1268.3719 4284109149
-9.5192661 795.98895 1268.0319 4283382319
-7.1394496 795.98895 1268.0319 4286211418
-4.7596331 795.98895 1268.0319 4287395454
-2.3798165 795.98895 1268.0319 4289500829
-9.4825687 802.30371 1266.8162 4283385401
-7.1119266 802.30371 1266.8162 4284964433
-4.7412844 802.30371 1266.8162 4286145902
-2.3706422 802.30371 1266.8162 4289238173
-21.335779 804.11609 1268.3444 4283976800
-18.965137 804.11609 1268.3444 4283583588
-9.4825687 804.11609 1268.3444 4283385412
-7.1119266 804.11609 1268.3444 4284503894
-4.7412844 804.11609 1268.3444 4286274408
-21.25321 812.20117 1268.6213 4283648848
-9.4458714 812.20117 1268.6213 4283254314
-7.0844035 811.29846 1267.8602 4283121976
-4.7229357 811.29846 1267.8602 4285221996
-2.3614678 812.20117 1268.6213 4292064469
-30.579817 820.2442 1268.8628 4283649091
-13.959633 841.8291 1268.7502 4283583838
-6.9522934 849.71497 1268.8593 4282331723
13.331193 760.84021 1269.7881 4289302182
-19.390825 762.6933 1271.3506 4284238166
-16.966972 762.6933 1271.3506 4283975251
-13.331193 762.6933 1271.3506 4283252811
-9.6954126 762.6933 1271.3506 4282923833
-7.2715597 762.6933 1271.3506 4281015836
-4.8477063 762.6933 1271.3506 4281870906
-2.4238532 762.6933 1271.3506 4287594897
13.331193 762.6933 1271.3506 4289171111
16.966972 762.6933 1271.3506 4289171365
-14.488073 769.15259 1270.2567 4283255124
-9.6587152 770.07556 1271.0349 4284041546
-7.2440367 770.07556 1271.0349 4284502097
-4.8293576 770.07556 1271.0349 4284565310
-2.4146788 770.07556 1271.0349 4283907637
7.2440367 770.9986 1271.8132 4289236374
9.6587152 770.07556 1271.0349 4289236379
12.073395 769.15259 1270.2567 4289236124
-13.230275 775.58368 1269.1392 4283911268
-9.6220188 775.58368 1269.1392 4285224509
-7.2165136 775.58368 1269.1392 4286145611
-4.8110094 775.58368 1269.1392 4287854960
-2.4055047 775.58368 1269.1392 4289170820
12.027523 775.58368 1269.1392 4289499803
-12.027523 777.42273 1270.6898 4285688687
-9.6220188 777.42273 1270.6898 4285949795
-7.2165136 777.42273 1270.6898 4286410346
-4.8110094 777.42273 1270.6898 4288052107
-2.4055047 777.42273 1270.6898 4289828262
7.2165136 777.42273 1270.6898 4289040530
9.6220188 777.42273 1270.6898 4289171099
12.027523 777.42273 1270.6898 4289237149
-19.170643 785.65088 1271.0874 4284042341
-14.377981 784.73486 1270.3149 4284372065
-10.783486 784.73486 1270.3149 4284372062
-7.1889906 784.73486 1270.3149 4285753456
-4.7926607 784.73486 1270.3149 4287459978
-2.3963304 784.73486 1270.3149 4289697196
10.783486 785.65088 1271.0874 4288974235
14.377981 785.65088 1271.0874 4289039252
16.774311 785.65088 1271.0874 4289302167
-31.033028 792.92444 1270.6802 4283781467
-28.645872 792.92444 1270.6802 4283977572
-26.258715 793.83698 1271.4495 4284108647
-22.677982 792.92444 1270.6802 4284043617
-19.097248 792.92444 1270.6802 4284305761
-16.710093 792.92444 1270.6802 4284371555
-14.322936 793.83698 1271.4495 4284503144
-10.742202 792.92444 1270.6802 4283055171
-7.161468 792.01196 1269.9108 4285949793
-4.774312 792.01196 1269.9108 4287329913
-2.387156 792.01196 1269.9108 4289237910
1.193578 793.83698 1271.4495 4289500330
4.774312 792.92444 1270.6802 4289105824
7.161468 792.92444 1270.6802 4289237410
9.548624 792.92444 1270.6802 4289368992
-21.418348 797.80835 1269.5659 4284042604
-19.038532 797.80835 1269.5659 4284174179
-16.658716 797.80835 1269.5659 4284503144
-9.5192661 797.80835 1269.5659 4283188547
-7.1394496 797.80835 1269.5659 4285162593
-2.3798165 797.80835 1269.5659 4289698211
7.1394496 797.80835 1269.5659 4289302953
-28.557798 799.62775 1271.1001 4283976548
-22.608257 799.62775 1271.1001 4284042087
-19.038532 799.62775 1271.1001 4283976800
-16.658716 799.62775 1271.1001 4283976800
-14.278899 799.62775 1271.1001 4283911256
-11.899082 799.62775 1271.1001 4283582292
2.3798165 799.62775 1271.1001 4288645539
4.7596331 799.62775 1271.1001 4288973470
7.1394496 799.62775 1271.1001 4289039263
9.5192661 799.62775 1271.1001 4288907925
-21.335779 805.92847 1269.8724 4283845728
-10.667891 805.92847 1269.8724 4283254345
-7.1119266 805.92847 1269.8724 4284175185
-4.7412844 805.92847 1269.8724 4286404715
-2.3706422 805.92847 1269.8724 4292654794
-22.521101 807.74084 1271.4006 4283977047
-18.965137 807.74084 1271.4006 4283320417
-16.594496 807.74084 1271.4006 4283188831
-14.223853 807.74084 1271.4006 4283254622
-10.667891 807.74084 1271.4006 4283319637
-2.3706422 807.74084 1271.4006 4292392919
7.1119266 807.74084 1271.4006 4293841882
-30.699083 815.81189 1271.6658 4283581256
-21.25321 814.00653 1270.1436 4283648589
-10.233027 814.60834 1270.651 4283844936
-7.0844035 814.90918 1270.9047 4282989100
-4.7229357 814.90918 1270.9047 4283776868
-2.3614678 814.90918 1270.9047 4290816719
-30.579817 822.94171 1271.1372 4283320655
-25.693579 837.47266 1271.6172 4283845732
-22.189907 837.47266 1271.6172 4283844957
-18.686239 837.47266 1271.6172 4283912025
-16.350458 837.47266 1271.6172 4284043354
-14.014679 837.47266 1271.6172 4284043354
-16.286238 844.49719 1270.9999 4283841612
-13.959633 844.49719 1270.9999 4283119433
-10.469725 844.49719 1270.9999 4283054660
-6.9798164 844.49719 1270.9999 4283582279
-4.6532111 845.38654 1271.7498 4283712356
-2.3266056 845.38654 1271.7498 4284238700
-21.913761 755.64972 1273.2598 4284041044
-19.478899 755.64972 1273.2598 4284235857
-17.044037 755.64972 1273.2598 4283841355
-13.391743 755.64972 1273.2598 4285087333
-9.7394495 755.64972 1273.2598 4284566327
-7.3045874 755.64972 1273.2598 4285684808
-4.8697248 755.64972 1273.2598 4286473102
-2.4348624 755.64972 1273.2598 4288907443
-21.913761 757.51123 1274.8293 4283976800
-19.478899 757.51123 1274.8293 4283844957
-17.044037 757.51123 1274.8293 4283647835
-13.391743 757.51123 1274.8293 4283446860
-9.7394495 757.51123 1274.8293 4282726442
-7.3045874 757.51123 1274.8293 4282002462
-4.8697248 757.51123 1274.8293 4283576902
-2.4348624 757.51123 1274.8293 4289169307
7.3045874 757.51123 1274.8293 4288843156
9.7394495 757.51123 1274.8293 4288906912
-14.543119 764.54633 1272.913 4283385681
-9.6954126 764.54633 1272.913 4283189581
-7.2715597 764.54633 1272.913 4281215790
-4.8477063 764.54633 1272.913 4279638030
-2.4238532 764.54633 1272.913 4281085476
7.2715597 764.54633 1272.913 4289105306
9.6954126 764.54633 1272.913 4289105056
-24.238533 766.39941 1274.4755 4284436054
-21.814678 766.39941 1274.4755 4284304212
1.2119266 766.39941 1274.4755 4287132256
4.8477063 766.39941 1274.4755 4289630880
7.2715597 766.39941 1274.4755 4289170329
-21.732111 772.8446 1273.3698 4284370261
1.2073394 772.8446 1273.3698 4289500046
4.8293576 772.8446 1273.3698 4289236626
7.2440367 772.8446 1273.3698 4289236626
9.6587152 772.8446 1273.3698 4289368216
1.2073394 774.69067 1274.9263 4289107093
4.8293576 774.69067 1274.9263 4288843152
1.2027524 779.26178 1272.2404 4289302923
4.8110094 779.26178 1272.2404 4288908947
7.2165136 779.26178 1272.2404 4288908947
9.6220188 779.26178 1272.2404 4289105306
12.027523 779.26178 1272.2404 4289105306
1.2027524 781.10083 1273.791 4289171603
4.8110094 781.10083 1273.791 4289106069
7.2165136 781.10083 1273.791 4289106069
9.6220188 781.10083 1273.791 4289105306
13.230275 781.10083 1273.791 4289105048
16.838531 781.10083 1273.791 4289367963
-33.548622 787.48291 1272.6321 4283912547
-14.377981 787.48291 1272.6321 4283649632
-10.783486 787.48291 1272.6321 4282858818
-7.1889906 787.48291 1272.6321 4286015842
-4.7926607 787.48291 1272.6321 4287461251
-2.3963304 787.48291 1272.6321 4289369248
2.3963304 787.48291 1272.6321 4289237662
4.7926607 787.48291 1272.6321 4289041051
7.1889906 787.48291 1272.6321 4289041051
9.5853214 787.48291 1272.6321 4289171613
14.377981 787.48291 1272.6321 4289171351
16.774311 787.48291 1272.6321 4289368730
-33.548622 789.31494 1274.1768 4283781722
-26.359632 789.31494 1274.1768 4283781218
-14.377981 789.31494 1274.1768 4284108636
-11.981651 789.31494 1274.1768 4282990154
1.1981652 789.31494 1274.1768 4289697700
11.981651 789.31494 1274.1768 4289566111
14.377981 789.31494 1274.1768 4289237408
16.774311 789.31494 1274.1768 4289632166
-33.420185 797.48694 1274.5271 4284108899
-31.033028 796.57446 1273.7577 4283911521
-28.645872 795.66199 1272.9883 4283911271
-26.258715 796.57446 1273.7577 4284042599
-23.871559 795.66199 1272.9883 4284108397
-14.322936 795.66199 1272.9883 4284503657
-11.93578 795.66199 1272.9883 4283648348
0.79571867 796.27032 1273.5012 4289237673
4.774312 795.66199 1272.9883 4289302953
10.742202 796.57446 1273.7577 4289236895
16.710093 797.48694 1274.5271 4289695131
19.097248 797.48694 1274.5271 4291205549
-28.557798 801.44714 1272.6342 4283976800
-26.177982 801.44714 1272.6342 4284042593
-23.798164 802.35681 1273.4011 4283977057
-19.038532 803.26648 1274.1682 4283517793
-16.658716 802.35681 1273.4011 4283123037
-14.278899 802.35681 1273.4011 4283057226
-11.899082 801.44714 1272.6342 4283385933
-2.3798165 801.44714 1272.6342 4289630108
1.5865444 802.65997 1273.6569 4291538887
4.7596331 802.35681 1273.4011 4291209400
7.1394496 802.35681 1273.4011 4291406779
10.312538 802.65997 1273.6569 4291868608
14.278899 803.26648 1274.1682 4293316321
19.038532 802.35681 1273.4011 4292657365
21.418348 803.26648 1274.1682 4293250530
-30.818348 809.55322 1272.9287 4283648596
-28.447706 809.55322 1272.9287 4283911506
-26.077065 809.55322 1272.9287 4284437850
-23.706423 809.55322 1272.9287 4283846484
-18.965137 809.55322 1272.9287 4283648096
-16.594496 809.55322 1272.9287 4283911525
-14.223853 809.55322 1272.9287 4284108647
-11.853211 809.55322 1272.9287 4283779682
0 809.55322 1272.9287 4292658398
7.1119266 809.55322 1272.9287 4293250265
-33.188992 811.3656 1274.4569 4283451476
-30.818348 811.3656 1274.4569 4283385683
-28.447706 811.3656 1274.4569 4283845207
-26.077065 811.3656 1274.4569 4285095531
-23.706423 811.3656 1274.4569 4284109140
-18.965137 811.3656 1274.4569 4283450720
-16.594496 811.3656 1274.4569 4284108649
-14.223853 811.3656 1274.4569 4284240235
0 811.3656 1274.4569 4292330701
-33.060551 817.61731 1273.188 4282925111
-28.337614 817.61731 1273.188 4284107339
-22.433945 817.61731 1273.188 4283778626
-18.891743 817.61731 1273.188 4283056727
-9.4458714 817.61731 1273.188 4283977300
-7.0844035 817.61731 1273.188 4283056198
-4.7229357 817.61731 1273.188 4283185748
-2.3614678 817.61731 1273.188 4289370291
-33.060551 819.42261 1274.7102 4283189835
-28.337614 819.42261 1274.7102 4283450953
-25.976147 819.42261 1274.7102 4283516747
-22.433945 819.42261 1274.7102 4282793530
-18.891743 819.42261 1274.7102 4282662471
-9.4458714 819.42261 1274.7102 4284043604
-7.0844035 819.42261 1274.7102 4283122502
-4.7229357 819.42261 1274.7102 4283318352
-2.3614678 819.42261 1274.7102 4288976550
-31.363914 826.83813 1274.4227 4283779671
-28.227524 826.53839 1274.1699 4283648088
-25.875229 826.53839 1274.1699 4283779417
-22.34679 827.43756 1274.9281 4283779684
-4.704587 827.43756 1274.9281 4283516497
-2.3522935 826.53839 1274.1699 4286016376
7.056881 826.53839 1274.1699 4289762972
9.409174 826.53839 1274.1699 4288185752
-31.24159 832.4248 1272.593 4283977307
-28.117432 832.72339 1272.8447 4283844957
-25.774311 832.72339 1272.8447 4283844957
-22.259632 833.61902 1273.6 4283845463
-2.3431194 833.61902 1273.6 4284766309
7.0293579 833.61902 1273.6 4283973732
9.3724775 833.61902 1273.6 4288577388
-25.693579 839.25836 1273.1228 4284236388
-22.189907 839.25836 1273.1228 4284237667
-18.686239 839.25836 1273.1228 4284043354
-16.350458 839.25836 1273.1228 4283912025
-10.511009 839.25836 1273.1228 4283648600
-7.0073395 839.25836 1273.1228 4284503392
-4.6715598 839.25836 1273.1228 4284435802
-2.3357799 839.25836 1273.1228 4284896353
-22.189907 841.04407 1274.6284 4283643721
-18.686239 841.04407 1274.6284 4283450190
-4.6715598 841.04407 1274.6284 4284171612
-2.3357799 841.04407 1274.6284 4284632163
0 841.04407 1274.6284 4284830812
-13.959633 847.16522 1273.2495 4287000709
-10.469725 848.05463 1273.9994 4285816957
-6.9798164 848.94397 1274.7493 4284764794
-4.6532111 848.05457 1273.9994 4283711563
-2.3266056 848.05457 1273.9994 4284303443
-24.348623 761.23413 1277.9684 4284567388
-21.913761 760.30341 1277.1836 4284369754
1.2174312 761.23413 1277.9684 4287329649
4.8697248 760.30341 1277.1836 4289236891
7.3045874 759.37268 1276.3989 4288973718
9.7394495 759.37268 1276.3989 4289039013
-24.238533 768.25244 1276.038 4284174683
-21.814678 768.25244 1276.038 4284174683
1.2119266 768.25244 1276.038 4288971882
4.8477063 768.25244 1276.038 4289434010
1.2027524 782.93982 1275.3417 4289302937
4.8110094 782.93982 1275.3417 4289171864
7.2165136 782.93982 1275.3417 4289303707
-36.082569 784.77881 1276.8922 4284043887
0 784.77881 1276.8922 4289369248
12.027523 784.77881 1276.8922 4289105819
-33.548622 791.14691 1275.7214 4283781468
11.981651 791.14691 1275.7214 4289369507
14.377981 791.14691 1275.7214 4288908695
16.774311 791.14691 1275.7214 4289303453
19.170643 791.14691 1275.7214 4289303205
-33.548622 792.97894 1277.2662 4284108899
11.981651 792.97894 1277.2662 4289631402
14.377981 792.97894 1277.2662 4289499032
16.774311 792.97894 1277.2662 4289301654
19.170643 792.97894 1277.2662 4289563290
-33.420185 799.31195 1276.0659 4284043356
-31.033028 799.31195 1276.0659 4283912027
0 799.31195 1276.0659 4289892008
11.93578 799.31195 1276.0659 4290222240
14.322936 799.31195 1276.0659 4290550730
16.710093 799.31195 1276.0659 4291735005
-33.420185 801.13696 1277.6047 4283845978
-31.033028 801.13696 1277.6047 4283845978
-28.645872 801.13696 1277.6047 4284042843
-26.258715 801.13696 1277.6047 4284042843
16.710093 801.13696 1277.6047 4293053406
-33.317432 806.90527 1277.2363 4283648596
-30.937614 805.08594 1275.7023 4283845728
-28.557798 805.08594 1275.7023 4283977048
-26.177982 805.08594 1275.7023 4284174683
1.5865444 805.69238 1276.2135 4293249763
4.7596331 805.99561 1276.4692 4293250005
10.709174 805.99561 1276.4692 4293053146
14.278899 805.99561 1276.4692 4292856539
21.418348 805.08594 1275.7023 4293317342
-33.188992 813.17798 1275.9851 4282923583
-28.447706 813.17798 1275.9851 4283845713
-26.077065 814.08417 1276.7491 4284831835
-22.521101 813.17798 1275.9851 4283909710
-18.965137 813.17798 1275.9851 4283384145
-16.594496 814.08417 1276.7491 4283911262
-14.223853 814.08417 1276.7491 4284109148
-11.853211 814.08417 1276.7491 4284043355
1.1853211 814.08411 1276.7491 4291935203
4.7412844 814.08417 1276.7491 4292790228
7.1119266 814.08417 1276.7491 4293053400
9.4825687 814.08417 1276.7491 4292461527
-33.060551 821.22803 1276.2325 4283648596
-28.337614 821.22803 1276.2325 4283385683
-25.976147 821.22803 1276.2325 4283188047
-21.25321 821.22803 1276.2325 4283187506
-14.168807 821.22803 1276.2325 4284174440
-10.626606 821.22803 1276.2325 4284043358
-7.0844035 821.22803 1276.2325 4283385933
-4.7229357 821.22803 1276.2325 4283253842
-2.3614678 821.22803 1276.2325 4286938250
1.1807339 821.22803 1276.2325 4291801038
4.7229357 821.22803 1276.2325 4293446874
7.0844035 821.22803 1276.2325 4292920530
9.4458714 821.22803 1276.2325 4292659424
-34.241287 823.03333 1277.7548 4283845214
-22.433945 823.03333 1277.7548 4283648852
-18.891743 823.03333 1277.7548 4283582805
-16.530275 823.03333 1277.7548 4283912027
-14.168807 823.03333 1277.7548 4283715929
-10.626606 823.03333 1277.7548 4283320650
-7.0844035 823.03333 1277.7548 4283254592
-4.7229357 823.03333 1277.7548 4283449938
1.1807339 823.03333 1277.7548 4290683073
4.7229357 823.03333 1277.7548 4292130755
23.614679 823.03333 1277.7548 4285486707
25.976147 823.03333 1277.7548 4284367969
-39.988991 829.23596 1276.4443 4284108899
-35.284405 829.23596 1276.4443 4283976800
-22.34679 829.23596 1276.4443 4283778912
-18.818348 829.23596 1276.4443 4284041294
-4.704587 829.23596 1276.4443 4283582292
-2.3522935 829.23596 1276.4443 4284305758
2.3522935 829.23596 1276.4443 4282792776
4.704587 829.23596 1276.4443 4280755968
7.056881 829.23596 1276.4443 4282663959
9.409174 829.23596 1276.4443 4285683273
-39.988991 831.0343 1277.9607 4284173929
-37.636696 831.0343 1277.9607 4284042593
-35.284405 831.0343 1277.9607 4283976800
-32.93211 831.0343 1277.9607 4284043356
-18.818348 831.0343 1277.9607 4283977297
-16.466055 831.0343 1277.9607 4284109140
-14.113762 831.0343 1277.9607 4284043343
-10.585321 831.0343 1277.9607 4283779917
-7.056881 831.0343 1277.9607 4284043093
-4.704587 831.0343 1277.9607 4284042843
1.1761467 831.0343 1277.9607 4283121989
4.704587 831.0343 1277.9607 4281999942
11.761468 831.0343 1277.9607 4292722347
14.113762 831.0343 1277.9607 4292196814
-30.46055 835.4104 1275.1105 4283912277
-28.117432 835.4104 1275.1105 4283779682
-10.544037 835.4104 1275.1105 4283780179
-7.0293579 835.4104 1275.1105 4284174679
-4.6862388 835.4104 1275.1105 4284042841
-2.3431194 835.4104 1275.1105 4284766563
0 835.4104 1275.1105 4284635747
7.0293579 835.4104 1275.1105 4290356647
-37.48991 837.20172 1276.6208 4284366427
-35.14679 837.20172 1276.6208 4284366427
-28.117432 837.20172 1276.6208 4284433766
1.1715597 837.20172 1276.6208 4284898656
4.6862388 837.20172 1276.6208 4286868619
7.0293579 837.20172 1276.6208 4291539922
9.3724775 837.20172 1276.6208 4291081131
-22.189907 842.82983 1276.1342 4284298056
-18.686239 842.82983 1276.1342 4284166983
0 842.82983 1276.1342 4284635234
-21.022018 844.61554 1277.6399 4289232531
-18.686239 844.61554 1277.6399 4288903816
-16.350458 844.61554 1277.6399 4289035401
0 844.61554 1277.6399 4284962146
-10.469725 850.72266 1276.249 4290751686
-6.9798164 850.72266 1276.249 4290160840
-10.469725 852.50134 1277.7488 4291079615
-25.662384 754.737 1279.0303 4284108382
1.2220184 754.737 1279.0303 4289105322
4.8880734 754.737 1279.0303 4288843156
-24.440367 756.60547 1280.6058 4284567390
1.2220184 756.60547 1280.6058 4288842931
-36.082569 787.53735 1279.2183 4284043886
-35.944954 794.81097 1278.8109 4284108397
14.377981 794.81097 1278.8109 4289563288
-35.944954 796.64294 1280.3556 4284108386
-33.420185 802.96198 1279.1434 4283779934
16.710093 802.96198 1279.1434 4293382367
19.097248 802.96198 1279.1434 4293119962
-35.807339 804.78699 1280.6823 4283780184
16.710093 804.78699 1280.6823 4292857056
19.097248 804.78699 1280.6823 4292528357
21.484404 804.78699 1280.6823 4292396514
-35.697247 808.72467 1278.7704 4283714641
2.3798165 808.72467 1278.7704 4293251803
4.7596331 808.72467 1278.7704 4293053904
7.1394496 808.72467 1278.7704 4292988111
10.709174 808.72467 1278.7704 4292724453
-35.697247 810.54407 1280.3044 4283187032
11.899082 810.54407 1280.3044 4292329945
14.278899 810.54407 1280.3044 4292197845
22.608257 810.54407 1280.3044 4292462811
-35.559631 817.70892 1279.8054 4283583081
-23.706423 818.61511 1280.5696 4283055664
-18.965137 818.61511 1280.5696 4282991449
-16.594496 817.70892 1279.8054 4283715166
-14.223853 816.80273 1279.0414 4284043356
-11.853211 816.80273 1279.0414 4284109149
1.1853211 816.80273 1279.0414 4291344092
4.7412844 816.80273 1279.0414 4293184474
7.1119266 816.80273 1279.0414 4292789716
10.667891 817.70892 1279.8054 4292790239
22.521101 818.61511 1280.5696 4292594394
26.077065 818.61511 1280.5696 4292001747
-35.42202 824.83875 1279.277 4283977050
-18.891743 824.83875 1279.277 4283648335
-16.530275 824.83875 1279.277 4283845713
-14.168807 824.83875 1279.277 4283845711
-10.626606 824.83875 1279.277 4283451202
-7.0844035 824.83875 1279.277 4283714110
1.1807339 824.83875 1279.277 4289434493
4.7229357 824.83875 1279.277 4289434773
11.80734 824.83875 1279.277 4285948021
22.433945 824.83875 1279.277 4283247462
25.976147 824.83875 1279.277 4282785612
-37.783485 826.6441 1280.7992 4284042593
-16.530275 826.6441 1280.7992 4284436052
-14.168807 826.6441 1280.7992 4283977300
-10.626606 826.6441 1280.7992 4283845194
-7.0844035 826.6441 1280.7992 4284107589
0 826.6441 1280.7992 4284042843
11.80734 826.6441 1280.7992 4289960074
14.168807 826.6441 1280.7992 4289437101
22.433945 826.6441 1280.7992 4283310898
25.976147 826.6441 1280.7992 4286666325
28.337614 826.6441 1280.7992 4286150018
-39.988991 832.83264 1279.4771 4284106589
-37.636696 832.83264 1279.4771 4283713628
-35.284405 832.83264 1279.4771 4283647835
-32.93211 832.83264 1279.4771 4283648848
2.3522935 832.83264 1279.4771 4284701540
4.704587 832.83264 1279.4771 4286737775
9.409174 832.83264 1279.4771 4291605163
-42.341286 834.63098 1280.9934 4284497750
-39.988991 834.63098 1280.9934 4284497750
-31.755962 834.63098 1280.9934 4284565328
11.761468 834.63098 1280.9934 4291344303
14.113762 834.63098 1280.9934 4291869625
22.34679 834.63098 1280.9934 4288711330
25.875229 834.63098 1280.9934 4290289848
28.227524 834.63098 1280.9934 4290092455
-37.48991 838.99304 1278.1312 4284955219
-25.774311 838.99304 1278.1312 4284296534
2.3431194 838.99304 1278.1312 4284633433
4.6862388 838.99304 1278.1312 4283974738
7.0293579 838.99304 1278.1312 4284369496
9.3724775 838.99304 1278.1312 4281815368
28.117432 838.99304 1278.1312 4291540959
-37.48991 840.78436 1279.6416 4286140776
-35.14679 840.78436 1279.6416 4286009189
-28.117432 840.78436 1279.6416 4285087583
-25.774311 840.78436 1279.6416 4285153376
2.3431194 840.78436 1279.6416 4284569185
4.6862388 840.78436 1279.6416 4283977801
7.0293579 840.78436 1279.6416 4283056699
14.058716 840.78436 1279.6416 4288648393
16.401834 840.78436 1279.6416 4292003837
22.259632 840.78436 1279.6416 4291870157
25.774311 840.78436 1279.6416 4292330701
28.117432 840.78436 1279.6416 4291673048
-18.686239 847.29413 1279.8983 4290681252
-16.350458 847.29413 1279.8983 4290944423
-14.014679 847.29413 1279.8983 4289894577
-4.6715598 848.18701 1280.6511 4287994019
-2.3357799 848.18701 1280.6511 4287796639
-29.32844 758.474 1282.1813 4284436054
-26.884403 758.474 1282.1813 4284567640
-41.049541 783.9209 1282.709 4283978596
-38.634861 783.9209 1282.709 4284175726
-37.285324 790.2959 1281.5442 4284371315
-38.488075 792.13495 1283.0947 4284239983
-38.341286 799.39099 1282.6726 4283846234
-35.944954 799.39099 1282.6726 4283845978
-38.194496 806.61194 1282.2211 4283912277
14.322936 806.61194 1282.2211 4292592862
16.710093 806.61194 1282.2211 4293053413
19.097248 806.61194 1282.2211 4292659691
22.677982 806.61194 1282.2211 4292462305
-38.194496 808.43701 1283.7599 4283252825
16.710093 808.43701 1283.7599 4292658396
19.097248 808.43701 1283.7599 4292462559
-35.697247 812.36346 1281.8385 4282858592
11.899082 812.36346 1281.8385 4292789975
14.278899 812.36346 1281.8385 4292395738
16.658716 812.36346 1281.8385 4292593116
22.608257 812.36346 1281.8385 4292527570
-38.077065 814.18286 1283.3726 4283714925
11.899082 814.18286 1283.3726 4293118175
14.278899 814.18286 1283.3726 4292987870
16.658716 814.18286 1283.3726 4293053919
22.608257 814.18286 1283.3726 4292921816
-37.930275 820.42749 1282.0977 4283911271
11.853211 820.42749 1282.0977 4288318106
14.223853 820.42749 1282.0977 4287725945
16.594496 820.42749 1282.0977 4287462516
18.965137 820.42749 1282.0977 4287066504
21.335779 820.42749 1282.0977 4286408574
-40.300919 822.23987 1283.6259 4284043093
-37.930275 822.23987 1283.6259 4284042843
14.223853 822.23987 1283.6259 4286144610
16.594496 822.23987 1283.6259 4284368199
18.965137 822.23987 1283.6259 4283248504
-42.50642 829.35217 1283.0825 4284370278
11.80734 830.25482 1283.8436 4292986816
14.168807 830.25482 1283.8436 4293773811
16.530275 829.35217 1283.0825 4290024627
22.433945 829.35217 1283.0825 4284237932
25.976147 829.35217 1283.0825 4289237422
28.337614 828.44946 1282.3214 4289238173
-39.988991 836.42932 1282.5096 4285153619
-35.284405 836.42932 1282.5096 4285021012
-31.755962 836.42932 1282.5096 4284692051
-28.227524 836.42932 1282.5096 4283967570
11.761468 836.42932 1282.5096 4284907896
14.113762 836.42932 1282.5096 4287137971
16.466055 836.42932 1282.5096 4291282930
18.818348 836.42932 1282.5096 4292593116
22.34679 836.42932 1282.5096 4292329166
25.875229 836.42932 1282.5096 4292591817
-37.48991 842.57568 1281.1521 4290486457
-35.14679 842.57568 1281.1521 4290354871
-25.774311 842.57568 1281.1521 4289433254
-23.431192 842.57568 1281.1521 4289364117
2.3431194 842.57568 1281.1521 4284962146
4.6862388 842.57568 1281.1521 4283913553
7.0293579 842.57568 1281.1521 4282795329
14.058716 842.57568 1281.1521 4288516781
16.401834 842.57568 1281.1521 4287595679
18.744955 842.57568 1281.1521 4287264910
22.259632 842.57568 1281.1521 4285488480
25.774311 842.57568 1281.1521 4290291606
28.117432 842.57568 1281.1521 4291080143
30.46055 842.57568 1281.1521 4291869659
-37.48991 844.36707 1282.6625 4291145157
-22.259632 844.36707 1282.6625 4290155695
1.1715597 844.36707 1282.6625 4285227621
4.6862388 844.36707 1282.6625 4284305508
7.0293579 844.36707 1282.6625 4282068546
11.715596 844.36707 1282.6625 4287000952
14.058716 844.36707 1282.6625 4286672250
16.401834 844.36707 1282.6625 4284566618
18.744955 844.36707 1282.6625 4284565605
22.259632 844.36707 1282.6625 4285682032
25.774311 844.36707 1282.6625 4291075516
28.117432 844.36707 1282.6625 4291408324
30.46055 844.36707 1282.6625 4292198097
-16.350458 849.97272 1282.1569 4290880159
-14.014679 850.8656 1282.9097 4290880688
-10.511009 851.75842 1283.6626 4290881467
-7.0073395 850.8656 1282.9097 4290619586
-4.6715598 849.97272 1282.1569 4290094500
-31.891743 754.77606 1285.6035 4283911259
-29.438532 753.83832 1284.8127 4284304216
-26.985321 753.83832 1284.8127 4284370009
-41.049541 785.76697 1284.2655 4284110433
-38.634861 785.76697 1284.2655 4284175476
-45.878899 787.61298 1285.822 4284174683
-43.464222 787.61298 1285.822 4284437850
-41.049541 787.61298 1285.822 4284503644
-40.893578 793.974 1284.6454 4284108636
-38.488075 793.974 1284.6454 4284042593
-45.704586 795.81299 1286.196 4284043102
-43.299084 795.81299 1286.196 4283911521
-40.893578 795.81299 1286.196 4283845728
-46.728439 803.05505 1285.7621 4284173147
-40.737614 803.05505 1285.7621 4283846487
-38.341286 802.13904 1284.9897 4284043356
-38.194496 810.26196 1285.2987 4283122020
19.097248 811.17444 1286.0681 4292659415
-40.456882 817.82166 1286.4407 4283912025
-38.077065 816.00226 1284.9066 4283912045
14.278899 816.00226 1284.9066 4292857819
16.658716 816.00226 1284.9066 4292989405
19.038532 816.00226 1284.9066 4292726490
16.594496 824.05225 1285.1539 4284173661
18.965137 824.05225 1285.1539 4283441989
18.965137 825.86462 1286.6821 4283248504
-47.229359 832.96289 1286.1271 4284037437
-44.080734 833.26373 1286.3807 4284496965
16.530275 832.06018 1285.366 4292330176
18.891743 832.06018 1285.366 4290685635
-39.988991 838.22766 1284.026 4286404967
-31.755962 838.22766 1284.026 4285416310
10.585321 838.22766 1284.026 4285361544
18.818348 838.22766 1284.026 4292462300
-49.398167 840.026 1285.5424 4290158764
-47.045872 840.026 1285.5424 4290420653
-42.341286 840.026 1285.5424 4290355371
-39.988991 840.026 1285.5424 4290421164
-31.755962 840.026 1285.5424 4290156978
-28.227524 840.026 1285.5424 4290156976
10.585321 840.026 1285.5424 4286673516
-21.869112 846.75555 1284.6764 4289828778
-18.744955 847.94971 1285.6833 4290550937
-2.3431194 847.94971 1285.6833 4289107605
0 846.15839 1284.1729 4286414484
14.058716 847.05408 1284.9281 4287662262
16.401834 847.05408 1284.9281 4282596458
18.744955 847.05408 1284.9281 4283247629
22.259632 847.05408 1284.9281 4287984213
25.774311 847.05408 1284.9281 4289628270
28.117432 847.05408 1284.9281 4288577922
31.24159 847.3526 1285.1798 4287262322
-45.878899 790.38202 1288.1567 4284107868
-43.464222 790.38202 1288.1567 4284306270
-41.049541 789.45898 1287.3785 4284766563
-45.704586 797.65204 1287.7466 4284897134
-43.299084 797.65204 1287.7466 4284372076
-40.893578 797.65204 1287.7466 4283911525
-43.299084 799.49109 1289.2972 4284175976
-40.737614 805.80304 1288.0791 4282794823
-50.322937 807.63507 1289.6239 4283122252
-46.728439 807.63507 1289.6239 4283910741
-43.133945 807.63507 1289.6239 4283846481
-40.737614 807.63507 1289.6239 4282859586
-42.968807 814.82446 1289.1456 4284043098
-40.58165 813.91199 1288.3762 4284042843
-42.836697 820.55072 1288.7417 4284108893
-46.227524 827.677 1288.2102 4283975239
18.965137 827.677 1288.2102 4288781484
-42.50642 835.6709 1288.4104 4286010209
-44.867889 837.47626 1289.9326 4290354860
-39.988991 841.82434 1287.0586 4291341221
-35.284405 841.82434 1287.0586 4291013315
-32.93211 841.82434 1287.0586 4291013557
-28.227524 841.82434 1287.0586 4290882221
-25.875229 841.82434 1287.0586 4289895070
9.409174 841.82434 1287.0586 4284500561
-25.875229 843.62268 1288.575 4289764015
2.3522935 843.62268 1288.575 4286414484
4.704587 843.62268 1288.575 4287329924
7.056881 843.62268 1288.575 4288382612
10.585321 843.62268 1288.575 4288581776
-18.744955 849.74103 1287.1937 4289894561
-16.401834 849.74103 1287.1937 4290618027
-14.058716 851.53235 1288.7041 4290421164
-10.544037 851.53235 1288.7041 4290816692
-7.0293579 851.53235 1288.7041 4290817205
-4.6862388 849.74103 1287.1937 4290750647
-2.3431194 849.74103 1287.1937 4291013818
11.715596 849.74103 1287.1937 4286014834
14.058716 849.74103 1287.1937 4284043667
16.401834 850.63672 1287.949 4284962444
18.744955 850.63672 1287.949 4285422928
21.869112 850.33813 1287.6971 4286934881
-48.110092 803.16913 1292.3984 4283121739
-45.704586 803.16913 1292.3984 4284306012
-43.299084 802.24963 1291.6232 4284109909
-50.322937 809.46704 1291.1686 4283122252
-46.728439 809.46704 1291.1686 4283911255
-43.133945 809.46704 1291.1686 4284042593
-40.737614 809.46704 1291.1686 4283844957
-50.322937 811.29907 1292.7133 4282662984
-46.728439 811.29907 1292.7133 4283714391
-45.355965 817.56201 1291.4539 4284176226
-46.549541 819.38696 1292.9927 4283845977
-46.406422 823.27979 1291.0428 4283911257
-46.227524 833.11414 1292.7947 4285615726
-51.952293 839.28162 1291.4548 4291274919
-49.590824 839.28162 1291.4548 4291735470
-47.229359 839.28162 1291.4548 4291341225
-43.687157 839.28162 1291.4548 4291078051
-30.699083 839.28162 1291.4548 4291408315
-40.144955 841.08698 1292.9771 4291207838
-37.783485 841.08698 1292.9771 4290880963
-34.241287 841.08698 1292.9771 4290618039
-30.699083 841.08698 1292.9771 4291144373
-28.337614 841.08698 1292.9771 4290356152
-25.875229 845.42102 1290.0913 4290224305
-23.522936 845.42102 1290.0913 4289961128
1.1761467 845.42102 1290.0913 4287987368
4.704587 845.42102 1290.0913 4287593130
11.761468 845.42102 1290.0913 4290819002
-39.988991 847.21942 1291.6075 4290353817
-37.636696 847.21942 1291.6075 4290154678
-35.284405 847.21942 1291.6075 4290615229
-22.34679 847.21942 1291.6075 4289830830
1.1761467 847.21942 1291.6075 4289896119
25.875229 847.21942 1291.6075 4288445547
28.227524 847.21942 1291.6075 4288710530
30.579817 847.21942 1291.6075 4288776579
-50.322937 814.04712 1295.0303 4283056975
-47.127827 813.74176 1294.7728 4283386708
-54.313763 842.89233 1294.4993 4290221711
-40.144955 842.89233 1294.4993 4291538084
-37.783485 842.89233 1294.4993 4291012299
-34.241287 842.89233 1294.4993 4290815675
-30.699083 842.89233 1294.4993 4291079602
-28.337614 842.89233 1294.4993 4290355891
7.0844035 842.89233 1294.4993 4289171905
9.4458714 842.89233 1294.4993 4289371556
-18.818348 849.01776 1293.1239 4290159275
-16.466055 849.01776 1293.1239 4290159275
-10.585321 850.8161 1294.6403 4289040543
-4.704587 849.01776 1293.1239 4290685108
-2.3522935 849.01776 1293.1239 4290750901
11.761468 849.01776 1293.1239 4285881937
14.113762 849.91693 1293.8821 4289301681
16.466055 850.8161 1294.6403 4291998417
18.818348 850.8161 1294.6403 4291867847
22.34679 849.91693 1293.8821 4290354610
28.227524 849.01776 1293.1239 4290750629
-50.322937 816.79517 1297.3474 4283451474
-52.154129 838.55127 1297.3792 4290812569
-49.783485 838.55127 1297.3792 4291207327
-46.227524 838.55127 1297.3792 4291076520
-42.671558 838.55127 1297.3792 4290352529
-52.154129 840.36365 1298.9072 4290416780
-49.783485 840.36365 1298.9072 4290548109
-46.227524 840.36365 1298.9072 4291140789
-42.671558 840.36365 1298.9072 4291209376
-55.494495 844.69769 1296.0215 4290880686
-43.687157 844.69769 1296.0215 4291405483
-33.060551 844.69769 1296.0215 4290419369
-30.699083 844.69769 1296.0215 4290682285
-28.337614 844.69769 1296.0215 4290355893
-25.976147 844.69769 1296.0215 4290290100
4.7229357 844.69769 1296.0215 4287661474
7.0844035 844.69769 1296.0215 4286937494
9.4458714 844.69769 1296.0215 4287067521
33.060551 844.69769 1296.0215 4289040013
-42.50642 846.50305 1297.5438 4291010977
-40.144955 846.50305 1297.5438 4289695117
-37.783485 846.50305 1297.5438 4290090950
-34.241287 846.50305 1297.5438 4290749886
-28.337614 846.50305 1297.5438 4290290100
-25.976147 846.50305 1297.5438 4290618809
-22.433945 846.50305 1297.5438 4290225597
1.1807339 846.50305 1297.5438 4290290597
4.7229357 846.50305 1297.5438 4288185792
7.0844035 846.50305 1297.5438 4286343588
9.4458714 846.50305 1297.5438 4286539867
25.976147 846.50305 1297.5438 4289959854
30.699083 846.50305 1297.5438 4291079850
-52.154129 842.17603 1300.4354 4290612896
-49.783485 842.17603 1300.4354 4290415774
-47.412846 842.17603 1300.4354 4290219930
-55.710091 843.9884 1301.9636 4291078592
-49.783485 843.9884 1301.9636 4289957313
-46.227524 843.9884 1301.9636 4290878119
-30.818348 843.9884 1301.9636 4290158498
34.374313 843.9884 1301.9636 4291145405
-40.144955 848.30841 1299.066 4291339204
-37.783485 848.30841 1299.066 4291079623
-35.42202 848.30841 1299.066 4290684865
-28.337614 848.30841 1299.066 4290027175
-25.976147 848.30841 1299.066 4290356141
-22.433945 848.30841 1299.066 4290159797
-18.891743 848.30841 1299.066 4289765287
-16.530275 848.30841 1299.066 4289304736
-14.168807 848.30841 1299.066 4289040043
-7.0844035 848.30841 1299.066 4290422953
-4.7229357 848.30841 1299.066 4290553519
-2.3614678 848.30841 1299.066 4290619313
11.80734 848.30841 1299.066 4291079864
23.614679 848.30841 1299.066 4291671231
25.976147 848.30841 1299.066 4291474108
28.337614 848.30841 1299.066 4291473854
-37.783485 850.11377 1300.5883 4291145157
14.168807 850.11377 1300.5883 4291934155
16.530275 850.11377 1300.5883 4291934155
18.891743 850.11377 1300.5883 4291868873
-59.266056 845.80078 1303.4917 4291409608
-55.710091 845.80078 1303.4917 4291277254
-49.783485 845.80078 1303.4917 4291079373
-46.227524 845.80078 1303.4917 4290550704
-42.671558 845.80078 1303.4917 4290549431
-33.188992 845.80078 1303.4917 4290553519
-30.818348 845.80078 1303.4917 4290158762
1.1853211 845.80078 1303.4917 4290619313
4.7412844 845.80078 1303.4917 4290225863
7.1119266 845.80078 1303.4917 4289502140
9.4825687 845.80078 1303.4917 4290027175
30.818348 845.80078 1303.4917 4291737026
34.374313 845.80078 1303.4917 4291474621
-2.3614678 851.91919 1302.1105 4290619563
-52.355965 841.47369 1306.3834 4290417864
-52.355965 843.29309 1307.9175 4291408595
-49.783485 847.61316 1305.0199 4291407822
-46.227524 847.61316 1305.0199 4290418366
-42.671558 847.61316 1305.0199 4290484411
-40.300919 847.61316 1305.0199 4291800270
-34.374313 847.61316 1305.0199 4290026155
-30.818348 847.61316 1305.0199 4290223271
-28.447706 847.61316 1305.0199 4290092968
-26.077065 847.61316 1305.0199 4290158762
-22.521101 847.61316 1305.0199 4290093998
-18.965137 847.61316 1305.0199 4290159275
-16.594496 847.61316 1305.0199 4289501601
-14.223853 847.61316 1305.0199 4289039543
-10.667891 847.61316 1305.0199 4288908445
-7.1119266 847.61316 1305.0199 4290619551
-4.7412844 847.61316 1305.0199 4290619313
-2.3706422 847.61316 1305.0199 4290816692
2.3706422 847.61316 1305.0199 4290815924
4.7412844 847.61316 1305.0199 4290554310
7.1119266 847.61316 1305.0199 4289830844
10.667891 847.61316 1305.0199 4291145654
22.521101 847.61316 1305.0199 4291869126
26.077065 847.61316 1305.0199 4291934659
28.447706 847.61316 1305.0199 4291869114
30.818348 847.61316 1305.0199 4291803321
-45.042202 849.42554 1306.5481 4290616760
-42.671558 849.42554 1306.5481 4290682037
-37.930275 849.42554 1306.5481 4291143610
-34.374313 849.42554 1306.5481 4290419626
-30.818348 849.42554 1306.5481 4290353828
-28.447706 849.42554 1306.5481 4290224553
-26.077065 849.42554 1306.5481 4290158760
-22.521101 849.42554 1306.5481 4289897132
-16.594496 849.42554 1306.5481 4289435816
-14.223853 849.42554 1306.5481 4289235370
4.7412844 849.42554 1306.5481 4290422463
7.1119266 849.42554 1306.5481 4290027705
10.667891 849.42554 1306.5481 4290619572
-52.355965 845.11249 1309.4515 4291671251
0 845.11249 1309.4515 4290618801
34.507339 845.11249 1309.4515 4291342772
-52.355965 846.93188 1310.9856 4291273663
-49.976147 846.93188 1310.9856 4291142077
-47.596329 846.93188 1310.9856 4290945725
-40.456882 846.93188 1310.9856 4291208381
-19.038532 846.93188 1310.9856 4290159795
-10.709174 846.93188 1310.9856 4289630629
-7.1394496 846.93188 1310.9856 4291078832
-4.7596331 846.93188 1310.9856 4290751149
1.1899083 846.93188 1310.9856 4290619312
14.278899 846.93188 1310.9856 4291079625
16.658716 846.93188 1310.9856 4291211211
19.038532 846.93188 1310.9856 4291473868
21.418348 846.93188 1310.9856 4291408074
26.177982 846.93188 1310.9856 4291210180
28.557798 846.93188 1310.9856 4291145405
30.937614 846.93188 1310.9856 4291145405
34.507339 846.93188 1310.9856 4290948277
-40.300919 851.23792 1308.0762 4291076534
-37.930275 851.23792 1308.0762 4291339425
-34.374313 851.23792 1308.0762 4291010720
-28.447706 851.23792 1308.0762 4290551710
-26.077065 851.23792 1308.0762 4290683039
-4.7412844 851.23792 1308.0762 4290357160
-2.3706422 851.23792 1308.0762 4290422953
-57.291744 843.112 1312.9969 4291671751
-54.904587 843.112 1312.9969 4292198095
-45.216515 848.75128 1312.5198 4290683572
-42.836697 848.75128 1312.5198 4290813362
-30.937614 848.75128 1312.5198 4290352795
-22.608257 848.75128 1312.5198 4290553004
-19.038532 848.75128 1312.5198 4290224555
-16.658716 848.75128 1312.5198 4289764004
-14.278899 848.75128 1312.5198 4289829558
1.1899083 848.75128 1312.5198 4290619058
4.7596331 848.75128 1312.5198 4290356154
7.1394496 848.75128 1312.5198 4290158775
10.709174 848.75128 1312.5198 4290684856
14.278899 848.75128 1312.5198 4291079373
33.317432 848.75128 1312.5198 4290948025
23.871559 844.93701 1314.5358 4291012801
-57.291744 846.76196 1316.0745 4287526555
-52.517429 846.76196 1316.0745 4289960895
-50.130276 846.76196 1316.0745 4290487239
-47.743118 846.76196 1316.0745 4290815159
-10.742202 846.76196 1316.0745 4289567151
-7.161468 846.76196 1316.0745 4290291895
16.710093 846.76196 1316.0745 4290816201
26.258715 846.76196 1316.0745 4291012813
28.645872 846.76196 1316.0745 4291079360
31.033028 846.76196 1316.0745 4291145153
-28.557798 850.57068 1314.0537 4290088090
-26.177982 850.57068 1314.0537 4290285469
33.317432 850.57068 1314.0537 4290948809
-67.097244 841.52734 1318.2009 4290422475
-64.70092 840.61133 1317.4286 4291673057
-62.304588 840.61133 1317.4286 4291475655
-59.109478 841.8327 1318.4584 4290159022
-55.115597 842.44336 1318.9733 4290552234
-57.291744 848.58698 1317.6133 4285685324
-46.549541 848.58698 1317.6133 4290354859
-42.968807 848.58698 1317.6133 4290021027
-40.58165 848.58698 1317.6133 4289692319
-38.194496 848.58698 1317.6133 4289756797
-34.613762 848.58698 1317.6133 4290547345
-31.033028 848.58698 1317.6133 4290482330
-22.677982 848.58698 1317.6133 4290156451
-19.097248 848.58698 1317.6133 4289829545
-16.710093 848.58698 1317.6133 4290553267
-14.322936 848.58698 1317.6133 4290357438
-11.93578 848.58698 1317.6133 4289173163
-7.161468 848.58698 1317.6133 4288186255
-4.774312 848.58698 1317.6133 4288580248
-2.387156 848.58698 1317.6133 4290488245
28.645872 848.58698 1317.6133 4290883012
31.033028 848.58698 1317.6133 4290883012
-28.645872 850.41199 1319.1521 4289958314
-26.258715 850.41199 1319.1521 4289760935
-21.484404 850.41199 1319.1521 4290156722
-64.70092 844.27539 1320.5181 4288581542
-62.304588 844.27539 1320.5181 4287395749
-59.908257 844.27539 1320.5181 4287000991
-55.115597 844.27539 1320.5181 4289763261
19.170643 844.27539 1320.5181 4291210446
22.765137 844.27539 1320.5181 4291013068
-64.70092 846.10736 1322.0627 4287990686
-62.304588 846.10736 1322.0627 4286737271
-59.908257 846.10736 1322.0627 4286540149
-55.115597 846.10736 1322.0627 4288448630
-52.719265 846.10736 1322.0627 4288581544
-50.322937 846.10736 1322.0627 4290094784
-9.5853214 846.10736 1322.0627 4288120462
1.1981652 846.10736 1322.0627 4290356661
4.7926607 846.10736 1322.0627 4290289850
7.1889906 846.10736 1322.0627 4290355643
10.783486 846.10736 1322.0627 4290815924
14.377981 846.10736 1322.0627 4291079623
16.774311 846.10736 1322.0627 4290948294
22.765137 846.10736 1322.0627 4290881732
26.359632 846.10736 1322.0627 4291079110
-64.948624 839.94971 1323.4109 4289435066
-62.543118 839.94971 1323.4109 4289304486
-64.70092 847.93939 1323.6074 4288450193
-62.304588 847.93939 1323.6074 4287394715
-58.710091 847.93939 1323.6074 4287131529
-55.115597 847.93939 1323.6074 4288973720
-52.719265 847.93939 1323.6074 4289171655
-50.322937 847.93939 1323.6074 4290356186
-46.728439 847.93939 1323.6074 4290224039
-43.133945 847.93939 1323.6074 4289694406
-40.737614 847.93939 1323.6074 4288839098
-38.341286 847.93939 1323.6074 4289297277
-34.746788 847.93939 1323.6074 4290022037
-31.152294 847.93939 1323.6074 4290812077
-23.963303 847.93939 1323.6074 4289828014
-19.170643 847.93939 1323.6074 4290157476
-16.774311 847.93939 1323.6074 4291012785
-14.377981 847.93939 1323.6074 4290750647
-10.783486 847.93939 1323.6074 4289040030
-7.1889906 847.93939 1323.6074 4288645018
-4.7926607 847.93939 1323.6074 4288973750
-2.3963304 847.93939 1323.6074 4290684367
26.359632 847.93939 1323.6074 4291079371
28.755962 847.93939 1323.6074 4290883012
31.152294 847.93939 1323.6074 4290817219
-64.70092 849.77142 1325.1521 4290160558
-62.304588 849.77142 1325.1521 4290158248
-50.322937 849.77142 1325.1521 4290881465
-47.926605 849.77142 1325.1521 4290751164
-22.765137 849.77142 1325.1521 4290025908
-19.170643 849.77142 1325.1521 4290354860
-16.774311 849.77142 1325.1521 4291078326
-14.377981 849.77142 1325.1521 4290948544
-11.981651 849.77142 1325.1521 4289830062
-7.1889906 849.77142 1325.1521 4289894561
26.359632 849.77142 1325.1521 4291078849
28.755962 849.77142 1325.1521 4290948546
1.2027524 845.4668 1328.0627 4290421170
4.8110094 845.4668 1328.0627 4290486205
7.2165136 845.4668 1328.0627 4290946756
9.6220188 845.4668 1328.0627 4290815670
13.230275 845.4668 1328.0627 4291144636
16.838531 845.4668 1328.0627 4291210430
19.244038 844.54724 1327.2875 4291144900
21.649542 845.4668 1328.0627 4291210432
24.055046 845.4668 1328.0627 4290816455
-62.304588 851.60339 1326.6968 4290683824
-19.170643 851.60339 1326.6968 4290157745
-16.774311 851.60339 1326.6968 4290355123
-14.377981 851.60339 1326.6968 4290290863
-11.981651 851.60339 1326.6968 4290159277
-60.137615 847.30579 1329.6134 4290026662
-57.732109 847.30579 1329.6134 4290158230
-55.326607 847.30579 1329.6134 4290355610
-52.921101 847.30579 1329.6134 4290486707
-45.704586 847.30579 1329.6134 4290487993
-43.299084 847.30579 1329.6134 4290749377
-40.893578 847.30579 1329.6134 4290618048
-37.285324 847.30579 1329.6134 4290023594
-33.677063 847.30579 1329.6134 4290022045
-31.271559 847.30579 1329.6134 4291074733
-28.866055 847.30579 1329.6134 4290748852
-26.46055 847.30579 1329.6134 4290551217
-9.6220188 847.30579 1329.6134 4289828767
-4.8110094 847.30579 1329.6134 4290221484
-2.4055047 847.30579 1329.6134 4290287277
4.8110094 847.30579 1329.6134 4290683320
7.2165136 847.30579 1329.6134 4291209665
9.6220188 847.30579 1329.6134 4291078067
13.230275 847.30579 1329.6134 4290946483
16.838531 847.30579 1329.6134 4291406780
19.244038 847.30579 1329.6134 4291406526
21.649542 847.30579 1329.6134 4291143610
24.055046 847.30579 1329.6134 4290881213
-60.137615 849.14484 1331.1641 4290683824
-57.732109 849.14484 1331.1641 4291078817
-55.326607 849.14484 1331.1641 4291144610
-52.921101 849.14484 1331.1641 4290750379
-49.312843 849.14484 1331.1641 4290750639
-45.704586 849.14484 1331.1641 4290553519
-25.257797 849.14484 1331.1641 4290683064
-21.649542 849.14484 1331.1641 4290288565
-9.6220188 849.14484 1331.1641 4289960615
-7.2165136 849.14484 1331.1641 4289894822
-4.8110094 849.14484 1331.1641 4290090407
-2.4055047 849.14484 1331.1641 4289958820
14.433027 849.14484 1331.1641 4290815674
21.649542 849.14484 1331.1641 4290880182
25.257797 849.14484 1331.1641 4290750145
1.2073394 844.84027 1334.0746 4290353579
-57.732109 850.98389 1332.7146 4291144112
-55.326607 850.98389 1332.7146 4291144112
-52.921101 850.98389 1332.7146 4290619826
-49.312843 850.98389 1332.7146 4290750904
-19.244038 850.98389 1332.7146 4289500073
-16.838531 850.98389 1332.7146 4290092467
-13.230275 850.98389 1332.7146 4289831857
-9.6220188 850.98389 1332.7146 4290092705
-7.2165136 850.98389 1332.7146 4289961119
-4.8110094 850.98389 1332.7146 4290287266
-2.4055047 850.98389 1332.7146 4290287266
24.055046 850.98389 1332.7146 4290487222
-52.921101 852.82288 1334.2653 4290422713
-49.312843 852.82288 1334.2653 4290619835
-45.704586 852.82288 1334.2653 4291145666
-2.4055047 852.82288 1334.2653 4290880685
-45.878899 848.53235 1337.1876 4290947775
-43.464222 847.60938 1336.4094 4290619317
-41.049541 847.60938 1336.4094 4291079611
-38.634861 846.68634 1335.6311 4291076811
-33.805504 847.60938 1336.4094 4289694357
-31.390825 846.68634 1335.6311 4291142063
-28.976147 847.60938 1336.4094 4290748857
-25.35413 848.53235 1337.1876 4290287531
-21.732111 848.53235 1337.1876 4290023328
1.2073394 847.60931 1336.4094 4290617014
4.8293576 847.60938 1336.4094 4290815420
7.2440367 847.60938 1336.4094 4291473606
9.6587152 847.60938 1336.4094 4291211202
12.878288 847.91699 1336.6688 4290882235
16.902752 847.60938 1336.4094 4290881978
19.31743 847.60938 1336.4094 4290946744
21.732111 848.53235 1337.1876 4290749879
-49.312843 854.66193 1335.8159 4290225074
-45.704586 854.66193 1335.8159 4290816694
-45.704586 856.50098 1337.3665 4290882221
-36.3578 844.22778 1340.0984 4289563572
-43.464222 850.37842 1338.7441 4290619572
-41.049541 850.37842 1338.7441 4290488243
-38.634861 850.37842 1338.7441 4290552752
-33.805504 850.37842 1338.7441 4289894572
-19.31743 850.37842 1338.7441 4290027444
-16.902752 850.37842 1338.7441 4290224566
-13.280734 850.37842 1338.7441 4290225840
-9.6587152 850.37842 1338.7441 4290553258
-7.2440367 850.37842 1338.7441 4290553258
-4.8293576 850.37842 1338.7441 4290683307
9.6587152 850.37842 1338.7441 4290947540
14.488073 850.37842 1338.7441 4290815672
19.31743 850.37842 1338.7441 4290750131
21.732111 850.37842 1338.7441 4290750131
24.14679 850.37842 1338.7441 4290552764
-43.464222 852.22449 1340.3008 4290619826
-41.049541 852.22449 1340.3008 4290422703
-38.634861 852.22449 1340.3008 4290289580
-14.488073 852.22449 1340.3008 4290290863
-2.4146788 852.22449 1340.3008 4290815924
21.732111 852.22449 1340.3008 4290486709
24.14679 852.22449 1340.3008 4290420401
-37.165752 846.69849 1342.1815 4290223286
-31.510092 847.00732 1342.4419 4290221989
-29.086239 847.93384 1343.2231 4290420653
-25.450459 847.93384 1343.2231 4290485674
-21.814678 847.93384 1343.2231 4290353574
1.2119266 847.93384 1343.2231 4291144639
4.8477063 847.93384 1343.2231 4290684352
7.2715597 847.93384 1343.2231 4290684352
12.119267 847.93384 1343.2231 4290750160
16.966972 847.93384 1343.2231 4290881465
-43.464222 854.0705 1341.8573 4290816176
-41.049541 854.0705 1341.8573 4290618797
-38.634861 854.0705 1341.8573 4290420916
21.732111 854.0705 1341.8573 4290685106
-36.3578 850.7135 1345.5669 4290355120
-33.933945 850.7135 1345.5669 4290551467
-31.510092 850.7135 1345.5669 4290617259
-29.086239 850.7135 1345.5669 4290486194
-16.966972 849.78693 1344.7856 4290290098
-13.331193 850.7135 1345.5669 4290553525
-9.6954126 849.78693 1344.7856 4290619311
-7.2715597 849.78693 1344.7856 4290487724
-4.8477063 850.7135 1345.5669 4290553011
2.4238532 849.78693 1344.7856 4291210432
4.8477063 849.78693 1344.7856 4290290361
7.2715597 849.78693 1344.7856 4290487741
9.6954126 849.78693 1344.7856 4290947271
13.735168 850.4046 1345.3065 4290750397
16.966972 850.7135 1345.5669 4290553270
19.390825 850.7135 1345.5669 4290553011
-33.933945 853.49304 1347.9105 4290879922
