# .PCD v0.7 - Point Cloud Data file format
VERSION 0.7
FIELDS x y z rgb
SIZE 4 4 4 4
TYPE F F F U
COUNT 1 1 1 1
WIDTH 1170
HEIGHT 1
VIEWPOINT 0 0 0 1 0 0 0
POINTS 1170
DATA ascii
16.367889 785.74554 791.12024 4279503381
24.982569 785.74554 791.12024 4278255639
28.42844 785.74554 791.12024 4278190081
31.874311 785.74554 791.12024 4278256391
34.458717 785.74554 791.12024 4283776280
36.181652 785.74554 791.12024 4286803014
8.5963306 788.56799 790.88403 4284172616
10.315597 788.56799 790.88403 4283845478
13.754128 788.56799 790.88403 4278716424
16.333027 788.56799 790.88403 4279569927
19.771561 788.56799 790.88403 4279831298
24.929358 788.56799 790.88403 4278190085
27.508257 788.56799 790.88403 4278190093
32.666054 788.56799 790.88403 4278190080
34.385323 788.56799 790.88403 4282660352
36.104588 788.56799 790.88403 4286344741
7.7366972 789.88245 791.99219 4281872692
22.350458 789.88245 791.99219 4278779904
25.78899 789.88245 791.99219 4278255619
37.823853 789.88245 791.99219 4286410357
7.7119265 793.44629 791.073 4281873205
11.127523 793.54095 789.84491 4281807950
13.695413 793.54102 789.84491 4278519819
16.263302 793.54102 789.84485 4279504913
19.687155 793.54095 789.84491 4279700239
23.38838 794.00928 789.80371 4278452231
25.651377 794.94586 789.72144 4278190080
28.246788 793.54102 789.84485 4278255616
32.526604 793.54102 789.84491 4282001174
35.094498 793.54102 789.84485 4285881418
37.702751 793.44629 791.073 4286542198
7.9804282 797.12482 791.55878 4280425775
11.115597 796.90692 791.375 4281478973
13.680734 796.90692 791.375 4279704351
15.960856 796.68903 791.19122 4278980118
19.666054 796.25323 790.82385 4279373851
23.086239 796.25323 790.82385 4278190080
35.341896 796.68903 791.19122 4286672477
37.622017 797.56061 791.92615 4286410607
17.045872 799.80164 789.89172 4279504934
19.602753 799.80164 789.89172 4280098107
23.011927 799.80164 789.89172 4278190089
25.568808 799.80164 789.89172 4279701523
28.125687 799.80164 789.89172 4285749520
32.387157 799.80164 789.89172 4286869350
34.091743 799.80164 789.89172 4286541655
11.93211 801.10486 790.99048 4279700773
13.636697 801.10486 790.99048 4279832852
16.176147 802.50061 790.85938 4279306248
19.581652 802.50061 790.85938 4282399535
22.711927 802.0354 790.90308 4283319848
25.513762 802.59607 789.63184 4285685560
28.065138 802.59607 789.63184 4287130457
31.773703 802.53241 790.4502 4286475628
34.906425 802.50061 790.85938 4286410344
37.500916 801.10486 790.99048 4286280304
8.5045872 805.19684 791.82471 4279964694
11.055964 805.19684 791.82471 4279569687
13.60734 805.19684 791.82471 4279504391
16.158716 805.19684 791.82471 4278781443
35.719265 805.19684 791.82471 4286476400
37.420185 805.19684 791.82471 4286214259
40.822018 805.19684 791.82471 4286279804
11.86789 808.72137 790.87231 4279701273
13.563303 808.72137 790.87231 4279701523
16.106422 808.72137 790.87231 4278912779
19.497248 807.42523 789.77942 4282793532
22.605505 807.85724 790.14374 4286608494
25.431192 807.42523 789.77942 4286477154
27.974312 807.42523 789.77942 4286214261
31.365139 807.42523 789.77942 4286540910
33.908257 807.42523 789.77942 4286410607
38.14679 808.72137 790.87231 4286280054
40.689907 808.72137 790.87231 4286411139
42.385323 808.72137 790.87231 4286476932
8.4678898 811.40424 791.82642 4280096031
10.721713 811.43536 791.41669 4279964442
13.533945 811.49756 790.59717 4280159507
16.07156 811.49756 790.59717 4279437070
19.455046 810.85089 790.05188 4281807418
22.838531 811.49756 790.59717 4285886835
25.376146 811.49756 790.59717 4286346352
27.490826 811.17419 790.32446 4286280315
31.720184 811.17419 790.32452 4286476150
35.103668 811.17419 790.32452 4286476151
38.085323 811.77429 791.48438 4286475889
40.601833 812.14423 791.1424 4286541943
42.339451 811.40424 791.82642 4286476150
47.368809 812.79089 791.68762 4286608241
11.80367 815.00671 789.63184 4279832852
13.489908 815.00671 789.63184 4279896085
16.019266 815.00671 789.63184 4279436817
19.391743 815.00671 789.63184 4281084724
23.60734 815.00671 789.63184 4286215543
28.666056 815.00671 789.63184 4286345859
30.352293 815.00671 789.63184 4286476150
33.72477 815.00671 789.63184 4286607487
5.0587158 816.29584 790.71887 4279306780
7.5880733 816.29584 790.71887 4279702563
10.670948 817.21704 790.62354 4280030237
13.46055 817.77026 789.34595 4280290593
16.300306 816.72559 791.08124 4279766305
18.548624 816.29584 790.71887 4280753456
28.666056 817.58502 791.80579 4286411107
30.914373 817.15527 791.44354 4286542195
33.72477 816.29584 790.71887 4286607737
37.940369 817.58502 791.80579 4286606707
40.469727 817.58502 791.80579 4286541944
42.718044 817.15527 791.44354 4286607734
8.4128437 819.05658 790.43054 4280292651
11.217125 819.91412 791.15363 4279965471
13.46055 819.69977 790.97284 4280227108
15.143119 819.05658 790.43054 4280095779
28.60367 820.34296 791.51514 4286608743
30.286238 820.34296 791.51514 4286346609
34.492661 819.05658 790.43054 4286607991
38.699081 820.34296 791.51514 4286673014
40.381653 820.34296 791.51514 4286476654
42.905502 820.34296 791.51514 4286477428
8.3853207 822.54614 789.44873 4280161824
10.900917 823.82825 790.52979 4280096280
31.86422 822.54614 789.44873 4286412658
34.379814 822.54614 789.44873 4286542198
36.895412 822.54614 789.44873 4286673014
40.249542 823.82825 790.52979 4286673250
8.3669729 825.93384 789.68915 4280093977
10.889908 825.84192 790.91968 4279898645
13.387156 825.29419 789.14978 4280293403
15.060551 825.29419 789.14978 4280162074
28.447706 825.29419 789.14978 4286674015
30.957798 825.29419 789.14978 4286542448
34.304588 825.29419 789.14978 4286410357
37.651375 825.29419 789.14978 4286739057
40.779205 826.02448 791.50958 4286607991
-3.3357799 830.04333 789.2301 4283502896
8.3394499 830.04333 789.2301 4281207331
10.841284 830.04333 789.2301 4280881953
-3.3357799 831.31848 790.3053 4284487460
43.365139 832.59363 791.38037 4286472555
-3.3284404 834.68457 790.52734 4281603078
-1.6605505 836.77264 789.67188 4280487680
41.559631 835.41052 789.83142 4289300093
44.004585 836.77264 789.67188 4293251267
-1.6605505 838.67688 791.27753 4280491278
0.83027524 838.67688 791.27753 4280161318
3.8746178 838.88849 791.45587 4280488472
44.004585 838.67694 791.27747 4293648607
46.495415 839.31165 791.81274 4292926181
7.4477067 842.11383 790.25134 4279964444
10.757798 842.74646 790.78479 4280031782
14.06789 842.74646 790.78479 4280622636
16.550459 842.74646 790.78479 4280558376
19.033028 842.74646 790.78479 4280492317
22.343119 842.11377 790.25134 4282462519
25.65321 842.11377 790.25134 4291144633
28.963303 842.11383 790.25134 4293580513
31.445871 842.11377 790.25134 4293778407
33.92844 842.11377 790.25134 4293977061
37.238533 842.11377 790.25134 4293977830
40.548622 842.11383 790.25134 4293649125
10.757798 844.01178 791.85168 4280359202
14.06789 844.01178 791.85168 4280622636
16.550459 844.01178 791.85168 4280754728
19.033028 844.01178 791.85168 4280557343
22.343121 844.01178 791.85168 4282398269
34.755962 844.01178 791.85168 4293583845
38.066055 844.01178 791.85168 4293452259
39.7211 844.01178 791.85168 4293255144
14.135779 750.76294 793.01654 4285030502
16.78624 750.76294 793.01648 4284964454
19.436697 750.76294 793.01654 4285227370
22.087156 750.08752 792.44702 4285358700
26.504587 750.08752 792.44702 4285424494
30.922018 752.78931 794.7251 4285227114
34.455963 752.78931 794.7251 4285226862
10.568808 755.09766 792.74731 4284504897
13.21101 755.09766 792.74731 4285030740
16.733946 755.09766 792.74731 4285095776
19.376146 755.09766 792.74731 4284964193
26.422018 755.09766 792.74731 4285227114
28.183487 755.09766 792.74731 4285227114
14.091743 756.44434 793.88281 4284698197
15.853211 756.44434 793.88281 4285882214
42.14312 761.43335 794.16541 4286017396
38.550457 762.96387 792.83972 4285556082
40.302753 762.96387 792.83972 4286082426
42.055046 764.30353 793.96936 4286017144
3.493578 767.93054 793.10339 4278911500
41.049541 767.93054 793.10339 4285359214
-6.9871559 769.26593 794.22937 4280559671
-3.493578 769.26593 794.22937 4281741646
-1.746789 769.26593 794.22937 4281346888
0 770.78809 792.89673 4280097575
4.3614678 770.02698 793.56305 4278649627
6.972477 770.78809 792.89673 4278911252
10.458715 770.78809 792.89673 4279763988
12.201835 770.78809 792.89673 4279961110
20.045872 770.78809 792.89673 4279701777
22.660551 770.78809 792.89673 4284636458
37.477066 770.78809 792.89673 4285490541
41.049541 769.26593 794.22937 4285556336
-7.8440366 772.12073 794.02039 4278717205
-3.4862385 772.12073 794.02039 4280094777
-1.7431192 772.12073 794.02039 4280094777
0 772.12073 794.02039 4279176225
4.3577981 772.12073 794.02039 4278453011
38.348625 772.12073 794.02039 4285622129
40.091743 772.12073 794.02039 4285753458
50.550457 772.12073 794.02039 4286146415
52.293579 772.12073 794.02039 4286146415
5.2128439 775.72803 793.13794 4278649877
7.8192658 774.3996 792.01782 4278714386
10.425688 775.06384 792.57788 4278976535
13.03211 774.3996 792.01782 4279698202
17.376146 774.3996 792.01782 4279701523
19.982569 774.3996 792.01782 4278584068
22.588991 775.06384 792.57788 4278190091
25.195412 774.3996 792.01782 4282069568
34.752293 774.3996 792.01782 4285490793
36.48991 775.06384 792.57788 4285556586
0 777.05646 794.25806 4279898395
4.3357797 778.19171 793.25323 4279766809
7.7944956 779.32697 792.24841 4279440152
10.39266 779.32697 792.24841 4279042838
13.856881 779.32697 792.24841 4279763232
17.3211 779.32697 792.24841 4279698956
19.919266 779.32697 792.24841 4279633943
22.517431 779.32697 792.24841 4278648852
25.115597 779.32697 792.24841 4278190080
32.910091 779.32697 792.24841 4286672510
34.6422 779.32697 792.24841 4286214259
36.48991 777.05646 794.25806 4285885295
0 781.9754 794.48145 4279832602
4.3247709 781.40662 792.69385 4279834905
7.7779818 782.16205 792.02271 4281740072
10.370643 782.16205 792.02271 4282657803
12.963303 782.16205 792.02271 4279238669
16.420183 782.16205 792.02271 4279502358
19.877064 782.16205 792.02271 4279436819
22.469725 782.16205 792.02271 4278977045
25.062386 782.16205 792.02271 4278190108
28.519266 782.16205 792.02271 4279045648
31.976147 782.16205 792.02271 4284505440
34.568806 782.16205 792.02271 4286280054
37.240368 781.31329 793.92322 4286148469
0 784.80487 794.2511 4279635230
4.0330276 783.92389 793.5083 4279242770
19.877064 783.48346 793.13696 4279502607
22.469725 783.48346 793.13696 4278517766
0 788.37994 793.34143 4280422693
4.5944953 787.94086 792.97119 4278914052
6.8917432 787.06274 792.23083 4280816917
22.398165 787.06274 792.23083 4278714368
37.904587 787.06274 792.23083 4286475898
-1.7229358 789.69714 794.45203 4284369214
0.8614679 789.69714 794.45203 4281146156
4.3018351 790.44696 793.77625 4278849792
40.446789 790.44696 793.77625 4286147956
43.93486 789.69714 794.45203 4286345600
0 792.51123 794.20874 4286542729
5.1412845 794.75647 792.17773 4278585600
6.8550458 794.75647 792.17773 4280096030
37.702751 794.75647 792.17773 4286410607
40.402752 792.51123 794.20874 4286344816
44.700916 792.51123 794.20874 4286279553
-1.7137614 797.37683 794.38721 4284637040
0.57125384 796.94012 794.01898 4285360000
4.2844038 796.72174 793.83484 4280690463
40.273396 796.06665 793.28247 4286410353
43.986542 796.94012 794.01898 4286475640
46.842815 796.50342 793.6507 4286475639
0 800.17542 794.13086 4285292362
4.5602446 799.73956 793.76343 4280688415
7.6954126 798.86798 793.02856 4279242262
10.26055 798.86798 793.02856 4279437344
40.187157 798.86798 793.02856 4286345330
43.607338 800.17542 794.13086 4286410103
46.172478 800.17542 794.13086 4286476150
5.1137614 803.71118 793.18811 4279305745
7.3865438 802.84247 792.45557 4279240720
11.079817 802.40802 792.08923 4279437596
13.636697 802.40802 792.08923 4279502081
37.500916 802.40802 792.08923 4286410355
39.773701 802.84235 792.45557 4286410614
43.466972 803.71118 793.18811 4286411130
-1.7045871 805.01434 794.28687 4284562513
0 805.01434 794.28687 4284566075
4.2614679 805.01434 794.28687 4281608499
7.6541286 806.49719 792.92114 4279701266
10.205504 806.49719 792.92114 4279701273
5.1027522 807.79755 794.01758 4279241248
6.8036699 807.79755 794.01758 4279503893
5.0862384 811.31372 793.05811 4279503128
6.7816515 811.31372 793.05811 4279635480
46.623856 812.60986 794.151 4286607989
3.3834863 814.08429 792.7782 4280754226
27.913761 814.08429 792.7782 4286607737
32.14312 814.08429 792.7782 4286542198
35.526604 814.08429 792.7782 4286541944
38.06422 814.08429 792.7782 4286408808
40.601833 814.08429 792.7782 4286673014
43.985321 814.08429 792.7782 4286608243
46.522934 815.37762 793.86865 4286805369
16.862385 818.87415 792.89282 4280293403
26.979816 818.87415 792.89282 4286674536
46.448624 817.77258 793.92603 4286609015
49.906422 816.67096 794.95923 4286739316
-6.7449541 820.16327 793.97974 4284164653
-4.2155962 820.16327 793.97974 4284756024
42.905502 821.62927 792.59973 4286673773
45.528439 820.16327 793.97974 4286607991
43.746788 822.91565 793.68433 4286607487
45.429359 824.20197 794.76892 4286015100
41.926605 826.39252 792.69189 4286607487
43.603668 826.39252 792.69189 4286541444
45.280735 827.67462 793.77295 4285685576
-5.0201836 829.77185 792.92523 4283833372
41.834862 829.13214 792.38586 4285685857
43.508255 829.13214 792.38586 4286080333
46.069725 829.68414 794.1593 4290026394
53.548622 830.4115 793.4646 4293451240
-5.0201836 831.6908 794.54321 4279962632
46.700916 833.86871 792.45557 4293386464
-6.6715598 835.78137 794.06824 4280162344
-4.44526 836.05194 793.42432 4279833111
46.598164 836.59302 792.13647 4293583341
49.202751 835.78137 794.06824 4293320426
51.704586 836.41895 794.60583 4292991204
-6.6568809 839.13763 794.28198 4280948539
-3.8831806 838.71356 793.92438 4280951083
46.598164 839.13763 794.28198 4293123556
48.262386 838.50146 793.74561 4293386730
-10.793578 841.85065 793.95361 4282925647
-1.6605505 840.58118 792.88318 4281741875
0.55351681 841.00433 793.23999 4280161319
4.1513762 840.58118 792.88318 4280224796
7.472477 841.85065 793.95361 4280029981
25.738533 841.85065 793.95361 4290752965
29.059633 841.85065 793.95361 4294174709
31.550459 841.85065 793.95361 4293714409
33.21101 841.85065 793.95361 4293583845
36.532108 841.85065 793.95361 4293452259
41.51376 841.85065 793.95361 4293189351
44.004585 841.21594 793.41846 4293123046
11.585321 845.27704 792.91846 4280490536
14.06789 845.27704 792.91846 4280557349
16.550459 845.27704 792.91846 4280754728
19.033028 845.27704 792.91846 4280557345
21.515596 845.27704 792.91846 4282333753
31.018349 749.12585 795.56018 4285358701
34.563301 749.12585 795.56018 4285358450
37.222019 749.12585 795.56018 4285358197
38.108257 750.4809 796.70276 4285161327
40.766972 750.4809 796.70276 4285030251
34.455963 754.14014 795.86414 4285358705
37.989906 754.14014 795.86414 4285358449
40.640366 754.14014 795.86414 4285753204
42.996326 755.04071 796.62335 4285886055
45.941284 755.49103 797.00305 4285886312
37.871559 757.79095 795.01831 4285358707
40.51376 757.79095 795.01831 4285951103
44.036697 759.13763 796.15381 4285951603
46.678898 759.81091 796.72144 4285885801
43.899082 762.77582 795.29736 4286083193
1.7522936 766.31299 795.66364 4278650655
43.807339 766.31299 795.66364 4285556593
46.43578 766.31299 795.66364 4285688419
49.06422 766.98285 796.22839 4285753708
-5.2403669 770.60138 795.35547 4279572494
1.746789 770.60138 795.35547 4278781467
41.922935 770.60138 795.35547 4285753458
43.669724 770.60138 795.35547 4285753458
46.289909 770.60138 795.35547 4285753458
48.910091 770.60138 795.35547 4286146415
-4.3633027 773.36279 796.37573 4279962650
-1.7431192 773.45331 795.14404 4279896880
0.87339449 772.69507 795.81274 4279634973
3.4862385 773.45331 795.14404 4278715670
38.348625 773.45331 795.14404 4285949041
41.312538 772.88745 796.41095 4286014833
43.669724 772.60455 797.04443 4286146674
46.289909 772.60455 797.04443 4285884542
49.783485 772.60455 797.04443 4286081651
52.403671 772.60455 797.04443 4286081906
54.150459 773.27228 797.60742 4286082676
-4.3577981 775.45227 796.82953 4279701524
-1.7431192 774.78595 796.2677 4280161572
1.7431192 774.78595 796.2677 4279372051
38.348625 774.78595 796.2677 4286146415
40.963303 775.45227 796.82953 4286212464
43.57798 776.11859 797.39136 4286146669
45.321102 776.11859 797.39136 4286212213
-3.4752293 779.04907 795.93817 4278848525
-1.7376146 779.04907 795.93817 4279177488
1.1584097 778.82764 795.75146 4279964691
38.227524 778.38489 795.37817 4286278508
39.965137 779.04907 795.93817 4286016110
43.440369 779.71332 796.49817 4285885297
45.177982 779.71332 796.49817 4286212465
-3.4752293 781.04175 797.61829 4281146642
41.702751 781.04175 797.61829 4286278258
46.915596 781.04175 797.61829 4286607991
-4.3302751 785.28589 797.27283 4286674305
-1.7321101 783.29956 795.59802 4279501568
1.7321101 783.29956 795.59802 4279701023
40.704586 783.96167 796.15631 4286081908
43.302753 783.96167 796.15631 4286279028
45.900917 784.62378 796.71454 4286345083
-3.4568808 788.1084 797.03656 4285816426
-1.7284404 786.12628 795.36523 4282330162
1.7284404 786.12628 795.36523 4279633433
39.754128 786.12628 795.36523 4286278771
44.939449 786.12628 795.36523 4286346109
-1.7229358 791.01434 795.56274 4287132309
1.7229358 791.01434 795.56274 4279963429
3.4458716 791.01434 795.56274 4278190080
43.073395 791.01434 795.56274 4286410355
46.519264 791.01434 795.56274 4286279553
48.242203 791.01434 795.56274 4286476150
-4.3073397 792.99011 797.22864 4283846745
-1.7192661 793.82556 795.31702 4287398299
1.7192661 793.82556 795.31702 4282332488
3.4385321 793.82556 795.31702 4278981888
42.981651 793.82556 795.31702 4286410355
-4.011621 796.0163 797.16412 4283845457
-3.4275229 799.99719 796.59656 4283380029
-1.7137614 799.3421 796.04425 4284434767
1.7137614 798.68701 795.49194 4285950549
-6.8550458 801.30737 797.70129 4283641393
-4.2752295 802.79016 796.33557 4283575610
1.1400611 801.91864 795.60059 4284830289
3.4201834 801.48279 795.23315 4284306012
-6.8403668 804.09753 797.43787 4283574823
-4.2697248 805.20752 796.41174 4283836719
-1.7045871 806.3175 795.38562 4283835956
0.85229355 806.3175 795.38562 4284431936
3.4091742 806.3175 795.38562 4283254622
-6.8183484 808.27234 797.03387 4283112994
-4.2614679 808.27234 797.03387 4284163887
-1.7045871 807.62073 796.4845 4283769386
0.85045874 809.0979 795.11401 4284826953
3.401835 809.0979 795.11401 4282989900
-6.8036699 811.69861 797.30688 4283967510
-5.1027522 811.69861 797.30688 4284033559
-1.7009175 811.04846 796.75867 4286594896
0.85045874 811.04846 796.75867 4284629044
49.326607 810.39825 796.21045 4286805113
51.027523 810.39825 796.21045 4286477947
-6.7816515 815.20215 796.33679 4284950303
-5.0862384 815.20215 796.33679 4285147425
50.014679 813.90601 795.2439 4286805116
47.368809 817.96436 796.04968 4286673765
49.906422 817.96436 796.04968 4286607468
52.444038 817.96436 796.04968 4286080363
46.371559 821.45245 795.06677 4286344564
49.906422 819.25769 797.14026 4285423426
52.273396 821.45245 795.06677 4286147119
47.21468 822.74158 796.15369 4286408047
49.744034 823.38611 796.69727 4289104253
52.273396 822.74158 796.15369 4289894016
-6.7302752 825.48828 795.85352 4284751134
47.111927 825.48828 795.85352 4288444773
48.794495 826.77466 796.93811 4292922558
52.159634 826.13147 796.39581 4294105808
48.634861 830.23889 795.93506 4293386464
52.827522 830.23889 795.93506 4292925662
55.343121 830.23889 795.93506 4293188836
50.201836 832.97009 795.62195 4293386210
52.711926 832.97009 795.62195 4293320672
55.222019 832.97009 795.62195 4293452257
53.548622 834.24945 796.70068 4293056736
55.222019 834.24945 796.70068 4293056736
50.036697 837.69409 795.68103 4293123306
52.538532 838.33167 796.21857 4292926181
55.596329 838.54419 796.39777 4292991715
-14.145872 842.31836 796.96399 4284433994
-10.81743 842.31836 796.96399 4281545009
-7.4889908 841.68231 796.42767 4282136357
-4.1605506 841.68219 796.42767 4284437296
-1.6642202 841.68219 796.42755 4280752907
0.83211011 841.68225 796.42761 4280027930
4.1605506 841.04602 795.89124 4280159759
7.4889913 842.31836 796.96399 4280095776
10.81743 842.95453 797.50037 4280490532
25.795414 842.95453 797.50037 4288257459
28.846481 842.53046 797.14276 4294307579
31.620184 842.95453 797.50037 4293715182
34.116516 842.95453 797.50037 4293387496
37.444954 842.95453 797.50037 4293387236
41.605503 842.95453 797.50037 4293255144
44.101837 842.31842 796.96399 4293123301
46.598164 841.68219 796.42755 4293188836
48.928078 841.42773 796.21307 4293320936
52.538532 840.24432 797.8313 4292860641
55.874313 840.24432 797.8313 4292991712
9.9633026 843.12018 795.02393 4280161572
14.114679 844.38965 796.09436 4280623142
16.605505 844.38965 796.09436 4280754728
19.096329 844.38965 796.09436 4280491297
22.694189 843.96649 795.73755 4282335055
25.738533 843.12018 795.02393 4289964991
29.889908 843.12018 795.02393 4294175983
31.550459 843.12018 795.02393 4293715432
34.041283 843.12018 795.02393 4293583845
37.362385 843.12018 795.02393 4293452259
40.406727 843.54327 795.38068 4293255144
-10.53578 768.81689 800.39093 4278520876
-8.1896029 769.09863 799.75653 4278387731
-5.2568808 769.66211 798.48755 4279438848
-10.513762 772.34143 800.7467 4281672328
-7.8853211 771.67163 800.18188 4279239221
-6.9871559 775.27539 799.29645 4281610290
47.163303 774.60767 798.7334 4286146419
49.783485 775.27539 799.29645 4286607218
52.403671 774.60767 798.7334 4286409844
54.150459 774.60767 798.7334 4286606966
-6.9871559 777.27856 800.98547 4285227129
-5.2293577 778.11755 799.07684 4282070084
41.834862 777.45123 798.51501 4285885297
47.06422 777.45123 798.51501 4286212465
49.732109 778.03119 800.31207 4286673777
-6.972477 780.11646 800.76221 4285751160
-5.2128439 782.37012 798.7384 4287264399
46.915596 782.37012 798.7384 4286346109
-6.9504585 784.36279 800.41858 4284439404
-5.1963301 787.27222 798.94763 4283781731
-6.9137616 790.75122 799.26489 4283190083
-5.1853213 790.09052 798.70776 4283453254
-7.7669725 793.84961 799.91534 4283976530
-7.7458715 797.026 799.32355 4283445034
-5.1577983 797.7688 798.64185 4283510314
-12.034863 800.39758 800.85828 4283051541
-10.315597 800.39758 800.85828 4282982912
-8.5963306 799.08313 799.75012 4283576077
-8.5688076 803.27264 799.3584 4283115008
-8.5504589 806.71228 799.64258 4282128640
-10.26055 808.01965 800.745 4283641119
-10.227523 812.18176 800.33026 4284296992
-8.5229359 810.87866 799.23151 4283771676
-3.4091742 810.22705 798.68213 4285015351
-8.5045872 814.29938 799.49976 4284428835
50.587154 825.31989 798.32764 4293712855
50.477066 828.06097 798.02271 4293189090
-18.346788 842.79456 799.98157 4281991453
-15.844954 842.79456 799.98157 4282713856
-10.841284 842.79456 799.98157 4280680708
-7.5055046 842.79456 799.98157 4280549893
-4.1697249 842.79456 799.98157 4281600264
1.66789 842.15698 799.44397 4280156688
4.1697249 842.15698 799.44397 4280093196
7.5055046 842.79456 799.98157 4280488485
10.841284 842.79456 799.98157 4280293927
13.34312 842.79456 799.98157 4280557345
16.6789 842.79456 799.98157 4280622636
25.852295 842.79456 799.98157 4286876067
28.354128 842.79456 799.98157 4294308863
30.855965 842.79456 799.98157 4293782005
34.191742 842.79456 799.98157 4293452520
37.527523 842.79456 799.98157 4293452257
41.697247 842.79456 799.98157 4293255142
43.365139 842.79456 799.98157 4293189349
45.866974 842.79456 799.98157 4293189348
49.480732 842.36945 799.62323 4293189094
51.704586 842.15698 799.44397 4292991716
55.874313 842.15698 799.44397 4292991717
58.376148 842.79456 799.98157 4293254892
-13.313762 844.22687 798.57312 4282784547
-1.6642202 844.22687 798.57312 4280418304
0 844.22687 798.57312 4280352780
14.977982 844.22687 798.57312 4280491551
19.138531 844.22687 798.57312 4280425760
22.466972 844.22687 798.57312 4282204745
39.941284 844.22687 798.57312 4293255142
-10.513762 773.68103 801.87622 4287659146
-8.7614679 773.68103 801.87622 4286474615
52.568806 773.68103 801.87622 4286278256
54.321102 773.68103 801.87622 4286607220
-10.513762 775.02069 803.00574 4285951051
-8.7614679 775.02069 803.00574 4286411602
52.568806 775.02069 803.00574 4286542198
54.321102 775.02069 803.00574 4286344562
-8.7339449 779.94946 803.23743 4283520592
48.910091 779.28174 802.67444 4286345848
-8.7155962 782.78174 803.00952 4282468381
-8.6880732 786.35541 802.09863 4282335039
-8.6605501 789.92065 801.18079 4283453002
-10.39266 792.56909 803.41382 4283511340
-10.370643 795.3761 803.16455 4283378442
-12.922018 800.23474 803.33704 4283707670
-15.473394 803.02637 803.07483 4284560683
-12.894495 803.02637 803.07483 4284295973
-10.315597 801.71198 801.96655 4282786560
-11.13945 805.89301 801.56787 4283640352
53.548622 839.36676 801.01538 4292926694
-19.522936 841.49896 802.81329 4281534481
-16.733946 841.92542 803.17285 4281860096
-11.713761 841.92542 803.17285 4282908679
5.0201836 841.92542 803.17285 4280090631
7.5302753 841.92542 803.17285 4279435274
10.877064 841.92542 803.17285 4279701019
28.447706 841.92542 803.17285 4294372863
30.957798 841.92542 803.17285 4293847283
33.467892 841.92542 803.17285 4293123042
36.814678 841.92542 803.17285 4293452005
52.990826 841.49896 802.81329 4293057510
56.058716 841.92542 803.17285 4292926181
-15.011009 844.70715 801.59424 4283836202
-13.34312 844.70715 801.59424 4284361005
-10.007339 844.06964 801.05664 4282844928
-7.5055046 844.06964 801.05664 4282713600
-3.8917434 844.49463 801.41504 4282848539
-1.66789 844.70715 801.59424 4282981670
0.55596334 844.49463 801.41504 4282060059
3.3357799 844.06964 801.05664 4280746000
13.34312 844.06964 801.05664 4280096030
15.844954 844.06964 801.05664 4280423966
19.180733 844.06964 801.05664 4280556570
22.516514 844.06964 801.05664 4281941058
25.852295 844.06964 801.05664 4285756048
35.025688 844.06964 801.05664 4293386214
38.361469 844.06964 801.05664 4293583591
40.863304 844.06964 801.05664 4293124326
43.365139 844.06964 801.05664 4293255394
45.866974 844.06964 801.05664 4293189601
49.202751 844.06964 801.05664 4293189348
58.376148 844.06964 801.05664 4293123304
60.877983 844.70715 801.59424 4293057758
0 846.61987 803.20703 4291015617
63.379818 846.61987 803.20703 4292728798
64.904587 850.58838 803.93701 4293123556
-12.291743 773.51544 804.35266 4285227381
-12.291743 774.85785 805.48462 4284044097
-10.513762 776.36035 804.13525 4282928964
-8.7614679 776.36035 804.13525 4283389515
50.816513 776.36035 804.13525 4286477688
52.678898 775.52905 806.05054 4286345852
54.434864 775.52905 806.05054 4286279803
-13.142202 778.36975 805.82965 4284767578
-10.513762 778.36975 805.82965 4282007847
50.816513 778.36975 805.82965 4286410872
-13.100918 782.6203 805.4895 4285292894
-15.721101 783.95575 806.61548 4286872707
-13.088074 784.70142 805.93616 4284899462
-10.458715 784.7807 804.69501 4282466366
-16.559633 786.7796 806.38049 4285950306
-13.073395 786.7796 806.38049 4285160031
-15.638532 791.00488 806.01898 4282722101
-13.03211 790.3407 805.45898 4282920239
-10.425688 789.01227 804.33887 4284174429
-12.990826 793.89331 804.5304 4283051289
-13.856881 795.21753 805.64685 4283709471
-21.801834 841.77808 805.66455 4281532416
-19.255047 843.4884 805.14465 4287391341
-16.188379 843.58301 805.44238 4289434782
-13.416513 843.06018 806.74561 4292002251
-10.883486 843.4884 805.14465 4289105557
-7.5339451 843.4884 805.14465 4288711569
-4.4660549 843.58301 805.44238 4288975514
-1.6733944 844.48401 805.3302 4291081156
1.1155963 844.48407 805.33026 4287987598
4.0161467 844.22815 805.11444 4286604909
7.5302753 843.84436 804.79077 4284235845
10.877064 843.84436 804.79083 4280622124
13.387156 843.84436 804.79083 4279109665
15.897249 843.84436 804.79083 4278979090
19.255047 843.4884 805.14465 4279702284
22.590824 843.84436 804.79083 4281809209
25.952293 843.4884 805.14465 4284704388
28.478899 843.13245 805.49854 4293651199
30.991743 843.13245 805.49854 4293847284
34.342201 843.13245 805.49854 4293452008
37.692661 843.13245 805.49854 4293451754
40.998165 843.20471 804.25146 4293255142
43.555962 843.13245 805.49854 4293058013
46.331497 843.15656 805.08282 4293254880
49.680737 843.15656 805.08282 4293189090
52.769722 843.13245 805.49854 4293123045
55.820187 843.15656 805.08282 4292991717
58.052597 843.58301 805.44238 4292991971
61.078896 844.48401 805.3302 4292794590
63.379818 847.89502 804.2821 4292926433
52.678898 777.54279 807.74841 4286410355
-23.555964 839.638 807.78418 4281597953
-25.238533 842.21069 809.95349 4291604604
-22.714678 841.5675 809.41113 4291341724
-20.190826 842.21069 809.95349 4291936454
-16.825687 842.21069 809.95349 4291609022
-13.46055 842.21069 809.95349 4291411395
-5.0477066 842.21069 809.95349 4291214784
16.825687 842.21069 809.95349 4278190080
20.190826 842.21069 809.95349 4278258183
26.921101 842.21069 809.95349 4284047220
28.60367 842.21069 809.95349 4292402930
31.127522 842.21069 809.95349 4293847797
35.333946 842.21069 809.95349 4293912556
37.016514 842.21069 809.95349 4293451757
40.381653 840.92438 808.86877 4293320937
42.06422 840.92438 808.86877 4293320937
45.429359 840.92438 808.86877 4293189601
48.794495 840.92438 808.86877 4293386210
53.842201 842.21069 809.95349 4293057512
55.524769 842.21069 809.95349 4293057512
57.20734 842.21069 809.95349 4293123044
-18.447706 844.34229 807.82666 4291870661
-15.093578 844.34229 807.82666 4291806401
-10.900917 844.34229 807.82666 4291476677
-7.5467887 844.34229 807.82666 4291345347
-3.3541284 844.34229 807.82666 4291476416
-1.6770642 844.34229 807.82666 4291147707
1.6770642 844.34229 807.82666 4291871944
5.0311928 844.34229 807.82666 4290950549
7.5467887 844.34229 807.82666 4289568405
10.900917 844.34229 807.82666 4284765103
13.416513 844.34229 807.82666 4281610591
15.093578 844.34229 807.82666 4278190117
18.447706 844.34229 807.82666 4278190336
22.640366 844.34229 807.82666 4281546816
25.155964 844.34229 807.82666 4283519590
33.541283 844.34229 807.82666 4293649641
58.697247 844.34229 807.82666 4293254631
61.212845 844.9834 808.36719 4292860641
64.193275 847.42377 808.68085 4293057763
-25.293577 842.07874 812.45825 4291410360
-23.60734 842.07874 812.45825 4291016635
5.0587158 842.07874 812.45825 4291347136
26.979816 842.07874 812.45825 4283979637
28.666056 842.07874 812.45825 4291940590
30.352293 842.07874 812.45825 4293321973
35.411011 842.07874 812.45825 4293583857
38.221409 841.64899 812.09595 4293320683
40.469727 841.4342 811.91479 4293320685
42.999084 840.78961 811.37134 4293320938
46.371559 840.78961 811.37134 4293123810
49.744034 840.78961 811.37134 4293123556
52.835476 841.64911 812.09595 4293057512
-21.873394 843.49701 811.03809 4291148221
-19.349541 843.49701 811.03809 4290491070
-15.984404 843.49701 811.03809 4290162353
-13.46055 843.49701 811.03809 4290357673
-10.936697 843.49701 811.03809 4290555570
-7.8519874 843.92578 811.3996 4290688182
-4.2064219 843.49701 811.03809 4290621361
-1.6825688 843.49701 811.03809 4290554801
0.84128439 843.49701 811.03809 4290753209
3.3651376 843.49701 811.03809 4291281342
7.5715594 843.49701 811.03809 4291412170
10.936697 843.49701 811.03809 4291477461
13.46055 843.49701 811.03809 4290622676
15.984404 843.49701 811.03809 4287666101
19.349541 843.49701 811.03809 4279576366
22.71468 843.49701 811.03809 4279836697
25.238533 843.49701 811.03809 4282202951
31.968807 843.49701 811.03809 4293782524
33.651375 843.49701 811.03809 4293254892
55.524769 843.49701 811.03809 4293254127
58.048622 843.49701 811.03809 4293123044
61.413761 844.1402 811.58038 4292991714
43.13945 839.95129 814.58862 4293320938
46.522934 839.95129 814.58862 4293189347
49.906422 839.95129 814.58862 4293189604
1.6917431 841.24463 815.67908 4291148991
5.0752292 841.24463 815.67908 4291675333
35.526604 841.24463 815.67908 4293649387
38.06422 841.24463 815.67908 4293452523
40.601833 841.24463 815.67908 4293518834
42.293579 841.24463 815.67908 4293387247
46.522934 841.24463 815.67908 4293123811
49.906422 841.24463 815.67908 4293189604
52.444038 841.24463 815.67908 4293057764
54.13578 841.24463 815.67908 4293122802
-26.136696 843.36786 813.54529 4291016644
-22.483179 843.79761 813.90753 4290622402
-19.391743 844.01245 814.08875 4290687431
-16.019266 843.36786 813.54529 4291214253
-13.489908 844.01245 814.08875 4291544259
-10.96055 844.01245 814.08875 4291346624
-7.3070335 844.22729 814.26984 4291280827
-4.2155962 843.36786 813.54529 4291214520
-1.6862385 843.36786 813.54529 4291412156
0 844.01245 814.08875 4291346114
3.3724771 843.36786 813.54529 4291346111
7.5880733 843.36786 813.54529 4291477699
10.96055 844.01245 814.08875 4291279559
13.489908 844.01245 814.08875 4291412172
16.019266 844.01245 814.08875 4290556874
19.391743 844.01245 814.08875 4287003306
22.764219 844.01245 814.08875 4283255159
25.855658 843.79761 813.90753 4281350237
28.666056 843.36786 813.54529 4290430963
31.195412 843.36786 813.54529 4293781738
33.72477 843.36786 813.54529 4293912558
55.64587 843.36786 813.54529 4293517559
58.456268 843.79761 813.90753 4293056997
61.266666 844.22729 814.26984 4292859870
64.077065 844.65704 814.6322 4292991708
44.080734 839.82916 817.10168 4293189351
-27.126606 841.12531 818.19458 4290425784
-25.376146 842.53802 816.76965 4290425784
-23.684404 842.53802 816.76965 4290688199
-16.07156 842.53802 816.76965 4291807169
-4.2293577 842.53802 816.76965 4291543999
-1.6917431 842.53802 816.76965 4291609538
1.6954129 841.12531 818.19458 4291346113
4.2348623 841.83167 817.48212 4290622393
7.612844 842.53802 816.76965 4290882473
27.913761 842.53802 816.76965 4285299017
31.297249 842.53802 816.76965 4293319917
34.680733 842.53802 816.76965 4293385962
38.106422 841.83167 817.48212 4293254628
40.601833 842.53802 816.76965 4293255655
43.233028 841.12531 818.19458 4293124069
46.623856 841.12531 818.19458 4293124067
49.959633 841.83167 817.48212 4293189347
52.444038 842.53802 816.76965 4293057762
54.981651 842.53802 816.76965 4293056747
57.519264 842.53802 816.76965 4293122790
-21.992661 843.83136 817.86011 4289111243
-19.455046 843.83136 817.86011 4290360015
-15.225688 843.83136 817.86011 4292398522
-13.533945 843.83136 817.86011 4292004546
-10.99633 843.83136 817.86011 4291807171
-7.612844 843.83136 817.86011 4291675841
8.4587154 843.83136 817.86011 4290880924
10.99633 843.83136 817.86011 4291736760
13.533945 843.83136 817.86011 4291607741
16.07156 843.83136 817.86011 4291740097
19.455046 843.83136 817.86011 4291478207
22.838531 844.47803 818.4054 4289636277
25.376146 843.83136 817.86011 4282333029
27.913761 843.83136 817.86011 4284707460
31.297249 843.83136 817.86011 4292861154
57.519264 843.83136 817.86011 4292991204
65.132111 843.83136 817.86011 4292795862
-28.065138 840.3067 821.42847 4291017650
-25.431192 842.42151 819.28735 4290360740
-23.735781 842.42151 819.28735 4289374416
-16.954128 842.42151 819.28735 4291477420
-4.2385321 842.42151 819.28735 4291610046
-1.6954129 842.42151 819.28735 4291477950
0.85045874 841.36414 820.35791 4291346113
4.2522936 840.3067 821.42847 4290620855
6.7816515 842.42151 819.28735 4290749338
34.755962 842.42151 819.28735 4293715431
38.14679 842.42151 819.28735 4293386980
40.689907 842.42151 819.28735 4293189853
43.304588 841.36414 820.35791 4293255393
46.77523 840.3067 821.42847 4293123811
50.014679 842.42151 819.28735 4293189350
52.557796 842.42151 819.28735 4293189351
55.100918 842.42151 819.28735 4293057513
59.339451 842.42151 819.28735 4292991204
61.882568 842.42151 819.28735 4293057501
-19.497248 843.71765 820.38025 4287006090
11.86789 843.71765 820.38025 4291071137
13.563303 843.71765 820.38025 4290485146
16.106422 843.71765 820.38025 4291672769
19.779816 844.14972 820.74457 4291346368
22.888073 845.01379 821.47314 4291608762
25.431192 844.36572 820.9267 4289438121
28.256882 844.14972 820.74457 4287140197
31.082571 844.14972 820.74457 4291348687
33.908257 843.71765 820.38025 4293584107
57.644035 843.71765 820.38025 4293057249
-28.096331 840.9035 823.23969 4291806930
-25.513762 841.60706 822.5249 4289702847
-22.6789 842.04053 822.89038 4287993004
-19.560551 842.90741 823.62134 4287730315
-16.158716 841.60706 822.5249 4290161298
-13.60734 841.60706 822.5249 4291214280
-11.055964 842.2572 823.07312 4291741661
-7.6541286 841.60706 822.5249 4291413193
-4.2522936 841.60706 822.5249 4291478465
-1.7009175 841.60706 822.5249 4291347136
0.85229355 840.9035 823.23969 4291214782
4.2559633 840.9035 823.23969 4291212742
7.6541286 841.60706 822.5249 4290682264
11.055964 842.2572 823.07312 4290347417
13.60734 842.90741 823.62134 4289496471
16.158716 842.90741 823.62134 4291999430
18.710093 842.90741 823.62134 4291673548
27.21468 842.90741 823.62134 4288190616
32.317432 842.90741 823.62134 4294307314
35.152294 842.47394 823.25586 4293715946
37.420185 841.60706 822.5249 4293124326
39.971558 842.25726 823.07312 4293058017
43.373394 841.60706 822.5249 4293255394
46.77523 841.60706 822.5249 4293058017
49.326607 842.2572 823.07312 4293123556
51.877983 842.25726 823.07312 4292992742
55.279816 842.2572 823.07312 4293189605
58.965134 842.47394 823.25586 4293123296
62.083488 841.60706 822.5249 4293254364
64.634865 841.60706 822.5249 4292204991
66.335777 841.60706 822.5249 4290362787
22.962385 844.20776 824.71777 4291411388
25.513762 844.20776 824.71777 4290885562
28.065138 844.20776 824.71777 4290096537
31.466972 844.20776 824.71777 4292069838
-29.07156 839.39679 827.20129 4292464345
1.7100917 839.39679 827.20129 4291478204
-27.273394 841.50317 825.05322 4291938795
-25.568808 841.50317 825.05322 4290030798
-23.011927 842.15479 825.60266 4288650173
-19.602753 842.80634 826.1521 4288190368
-16.193579 842.15472 825.60266 4288061065
-13.636697 842.15479 825.60266 4290557392
-11.079817 842.80634 826.1521 4291478997
-7.95474 841.93756 825.41949 4291150286
-3.97737 841.93756 825.41949 4291412671
-1.7045871 841.50317 825.05322 4291543997
0 842.15479 825.60266 4291675330
4.2614679 841.50317 825.05322 4291408590
7.6706419 841.50317 825.05322 4290417291
11.079817 842.15479 825.60266 4290347157
13.636697 842.80634 826.1521 4289099355
16.193579 842.80634 826.1521 4291668645
19.602753 842.80634 826.1521 4291475134
34.944038 842.80634 826.1521 4293649906
37.500916 842.15479 825.60266 4293255144
40.0578 842.80634 826.1521 4293386473
43.466972 842.15479 825.60266 4293254626
46.876144 842.15472 825.60266 4293189090
49.433029 842.80634 826.1521 4293189088
51.989906 842.80634 826.1521 4292860901
55.399082 842.80634 826.1521 4293057763
58.808258 842.80634 826.1521 4292925915
61.365139 842.15479 825.60266 4293123548
63.92202 841.50317 825.05322 4292729015
66.478897 841.50317 825.05322 4291084420
15.341285 844.1095 827.25085 4291074455
20.455046 844.1095 827.25085 4291408804
23.011927 844.1095 827.25085 4291672754
25.568808 844.1095 827.25085 4291476153
28.125687 844.1095 827.25085 4290556852
31.534863 844.1095 827.25085 4291346634
34.944038 844.1095 827.25085 4293517812
37.500916 844.1095 827.25085 4293583857
51.989906 844.1095 827.25085 4292926697
55.399082 844.1095 827.25085 4293123558
57.955963 844.1095 827.25085 4293123294
-30.847706 839.30273 829.73804 4292135647
-29.133945 839.30273 829.73804 4292135647
-27.971865 840.64337 829.9964 4289834683
-25.6789 840.65857 829.57324 4289834671
-23.38838 841.10956 829.51752 4288255419
-19.666054 842.01154 829.40601 4284705400
-16.245872 842.01154 829.40601 4286022781
-13.680734 842.01154 829.40601 4289900484
-11.115597 842.01154 829.40601 4291545044
-7.4214063 840.64331 829.9964 4291216062
-4.566361 840.64337 829.9964 4291281852
-1.7119266 840.65857 829.57324 4291478462
0.85504586 840.65857 829.57324 4291542975
4.2798166 840.65857 829.57324 4289563287
7.7036695 840.65851 829.57324 4290477460
10.837921 841.10956 829.51752 4290413452
13.680734 842.01154 829.40601 4289298044
17.100918 842.01154 829.40601 4290816694
18.811008 842.01154 829.40601 4290619315
40.187157 842.01154 829.40601 4293715182
43.607338 842.01154 829.40601 4293188582
47.027523 842.01154 829.40601 4293189090
49.592659 842.01154 829.40601 4293452509
59.85321 842.01154 829.40601 4293123294
61.563301 842.01154 829.40601 4293452007
64.128441 841.35785 828.85486 4293452515
66.693581 841.35785 828.85486 4292663508
-22.231194 843.31891 830.50842 4278190080
-19.666054 843.31891 830.50842 4278190080
-17.100918 843.31891 830.50842 4278190080
13.680734 843.31891 830.50842 4291276963
16.245872 843.31891 830.50842 4291277485
19.666054 843.31891 830.50842 4289696665
23.086239 843.31891 830.50842 4290025629
25.651377 843.31891 830.50842 4291540149
28.216515 843.31891 830.50842 4290951612
31.636698 843.31891 830.50842 4290622908
35.056881 843.31891 830.50842 4292597727
37.622017 843.31891 830.50842 4293715182
40.187157 843.31891 830.50842 4293320679
47.882568 843.31891 830.50842 4293189599
49.592659 843.31891 830.50842 4293321441
52.157799 843.31891 830.50842 4292926949
55.57798 843.31891 830.50842 4292926177
58.998165 843.31891 830.50842 4293846765
61.563301 843.31891 830.50842 4293782015
-30.946789 838.51495 832.99792 4291347688
1.7192661 838.51495 832.99792 4291016369
-28.277065 841.9231 831.94751 4285294707
-25.706423 841.9231 831.94751 4287265151
-23.992661 841.9231 831.94751 4284508271
-15.423853 841.9231 831.94751 4285430638
-13.710092 841.9231 831.94751 4289438368
-11.13945 841.9231 831.94751 4291675597
11.99633 841.9231 831.94751 4291665575
43.700916 841.9231 831.94751 4293057506
46.271561 841.9231 831.94751 4293386214
64.266052 841.9231 831.94751 4290429924
66.8367 841.9231 831.94751 4282341244
-25.706423 843.23328 833.05212 4285557890
-23.13578 843.23328 833.05212 4281217792
-19.708256 843.23328 833.05212 4278190084
-16.280735 843.23328 833.05212 4282006330
15.423853 843.23328 833.05212 4292396744
19.708256 843.23328 833.05212 4289304729
23.13578 843.23328 833.05212 4289370282
25.706423 843.23328 833.05212 4290818756
28.277065 843.23328 833.05212 4290820537
31.704586 843.23328 833.05212 4290557115
35.132111 843.23328 833.05212 4292466382
37.702751 843.23328 833.05212 4293847787
47.985321 843.23328 833.05212 4293452257
49.699081 843.23328 833.05212 4293452257
52.269726 843.23328 833.05212 4293321187
55.697247 843.23328 833.05212 4293452259
59.124771 843.23328 833.05212 4293782251
61.695412 843.23328 833.05212 4291810810
-31.806421 839.82935 834.1062 4291019724
-7.7366972 839.82935 834.1062 4291347397
-4.2981653 839.82935 834.1062 4291281852
-1.7192661 839.82935 834.1062 4291413442
1.1474006 839.80316 834.95605 4290554560
4.3027525 839.79004 835.38098 4289888653
7.7449541 839.79004 835.38098 4290609796
10.326606 839.79004 835.38104 4290547609
-31.806421 841.14374 835.21448 4290361511
-28.367889 841.80096 835.76855 4287400067
-24.929358 842.45813 836.32275 4287003762
-18.911926 842.45813 836.32275 4279505686
-16.333027 842.45813 836.32275 4284106790
-12.894495 841.14374 835.21448 4290885798
-10.315597 841.14374 835.21448 4291676380
-7.7366972 841.14374 835.21448 4291478732
-4.2981653 841.14374 835.21448 4291675328
-1.7192661 841.14374 835.21448 4292135366
0 841.14374 835.21448 4291868623
12.894495 841.14374 835.21448 4292525249
17.192661 841.8009 835.76862 4291345846
19.771561 842.45813 836.32275 4290490809
22.350458 842.45813 836.32275 4290556350
24.929358 842.45813 836.32275 4289439915
28.367889 842.45813 836.32275 4290228402
31.806421 842.45813 836.32275 4290687150
34.385323 842.45813 836.32275 4289899439
36.964218 842.45813 836.32275 4293518571
40.116207 841.58185 835.58392 4293518569
44.127827 841.58185 835.58392 4293386211
46.420185 841.8009 835.76862 4293452260
48.999084 842.45813 836.32275 4293386466
51.57798 842.45813 836.32275 4293189090
55.016514 842.45813 836.32275 4293977851
58.455048 842.45813 836.32275 4292139518
64.472473 841.8009 835.76862 4281745524
67.051376 841.8009 835.76862 4278190132
-22.278898 844.54346 834.15686 4284174901
-20.565138 844.54346 834.15686 4283519316
53.126606 844.54346 834.15686 4293715434
56.554127 844.54346 834.15686 4294109438
59.981651 844.54346 834.15686 4287862973
61.695412 844.54346 834.15686 4279786395
1.7284404 838.98254 839.93237 4289101722
4.3211012 838.98254 839.93237 4290149758
6.9137616 838.98254 839.93237 4291600034
-31.587156 841.5069 838.13678 4288979100
-29.289907 842.38507 838.8772 4288385683
-15.506422 842.38507 838.8772 4289700539
-12.922018 841.72644 838.3219 4291145392
-10.337615 841.72644 838.3219 4291215302
-7.7532115 841.72644 838.3219 4291806409
-4.3073397 841.72644 838.3219 4291607219
-1.7229358 841.06787 837.7666 4290818474
0 841.06787 837.7666 4290681011
8.6146793 841.06787 837.7666 4290942104
10.337615 841.06787 837.7666 4290155920
12.922018 841.06787 837.7666 4292000960
16.367889 841.72644 838.3219 4291412417
19.813763 842.38507 838.8772 4290622899
22.398165 842.38507 838.8772 4290622395
24.982569 842.38507 838.8772 4289899185
28.42844 842.38507 838.8772 4290950090
31.874311 842.38507 838.8772 4291147174
34.458717 842.38507 838.8772 4290227900
37.043121 842.38507 838.8772 4292859622
40.77615 841.94598 838.50702 4293583593
43.647705 841.94598 838.50702 4293254882
46.519264 842.38507 838.8772 4293386212
48.242203 842.38507 838.8772 4293254881
63.748623 842.38507 838.8772 4278190150
67.194496 842.38507 838.8772 4278190614
-31.012844 843.70227 839.98779 4290489258
-28.121712 843.72577 839.13556 4290029219
-24.955963 843.73743 838.70941 4289765293
-22.350458 844.42969 837.98517 4289632953
-19.792662 843.73743 838.70941 4289436062
-16.642813 843.72565 839.13556 4290357929
29.289907 843.70227 839.98779 4292199621
44.796329 843.70227 839.98779 4293189601
46.519264 843.70227 839.98779 4293321187
49.35535 843.72565 839.13556 4293255137
52.493576 843.73737 838.70947 4292334810
55.905502 844.08356 838.34729 4287861929
58.517433 843.73743 838.70941 4283126426
61.033943 844.42969 837.98517 4278849092
64.850761 843.72577 839.13556 4278322444
67.194496 843.70227 839.98779 4278455065
61.893578 846.40131 839.64758 4278190080
1.7321101 838.9165 842.4928 4288902783
4.3302751 838.9165 842.4928 4290942881
-12.963303 841.62537 842.16064 4291345852
-10.370643 841.62537 842.16064 4292067776
-7.7779818 841.62537 842.16064 4290551192
-4.3211012 841.62537 842.16064 4291073676
-1.7284404 840.96466 841.60358 4290154364
0 840.96466 841.60358 4290153348
7.7779818 840.30396 841.04651 4291076520
10.370643 840.30396 841.04651 4290089091
12.963303 840.30396 841.04651 4291144871
16.420183 840.96466 841.60358 4290687927
19.877064 841.62537 842.16064 4289438623
22.469725 841.62537 842.16064 4290688167
25.062386 841.62537 842.16064 4291017403
27.655046 841.62537 842.16064 4291541948
31.976147 841.62537 842.16064 4291673532
34.568806 841.62537 842.16064 4290884797
37.161469 841.62537 842.16064 4292398807
40.618347 841.62537 842.16064 4293517800
43.21101 841.62537 842.16064 4293254883
-28.42844 845.01947 841.09851 4290885561
-24.982569 845.01947 841.09851 4291014844
-22.398165 845.01947 841.09851 4291539903
-19.813763 845.01947 841.09851 4292327600
53.411011 845.01947 841.09851 4286084486
55.995415 845.01947 841.09851 4279511863
58.579815 845.01947 841.09851 4278190112
60.302753 845.01947 841.09851 4278190111
64.610092 845.01947 841.09851 4278455059
67.194496 845.01947 841.09851 4278586655
-28.42844 846.33667 842.20911 4291937999
-24.982569 846.33667 842.20911 4292264658
-22.398165 846.33667 842.20911 4290618550
61.164223 846.33667 842.20911 4278452747
64.610092 846.33667 842.20911 4278848541
67.194496 846.33667 842.20911 4278586655
1.7376146 838.16382 845.78223 4290679934
4.3440366 838.16382 845.78223 4292128674
-16.437614 842.91797 844.55859 4291933359
-12.984404 842.57251 844.92139 4292068286
-10.39266 842.22705 845.28412 4291871173
-7.5009174 842.46698 844.61444 4290290324
-4.3302751 841.56494 844.72583 4291077771
-1.7321101 841.56494 844.72583 4291933081
0 841.56494 844.72583 4291605135
7.7944956 840.24072 843.60938 4290879153
10.39266 840.24072 843.60938 4289827180
12.990826 840.24072 843.60938 4290618779
16.455046 840.90283 844.1676 4290226613
19.617125 842.46698 844.61444 4289438364
22.493578 842.91797 844.55865 4291280044
25.387156 842.46698 844.61444 4289377461
28.250765 842.92755 844.13068 4289051317
32.010094 842.91797 844.55859 4289311153
34.605503 842.91797 844.55865 4289439902
37.20092 842.91797 844.55859 4291742147
40.661469 842.91797 844.55865 4293518051
43.817738 842.92755 844.13068 4293254880
46.156574 842.90839 844.98657 4293320413
49.006729 842.92755 844.13068 4293451749
51.85321 842.94678 843.2749 4292795628
-25.062386 845.5896 845.50317 4292328647
-19.877064 844.26819 844.38904 4291206303
