# .PCD v0.7 - Point Cloud Data file format
VERSION 0.7
FIELDS x y z rgb
SIZE 4 4 4 4
TYPE F F F U
COUNT 1 1 1 1
WIDTH 785
HEIGHT 1
VIEWPOINT 0 0 0 1 0 0 0
POINTS 785
DATA ascii
-58.165138 777.79553 1214.7588 4283255135
-55.838531 777.79553 1214.7588 4283713889
-52.348625 777.79553 1214.7588 4283057241
-48.858715 777.79553 1214.7588 4282400080
-32.341286 790.82489 1213.9725 4283913592
-60.491745 779.57428 1216.2585 4279304192
-58.165138 779.57428 1216.2585 4282000162
-55.838531 779.57428 1216.2585 4283182414
-52.348625 779.57428 1216.2585 4284238439
-48.858715 779.57428 1216.2585 4282135886
-46.532108 779.57428 1216.2585 4281217857
-58.165138 781.35297 1217.7583 4279046452
-55.838531 781.35297 1217.7583 4281014593
-52.348625 781.35297 1217.7583 4283976813
-48.858715 781.35297 1217.7583 4282267729
-46.532108 781.35297 1217.7583 4281940563
-44.205505 781.35297 1217.7583 4282137685
-50.983486 785.93396 1215.0808 4282990684
-34.761467 785.93396 1215.0808 4283061606
-57.93578 787.70563 1216.5746 4281086803
-55.618347 787.70563 1216.5746 4280230460
-53.300919 787.70563 1216.5746 4280625218
-49.824768 787.70563 1216.5746 4282925647
-46.348625 787.70563 1216.5746 4282927176
-44.031193 787.70563 1216.5746 4282006074
-34.761467 787.70563 1216.5746 4283257969
-46.201836 795.24011 1217.6953 4282665317
-69.798164 784.02106 1220.0079 4281479253
-67.471558 784.02106 1220.0079 4282137183
-65.144951 784.9104 1220.7578 4282861917
-61.655045 784.02106 1220.0079 4282861924
-58.165138 783.13171 1219.2581 4279572015
-55.838531 783.13171 1219.2581 4280095779
-53.511925 783.13171 1219.2581 4282398533
-48.858715 783.13171 1219.2581 4283122270
-46.532108 783.13171 1219.2581 4282730326
-44.205505 783.13171 1219.2581 4281940811
-41.103363 784.31757 1220.2579 4281744213
-37.225689 784.02106 1220.0079 4282074203
-57.93578 790.36316 1218.8154 4283193956
-55.618347 790.36316 1218.8154 4283126117
-53.300919 790.36316 1218.8154 4282468187
-49.824768 790.36316 1218.8153 4281808222
-46.348625 790.36316 1218.8154 4282398547
-44.031193 790.36316 1218.8154 4282859355
-40.555046 790.36316 1218.8154 4281611583
-37.078899 790.36316 1218.8154 4280953405
-34.761467 790.36316 1218.8154 4283453796
-32.444038 791.24902 1219.5623 4284243570
-53.132111 797.00616 1219.1844 4283586167
-49.666969 797.00616 1219.1844 4283520624
-46.201836 797.00616 1219.1844 4283124864
-43.891743 797.00616 1219.1844 4281809004
-40.426605 797.00616 1219.1844 4281349689
-36.961468 797.00616 1219.1844 4281149766
-53.132111 798.77228 1220.6736 4283716470
-49.666969 798.77228 1220.6736 4283783541
-46.201836 798.77228 1220.6736 4283655553
-43.891743 798.77228 1220.6736 4283326845
-40.426605 798.77228 1220.6736 4281878361
-36.961468 798.77228 1220.6736 4280428336
-67.737617 778.54376 1221.9298 4287725713
-64.233948 778.54376 1221.9298 4283057742
-60.730274 778.54376 1221.9298 4278190629
-42.044037 778.54376 1221.9298 4281744474
-39.708256 778.54376 1221.9298 4282336867
-37.372478 778.54376 1221.9298 4283585883
-65.401833 780.32947 1223.4355 4283058537
-39.708256 780.32947 1223.4355 4282466655
-69.798164 786.68909 1222.2576 4282401614
-67.471558 787.57849 1223.0074 4282532951
-65.144951 787.57849 1223.0074 4282994285
-61.655045 787.57843 1223.0074 4284377212
-30.245872 788.46783 1223.7573 4284506485
-61.411926 794.79242 1222.55 4285230724
-57.93578 793.90662 1221.8031 4283651434
-55.618347 793.90662 1221.8031 4283454579
-53.300919 793.02075 1221.0562 4283454576
-49.824768 793.02075 1221.0562 4283192175
-44.031193 793.02075 1221.0562 4282270559
-40.555046 793.02075 1221.0562 4281807416
-37.078899 793.02075 1221.0562 4281412401
-34.761467 793.90662 1221.8031 4281017655
-57.752293 800.53839 1222.1627 4283650674
-55.442204 800.53839 1222.1627 4283584883
-53.132111 800.53839 1222.1627 4283716470
-49.666969 800.53839 1222.1627 4283849339
-46.201836 800.53839 1222.1627 4284113526
-43.891743 800.53839 1222.1627 4284376955
-40.426605 800.53839 1222.1627 4283191406
-57.752293 802.30444 1223.6517 4283716470
-55.442204 802.30444 1223.6517 4283520374
-53.132111 802.30444 1223.6517 4283651960
-49.666969 802.30444 1223.6517 4284046715
-46.201836 802.30444 1223.6517 4284112761
-43.891743 802.30444 1223.6517 4284375932
-41.58165 802.30444 1223.6517 4284966532
-55.222019 808.56866 1222.3934 4282994796
-52.921101 808.56866 1222.3934 4283652725
-49.469727 808.56866 1222.3934 4283980668
-46.018349 808.56866 1222.3934 4284440442
-43.71743 808.56866 1222.3934 4284703615
-57.522934 810.32776 1223.8767 4283192424
-55.222019 810.32776 1223.8767 4282929003
-52.921101 810.32776 1223.8767 4283718518
-49.469727 810.32776 1223.8767 4283915127
-46.018349 810.32776 1223.8767 4284308859
-43.71743 810.32776 1223.8767 4284572030
-41.416515 810.32776 1223.8767 4284638071
-50.41835 814.80493 1221.1116 4283849334
-55.001835 816.55695 1222.5889 4283324014
-52.710091 816.55695 1222.5889 4283652723
-49.272476 816.55695 1222.5889 4283981177
-45.834862 816.55695 1222.5889 4284440442
-72.124771 790.24652 1225.2572 4281809488
-67.471558 790.24652 1225.2572 4282007901
-65.144951 790.24652 1225.2572 4282337380
-61.655045 790.24652 1225.2572 4284902533
-32.572475 790.24652 1225.2572 4282858583
-72.124771 792.02527 1226.757 4281809236
-69.798164 792.02527 1226.757 4281481304
-67.471558 792.02527 1226.757 4282336613
-65.144951 792.02527 1226.757 4282797153
-32.572475 792.02527 1226.757 4280559173
-60.253212 796.56409 1224.0438 4284637322
-57.93578 796.56409 1224.0438 4283650426
-55.618347 796.56409 1224.0438 4283650676
-34.761467 796.56409 1224.0438 4280033579
-61.411926 798.33582 1225.5377 4284309629
-37.078899 798.33582 1225.5377 4280692015
-34.761467 798.33582 1225.5377 4279639071
-57.752293 804.95361 1225.8855 4283061613
-55.442204 804.07056 1225.1409 4283454580
-53.132111 804.07056 1225.1409 4283651960
-49.666969 804.07056 1225.1409 4284046713
-46.201836 804.07056 1225.1409 4284440442
-43.891743 804.07056 1225.1409 4284506235
-41.58165 804.95361 1225.8855 4284703096
-57.522934 812.08679 1225.3599 4283128178
-55.222019 812.08679 1225.3599 4282995302
-52.921101 812.08679 1225.3599 4283652975
-48.319267 812.08679 1225.3599 4284112763
-46.018349 812.08679 1225.3599 4284506233
-43.71743 812.08679 1225.3599 4284572026
-58.673393 813.84589 1226.8431 4283259766
-43.71743 813.84589 1226.8431 4284506235
-41.416515 813.84589 1226.8431 4284505983
-55.001835 818.30902 1224.0662 4282997098
-52.710091 818.30902 1224.0662 4283260014
-49.272476 818.30902 1224.0662 4283981688
-45.834862 818.30902 1224.0662 4284310137
-57.293579 820.06104 1225.5435 4283126368
-55.001835 820.06104 1225.5435 4283126631
-52.710091 820.06104 1225.5435 4283455853
-49.272476 820.06104 1225.5435 4283784309
-45.834862 820.06104 1225.5435 4284310137
-43.543118 820.06104 1225.5435 4284375930
-72.409172 785.68665 1227.9525 4281678158
-70.073395 785.68665 1227.9525 4281612113
-28.029358 785.68665 1227.9525 4282929758
-70.073395 787.47241 1229.4583 4281349970
-30.365137 787.47241 1229.4583 4285029751
-73.288071 793.80396 1228.2567 4281612109
-69.798164 793.80396 1228.2567 4281349970
-67.471558 793.80396 1228.2567 4282336865
-65.144951 793.80396 1228.2567 4282929257
-62.818348 793.80396 1228.2567 4284310909
-31.409174 793.80396 1228.2567 4280560179
-73.288071 795.58264 1229.7565 4281480527
-69.798164 795.58264 1229.7565 4281415761
-67.471558 795.58264 1229.7565 4282468706
-65.144951 795.58264 1229.7565 4282929257
-32.572475 795.58264 1229.7565 4279509802
-61.411926 800.10754 1227.0315 4283980665
-39.396332 800.10754 1227.0315 4284703617
-37.078899 800.10754 1227.0315 4284177522
-61.411926 801.87921 1228.5254 4283784310
-39.396332 801.87921 1228.5254 4284900989
-37.078899 801.87921 1228.5254 4284639109
-60.062386 808.48572 1228.8638 4283522162
-41.58165 809.36877 1229.6083 4284572026
-58.673393 815.60498 1228.3263 4283062387
-43.71743 815.60498 1228.3263 4284375930
-41.416515 815.60498 1228.3263 4284572028
-59.823853 817.36401 1229.8094 4283981676
-40.266056 817.36401 1229.8094 4284571776
-58.439449 821.81311 1227.0208 4284766861
-55.001835 821.81311 1227.0208 4282929252
-52.710091 821.81311 1227.0208 4283389803
-49.272476 821.81311 1227.0208 4283850354
-45.834862 821.81311 1227.0208 4284179321
-43.543118 821.81311 1227.0208 4284310907
-52.710091 823.56519 1228.498 4283652210
-48.126606 823.56519 1228.498 4284375932
-45.834862 823.56519 1228.498 4284310135
-28.117432 785.25299 1232.8191 4283129711
-25.774311 785.25299 1232.8191 4282142816
-30.365137 789.25812 1230.9639 4283914616
-28.029358 790.151 1231.7168 4283125603
-25.693579 791.04382 1232.4696 4283651178
-73.288071 797.36133 1231.2562 4281743695
-69.798164 797.36133 1231.2562 4281744724
-67.471558 797.36133 1231.2562 4282468704
-65.144951 797.36133 1231.2562 4282797416
-34.899082 797.36133 1231.2562 4280887872
-32.572475 797.36133 1231.2562 4280165671
-73.288071 799.14008 1232.756 4281875281
-69.798164 799.14008 1232.756 4281942361
-67.471558 799.14008 1232.756 4282797414
-65.144951 799.14008 1232.756 4282863209
-34.899082 799.14008 1232.756 4282138719
-32.572475 799.14008 1232.756 4279968328
-64.888077 803.65088 1230.0193 4282797416
-61.411926 803.65088 1230.0193 4283456116
-39.396332 803.65088 1230.0193 4284900219
-37.078899 803.65088 1230.0193 4284705413
-64.888077 805.42261 1231.5131 4282929257
-62.570641 805.42261 1231.5131 4283718516
-39.396332 805.42261 1231.5131 4284638071
-37.078899 805.42261 1231.5131 4284573566
-34.761467 805.42261 1231.5131 4285099910
-62.372478 812.01794 1231.8419 4283522164
-39.271561 812.90094 1232.5864 4284637821
-36.961468 812.90094 1232.5864 4284900739
-34.651375 812.01794 1231.8419 4285032580
-32.341286 812.90094 1232.5864 4285164168
-62.124771 819.12311 1231.2927 4286411404
-58.673393 820.88214 1232.7759 4284898207
-55.222019 820.88214 1232.7759 4282994279
-50.620182 820.88214 1232.7759 4283849588
-43.71743 820.88214 1232.7759 4284375928
-40.266056 819.12311 1231.2927 4284441473
-36.814678 819.12311 1231.2927 4284441471
-34.51376 819.12311 1231.2927 4284902022
-25.774311 787.04431 1234.3295 4283719022
-23.431192 788.83569 1235.8398 4283651206
-30.365137 793.72241 1234.728 4280429617
-28.029358 793.72241 1234.728 4280296520
-25.693579 793.72241 1234.728 4282599018
-23.357798 794.6153 1235.481 4281614171
-73.288071 800.91876 1234.2557 4282137937
-69.798164 800.91876 1234.2557 4281810771
-67.471558 800.91876 1234.2557 4282731873
-34.899082 800.91876 1234.2557 4284508034
-32.572475 800.91876 1234.2557 4284506233
-73.288071 802.69751 1235.7555 4282072145
-69.798164 802.69751 1235.7555 4282335069
-67.471558 802.69751 1235.7555 4283058535
-31.409174 802.69751 1235.7555 4284374904
-27.919266 802.69751 1235.7555 4281742429
-25.592661 802.69751 1235.7555 4281808222
-23.266054 802.69751 1235.7555 4282071642
-67.205505 808.966 1234.5007 4283059041
-64.888077 808.08014 1233.7539 4283257968
-62.570641 807.19427 1233.007 4283784311
-39.396332 808.08014 1233.7539 4284637822
-37.078899 808.08014 1233.7539 4284704128
-34.761467 807.19427 1233.007 4284836483
-31.67156 808.37543 1234.0028 4285296006
-25.491743 808.966 1234.5007 4284902274
-67.205505 810.73767 1235.9946 4282797668
-64.888077 810.73767 1235.9946 4282733670
-30.126606 810.73767 1235.9946 4285164168
-25.491743 810.73767 1235.9946 4284835716
-66.992661 814.66705 1234.0756 4284110192
-64.682571 814.66705 1234.0756 4284505190
-62.372478 814.66705 1234.0756 4284636777
-36.961468 814.66705 1234.0756 4284507521
-34.651375 814.66705 1234.0756 4284902022
-32.341286 814.66705 1234.0756 4285164429
-66.992661 816.43311 1235.5647 4286411654
-64.682571 816.43311 1235.5647 4287990437
-31.186239 816.43311 1235.5647 4284705415
-55.222019 822.64124 1234.259 4283388007
-52.921101 822.64124 1234.259 4283716971
-49.086243 823.22754 1234.7535 4284177270
-46.018349 822.64124 1234.259 4284113274
-23.522936 782.47888 1237.02 4284576668
-23.522936 784.27722 1238.5364 4285360036
-23.431192 790.62701 1237.3502 4283849838
-21.088074 792.41833 1238.8607 4282272358
-30.365137 796.401 1236.9866 4280494673
-28.029358 796.401 1236.9866 4281411418
-25.693579 796.401 1236.9866 4282398313
-22.189907 796.401 1236.9866 4282468703
-30.365137 798.18677 1238.4923 4283058787
-28.029358 798.18677 1238.4923 4282201432
-25.693579 798.18677 1238.4923 4282267225
-22.189907 798.18677 1238.4923 4282466652
-69.798164 805.36554 1238.0051 4282466903
-67.471558 804.4762 1237.2552 4283124832
-30.245872 804.4762 1237.2552 4284967556
-27.919266 805.36554 1238.0051 4285033347
-25.592661 804.4762 1237.2552 4284769662
-23.266054 805.36554 1238.0051 4283783800
-20.939449 805.36554 1238.0051 4281875803
-69.522934 812.5094 1237.4885 4282926174
-30.126606 812.5094 1237.4885 4285098636
-27.809174 812.5094 1237.4885 4284901511
-25.491743 812.5094 1237.4885 4284967304
-23.174313 812.5094 1237.4885 4285296269
-70.681656 814.28107 1238.9823 4282926168
-27.809174 814.28107 1238.9823 4284901509
-25.491743 814.28107 1238.9823 4284901509
-23.174313 814.28107 1238.9823 4285164170
-62.372478 818.19922 1237.0538 4286213276
-40.426605 818.19922 1237.0538 4284441725
-36.961468 818.19922 1237.0538 4284573312
-34.651375 818.19922 1237.0538 4285297034
-61.21743 819.96527 1238.543 4283386236
-57.752293 819.96527 1238.543 4283320710
-43.891743 819.96527 1238.543 4284310909
-39.271561 819.96527 1238.543 4284573573
-32.341286 819.96527 1238.543 4285164420
-21.25321 779.70465 1241.2211 4292274431
-18.891743 779.70465 1241.2211 4294110975
-21.170643 786.97473 1240.8108 4286941610
-18.744955 794.20966 1240.3711 4282468969
-16.401834 794.20966 1240.3711 4282008418
-18.744955 796.00098 1241.8815 4283125866
-16.401834 796.00098 1241.8815 4283652210
-21.022018 799.97247 1239.9979 4282071642
-18.686239 799.97247 1239.9979 4282072675
-73.577065 801.75818 1241.5037 4282465619
-18.686239 801.75818 1241.5037 4281021007
-73.288071 809.81232 1241.7545 4282401113
-69.798164 808.03363 1240.2548 4281744724
-27.919266 808.03363 1240.2548 4284835716
-23.266054 808.03363 1240.2548 4284968333
-20.163916 809.21942 1241.2545 4284638342
-64.888077 816.05273 1240.4762 4286476191
-41.71376 817.82446 1241.97 4284244864
-37.078899 817.82446 1241.97 4284770434
-34.761467 817.82446 1241.97 4284902276
-30.899084 816.64331 1240.9741 4284967810
-27.809174 817.82446 1241.97 4284573312
-23.174313 816.05273 1240.4762 4284967558
-60.062386 821.73138 1240.0321 4282861917
-57.752293 821.73138 1240.0321 4283190625
-55.442204 821.73138 1240.0321 4283322214
-53.132111 821.73138 1240.0321 4283322214
-50.822018 821.73138 1240.0321 4283782513
-60.062386 823.49744 1241.5212 4283386977
-57.752293 823.49744 1241.5212 4283452770
-55.442204 823.49744 1241.5212 4283518564
-53.132111 823.49744 1241.5212 4283649893
-49.666969 823.49744 1241.5212 4283913067
-21.25321 781.51001 1242.7433 4292992255
-18.891743 781.51001 1242.7433 4294437631
-16.530275 781.51001 1242.7433 4294963967
-18.891743 783.31543 1244.2656 4289835221
-16.530275 783.31543 1244.2656 4290953445
-18.818348 789.67224 1243.0853 4281222495
-16.466055 789.67224 1243.0853 4281288289
-14.113762 791.47058 1244.6017 4283256700
-16.401834 797.79236 1243.3918 4284375430
-14.058716 797.79236 1243.3918 4284244612
-11.715596 797.79236 1243.3918 4285626265
-16.401834 799.58368 1244.9023 4282863211
-73.577065 803.54388 1243.0093 4282268496
-18.686239 803.54388 1243.0093 4281481556
-77.080734 805.32959 1244.515 4282268492
-73.577065 805.32959 1244.515 4282203730
-18.686239 805.32959 1244.515 4283060073
-74.451378 811.59106 1243.2543 4282072144
-20.939449 811.59106 1243.2543 4285361292
-67.471558 813.36975 1244.754 4285886843
-27.919266 813.36975 1244.754 4284507267
-25.592661 813.36975 1244.754 4284573060
-62.570641 820.48206 1244.2108 4283123805
-46.348625 820.48206 1244.2108 4283980152
-44.031193 820.48206 1244.2108 4284572545
-40.555046 820.48206 1244.2108 4284507265
-37.078899 819.59619 1243.4639 4284573312
-34.761467 819.59619 1243.4639 4284770434
-31.285322 819.59619 1243.4639 4285098374
-57.752293 826.14661 1243.7549 4283649380
-55.442204 827.02966 1244.4994 4283912551
-50.822018 825.26355 1243.0103 4283781481
-18.891743 785.12079 1245.7878 4288189839
-16.530275 785.12079 1245.7878 4289044892
-14.168807 785.12079 1245.7878 4288188846
-14.168807 786.92615 1247.3101 4282794879
-14.113762 793.26898 1246.1179 4284178819
-11.761468 793.26898 1246.1179 4288521158
-16.401834 801.375 1246.4127 4281744728
-77.080734 807.11536 1246.0206 4282007373
-65.144951 815.14844 1246.2538 4282925674
-25.592661 815.14844 1246.2538 4284639105
-23.266054 815.14844 1246.2538 4284705413
-20.939449 815.14844 1246.2538 4284771206
-65.144951 816.92719 1247.7535 4282728791
-27.919266 816.92719 1247.7535 4284902274
-25.592661 816.92719 1247.7535 4284902274
-23.266054 816.92719 1247.7535 4284771458
-19.776146 816.92719 1247.7535 4284771204
-61.411926 824.02539 1247.1985 4283452255
-55.618347 823.13953 1246.4515 4283715938
-53.300919 824.02539 1247.1985 4283913063
-49.438534 824.32062 1247.4474 4283979112
-46.348625 824.02539 1247.1985 4283782515
-44.031193 824.02539 1247.1985 4284506237
-14.113762 796.86566 1249.1506 4283586932
-11.761468 796.86566 1249.1506 4284113276
-18.744955 806.74902 1250.944 4285361544
-16.401834 806.74902 1250.944 4284900993
-72.409172 811.57965 1249.7849 4282729560
-70.073395 811.57965 1249.7849 4282597199
-67.737617 812.47253 1250.5377 4282860377
-21.022018 810.68677 1249.032 4284967558
-18.686239 811.57965 1249.7849 4284771202
-37.225689 818.70587 1249.2533 4284703615
-34.899082 818.70587 1249.2533 4285098372
-31.409174 818.70587 1249.2533 4285033095
-27.919266 818.70587 1249.2533 4284968068
-40.715595 820.48462 1250.7531 4284572282
-37.225689 820.48462 1250.7531 4284703617
-55.618347 826.68292 1249.4392 4284109931
-70.073395 814.25824 1252.0433 4282728791
-67.737617 814.25824 1252.0433 4282662998
-70.073395 816.04395 1253.5491 4282861913
-67.737617 816.04395 1253.5491 4282927962
-65.401833 816.04395 1253.5491 4283320928
-25.693579 816.04395 1253.5491 4284968068
-23.357798 816.04395 1253.5491 4284967558
-60.491745 824.04199 1253.7527 4283780966
-58.165138 824.04199 1253.7527 4283912551
-52.348625 824.04199 1253.7527 4284373357
-48.858715 824.04199 1253.7527 4284308075
-46.532108 824.04199 1253.7527 4284111727
-44.205505 824.04199 1253.7527 4284111727
-41.878899 822.26331 1252.2528 4284178806
-16.530275 797.7583 1256.4435 4282007384
-14.168807 795.95294 1254.9213 4282140515
-11.80734 795.95294 1254.9213 4284574856
-21.088074 813.91437 1256.9856 4284967558
-18.744955 813.91437 1256.9856 4284836231
-16.401834 813.91437 1256.9856 4284836231
-14.058716 813.91437 1256.9856 4285294720
-67.737617 817.82971 1255.0547 4283387479
-65.401833 817.82971 1255.0547 4283386973
-35.036697 817.82971 1255.0547 4284966532
-31.533028 817.82971 1255.0547 4284902528
-39.708256 819.61542 1256.5604 4284507771
-37.372478 819.61542 1256.5604 4284573312
-32.700916 819.61542 1256.5604 4284836479
-52.348625 825.82068 1255.2524 4284308336
-48.858715 825.82068 1255.2524 4284045934
-46.532108 825.82068 1255.2524 4284111727
-44.205505 826.71008 1256.0023 4284571766
-28.117432 815.70569 1258.496 4284902274
-25.774311 815.70569 1258.496 4284902274
-23.431192 815.70569 1258.496 4284967558
-42.044037 821.40112 1258.066 4284243316
-16.594496 796.86664 1262.2317 4283058285
-14.223853 795.96045 1261.4677 4281745486
-11.853211 796.86664 1262.2317 4282995298
-21.170643 813.05078 1262.7975 4284901509
-18.818348 813.05078 1262.7975 4284705415
-16.466055 813.05078 1262.7975 4284639622
-35.14679 817.49701 1260.0063 4284770434
-30.46055 817.49701 1260.0063 4284836479
-39.833027 819.28833 1261.5167 4284572280
-35.14679 819.28833 1261.5167 4284573312
-32.803669 819.28833 1261.5167 4284770688
-16.594496 800.49133 1265.2881 4285034115
-14.223853 799.58514 1264.5239 4283718772
-11.853211 799.58514 1264.5239 4282271069
-28.227524 814.84912 1264.3138 4284902274
-25.875229 814.84912 1264.3138 4284902274
-22.34679 814.84912 1264.3138 4284901511
-18.818348 814.84912 1264.3138 4284771208
-16.466055 814.84912 1264.3138 4284507780
-14.113762 814.84912 1264.3138 4286084236
-37.636696 816.64746 1265.8301 4284375932
-30.579817 816.64746 1265.8301 4284902274
-28.227524 816.64746 1265.8301 4284902274
-25.875229 816.64746 1265.8301 4284968068
-22.34679 816.64746 1265.8301 4285098122
-18.818348 816.64746 1265.8301 4284573573
-42.176147 821.07971 1263.0272 4284572278
-39.833027 821.07971 1263.0272 4284572278
-42.176147 822.87103 1264.5376 4284704117
-39.833027 822.87103 1264.5376 4284572530
-14.223853 802.30371 1266.8162 4284639618
-16.594496 804.11609 1268.3444 4284639620
-37.636696 818.44586 1267.3464 4284310135
-35.284405 818.44586 1267.3464 4284639357
-31.755962 818.44586 1267.3464 4284705667
-37.636696 820.2442 1268.8628 4284375928
-35.284405 820.2442 1268.8628 4284507771
-31.755962 820.2442 1268.8628 4284639868
-39.833027 824.66235 1266.048 4284901241
-9.6220188 775.58368 1269.1392 4291148028
-7.2165136 775.58368 1269.1392 4293845503
-9.6220188 777.42273 1270.6898 4288786657
-7.2165136 777.42273 1270.6898 4291681535
-9.548624 793.83698 1271.4495 4282074722
-28.337614 815.81189 1271.6658 4284968068
-25.976147 815.81189 1271.6658 4285231239
-22.433945 815.81189 1271.6658 4285229704
-18.891743 815.81189 1271.6658 4284770438
-16.530275 814.00653 1270.1436 4284507780
-14.168807 814.00653 1270.1436 4286150031
-37.636696 822.04254 1270.3792 4284507771
-35.284405 822.94171 1271.1372 4284507001
-4.8293576 774.69067 1274.9263 4292729593
-9.6220188 779.26178 1272.2404 4287532979
-9.6220188 781.10083 1273.791 4283914879
-11.981651 787.48291 1272.6321 4284048753
-28.337614 817.61731 1273.188 4284770436
-25.976147 817.61731 1273.188 4284968072
-22.433945 817.61731 1273.188 4285098627
-18.891743 817.61731 1273.188 4284966536
-33.060551 819.42261 1274.7102 4283718516
-30.699083 819.42261 1274.7102 4284179067
-25.976147 819.42261 1274.7102 4284837000
-22.433945 819.42261 1274.7102 4284639109
-7.2440367 776.53674 1276.4828 4291677938
-9.6220188 782.93982 1275.3417 4284178556
-9.6220188 784.77881 1276.8922 4283917696
-7.2165136 784.77881 1276.8922 4283654268
-9.5853214 792.97894 1277.2662 4281682285
-16.594496 814.08417 1276.7491 4284440961
-14.223853 814.08417 1276.7491 4285427853
-11.853211 814.08417 1276.7491 4289375690
-33.060551 821.22803 1276.2325 4284441723
-4.8477063 773.81165 1280.7252 4292663788
-7.2440367 778.38275 1278.0393 4287928253
-4.8293576 778.38275 1278.0393 4290490584
-7.2440367 780.22882 1279.5958 4285889174
-9.6220188 786.61786 1278.4429 4283454595
-7.2165136 787.53735 1279.2183 4284310922
-9.5853214 794.81097 1278.8109 4283720565
-30.818348 818.61511 1280.5696 4284375930
-28.447706 817.70892 1279.8054 4284441984
-26.077065 818.61511 1280.5696 4285297034
-22.521101 818.61511 1280.5696 4284900739
-18.965137 817.70892 1279.8054 4285097606
-16.594496 817.70892 1279.8054 4285097605
-14.223853 816.80273 1279.0414 4283852164
-11.853211 816.80273 1279.0414 4285168024
-4.8697248 766.8186 1282.6771 4293911295
-2.4238532 775.66467 1282.2877 4292793339
-4.8477063 777.5177 1283.8501 4287399372
-7.2165136 790.2959 1281.5442 4283392647
-30.818348 820.42749 1282.0977 4284769914
-28.447706 820.42749 1282.0977 4284900993
-26.077065 820.42749 1282.0977 4284900993
-22.521101 820.42749 1282.0977 4284834946
-18.965137 820.42749 1282.0977 4284967558
-23.706423 822.23987 1283.6259 4284703619
-2.4348624 769.61078 1285.0314 4292598001
-4.8477063 779.37079 1285.4126 4283982740
-4.8477063 781.22388 1286.9751 4283917708
-16.658716 817.82166 1286.4407 4284967558
-14.278899 816.91199 1285.6736 4284770445
-11.899082 816.00226 1284.9066 4284770707
-2.4348624 774.26447 1288.9552 4292136447
-4.8477063 783.0769 1288.5375 4283984516
-9.5853214 807.63507 1289.6239 4289768926
-7.1889906 807.63507 1289.6239 4290163683
-21.418348 820.55072 1288.7417 4284966532
-19.038532 820.55072 1288.7417 4284704130
-16.658716 819.64099 1287.9747 4284704130
-14.278899 820.55072 1288.7417 4284572297
-2.4532111 761.34033 1291.1383 4293911295
0 763.21582 1292.7196 4292401393
0 769.68494 1291.634 4292596978
-2.4348624 776.12592 1290.5248 4289245923
-2.4348624 777.98743 1292.0944 4287339200
-4.8477063 784.92993 1290.1 4283259260
-9.6220188 803.16913 1292.3984 4289768674
-7.2165136 803.16913 1292.3984 4289242329
-4.8110094 803.16913 1292.3984 4288914621
-2.4055047 803.16913 1292.3984 4285032577
-9.5853214 809.46704 1291.1686 4286548651
-7.1889906 809.46704 1291.1686 4289509079
-9.5853214 811.29907 1292.7133 4285298307
-7.1889906 811.29907 1292.7133 4289179837
0 765.09131 1294.301 4292663536
1.2220184 772.48767 1293.9972 4292269558
4.8880734 772.48767 1293.9972 4292860654
-2.4348624 779.84888 1293.6639 4283655807
-2.4348624 781.71033 1295.2334 4283259260
-4.8110094 805.92767 1294.7244 4289901005
-2.4055047 805.00818 1293.9491 4286349209
0 805.00818 1293.9491 4283656335
-11.182874 814.35248 1295.2877 4284769675
1.2220184 775.29034 1296.3604 4290887913
4.8880734 775.29034 1296.3604 4293123576
1.2220184 777.15887 1297.9358 4288847292
4.8880734 777.15887 1297.9358 4292268780
7.3321099 777.15887 1297.9358 4292531696
-4.8697248 783.57184 1296.803 4281945440
-4.8110094 808.68622 1297.0503 4289965522
-2.4055047 808.68622 1297.0503 4289373384
0 808.68622 1297.0503 4286876598
-9.6220188 810.52527 1298.601 4284245114
-7.2165136 810.52527 1298.601 4286153111
-4.8110094 810.52527 1298.601 4287795133
-11.981651 816.79517 1297.3474 4284770186
1.2220184 779.02734 1299.5114 4286944674
4.8880734 779.02734 1299.5114 4292136679
7.3321099 779.02734 1299.5114 4292663023
-2.4440367 780.89581 1301.0868 4283261299
0 780.89581 1301.0868 4285232763
4.8880734 780.89581 1301.0868 4292005352
-4.8697248 789.15625 1301.5116 4285753223
-2.4348624 789.15625 1301.5116 4291279835
-2.4146788 804.22736 1299.8308 4288847290
0 804.22736 1299.8308 4286680484
-7.2165136 812.36426 1300.1516 4285624730
-4.8110094 812.36426 1300.1516 4286874533
-2.4440367 782.76428 1302.6622 4288318649
4.8880734 782.76428 1302.6622 4292398833
-2.4440367 784.63281 1304.2377 4293050835
4.8880734 784.63281 1304.2377 4293058033
-7.3045874 792.87921 1304.6508 4287399860
-2.4146788 808.84247 1303.7222 4288782279
0 809.7655 1304.5005 4286809522
9.8495417 771.77887 1306.4799 4292596208
2.4532111 778.21985 1305.3706 4290430410
7.359633 778.21985 1305.3706 4292663538
1.2266055 780.09534 1306.952 4291674050
7.359633 780.09534 1306.952 4293254142
1.2220184 786.50128 1305.8131 4293911275
4.8880734 786.50128 1305.8131 4293714930
-4.8293576 811.61151 1306.057 4285032077
-2.4146788 811.61151 1306.057 4286150815
-2.4146788 813.45758 1307.6135 4285755283
9.8495417 773.66138 1308.0671 4292793841
9.8495417 775.54388 1309.6545 4292794093
12.311927 775.54388 1309.6545 4292794093
1.2266055 781.97083 1308.5333 4294173166
7.359633 783.84631 1310.1147 4293517550
7.387156 779.3089 1312.8291 4292992240
12.311927 778.36768 1312.0354 4292531943
2.4532111 785.7218 1311.6962 4291151590
4.9064221 785.7218 1311.6962 4292597741
2.4532111 787.59735 1313.2775 4288852673
4.9064221 787.59735 1313.2775 4291083750
2.4440367 793.97522 1312.115 4282340731
2.4440367 795.84375 1313.6904 4283193455
0 802.18652 1312.4984 4286350004
9.8862381 774.75739 1315.5315 4292794602
7.387156 783.07397 1316.0037 4293255927
1.2266055 789.47284 1314.8589 4283850102
4.9064221 790.41058 1315.6495 4287004074
2.4440367 797.71222 1315.2659 4283521155
2.4440367 799.58069 1316.8413 4283586698
9.8862381 776.64697 1317.1246 4292663786
9.8862381 778.5365 1318.7179 4293123308
12.357799 778.5365 1318.7179 4292860136
4.9064221 793.22382 1318.0216 4283651971
4.9064221 795.0993 1319.603 4283652473
7.4146791 782.31555 1321.9043 4293583871
7.387156 788.7215 1320.7655 4292796159
7.387156 790.604 1322.3528 4291481338
4.9064221 796.97485 1321.1843 4283979891
2.4532111 798.85034 1322.7657 4284112009
14.895412 775.35052 1323.8798 4292794604
9.930275 777.24847 1325.48 4293320689
13.654128 777.24847 1325.48 4292991726
7.4146791 784.20508 1323.4974 4293647103
7.387156 793.42773 1324.7336 4289309898
2.4532111 800.72583 1324.3472 4284901263
4.9064221 800.72583 1324.3472 4284244610
2.4532111 802.60132 1325.9285 4284771206
4.9064221 802.60132 1325.9285 4285621638
9.930275 779.14642 1327.0803 4293517813
9.930275 781.04437 1328.6807 4293254905
9.8862381 789.87366 1328.2771 4293517561
4.9247708 796.25153 1327.1146 4284046729
2.4532111 804.47681 1327.5099 4284769923
4.9064221 804.47681 1327.5099 4287787665
13.704587 776.50549 1331.3937 4292926447
17.442202 775.55298 1330.5906 4292729068
19.933945 774.60052 1329.7875 4292662253
9.930275 782.94232 1330.2809 4293649150
9.930275 784.84027 1331.8812 4293582335
9.8862381 791.76318 1329.8702 4288190409
7.4146791 793.65271 1331.4635 4285625761
12.458715 778.41046 1332.9999 4293057783
12.458715 780.31543 1334.6061 4293385978
7.4146791 796.487 1333.8533 4284571263
9.8862381 797.43176 1334.6499 4285550966
2.4623854 803.78162 1333.4637 4284179071
4.9247708 803.78162 1333.4637 4286804109
20.007339 773.86456 1335.7072 4292531437
16.255962 775.77649 1337.3193 4292598508
20.007339 775.77649 1337.3193 4292531950
12.458715 784.12531 1337.8186 4293846783
9.930275 790.53406 1336.6821 4284307868
7.4146791 799.32129 1336.243 4290550971
9.8862381 799.32129 1336.243 4290616228
12.357799 799.32129 1336.243 4290813864
7.4146791 801.21082 1337.8363 4292067806
9.8862381 801.21082 1337.8363 4291279514
12.357799 801.21082 1337.8363 4291345307
4.9247708 805.66412 1335.051 4284111229
4.9247708 807.54663 1336.6384 4286085020
22.60734 770.69543 1340.8833 4292531437
12.504587 779.60046 1340.5436 4293845503
16.255962 778.64453 1339.7375 4293320692
20.007339 777.68848 1338.9314 4292991986
13.704587 786.03027 1339.4248 4286677169
9.930275 792.43201 1338.2825 4282272887
13.240367 793.69727 1339.3492 4283715180
7.4146791 803.10034 1339.4294 4285098125
22.60734 772.61584 1342.5024 4292597743
27.631193 772.61584 1342.5024 4293057779
16.255962 781.51245 1342.1556 4292465139
20.007339 781.51245 1342.1556 4291086028
17.506422 783.42444 1343.7678 4283716481
20.007339 783.42444 1343.7678 4278203745
13.704587 787.93524 1341.031 4282927736
17.442202 787.93524 1341.031 4280955723
19.933945 787.93524 1341.031 4280301655
14.950459 789.84021 1342.6372 4282141017
17.442202 789.84021 1342.6372 4282733154
19.933945 789.84021 1342.6372 4286082689
14.895412 796.22791 1341.483 4289239988
17.377981 796.22791 1341.483 4284502892
14.895412 798.12585 1343.0833 4288715692
20.095413 776.4566 1345.741 4293057779
22.60734 774.53625 1344.1217 4293057779
22.508257 785.33636 1345.3799 4284315284
25.009174 785.33636 1345.3799 4290097050
27.510092 785.33636 1345.3799 4292005048
30.011009 785.33636 1345.3799 4290754006
22.508257 787.24835 1346.9921 4290885579
27.510092 787.24835 1346.9921 4293715454
30.011009 787.24835 1346.9921 4293977597
17.442202 791.74518 1344.2434 4284242532
19.933945 791.74518 1344.2434 4286213285
19.933945 793.65015 1345.8496 4285354635
9.930275 800.0238 1344.6836 4285232493
12.412844 800.0238 1344.6836 4284640613
9.930275 801.92175 1346.2839 4282863713
25.21101 771.9093 1348.4469 4293057779
27.732111 771.9093 1348.4469 4293320950
22.60734 778.37701 1347.3601 4288783273
27.631193 778.37701 1347.3601 4287137438
22.60734 780.29742 1348.9794 4281692315
25.119267 780.29742 1348.9794 4286480789
27.631193 780.29742 1348.9794 4288191663
22.508257 789.16034 1348.6042 4292134655
25.009174 789.16034 1348.6042 4292987900
27.510092 789.16034 1348.6042 4293777407
30.011009 789.16034 1348.6042 4293056745
14.950459 797.46002 1349.062 4283915400
17.442202 796.50757 1348.2589 4283321965
19.933945 796.50757 1348.2589 4282927473
22.689909 773.83673 1350.072 4292597228
25.21101 773.83673 1350.072 4290494679
27.732111 773.83673 1350.072 4288520889
30.25321 773.83673 1350.072 4288910507
25.21101 775.76416 1351.6971 4288058539
31.51376 775.76416 1351.6971 4284968290
25.119267 784.13818 1352.2178 4291873250
22.508257 791.07227 1350.2163 4289039043
25.009174 791.07227 1350.2163 4288319147
27.510092 791.07227 1350.2163 4286937494
30.011009 791.07227 1350.2163 4286480039
22.508257 792.98425 1351.8285 4284899215
25.009174 792.98425 1351.8285 4285157994
27.510092 792.98425 1351.8285 4287000198
13.704587 799.36499 1350.6682 4283192682
17.442202 799.36499 1350.6682 4283718516
9.9669724 801.26996 1352.2744 4283259764
13.704587 801.26996 1352.2744 4282995822
17.442202 801.26996 1352.2744 4283652725
31.51376 778.65521 1354.1348 4286479254
22.508257 794.89624 1353.4406 4282666348
25.009174 794.89624 1353.4406 4285092951
27.510092 794.89624 1353.4406 4289106323
20.007339 796.80823 1355.0527 4283259260
22.60734 793.74011 1360.314 4282667123
25.119267 793.74011 1360.314 4283913321
27.631193 793.74011 1360.314 4287663522
30.14312 793.74011 1360.314 4288714929
20.168808 793.11072 1366.3234 4283192172
22.689909 793.11072 1366.3234 4283389807
25.21101 793.11072 1366.3234 4283195256
