# .PCD v0.7 - Point Cloud Data file format
VERSION 0.7
FIELDS x y z rgb
SIZE 4 4 4 4
TYPE F F F U
COUNT 1 1 1 1
WIDTH 1160
HEIGHT 1
VIEWPOINT 0 0 0 1 0 0 0
POINTS 1160
DATA ascii
-91.060547 763.66675 1252.5509 4279048499
-88.664223 763.66675 1252.5509 4279903807
-86.267891 763.66675 1252.5509 4280626270
-93.099083 770.11194 1251.4452 4281220978
-90.711929 770.11194 1251.4452 4280957552
-88.324768 770.11194 1251.4452 4280168292
-85.937614 770.11194 1251.4452 4279971427
-93.099083 771.93695 1252.984 4281352560
-90.711929 771.93695 1252.984 4281220978
-85.937614 771.93695 1252.984 4280762224
-89.00367 759.03247 1255.1836 4280558671
-85.395416 759.95197 1255.9589 4280823135
-60.137615 760.87146 1256.7341 4279445333
-93.456879 765.49872 1254.0956 4280629352
-91.060547 765.49872 1254.0956 4280890203
-86.267891 765.49872 1254.0956 4280428898
-90.711929 773.76196 1254.5228 4281089390
-88.324768 773.76196 1254.5228 4281023597
-85.937614 773.76196 1254.5228 4281352308
-90.711929 775.58698 1256.0615 4281023599
-88.324768 775.58698 1256.0615 4280891757
-85.937614 775.58698 1256.0615 4280892781
-88.053207 781.43384 1255.7594 4280957552
-104.30826 789.61713 1256.1191 4281350750
-101.93761 789.61713 1256.1191 4281350750
-86.928444 754.38422 1257.8043 4281546863
-84.513763 756.23022 1259.361 4281086049
-82.099083 756.23022 1259.361 4281416295
-79.684402 756.23022 1259.361 4281350502
-77.269722 756.23022 1259.361 4281546861
-67.611008 756.23022 1259.361 4281086058
-65.196327 756.23022 1259.361 4280493921
-61.57431 756.23022 1259.361 4279903573
-57.952293 756.23022 1259.361 4280035700
-84.192657 763.63 1259.0601 4280101216
-81.787155 763.63 1259.0601 4279642974
-79.381653 763.63 1259.0601 4280300904
-76.976151 764.54956 1259.8354 4280038485
-64.948624 764.54956 1259.8354 4282994550
-94.655045 770.99475 1258.7297 4281024612
-83.072784 770.38409 1258.2148 4280958572
-79.078896 770.99475 1258.7297 4280893283
-90.711929 779.23694 1259.1392 4280957552
-88.324768 777.41199 1257.6003 4280891759
-85.937614 778.32446 1258.3698 4280958820
-94.172478 758.07629 1260.9175 4279246157
-82.099083 758.07629 1260.9175 4280432232
-79.684402 758.07629 1260.9175 4280826734
-77.269722 758.07629 1260.9175 4280957804
-72.440369 758.07629 1260.9175 4281415025
-70.025688 758.07629 1260.9175 4281480818
-67.611008 758.07629 1260.9175 4281415023
-65.196327 758.07629 1260.9175 4281217900
-62.781651 758.07629 1260.9175 4280103006
-57.952293 758.07629 1260.9175 4279247970
-77.269722 759.92236 1262.474 4280564063
-73.647705 759.92236 1262.474 4280497508
-70.025688 759.92236 1262.474 4281155187
-67.611008 759.92236 1262.474 4281612656
-65.196327 759.92236 1262.474 4282401916
-61.57431 759.92236 1262.474 4281878136
-57.952293 759.92236 1262.474 4281549943
-81.787155 766.38855 1261.3861 4280761445
-79.381653 766.38855 1261.3861 4280761445
-76.976151 766.38855 1261.3861 4280630108
-76.976151 768.2276 1262.9366 4281156452
-93.456879 772.82678 1260.2744 4281024614
-82.673393 772.82678 1260.2744 4280958570
-79.078896 772.82678 1260.2744 4281024614
-93.456879 774.65881 1261.8191 4281089390
-91.060547 774.65881 1261.8191 4280957552
-82.673393 774.65881 1261.8191 4280958820
-79.078896 774.65881 1261.8191 4280827236
-76.682571 774.65881 1261.8191 4281547876
-90.711929 781.06195 1260.678 4280957554
-88.324768 781.97449 1261.4474 4281023344
-85.937614 781.97449 1261.4474 4281023596
-92.106422 753.42798 1263.5383 4280163913
-75.13945 754.35449 1264.3196 4281219436
-72.715599 753.42798 1263.5383 4281217900
-70.29174 753.42798 1263.5383 4281086058
-55.748623 754.35449 1264.3196 4279641707
-73.647705 761.76837 1264.0305 4280694113
-70.025688 761.76837 1264.0305 4281875574
-67.611008 761.76837 1264.0305 4282731121
-61.57431 761.76837 1264.0305 4282271615
-57.952293 761.76837 1264.0305 4281615736
-73.647705 763.61444 1265.587 4281417576
-70.025688 763.61444 1265.587 4282599801
-67.611008 763.61444 1265.587 4282864254
-65.196327 763.61444 1265.587 4284114321
-61.57431 763.61444 1265.587 4283456659
-57.952293 763.61444 1265.587 4281353593
-55.537613 763.61444 1265.587 4281090678
-96.220184 770.06665 1264.4873 4281156200
-76.976151 770.06665 1264.4873 4281090659
-74.570641 770.06665 1264.4873 4281024610
-100.64587 776.49084 1263.3638 4280762726
-98.249542 776.49084 1263.3638 4280631140
-94.655045 776.49084 1263.3638 4281023597
-82.673393 776.49084 1263.3638 4281024106
-79.078896 776.49084 1263.3638 4281089390
-76.682571 776.49084 1263.3638 4281613671
-100.64587 778.32281 1264.9086 4281024614
-98.249542 778.32281 1264.9086 4281024614
-94.655045 778.32281 1264.9086 4281023597
-82.673393 778.32281 1264.9086 4281023597
-79.078896 778.32281 1264.9086 4281089390
-76.682571 778.32281 1264.9086 4281024614
-100.26055 784.71198 1263.7555 4281024612
-90.711929 784.71198 1263.7555 4281089644
-88.324768 784.71198 1263.7555 4281089644
-105.03486 786.53699 1265.2943 4281283423
-102.64771 786.53699 1265.2943 4281743974
-88.324768 786.53699 1265.2943 4281090407
-55.748623 758.06067 1267.4445 4281418357
-73.245262 766.07587 1267.6625 4281482855
-70.025688 766.38348 1267.9219 4282073967
-67.611008 766.38348 1267.9219 4282074486
-65.196327 766.38348 1267.9219 4282995588
-61.57431 766.38348 1267.9219 4283127184
-57.952293 766.38348 1267.9219 4283126659
-55.537613 766.38348 1267.9219 4282995330
-96.220184 771.90564 1266.038 4281089390
-73.367889 772.8252 1266.8132 4281416544
-64.948624 773.74469 1267.5885 4281023595
-57.732109 771.90564 1266.038 4283520875
-98.249542 781.98688 1267.9979 4280893283
-94.655045 781.07086 1267.2256 4280958822
-91.060547 780.15485 1266.4532 4281089390
-86.267891 781.98688 1267.9979 4281089644
-82.27401 780.76556 1266.9681 4281023345
-79.078896 781.07086 1267.2256 4281023348
-76.682571 780.15485 1266.4532 4281024614
-64.70092 781.07086 1267.2256 4280892519
-62.304588 781.07086 1267.2256 4280893026
-58.710091 781.07086 1267.2256 4281153895
-55.115597 781.07086 1267.2256 4281480814
-52.719265 781.07086 1267.2256 4281676909
-50.322937 781.98688 1267.9979 4281481068
-105.03486 788.36194 1266.8331 4280955746
-102.64771 788.36194 1266.8331 4281416297
-100.26055 788.36194 1266.8331 4281548126
-97.873398 788.36194 1266.8331 4281548126
-90.711929 788.36194 1266.8331 4281024612
-88.324768 788.36194 1266.8331 4281024612
-88.324768 790.18695 1268.3719 4281024612
-53.566971 753.78827 1271.6902 4280433004
-53.324772 760.84021 1269.7881 4281874547
-53.324772 762.6933 1271.3506 4282531961
-70.025688 770.07556 1271.0349 4281482591
-67.611008 770.07556 1271.0349 4281089391
-65.196327 769.15259 1270.2567 4280760429
-61.57431 770.07556 1271.0349 4281548128
-57.952293 770.9986 1271.8132 4281348201
-55.537613 770.07556 1271.0349 4282401642
-53.122936 770.07556 1271.0349 4282271077
-49.903362 770.38324 1271.2943 4281877350
-73.367889 775.58368 1269.1392 4281024614
-69.759636 775.58368 1269.1392 4281024614
-67.354126 775.58368 1269.1392 4280892781
-64.948624 775.58368 1269.1392 4280892781
-61.340366 775.58368 1269.1392 4281350502
-57.732109 775.58368 1269.1392 4281347951
-55.326607 775.58368 1269.1392 4281347951
-52.921101 775.58368 1269.1392 4281151855
-49.312843 775.58368 1269.1392 4280890221
-103.4367 777.42273 1270.6898 4281155183
-101.03119 777.42273 1270.6898 4281156200
-98.625687 777.42273 1270.6898 4281090407
-73.367889 777.42273 1270.6898 4281220453
-69.759636 777.42273 1270.6898 4281547878
-67.354126 777.42273 1270.6898 4281024614
-49.312843 777.42273 1270.6898 4281676655
-100.64587 783.81885 1269.5426 4281024864
-98.249542 783.81885 1269.5426 4281024864
-94.655045 784.73486 1270.3149 4280959076
-91.060547 783.81885 1269.5426 4281090407
-86.267891 784.73486 1270.3149 4281024361
-81.475227 785.65088 1271.0874 4281612908
-79.078896 783.81885 1269.5426 4281023599
-74.28624 784.73486 1270.3149 4281613162
-70.292351 785.04022 1270.5724 4281546863
-67.097244 784.73486 1270.3149 4281219437
-64.70092 784.73486 1270.3149 4281219437
-62.304588 784.73486 1270.3149 4280892520
-58.710091 784.73486 1270.3149 4280958316
-55.115597 784.73486 1270.3149 4281089646
-52.719265 784.73486 1270.3149 4281220450
-50.322937 784.73486 1270.3149 4281220450
-47.926605 785.65088 1271.0874 4281613671
-100.26055 792.01196 1269.9108 4281021007
-97.873398 792.01196 1269.9108 4281021007
-94.292664 792.01196 1269.9108 4281219417
-90.711929 792.01196 1269.9108 4281350750
-88.324768 792.01196 1269.9108 4281350750
-53.566971 755.64972 1273.2598 4281875826
-51.132111 757.51123 1274.8293 4281282410
-36.522934 757.51123 1274.8293 4280954470
-34.088074 757.51123 1274.8293 4279971175
-31.653212 757.51123 1274.8293 4280168553
-53.324772 764.54633 1272.913 4284637572
-49.688992 764.54633 1272.913 4284242300
-24.238533 764.54633 1272.913 4282734201
-21.814678 764.54633 1272.913 4282207857
-48.477066 766.39941 1274.4755 4283652212
-46.053211 766.39941 1274.4755 4283257454
-36.3578 766.39941 1274.4755 4286283414
-24.238533 766.39941 1274.4755 4286610317
-45.878899 772.8446 1273.3698 4280431208
-19.31743 772.8446 1273.3698 4286218345
-45.878899 774.69067 1274.9263 4281217900
-43.464222 774.69067 1274.9263 4281546850
-41.049541 774.69067 1274.9263 4281810021
-33.805504 774.69067 1274.9263 4284177270
-21.732111 774.69067 1274.9263 4284049546
-19.31743 774.69067 1274.9263 4281357438
-84.192657 779.26178 1272.2404 4281023595
-76.976151 779.26178 1272.2404 4281546863
-73.367889 779.26178 1272.2404 4281546862
-69.759636 779.26178 1272.2404 4281612654
-67.354126 779.26178 1272.2404 4281023597
-48.110092 779.26178 1272.2404 4281612656
-45.704586 779.26178 1272.2404 4281612656
-84.192657 781.10083 1273.791 4281023595
-81.787155 781.10083 1273.791 4281023599
-76.976151 781.10083 1273.791 4281546861
-72.165138 781.10083 1273.791 4281612656
-48.110092 781.10083 1273.791 4281546863
-45.704586 781.10083 1273.791 4281612656
-43.299084 781.10083 1273.791 4281547876
-103.0422 787.48291 1272.6321 4281219415
-100.64587 787.48291 1272.6321 4280824659
-98.249542 787.48291 1272.6321 4281087575
-94.655045 787.48291 1272.6321 4280827742
-91.060547 787.48291 1272.6321 4281024612
-86.267891 787.48291 1272.6321 4281024612
-74.28624 787.48291 1272.6321 4281547878
-70.691742 787.48291 1272.6321 4281678701
-67.097244 787.48291 1272.6321 4281744494
-64.70092 787.48291 1272.6321 4281875824
-62.304588 787.48291 1272.6321 4281744494
-58.710091 787.48291 1272.6321 4281351022
-55.115597 787.48291 1272.6321 4281089392
-52.719265 787.48291 1272.6321 4281024614
-50.322937 787.48291 1272.6321 4281024614
-46.728439 787.48291 1272.6321 4281089392
-86.267891 789.31494 1274.1768 4281024864
-74.28624 789.31494 1274.1768 4281416547
-70.691742 789.31494 1274.1768 4281613671
-67.097244 789.31494 1274.1768 4281547878
-64.70092 789.31494 1274.1768 4281547878
-62.304588 789.31494 1274.1768 4281089644
-58.710091 789.31494 1274.1768 4281023599
-55.115597 789.31494 1274.1768 4281089140
-52.719265 789.31494 1274.1768 4280893031
-50.322937 789.31494 1274.1768 4281090153
-46.728439 789.31494 1274.1768 4281023599
-43.133945 789.31494 1274.1768 4281023597
-88.324768 796.57446 1273.7577 4281153371
-85.937614 796.57446 1273.7577 4281087829
-51.132111 759.37268 1276.3989 4281545066
-48.697247 759.37268 1276.3989 4281808500
-46.262386 760.30341 1277.1836 4283715969
-43.827522 760.30341 1277.1836 4284505967
-41.392662 760.30341 1277.1836 4284769139
-37.740364 760.30341 1277.1836 4284375166
-34.088074 760.30341 1277.1836 4283783809
-31.653212 760.30341 1277.1836 4283323258
-29.218349 760.30341 1277.1836 4282011256
-25.971865 759.99316 1276.922 4281220970
-46.053211 768.25244 1276.038 4279906136
-43.629356 769.17896 1276.8191 4279642454
-41.205505 770.10547 1277.6003 4280889447
-36.3578 769.17896 1276.8191 4282007662
-33.933945 769.17896 1276.8191 4282204255
-31.510092 770.10547 1277.6003 4282137433
-25.046484 769.48779 1277.0795 4285031015
-21.814678 769.17896 1276.8191 4286214004
-43.464222 776.53674 1276.4828 4281284958
-41.049541 776.53674 1276.4828 4281350752
-37.427521 776.53674 1276.4828 4281940840
-33.805504 776.53674 1276.4828 4283783770
-19.31743 776.53674 1276.4828 4284836774
-84.192657 782.93982 1275.3417 4281024614
-79.381653 782.93982 1275.3417 4281678701
-76.976151 782.93982 1275.3417 4281613671
-45.704586 782.93982 1275.3417 4281416293
-43.299084 782.93982 1275.3417 4281481068
-40.893578 782.93982 1275.3417 4281283945
-84.192657 784.77881 1276.8922 4281090405
-81.787155 784.77881 1276.8922 4281547878
-79.381653 784.77881 1276.8922 4281613671
-76.976151 784.77881 1276.8922 4281547878
-43.299084 784.77881 1276.8922 4280892781
-40.893578 784.77881 1276.8922 4281024110
-38.488075 784.77881 1276.8922 4281024614
-98.249542 791.14691 1275.7214 4281742679
-94.655045 791.14691 1275.7214 4281219161
-91.060547 791.14691 1275.7214 4281285210
-88.664223 791.14691 1275.7214 4281219161
-74.28624 791.14691 1275.7214 4281024614
-70.691742 791.14691 1275.7214 4281155185
-67.097244 791.14691 1275.7214 4281024614
-64.70092 791.14691 1275.7214 4281024614
-62.304588 791.14691 1275.7214 4281155437
-58.710091 791.14691 1275.7214 4281089644
-55.115597 791.14691 1275.7214 4281221230
-52.719265 791.14691 1275.7214 4281024614
-50.322937 791.14691 1275.7214 4281156200
-46.728439 791.14691 1275.7214 4281612652
-43.133945 791.14691 1275.7214 4280893031
-40.737614 791.14691 1275.7214 4280893031
-93.456879 792.97894 1277.2662 4281217880
-91.060547 792.97894 1277.2662 4281087577
-83.871559 792.97894 1277.2662 4281153622
-74.28624 792.97894 1277.2662 4281155183
-70.691742 792.97894 1277.2662 4281941619
-67.097244 792.97894 1277.2662 4281679464
-64.70092 792.97894 1277.2662 4281679464
-62.304588 792.97894 1277.2662 4281156200
-58.710091 792.97894 1277.2662 4281024614
-55.115597 792.97894 1277.2662 4281156200
-52.719265 792.97894 1277.2662 4281416547
-50.322937 792.97894 1277.2662 4281547876
-46.728439 792.97894 1277.2662 4280958821
-43.133945 792.97894 1277.2662 4280893029
-74.001831 799.31195 1276.0659 4281284455
-71.614677 799.31195 1276.0659 4281416547
-66.84037 799.31195 1276.0659 4281416293
-74.001831 801.13696 1277.6047 4281416799
-71.614677 801.13696 1277.6047 4281284958
-66.634865 806.90527 1277.2363 4281875297
-48.880733 754.737 1279.0303 4280757860
-46.436699 754.737 1279.0303 4280889447
-43.992661 754.737 1279.0303 4281086299
-40.326607 754.737 1279.0303 4281152098
-29.32844 754.737 1279.0303 4280168549
-25.662384 754.737 1279.0303 4280364128
-43.827522 763.09564 1279.538 4284574288
-41.392662 763.09564 1279.538 4285495390
-38.957798 763.09564 1279.538 4285822863
-34.088074 763.09564 1279.538 4286283668
-31.653212 763.09564 1279.538 4286810012
-29.218349 763.09564 1279.538 4286678172
-26.783485 763.09564 1279.538 4286612379
-37.569725 771.95856 1279.1628 4282596973
-31.510092 772.88513 1279.9441 4284835701
-29.086239 772.88513 1279.9441 4285231493
-25.450459 772.88513 1279.944 4285692314
-21.814678 773.81165 1280.7252 4286479803
-16.966972 772.88513 1279.9441 4282472073
-12.119267 771.95856 1279.1628 4281223538
-9.6954126 771.95856 1279.1628 4283450994
-41.049541 778.38275 1278.0393 4281284705
-38.634861 778.38275 1278.0393 4281087073
-33.805504 778.38275 1278.0393 4281153370
-19.31743 778.38275 1278.0393 4285356682
-37.427521 780.22882 1279.5958 4281546861
-33.805504 780.22882 1279.5958 4281219161
-19.31743 780.22882 1279.5958 4282862419
-85.395416 787.53735 1279.2183 4280630363
-81.787155 787.53735 1279.2183 4280828260
-79.381653 787.53735 1279.2183 4280959845
-76.976151 787.53735 1279.2183 4281352038
-40.893578 786.61786 1278.4429 4281023597
-37.285324 787.53735 1279.2183 4280958566
-33.677063 787.53735 1279.2183 4280958822
-19.244038 788.45691 1279.9935 4281152866
28.866055 787.53735 1279.2183 4287600055
31.271559 788.45691 1279.9935 4286811568
-79.078896 794.81097 1278.8109 4281219165
-76.682571 794.81097 1278.8109 4281284705
-74.28624 794.81097 1278.8109 4281350754
-70.691742 794.81097 1278.8109 4282006633
-67.097244 794.81097 1278.8109 4282072426
-64.70092 794.81097 1278.8109 4281875047
-62.304588 794.81097 1278.8109 4281090407
-58.710091 794.81097 1278.8109 4281090407
-55.115597 794.81097 1278.8109 4281090407
-79.078896 796.64294 1280.3556 4281087323
-76.682571 796.64294 1280.3556 4281087075
-69.493576 796.64294 1280.3556 4281547876
-64.70092 796.64294 1280.3556 4281416293
-62.304588 796.64294 1280.3556 4281023597
-58.710091 796.64294 1280.3556 4281351531
-33.548622 796.64294 1280.3556 4281612656
-31.152294 796.64294 1280.3556 4281612656
-23.963303 796.64294 1280.3556 4281416295
-19.170643 796.64294 1280.3556 4281547876
-16.774311 796.64294 1280.3556 4281547876
-74.001831 802.96198 1279.1434 4281284956
-70.421097 802.96198 1279.1434 4281153370
-66.84037 802.96198 1279.1434 4281350750
-64.453209 802.96198 1279.1434 4281284956
-69.227524 804.78699 1280.6823 4281548128
-64.453209 804.78699 1280.6823 4281809504
-62.066055 804.78699 1280.6823 4281415513
-59.678898 804.78699 1280.6823 4281547100
-41.392662 764.95709 1281.1075 4279908444
-38.957798 764.95709 1281.1075 4281087327
-31.653212 764.95709 1281.1075 4282797164
-29.218349 764.95709 1281.1075 4284043634
-26.783485 764.95709 1281.1075 4285293700
-38.957798 766.8186 1282.6771 4281151072
-29.218349 766.8186 1282.6771 4283059539
-14.609175 766.8186 1282.6771 4286941860
-36.3578 775.66467 1282.2877 4281284709
-31.510092 775.66467 1282.2877 4281087577
-29.086239 775.66467 1282.2877 4281087327
-25.450459 775.66467 1282.2877 4282335348
-21.814678 775.66467 1282.2877 4283188610
-16.966972 775.66467 1282.2877 4286014355
-13.331193 775.66467 1282.2877 4286348691
-9.6954126 775.66467 1282.2877 4286217369
-31.510092 777.5177 1283.8501 4281153368
-29.086239 777.5177 1283.8501 4281087327
-25.450459 777.5177 1283.8501 4281152607
-21.814678 777.5177 1283.8501 4281743974
-16.966972 777.5177 1283.8501 4284046436
-13.331193 777.5177 1283.8501 4285955451
-9.6954126 777.5177 1283.8501 4286283425
-36.220184 782.07483 1281.1523 4281024614
-33.805504 782.07483 1281.1523 4281024864
-19.31743 782.07483 1281.1523 4280301141
-31.390825 783.9209 1282.709 4280827238
-28.976147 783.9209 1282.709 4280957804
-26.561468 783.9209 1282.709 4280957804
-21.732111 783.9209 1282.709 4281415023
-19.31743 783.9209 1282.709 4280891759
-16.902752 783.9209 1282.709 4281089138
-12.073395 783.9209 1282.709 4280695647
-9.6587152 783.9209 1282.709 4281218911
26.561468 783.9209 1282.709 4287861678
-81.787155 790.2959 1281.5442 4280827490
-79.381653 790.2959 1281.5442 4280827490
-76.976151 790.2959 1281.5442 4280957804
-40.893578 790.2959 1281.5442 4281024614
-37.285324 790.2959 1281.5442 4281481831
-33.677063 790.2959 1281.5442 4281546861
-31.271559 790.2959 1281.5442 4281481068
-26.46055 790.2959 1281.5442 4281547624
-21.649542 790.2959 1281.5442 4281416293
-19.244038 790.2959 1281.5442 4281219165
-16.838531 790.2959 1281.5442 4281350752
-12.027523 790.2959 1281.5442 4281416295
-9.6220188 790.2959 1281.5442 4280695651
33.677063 790.2959 1281.5442 4287996095
36.082569 790.2959 1281.5442 4289969884
-84.192657 792.13495 1283.0947 4281219415
-81.787155 792.13495 1283.0947 4281153372
-52.921101 792.13495 1283.0947 4281024612
-49.312843 792.13495 1283.0947 4281024613
-45.704586 792.13495 1283.0947 4281156200
-43.299084 792.13495 1283.0947 4281156200
-40.893578 792.13495 1283.0947 4281156200
-37.285324 792.13495 1283.0947 4281024612
-33.677063 792.13495 1283.0947 4281678701
-31.271559 792.13495 1283.0947 4281612908
-28.866055 792.13495 1283.0947 4281678431
-25.257797 792.13495 1283.0947 4281547363
-21.649542 792.13495 1283.0947 4281416295
-19.244038 792.13495 1283.0947 4281547876
-16.838531 792.13495 1283.0947 4281547876
-13.230275 792.13495 1283.0947 4281024612
-9.6220188 792.13495 1283.0947 4280893031
-76.682571 798.47498 1281.9003 4281350750
-69.493576 798.47498 1281.9003 4281416545
-67.097244 798.47498 1281.9003 4281547876
-64.70092 798.47498 1281.9003 4281547876
-62.304588 799.39099 1282.6726 4281350490
-58.710091 799.39099 1282.6727 4281547361
-34.746788 799.39099 1282.6726 4281547879
-31.152294 799.39099 1282.6726 4281679211
-28.755962 799.39099 1282.6726 4281548131
-26.359632 799.39099 1282.6726 4281613668
-22.765137 799.39099 1282.6726 4281613414
-19.170643 799.39099 1282.6726 4281547877
-16.774311 800.30701 1283.4451 4281547878
-2.4440367 764.07947 1286.9076 4286610341
-13.797554 769.92108 1285.293 4281286771
-9.7394495 770.5415 1285.8162 4282466657
-7.3045874 769.61078 1285.0314 4282860136
-4.8697248 770.5415 1285.8162 4283189830
-2.4348624 770.5415 1285.8162 4283716431
-31.510092 779.37079 1285.4126 4281024864
-29.086239 779.37079 1285.4126 4281613671
-25.450459 779.37079 1285.4126 4281284706
-21.814678 779.37079 1285.4126 4280889949
-16.966972 779.37079 1285.4126 4280366935
-13.331193 779.37079 1285.4126 4280368479
-9.6954126 779.37079 1285.4126 4282205547
-7.2715597 779.37079 1285.4126 4282994807
-4.8477063 779.37079 1285.4126 4283455351
-2.4238532 779.37079 1285.4126 4284310404
-24.238533 781.22388 1286.9751 4281480816
-14.543119 781.22388 1286.9751 4280695647
-7.2715597 781.22388 1286.9751 4282271856
-4.8477063 781.22388 1286.9751 4282863209
-2.4238532 781.22388 1286.9751 4283586932
24.238533 781.22388 1286.9751 4287072163
-84.513763 785.76697 1284.2655 4280565083
-31.390825 785.76697 1284.2655 4280893029
-28.976147 785.76697 1284.2655 4280893031
-25.35413 785.76697 1284.2655 4281285991
-21.732111 785.76697 1284.2655 4281416293
-16.902752 785.76697 1284.2655 4281416295
-13.280734 785.76697 1284.2655 4281350498
-9.6587152 785.76697 1284.2655 4281153120
26.561468 785.76697 1284.2655 4287468728
-28.976147 787.61298 1285.822 4281350502
-24.14679 787.61298 1285.822 4281416293
-14.488073 787.61298 1285.822 4281416295
26.561468 787.61298 1285.822 4287992517
28.976147 787.61298 1285.822 4287467704
31.390825 787.61298 1285.822 4286875567
-84.192657 793.974 1284.6454 4281087575
-81.787155 793.974 1284.6454 4281087323
-55.326607 793.974 1284.6454 4281613671
-52.921101 793.974 1284.6454 4281222245
-49.312843 793.974 1284.6454 4281221737
-45.704586 793.974 1284.6454 4281221230
-43.299084 793.974 1284.6454 4281156452
-40.893578 793.974 1284.6454 4281090659
-37.285324 793.974 1284.6454 4281416295
-28.866055 793.974 1284.6454 4281415261
-26.46055 793.974 1284.6454 4281678433
-21.649542 793.974 1284.6454 4281416295
-13.230275 793.974 1284.6454 4281416547
-9.6220188 793.974 1284.6454 4280893031
-55.326607 795.81299 1286.196 4281547878
-52.921101 795.81299 1286.196 4281090407
-49.312843 795.81299 1286.196 4281156200
-45.704586 795.81299 1286.196 4281156200
-43.299084 795.81299 1286.196 4281156200
-40.893578 795.81299 1286.196 4281090407
-38.488075 795.81299 1286.196 4281613923
-16.838531 795.81299 1286.196 4281547876
-13.230275 795.81299 1286.196 4281416293
-9.6220188 795.81299 1286.196 4281024614
-57.511925 802.13904 1284.9897 4281546850
-34.746788 802.13904 1284.9897 4282072423
-31.152294 803.05505 1285.7621 4281679723
-28.755962 803.05505 1285.7621 4281679712
-26.359632 803.05505 1285.7621 4281679968
-22.765137 803.05505 1285.7621 4281286246
-19.170643 803.05505 1285.7621 4281613669
-16.774311 803.05505 1285.7621 4281613669
-14.377981 803.05505 1285.7621 4281023598
-11.981651 803.97107 1286.5344 4281023597
-2.4532111 759.46484 1289.5569 4283788436
-4.8880734 765.94794 1288.4832 4284897400
-2.4440367 765.94794 1288.4832 4285489537
-7.3045874 772.40302 1287.3857 4286151576
-4.8697248 772.40302 1287.3857 4286086273
-2.4348624 772.40302 1287.3857 4285822845
-7.3045874 774.26447 1288.9552 4286283425
-4.8697248 774.26447 1288.9552 4286283414
-2.4348624 774.26447 1288.9552 4286678172
12.174312 774.26447 1288.9552 4282796412
-7.2715597 783.0769 1288.5375 4281153120
-4.8477063 783.0769 1288.5375 4280629602
-2.4238532 783.0769 1288.5375 4280893031
21.814678 783.0769 1288.5375 4288190393
24.238533 783.0769 1288.5375 4287337399
-7.2440367 790.38202 1288.1567 4280893031
-4.8293576 789.45898 1287.3785 4281155437
-2.4146788 789.45898 1287.3785 4281418353
26.561468 790.38202 1288.1567 4286940080
28.976147 790.38202 1288.1567 4287861442
31.390825 790.38202 1288.1567 4290953713
33.805504 789.45898 1287.3785 4290890751
-55.326607 797.65204 1287.7466 4281743461
-52.921101 797.65204 1287.7466 4281481068
-48.110092 797.65204 1287.7466 4281416293
-45.704586 797.65204 1287.7466 4281613671
-43.299084 797.65204 1287.7466 4281613923
-40.893578 797.65204 1287.7466 4281547874
-38.488075 797.65204 1287.7466 4281547878
-13.230275 797.65204 1287.7466 4281023599
-9.6220188 797.65204 1287.7466 4281613671
-55.326607 799.49109 1289.2972 4281546850
-45.704586 799.49109 1289.2972 4281547624
-43.299084 799.49109 1289.2972 4281613923
-40.893578 799.49109 1289.2972 4281613923
-38.488075 799.49109 1289.2972 4281875299
-12.027523 799.49109 1289.2972 4281089392
-9.6220188 799.49109 1289.2972 4281024614
-7.2165136 799.49109 1289.2972 4281156200
-31.152294 805.80304 1288.0791 4281221994
-28.755962 805.80304 1288.0791 4281222243
-26.359632 805.80304 1288.0791 4281156450
-22.765137 805.80304 1288.0791 4281024612
-19.170643 805.80304 1288.0791 4281679716
-16.774311 805.80304 1288.0791 4281679716
-14.377981 805.80304 1288.0791 4281613671
-10.783486 805.80304 1288.0791 4281286506
-31.152294 807.63507 1289.6239 4281090407
-26.359632 807.63507 1289.6239 4281024612
-22.765137 807.63507 1289.6239 4281090405
-19.170643 807.63507 1289.6239 4281679716
-16.774311 807.63507 1289.6239 4281745509
-14.377981 807.63507 1289.6239 4281156200
-10.783486 807.63507 1289.6239 4281089898
-7.1889906 807.63507 1289.6239 4281089390
-4.7926607 807.63507 1289.6239 4281155437
-4.9064221 761.34033 1291.1383 4286873770
1.2266055 761.34033 1291.1383 4285559177
4.9064221 761.34033 1291.1383 4285097080
7.359633 761.34033 1291.1383 4284044135
1.2266055 763.21582 1292.7196 4287592596
4.9064221 763.21582 1292.7196 4287923099
7.359633 763.21582 1292.7196 4285422708
1.2220184 767.81641 1290.0586 4284900716
4.8880734 767.81641 1290.0586 4285229681
7.3321099 767.81641 1290.0586 4284571495
9.7761469 767.81641 1290.0586 4282862460
12.220183 767.81641 1290.0586 4281809515
1.2220184 769.68494 1291.634 4280434524
4.8880734 769.68494 1291.634 4278194224
7.3321099 769.68494 1291.634 4281682281
9.7761469 769.68494 1291.634 4282403964
13.442202 769.68494 1291.634 4282600570
17.108257 769.68494 1291.634 4283323006
2.4348624 776.12592 1290.5248 4282470261
4.8697248 776.12592 1290.5248 4282468967
13.391743 776.12592 1290.5248 4282927990
17.044037 776.12592 1290.5248 4282993523
19.478899 776.12592 1290.5248 4283650926
21.913761 776.12592 1290.5248 4285164166
1.2174312 777.98743 1292.0944 4283982985
4.8697248 777.98743 1292.0944 4283653516
7.3045874 777.98743 1292.0944 4283324807
9.7394495 777.98743 1292.0944 4283651456
13.391743 777.98743 1292.0944 4283651709
17.044037 777.98743 1292.0944 4283717755
19.478899 777.98743 1292.0944 4284967536
21.913761 777.98743 1292.0944 4286743947
-7.2715597 784.92993 1290.1 4280761445
-4.8477063 784.92993 1290.1 4280957552
-2.4238532 784.92993 1290.1 4281023345
24.238533 784.92993 1290.1 4287992517
2.4238532 786.78302 1291.6624 4281222247
21.814678 786.78302 1291.6624 4285097369
24.238533 786.78302 1291.6624 4286543785
36.3578 786.78302 1291.6624 4291614207
-50.708256 794.99713 1292.0481 4281481068
-7.2440367 794.0741 1291.2698 4281220453
-4.8293576 794.0741 1291.2698 4281220706
-2.4146788 794.0741 1291.2698 4281483622
2.4146788 794.99713 1292.0481 4281353834
9.6587152 794.99713 1292.0481 4281484148
14.488073 793.15112 1290.4916 4281878391
16.902752 794.0741 1291.2698 4281812853
-55.326607 801.33008 1290.8479 4281481057
-43.299084 801.33008 1290.8479 4281679966
-40.893578 802.24963 1291.6232 4281418079
-37.285324 802.24963 1291.6232 4281352036
-33.677063 802.24963 1291.6232 4281287277
-9.6220188 801.33008 1290.8479 4281089644
-7.2165136 802.24963 1291.6232 4281090414
-4.8110094 802.24963 1291.6232 4281352563
-2.4055047 803.16913 1292.3984 4281484150
-31.152294 809.46704 1291.1686 4281548128
-26.359632 809.46704 1291.1686 4281351002
-22.765137 809.46704 1291.1686 4280959076
-19.170643 809.46704 1291.1686 4281613923
-16.774311 809.46704 1291.1686 4281679716
-14.377981 809.46704 1291.1686 4281679464
-10.783486 809.46704 1291.1686 4281745001
-7.1889906 809.46704 1291.1686 4281744744
-4.7926607 809.46704 1291.1686 4281875824
-26.359632 811.29907 1292.7133 4281416797
-21.566973 811.29907 1292.7133 4281613921
-16.774311 811.29907 1292.7133 4281745509
-14.377981 811.29907 1292.7133 4281745258
-10.783486 811.29907 1292.7133 4281745258
-7.1889906 811.29907 1292.7133 4281679464
-4.7926607 811.29907 1292.7133 4281678449
2.4623854 756.71875 1293.7816 4281160314
7.387156 756.71875 1293.7816 4282207355
9.8495417 757.66003 1294.5752 4282469503
0.81467891 772.17627 1293.7346 4282338423
4.8880734 771.55341 1293.2095 4278198089
7.3321099 772.48767 1293.9972 4281749877
9.7761469 772.48767 1293.9972 4282796667
14.66422 771.55341 1293.2095 4282732668
17.108257 771.55341 1293.2095 4282732668
19.552294 771.55341 1293.2095 4282798209
1.2174312 779.84888 1293.6639 4281941621
4.8697248 779.84888 1293.6639 4283518588
7.3045874 779.84888 1293.6639 4284110725
9.7394495 779.84888 1293.6639 4284900237
13.391743 779.84888 1293.6639 4285756058
17.044037 779.84888 1293.6639 4286282914
19.478899 779.84888 1293.6639 4286940326
1.2174312 781.71033 1295.2334 4280893029
4.8697248 781.71033 1295.2334 4282206047
9.7394495 781.71033 1295.2334 4284375682
13.391743 781.71033 1295.2334 4285494166
17.044037 781.71033 1295.2334 4286349221
19.478899 781.71033 1295.2334 4287268276
21.913761 781.71033 1295.2334 4288518087
-4.8477063 788.63611 1293.2249 4281089390
-2.4238532 788.63611 1293.2249 4281089390
2.4238532 788.63611 1293.2249 4281352560
13.331193 788.63611 1293.2249 4280893556
16.966972 788.63611 1293.2249 4280498797
19.390825 788.63611 1293.2249 4281547876
21.814678 788.63611 1293.2249 4283455873
24.238533 788.63611 1293.2249 4285099156
33.933945 788.63611 1293.2249 4291940351
1.2119266 790.48914 1294.7874 4281221994
4.8477063 790.48914 1294.7874 4281288039
7.2715597 790.48914 1294.7874 4281485161
9.6954126 790.48914 1294.7874 4281418355
12.119267 790.48914 1294.7874 4281549941
19.390825 790.48914 1294.7874 4281745509
21.814678 790.48914 1294.7874 4281613923
25.450459 790.48914 1294.7874 4280499833
29.086239 790.48914 1294.7874 4280435073
31.510092 790.48914 1294.7874 4285237963
33.933945 790.48914 1294.7874 4288127460
-53.122936 796.8432 1293.6047 4281677414
-50.708256 796.8432 1293.6047 4281677414
-4.8293576 796.8432 1293.6047 4281221994
-2.4146788 796.8432 1293.6047 4281221994
1.2073394 796.8432 1293.6047 4281288041
4.8293576 796.8432 1293.6047 4281353834
7.2440367 796.8432 1293.6047 4281485163
9.6587152 796.8432 1293.6047 4281682285
13.280734 796.8432 1293.6047 4281682032
16.902752 796.8432 1293.6047 4281879158
19.31743 796.8432 1293.6047 4282075769
-53.122936 798.68921 1295.1613 4281481057
-50.708256 798.68921 1295.1613 4281481057
-2.4146788 798.68921 1295.1613 4281418355
1.2073394 798.68921 1295.1613 4281221994
4.8293576 798.68921 1295.1613 4281484146
7.2440367 798.68921 1295.1613 4281484146
9.6587152 798.68921 1295.1613 4282206058
13.280734 798.68921 1295.1613 4282205550
16.902752 798.68921 1295.1613 4282402420
19.31743 798.68921 1295.1613 4282468215
21.732111 798.68921 1295.1613 4282468215
-45.704586 805.00818 1293.9491 4281284958
-40.893578 805.92767 1294.7244 4281679198
-37.285324 805.92773 1294.7245 4281548128
-33.677063 805.92767 1294.7244 4281286243
-28.866055 805.92767 1294.7244 4281286496
-2.4055047 805.92767 1294.7244 4281614192
4.8110094 806.84717 1295.4998 4282139500
7.2165136 806.84717 1295.4998 4282073707
9.6220188 806.84717 1295.4998 4281550697
-19.170643 814.96313 1295.8027 4281547876
-16.774311 814.96313 1295.8027 4281547876
-14.377981 814.04712 1295.0303 4281810541
-10.783486 814.04712 1295.0303 4281745002
0 753.9726 1298.0062 4281555072
4.943119 753.9726 1298.0062 4282075769
0 784.50256 1297.5878 4281287532
4.8697248 784.50256 1297.5878 4281024609
7.3045874 784.50256 1297.5878 4281024865
9.7394495 784.50256 1297.5878 4280762228
13.391743 783.57184 1296.803 4281222266
17.044037 783.57184 1296.803 4281090424
19.478899 783.57184 1296.803 4283649922
38.146175 784.81281 1297.8494 4291810559
0 792.34216 1296.3497 4281288041
4.8477063 792.34216 1296.3497 4281811305
7.2715597 792.34216 1296.3497 4281942891
13.331193 792.34216 1296.3497 4281550195
19.390825 792.34216 1296.3497 4282336375
21.814678 793.26868 1297.131 4282074742
25.450459 793.26874 1297.131 4281682304
29.086239 793.26868 1297.131 4281420156
31.510092 793.26868 1297.131 4282538637
33.933945 793.26868 1297.131 4283131532
1.2073394 800.53528 1296.7178 4281157482
4.8293576 800.53528 1296.7178 4281353834
7.2440367 800.53528 1296.7178 4281288041
9.6587152 800.53528 1296.7178 4282074472
13.280734 800.53528 1296.7178 4282073965
16.902752 800.53528 1296.7178 4282205043
19.31743 800.53528 1296.7178 4282402168
-48.293579 802.38135 1298.2743 4281284958
1.2073394 802.38135 1298.2743 4281288039
4.8293576 802.38135 1298.2743 4281550443
7.2440367 802.38135 1298.2743 4281550443
9.6587152 802.38135 1298.2743 4281877348
13.280734 802.38135 1298.2743 4282073964
16.902752 802.38135 1298.2743 4282073457
19.31743 802.38135 1298.2743 4282139000
21.732111 802.38135 1298.2743 4282533758
-31.271559 808.68622 1297.0503 4281548128
-28.866055 808.68622 1297.0503 4281351004
-24.055046 808.68622 1297.0503 4281548128
-19.244038 808.68622 1297.0503 4281613923
-2.4055047 808.68622 1297.0503 4281744242
1.2027524 808.68622 1297.0503 4281810031
4.8110094 808.68622 1297.0503 4282007664
7.2165136 808.68622 1297.0503 4282139250
9.6220188 808.68622 1297.0503 4282139500
-25.257797 810.52527 1298.601 4281614176
-21.649542 810.52527 1298.601 4281613923
-16.838531 810.52527 1298.601 4281745509
-7.2165136 810.52527 1298.601 4281877098
-4.8110094 810.52527 1298.601 4281941619
-2.4055047 810.52527 1298.601 4281941619
2.4055047 810.52527 1298.601 4281941619
4.8110094 810.52527 1298.601 4281942891
7.2165136 810.52527 1298.601 4282140013
9.6220188 810.52527 1298.601 4282205547
-19.170643 816.79517 1297.3474 4281744476
-16.774311 816.79517 1297.3474 4281810269
-14.377981 816.79517 1297.3474 4281679464
-11.981651 816.79517 1297.3474 4281613671
7.3321099 779.02734 1299.5114 4283456114
36.522934 787.2948 1299.942 4291614463
36.522934 789.15625 1301.5116 4290037726
21.814678 797.90137 1301.0371 4282467961
25.450459 796.97485 1300.2559 4282731649
29.086239 796.97485 1300.2559 4282339461
31.510092 796.97485 1300.2559 4282733963
33.933945 796.97485 1300.2559 4281946757
-36.220184 806.07336 1301.3873 4281613921
-33.805504 806.07336 1301.3873 4281613921
1.2073394 804.22736 1299.8308 4281288041
13.280735 805.15033 1300.6091 4282140270
16.902752 805.15039 1300.6091 4282402673
19.31743 805.15039 1300.6091 4282402424
21.732111 805.15039 1300.6091 4282534010
-25.257797 812.36426 1300.1516 4281679970
-21.649542 812.36426 1300.1516 4281613923
-7.2165136 812.36426 1300.1516 4282073709
-4.8110094 812.36426 1300.1516 4282139000
-2.4055047 812.36426 1300.1516 4282073207
41.548622 782.76428 1302.6622 4291745023
39.104588 784.63281 1304.2377 4291419135
36.522934 791.0177 1303.0812 4281554572
37.740364 792.87921 1304.6508 4279386248
41.392662 792.87921 1304.6508 4287088895
43.827522 792.87921 1304.6508 4290956799
56.001835 792.87921 1304.6508 4290956031
58.436699 792.87921 1304.6508 4289772543
25.450459 799.75439 1302.5996 4282338176
29.086239 799.75439 1302.5996 4282338442
31.510092 799.75439 1302.5996 4283061908
33.933945 799.75439 1302.5996 4282931342
37.569725 799.75439 1302.5996 4280436349
41.205505 799.75439 1302.5996 4283072953
43.629356 799.75439 1302.5996 4287471327
46.053211 799.75439 1302.5996 4291616255
48.477066 799.75439 1302.5996 4291745279
25.450459 801.60742 1304.162 4282601347
29.086239 801.60742 1304.162 4282602631
31.510092 801.60742 1304.162 4282931596
33.933945 801.60742 1304.162 4282931596
36.3578 801.60742 1304.162 4282076287
41.205505 801.60742 1304.162 4284973239
43.629356 801.60742 1304.162 4287535839
46.053211 801.60742 1304.162 4291417343
-31.390825 807.91943 1302.9438 4281811555
-28.976147 807.91943 1302.9438 4281745759
-19.31743 807.91943 1302.9438 4281613923
0.80489296 809.15015 1303.9816 4282007412
4.8293576 809.7655 1304.5005 4281811303
7.2440367 809.7655 1304.5005 4281942889
9.6587152 809.7655 1304.5005 4282139250
13.280734 808.84247 1303.7222 4282140018
16.902752 808.84247 1303.7222 4282140534
19.31743 808.84247 1303.7222 4282141305
21.732111 808.84247 1303.7222 4282272635
25.35413 808.84253 1303.7222 4282470278
28.976147 808.84247 1303.7222 4283062666
31.390825 808.84247 1303.7222 4283260045
33.805504 808.84247 1303.7222 4283063698
37.427521 809.7655 1304.5005 4281946760
41.049541 809.7655 1304.5005 4286224589
43.464222 809.7655 1304.5005 4288784618
45.878899 809.7655 1304.5005 4291613695
48.293579 809.7655 1304.5005 4291547647
44.157799 780.09534 1306.952 4291613951
46.611008 780.09534 1306.952 4291351039
40.326607 787.43555 1306.6008 4290363121
43.992661 788.36975 1307.3887 4291745535
46.436699 788.36975 1307.3887 4291548159
48.880733 788.36975 1307.3887 4291088383
51.324772 788.36975 1307.3887 4291351551
56.212845 788.36975 1307.3887 4288324841
37.740364 794.74066 1306.2202 4279911801
41.392662 794.74066 1306.2202 4283473619
43.827522 794.74066 1306.2202 4288130038
46.262386 794.74066 1306.2202 4291222015
48.697247 794.74066 1306.2202 4291613951
56.001835 794.74066 1306.2202 4291678719
58.436699 794.74066 1306.2202 4291809791
52.349541 796.60217 1307.7898 4291153151
56.001835 796.60217 1307.7898 4291350271
25.450459 803.46051 1305.7245 4282667141
29.086239 803.46051 1305.7245 4283127944
31.510092 803.46051 1305.7245 4283390859
33.933945 803.46051 1305.7245 4283194766
37.569725 803.46051 1305.7245 4282012036
41.205505 803.46051 1305.7245 4284776630
43.629356 803.46051 1305.7245 4287930595
46.053211 803.46051 1305.7245 4291483391
48.477066 803.46051 1305.7245 4291745535
-33.933945 805.3136 1307.2869 4281877348
37.569725 805.3136 1307.2869 4282209672
41.205505 805.3136 1307.2869 4285302972
43.629356 805.3136 1307.2869 4288455909
46.053211 805.3136 1307.2869 4291679487
48.477066 805.3136 1307.2869 4291811839
-9.6587152 811.61151 1306.057 4281613921
-7.2440367 811.61151 1306.057 4281811301
-4.8293576 811.61151 1306.057 4282007664
-2.4146788 811.61151 1306.057 4282073457
4.8293576 811.61151 1306.057 4281550193
7.2440367 811.61151 1306.057 4281550193
9.6587152 811.61151 1306.057 4282073457
13.280734 811.61151 1306.057 4282008692
16.902752 811.61151 1306.057 4282141562
19.31743 811.61151 1306.057 4282206844
21.732111 811.61151 1306.057 4282403966
25.35413 811.61151 1306.057 4282995338
28.976147 811.61151 1306.057 4282997389
31.390825 811.61151 1306.057 4283260305
33.805504 811.61151 1306.057 4283063194
37.427521 811.61151 1306.057 4282077324
41.049541 811.61151 1306.057 4287539169
43.464222 811.61151 1306.057 4289509359
45.878899 811.61151 1306.057 4291417599
48.293579 811.61151 1306.057 4291481599
-2.4146788 813.45758 1307.6135 4282073707
13.280734 813.45758 1307.6135 4282402165
16.902752 813.45758 1307.6135 4282468213
19.31743 813.45758 1307.6135 4282598781
21.732111 813.45758 1307.6135 4282730367
25.35413 813.45758 1307.6135 4282929550
28.976147 813.45758 1307.6135 4283324816
31.390825 813.45758 1307.6135 4283390610
33.805504 813.45758 1307.6135 4282997402
37.427521 813.45758 1307.6135 4282143121
41.049541 813.45758 1307.6135 4287605225
43.464222 813.45758 1307.6135 4290758381
45.878899 813.45758 1307.6135 4291679482
48.293579 813.45758 1307.6135 4291415807
41.704586 781.97083 1308.5333 4291616767
46.611008 781.97083 1308.5333 4291549183
44.157799 783.84631 1310.1147 4292337407
46.611008 783.84631 1310.1147 4291942655
49.06422 783.84631 1310.1147 4291351551
51.517429 783.84631 1310.1147 4291614975
46.436699 790.23828 1308.9641 4291483135
48.880733 790.23828 1308.9641 4291284991
52.546791 790.23828 1308.9641 4291219199
61.100918 790.23828 1308.9641 4289377791
64.766968 790.23828 1308.9641 4287668719
52.546791 792.10675 1310.5396 4291350527
61.100918 792.10675 1310.5396 4291809791
38.957798 798.46362 1309.3594 4281288831
48.697247 798.46362 1309.3594 4291351039
51.943729 799.70459 1310.4056 4291087871
56.001835 799.39435 1310.144 4291285503
1.2119266 809.01965 1310.4117 4281550193
50.900917 808.09314 1309.6306 4291086847
14.488073 815.30359 1309.17 4282468213
16.902752 815.30359 1309.17 4282468213
19.31743 815.30359 1309.17 4282730621
21.732111 815.30359 1309.17 4282862208
25.35413 815.30359 1309.17 4282274182
28.976147 815.30359 1309.17 4283193487
31.390825 815.30359 1309.17 4283127694
33.805504 815.30359 1309.17 4282799504
37.427521 815.30359 1309.17 4281880717
41.049541 815.30359 1309.17 4287607022
43.464222 815.30359 1309.17 4290693117
45.878899 815.30359 1309.17 4291417087
48.293579 815.30359 1309.17 4291350527
19.31743 817.14966 1310.7266 4281943934
21.732111 817.14966 1310.7266 4282799243
25.35413 817.14966 1310.7266 4283720319
28.976147 817.14966 1310.7266 4283719061
31.390825 817.14966 1310.7266 4283258510
33.805504 817.14966 1310.7266 4282603408
37.427521 817.14966 1310.7266 4282340749
41.049541 817.14966 1310.7266 4288722927
43.464222 817.14966 1310.7266 4291679231
45.878899 817.14966 1310.7266 4291810815
48.293579 817.14966 1310.7266 4291482367
44.322937 779.3089 1312.8291 4291812095
58.656879 793.97522 1312.115 4291416063
61.100918 793.97522 1312.115 4291678975
53.768806 795.84375 1313.6904 4291087615
58.656879 795.84375 1313.6904 4290891007
52.349541 802.18652 1312.4984 4290956287
56.001835 802.18652 1312.4984 4291153919
-9.6954126 810.87274 1311.9742 4281548380
-7.2715597 810.87274 1311.9742 4281679966
-4.8477063 810.87274 1311.9742 4282007914
-2.4238532 812.72583 1313.5366 4282139500
1.2119266 810.87274 1311.9742 4282402926
4.8477063 811.79932 1312.7554 4282205044
7.2715597 810.87274 1311.9742 4282139252
9.6954126 811.79932 1312.7554 4282205040
12.119267 812.72583 1313.5366 4282336878
50.900917 811.79932 1312.7554 4291087103
53.324772 812.72583 1313.5366 4291087103
26.561468 818.99573 1312.2831 4285825194
28.976147 818.99573 1312.2831 4285627823
31.390825 818.99573 1312.2831 4283522448
33.805504 818.99573 1312.2831 4282472331
37.427521 818.99573 1312.2831 4282734731
41.049541 818.99573 1312.2831 4289839859
43.464222 818.99573 1312.2831 4291941375
45.878899 818.99573 1312.2831 4291480831
48.293579 818.99573 1312.2831 4290824959
26.561468 820.84174 1313.8396 4286020771
28.976147 820.84174 1313.8396 4286020260
31.390825 820.84174 1313.8396 4284112007
33.805504 820.84174 1313.8396 4282406533
37.427521 820.84174 1313.8396 4282998924
41.049541 820.84174 1313.8396 4290236150
43.464222 820.84174 1313.8396 4291810559
45.878899 820.84174 1313.8396 4291218175
48.293579 820.84174 1313.8396 4290890751
63.783485 790.41058 1315.6495 4291810559
67.054436 790.72314 1315.9131 4291876863
58.656879 797.71222 1315.2659 4291154687
61.100918 797.71222 1315.2659 4291154687
58.656879 799.58069 1316.8413 4291023359
61.100918 799.58069 1316.8413 4291089151
53.566971 804.97876 1314.8528 4290956031
56.001835 804.97876 1314.8528 4291219199
9.6954126 814.57886 1315.0991 4282074472
13.331193 814.57886 1315.0991 4282402415
16.966972 814.57886 1315.0991 4282598516
50.900917 814.57886 1315.0991 4291350527
53.324772 814.57886 1315.0991 4291350527
14.543119 816.43188 1316.6616 4282730608
16.966972 816.43188 1316.6616 4282664815
19.390825 816.43188 1316.6616 4281615738
21.814678 816.43188 1316.6616 4282602633
24.238533 816.43188 1316.6616 4284114319
50.900917 816.43188 1316.6616 4291088383
53.324772 816.43188 1316.6616 4291219455
55.748623 816.43188 1316.6616 4291285503
58.172478 816.43188 1316.6616 4291481599
60.596329 816.43188 1316.6616 4291481599
26.561468 822.68774 1315.3962 4283322759
38.634861 822.68774 1315.3962 4285300905
61.330276 793.22382 1318.0216 4291088639
63.783485 793.22382 1318.0216 4291219455
68.689911 793.22382 1318.0216 4291218943
63.783485 795.0993 1319.603 4291087615
67.463303 795.0993 1319.603 4291153151
58.656879 802.38342 1319.2046 4291153663
61.100918 802.38342 1319.2046 4291219455
63.544952 803.31769 1319.9923 4291087359
-9.7394495 809.63245 1318.7766 4281745507
-7.3045874 809.63245 1318.7766 4281943143
-4.8697248 809.63245 1318.7766 4282139500
1.2174312 809.63245 1318.7766 4282205043
7.3045874 809.63245 1318.7766 4282205043
53.566971 807.771 1317.207 4291087103
56.001835 808.70172 1317.9918 4291218431
58.436699 809.63245 1318.7766 4290758399
60.871559 809.63245 1318.7766 4291153151
14.543119 818.28497 1318.224 4282665078
16.966972 818.28497 1318.224 4282599029
19.390825 818.28497 1318.224 4281944438
21.814678 818.28497 1318.224 4282799746
24.238533 818.28497 1318.224 4284244360
50.900917 818.28497 1318.224 4291351295
53.324772 818.28497 1318.224 4291219455
55.748623 818.28497 1318.224 4291285503
60.596329 818.28497 1318.224 4291481855
19.390825 820.13806 1319.7865 4282796664
21.814678 820.13806 1319.7865 4282796664
24.238533 820.13806 1319.7865 4282796414
29.086239 820.13806 1319.7865 4283191700
31.510092 820.13806 1319.7865 4283454871
33.933945 820.13806 1319.7865 4281815932
36.3578 820.13806 1319.7865 4281881725
41.205505 820.13806 1319.7865 4290696188
43.629356 820.13806 1319.7865 4291614207
46.053211 820.13806 1319.7865 4291153663
49.688992 820.13806 1319.7865 4291088383
53.324772 820.13806 1319.7865 4291154431
55.748623 820.13806 1319.7865 4291286015
58.172478 820.13806 1319.7865 4291022591
60.596329 820.13806 1319.7865 4291285759
66.484406 790.604 1322.3528 4291153663
63.783485 796.97485 1321.1843 4290956543
67.463303 796.97485 1321.1843 4291284479
63.783485 798.85034 1322.7657 4291021567
67.463303 798.85034 1322.7657 4291284479
58.656879 805.18616 1321.5677 4291087615
61.100918 805.18616 1321.5677 4291284991
63.544952 805.18616 1321.5677 4291351295
-2.4348624 811.4939 1320.3462 4282205547
2.4348624 811.4939 1320.3462 4282205043
4.8697248 811.4939 1320.3462 4282205547
7.3045874 811.4939 1320.3462 4282205547
56.001835 811.4939 1320.3462 4291218943
58.436699 811.4939 1320.3462 4291087615
60.871559 811.4939 1320.3462 4291087615
-2.4348624 813.35541 1321.9156 4282467179
4.8697248 813.35541 1321.9156 4282205547
7.3045874 813.35541 1321.9156 4282205547
9.7394495 813.35541 1321.9156 4281877350
12.174312 813.35541 1321.9156 4282206058
64.523857 813.35541 1321.9156 4291416319
68.176147 813.35541 1321.9156 4291154431
21.814678 821.99109 1321.3489 4282928253
25.450459 821.99109 1321.3489 4283059589
29.086239 821.99109 1321.3489 4282798211
31.510092 821.99109 1321.3489 4282995591
33.933945 821.99109 1321.3489 4281683580
37.569725 821.99109 1321.3489 4284577202
43.629356 821.99109 1321.3489 4291614207
46.053211 821.99109 1321.3489 4291614207
48.477066 821.99109 1321.3489 4291219711
53.324772 821.99109 1321.3489 4291022847
55.748623 821.99109 1321.3489 4291483391
26.662386 823.84412 1322.9114 4283519104
67.463303 800.72583 1324.3472 4291219199
66.236694 802.60132 1325.9285 4291614463
-12.220183 808.9231 1324.7186 4282074470
-9.7761469 808.9231 1324.7186 4282074472
-7.3321099 808.9231 1324.7186 4282140265
-4.8880734 808.9231 1324.7186 4282205547
0 808.9231 1324.7186 4282336373
64.766968 807.98889 1323.9309 4291285759
68.433029 807.98889 1323.9309 4291285247
9.7394495 815.21686 1323.4852 4282336876
12.174312 815.21686 1323.4852 4282468463
58.436699 815.21686 1323.4852 4291416063
64.523857 815.21686 1323.4852 4291744767
68.176147 815.21686 1323.4852 4291285247
13.391743 817.07837 1325.0548 4282141811
17.044037 817.07837 1325.0548 4282404216
63.306423 817.07837 1325.0548 4291482111
26.662386 825.6972 1324.4739 4283323512
60.596329 825.6972 1324.4739 4291285503
-7.3321099 810.79163 1326.2942 4282335848
-4.8880734 810.79163 1326.2942 4282467179
1.2220184 811.72583 1327.0819 4282336880
4.8880734 812.6601 1327.8696 4282205547
7.3321099 812.6601 1327.8696 4282336876
13.391743 818.93982 1326.6244 4282469235
17.044037 818.93982 1326.6244 4282862457
19.478899 818.93982 1326.6244 4282796410
41.392662 818.93982 1326.6244 4291089407
51.132111 818.93982 1326.6244 4291153919
60.871559 818.93982 1326.6244 4291351807
21.913761 820.80127 1328.1938 4283190907
24.348623 820.80127 1328.1938 4283519104
29.218349 820.80127 1328.1938 4283454595
