# .PCD v0.7 - Point Cloud Data file format
VERSION 0.7
FIELDS x y z rgb
SIZE 4 4 4 4
TYPE F F F U
COUNT 1 1 1 1
WIDTH 1156
HEIGHT 1
VIEWPOINT 0 0 0 1 0 0 0
POINTS 1156
DATA ascii
-73.489906 796.86664 1262.2317 4282795869
-71.119263 796.86664 1262.2317 4282927460
-99.181648 803.17438 1261.0101 4282271574
-96.820183 803.17438 1261.0101 4282337367
-94.458717 803.17438 1261.0101 4282730074
-92.097244 803.17438 1261.0101 4282795867
-88.555046 803.17438 1261.0101 4282927460
-85.01284 803.17438 1261.0101 4282927456
-75.566971 803.17438 1261.0101 4283124834
-73.205505 803.17438 1261.0101 4283124834
-68.482567 803.17438 1261.0101 4283190375
-63.759632 803.17438 1261.0101 4283386473
-108.62753 804.97974 1262.5323 4282268240
-106.26605 804.97974 1262.5323 4282268240
-103.90459 804.97974 1262.5323 4282203730
-99.181648 804.97974 1262.5323 4282205781
-96.820183 804.97974 1262.5323 4282403160
-94.458717 804.97974 1262.5323 4282533978
-92.097244 804.97974 1262.5323 4282665565
-88.555046 804.97974 1262.5323 4282927456
-85.01284 804.97974 1262.5323 4283189342
-82.651375 804.97974 1262.5323 4283189342
-80.289909 804.97974 1262.5323 4282927456
-76.747711 804.97974 1262.5323 4283124834
-73.205505 804.97974 1262.5323 4283124834
-70.84404 804.97974 1262.5323 4283386723
-67.301834 804.97974 1262.5323 4283452518
-63.759632 804.97974 1262.5323 4283452521
-61.398167 804.97974 1262.5323 4283321964
-59.036697 804.97974 1262.5323 4283321964
-108.20551 811.25244 1261.2811 4282662996
-105.85321 811.25244 1261.2811 4282662996
-103.50092 811.25244 1261.2811 4282335570
-94.091743 811.25244 1261.2811 4282796119
-84.682571 811.25244 1261.2811 4282797407
-72.921104 811.25244 1261.2811 4283256420
-70.56881 811.25244 1261.2811 4283256420
-68.216515 811.25244 1261.2811 4283322214
-64.688072 811.25244 1261.2811 4283256169
-61.159634 811.25244 1261.2811 4283321964
-58.807339 811.25244 1261.2811 4283519086
-108.20551 813.05078 1262.7975 4282795086
-105.85321 813.05078 1262.7975 4282795086
-94.091743 813.05078 1262.7975 4282861913
-88.211006 813.05078 1262.7975 4282861917
-84.682571 813.05078 1262.7975 4282927456
-75.273392 813.05078 1262.7975 4282928486
-56.455048 813.05078 1262.7975 4283191661
-72.636696 817.49701 1260.0063 4282731360
-70.293579 817.49701 1260.0063 4282796901
-67.950462 817.49701 1260.0063 4282796901
-64.435776 817.49701 1260.0063 4282928482
-72.636696 819.28833 1261.5167 4283715688
-70.293579 819.28833 1261.5167 4283190377
-67.950462 819.28833 1261.5167 4282861413
-72.165138 770.06665 1264.4873 4285227381
-76.682571 776.49084 1263.3638 4286609299
-76.682571 778.32281 1264.9086 4285557890
-76.388992 784.71198 1263.7555 4282664029
-105.03486 786.53699 1265.2943 4282137937
-74.001831 786.53699 1265.2943 4283124834
-66.84037 786.53699 1265.2943 4282928486
-102.33211 790.53076 1263.4297 4282335321
-99.952293 790.53076 1263.4297 4282664783
-73.774315 790.53076 1263.4297 4282927456
-99.952293 792.35016 1264.9637 4282467157
-73.774315 792.35016 1264.9637 4282861663
-70.20459 792.35016 1264.9637 4283320930
-66.634865 792.35016 1264.9637 4283386471
-61.875229 792.35016 1264.9637 4283190375
-106.6789 800.49133 1265.2881 4282137937
-104.30826 800.49133 1265.2881 4282269777
-100.75229 799.58514 1264.5239 4282401364
-82.972481 799.58514 1264.5239 4282861663
-79.416519 799.58514 1264.5239 4282862176
-75.86055 798.67896 1263.7599 4282731360
-73.489906 798.67896 1263.7599 4282731360
-71.119263 799.58514 1264.5239 4283058789
-67.168205 799.28302 1264.2692 4283189862
-64.007339 798.67896 1263.7599 4283321962
-61.636696 799.58514 1264.5239 4283321964
-59.266056 800.49133 1265.2881 4283321964
-56.895412 800.49133 1265.2881 4283126118
-106.26605 806.7851 1264.0547 4282335316
-103.90459 806.7851 1264.0547 4282401364
-100.36238 806.7851 1264.0547 4282336341
-96.820183 806.7851 1264.0547 4282271574
-94.458717 806.7851 1264.0547 4282533978
-92.097244 806.7851 1264.0547 4282665565
-88.555046 806.7851 1264.0547 4282993503
-85.01284 806.7851 1264.0547 4283059039
-82.651375 806.7851 1264.0547 4283059039
-80.289909 806.7851 1264.0547 4283059041
-76.747711 806.7851 1264.0547 4283059041
-59.036697 806.7851 1264.0547 4283321962
-56.675228 806.7851 1264.0547 4283256418
-100.36238 808.59045 1265.5769 4282467157
-96.820183 808.59045 1265.5769 4282664535
-92.097244 808.59045 1265.5769 4282861913
-88.555046 808.59045 1265.5769 4282731614
-82.651375 808.59045 1265.5769 4282731358
-80.289909 808.59045 1265.5769 4283124834
-76.747711 808.59045 1265.5769 4283124834
-55.494495 808.59045 1265.5769 4283191911
-108.20551 814.84912 1264.3138 4282467157
-105.85321 814.84912 1264.3138 4282664535
-96.444038 814.84912 1264.3138 4282861913
-94.091743 814.84912 1264.3138 4282796119
-91.739449 814.84912 1264.3138 4282796119
-88.211006 814.84912 1264.3138 4282861917
-84.682571 814.84912 1264.3138 4283059041
-76.449539 814.84912 1264.3138 4282862176
-61.159634 814.84912 1264.3138 4282928232
-58.807339 814.84912 1264.3138 4282928232
-56.455048 814.84912 1264.3138 4283124584
-108.20551 816.64746 1265.8301 4282664533
-97.620186 816.64746 1265.8301 4282796120
-94.091743 816.64746 1265.8301 4282992219
-91.739449 816.64746 1265.8301 4282992219
-88.211006 816.64746 1265.8301 4282992997
-84.682571 816.64746 1265.8301 4283190375
-82.330276 816.64746 1265.8301 4283058789
-79.977982 816.64746 1265.8301 4283256420
-76.449539 816.64746 1265.8301 4283584872
-64.688072 816.64746 1265.8301 4282337633
-61.159634 816.64746 1265.8301 4282337380
-58.807339 816.64746 1265.8301 4282534760
-84.352295 821.07971 1263.0272 4283718768
-77.322937 821.07971 1263.0272 4285033081
-72.636696 821.07971 1263.0272 4286347140
-72.636696 822.87103 1264.5376 4285821300
-79.684402 767.30652 1268.7001 4285625482
-77.269722 767.30652 1268.7001 4284375930
-74.855049 767.30652 1268.7001 4284836481
-73.367889 772.8252 1266.8132 4286081922
-69.759636 773.74469 1267.5885 4287331207
-74.28624 781.07086 1267.2256 4282467421
-71.091133 781.37622 1267.483 4282598238
-67.097244 781.07086 1267.2256 4282860643
-64.70092 781.98688 1267.9979 4282861415
-62.304588 781.98688 1267.9979 4283058539
-38.341286 781.98688 1267.9979 4283583838
-35.944954 781.98688 1267.9979 4283518045
-105.03486 788.36194 1266.8331 4282071892
-70.421097 788.36194 1266.8331 4283124582
-66.84037 788.36194 1266.8331 4283124584
-64.453209 788.36194 1266.8331 4283058535
-62.066055 788.36194 1266.8331 4283124332
-52.517429 788.36194 1266.8331 4283125866
-50.130276 788.36194 1266.8331 4283125866
-106.22844 790.18695 1268.3719 4282138445
-102.64771 790.18695 1268.3719 4282467159
-64.453209 790.18695 1268.3719 4283386471
-58.485321 790.18695 1268.3719 4283125353
-54.904587 790.18695 1268.3719 4283125866
-52.517429 790.18695 1268.3719 4283126118
-50.130276 790.18695 1268.3719 4283126118
-46.549541 790.18695 1268.3719 4283060073
-42.968807 790.18695 1268.3719 4283125866
-40.58165 790.18695 1268.3719 4283125866
-38.194496 790.18695 1268.3719 4283060073
-35.807339 790.18695 1268.3719 4283060073
-107.09174 794.16956 1266.4978 4282073418
-103.52202 794.16956 1266.4978 4282203730
-69.014679 794.16956 1266.4978 4283124582
-66.634865 794.16956 1266.4978 4283058537
-64.255043 794.16956 1266.4978 4283255917
-61.875229 794.16956 1266.4978 4283256169
-59.495415 794.16956 1266.4978 4283256169
-54.735779 794.16956 1266.4978 4282994531
-52.355965 794.16956 1266.4978 4282994529
-49.976147 794.16956 1266.4978 4283126116
-45.216515 794.16956 1266.4978 4283321962
-42.836697 794.16956 1266.4978 4283125866
-107.09174 795.98895 1268.0319 4282270286
-103.52202 795.98895 1268.0319 4282270541
-58.305504 795.98895 1268.0319 4283125353
-54.735779 795.98895 1268.0319 4282928486
-52.355965 795.98895 1268.0319 4283126118
-49.976147 795.98895 1268.0319 4283257704
-46.406422 795.98895 1268.0319 4283388011
-42.836697 795.98895 1268.0319 4283388011
-40.456882 795.98895 1268.0319 4283321962
-38.077065 795.98895 1268.0319 4283125616
-101.93761 802.30371 1266.8162 4282269523
-55.710091 802.30371 1266.8162 4283060325
-52.154129 802.30371 1266.8162 4283125866
-54.524769 804.11609 1268.3444 4283388261
-52.154129 804.11609 1268.3444 4283519340
-49.783485 804.11609 1268.3444 4283519340
-46.227524 804.11609 1268.3444 4283585133
-103.90459 811.29846 1267.8602 4282532949
-100.36239 811.29846 1267.8602 4282532949
-96.820183 810.39581 1267.0991 4282730328
-92.097244 810.39581 1267.0991 4282861913
-82.651375 811.29846 1267.8602 4282993248
-80.289909 811.29846 1267.8602 4282927458
-77.928444 810.39581 1267.0991 4283058789
-54.313763 811.29846 1267.8602 4283191147
-51.952293 811.29846 1267.8602 4283650158
-49.590824 811.29846 1267.8602 4283715952
-94.091743 818.44586 1267.3464 4283320928
-88.211006 818.44586 1267.3464 4283651179
-82.330276 818.44586 1267.3464 4283916404
-79.977982 818.44586 1267.3464 4284638323
-75.273392 818.44586 1267.3464 4286413189
-70.56881 818.44586 1267.3464 4286282122
-68.216515 818.44586 1267.3464 4286479244
-94.091743 820.2442 1268.8628 4283320930
-88.211006 820.2442 1268.8628 4283848557
-84.682571 820.2442 1268.8628 4284111727
-82.330276 820.2442 1268.8628 4284309363
-77.625687 820.2442 1268.8628 4285032046
-70.56881 820.2442 1268.8628 4286150522
-76.351379 762.6933 1271.3506 4284376684
-72.715599 762.6933 1271.3506 4283255921
-70.025688 769.15259 1270.2567 4285817707
-67.611008 770.9986 1271.8132 4287069584
-73.367889 775.58368 1269.1392 4285886082
-69.759636 775.58368 1269.1392 4286477445
-67.354126 775.58368 1269.1392 4286411400
-64.948624 775.58368 1269.1392 4285950849
-25.257797 775.58368 1269.1392 4284833403
-21.649542 775.58368 1269.1392 4283911034
-69.759636 777.42273 1270.6898 4282598236
-64.948624 777.42273 1270.6898 4282925920
-61.340366 777.42273 1270.6898 4283451487
-57.732109 777.42273 1270.6898 4283912568
-55.326607 777.42273 1270.6898 4283715188
-52.921101 777.42273 1270.6898 4283519842
-50.515594 777.42273 1270.6898 4283190877
-40.893578 777.42273 1270.6898 4283123801
-37.285324 777.42273 1270.6898 4283255387
-25.257797 777.42273 1270.6898 4286345090
-21.649542 777.42273 1270.6898 4287463838
-70.691742 783.81885 1269.5426 4283058789
-64.70092 783.81885 1269.5426 4282796901
-62.304588 783.81885 1269.5426 4282994029
-58.710091 784.73486 1270.3149 4283124844
-55.115597 784.73486 1270.3149 4283321964
-52.719265 783.81885 1269.5426 4283256169
-50.322937 783.81885 1269.5426 4283321962
-46.728439 785.65088 1271.0874 4283060325
-43.133945 785.65088 1271.0874 4283322214
-40.737614 784.73486 1270.3149 4283518823
-38.341286 784.73486 1270.3149 4283321698
-35.146175 785.04022 1270.5724 4283322213
-57.291744 792.01196 1269.9108 4283126118
-47.743118 792.01196 1269.9108 4283321962
-40.58165 792.01196 1269.9108 4283125866
-38.194496 792.01196 1269.9108 4283125868
-35.011623 793.22858 1270.9366 4283125870
-54.735779 797.80835 1269.5659 4282994531
-52.355965 797.80835 1269.5659 4283126118
-49.976147 797.80835 1269.5659 4283191911
-46.406422 797.80835 1269.5659 4283321962
-42.836697 797.80835 1269.5659 4283191661
-40.456882 797.80835 1269.5659 4283125868
-38.077065 797.80835 1269.5659 4283125616
-49.976147 799.62775 1271.1001 4283257452
-46.406422 799.62775 1271.1001 4283257452
-42.836697 799.62775 1271.1001 4283257452
-40.456882 799.62775 1271.1001 4283257452
-52.154129 805.92847 1269.8724 4283257452
-49.783485 805.92847 1269.8724 4283454830
-46.227524 805.92847 1269.8724 4283716719
-46.227524 807.74084 1271.4006 4283650926
-42.671558 807.74084 1271.4006 4283716971
-40.300919 807.74084 1271.4006 4283716971
-106.26605 814.00653 1270.1436 4282664533
-103.90459 814.90918 1270.9047 4282730580
-100.75596 815.21014 1271.1583 4282796374
-96.820183 815.81189 1271.6658 4283125084
-92.097244 815.81189 1271.6658 4283386977
-66.121101 815.81189 1271.6658 4285759380
-63.759632 815.81189 1271.6658 4285890966
-61.398167 815.81189 1271.6658 4286219429
-59.036697 815.81189 1271.6658 4286088100
-55.888073 814.60834 1270.651 4283456121
-44.867889 814.00653 1270.1436 4282533476
-87.034859 822.94171 1271.1372 4283584354
-84.682571 822.94171 1271.1372 4283256423
-82.330276 822.04254 1270.3792 4283190627
-70.29174 764.54633 1272.913 4284635243
-67.867889 766.39941 1274.4755 4285095031
-62.781651 772.8446 1273.3698 4285426542
-48.293579 774.69067 1274.9263 4283386973
-33.805504 774.69067 1274.9263 4282203732
-31.390825 774.69067 1274.9263 4281150788
-28.976147 774.69067 1274.9263 4281607984
-19.31743 774.69067 1274.9263 4287201173
-16.902752 774.69067 1274.9263 4285622140
-60.137615 779.26178 1272.2404 4283255919
-57.732109 779.26178 1272.2404 4283321712
-55.326607 779.26178 1272.2404 4283387505
-52.921101 779.26178 1272.2404 4283519592
-49.312843 779.26178 1272.2404 4283322214
-40.893578 779.26178 1272.2404 4283518314
-33.677063 779.26178 1272.2404 4282730076
-28.866055 779.26178 1272.2404 4281874518
-25.257797 779.26178 1272.2404 4285492605
-21.649542 779.26178 1272.2404 4287005058
-19.244038 779.26178 1272.2404 4286807691
-48.110092 781.10083 1273.791 4283322214
-45.704586 781.10083 1273.791 4283256420
-43.299084 781.10083 1273.791 4283518566
-33.677063 781.10083 1273.791 4283191911
-31.271559 781.10083 1273.791 4282797153
-28.866055 781.10083 1273.791 4282731358
-25.257797 781.10083 1273.791 4282731361
-21.649542 781.10083 1273.791 4282796901
-19.244038 781.10083 1273.791 4283124584
-33.548622 787.48291 1272.6321 4282929257
-31.152294 787.48291 1272.6321 4282863463
-28.755962 787.48291 1272.6321 4283060324
-33.548622 789.31494 1274.1768 4282929003
-31.152294 789.31494 1274.1768 4282929003
-28.755962 789.31494 1274.1768 4283060073
-38.194496 797.48694 1274.5271 4283257452
-35.011623 796.8786 1274.0142 4283257454
-42.836697 802.35681 1273.4011 4283586154
-40.456882 802.35681 1273.4011 4283651947
-38.077065 802.35681 1273.4011 4283651948
-46.227524 809.55322 1272.9287 4283781229
-42.671558 809.55322 1272.9287 4283913071
-52.154129 811.3656 1274.4569 4281551197
-49.783485 811.3656 1274.4569 4281814112
-47.412846 811.3656 1274.4569 4282533476
-42.671558 811.3656 1274.4569 4283058539
-37.930275 811.3656 1274.4569 4283257202
-106.26605 817.61731 1273.188 4283059039
-103.90459 817.61731 1273.188 4283059541
-100.36238 817.61731 1273.188 4283125081
-96.820183 817.61731 1273.188 4283125084
-92.097244 817.61731 1273.188 4283452516
-80.289909 817.61731 1273.188 4284703337
-75.566971 817.61731 1273.188 4285887093
-67.301834 817.61731 1273.188 4287137939
-44.867889 817.61731 1273.188 4289110217
-106.26605 819.42261 1274.7102 4283190877
-103.90459 819.42261 1274.7102 4283191127
-99.181648 819.42261 1274.7102 4283256670
-96.820183 819.42261 1274.7102 4283322464
-94.458717 819.42261 1274.7102 4283518564
-92.097244 819.42261 1274.7102 4283518564
-89.735779 819.42261 1274.7102 4283649893
-80.289909 819.42261 1274.7102 4283387479
-75.566971 819.42261 1274.7102 4283518566
-73.205505 819.42261 1274.7102 4283452516
-43.687157 819.42261 1274.7102 4287529649
-87.034859 825.63922 1273.4117 4283585383
-84.682571 825.63922 1273.4117 4283913071
-65.444038 768.25244 1276.038 4286082689
-60.596329 770.10547 1277.6003 4285492335
-58.172478 770.10547 1277.6003 4284110723
-55.748623 770.10547 1277.6003 4283650172
-53.324772 770.10547 1277.6003 4283387477
-37.569725 770.10547 1277.6003 4282203482
-33.933945 770.10547 1277.6003 4282007623
-31.510092 770.10547 1277.6003 4279770661
-29.086239 770.10547 1277.6003 4280623919
-45.878899 776.53674 1276.4828 4283256420
-43.464222 776.53674 1276.4828 4283518314
-31.390825 776.53674 1276.4828 4281808974
-31.271559 782.93982 1275.3417 4282928482
-28.866055 782.93982 1275.3417 4282994531
-25.257797 782.93982 1275.3417 4282993764
-21.649542 782.93982 1275.3417 4282927460
-19.244038 782.93982 1275.3417 4283058789
-25.257797 784.77881 1276.8922 4283191397
-21.649542 784.77881 1276.8922 4283190627
-19.244038 784.77881 1276.8922 4283060073
-31.152294 791.14691 1275.7214 4283191661
-28.755962 791.14691 1275.7214 4283191659
-33.548622 792.97894 1277.2662 4283191659
-31.152294 792.97894 1277.2662 4283191659
-28.755962 792.97894 1277.2662 4283191659
-35.807339 799.31195 1276.0659 4283716969
-34.613762 801.13696 1277.6047 4283651694
-40.456882 806.90527 1277.2363 4283978865
-38.077065 805.99561 1276.4692 4283782512
-35.697247 805.99561 1276.4692 4283782512
-109.04954 813.17798 1275.9851 4282926422
-106.6789 813.17798 1275.9851 4282992471
-64.007339 814.99036 1277.5132 4288190893
-61.636696 814.99036 1277.5132 4288518843
-59.266056 814.99036 1277.5132 4288321464
-55.314983 814.38623 1277.0038 4287599276
-52.154129 814.08417 1276.7491 4286876859
-49.783485 814.08417 1276.7491 4286547894
-46.622631 813.78204 1276.4945 4285756841
-42.671558 814.08417 1276.7491 4286214575
-40.300919 814.99036 1277.5132 4287923653
-37.930275 814.08417 1276.7491 4285492873
-103.90459 821.22803 1276.2325 4283518816
-100.36238 821.22803 1276.2325 4283518816
-96.820183 821.22803 1276.2325 4283650145
-94.458717 821.22803 1276.2325 4283781981
-92.097244 821.22803 1276.2325 4283913823
-89.735779 821.22803 1276.2325 4283913573
-82.651375 821.22803 1276.2325 4283321962
-42.50642 821.22803 1276.2325 4284373102
-99.181648 823.03333 1277.7548 4283649632
-96.820183 823.03333 1277.7548 4283781218
-94.458717 823.03333 1277.7548 4283715938
-92.097244 823.03333 1277.7548 4283847524
-89.735779 823.03333 1277.7548 4283716969
-82.651375 823.03333 1277.7548 4283847022
-80.289909 823.03333 1277.7548 4283781731
-78.209175 754.737 1279.0303 4283655775
-75.765137 754.737 1279.0303 4283129431
-73.321098 754.737 1279.0303 4280960595
-70.877068 756.60547 1280.6058 4282663527
-64.523857 763.09564 1279.538 4284504427
-46.053211 771.95856 1279.1628 4283123801
-43.629356 771.95856 1279.1628 4282860629
-16.902752 780.22882 1279.5958 4283124582
-25.257797 787.53735 1279.2183 4283060070
-21.649542 787.53735 1279.2183 4283191141
-19.244038 787.53735 1279.2183 4283060073
-16.838531 788.45691 1279.9935 4283125866
-31.152294 794.81097 1278.8109 4283125866
-28.755962 794.81097 1278.8109 4283388011
-33.548622 796.64294 1280.3556 4283585385
-31.152294 796.64294 1280.3556 4283519592
-28.755962 796.64294 1280.3556 4283519086
-26.359632 796.64294 1280.3556 4283519086
-33.420185 802.96198 1279.1434 4283782513
-31.033028 802.96198 1279.1434 4283782513
-33.420185 804.78699 1280.6823 4283979891
-31.033028 804.78699 1280.6823 4283979891
-40.456882 808.72467 1278.7704 4283321712
-40.456882 810.54407 1280.3044 4283979154
-106.6789 818.61511 1280.5696 4283452770
-101.93761 816.80273 1279.0414 4283191127
-79.416519 817.70892 1279.8054 4283519065
-59.266056 817.70892 1279.8054 4284108913
-55.710091 817.70892 1279.8054 4284043629
-52.154129 817.70892 1279.8054 4284635776
-49.783485 817.70892 1279.8054 4284833411
-46.622631 818.01099 1280.0602 4284767870
-99.181648 824.83875 1279.277 4283256920
-96.820183 824.83875 1279.277 4283191127
-94.458717 824.83875 1279.277 4283322464
-88.555046 824.83875 1279.277 4283585635
-85.01284 824.83875 1279.277 4283650926
-94.458717 826.6441 1280.7992 4283651176
-55.494495 826.6441 1280.7992 4285490041
-68.433029 758.474 1282.1813 4284372576
-64.766968 758.474 1282.1813 4284307553
2.4440367 758.474 1282.1813 4282139484
4.8880734 758.474 1282.1813 4282400610
9.7761469 758.474 1282.1813 4284635777
-61.100918 760.34247 1283.7567 4284242532
-58.656879 760.34247 1283.7567 4282928232
-56.212845 760.34247 1283.7567 4282533474
-2.4440367 760.34247 1283.7567 4282796903
2.4440367 760.34247 1283.7567 4282665065
4.8880734 760.34247 1283.7567 4282336102
7.3321099 760.34247 1283.7567 4282730860
9.7761469 760.34247 1283.7567 4282925920
12.220183 760.34247 1283.7567 4284241780
-63.306423 764.95709 1281.1075 4285558646
-60.871559 764.95709 1281.1075 4285163888
-36.522934 764.95709 1281.1075 4282467920
-34.088074 764.95709 1281.1075 4282402379
-31.653212 764.95709 1281.1075 4280428588
-29.218349 764.95709 1281.1075 4280886839
-26.783485 764.95709 1281.1075 4283650145
2.4348624 764.95709 1281.1075 4283455601
-51.132111 766.8186 1282.6771 4283321684
-48.697247 766.8186 1282.6771 4283189585
-46.262386 766.8186 1282.6771 4282531398
-2.4348624 766.8186 1282.6771 4283321962
2.4348624 766.8186 1282.6771 4283783019
4.8697248 766.8186 1282.6771 4283716468
9.7394495 766.8186 1282.6771 4283979641
12.174312 766.8186 1282.6771 4284045434
-16.966972 775.66467 1282.2877 4283256171
-13.331193 777.5177 1283.8501 4283256170
-9.6954126 777.5177 1283.8501 4282994529
-16.902752 782.07483 1281.1523 4283060073
-16.902752 783.9209 1282.709 4283060073
-25.257797 790.2959 1281.5442 4283125866
-21.649542 790.2959 1281.5442 4283125866
-19.244038 790.2959 1281.5442 4283060073
-16.838531 790.2959 1281.5442 4283125866
-25.257797 792.13495 1283.0947 4283322218
-21.649542 792.13495 1283.0947 4283388011
-19.244038 792.13495 1283.0947 4283388011
-16.838531 792.13495 1283.0947 4283388011
-14.433027 792.13495 1283.0947 4283125868
-31.152294 798.47498 1281.9003 4283650926
-28.755962 799.39099 1282.6726 4283650926
-26.359632 799.39099 1282.6726 4283650926
-23.963303 800.30701 1283.4451 4283716722
-19.170643 800.30701 1283.4451 4283716722
-35.807339 806.61194 1282.2211 4283586167
-31.033028 806.61194 1282.2211 4283652210
-35.807339 808.43701 1283.7599 4283717753
-61.875229 814.18286 1283.3726 4285028995
-40.456882 814.18286 1283.3726 4287727280
-106.6789 820.42749 1282.0977 4283451996
-104.30826 820.42749 1282.0977 4283453022
-101.93761 820.42749 1282.0977 4283518816
-55.710091 820.42749 1282.0977 4284243815
-52.154129 820.42749 1282.0977 4284308079
-47.412846 820.42749 1282.0977 4283848558
-104.30826 822.23987 1283.6259 4283125084
-101.93761 822.23987 1283.6259 4283256670
-92.455048 822.23987 1283.6259 4283519842
-61.330276 755.71381 1286.3942 4283848028
-58.877064 755.71381 1286.3942 4282206283
-56.423855 755.71381 1286.3942 4282140234
-53.970642 755.71381 1286.3942 4282859848
-2.4532111 754.77606 1285.6035 4284573284
1.2266055 754.77606 1285.6035 4285624183
7.359633 754.77606 1285.6035 4287531666
12.266055 754.77606 1285.6035 4289109185
-58.656879 762.21094 1285.3322 4283652475
-56.212845 762.21094 1285.3322 4283191924
-52.546791 762.21094 1285.3322 4283321171
-48.880733 762.21094 1285.3322 4283188045
-4.8880734 764.07947 1286.9076 4282664031
-2.4440367 762.21094 1285.3322 4283715688
0 763.1452 1286.1199 4283257192
4.8880734 762.21094 1285.3322 4283389554
7.3321099 763.1452 1286.1199 4283717493
9.7761469 762.21094 1285.3322 4283454826
12.220183 762.21094 1285.3322 4283257704
-17.044037 770.5415 1285.8162 4285557881
-13.391743 770.5415 1285.8162 4283848555
-9.7394495 770.5415 1285.8162 4282861413
-7.3045874 770.5415 1285.8162 4282664033
-4.8697248 770.5415 1285.8162 4282334817
-2.4348624 769.61078 1285.0314 4282004824
2.4348624 769.61078 1285.0314 4282597209
4.8697248 769.61078 1285.0314 4282793058
7.3045874 770.5415 1285.8162 4283253870
9.7394495 770.5415 1285.8162 4283320176
12.174312 770.5415 1285.8162 4284307071
-13.331193 779.37079 1285.4126 4283059818
-14.543119 781.22388 1286.9751 4283059819
-14.488073 785.76697 1284.2655 4283125868
-14.488073 787.61298 1285.822 4283125616
-24.055046 793.974 1284.6454 4283519086
-21.649542 793.974 1284.6454 4283519086
-19.244038 793.974 1284.6454 4283519086
-16.838531 793.974 1284.6454 4283519086
-14.433027 793.974 1284.6454 4283388783
-24.055046 795.81299 1286.196 4283585135
-21.649542 795.81299 1286.196 4283585135
-19.244038 795.81299 1286.196 4283388783
-16.838531 795.81299 1286.196 4283586419
-14.433027 795.81299 1286.196 4283455601
-33.548622 803.97107 1286.5344 4283586417
-28.755962 803.05505 1285.7621 4283848055
-26.359632 803.05505 1285.7621 4283848055
-22.765137 803.05505 1285.7621 4283717493
-19.170643 803.05505 1285.7621 4283782518
-16.774311 803.05505 1285.7621 4283848055
-14.377981 803.05505 1285.7621 4283782264
-71.614677 812.08698 1286.8374 4283322214
-38.194496 812.08698 1286.8374 4288056480
-78.533943 816.91199 1285.6736 4283781728
-59.495415 817.82166 1286.4407 4284111727
-49.976147 817.82166 1286.4407 4284242030
-45.216515 817.82166 1286.4407 4283585385
-42.836697 817.82166 1286.4407 4283126116
-59.266056 824.05225 1285.1539 4285426292
-59.266056 825.86462 1286.6821 4287790461
-52.744034 757.58936 1287.9755 4282727761
-49.06422 757.58936 1287.9755 4283054664
-31.891743 757.58936 1287.9755 4281678138
-29.438532 757.58936 1287.9755 4281742931
-26.985321 757.58936 1287.9755 4282664033
-4.9064221 757.58936 1287.9755 4282928232
0 757.58936 1287.9755 4282533478
14.719266 757.58936 1287.9755 4285424005
-46.611008 759.46484 1289.5569 4282793543
-44.157799 759.46484 1289.5569 4282399297
-4.9064221 759.46484 1289.5569 4283386723
14.719266 759.46484 1289.5569 4282796903
-12.220183 765.94794 1288.4832 4282797153
-9.7761469 765.94794 1288.4832 4281810267
-7.3321099 765.94794 1288.4832 4281876316
-4.8880734 765.94794 1288.4832 4282267225
0 765.94794 1288.4832 4282334035
7.3321099 765.94794 1288.4832 4283713641
9.7761469 765.94794 1288.4832 4283714673
12.220183 765.94794 1288.4832 4284504189
-13.391743 772.40302 1287.3857 4283321962
-9.7394495 772.40302 1287.3857 4283191911
-7.3045874 772.40302 1287.3857 4283126118
-4.8697248 772.40302 1287.3857 4283322214
-2.4348624 772.40302 1287.3857 4283256420
4.8697248 772.40302 1287.3857 4283320678
-7.3045874 774.26447 1288.9552 4282928736
-4.8697248 774.26447 1288.9552 4282928736
-2.4348624 774.26447 1288.9552 4282928736
-12.119267 783.0769 1288.5375 4282796903
-9.6954126 783.0769 1288.5375 4283781479
-12.073395 790.38202 1288.1567 4282928489
-9.6587152 790.38202 1288.1567 4283059043
-21.649542 797.65204 1287.7466 4283716722
-16.838531 797.65204 1287.7466 4283979637
-13.230275 797.65204 1287.7466 4283586417
-12.027523 799.49109 1289.2972 4283848056
-9.6220188 799.49109 1289.2972 4283979637
-33.548622 805.80304 1288.0791 4283652475
-31.152294 805.80304 1288.0791 4283586426
-28.755962 805.80304 1288.0791 4283716722
-26.359632 805.80304 1288.0791 4283716722
-22.765137 805.80304 1288.0791 4283716472
-19.170643 805.80304 1288.0791 4283650676
-16.774311 805.80304 1288.0791 4283584883
-14.377981 805.80304 1288.0791 4283716470
-34.746788 807.63507 1289.6239 4286741651
-31.152294 807.63507 1289.6239 4286280847
-28.755962 807.63507 1289.6239 4285952387
-26.359632 807.63507 1289.6239 4285491836
-22.765137 807.63507 1289.6239 4285687693
-19.170643 807.63507 1289.6239 4285162882
-16.774311 807.63507 1289.6239 4285097089
-14.377981 807.63507 1289.6239 4284900739
-76.388992 815.73694 1289.915 4284109933
-74.001831 814.82446 1289.1456 4283847278
-62.066055 815.73694 1289.915 4284111727
-40.58165 813.91199 1288.3762 4284504688
-38.194496 813.91199 1288.3762 4284965491
-91.62294 821.46045 1289.5088 4284177522
-88.053207 821.46045 1289.5088 4284177522
-80.913765 819.64099 1287.9747 4283847274
-58.305504 819.64099 1287.9747 4284834163
-54.735779 819.64099 1287.9747 4284571247
-46.78532 754.83624 1292.1943 4283186250
-44.322937 754.83624 1292.1943 4283846985
-41.86055 754.83624 1292.1943 4284175694
-34.473396 754.83624 1292.1943 4283125584
-9.8495417 754.83624 1292.1943 4282994531
-7.387156 754.83624 1292.1943 4283126118
-44.157799 761.34033 1291.1383 4281742400
-41.704586 761.34033 1291.1383 4281545021
-12.266055 761.34033 1291.1383 4281348685
-9.8128443 761.34033 1291.1383 4281808474
-7.359633 761.34033 1291.1383 4281940061
14.719266 761.34033 1291.1383 4283716470
-14.719266 763.21582 1292.7196 4283718255
14.719266 763.21582 1292.7196 4285623672
17.172478 763.21582 1292.7196 4285426292
0 767.81641 1290.0586 4282070866
14.66422 767.81641 1290.0586 4284769382
1.2220184 769.68494 1291.634 4282993246
7.3321099 769.68494 1291.634 4283189092
9.7761469 769.68494 1291.634 4283058535
13.442202 769.68494 1291.634 4284506737
-9.7394495 776.12592 1290.5248 4282665567
-7.3045874 776.12592 1290.5248 4283257704
-4.8697248 776.12592 1290.5248 4282864504
-2.4348624 776.12592 1290.5248 4282403953
-12.174312 777.98743 1292.0944 4282731110
-9.7394495 777.98743 1292.0944 4283190877
-7.3045874 777.98743 1292.0944 4285098874
-4.8697248 777.98743 1292.0944 4285426072
-2.4348624 777.98743 1292.0944 4284899728
-12.119267 784.92993 1290.1 4282796651
-9.6954126 784.92993 1290.1 4283320928
-7.2715597 786.78302 1291.6624 4286215822
-4.8477063 786.78302 1291.6624 4289306544
-12.073395 793.15112 1290.4916 4283324014
-9.6587152 794.0741 1291.2698 4283389039
-7.2440367 794.0741 1291.2698 4283389038
-12.027523 802.24963 1291.6232 4283716471
-9.6220188 802.24963 1291.6232 4283586169
-7.2165136 802.24963 1291.6232 4283585913
-4.8110094 802.24963 1291.6232 4283586169
-2.4055047 802.24963 1291.6232 4283717755
-69.493576 809.46704 1291.1686 4283651178
-67.097244 809.46704 1291.1686 4284175476
-64.70092 809.46704 1291.1686 4284570234
-34.746788 809.46704 1291.1686 4288056993
-31.152294 809.46704 1291.1686 4287465628
-28.755962 809.46704 1291.1686 4287465626
-26.359632 809.46704 1291.1686 4287202197
-23.963303 809.46704 1291.1686 4287267481
-19.170643 809.46704 1291.1686 4286873748
-14.377981 809.46704 1291.1686 4286875035
-76.682571 811.29907 1292.7133 4283650415
-70.691742 811.29907 1292.7133 4283715186
-67.097244 811.29907 1292.7133 4283649643
-64.70092 811.29907 1292.7133 4283715436
-62.304588 811.29907 1292.7133 4283780968
-34.746788 811.29907 1292.7133 4285294966
-31.152294 811.29907 1292.7133 4285295476
-28.755962 811.29907 1292.7133 4285755005
-26.359632 811.29907 1292.7133 4286084227
-64.453209 817.56201 1291.4539 4284964735
-62.066055 817.56201 1291.4539 4285031285
-52.517429 817.56201 1291.4539 4284307825
-62.066055 819.38696 1292.9927 4285952636
-52.517429 819.38696 1292.9927 4285490300
-91.62294 823.27979 1291.0428 4284899705
-41.86055 756.71875 1293.7816 4281741623
-24.623854 756.71875 1293.7816 4283191411
-22.161469 756.71875 1293.7816 4281612122
-19.699083 758.60126 1295.3689 4282794584
-17.236698 758.60126 1295.3689 4281873482
-14.774312 757.66003 1294.5752 4281085515
-9.8495417 756.71875 1293.7816 4281940313
-7.387156 756.71875 1293.7816 4282400864
17.236698 757.66003 1294.5752 4283322223
19.699083 758.60126 1295.3689 4283125362
17.172478 766.02905 1295.0917 4284506980
19.625689 766.02905 1295.0917 4287133309
22.078899 766.9668 1295.8823 4294565119
1.2220184 772.48767 1293.9972 4282928228
4.8880734 772.48767 1293.9972 4283059042
7.3321099 772.48767 1293.9972 4283059041
9.7761469 772.48767 1293.9972 4283584107
13.034863 772.17627 1293.7346 4284308337
-7.3045874 779.84888 1293.6639 4286084234
-4.8697248 779.84888 1293.6639 4287925925
-2.4348624 779.84888 1293.6639 4288386476
-7.3045874 781.71033 1295.2334 4285755525
-4.8697248 781.71033 1295.2334 4288123027
-2.4348624 781.71033 1295.2334 4288912542
-7.2715597 788.63611 1293.2249 4285889172
-4.8477063 788.63611 1293.2249 4288913574
-4.8477063 790.48914 1294.7874 4283784063
-2.4238532 790.48914 1294.7874 4284046979
-7.2440367 796.8432 1293.6047 4283848308
-4.8293576 796.8432 1293.6047 4283848308
-2.4146788 796.8432 1293.6047 4283979637
0 798.68921 1295.1613 4283651708
-21.649542 806.84717 1295.4998 4287135895
-16.838531 806.84717 1295.4998 4286873748
-12.027523 805.92767 1294.7244 4285624715
-9.6220188 805.00818 1293.9491 4284900739
-7.2165136 805.00818 1293.9491 4284769410
-4.8110094 805.00818 1293.9491 4284573314
-2.4055047 805.00818 1293.9491 4284639107
-79.078896 814.96313 1295.8027 4283847274
-76.682571 814.96313 1295.8027 4283781479
-74.28624 814.96313 1295.8027 4283847528
-70.691742 814.04712 1295.0303 4283978094
-67.097244 814.04712 1295.0303 4283847534
-64.70092 813.1311 1294.2579 4284045936
-50.322937 814.96313 1295.8027 4284110446
-47.926605 814.96313 1295.8027 4284241519
-40.737614 813.1311 1294.2579 4283455080
-38.341286 813.1311 1294.2579 4283455332
-34.746788 813.1311 1294.2579 4283586921
-31.152294 814.04712 1295.0303 4283717741
-28.755962 814.04712 1295.0303 4283716974
-26.359632 814.04712 1295.0303 4283519595
-22.765137 814.04712 1295.0303 4283520878
-19.170643 814.04712 1295.0303 4283455080
-16.774311 814.04712 1295.0303 4283586666
-14.377981 814.04712 1295.0303 4283258485
-11.981651 814.96313 1295.8027 4283125616
-62.066055 821.21198 1294.5314 4287724668
19.699083 760.48376 1296.9562 4284047731
22.161469 762.36627 1298.5435 4287465587
34.473396 762.36627 1298.5435 4293913340
36.93578 762.36627 1298.5435 4293979133
17.172478 768.84229 1297.4637 4285362294
19.625689 768.84229 1297.4637 4288118204
22.078899 768.84229 1297.4637 4294961151
1.2220184 775.29034 1296.3604 4283256949
4.8880734 775.29034 1296.3604 4282731108
7.3321099 775.29034 1296.3604 4282796901
9.7761469 775.29034 1296.3604 4282797153
12.220183 775.29034 1296.3604 4282994531
1.2220184 777.15887 1297.9358 4288058042
4.8880734 777.15887 1297.9358 4286876065
7.3321099 777.15887 1297.9358 4287139236
9.7761469 777.15887 1297.9358 4285628325
12.220183 777.15887 1297.9358 4283983501
-2.4348624 784.50256 1297.5878 4289570738
-4.8477063 792.34216 1296.3497 4283059823
-2.4238532 792.34216 1296.3497 4283520374
0.80795103 793.57758 1297.3915 4283716213
4.8477063 794.19525 1297.9122 4282994531
7.2715597 793.26868 1297.131 4285230963
12.119267 794.19525 1297.9122 4283652475
0 800.53528 1296.7178 4283520374
0 802.38135 1298.2743 4284375680
-24.055046 808.68622 1297.0503 4285886591
-21.649542 808.68622 1297.0503 4285886591
-19.244038 808.68622 1297.0503 4285625219
-16.838531 808.68622 1297.0503 4285822597
-13.230275 808.68622 1297.0503 4285888910
-12.027523 810.52527 1298.601 4283259512
-2.4055047 810.52527 1298.601 4284045686
-74.28624 816.79517 1297.3474 4283848558
-70.292351 817.40582 1297.8623 4285819006
-67.097244 817.71118 1298.1198 4285753733
-64.70092 817.71118 1298.1198 4286411662
-22.765137 816.79517 1297.3474 4285887886
-19.170643 817.71118 1298.1198 4287926183
22.244038 755.86212 1299.5995 4281151571
27.187157 755.86212 1299.5995 4287465107
32.130276 755.86212 1299.5995 4293913060
34.601833 755.86212 1299.5995 4294110203
37.073395 755.86212 1299.5995 4293715445
39.544952 755.86212 1299.5995 4293518582
22.244038 757.75165 1301.1926 4283258471
24.715597 757.75165 1301.1926 4287132518
28.422935 757.75165 1301.1926 4293186001
32.130276 757.75165 1301.1926 4294567924
34.601833 757.75165 1301.1926 4293847292
37.073395 757.75165 1301.1926 4293584377
39.544952 757.75165 1301.1926 4293649398
44.488075 757.75165 1301.1926 4293583607
24.623854 764.24878 1300.1307 4294439934
34.473396 764.24878 1300.1307 4293716476
36.93578 764.24878 1300.1307 4293913855
24.623854 766.13135 1301.718 4294963199
28.317432 766.13135 1301.718 4294964991
32.011009 766.13135 1301.718 4294898943
34.473396 766.13135 1301.718 4294570495
36.93578 766.13135 1301.718 4294702335
39.398167 766.13135 1301.718 4294043391
44.322937 766.13135 1301.718 4294109438
14.719266 770.71783 1299.0452 4283386977
17.172478 770.71783 1299.0452 4283255135
19.625689 770.71783 1299.0452 4284500871
22.078899 770.71783 1299.0452 4286145695
24.53211 770.71783 1299.0452 4287525272
36.798164 770.71783 1299.0452 4294767103
14.719266 772.59332 1300.6265 4282929007
17.172478 772.59332 1300.6265 4282862957
19.625689 772.59332 1300.6265 4283386225
22.078899 772.59332 1300.6265 4283188590
24.53211 772.59332 1300.6265 4282791254
31.891743 772.59332 1300.6265 4293253097
34.344955 772.59332 1300.6265 4294175743
36.798164 772.59332 1300.6265 4294767871
39.251377 772.59332 1300.6265 4294636287
0 779.02734 1299.5114 4288585167
4.8880734 779.02734 1299.5114 4287009967
7.3321099 779.02734 1299.5114 4287667897
9.7761469 779.02734 1299.5114 4287336129
12.220183 779.02734 1299.5114 4286415027
1.2220184 780.89581 1301.0868 4287929020
4.8880734 780.89581 1301.0868 4286419645
7.3321099 780.89581 1301.0868 4286419645
9.7761469 780.89581 1301.0868 4286612668
13.442202 780.89581 1301.0868 4287335606
17.108257 780.89581 1301.0868 4287795372
1.2174312 787.2948 1299.942 4285425539
4.8697248 787.2948 1299.942 4288513962
7.3045874 787.2948 1299.942 4288711597
9.7394495 787.2948 1299.942 4288123318
12.174312 787.2948 1299.942 4288189367
2.4348624 789.15625 1301.5116 4284636288
4.8697248 789.15625 1301.5116 4286019949
9.7394495 789.15625 1301.5116 4286940326
13.391743 789.15625 1301.5116 4287861411
2.4238532 796.97485 1300.2559 4283783291
4.8477063 796.97485 1300.2559 4283849085
7.2715597 796.97485 1300.2559 4283717498
9.6954126 797.90137 1301.0371 4283915381
12.119267 797.90137 1301.0371 4283915381
-9.6587152 805.15039 1300.6091 4285954187
-7.2440367 805.15039 1300.6091 4285822601
-4.8293576 804.22736 1299.8308 4286086035
-2.4146788 805.15039 1300.6091 4285888657
0 804.22736 1299.8308 4286085772
-36.082569 812.36426 1300.1516 4283717221
-33.677063 812.36426 1300.1516 4283782765
-2.4055047 812.36426 1300.1516 4283716971
-81.787155 814.20331 1301.7021 4284439918
-79.381653 814.20331 1301.7021 4284176489
-76.976151 814.20331 1301.7021 4283782765
-16.838531 814.20331 1301.7021 4286019726
24.715597 759.64117 1302.7859 4291343022
28.422935 760.58594 1303.5825 4294767352
32.130276 760.58594 1303.5825 4294175999
39.544952 760.58594 1303.5825 4293913084
43.252296 760.58594 1303.5825 4293912571
46.959633 761.5307 1304.379 4294175231
28.31743 768.95508 1304.0989 4288973738
32.011009 768.01379 1303.3053 4294960639
34.473396 768.01379 1303.3053 4294964991
41.039753 768.6413 1303.8344 4294109695
44.322937 768.95508 1304.0989 4294241535
46.78532 768.95508 1304.0989 4294241535
49.247707 769.89636 1304.8926 4294241789
2.4532111 776.34436 1303.7893 4287598272
14.719266 775.40662 1302.9985 4282865037
17.172478 775.40662 1302.9985 4282667402
19.625689 775.40662 1302.9985 4283256688
22.078899 775.40662 1302.9985 4283388275
25.349848 775.71924 1303.2621 4283191911
29.438532 775.40662 1302.9985 4281812832
31.891743 775.40662 1302.9985 4282536812
34.344955 775.40662 1302.9985 4285622701
36.798164 775.40662 1302.9985 4293517567
40.069111 775.71924 1303.2621 4294702847
44.157799 776.34436 1303.7893 4294373375
46.611008 776.34436 1303.7893 4294570495
1.2220184 782.76428 1302.6622 4288913837
4.8880734 782.76428 1302.6622 4288257231
7.3321099 782.76428 1302.6622 4287467715
9.7761469 782.76428 1302.6622 4287399610
13.442202 782.76428 1302.6622 4287663539
17.108257 782.76428 1302.6622 4288388276
14.66422 784.63281 1304.2377 4289111482
17.108257 784.63281 1304.2377 4288782517
19.552294 784.63281 1304.2377 4286813385
21.99633 784.63281 1304.2377 4283918493
9.7394495 791.0177 1303.0812 4283389304
14.609175 791.0177 1303.0812 4285097091
17.044037 791.0177 1303.0812 4286281366
9.7394495 792.87921 1304.6508 4283454826
13.391743 792.87921 1304.6508 4283388780
17.044037 792.87921 1304.6508 4284770436
2.4238532 799.75439 1302.5996 4284441473
4.8477063 799.75439 1302.5996 4284637572
7.2715597 799.75439 1302.5996 4284571778
9.6954126 799.75439 1302.5996 4285031296
13.331193 799.75439 1302.5996 4285163650
2.4238532 801.60742 1304.162 4286085772
4.8477063 801.60742 1304.162 4286741648
7.2715597 801.60742 1304.162 4286741648
9.6954126 801.60742 1304.162 4286610319
13.331193 801.60742 1304.162 4286676370
-9.6587152 807.91943 1302.9438 4283652975
-7.2440367 808.84247 1303.7222 4283586924
14.488073 808.84247 1303.7222 4284177775
-79.381653 816.04236 1303.2528 4286278006
-76.976151 816.04236 1303.2528 4286604159
-73.367889 816.96185 1304.0281 4288184986
42.203671 754.47314 1306.2765 4293781240
47.168808 756.37109 1307.8767 4294175743
42.016514 763.42023 1305.9723 4293911806
46.959633 763.42023 1305.9723 4294306559
49.431194 765.30975 1307.5654 4294176509
27.086239 771.77887 1306.4799 4282403664
41.86055 771.77887 1306.4799 4294505215
44.322937 771.77887 1306.4799 4294373375
46.78532 771.77887 1306.4799 4294570495
49.247707 771.77887 1306.4799 4294307582
19.625689 778.21985 1305.3706 4288188090
22.078899 778.21985 1305.3706 4286345887
25.758717 778.21985 1305.3706 4283652725
29.438532 778.21985 1305.3706 4283259514
31.891743 778.21985 1305.3706 4282206826
34.344955 778.21985 1305.3706 4281026929
36.798164 778.21985 1305.3706 4289316847
40.477982 778.21985 1305.3706 4292534008
19.625689 780.09534 1306.952 4288189906
22.078899 780.09534 1306.952 4285887407
25.758717 780.09534 1306.952 4283586419
29.438532 780.09534 1306.952 4283849857
31.891743 780.09534 1306.952 4283191670
34.344955 780.09534 1306.952 4281027433
36.798164 780.09534 1306.952 4287014340
40.477982 780.09534 1306.952 4291873526
17.108257 786.50128 1305.8131 4289374890
19.552294 787.43555 1306.6008 4287137461
21.99633 787.43555 1306.6008 4284768913
25.255045 787.74689 1306.8634 4283456628
29.32844 787.43555 1306.6008 4284177020
31.772476 788.36975 1307.3887 4283255917
34.216515 787.43555 1306.6008 4282404193
36.660549 788.36975 1307.3887 4286284431
14.609175 794.74066 1306.2202 4283324014
17.044037 794.74066 1306.2202 4283850358
17.044037 796.60217 1307.7898 4285230213
21.913761 796.60217 1307.7898 4286017678
29.218349 796.60217 1307.7898 4287663034
-4.8477063 803.46051 1305.7245 4285757072
1.2119266 803.46051 1305.7245 4285888390
4.8477063 803.46051 1305.7245 4286084990
7.2715597 803.46051 1305.7245 4285953148
9.6954126 803.46051 1305.7245 4285755775
13.331193 803.46051 1305.7245 4285623936
-4.8477063 805.3136 1307.2869 4283585135
1.2119266 805.3136 1307.2869 4284242286
4.8477063 805.3136 1307.2869 4284242032
9.6954126 805.3136 1307.2869 4283782765
12.119267 805.3136 1307.2869 4284309109
29.086239 805.3136 1307.2869 4286282619
31.510092 805.3136 1307.2869 4287927444
-14.488073 811.61151 1306.057 4286281620
51.902752 767.19928 1309.1587 4294175996
51.902752 769.08881 1310.7518 4294241789
54.374313 769.08881 1310.7518 4294241791
49.247707 773.66138 1308.0671 4294307582
51.710091 773.66138 1308.0671 4294504703
44.322937 775.54388 1309.6545 4293913342
46.78532 775.54388 1309.6545 4293979135
49.247707 775.54388 1309.6545 4293781753
51.710091 775.54388 1309.6545 4293979133
25.758717 781.97083 1308.5333 4283520626
29.438532 781.97083 1308.5333 4284177021
31.891743 781.97083 1308.5333 4283650676
34.344955 781.97083 1308.5333 4281355880
36.798164 781.97083 1308.5333 4285303204
40.477982 781.97083 1308.5333 4292070631
44.157799 781.97083 1308.5333 4294504447
46.611008 781.97083 1308.5333 4294504447
26.985321 783.84631 1310.1147 4283784565
31.891743 783.84631 1310.1147 4283584883
36.798164 783.84631 1310.1147 4284971411
40.477982 783.84631 1310.1147 4291874789
44.157799 783.84631 1310.1147 4294373887
46.611008 783.84631 1310.1147 4294307839
49.06422 783.84631 1310.1147 4294044156
51.517429 783.84631 1310.1147 4293978362
19.552294 790.23828 1308.9641 4284834966
21.99633 790.23828 1308.9641 4283979657
25.662384 790.23828 1308.9641 4283652212
29.32844 790.23828 1308.9641 4283585913
31.772476 790.23828 1308.9641 4282993775
34.216515 790.23828 1308.9641 4283123049
36.660549 790.23828 1308.9641 4289044420
19.552294 792.10675 1310.5396 4284242827
21.99633 792.10675 1310.5396 4284177034
25.662384 792.10675 1310.5396 4283981177
29.32844 792.10675 1310.5396 4284965519
31.772476 792.10675 1310.5396 4284373382
34.216515 792.10675 1310.5396 4287394174
36.660549 792.10675 1310.5396 4292591821
41.548622 792.10675 1310.5396 4294308095
17.044037 799.39435 1310.144 4285952905
19.478899 799.39435 1310.144 4286280332
21.913761 799.39435 1310.144 4286083210
24.348623 799.39435 1310.144 4286674306
29.218349 799.39435 1310.144 4286808476
-46.053211 807.16663 1308.8494 4284438641
-41.205505 807.16663 1308.8494 4284439918
-38.781651 807.16663 1308.8494 4283980393
-12.119267 809.01965 1310.4117 4286412949
-9.6954126 807.16663 1308.8494 4283191909
-7.2715597 809.01965 1310.4117 4286676373
-4.8477063 807.16663 1308.8494 4283716971
-2.4238532 809.01965 1310.4117 4287399583
1.2119266 807.16663 1308.8494 4283520876
4.8477063 807.16663 1308.8494 4283323760
9.6954126 807.16663 1308.8494 4283454830
13.331193 808.09314 1309.6306 4286085005
49.834862 754.59845 1312.9222 4293978618
49.651375 760.16699 1311.0774 4294175996
52.133945 762.06494 1312.6776 4294176509
55.610092 770.97833 1312.3451 4294505471
55.610092 772.86786 1313.9382 4294176509
44.322937 777.42639 1311.2418 4294242047
46.78532 777.42639 1311.2418 4294373631
49.247707 778.36768 1312.0354 4294241787
51.710091 778.36768 1312.0354 4294373373
40.477982 785.7218 1311.6962 4292595427
44.157799 785.7218 1311.6962 4294242047
46.611008 785.7218 1311.6962 4294044927
49.06422 785.7218 1311.6962 4293781499
51.517429 785.7218 1311.6962 4293979135
40.477982 787.59735 1313.2775 4293057004
44.157799 787.59735 1313.2775 4294242047
46.611008 787.59735 1313.2775 4294373887
49.06422 787.59735 1313.2775 4294044671
51.517429 787.59735 1313.2775 4294242047
19.552294 793.97522 1312.115 4286083471
25.662384 793.97522 1312.115 4287136143
31.772476 793.97522 1312.115 4286939311
34.216515 793.97522 1312.115 4287333536
26.884403 795.84375 1313.6904 4287660690
31.772476 795.84375 1313.6904 4286544535
34.216515 795.84375 1313.6904 4287925929
7.3045874 802.18652 1312.4984 4284110446
17.044037 802.18652 1312.4984 4284177520
19.478899 802.18652 1312.4984 4285096576
21.913761 802.18652 1312.4984 4285425540
25.566055 802.18652 1312.4984 4286805381
52.326607 757.45593 1315.3315 4294175996
54.818348 759.36084 1316.9377 4294175231
57.310093 759.36084 1316.9377 4294504191
54.616512 763.96289 1314.278 4294175743
57.099083 763.96289 1314.278 4294373375
58.340366 765.86084 1315.8783 4294504703
55.610092 774.75739 1315.5315 4294570751
59.317432 774.75739 1315.5315 4294637823
61.78899 774.75739 1315.5315 4294440191
64.260551 774.75739 1315.5315 4292665585
66.732109 774.75739 1315.5315 4284968060
55.403671 781.19141 1314.4164 4294175741
54.172478 783.07397 1316.0037 4293979131
36.798164 791.34833 1316.4402 4292531183
40.069111 790.72314 1315.9131 4294110457
44.157799 790.41058 1315.6495 4293913341
46.611008 790.41058 1315.6495 4293979134
49.06422 790.41058 1315.6495 4293781752
51.517429 790.41058 1315.6495 4293979387
26.884403 797.71222 1315.2659 4286609537
31.772476 797.71222 1315.2659 4286874781
34.216515 797.71222 1315.2659 4288187861
34.216515 799.58069 1316.8413 4292067290
41.548622 799.58069 1316.8413 4293979133
43.992661 799.58069 1316.8413 4293979898
46.436699 799.58069 1316.8413 4293914105
-51.132111 805.90955 1315.6376 4285293178
-48.697247 805.90955 1315.6376 4285292153
-46.262386 805.90955 1315.6376 4285423740
-43.827522 804.04803 1314.068 4284374124
-41.392662 805.90955 1315.6376 4285752702
-38.957798 805.90955 1315.6376 4285425792
-9.7394495 805.90955 1315.6376 4286478994
-4.8697248 805.90955 1315.6376 4287399583
7.3045874 804.04803 1314.068 4282994796
9.7394495 805.90955 1315.6376 4287664817
12.174312 805.90955 1315.6376 4287599024
17.044037 804.04803 1314.068 4285098874
19.478899 804.97876 1314.8528 4288780207
21.913761 804.04803 1314.068 4287003803
55.020184 754.74481 1319.5859 4294241535
57.521099 754.74481 1319.5859 4294636287
59.801834 761.26581 1318.5439 4294307582
59.58165 767.75873 1317.4785 4294702079
62.06422 767.75873 1317.4785 4294965247
64.546791 767.75873 1317.4785 4294637567
59.58165 769.65668 1319.0789 4294767871
62.06422 769.65668 1319.0789 4294965759
64.546791 769.65668 1319.0789 4293783295
67.029358 769.65668 1319.0789 4288980664
55.610092 776.64697 1317.1246 4294175996
59.317432 776.64697 1317.1246 4294242815
61.78899 776.64697 1317.1246 4294111231
64.260551 776.64697 1317.1246 4291942128
66.732109 776.64697 1317.1246 4287928755
59.317432 778.5365 1318.7179 4294111484
61.78899 778.5365 1318.7179 4294045691
64.260551 778.5365 1318.7179 4292598271
54.172478 784.95642 1317.5909 4294045180
54.172478 786.83899 1319.1782 4294176255
36.798164 793.22382 1318.0216 4293978879
40.477982 793.22382 1318.0216 4293783551
44.157799 793.22382 1318.0216 4293781753
46.611008 793.22382 1318.0216 4294044926
49.06422 793.22382 1318.0216 4293979898
52.744034 793.22382 1318.0216 4293782009
36.798164 795.0993 1319.603 4294240767
40.477982 795.0993 1319.603 4294241535
44.157799 795.0993 1319.603 4293913851
46.611008 795.0993 1319.603 4293979644
49.06422 795.0993 1319.603 4293979131
52.744034 795.0993 1319.603 4293913083
-43.992661 803.31769 1319.9923 4285818752
4.8880734 803.31769 1319.9923 4287533227
7.3321099 803.31769 1319.9923 4287533227
41.548622 801.44922 1318.4169 4294176507
43.992661 801.44922 1318.4169 4293913851
46.436699 801.44922 1318.4169 4293782522
-51.132111 807.771 1317.207 4287594393
61.272476 757.61279 1322.0042 4294241790
62.293579 763.17078 1320.1503 4294570495
