# .PCD v0.7 - Point Cloud Data file format
VERSION 0.7
FIELDS x y z rgb
SIZE 4 4 4 4
TYPE F F F U
COUNT 1 1 1 1
WIDTH 830
HEIGHT 1
VIEWPOINT 0 0 0 1 0 0 0
POINTS 830
DATA ascii
28.029358 773.18658 1217.4128 4291942911
31.533028 773.18658 1217.4128 4292008447
22.259632 770.92236 1220.7358 4292402943
25.774311 770.92236 1220.7358 4292534271
28.117432 769.13098 1219.2253 4292205311
30.46055 769.13098 1219.2253 4292534015
23.357798 776.75806 1220.4242 4292008959
25.693579 775.86523 1219.6714 4292337407
28.029358 775.86523 1219.6714 4292206079
31.14373 776.16284 1219.9224 4292074239
23.522936 766.2937 1223.3732 4292468223
25.875229 766.2937 1223.3732 4292468223
18.744955 772.71368 1222.2462 4292600063
22.259632 772.71368 1222.2462 4292468223
32.803669 772.71368 1222.2462 4292205567
35.14679 772.71368 1222.2462 4292205567
37.48991 772.71368 1222.2462 4292271103
16.401834 774.505 1223.7566 4292795135
18.744955 774.505 1223.7566 4292337151
21.088074 774.505 1223.7566 4292139775
35.14679 774.505 1223.7566 4292271615
37.48991 774.505 1223.7566 4292205567
39.833027 774.505 1223.7566 4292337407
18.686239 778.54376 1221.9298 4292600319
22.189907 778.54376 1221.9298 4292073983
25.693579 778.54376 1221.9298 4292403199
28.029358 778.54376 1221.9298 4292008447
30.365137 778.54376 1221.9298 4291876607
37.372478 778.54376 1221.9298 4292337407
39.708256 778.54376 1221.9298 4292337407
18.686239 780.32947 1223.4355 4292731391
22.189907 780.32947 1223.4355 4292139519
25.693579 780.32947 1223.4355 4292139775
28.029358 780.32947 1223.4355 4291876607
31.533028 780.32947 1223.4355 4291942399
35.036697 780.32947 1223.4355 4292271359
37.372478 780.32947 1223.4355 4292206591
39.708256 780.32947 1223.4355 4292074751
23.614679 761.65106 1225.9988 4292534271
25.976147 761.65106 1225.9988 4292468479
28.337614 761.65106 1225.9988 4292402431
14.113762 769.89044 1226.4058 4292731391
16.466055 769.89044 1226.4058 4292665599
18.818348 768.0921 1224.8895 4292337407
14.058716 776.29633 1225.267 4287668223
16.401834 776.29633 1225.267 4291878911
32.803669 776.29633 1225.267 4291942399
35.14679 776.29633 1225.267 4292468735
11.715596 778.08765 1226.7775 4281818773
14.058716 778.08765 1226.7775 4286744788
16.401834 778.08765 1226.7775 4292468735
14.014679 782.11523 1224.9412 4286221003
16.350458 782.11523 1224.9412 4292011007
18.686239 782.11523 1224.9412 4292731391
22.189907 782.11523 1224.9412 4292139519
25.693579 782.11523 1224.9412 4291942655
28.029358 782.11523 1224.9412 4291942655
31.533028 782.11523 1224.9412 4292139775
35.036697 782.11523 1224.9412 4292205567
37.372478 782.11523 1224.9412 4292271615
22.189907 783.90094 1226.4469 4292139775
25.693579 783.90094 1226.4469 4291877119
28.029358 783.90094 1226.4469 4292008447
31.533028 783.90094 1226.4469 4291942399
35.036697 783.90094 1226.4469 4292337151
37.372478 783.90094 1226.4469 4292074751
37.225689 790.24652 1225.2572 4292139775
21.25321 763.45642 1227.521 4292271615
16.530275 765.26178 1229.0432 4292337151
10.585321 773.48712 1229.4385 4284644781
14.113762 771.68878 1227.9221 4291676671
10.544037 779.87903 1228.2878 4282604959
10.544037 781.67035 1229.7982 4283655844
14.058716 781.67035 1229.7982 4286944201
16.401834 781.67035 1229.7982 4292207615
18.744955 781.67035 1229.7982 4292533759
23.357798 785.68665 1227.9525 4292139775
25.693579 785.68665 1227.9525 4291942655
28.029358 785.68665 1227.9525 4291942655
31.533028 785.68665 1227.9525 4292073983
35.036697 785.68665 1227.9525 4292599807
37.372478 785.68665 1227.9525 4292139775
31.533028 787.47241 1229.4583 4292139775
35.036697 787.47241 1229.4583 4292139775
21.335779 758.8067 1230.1406 4292205567
18.965137 760.61908 1231.6687 4292271615
11.80734 767.06714 1230.5654 4293125631
11.80734 768.8725 1232.0876 4288523247
7.056881 775.28546 1230.9547 4285300405
9.409174 775.28546 1230.9547 4282805668
7.056881 777.08386 1232.4711 4285891000
10.934556 784.05878 1231.8121 4285035188
14.058716 784.3573 1232.0638 4288389338
16.401834 784.3573 1232.0638 4292600063
18.744955 784.3573 1232.0638 4292468479
21.869112 784.65582 1232.3156 4292271103
25.774311 785.25299 1232.8191 4292008447
28.117432 785.25299 1232.8191 4291481855
31.533028 789.25812 1230.9639 4292139775
35.036697 789.25812 1230.9639 4292008447
19.038532 755.9624 1234.2826 4292271615
11.899082 757.78174 1235.8167 4292138751
14.278899 757.78174 1235.8167 4291942399
16.658716 757.78174 1235.8167 4292271359
10.667891 763.33765 1233.9609 4292402428
14.223853 762.43146 1233.1969 4292271359
7.056881 778.8822 1233.9874 4285430199
7.056881 780.68054 1235.5037 4285167539
10.934556 788.23859 1235.3364 4286748362
14.058716 787.94 1235.0847 4291614454
16.401834 787.94 1235.0847 4292338175
18.744955 787.94 1235.0847 4292337151
22.259632 787.94 1235.0847 4292205311
25.774311 787.94 1235.0847 4292205311
28.117432 787.94 1235.0847 4292008191
31.632111 788.83569 1235.8398 4292271103
10.742202 753.68695 1237.5961 4291876351
14.322936 753.68695 1237.5961 4291678975
16.710093 753.68695 1237.5961 4292205311
7.1394496 760.51086 1238.1177 4291351538
9.5192661 759.6012 1237.3507 4292468479
7.1119266 767.86859 1237.7814 4283327399
9.4825687 766.05621 1236.2532 4284838839
4.7229357 774.28857 1236.6544 4286351551
7.056881 782.47888 1237.02 4284904886
9.409174 782.47888 1237.02 4284442537
7.056881 784.27722 1238.5364 4284377003
9.409174 784.27722 1238.5364 4283522209
14.058716 790.62701 1237.3502 4292994559
16.401834 790.62701 1237.3502 4292271103
18.744955 790.62701 1237.3502 4292008447
21.088074 790.62701 1237.3502 4292008447
25.774311 790.62701 1237.3502 4292600319
28.117432 790.62701 1237.3502 4292534271
31.632111 790.62701 1237.3502 4292402431
9.548624 755.51196 1239.1349 4292401919
0 757.33698 1240.6737 4282667904
7.1394496 763.23993 1240.4188 4283788466
0 765.05933 1241.9529 4282998154
4.7596331 765.05933 1241.9529 4283919536
0 769.68097 1239.3094 4282734983
4.7412844 769.68097 1239.3094 4285892543
-2.3706422 771.49335 1240.8376 4282932096
1.1853211 771.49335 1240.8376 4284117149
-2.3614678 777.89929 1239.6989 4282667904
0 778.802 1240.46 4282734214
4.7229357 778.802 1240.46 4286154693
4.704587 786.97473 1240.8108 4283984814
7.056881 786.97473 1240.8108 4282208147
10.585321 787.8739 1241.569 4286812877
23.522936 787.8739 1241.569 4292139775
-4.7926607 754.50665 1244.8274 4284115343
-2.3963304 754.50665 1244.8274 4283194241
2.3963304 754.50665 1244.8274 4285957554
4.7926607 754.50665 1244.8274 4287929309
0 760.07446 1242.9818 4282867080
4.774312 760.07446 1242.9818 4285234606
-4.7596331 766.87872 1243.4869 4283195786
-2.3798165 766.87872 1243.4869 4282932357
2.3798165 766.87872 1243.4869 4285498289
-2.3706422 773.30573 1242.3658 4282603135
0 773.30573 1242.3658 4282340225
4.7412844 773.30573 1242.3658 4285824701
-4.7412844 775.1181 1243.8939 4282536318
2.3706422 775.1181 1243.8939 4284971945
0 781.51001 1242.7433 4282997391
4.7229357 781.51001 1242.7433 4287074515
-2.3614678 783.31543 1244.2656 4283325305
1.1807339 783.31543 1244.2656 4283851413
11.761468 790.57141 1243.8435 4292730623
14.113762 790.57141 1243.8435 4292468479
16.466055 790.57141 1243.8435 4292205311
18.818348 790.57141 1243.8435 4292205567
22.34679 790.57141 1243.8435 4292073983
25.875229 790.57141 1243.8435 4292337407
28.227524 790.57141 1243.8435 4292205311
30.579817 790.57141 1243.8435 4292205311
-4.7926607 757.25464 1247.1444 4283918477
-2.3963304 757.25464 1247.1444 4283589256
2.3963304 757.25464 1247.1444 4284051612
-4.774312 762.81195 1245.29 4283524237
-2.387156 762.81195 1245.29 4283326602
2.387156 762.81195 1245.29 4284314014
-4.7596331 769.60779 1245.7881 4282997891
2.3798165 770.51752 1246.5551 4285103531
-4.7412844 776.93048 1245.4221 4282076269
-2.3706422 776.93048 1245.4221 4282668406
2.3706422 776.93048 1245.4221 4286746305
-7.1119266 778.74286 1246.9502 4281944688
-4.7412844 778.74286 1246.9502 4282536559
-2.3706422 778.74286 1246.9502 4282997110
2.3706422 778.74286 1246.9502 4286615750
-4.7229357 785.12079 1245.7878 4283785858
-2.3614678 785.12079 1245.7878 4283720065
1.1807339 785.12079 1245.7878 4283851662
0 786.92615 1247.3101 4283851914
4.7229357 786.92615 1247.3101 4282800256
7.0844035 786.92615 1247.3101 4284905888
9.4458714 786.92615 1247.3101 4289112265
-7.1889906 760.00269 1249.4614 4282998406
-10.742202 766.46198 1248.3677 4281023323
-7.161468 766.46198 1248.3677 4282998402
-14.322936 768.28693 1249.9064 4280626761
-10.742202 768.28693 1249.9064 4281680742
-7.161468 768.28693 1249.9064 4282734210
-7.1394496 774.15625 1249.6232 4282207607
-10.667891 781.46143 1249.2424 4282337644
-7.1119266 781.46143 1249.2424 4283194496
-4.7412844 780.55524 1248.4784 4283588477
0 788.73151 1248.8323 4283523983
4.7229357 788.73151 1248.8323 4282930551
7.0844035 788.73151 1248.8323 4288128198
9.4458714 788.73151 1248.8323 4291020022
-7.0844035 790.53687 1250.3545 4283391111
-4.7229357 790.53687 1250.3545 4283719561
-2.3614678 790.53687 1250.3545 4283719561
0 790.53687 1250.3545 4282407546
4.7229357 790.53687 1250.3545 4285561224
7.0844035 790.53687 1250.3545 4291482338
10.626606 790.53687 1250.3545 4292730367
14.168807 790.53687 1250.3545 4291614463
16.530275 790.53687 1250.3545 4291877631
18.891743 790.53687 1250.3545 4292140543
22.433945 790.53687 1250.3545 4291943423
25.976147 790.53687 1250.3545 4292009215
28.337614 790.53687 1250.3545 4291549439
30.699083 790.53687 1250.3545 4291746559
-9.6220188 755.35437 1252.0823 4282206058
-7.2165136 755.35437 1252.0823 4283785347
-12.027523 757.19342 1253.6329 4280824156
-9.6220188 757.19342 1253.6329 4280695651
-9.5853214 761.83472 1251.0061 4281024612
-7.1889906 761.83472 1251.0061 4282932609
-9.548624 770.11194 1251.4452 4282206842
-7.161468 770.11194 1251.4452 4282733186
-9.548624 771.93695 1252.984 4282141814
-9.5192661 775.97565 1251.1572 4282076017
-14.278899 777.79504 1252.6913 4280494157
-10.667891 785.08618 1252.2988 4282666863
-7.1119266 785.08618 1252.2988 4283523204
-4.7412844 785.08618 1252.2988 4283785872
-2.3706422 785.08618 1252.2988 4284246679
2.3706422 785.08618 1252.2988 4283457673
-10.626606 792.34222 1251.8767 4282139245
-7.0844035 793.24487 1252.6378 4283322492
-4.7229357 793.24487 1252.6378 4282076795
-2.3614678 793.24487 1252.6378 4281879416
0 793.24487 1252.6378 4282535527
7.0844035 792.34222 1251.8767 4293191423
10.626606 793.24487 1252.6378 4292270847
14.168807 793.24487 1252.6378 4291680511
16.530275 793.24487 1252.6378 4292075007
18.891743 793.24487 1252.6378 4292075007
22.433945 792.34222 1251.8767 4292075007
25.976147 793.24487 1252.6378 4292074751
28.337614 793.24487 1252.6378 4291942911
30.699083 792.34222 1251.8767 4292074751
-12.027523 759.03247 1255.1836 4281086551
-11.981651 767.33075 1255.6403 4281943654
-14.322936 773.76196 1254.5228 4280166993
-11.93578 773.76196 1254.5228 4281943404
-16.710093 775.58698 1256.0615 4281018957
-14.278899 779.61444 1254.2253 4280823374
-10.667891 787.80475 1254.5909 4282403183
2.3706422 787.80475 1254.5909 4282605182
-14.223853 789.61713 1256.1191 4281481057
2.3706422 789.61713 1256.1191 4284510864
4.7412844 789.61713 1256.1191 4288651712
-4.7229357 795.95294 1254.9213 4281220476
-2.3614678 796.85559 1255.6824 4284968857
0 796.85559 1255.6824 4288584887
-16.838531 764.54956 1259.8354 4280954960
-14.433027 764.54956 1259.8354 4280233036
-16.774311 770.99475 1258.7297 4280823374
-14.377981 769.16278 1257.1851 4280101452
-11.981651 769.16278 1257.1851 4281943656
-16.710093 777.41199 1257.6003 4280889169
-16.594496 791.42944 1257.6473 4281745507
-14.223853 791.42944 1257.6473 4281811553
-10.667891 791.42944 1257.6473 4282007395
2.3706422 791.42944 1257.6473 4289639625
4.7412844 791.42944 1257.6473 4291875832
7.1119266 791.42944 1257.6473 4292533759
22.521101 791.42944 1257.6473 4291877887
-18.965137 793.24188 1259.1754 4281219161
-16.594496 793.24188 1259.1754 4281745761
-14.223853 793.24188 1259.1754 4282139232
-10.667891 793.24188 1259.1754 4282138723
-7.1119266 793.24188 1259.1754 4282664815
2.3706422 793.24188 1259.1754 4292270062
4.7412844 793.24188 1259.1754 4293124351
7.1119266 793.24188 1259.1754 4292597759
10.667891 793.24188 1259.1754 4291810815
14.223853 793.24188 1259.1754 4291877119
16.594496 793.24188 1259.1754 4292206335
18.965137 793.24188 1259.1754 4292271615
22.521101 793.24188 1259.1754 4292205823
26.077065 793.24188 1259.1754 4292403199
0 799.56366 1257.9657 4292465403
-16.838531 766.38855 1261.3861 4280823374
-16.594496 795.0542 1260.7036 4282270820
-14.223853 795.96045 1261.4677 4282402916
-10.667891 795.96045 1261.4677 4282468965
-7.1119266 795.96045 1261.4677 4281876571
-4.7412844 795.96045 1261.4677 4282926935
-2.3706422 796.86664 1262.2317 4290229182
2.3706422 795.96045 1261.4677 4292991998
4.7412844 795.0542 1260.7036 4292533759
7.1119266 795.96045 1261.4677 4292073215
10.66789 795.96045 1261.4677 4292139775
14.223853 795.96045 1261.4677 4292008447
16.594496 795.0542 1260.7036 4292008959
18.965137 795.0542 1260.7036 4291942911
22.521101 795.0542 1260.7036 4291942655
-16.966972 754.35449 1264.3196 4280626767
-14.543119 754.35449 1264.3196 4280626252
-10.667891 798.67896 1263.7599 4282009953
-7.1119266 798.67896 1263.7599 4282999408
-4.7412844 799.58514 1264.5239 4289240249
-2.3706422 799.58514 1264.5239 4293056242
0.79021406 799.28302 1264.2692 4292861439
11.853211 798.67896 1263.7599 4292205823
-21.814678 758.98718 1268.2257 4281611089
-19.390825 758.98718 1268.2257 4281283925
-19.038532 794.16956 1266.4978 4281810269
-16.658716 794.16956 1266.4978 4282336613
4.7596331 794.16956 1266.4978 4292271103
16.658716 794.16956 1266.4978 4292139775
19.038532 794.16956 1266.4978 4291877119
21.418348 794.16956 1266.4978 4292140543
-16.658716 795.98895 1268.0319 4282599785
-14.278899 795.98895 1268.0319 4282927980
4.7596331 795.98895 1268.0319 4291942655
7.1394496 795.98895 1268.0319 4292008447
9.5192661 795.98895 1268.0319 4292271615
14.278899 795.98895 1268.0319 4292074751
16.658716 795.98895 1268.0319 4292008959
19.038532 795.98895 1268.0319 4291679743
-19.097248 793.83698 1271.4495 4281941855
-14.278899 797.80835 1269.5659 4283125875
-10.709174 797.80835 1269.5659 4282073956
-7.1394496 797.80835 1269.5659 4286285476
2.3798165 797.80835 1269.5659 4292401407
4.7596331 797.80835 1269.5659 4291942655
7.1394496 797.80835 1269.5659 4292008447
10.709174 797.80835 1269.5659 4292139775
14.278899 797.80835 1269.5659 4292205055
16.658716 797.80835 1269.5659 4292468223
-10.709174 799.62775 1271.1001 4282599776
-7.1394496 799.62775 1271.1001 4291215827
-4.7596331 799.62775 1271.1001 4292402175
-2.3798165 799.62775 1271.1001 4292402175
0 799.62775 1271.1001 4292270847
-16.710093 796.57446 1273.7577 4283189867
-14.322936 797.48694 1274.5271 4282404716
2.387156 797.48694 1274.5271 4292205055
4.774312 797.48694 1274.5271 4292139775
7.161468 797.48694 1274.5271 4292139775
10.742202 797.48694 1274.5271 4292139775
14.322936 797.48694 1274.5271 4292007423
-2.3798165 801.44714 1272.6342 4292532223
0 801.44714 1272.6342 4292139263
-22.765137 791.14691 1275.7214 4281876316
-19.170643 792.97894 1277.2662 4282663014
-14.322936 799.31195 1276.0659 4282468717
-10.742202 799.31195 1276.0659 4284769418
-7.161468 799.31195 1276.0659 4292794623
-4.774312 799.31195 1276.0659 4293124607
10.742202 799.31195 1276.0659 4292205567
14.322936 799.31195 1276.0659 4292402431
-14.322936 801.13696 1277.6047 4283059041
-10.742202 801.13696 1277.6047 4288979134
-4.774312 801.13696 1277.6047 4292467711
-2.387156 801.13696 1277.6047 4292073215
0 801.13696 1277.6047 4292335871
-19.170643 794.81097 1278.8109 4282729824
-19.170643 796.64294 1280.3556 4282797407
-16.774311 796.64294 1280.3556 4283126116
2.3963304 796.64294 1280.3556 4292270847
4.7926607 796.64294 1280.3556 4292139263
7.1889906 796.64294 1280.3556 4292205055
-24.055046 790.2959 1281.5442 4282139482
-21.649542 790.2959 1281.5442 4282139482
-25.257797 792.13495 1283.0947 4282073439
-21.649542 792.13495 1283.0947 4282336867
-16.774311 798.47498 1281.9003 4282665828
-14.377981 800.30701 1283.4451 4284175739
-10.783486 800.30701 1283.4451 4291018218
-7.1889906 799.39099 1282.6726 4293189375
-4.7926607 800.30701 1283.4451 4292534527
-2.3963304 800.30701 1283.4451 4292468479
1.1981652 799.39099 1282.6726 4292533759
7.1889906 798.47498 1281.9003 4292205055
11.182874 799.08563 1282.4152 4292140031
14.377981 798.47498 1281.9003 4292337407
-28.866055 793.974 1284.6454 4281942107
-25.257797 793.974 1284.6454 4282138977
-21.649542 793.974 1284.6454 4282336102
-25.257797 795.81299 1286.196 4282335331
-21.649542 795.81299 1286.196 4283059569
-19.244038 795.81299 1286.196 4282929257
4.8110094 795.81299 1286.196 4292073471
-14.377981 802.13904 1284.9897 4287333276
-10.783486 802.13904 1284.9897 4292269299
-2.3963304 802.13904 1284.9897 4292337919
0 802.13904 1284.9897 4292074751
-25.257797 797.65204 1287.7466 4282598248
-21.649542 797.65204 1287.7466 4283191411
-19.244038 797.65204 1287.7466 4282076269
-16.838531 797.65204 1287.7466 4281944940
2.4055047 797.65204 1287.7466 4292665855
4.8110094 797.65204 1287.7466 4292468479
7.2165136 797.65204 1287.7466 4292600063
9.6220188 797.65204 1287.7466 4292205567
-25.257797 799.49109 1289.2972 4282928496
-19.244038 799.49109 1289.2972 4282140765
-16.838531 799.49109 1289.2972 4283522418
-7.2165136 799.49109 1289.2972 4292534015
-4.8110094 799.49109 1289.2972 4292337919
7.2165136 799.49109 1289.2972 4292337919
9.6220188 799.49109 1289.2972 4292074751
-28.976147 794.99713 1292.0481 4282465635
-16.838531 802.24963 1291.6232 4288124847
-13.230275 802.24963 1291.6232 4291611120
-9.6220188 802.24963 1291.6232 4292402175
-7.2165136 802.24963 1291.6232 4292336639
-4.8110094 801.33008 1290.8479 4292403455
-2.4055047 802.24963 1291.6232 4292403711
0 802.24963 1291.6232 4291943423
-29.086239 790.48914 1294.7874 4282334817
-21.732111 796.8432 1293.6047 4282797164
2.4146788 796.8432 1293.6047 4292074751
4.8293576 796.8432 1293.6047 4292008959
-25.35413 798.68921 1295.1613 4283388530
-21.732111 798.68921 1295.1613 4282863463
-19.31743 798.68921 1295.1613 4282204264
2.4146788 798.68921 1295.1613 4292008959
4.8293576 798.68921 1295.1613 4292008447
7.2440367 798.68921 1295.1613 4292403199
-13.230275 805.00818 1293.9491 4292335359
-9.6220188 805.00818 1293.9491 4291942399
0.80183488 806.23419 1294.9829 4291811583
-31.653212 785.43329 1298.3726 4281677908
-29.086239 794.19525 1297.9122 4282467433
-25.35413 800.53528 1296.7178 4283192177
-21.732111 800.53528 1296.7178 4281943906
-19.31743 800.53528 1296.7178 4283848028
-4.8293576 800.53528 1296.7178 4291614719
2.4146788 800.53528 1296.7178 4291812095
4.8293576 800.53528 1296.7178 4291745023
7.2440367 800.53528 1296.7178 4292008447
-21.732111 802.38135 1298.2743 4283192174
-19.31743 802.38135 1298.2743 4286282122
-16.902752 802.38135 1298.2743 4291874526
-7.2440367 802.38135 1298.2743 4292008191
-4.8293576 802.38135 1298.2743 4291943167
-2.4146788 802.38135 1298.2743 4292337919
2.4146788 802.38135 1298.2743 4291942911
4.8293576 802.38135 1298.2743 4292008447
-9.6220188 808.68622 1297.0503 4291810815
-7.2165136 808.68622 1297.0503 4292139775
-4.8110094 808.68622 1297.0503 4292139519
-2.4055047 808.68622 1297.0503 4292468479
0 808.68622 1297.0503 4292139519
-34.216515 780.89581 1301.0868 4281086801
-31.653212 787.2948 1299.942 4282006871
-34.088074 789.15625 1301.5116 4281940313
-31.653212 789.15625 1301.5116 4282400864
-29.086239 796.97485 1300.2559 4282729577
-16.902752 805.15039 1300.6091 4292860405
-13.280734 805.15033 1300.6091 4292073215
-9.6587152 804.22736 1299.8308 4291745023
-7.2440367 804.22736 1299.8308 4292008191
-4.8293576 804.22736 1299.8308 4291943167
-2.4146788 804.22736 1299.8308 4292140543
-34.216515 782.76428 1302.6622 4281085515
-34.216515 784.63281 1304.2377 4281348685
-34.088074 791.0177 1303.0812 4282400862
-31.653212 791.0177 1303.0812 4282664033
-34.088074 792.87921 1304.6508 4282400864
-31.653212 792.87921 1304.6508 4282663779
-25.450459 799.75439 1302.5996 4283060080
-24.238533 801.60742 1304.162 4283256670
-21.814678 801.60742 1304.162 4286546320
-19.390825 801.60742 1304.162 4290031046
-12.878288 808.53485 1303.4628 4291679487
-9.6587152 808.84247 1303.7222 4291811071
-7.2440367 808.84247 1303.7222 4291876607
-4.8293576 808.84247 1303.7222 4291876095
-2.4146788 807.91943 1302.9438 4292270847
0 807.91943 1302.9438 4291942399
-36.660549 788.36975 1307.3887 4281940059
-34.088074 794.74066 1306.2202 4282336354
-31.653212 794.74066 1306.2202 4282533476
-34.088074 796.60217 1307.7898 4282796901
-31.653212 796.60217 1307.7898 4282994279
-29.218349 796.60217 1307.7898 4282993777
-21.814678 803.46051 1305.7245 4289110465
-19.390825 803.46051 1305.7245 4292005100
-16.966972 805.3136 1307.2869 4292072444
-39.104588 790.23828 1308.9641 4281742425
-36.660549 790.23828 1308.9641 4282269025
-39.104588 792.10675 1310.5396 4281547100
-36.660549 792.10675 1310.5396 4282138980
-41.392662 800.32507 1310.9288 4282205027
-38.957798 800.32507 1310.9288 4282204010
-34.088074 798.46362 1309.3594 4282797164
-31.653212 799.39435 1310.144 4283191667
-29.218349 799.39435 1310.144 4282863731
-25.971865 799.70459 1310.4056 4283191410
-16.966972 807.16663 1308.8494 4292071679
-13.331193 808.09314 1309.6306 4291679231
-9.6954126 809.01965 1310.4117 4291942655
-7.2715597 809.01965 1310.4117 4292008447
-40.326607 793.97522 1312.115 4281875550
-36.660549 793.97522 1312.115 4282599020
-40.326607 795.84375 1313.6904 4282139233
-36.660549 795.84375 1313.6904 4282796653
-41.392662 802.18652 1312.4984 4282402660
-38.957798 802.18652 1312.4984 4282336874
-34.088074 802.18652 1312.4984 4282930551
-31.653212 802.18652 1312.4984 4282864758
-29.218349 802.18652 1312.4984 4282274413
-25.566055 802.18652 1312.4984 4284375930
-21.913761 802.18652 1312.4984 4292135643
-19.478899 802.18652 1312.4984 4292796159
-9.6954126 811.79932 1312.7554 4291876863
-7.2715597 811.79932 1312.7554 4292074239
-11.981651 833.28326 1311.2498 4291942911
-43.992661 797.71222 1315.2659 4282007905
-36.660549 797.71222 1315.2659 4282730354
-34.216515 797.71222 1315.2659 4282994546
-43.992661 799.58069 1316.8413 4282336867
-36.660549 799.58069 1316.8413 4282929268
-29.218349 804.04803 1314.068 4282075515
-25.566055 804.04803 1314.068 4286218153
-21.913761 804.04803 1314.068 4292926204
-19.478899 804.97876 1314.8528 4292598527
-17.044037 805.90955 1315.6376 4291875327
-14.609175 805.90955 1315.6376 4291678975
-4.8697248 805.90955 1315.6376 4291811071
-2.4348624 805.90955 1315.6376 4291942655
-7.2715597 814.57886 1315.0991 4292074751
-12.119267 816.43188 1316.6616 4291942911
-9.6954126 816.43188 1316.6616 4291942911
-13.230275 829.83508 1314.8826 4292073983
-43.992661 802.38342 1319.2046 4282401893
-40.326603 802.38342 1319.2046 4282796909
-36.660549 802.38342 1319.2046 4283454841
-34.216515 802.38342 1319.2046 4282997111
-31.772476 802.38342 1319.2046 4282536560
-29.32844 803.31769 1319.9923 4283191381
-25.662384 803.31769 1319.9923 4289901513
-21.99633 803.31769 1319.9923 4292466684
-19.478899 807.771 1317.207 4291810303
-17.044037 808.70172 1317.9918 4292007935
-13.391743 808.70172 1317.9918 4291942655
-14.488073 826.37988 1318.5093 4292205311
-46.611008 798.85034 1322.7657 4282270820
-40.326607 805.18616 1321.5677 4283060079
-36.660549 805.18616 1321.5677 4283257717
-34.216515 805.18616 1321.5677 4282800246
-31.772476 805.18616 1321.5677 4282668660
-29.32844 805.18616 1321.5677 4283257969
-25.662384 805.18616 1321.5677 4291349484
-21.99633 805.18616 1321.5677 4292270077
-13.391743 811.4939 1320.3462 4291810815
-9.7394495 811.4939 1320.3462 4291943167
-17.044037 813.35541 1321.9156 4291678975
-14.609175 813.35541 1321.9156 4291482367
-12.119267 821.99109 1321.3489 4292468991
-9.6954126 821.99109 1321.3489 4292600063
-51.710091 794.36902 1325.5273 4281548630
-49.247707 794.36902 1325.5273 4281876316
-46.78532 794.36902 1325.5273 4282007903
-46.611008 800.72583 1324.3472 4282467935
-46.611008 802.60132 1325.9285 4282533980
-44.157799 802.60132 1325.9285 4282731110
-40.326607 807.98889 1323.9309 4283127155
-36.660549 807.98889 1323.9309 4282865010
-34.216515 807.98889 1323.9309 4282471035
-31.772476 807.98889 1323.9309 4285563306
-29.32844 807.98889 1323.9309 4288060861
-25.662384 807.98883 1323.9309 4292271097
-21.99633 807.98889 1323.9309 4292007423
-19.552294 807.98889 1323.9309 4291678975
-17.108257 808.9231 1324.7186 4291810303
-17.044037 817.07837 1325.0548 4291942399
-13.391743 817.07837 1325.0548 4291943679
-54.172478 796.25153 1327.1146 4281285208
-51.710091 796.25153 1327.1146 4281679966
-49.247707 796.25153 1327.1146 4282007905
-54.172478 798.13403 1328.7019 4281942107
-51.710091 798.13403 1328.7019 4282271072
-49.247707 798.13403 1328.7019 4282533728
-52.744034 804.47681 1327.5099 4282206817
-46.611008 804.47681 1327.5099 4282666346
-44.157799 804.47681 1327.5099 4282929007
-40.326607 811.72583 1327.0819 4283127158
-36.660549 811.72583 1327.0819 4282404203
-34.216515 811.72583 1327.0819 4284638604
-31.772476 811.72583 1327.0819 4290888939
-29.32844 811.72583 1327.0819 4292139260
-25.662384 811.72583 1327.0819 4292007678
-21.99633 811.72583 1327.0819 4291678719
-19.552294 811.72583 1327.0819 4291678975
-17.108257 812.6601 1327.8696 4292008191
-13.442202 812.6601 1327.8696 4291877119
-9.7761469 812.6601 1327.8696 4291942911
-17.044037 818.93982 1326.6244 4291942399
-14.609175 818.93982 1326.6244 4292139775
-21.913761 820.80127 1328.1938 4292073471
-19.478899 820.80127 1328.1938 4291745023
-17.044037 820.80127 1328.1938 4291942655
-59.317432 791.76318 1329.8702 4281285208
-55.610092 791.76318 1329.8702 4281351254
-61.78899 793.65271 1331.4635 4281678931
-59.317432 793.65271 1331.4635 4281351765
-56.845871 793.65271 1331.4635 4281154642
-55.403671 800.01654 1330.2892 4282073947
-51.710091 800.01654 1330.2892 4282337117
-49.247707 800.01654 1330.2892 4282665567
-56.634861 801.89905 1331.8765 4282007905
-49.247707 801.89905 1331.8765 4282468967
-52.744034 806.35229 1329.0912 4282402919
-49.06422 806.35229 1329.0912 4282731623
-46.611008 806.35229 1329.0912 4282863209
-44.157799 806.35229 1329.0912 4282994800
-46.611008 808.22784 1330.6726 4282994796
-44.157799 808.22784 1330.6726 4283191924
-29.32844 814.52856 1329.4451 4292139263
-25.662384 814.52856 1329.4451 4291678975
-21.99633 814.52856 1329.4451 4291745023
-19.552294 814.52856 1329.4451 4291810559
-9.7761469 814.52856 1329.4451 4292140799
-24.440367 816.39709 1331.0205 4291810303
-21.99633 816.39709 1331.0205 4292007679
-19.552294 816.39709 1331.0205 4291810559
-19.478899 824.52423 1331.333 4292205311
-17.044037 823.59351 1330.5482 4292271103
-61.78899 796.487 1333.8533 4281744726
-59.317432 796.487 1333.8533 4281876569
-56.845871 795.54224 1333.0566 4281876312
-56.634861 803.78162 1333.4637 4282205025
-46.611008 811.04108 1333.0447 4283191923
-44.157799 811.04108 1333.0447 4282798711
-40.477982 811.97882 1333.8353 4283062135
-36.798164 811.97882 1333.8353 4285365142
-34.344955 811.97882 1333.8353 4289241283
-31.891743 811.97882 1333.8353 4292859897
-24.440367 818.26556 1332.5959 4292073471
-24.440367 820.13403 1334.1714 4292205311
-21.99633 820.13403 1334.1714 4292271103
-19.552294 820.13403 1334.1714 4292205311
-19.478899 826.38568 1332.9026 4292271103
-62.06422 788.63611 1335.0818 4281678935
-61.78899 799.32129 1336.243 4281941855
-59.317432 799.32129 1336.243 4282007905
-61.78899 801.21082 1337.8363 4282138469
-59.317432 801.21082 1337.8363 4282205025
-55.403671 805.66412 1335.051 4282532454
-51.710091 805.66412 1335.051 4282730858
-49.247707 805.66412 1335.051 4282797416
-55.403671 807.54663 1336.6384 4282533733
-51.710091 807.54663 1336.6384 4282928486
-49.247707 807.54663 1336.6384 4282929007
-44.157799 813.85437 1335.4167 4282864254
-40.477982 814.79211 1336.2074 4284178308
-36.798164 813.85437 1335.4167 4288388815
-31.891743 813.85437 1335.4167 4292598271
-29.438532 814.79211 1336.2074 4291876095
-26.985321 813.85437 1335.4167 4291678204
-24.440367 822.00256 1335.7468 4292205311
-21.99633 822.00256 1335.7468 4292271103
-47.900917 760.34491 1338.696 4281349468
-50.42202 762.27234 1340.3212 4281676886
-59.317432 803.10034 1339.4294 4282531428
-55.403671 809.42914 1338.2256 4282927210
-51.710091 809.42914 1338.2256 4283191409
-49.247707 809.42914 1338.2256 4283191924
-51.710091 811.31165 1339.813 4283387505
-49.247707 811.31165 1339.813 4283257465
-46.78532 811.31165 1339.813 4283125879
-34.473396 811.31165 1339.813 4290756071
-50.6422 757.14215 1343.8438 4281349468
-55.464222 764.19971 1341.9463 4281479762
-52.943119 764.19971 1341.9463 4281611091
-50.42202 764.19971 1341.9463 4281349968
-59.317432 805.93463 1341.8193 4282466662
-51.710091 813.19415 1341.4003 4283584631
-46.78532 815.07666 1342.9875 4283719811
-44.322937 814.13538 1342.1938 4283521646
-40.629356 815.07666 1342.9875 4286348702
-36.93578 814.13538 1342.1938 4291742191
-34.473396 814.13538 1342.1938 4292467199
-32.011009 814.13538 1342.1938 4292072702
-27.907034 814.44916 1342.4585 4291745279
-22.078899 821.35632 1341.7422 4292271103
-62.06422 800.0238 1344.6836 4282007905
-67.029358 801.92175 1346.2839 4282007905
-64.546791 801.92175 1346.2839 4282007901
-62.06422 801.92175 1346.2839 4282205279
-55.610092 808.76892 1344.2091 4283189615
-66.732109 810.65845 1345.8022 4282206310
-54.374313 810.65845 1345.8022 4283255667
-49.431194 810.65845 1345.8022 4283257465
-46.959633 810.65845 1345.8022 4283455101
-46.78532 816.95923 1344.5748 4283588728
-44.322937 817.90045 1345.3684 4284967809
-41.039753 817.58673 1345.1039 4289638347
-36.93578 816.95923 1344.5748 4292728829
-32.011009 816.95923 1344.5748 4291875580
-27.907034 817.58673 1345.1039 4291876861
-24.623854 818.84167 1346.1621 4292205055
-58.449543 756.41602 1349.7716 4281479762
-55.908257 756.41602 1349.7716 4281674835
-53.366974 756.41602 1349.7716 4281740629
-67.029358 803.8197 1347.8842 4281811807
-64.546791 803.8197 1347.8842 4282205279
-62.06422 803.8197 1347.8842 4282271072
-67.029358 805.71765 1349.4845 4281877600
-64.546791 805.71765 1349.4845 4282271070
-62.06422 805.71765 1349.4845 4282336863
-59.58165 805.71765 1349.4845 4282728809
-69.203667 812.54797 1347.3955 4282337126
-66.732109 812.54797 1347.3955 4282468969
-64.260551 812.54797 1347.3955 4282731110
-54.374313 812.54797 1347.3955 4283256952
-51.902752 812.54797 1347.3955 4283388281
-49.431194 812.54797 1347.3955 4283325309
-69.203667 814.4375 1348.9886 4282730858
-64.260551 814.4375 1348.9886 4282927980
-55.610092 814.4375 1348.9886 4283388533
-51.902752 814.4375 1348.9886 4283849086
-49.431194 814.4375 1348.9886 4283588728
-34.601833 814.4375 1348.9886 4292139007
-60.990826 758.35883 1351.4097 4281413969
-64.546791 807.6156 1351.0848 4282533476
-62.06422 808.56458 1351.885 4282730855
-58.34037 808.56458 1351.885 4283124587
-55.610092 817.27179 1351.3784 4283586681
-51.902752 817.27179 1351.3784 4283916415
-49.431194 817.27179 1351.3784 4283786362
-46.959633 817.27179 1351.3784 4284707464
-43.252296 818.21655 1352.175 4290294986
-39.544952 817.27179 1351.3784 4292335868
-37.073395 817.27179 1351.3784 4292467199
-34.601833 817.27179 1351.3784 4292073981
-32.130276 817.27179 1351.3784 4292271103
-28.834862 817.58673 1351.6439 4292205310
-24.715597 818.21655 1352.175 4292205311
-70.025688 794.89624 1353.4406 4282007905
-65.023849 794.89624 1353.4406 4281941855
-62.06422 811.4115 1354.2854 4283125616
-59.58165 811.4115 1354.2854 4283191409
-67.029358 813.30945 1355.8857 4282994029
-64.546791 813.30945 1355.8857 4282993775
-62.06422 813.30945 1355.8857 4283191411
-59.58165 813.30945 1355.8857 4283191159
-64.260551 821.05084 1354.5649 4283520377
-61.78899 821.05084 1354.5649 4283717500
-59.317432 821.05084 1354.5649 4283915646
-56.022018 820.7359 1354.2994 4284113790
-51.902752 821.05084 1354.5649 4284247164
-49.431194 821.05084 1354.5649 4286216090
-46.959633 820.10608 1353.7683 4288125377
-43.252296 821.05084 1354.5648 4291875310
-39.544952 821.05084 1354.5649 4292205311
-37.073395 821.05084 1354.5649 4292007935
-34.601833 821.05084 1354.5649 4292008191
-66.359634 755.17285 1356.5718 4281676634
-63.807339 755.17285 1356.5718 4281413463
-66.359634 757.12415 1358.2169 4281283673
-63.807339 757.12415 1358.2169 4281217880
-67.029358 815.2074 1357.486 4282928753
-64.546791 815.2074 1357.486 4283518838
-62.06422 815.2074 1357.486 4283518838
-59.58165 815.2074 1357.486 4283584883
-64.260551 823.88513 1356.9547 4284047231
-61.78899 823.88513 1356.9547 4284507782
-59.317432 823.88513 1356.9547 4284311954
-51.902752 823.88513 1356.9547 4286086814
-42.016514 823.88513 1356.9547 4292270077
-39.544952 823.88513 1356.9547 4292007679
-37.073395 823.88513 1356.9547 4292270847
-34.601833 823.88513 1356.9547 4292271359
-32.130276 823.88513 1356.9547 4292271359
-61.78899 825.77466 1358.5479 4283915898
-59.317432 825.77466 1358.5479 4284573827
-56.845871 825.77466 1358.5479 4285231757
-32.273396 817.10535 1359.0863 4292140031
-29.790825 817.10535 1359.0863 4292271359
-54.616512 819.0033 1360.6866 4284246909
-47.168808 819.0033 1360.6866 4291214555
-32.273396 819.0033 1360.6866 4292271103
-61.78899 827.66418 1360.1411 4284772755
-59.317432 827.66418 1360.1411 4285558683
-64.260551 829.55371 1361.7343 4287990446
-61.78899 829.55371 1361.7343 4289701321
-59.317432 829.55371 1361.7343 4290885592
-57.099083 820.90125 1362.2869 4284245905
-54.616512 820.90125 1362.2869 4284639368
-49.651375 820.90125 1362.2869 4288978124
-47.168808 820.90125 1362.2869 4292465151
-44.686237 820.90125 1362.2869 4292401663
-54.616512 822.79913 1363.8872 4287990185
-52.133945 822.79913 1363.8872 4290556111
-49.651375 822.79913 1363.8872 4292201970
-47.168808 822.79913 1363.8872 4292530935
-43.444954 822.79913 1363.8872 4292073214
-39.7211 822.79913 1363.8872 4291876607
-37.238533 822.79913 1363.8872 4292205567
-34.755962 822.79913 1363.8872 4292402687
-57.099083 824.69708 1365.4874 4288059073
-54.616512 824.69708 1365.4874 4290426588
-52.133945 824.69708 1365.4874 4292466171
-49.651375 824.69708 1365.4874 4292401151
-47.168808 824.69708 1365.4874 4292335103
-43.444954 824.69708 1365.4874 4292073471
-39.7211 824.69708 1365.4874 4291876607
-57.099083 826.59503 1367.0878 4292135659
-43.444954 826.59503 1367.0878 4292073727
-37.376148 822.22449 1369.9427 4292271359
-54.818348 824.12946 1371.549 4292204017
-52.326607 824.12946 1371.549 4292138224
-49.834862 824.12946 1371.549 4292007167
-47.343121 824.12946 1371.549 4292007167
-39.867889 824.12946 1371.549 4291811071
-49.834862 826.03442 1373.1553 4292402175
-47.343121 826.03442 1373.1553 4292402175
