# .PCD v0.7 - Point Cloud Data file format
VERSION 0.7
FIELDS x y z rgb
SIZE 4 4 4 4
TYPE F F F U
COUNT 1 1 1 1
WIDTH 947
HEIGHT 1
VIEWPOINT 0 0 0 1 0 0 0
POINTS 947
DATA ascii
10.566973 779.72351 716.71704 4282748368
13.51682 782.16211 716.15704 4292273919
10.590826 779.35736 719.02429 4283198138
16.293577 779.35736 719.02429 4292667391
21.181652 779.35736 719.02429 4292864767
18.843121 775.33472 722.17273 4292798719
10.626606 778.19366 721.96716 4283192724
13.89633 778.19366 721.96716 4291945727
16.348623 778.19366 721.96716 4293324799
21.25321 778.19366 721.96716 4292930047
25.340366 778.19366 721.96716 4292600575
22.811008 781.22583 720.59973 4292601343
22.811008 783.09436 722.17529 4292469759
26.363302 771.31207 725.32104 4292600319
28.834862 771.31207 725.32104 4292600319
31.306421 771.31207 725.32104 4293521407
18.843121 776.5874 723.22888 4293061631
29.559633 774.98114 724.4906 4292995071
31.951376 776.5874 723.22888 4293850879
8.1926603 777.84009 724.28516 4279175501
10.644037 778.86731 724.49719 4282796926
13.633639 779.32666 723.79443 4290630655
17.166054 779.44354 723.021 4293127423
19.618349 779.44354 723.021 4293061631
21.25321 779.44354 723.021 4292930047
25.340366 779.44354 723.021 4292535295
28.674313 777.84009 724.28516 4292667135
32.224464 778.25763 724.63721 4293982719
34.409176 777.84009 724.28516 4294574079
14.168807 781.52661 724.77753 4291813631
17.166054 781.3183 724.60187 4293193215
19.618349 781.3183 724.60187 4293325311
21.25321 780.69336 724.07495 4293325055
25.067888 781.11005 724.42627 4292404223
28.610092 781.3183 724.60187 4292666367
31.60734 781.52661 724.77753 4294114047
16.293577 785.58569 724.27588 4294114047
21.99633 784.96283 723.75073 4292733183
25.526606 785.17047 723.92578 4292666367
27.699083 785.58569 724.27588 4292534527
17.108257 786.8313 725.32617 4293588223
19.552294 786.8313 725.32617 4292864767
21.99633 786.8313 725.32617 4292930303
25.255047 786.8313 725.32617 4292732415
27.699083 786.8313 725.32617 4292600319
19.508257 789.66638 725.10059 4293061631
21.946789 789.66638 725.10059 4292995839
17.842201 793.7359 725.91577 4293588223
19.46422 793.7359 725.91577 4293391103
21.897247 793.7359 725.91577 4292930815
28.011009 772.57178 726.38318 4293060863
4.9266057 777.49207 726.60779 4283913823
7.3899078 777.49207 726.60779 4280297297
34.48624 777.49207 726.60779 4294443007
36.675842 778.3291 727.31348 4294311679
8.211009 780.00305 728.72498 4278191423
10.650459 781.59808 727.4538 4282009988
34.409176 781.59808 727.4538 4294508543
36.622017 781.48389 728.22968 4294443007
39.412846 780.00305 728.72498 4294443007
11.444036 785.69287 728.29028 4284453067
13.732843 784.19299 727.0257 4290827007
17.983486 783.19312 726.18262 4293127167
19.618349 783.19312 726.18262 4293061631
29.427523 783.81805 726.70953 4292863743
32.043301 784.19299 727.02563 4294442495
35.149544 785.69287 728.29028 4294705151
14.66422 788.07703 726.37646 4293327103
17.108257 788.07703 726.37646 4293521919
25.255047 788.07703 726.37646 4292600831
28.513762 788.07703 726.37646 4292732671
30.957798 788.07703 726.37646 4294245887
13.849541 789.94543 727.9519 4290695423
17.069725 790.90918 726.14856 4293785087
19.508257 790.90918 726.14856 4293587711
21.946789 790.90918 726.14856 4293061375
25.198166 790.90918 726.14856 4292666623
28.482569 790.11591 726.78766 4292732159
31.500916 790.15308 728.12695 4294311167
14.631192 792.7735 727.7204 4292081151
16.785322 793.50763 727.46747 4293786367
19.46422 794.97595 726.96143 4293062399
21.897247 794.97595 726.96143 4293128191
25.169725 793.56409 727.07892 4292601599
28.417431 793.56403 727.07886 4292469247
31.700916 793.3949 728.24438 4294376703
17.031193 796.216 728.00696 4293655039
19.46422 796.216 728.00696 4293325055
21.897247 796.216 728.00696 4292996351
25.141285 796.216 728.00696 4292865023
28.385323 796.216 728.00696 4292601599
30.818348 796.216 728.00696 4293851647
21.822937 801.05493 728.16296 4293061375
4.9541283 776.01544 731.90283 4282469500
7.4146786 776.35083 729.56958 4280561249
40.70459 775.70636 730.77026 4294443007
42.93578 775.38416 731.37061 4294377471
6.5908256 778.24036 731.16278 4282665859
39.544952 778.87018 731.69385 4294574079
7.3899078 781.88623 730.31287 4281348972
37.770641 781.25848 729.78357 4294377471
39.412846 782.51398 730.84216 4294639615
4.1055045 783.76947 731.90076 4280236881
7.6464829 784.93848 730.27032 4280429926
9.831193 784.72974 730.09436 4278660195
37.686237 784.72974 730.09436 4294574079
39.412846 783.76947 731.90076 4294574079
4.9155965 786.60876 731.67871 4283256682
7.3733945 786.60876 731.67871 4282599285
10.899082 787.77594 730.04669 4282874802
13.078899 786.94275 729.34412 4290036479
32.697247 786.94275 729.34412 4294180351
35.149544 787.56769 729.87109 4294639615
37.686237 786.60876 731.67871 4294770687
8.1743116 789.44244 731.4519 4282008959
10.626606 789.44244 731.4519 4279849616
13.034863 791.81396 729.52734 4284189175
35.031193 791.81396 729.52734 4294377471
37.601833 789.44244 731.4519 4294639615
10.590826 793.6825 731.10284 4279250536
13.818348 794.63776 729.29236 4282880493
32.51376 794.63776 729.29236 4294508543
34.952293 794.63776 729.29236 4294705151
37.475231 793.05963 730.57764 4294967295
39.919266 793.6825 731.10284 4294967295
42.363304 794.3053 731.62805 4294901759
13.818348 796.50208 730.86426 4283850147
17.049541 796.66833 729.69641 4292538879
19.46422 797.45605 729.05249 4293653503
21.897247 797.45605 729.05249 4293127167
25.141285 797.45605 729.05249 4293127423
28.385323 797.45605 729.05249 4292470527
31.629358 797.45605 729.05249 4294245887
34.911926 796.66833 729.69641 4294967295
37.390827 796.50208 730.86426 4294967295
39.829357 796.50208 730.86426 4294967295
42.267891 797.12347 731.38818 4294967295
14.598166 799.93616 731.14368 4291554556
17.031193 799.31616 730.62085 4293327103
19.46422 799.31616 730.62091 4293259519
25.141285 799.31616 730.62085 4293061375
28.114985 799.10944 730.44659 4292930303
31.629358 799.31616 730.62085 4294443007
34.873394 799.31616 730.62085 4294967295
38.387768 799.52277 730.79517 4294967295
19.398165 803.52661 730.24707 4293258751
21.822937 802.90869 729.72601 4292732927
25.055964 803.52661 730.24707 4292666623
28.558411 803.11469 729.89972 4292930815
30.713762 803.52661 730.24707 4294049791
19.398165 804.76245 731.28906 4292602111
21.822937 804.76245 731.28906 4292930559
25.055964 804.76245 731.28906 4293259007
28.28899 804.76245 731.28906 4292799231
31.522018 804.76245 731.28906 4294442751
0.83027524 770.75842 734.01038 4278326390
3.321101 770.75842 734.01038 4278197564
4.9651375 773.15515 732.10718 4281357427
0.82752293 775.68573 734.24097 4280298831
3.3100917 775.0531 733.70752 4280231508
4.1284404 777.90918 733.49963 4282007399
41.284405 777.90918 733.49963 4294967295
4.943119 780.12988 732.75598 4282796912
41.192661 782.64923 734.88025 4294574079
3.2844036 785.0249 732.95935 4280625218
39.412846 785.0249 732.95935 4294639615
1.6422018 786.2804 734.01794 4283979667
4.0963306 787.86145 732.73486 4284767862
6.5541286 787.86145 732.73486 4285759160
40.144035 787.86145 732.73486 4294770687
0.81926608 789.74048 734.31921 4282863755
4.0889912 790.92273 733.354 4282868879
7.3568811 791.31726 733.03271 4284310453
40.871559 790.69232 732.50574 4294967295
42.50642 790.69232 732.50574 4294967295
4.0871563 793.19208 734.6134 4282801055
7.3568807 793.19208 734.6134 4283521959
8.1467886 796.79657 733.72864 4284047040
10.319266 795.96613 733.0285 4280103282
42.363304 796.79657 733.72864 4294967295
-1.6293578 798.04224 734.77893 4280956507
0 798.04224 734.77893 4280563561
8.1467886 798.04224 734.77893 4284838339
10.566973 799.60913 733.48413 4281613452
13.005505 798.36633 732.43616 4278193694
40.6422 798.98779 732.96014 4294967295
42.363304 798.04224 734.77893 4294967295
10.813457 803.24292 733.93188 4285889992
13.624954 802.16821 733.0257 4288851434
17.031193 801.7962 732.71204 4294376191
32.440369 801.17615 732.18921 4294967295
34.873394 801.79614 732.71204 4294967295
38.117432 801.79614 732.71204 4294967295
40.550457 803.03625 733.75763 4294967295
42.172478 803.65625 734.2804 4294967295
14.548624 805.99829 732.33105 4294310655
16.973394 805.99829 732.33105 4293587711
19.398165 805.99829 732.33105 4292797951
21.822937 805.99829 732.33105 4293061119
25.055964 805.99829 732.33105 4293456127
28.28899 805.99829 732.33105 4293258751
31.522018 805.99829 732.33105 4294573823
34.755043 805.99829 732.33105 4294967295
37.988075 805.99829 732.33105 4294967295
14.009786 808.05804 734.06781 4287478508
16.973394 807.85205 733.89404 4293324799
19.398165 807.85205 733.8941 4293127167
21.553518 807.64606 733.7204 4293456127
25.02844 808.01343 732.72211 4293785343
28.288992 807.85205 733.89404 4293193214
31.522018 807.85205 733.89404 4294376959
33.946789 807.85205 733.8941 4294967295
17.741285 811.25879 734.15051 4292017407
19.354128 811.25879 734.15051 4293786111
22.579817 810.64227 733.63068 4294376959
24.730276 810.43677 733.45734 4294114303
0.83027524 772.02789 735.08081 4279049794
0.82752293 776.95105 735.30774 4280037974
41.284405 779.80292 735.09631 4294639615
0.81926608 791.61945 735.90356 4280761724
0.81743121 794.44189 735.66724 4281286521
4.0871563 794.44189 735.66724 4282405263
6.5394497 794.44189 735.66724 4283520696
1.6348624 796.94165 737.77502 4281812861
4.0871558 796.31671 737.24805 4281881226
6.5394497 796.31671 737.24811 4283391917
-1.6293578 799.2879 735.82922 4281153370
0 799.91077 736.35437 4280892014
4.0733948 800.53357 736.87952 4282209415
7.3321099 799.91077 736.35437 4283721645
43.177982 799.2879 735.82922 4294967295
-3.2587156 801.77924 737.92981 4280756825
-1.6293578 801.77924 737.92981 4281415011
0 801.77924 737.92981 4281941619
4.0733948 801.77924 737.92981 4281881220
7.586544 802.92352 736.27863 4283656620
43.893578 802.71631 736.10394 4294967295
-3.2513762 804.58057 737.6759 4280625244
7.3155961 804.58057 737.6759 4283655846
10.543119 805.5163 735.84875 4282870196
12.976147 804.8963 735.32593 4284907254
35.684402 805.51636 735.84875 4294967295
38.117432 805.5163 735.84875 4294967295
40.550457 805.51636 735.84875 4294967295
42.777985 804.68579 736.89258 4294967295
10.523853 808.54114 736.43713 4283394993
13.740367 809.70581 735.45715 4284521696
16.165138 809.70581 735.45715 4289977599
21.014679 809.70581 735.45715 4294311935
25.86422 809.70581 735.45715 4293719551
28.28899 809.70581 735.45715 4293456383
31.522018 809.70581 735.45715 4294901759
34.873394 807.3764 737.41711 4294967295
37.306423 807.3764 737.41711 4294967295
11.315597 811.55957 737.0202 4283723438
13.740367 811.55957 737.0202 4284650206
16.973394 811.55957 737.02014 4291879679
19.398165 811.55957 737.0202 4293786623
21.822937 811.55957 737.0202 4293982719
25.055965 811.55957 737.0202 4294047999
28.288992 811.55957 737.02014 4293521919
31.2526 811.35358 736.8465 4294770687
1.6385322 794.12482 738.01599 4281747836
1.6348624 799.44141 739.88263 4281942646
-1.6293578 803.0249 738.9801 4281348966
0 803.0249 738.9801 4281941617
4.0733948 803.0249 738.9801 4282274182
7.3155961 805.82343 738.72388 4283852457
39.829357 805.82343 738.72388 4294967295
42.363304 804.27051 740.0304 4294967295
7.3064222 808.4621 739.64062 4283721390
9.73211 809.23645 738.98547 4283789487
32.440369 809.85651 739.5083 4294967295
34.873394 809.23651 738.98547 4294967295
37.348625 808.46277 739.64117 4294967295
39.829357 807.68768 740.29578 4294967295
10.543119 811.09656 740.55383 4284380587
12.976147 811.09656 740.55383 4283527356
19.46422 811.09656 740.55383 4289313023
21.897247 811.09656 740.55383 4288196095
25.141285 811.09656 740.55383 4290827007
28.385323 811.09656 740.55383 4293851391
31.629358 811.09656 740.55383 4294836223
34.062386 811.09656 740.55383 4294967295
14.548624 813.41333 738.58325 4287014385
16.973394 813.41333 738.58325 4289248253
44.488075 790.20734 741.25305 4294967295
46.13578 791.46704 742.31519 4294967295
-3.2697248 802.56604 742.5174 4280887136
-1.6348624 802.56604 742.5174 4281676395
0.81743121 802.56604 742.5174 4281940854
4.0871563 802.56604 742.5174 4282076286
4.8880734 806.76184 742.1311 4282799754
42.906422 805.9314 741.43091 4294967295
-1.6293578 808.00751 743.1814 4281283425
4.8880734 808.00751 743.1814 4282801302
7.3229356 808.77979 742.52454 4284248244
35.765137 809.552 741.86768 4294967295
37.390827 809.552 741.86768 4294967295
39.919266 808.00751 743.1814 4294967295
42.363304 808.00751 743.1814 4294967295
8.1284399 810.79486 742.91553 4284512952
10.822018 812.237 742.38739 4284116913
13.787156 812.33661 741.59937 4285694932
17.314985 812.237 742.38739 4280233598
19.486238 812.18713 742.78143 4278190176
21.642813 812.237 742.38739 4278190179
25.141285 812.33661 741.59937 4289510143
28.677675 812.237 742.38739 4294377471
31.665138 812.18713 742.78137 4294901759
34.655659 811.72308 742.82617 4294967295
13.787156 813.57666 742.64502 4286089686
16.220184 813.57666 742.64502 4286089939
22.708258 813.57666 742.64502 4278190142
25.141285 813.57666 742.64502 4290035698
27.574312 813.57666 742.64502 4294508543
-3.2697248 805.69073 745.15204 4280888925
-1.6348624 804.44086 744.09814 4281152868
0.98091745 805.4408 744.94122 4281680502
3.2697248 805.69073 745.15204 4281420418
42.50642 806.94055 746.20581 4294967295
-1.6293578 809.25317 744.23169 4281349218
4.8880734 809.25317 744.23169 4282475935
6.5174313 809.25317 744.23169 4283855278
37.475231 809.25317 744.23169 4294967295
39.919266 809.25317 744.23169 4294967295
8.1467886 810.49884 745.28198 4285102259
10.319266 811.32928 745.98218 4284642235
17.922935 811.74451 746.33228 4278258776
19.552294 811.74451 746.33228 4278190147
35.845871 811.1217 745.80713 4294967295
37.475231 811.1217 745.80713 4294967295
13.818348 813.28058 745.01147 4286615768
16.25688 813.28058 745.01147 4287272160
21.946789 813.28058 745.01147 4278190138
25.198166 813.28058 745.01147 4291152634
28.449541 813.28058 745.01147 4294967295
31.700916 813.28058 745.01147 4294901759
34.13945 813.28058 745.01147 4294967295
1.6385322 806.65149 748.57825 4281681529
42.601833 806.65149 748.57825 4294967295
4.0889912 808.43134 748.11682 4282209682
7.084404 809.02368 747.96222 4284904114
40.054131 808.81543 747.78662 4294967295
42.601833 807.90417 749.6344 4294901759
10.626606 810.69019 749.36743 4284577466
13.89633 810.69019 749.36743 4287073753
17.166054 810.69019 749.36743 4283322005
19.618349 810.69019 749.36743 4278190157
21.99633 812.99011 747.38257 4278190145
25.255047 812.99011 747.38257 4291613183
28.513762 812.99011 747.38257 4294836223
31.772476 812.99011 747.38257 4294967295
35.031193 812.99011 747.38257 4294967295
37.601833 810.69019 749.36743 4294967295
40.054131 810.69019 749.36743 4294967295
22.811008 814.23578 748.43286 4278190137
24.983488 814.65106 748.78296 4290823670
28.513762 814.23578 748.43286 4294901759
31.772476 814.23578 748.43286 4294967295
34.216515 814.23578 748.43286 4294967295
4.0963306 809.15686 750.69067 4282209432
7.3733945 809.15686 750.69067 4285168054
42.601833 809.15686 750.69067 4294967295
1.6385322 811.66223 752.8031 4281025142
4.0963306 811.03589 752.27502 4282736282
7.373395 811.03589 752.27502 4284971457
10.650459 811.03589 752.27496 4284248251
13.89633 811.94006 750.42126 4286417108
17.166054 811.94006 750.42126 4282600596
19.618349 811.94006 750.42126 4278190903
21.25321 811.94006 750.42126 4278190122
35.966972 811.94006 750.42126 4294967295
37.601833 811.94006 750.42126 4294967295
40.122017 811.41846 751.9436 4294967295
13.89633 813.18994 751.4751 4286482131
17.166054 813.18994 751.4751 4282926995
19.618349 813.81482 752.00201 4278193723
22.070642 813.81482 752.00195 4278190118
25.612844 814.02313 752.17767 4292731641
28.610092 813.81482 752.00195 4294770687
31.879816 813.81482 752.00195 4294901759
35.14954 813.81482 752.00201 4294967295
37.601833 813.18994 751.4751 4294967295
42.697247 808.87903 753.07239 4294967295
4.0963306 812.91486 753.85925 4282475404
7.3825688 812.1524 754.52441 4284971208
10.650459 812.91486 753.85925 4284642239
13.927523 812.91486 753.85925 4286220244
16.385321 812.91486 753.85925 4284971974
18.023853 812.91486 753.85925 4278192983
37.686237 812.91486 753.85925 4294967295
40.144035 812.91486 753.85925 4294836223
11.469725 814.16754 754.91553 4284576448
14.200612 814.58514 755.26758 4286877148
16.385321 814.79388 755.44366 4285626554
18.843121 814.79388 755.4436 4278190913
22.107338 815.17438 755.11047 4278190123
25.383486 815.17438 755.11047 4292468474
28.674313 814.79388 755.4436 4294770687
31.951378 814.79388 755.4436 4294967295
34.409176 814.79388 755.44366 4294967295
36.593884 814.58514 755.26758 4294901759
39.324772 814.16754 754.91553 4294836223
0.82385319 810.3623 758.24719 4280957558
4.1110091 811.50391 757.24768 4283459711
7.3899078 812.64545 756.24817 4285035719
9.8532114 812.64545 756.24817 4284642241
6.5688071 813.90088 757.30676 4286743536
10.948013 814.31934 757.65967 4284116159
13.685016 814.73785 758.01251 4286152655
16.422018 815.15637 758.36536 4287663770
18.885323 815.15637 758.36536 4278190624
22.169724 815.15637 758.36536 4278190131
25.454128 815.15637 758.36536 4292534527
28.738533 815.15637 758.36536 4294704895
31.201836 815.15637 758.36536 4294967295
34.48624 815.15637 758.36536 4294967295
36.949539 814.52863 757.83606 4294901759
39.412846 813.90088 757.30676 4294967295
32.770641 816.67285 757.02795 4294836223
0.82568806 810.73395 761.17664 4280893042
4.1238532 811.49359 760.50916 4286085844
7.6954131 811.9563 760.4632 4285361381
9.8862381 812.88165 760.37146 4283129268
37.897247 812.88165 760.37146 4294967295
40.41468 812.12341 761.04016 4294836223
11.533945 814.14136 761.43359 4283853241
14.005505 814.14136 761.43359 4286942684
16.477064 814.14136 761.43359 4289375211
18.948624 814.14136 761.43359 4278519362
22.244038 814.14136 761.43359 4278190135
25.53945 814.14136 761.43359 4292797183
28.834862 814.14136 761.43359 4294639615
32.954128 814.14136 761.43359 4294705151
37.073395 814.14136 761.43359 4294967295
31.201836 816.41187 759.42395 4294705151
34.48624 816.41187 759.42395 4294967295
0.82752293 811.11401 764.11316 4279903317
4.1376147 811.11401 764.11316 4283918798
7.4311924 812.62769 762.77332 4286283766
9.9082565 812.62769 762.77332 4283260848
40.504585 811.87085 763.44324 4294574079
10.733945 813.89014 763.83789 4283787698
14.036697 814.52136 764.37012 4287863005
16.495413 815.27686 763.69904 4291478015
18.980734 814.89911 764.03455 4278847049
22.293579 814.52136 764.37012 4278190140
25.596329 814.52136 764.37012 4292928511
28.899082 814.52136 764.37012 4294573567
31.376146 814.52136 764.37012 4294508031
33.85321 814.52136 764.37012 4294770687
37.155964 813.89014 763.83789 4294901759
0.82752293 812.37933 765.18005 4279903058
4.1376147 812.37933 765.18005 4284442016
7.4477062 812.37933 765.18005 4287925498
40.617432 811.24622 766.18665 4294705151
10.757798 813.64465 766.24683 4283456423
14.06789 814.90991 767.31372 4289504225
16.550459 814.90991 767.31372 4292397823
19.033028 814.90991 767.31372 4278714435
22.343121 814.90991 767.31372 4278190144
25.65321 814.90991 767.31372 4292862719
28.963303 814.90991 767.31372 4294704639
31.445871 814.90991 767.31372 4294244863
33.92844 814.90991 767.31372 4294770687
37.238533 814.27728 766.78027 4294901759
39.7211 813.64465 766.24683 4294443007
0.83027524 811.38257 768.26367 4281019997
3.8770645 811.30396 769.0694 4280496238
7.4807339 811.26465 769.47229 4281418147
10.793578 812.65204 769.33398 4282406322
40.960243 812.22894 768.97723 4294705151
16.605505 813.92157 770.40442 4292070143
19.096329 813.92157 770.40442 4278321215
22.417431 813.92157 770.40442 4278190140
37.362385 813.92157 770.40442 4294901759
40.683487 813.92157 770.40442 4294836223
43.174313 813.92157 770.40442 4294770687
25.65321 816.17523 768.38062 4293257215
28.963303 816.17523 768.38062 4294639359
31.445871 816.17523 768.38062 4294377215
33.92844 816.17523 768.38062 4294639615
43.031193 817.44055 769.44751 4294639615
0.83394498 809.64154 772.02783 4280954208
5.0036697 809.64154 772.02783 4280428648
0.83394498 810.91663 773.10291 4280824156
4.1697249 810.91663 773.10291 4281218411
7.5055046 810.91663 773.10291 4281220978
10.82844 811.66785 772.42828 4282339221
14.145872 812.41907 771.75366 4288849890
14.977982 813.69141 772.82642 4294174463
16.642202 813.69141 772.82642 4293120767
19.138531 814.32764 773.36279 4278386741
22.454128 814.70251 773.0249 4278190132
25.766973 815.07739 772.68701 4293454847
29.091743 815.07739 772.68701 4294770687
31.585321 815.07739 772.68701 4294770687
34.078899 815.07739 772.68701 4294770687
37.403667 815.07739 772.68701 4294705151
40.773392 814.32758 773.36279 4294836223
1.6733944 809.94226 776.20544 4280823906
4.183486 809.94226 776.20544 4281349234
7.5302753 809.94226 776.20544 4281089394
10.841284 812.19177 774.1781 4281290110
13.34312 812.19177 774.1781 4286674120
13.34312 813.46686 775.25317 4285560261
15.844955 814.10437 775.79077 4293583103
19.180733 814.74194 776.32837 4278452268
22.516514 814.74194 776.32837 4278190127
25.018349 814.74194 776.32837 4292140543
30.855965 814.74194 776.32837 4294901759
34.191742 814.74194 776.32837 4294639615
36.693577 814.74194 776.32837 4294639615
26.627523 816.23602 774.97205 4294967295
28.291742 816.23602 774.97205 4294967295
0.83853209 809.72479 778.63806 4281284455
4.1926603 809.72479 778.63806 4281418105
6.7082567 809.72479 778.63806 4281678451
0.83853209 811.00696 779.71912 4281678962
4.1926603 811.00696 779.71912 4282204026
7.8201828 811.07843 778.90747 4281612655
10.877064 811.86127 777.82349 4280760946
13.387156 812.50092 778.36292 4286606526
38.488075 812.50092 778.36292 4294901759
40.998165 812.50092 778.36292 4294901759
13.387156 813.78027 779.44153 4285427896
15.897248 813.78027 779.44153 4293715967
18.407339 813.78027 779.44153 4278386731
22.590824 813.78027 779.44153 4278190122
25.100918 813.78027 779.44153 4292665855
31.794495 813.78027 779.44153 4294443007
34.304588 813.78027 779.44153 4294442751
36.814678 813.78027 779.44153 4294901759
20.014679 816.01709 777.40356 4278190106
26.686239 816.01709 777.40356 4294967295
28.354128 816.01709 777.40356 4294967295
30.022018 816.01709 777.40356 4294443007
0.84128439 810.05225 782.83826 4281021285
4.2009172 811.17065 781.81921 4281546359
7.5577979 811.17065 781.81921 4282335850
10.900917 812.28906 780.80017 4281547115
38.572475 812.28906 780.80017 4294967295
40.381653 810.05225 782.83826 4294705151
10.900917 813.57123 781.88123 4281415788
13.416513 813.57123 781.88123 4287264440
15.93211 813.57123 781.88123 4294832383
19.537615 814.99078 781.33429 4278321175
22.616512 814.31543 781.20074 4278190122
25.937614 815.05957 780.52026 4293915391
28.447706 815.05957 780.52026 4294901759
30.991743 814.95642 781.74133 4294376447
34.342201 814.95642 781.74133 4294639615
37.427521 814.49469 781.7879 4294770687
5.0587158 809.85016 785.28394 4281744496
1.6825688 811.33856 783.92285 4281415793
3.3651376 811.33856 783.92285 4281546861
7.5715594 811.33856 783.92285 4282403173
11.777982 812.62494 785.00745 4282599553
13.46055 812.62494 785.00745 4286745292
15.984404 812.62494 785.00745 4294045951
18.508257 812.62494 785.00745 4278386725
22.71468 812.62494 785.00745 4278190124
26.079817 812.62494 785.00745 4294046975
28.60367 812.62494 785.00745 4294967295
40.381653 811.33856 783.92285 4294967295
35.218349 816.1355 784.04346 4294967295
37.733944 816.1355 784.04346 4294967295
5.0752292 808.91089 788.41602 4282402170
6.7669725 808.91089 788.41602 4282404216
8.4311924 811.13928 786.37097 4282075252
10.96055 811.78381 786.91443 4282138747
13.489908 812.42841 787.45789 4289761494
16.019266 812.42841 787.45789 4294962687
18.548624 812.42841 787.45789 4279238692
22.764221 812.42841 787.45789 4278190134
38.783485 811.13928 786.37097 4294967295
20.190826 813.91125 786.09204 4278190116
23.60734 813.71759 788.54492 4278190157
26.108257 813.81445 787.31848 4294047743
28.634863 813.81445 787.31848 4294770687
31.161469 813.81445 787.31848 4294376703
34.262386 813.78217 787.72729 4294770687
37.097248 813.71759 788.54492 4294967295
7.6211009 810.1109 790.73596 4282338424
10.730275 810.07977 791.14569 4282140802
13.533945 811.49756 790.59717 4290683109
16.07156 811.49756 790.59717 4293840895
19.737001 811.92871 790.96063 4278517801
22.838531 812.14423 791.1424 4278191163
25.376146 812.79089 791.68762 4293132287
27.06789 812.79089 791.68762 4294967295
31.297249 812.79089 791.68762 4294639615
35.526604 812.79089 791.68762 4294967295
4.2522936 806.49719 792.92114 4282007162
11.020184 811.31372 793.05811 4283851414
13.563303 811.31372 793.05811 4289897680
16.106422 811.31372 793.05811 4291674336
18.649542 811.31372 793.05811 4279765792
22.888073 811.96179 793.60455 4278191891
28.822018 811.31372 793.05811 4294901759
33.908257 811.31372 793.05811 4294901759
4.2614679 806.3175 795.38562 4282271599
7.6614676 808.35931 795.79926 4282666625
11.93211 808.92389 797.58325 4282730621
13.636697 808.92389 797.58325 4280562835
28.977982 808.92389 797.58325 4294639615
37.420185 809.0979 795.11401 4294967295
39.121101 809.0979 795.11401 4294967295
16.158716 810.39825 796.21045 4278190961
19.560551 810.39825 796.21045 4278190146
22.111927 810.39825 796.21045 4278190091
25.513762 810.39825 796.21045 4293591019
27.21468 810.39825 796.21045 4294967295
31.466972 810.39825 796.21045 4294246143
34.868805 810.39825 796.21045 4294639615
3.9902141 805.84064 798.90771 4282732143
8.5504589 806.71228 799.64258 4283191420
10.26055 806.71228 799.64258 4283191172
13.680734 808.01965 800.745 4280035446
29.07156 808.01965 800.745 4294770687
30.781651 808.01965 800.745 4294443007
16.193579 810.22705 798.68213 4278190130
19.602753 810.22705 798.68213 4278190111
23.011927 810.22705 798.68213 4278190148
25.568808 810.22705 798.68213 4293258495
27.273394 810.22705 798.68213 4294967295
32.387157 810.22705 798.68213 4294639615
35.228134 810.66144 799.04834 4294836223
6.8770642 803.02637 803.07483 4283191420
11.99633 806.5481 802.12024 4283125123
16.262386 808.59265 802.53607 4289574902
19.666054 809.32703 801.84729 4290626042
23.110092 808.59265 802.53607 4290103015
25.706423 807.85828 803.22485 4293656575
27.420183 807.85828 803.22485 4294770687
5.1688075 802.86914 805.55835 4282930799
6.8917432 802.86914 805.55835 4282996094
8.605505 804.26355 805.42603 4282403959
10.326606 804.26355 805.42603 4282269561
12.894495 805.65515 805.29138 4289443060
16.333027 806.96954 806.39966 4294111999
19.771561 806.96954 806.39966 4294441727
22.350458 806.96954 806.39966 4294705151
24.929358 806.96954 806.39966 4294901759
29.227524 805.65515 805.29138 4294377471
31.806421 805.65515 805.29138 4294377215
34.385323 805.65515 805.29138 4294639615
3.4568808 800.66174 807.62122 4282865006
1.7284404 802.64386 809.29248 4282994045
4.3211012 802.64392 809.29248 4282996086
7.4899082 802.86407 809.47821 4282536312
10.370643 803.30457 809.84961 4279445094
32.840366 803.30457 809.84961 4294705151
34.568806 803.30457 809.84961 4294836223
36.297249 803.30457 809.84961 4294967295
12.922018 805.50354 807.77966 4292206079
17.229359 806.82074 808.89026 4294179327
18.952293 806.82074 808.89026 4294179327
24.121101 806.82074 808.89026 4294967295
28.42844 805.50354 807.77966 4294442751
31.012844 805.50354 807.77966 4294311423
5.1963301 803.16278 812.34619 4283193721
29.445871 803.16278 812.34619 4294573823
32.044037 803.16278 812.34619 4294508287
34.6422 803.16278 812.34619 4294836223
3.4568808 805.28668 811.52081 4283324281
7.7779818 805.28668 811.52087 4281482609
10.370643 804.62598 810.96375 4278197335
12.675229 805.06641 811.33514 4292278527
15.555964 804.62598 810.96375 4294443007
19.877064 805.28668 811.52081 4294245119
22.469725 804.62598 810.96375 4294967295
25.926605 804.62598 810.96375 4294901759
27.655046 804.62598 810.96375 4294573823
26.06422 802.29645 815.53979 4294639615
28.670643 802.29645 815.53979 4294836223
31.277063 802.29645 815.53979 4294311167
33.883484 802.29645 815.53979 4294574079
5.1963301 804.487 813.46265 4283389304
7.7944956 805.81122 814.57922 4281480806
10.39266 804.487 813.46265 4278203225
13.856881 804.487 813.46265 4294967295
16.455046 804.487 813.46265 4294507519
19.919266 805.14911 814.02094 4293719551
22.517431 804.487 813.46265 4294574079
24.249542 804.487 813.46265 4294770687
36.605503 800.1059 817.61682 4294836223
4.3440366 803.62488 816.65979 4283586682
10.425688 803.62488 816.65979 4281159294
13.03211 803.62488 816.65979 4293918719
16.507339 803.62488 816.65979 4293784831
20.851376 803.62488 816.65979 4293457407
22.588991 803.62488 816.65979 4294049791
25.236698 802.53174 817.70013 4294705151
28.761467 801.43854 818.74048 4294770687
31.376146 801.43854 818.74048 4294180351
33.990826 801.43854 818.74048 4294508543
36.605503 801.43854 818.74048 4294574079
7.5296631 805.39618 818.15332 4280825449
15.638532 804.95331 817.77991 4293652991
19.113762 804.95331 817.77991 4294048255
4.3577981 802.77118 819.86414 4283718266
10.458715 802.77118 819.86414 4283921573
13.073395 802.77118 819.86414 4294246399
17.431192 802.77118 819.86414 4293521919
20.917431 802.77118 819.86414 4293982719
22.660551 802.77118 819.86414 4294180095
25.27523 802.77118 819.86414 4294574079
28.790825 802.04382 820.55884 4294376447
31.376146 802.77118 819.86414 4294311167
34.027523 802.04382 820.55884 4294705151
36.682568 801.31641 821.25354 4294639615
4.3577981 804.10382 820.98779 4283391100
8.7614679 800.47394 824.46729 4279510104
10.513762 800.47394 824.46729 4287074769
12.266055 800.47394 824.46729 4294311935
13.974312 802.65186 822.37952 4294705151
16.594496 803.31958 822.9425 4293784831
20.088074 803.31958 822.9425 4294179839
22.708258 803.31958 822.9425 4294048255
25.03731 803.09698 822.75488 4294310911
28.822018 802.65186 822.37952 4294244863
31.442202 802.65186 822.37952 4294245375
34.062386 802.65186 822.37952 4294180095
36.682568 802.65186 822.37952 4294574079
34.062386 805.32269 824.63159 4294836223
36.644035 805.37952 823.37146 4294836223
8.7798166 800.36438 826.99097 4283783571
10.53578 800.36438 826.99097 4287403260
12.291743 800.36438 826.99097 4294114047
14.018349 801.81354 825.5968 4294836223
16.64679 803.1532 826.72632 4293916671
19.275229 803.1532 826.72632 4293916927
21.903669 803.1532 826.72632 4294311167
26.284403 801.81354 825.5968 4294377215
28.912844 801.81354 825.5968 4294311167
31.541285 802.4834 826.16156 4294442495
34.169724 801.81354 825.5968 4294705151
33.293579 804.49286 827.85596 4294967295
7.9266057 799.53735 830.21777 4283256200
10.53578 801.70685 828.12292 4290622975
13.169725 801.70685 828.12292 4294769407
17.559633 803.04932 829.25488 4293851135
19.315596 803.04932 829.25488 4293719551
21.949541 803.04932 829.25488 4294245375
25.461468 801.70685 828.12292 4294048767
28.973394 801.70685 828.12292 4293719295
5.3009176 796.69238 831.74304 4282665326
7.0678897 796.01697 831.17358 4281151851
10.601835 798.71869 833.45154 4291349247
13.21101 800.88397 831.35327 4294178815
15.853211 800.88397 831.35327 4293982207
25.541285 800.88397 831.35327 4294114303
29.06422 800.88397 831.35327 4294179071
31.706423 800.88397 831.35327 4294244863
16.733946 802.23065 832.48865 4293851391
19.376146 802.23065 832.48865 4293589247
22.018349 802.23065 832.48865 4293852159
5.3284402 795.10992 836.94885 4281810021
8.8807335 795.10992 836.94885 4288258013
10.634862 797.90851 836.6925 4292797183
13.252294 800.06958 834.59058 4294047743
25.621101 800.06958 834.59058 4294180351
28.271559 800.06958 834.59058 4294244863
30.922018 800.06958 834.59058 4294310655
33.572475 800.06958 834.59058 4294770687
13.252294 801.42041 835.72961 4294507519
16.78624 801.42041 835.72961 4293982463
19.436697 802.09583 836.29913 4293719039
22.087156 801.42041 835.72961 4294180095
8.8807335 796.46777 838.09375 4290230517
10.634862 799.26355 837.83508 4294901247
16.838531 800.61865 838.97766 4293455871
22.155964 800.61865 838.97766 4293587711
25.700916 799.26355 837.83508 4294508543
28.359632 799.26355 837.83508 4294508031
30.132111 799.26355 837.83508 4294639615
5.3614678 792.14563 842.29761 4281810019
7.1266055 794.3067 840.19568 4280427360
8.0174313 795.66882 841.34424 4284054449
10.689908 797.03088 842.49268 4294311167
13.3211 799.18353 840.38354 4293785087
19.537615 800.54144 841.52856 4293324031
22.201836 800.54144 841.52856 4293652991
25.754128 799.18353 840.38354 4294376703
28.418348 799.18353 840.38354 4294442239
31.082569 799.18353 840.38354 4294639615
5.3614678 793.5119 843.44971 4282338160
8.9357796 794.87823 844.60168 4289915647
12.510092 796.24451 845.75366 4294244607
14.253211 798.39294 843.64111 4293916415
16.925688 798.39294 843.64111 4293718783
25.833946 798.39294 843.64111 4294376447
28.506422 798.39294 843.64111 4294705151
31.178898 798.39294 843.64111 4294705151
33.851376 799.07397 844.21539 4294901759
5.3724771 793.44312 846.00769 4281614691
8.0587158 794.12769 846.5849 4284715434
10.744954 794.81219 847.16211 4294967295
14.326606 796.18127 848.31641 4293784575
16.117432 796.18127 848.31641 4293784575
19.699083 796.18127 848.31641 4293455615
22.339451 797.61084 846.90576 4293456127
25.913761 797.61084 846.90576 4294048255
28.594496 797.61084 846.90576 4294705151
31.27523 797.61084 846.90576 4294574079
32.168808 798.97711 848.05774 4294705151
12.574312 794.03705 850.4325 4294047231
17.963303 794.03705 850.4325 4293652735
14.370643 795.41034 851.59045 4293718271
17.065138 795.41034 851.59045 4293520639
19.759632 795.41034 851.59045 4293718015
22.385321 797.55042 849.47083 4293718783
25.966972 797.55042 849.47083 4294179839
28.653212 797.55042 849.47083 4294705151
30.444036 797.55042 849.47083 4294639615
9.9100914 791.89276 852.54858 4293917183
9.9100914 794.64783 854.87158 4293983231
13.213455 794.18866 854.48438 4293718783
16.216515 794.64783 854.87158 4293849087
18.919266 794.64783 854.87158 4293586687
23.423853 794.64783 854.87158 4293981951
25.225689 794.64783 854.87158 4293916927
27.92844 794.64783 854.87158 4294574079
30.631193 794.64783 854.87158 4294770687
21.555964 796.78363 852.74841 4293455615
9.9403667 791.13025 855.82983 4293852415
9.9706421 791.76208 860.28662 4293852415
12.689908 791.76208 860.28662 4293390079
14.458715 793.89368 858.15991 4293718015
16.266054 793.89368 858.15991 4293652223
18.977064 793.89368 858.15991 4293652223
22.591743 793.89368 858.15991 4293718783
25.302752 793.89368 858.15991 4293982719
28.013762 793.89368 858.15991 4294574079
31.628441 793.89368 858.15991 4294901759
10.000917 791.02057 863.58557 4293916415
13.637615 791.02057 863.58557 4293851135
16.365137 791.02057 863.58557 4293587967
23.638533 791.02057 863.58557 4293981951
25.456881 791.02057 863.58557 4294048511
27.275229 791.02057 863.58557 4294443007
19.034863 793.14801 861.4552 4293652479
21.754128 793.14801 861.4552 4293455615
29.005505 793.14801 861.4552 4294443007
30.818348 793.14801 861.4552 4294836223
23.686239 790.99524 866.18018 4294310911
25.508257 790.99524 866.18018 4294245375
28.241283 790.99524 866.18018 4294705151
10.303975 792.87408 865.14844 4293587967
13.637615 792.41071 864.75769 4294047999
16.365137 792.41071 864.75769 4293719039
19.092661 792.41071 864.75769 4293455615
21.820183 792.41071 864.75769 4293521407
23.757797 790.26917 869.49207 4294113279
25.585321 790.26917 869.49207 4294113791
28.326607 790.26917 869.49207 4294443007
13.665138 792.38818 867.35474 4293916159
16.398165 792.38818 867.35474 4293718783
19.131193 792.38818 867.35474 4293323775
21.86422 792.38818 867.35474 4293323775
10.965137 791.66632 870.67017 4293718271
12.792661 791.66632 870.67017 4294178815
16.497248 789.55157 872.81104 4294047231
19.188992 791.66632 870.67017 4293784319
22.879816 790.60895 871.7406 4293849599
25.662386 789.55157 872.81104 4294179071
28.326607 791.66632 870.67017 4294574079
14.708257 787.43677 874.95203 4294113023
20.163303 790.95288 873.99268 4293718271
21.99633 790.95288 873.99268 4293586687
28.411926 790.95288 873.99268 4294574079
7.3761468 786.73175 878.28174 4290427135
10.125689 787.78705 877.20947 4293585407
13.808256 787.78705 877.20947 4293849599
16.546789 788.84235 876.13721 4294113023
18.385321 788.84235 876.13721 4294113023
23.900917 788.84235 876.13721 4294113023
25.73945 788.84235 876.13721 4294244863
20.223854 790.24792 877.32227 4293586687
22.062386 790.24792 877.32227 4293652479
27.577982 790.24792 877.32227 4294508031
3.6880734 788.14154 879.47046 4280959096
7.3761468 788.14154 879.47046 4290559999
10.142202 788.14154 879.47046 4293323263
13.849541 787.08838 880.54443 4293652479
16.596331 788.14154 879.47046 4294047231
18.440367 788.14154 879.47046 4293784063
23.972477 788.14154 879.47046 4294178815
25.816513 788.14154 879.47046 4294244863
29.504587 788.14154 879.47046 4294442239
31.348623 788.14154 879.47046 4294967295
27.660551 789.55133 880.65906 4294244863
11.130275 785.34698 884.96228 4293914623
12.985321 785.34698 884.96228 4293848831
14.79633 787.44916 882.81067 4293389567
16.645872 787.44916 882.81067 4293521407
19.420183 787.44916 882.81067 4293389823
22.194496 787.44916 882.81067 4293586687
24.660551 787.92047 883.20807 4294178815
28.667891 788.15613 883.4068 4294376447
31.442202 787.44916 882.81067 4294967295
7.4422016 783.24481 887.11389 4290955519
9.3027525 783.24481 887.11389 4292995071
14.840367 786.76514 886.15808 4294112511
16.695414 786.76514 886.15808 4294112511
19.477982 786.76514 886.15808 4293718271
22.26055 786.76514 886.15808 4293718271
25.970642 786.76514 886.15808 4294244863
29.680735 786.76514 886.15808 4294574079
31.53578 786.76514 886.15808 4294967295
4.9761467 782.09357 890.06738 4285499843
7.4422016 784.66718 888.31323 4290561279
10.233027 784.66718 888.31323 4293323775
13.023853 784.66718 888.31323 4294112511
7.4422016 786.0896 889.51257 4290035967
10.543118 786.56372 889.91235 4293389823
14.26422 787.03784 890.31219 4293520639
20.466055 786.0896 889.51257 4293520383
22.326605 786.0896 889.51257 4293652479
25.117432 786.0896 889.51257 4294047231
28.838531 786.0896 889.51257 4294573823
31.629358 786.0896 889.51257 4294967295
9.2752295 789.60156 888.54968 4292996351
3.7541285 776.93823 893.5686 4280367991
5.598165 783.99579 891.67126 4288263143
13.062386 783.99579 891.67126 4293521151
16.794495 784.70911 892.27271 4293586431
19.28257 784.94684 892.47314 4293323263
22.39266 785.42242 892.87415 4293652223
26.124771 785.42242 892.87415 4294310655
28.923853 785.42242 892.87415 4294573823
13.023853 788.93439 891.91125 4293454591
16.844036 784.76367 896.2428 4293520383
18.715597 784.76367 896.2428 4293191423
24.330275 783.33289 895.03638 4294310399
28.073395 784.76367 896.2428 4294508031
14.92844 786.849 894.07703 4293454591
20.647707 782.67834 898.40857 4293520383
22.524771 782.67834 898.40857 4293455615
26.278898 782.67834 898.40857 4294310655
19.709175 784.1134 899.61853 4293323007
22.590826 782.03223 901.78784 4293586431
25.100916 781.55249 901.3833 4294113023
22.656881 781.39459 905.17432 4293454847
25.488991 781.39459 905.17432 4293717759
