# .PCD v0.7 - Point Cloud Data file format
VERSION 0.7
FIELDS x y z rgb
SIZE 4 4 4 4
TYPE F F F U
COUNT 1 1 1 1
WIDTH 1160
HEIGHT 1
VIEWPOINT 0 0 0 1 0 0 0
POINTS 1160
DATA ascii
39.708256 791.04382 1232.4696 4292930559
64.255043 755.9624 1234.2826 4292339455
66.634865 755.9624 1234.2826 4292207615
70.20459 755.9624 1234.2826 4292207615
73.774315 755.9624 1234.2826 4292273407
70.20459 757.78174 1235.8167 4292338431
73.774315 757.78174 1235.8167 4292272895
61.636696 762.43146 1233.1969 4292141055
68.748627 764.24384 1234.7251 4292470015
43.347706 788.83569 1235.8398 4292535295
35.14679 790.62701 1237.3502 4287866587
39.833027 790.62701 1237.3502 4292799487
43.347706 790.62701 1237.3502 4292863743
37.48991 792.41833 1238.8607 4281358231
39.833027 792.41833 1238.8607 4287608823
43.347706 792.41833 1238.8607 4292204543
67.205505 814.28107 1238.9823 4292600831
39.833027 794.20966 1240.3711 4285246937
56.895412 773.30573 1242.3658 4292602111
59.266056 773.30573 1242.3658 4292602111
56.895412 775.1181 1243.8939 4292798719
59.266056 775.1181 1243.8939 4292996351
25.976147 783.31543 1244.2656 4280695149
28.337614 783.31543 1244.2656 4282402168
33.060551 783.31543 1244.2656 4288252621
47.229359 783.31543 1244.2656 4292010239
49.590824 783.31543 1244.2656 4292273407
51.952293 783.31543 1244.2656 4292208639
35.284405 789.67224 1243.0853 4281227656
43.517433 791.47058 1244.6017 4290169599
47.045872 791.47058 1244.6017 4293127167
49.398167 791.47058 1244.6017 4292600831
51.750458 791.47058 1244.6017 4292338943
46.862385 797.79236 1243.3918 4292798463
49.205505 797.79236 1243.3918 4292864255
51.548622 797.79236 1243.3918 4292470527
46.862385 799.58368 1244.9023 4292535807
49.205505 799.58368 1244.9023 4292601599
52.720184 799.58368 1244.9023 4292470271
56.234863 799.58368 1244.9023 4292732415
67.950462 799.58368 1244.9023 4292405503
70.293579 799.58368 1244.9023 4292667903
70.073395 803.54388 1243.0093 4292537087
63.066055 805.32959 1244.515 4292470527
67.737617 805.32959 1244.515 4292272895
70.073395 805.32959 1244.515 4292471295
47.596329 770.51752 1246.5551 4292272895
49.976147 770.51752 1246.5551 4292272895
52.355965 770.51752 1246.5551 4292403967
54.735779 770.51752 1246.5551 4292601343
23.706423 776.93048 1245.4221 4288653522
47.412846 776.93048 1245.4221 4292141055
56.895412 776.93048 1245.4221 4292470271
59.266056 776.93048 1245.4221 4292536063
23.706423 778.74286 1246.9502 4287995325
26.077065 778.74286 1246.9502 4288587718
47.412846 778.74286 1246.9502 4292272895
49.783485 778.74286 1246.9502 4292470015
52.154129 778.74286 1246.9502 4292602111
56.895412 778.74286 1246.9502 4292470527
59.266056 778.74286 1246.9502 4292667903
30.699083 785.12079 1245.7878 4281288833
33.060551 785.12079 1245.7878 4283195284
47.229359 785.12079 1245.7878 4292207103
49.590824 785.12079 1245.7878 4292470271
47.229359 786.92615 1247.3101 4292337919
49.590824 786.92615 1247.3101 4292469503
51.952293 786.92615 1247.3101 4292338943
39.988991 793.26898 1246.1179 4282945731
43.517433 793.26898 1246.1179 4289776374
47.045872 793.26898 1246.1179 4292798463
49.398167 793.26898 1246.1179 4292535551
51.750458 793.26898 1246.1179 4292272895
39.988991 795.06732 1247.6343 4283596217
43.517433 795.06732 1247.6343 4290038514
39.833027 803.16638 1247.9231 4284649659
43.347706 802.27075 1247.168 4290629368
46.862385 802.27069 1247.168 4292865023
49.205505 802.27069 1247.168 4292536319
52.720181 802.27069 1247.168 4292470271
56.234863 802.27069 1247.168 4292404479
58.57798 802.27069 1247.168 4292667391
60.921101 802.27069 1247.168 4292667647
64.826294 801.97217 1246.9161 4292667647
67.950462 801.375 1246.4127 4292602111
52.555046 808.00818 1246.7734 4292404479
56.058716 808.00818 1246.7734 4292338943
58.394497 808.00818 1246.7734 4292667647
60.730274 808.00818 1246.7734 4292666623
64.233948 808.00818 1246.7734 4292666623
67.737617 807.11536 1246.0206 4292403967
70.073395 807.11536 1246.0206 4292602111
47.596329 772.33691 1248.0891 4292338943
49.976147 772.33691 1248.0891 4292338943
52.355965 772.33691 1248.0891 4292667391
54.735779 772.33691 1248.0891 4292798719
49.976147 774.15625 1249.6232 4292470015
52.355965 774.15625 1249.6232 4292667391
54.735779 774.15625 1249.6232 4292667391
23.706423 780.55524 1248.4784 4280168549
26.077065 782.36761 1250.0066 4280363357
28.447706 782.36761 1250.0066 4278657114
52.154129 782.36761 1250.0066 4292470271
55.710091 781.46143 1249.2426 4292470527
59.266056 781.46143 1249.2424 4292602111
61.636696 780.55524 1248.4784 4292602111
35.42202 788.73151 1248.8323 4282275981
37.783485 788.73151 1248.8323 4279259774
55.494495 788.73151 1248.8323 4292799231
61.398167 788.73151 1248.8323 4292470527
63.759632 788.73151 1248.8323 4292733695
66.121101 788.73151 1248.8323 4292799743
35.42202 790.53687 1250.3545 4283391895
37.783485 790.53687 1250.3545 4279129480
56.675228 790.53687 1250.3545 4292535807
67.301834 790.53687 1250.3545 4292733951
35.284405 796.86566 1249.1506 4283129500
39.988991 796.86566 1249.1506 4284842936
43.517433 796.86566 1249.1506 4290824950
58.807339 796.86566 1249.1506 4292930047
61.159634 796.86566 1249.1506 4292602111
64.688072 796.86566 1249.1506 4292602623
32.93211 798.664 1250.667 4283064992
35.284405 798.664 1250.667 4283459750
37.636696 798.664 1250.667 4281424519
39.988991 798.664 1250.667 4284516534
35.14679 806.74902 1250.944 4282339986
37.48991 805.85339 1250.1887 4280832900
39.833027 805.85339 1250.1887 4286688477
43.347706 805.85339 1250.1887 4290959358
46.862385 805.85339 1250.1887 4292536319
49.205505 805.85339 1250.1887 4292207615
43.211929 812.47253 1250.5377 4292142079
46.715595 812.47253 1250.5377 4292272895
49.051376 811.57965 1249.7849 4292404479
52.555046 811.57965 1249.7849 4292470015
56.058716 811.57965 1249.7849 4292404735
58.394497 811.57965 1249.7849 4292667903
60.730274 811.57965 1249.7849 4292733695
63.066055 810.68677 1249.032 4292798975
19.038532 775.97565 1251.1572 4287008683
21.418348 775.97565 1251.1572 4287206063
54.735779 775.97565 1251.1572 4292536319
19.038532 777.79504 1252.6913 4279705942
21.418348 777.79504 1252.6913 4280363616
23.706423 785.99237 1253.0629 4281877350
26.077065 785.08618 1252.2988 4282271851
28.447706 785.08618 1252.2988 4280762983
30.818348 785.08618 1252.2988 4281486706
33.188992 785.08618 1252.2988 4281356932
55.710091 784.17999 1251.5347 4292667647
59.266056 785.08618 1252.2988 4292602111
61.636696 784.17999 1251.5347 4292602111
64.007339 784.17999 1251.5347 4292799487
66.377983 784.17999 1251.5347 4292799743
30.699083 794.14758 1253.3989 4282342535
34.241287 793.24487 1252.6378 4283195292
37.783485 793.24487 1252.6378 4281226124
55.494495 792.34222 1251.8767 4292404479
59.036697 792.34222 1251.8767 4292798719
61.398167 792.34222 1251.8767 4292536319
63.759632 792.34222 1251.8767 4292733695
67.301834 792.34222 1251.8767 4292667903
32.93211 800.46234 1252.1832 4282736030
35.284405 800.46234 1252.1832 4282867616
37.636696 800.46234 1252.1832 4281096581
31.755962 802.26068 1253.6996 4282538642
35.284405 802.26068 1253.6996 4282472601
32.803669 808.54034 1252.4543 4283063961
35.14679 808.54034 1252.4543 4282274445
37.48991 808.54034 1252.4543 4280701319
39.833027 808.54034 1252.4543 4287478255
43.347706 808.54034 1252.4543 4292208124
46.862385 808.54034 1252.4543 4292667903
65.607338 808.54034 1252.4543 4292535807
31.632111 810.33167 1253.9647 4283194767
35.14679 810.33167 1253.9647 4282274184
37.48991 810.33167 1253.9647 4280766851
39.833027 810.33167 1253.9647 4288201460
64.435776 810.33167 1253.9647 4292470527
39.708256 814.25824 1252.0433 4289383673
43.211929 814.25824 1252.0433 4292667647
46.715595 814.25824 1252.0433 4292272895
49.051376 814.25824 1252.0433 4292141311
52.555046 814.25824 1252.0433 4292141823
56.058716 814.25824 1252.0433 4292470271
58.394497 814.25824 1252.0433 4292272895
60.730274 814.25824 1252.0433 4292470527
63.066055 814.25824 1252.0433 4292733695
35.036697 816.04395 1253.5491 4282403968
37.372478 816.04395 1253.5491 4283656085
39.708256 816.04395 1253.5491 4290959103
43.211929 816.04395 1253.5491 4292666879
46.715595 816.04395 1253.5491 4292207359
49.051376 816.04395 1253.5491 4292207359
52.555046 816.04395 1253.5491 4291945471
56.058716 816.04395 1253.5491 4292405247
58.394497 816.04395 1253.5491 4292339455
60.730274 816.04395 1253.5491 4292470271
64.233948 816.04395 1253.5491 4292536575
49.312843 760.87146 1256.7341 4292731647
52.921101 760.87146 1256.7341 4292141311
55.326607 760.87146 1256.7341 4292207103
11.899082 779.61444 1254.2253 4279706704
14.278899 779.61444 1254.2253 4279772238
16.658716 779.61444 1254.2253 4279772238
19.038532 779.61444 1254.2253 4279706194
22.608257 779.61444 1254.2253 4280297819
61.875229 779.61444 1254.2253 4292602111
64.255043 779.61444 1254.2253 4292733695
66.634865 779.61444 1254.2253 4292799743
11.899082 781.43384 1255.7594 4281087577
14.278899 781.43384 1255.7594 4281349468
16.658716 781.43384 1255.7594 4281349468
19.038532 781.43384 1255.7594 4281415261
22.608257 781.43384 1255.7594 4281942117
16.594496 787.80475 1254.5909 4281219161
18.965137 787.80475 1254.5909 4281153372
22.521101 787.80475 1254.5909 4281679460
26.077065 787.80475 1254.5909 4282140267
28.447706 787.80475 1254.5909 4281681779
30.818348 787.80475 1254.5909 4282800260
33.188992 787.80475 1254.5909 4283523481
54.524769 787.80475 1254.5909 4292470271
59.266056 787.80475 1254.5909 4292535807
61.636696 787.80475 1254.5909 4292272895
64.007339 787.80475 1254.5909 4292733439
16.594496 789.61713 1256.1191 4281218911
18.965137 789.61713 1256.1191 4281087327
22.521101 789.61713 1256.1191 4281418087
26.077065 789.61713 1256.1191 4281485161
28.447706 789.61713 1256.1191 4281223025
30.818348 789.61713 1256.1191 4282473092
33.188992 789.61713 1256.1191 4283261340
22.433945 795.95294 1254.9213 4281484131
25.976147 795.95294 1254.9213 4281617003
28.337614 796.85559 1255.6824 4281091693
30.699083 796.85559 1255.6824 4282670725
31.363914 804.65851 1255.7213 4282669709
31.632111 812.12305 1255.4751 4283195025
35.14679 812.12305 1255.4751 4282273412
37.48991 812.12305 1255.4751 4281949065
65.607338 812.12305 1255.4751 4292536063
31.632111 813.91437 1256.9856 4283259788
35.036697 817.82971 1255.0547 4281878906
37.372478 817.82971 1255.0547 4284382624
39.708256 817.82971 1255.0547 4290961919
43.211929 817.82971 1255.0547 4292404479
46.715595 817.82971 1255.0547 4292207103
49.051376 817.82971 1255.0547 4292338687
52.555046 817.82971 1255.0547 4292208383
56.058716 817.82971 1255.0547 4292667903
58.394497 817.82971 1255.0547 4292931071
60.730274 817.82971 1255.0547 4292864767
64.233948 817.82971 1255.0547 4292667647
32.700916 819.61542 1256.5604 4283326352
35.036697 819.61542 1256.5604 4282405250
37.372478 819.61542 1256.5604 4286550209
39.708256 819.61542 1256.5604 4291813631
43.211929 819.61542 1256.5604 4292404735
46.715595 819.61542 1256.5604 4291418879
49.051376 819.61542 1256.5604 4291945471
52.555046 819.61542 1256.5604 4292208127
56.058716 819.61542 1256.5604 4292076799
58.394497 819.61542 1256.5604 4292076799
60.730274 819.61542 1256.5604 4292272895
63.066055 819.61542 1256.5604 4292601855
32.572475 827.59943 1256.7522 4282142064
34.899082 827.59943 1256.7522 4288524242
37.225689 827.59943 1256.7522 4291217133
39.552292 827.59943 1256.7522 4291151340
11.105809 784.46613 1258.3163 4281022038
14.278899 784.16296 1258.0605 4281153114
16.658716 783.25323 1257.2935 4281219165
19.038532 783.25323 1257.2935 4281218911
21.418348 783.25323 1257.2935 4281547876
14.223853 791.42944 1257.6473 4281219415
16.594496 791.42944 1257.6473 4281351002
18.965137 791.42944 1257.6473 4281548380
22.521101 791.42944 1257.6473 4281484131
26.077065 791.42944 1257.6473 4281617003
28.447706 791.42944 1257.6473 4280895089
14.223853 793.24188 1259.1754 4281219415
16.594496 793.24188 1259.1754 4281351002
18.965137 793.24188 1259.1754 4281548380
23.614679 799.56366 1257.9657 4282206310
25.976147 799.56366 1257.9657 4281943395
28.337614 799.56366 1257.9657 4281091187
23.614679 801.36902 1259.4879 4281353832
28.337614 801.36902 1259.4879 4281091187
28.227524 809.4541 1259.7649 4281879676
31.632111 815.70569 1258.496 4283589003
31.533028 821.40112 1258.066 4284312219
35.036697 821.40112 1258.066 4285035702
37.372478 821.40112 1258.066 4287864298
39.708256 821.40112 1258.066 4292733183
43.211929 821.40112 1258.066 4293060351
46.715595 821.40112 1258.066 4292469503
49.051376 821.40112 1258.066 4292601343
52.555046 821.40112 1258.066 4292536063
56.058716 821.40112 1258.066 4292011007
58.394497 821.40112 1258.066 4291944959
60.730274 821.40112 1258.066 4292207103
31.533028 823.18689 1259.5718 4281682040
35.036697 823.18689 1259.5718 4286814410
37.372478 823.18689 1259.5718 4291346936
39.708256 823.18689 1259.5718 4293189119
43.211929 823.18689 1259.5718 4292271871
46.715595 823.18689 1259.5718 4291944191
49.051376 823.18689 1259.5718 4292470527
52.555046 823.18689 1259.5718 4292273407
56.058716 823.18689 1259.5718 4291617279
58.394497 823.18689 1259.5718 4291814399
32.572475 829.37817 1258.252 4282862707
34.899082 829.37817 1258.252 4283915396
37.225689 829.37817 1258.252 4284246691
39.552292 829.37817 1258.252 4282338694
32.572475 831.15686 1259.7517 4281684082
34.899082 831.15686 1259.7517 4280762980
37.225689 831.15686 1259.7517 4280108659
39.552292 831.15686 1259.7517 4279187557
7.161468 782.88696 1262.2168 4280825169
9.548624 781.06195 1260.678 4280956248
10.709173 787.80176 1261.1287 4280956245
14.278899 786.89203 1260.3616 4280955996
14.223853 796.86664 1262.2317 4281219415
16.594496 795.96045 1261.4677 4281351001
18.965137 795.96045 1261.4677 4281482333
22.125994 795.65839 1261.213 4281680739
26.077065 795.0542 1260.7036 4281682281
25.976147 803.17438 1261.0101 4281876844
28.337614 803.17438 1261.0101 4281419890
22.433945 804.97974 1262.5323 4281613924
25.976147 804.97974 1262.5323 4282074222
28.337614 804.97974 1262.5323 4282075767
25.875229 811.25244 1261.2811 4282666609
28.227524 811.25244 1261.2811 4282667904
28.227524 813.05078 1262.7975 4283851399
28.117432 817.49701 1260.0063 4284113554
30.46055 817.49701 1260.0063 4284837276
23.431192 819.28833 1261.5167 4281811305
25.774311 819.28833 1261.5167 4282337649
28.117432 819.28833 1261.5167 4283851651
30.365137 824.9726 1261.0774 4281812599
43.211929 824.9726 1261.0774 4290758103
46.715595 824.9726 1261.0774 4291548159
49.051376 824.9726 1261.0774 4292863999
53.722935 824.9726 1261.0774 4292798463
56.058716 824.9726 1261.0774 4292405247
58.394497 824.9726 1261.0774 4292536831
28.029358 826.7583 1262.583 4282994548
30.365137 826.7583 1262.583 4282665326
43.211929 826.7583 1262.583 4279649664
46.715595 826.7583 1262.583 4284250032
39.552292 832.93555 1261.2515 4280439948
49.688992 753.42798 1263.5383 4293256959
53.324772 753.42798 1263.5383 4292075263
4.7926607 778.32281 1264.9086 4281020755
7.161468 784.71198 1263.7555 4280562251
7.161468 786.53699 1265.2943 4280891218
10.709174 790.53076 1263.4297 4280891218
10.709174 792.35016 1264.9637 4281022037
14.278899 792.35016 1264.9637 4281219415
14.223853 798.67896 1263.7599 4281153370
16.594496 799.58514 1264.5239 4281219163
18.965137 799.58514 1264.5239 4281350752
22.125994 799.88721 1264.7787 4281613925
26.077065 798.67896 1263.7599 4281551210
22.433945 806.7851 1264.0547 4281417580
25.976147 806.7851 1264.0547 4281944697
18.891743 808.59045 1265.5769 4281744226
22.433945 808.59045 1265.5769 4281876581
22.34679 814.84912 1264.3138 4281811300
25.875229 814.84912 1264.3138 4282600818
18.818348 816.64746 1265.8301 4281745258
21.170643 816.64746 1265.8301 4282205808
23.431192 821.07971 1263.0272 4282468717
25.774311 821.07971 1263.0272 4282666096
28.117432 821.07971 1263.0272 4282339455
22.259632 822.87103 1264.5376 4282402929
25.774311 822.87103 1264.5376 4282600055
28.117432 822.87103 1264.5376 4282536066
51.548622 822.87103 1264.5376 4292864255
25.693579 829.43689 1264.8416 4283195259
28.029358 829.43689 1264.8416 4284510093
30.365137 829.43689 1264.8416 4285825954
43.211929 829.43689 1264.8416 4279582836
46.715595 828.54401 1264.0887 4279713422
0 767.30652 1268.7001 4282997639
-2.4055047 773.74469 1267.5885 4280231514
0.80183488 773.13165 1267.0717 4280495695
7.2165136 773.74469 1267.5885 4281021007
9.6220188 772.8252 1266.8132 4280232786
-2.3963304 781.98688 1267.9979 4280496208
0 781.07086 1267.2256 4280758363
4.7926607 781.07086 1267.2256 4280628045
7.161468 788.36194 1266.8331 4280891218
4.774312 790.18695 1268.3719 4280758610
7.161468 790.18695 1268.3719 4280890453
10.709174 794.16956 1266.4978 4281022037
7.1394496 795.98895 1268.0319 4280693587
10.709174 795.98895 1268.0319 4281022037
11.853211 802.30371 1266.8162 4280957011
14.223853 802.30371 1266.8162 4281153370
16.594496 802.30371 1266.8162 4281219163
18.965137 802.30371 1266.8162 4281548128
11.853211 804.11609 1268.3444 4281153370
14.223853 804.11609 1268.3444 4281219161
16.594496 804.11609 1268.3444 4281285210
18.965137 804.11609 1268.3444 4281350502
16.530275 812.20117 1268.6213 4281941855
18.891743 811.29846 1267.8602 4281876322
22.433945 810.39581 1267.0991 4281876067
25.976147 810.39581 1267.0991 4282798198
18.818348 818.44586 1267.3464 4281877348
21.170643 818.44586 1267.3464 4282272106
16.466055 820.2442 1268.8628 4282337380
18.818348 820.2442 1268.8628 4282206058
22.259632 824.66235 1266.048 4282402922
25.774311 824.66235 1266.048 4282402924
49.205505 824.66235 1266.048 4290368767
53.891743 824.66235 1266.048 4292404479
56.234863 824.66235 1266.048 4292206847
23.431192 826.45374 1267.5583 4282011757
-4.8697248 753.78827 1271.6902 4278197826
0 762.6933 1271.3506 4285758376
-4.8293576 770.9986 1271.8132 4280297307
-2.4146788 769.15259 1270.2567 4282008947
2.4146788 769.15259 1270.2567 4280430161
4.8293576 770.9986 1271.8132 4281086801
7.2440367 769.15259 1270.2567 4278855244
-2.4055047 775.58368 1269.1392 4280823122
1.2027524 775.58368 1269.1392 4280954708
7.2165136 775.58368 1269.1392 4281086549
-4.8110094 777.42273 1270.6898 4280889169
-2.4055047 777.42273 1270.6898 4280954962
2.4055047 777.42273 1270.6898 4280824154
-9.5853214 785.65088 1271.0874 4280430665
-7.1889906 785.65088 1271.0874 4280496458
-4.7926607 784.73486 1270.3149 4280496463
-2.3963304 784.73486 1270.3149 4280628049
0.79877681 785.04022 1270.5724 4280824660
4.7926607 784.73486 1270.3149 4280759376
-4.774312 793.83698 1271.4495 4280496210
-2.387156 792.92444 1270.6802 4280562003
0 792.92444 1270.6802 4280562001
4.774312 792.92444 1270.6802 4280627794
7.161468 792.01196 1269.9108 4280693587
7.1394496 797.80835 1269.5659 4280825169
10.709174 797.80835 1269.5659 4280890962
14.278899 797.80835 1269.5659 4281153370
7.1394496 799.62775 1271.1001 4281218130
9.5192661 799.62775 1271.1001 4280891218
10.667891 805.92847 1269.8724 4281021784
14.223853 805.92847 1269.8724 4281219161
16.594496 805.92847 1269.8724 4281351004
10.667891 807.74084 1271.4006 4281021784
14.223853 807.74084 1271.4006 4281481306
16.594496 807.74084 1271.4006 4281941857
16.530275 814.90918 1270.9047 4282007906
16.466055 822.94171 1271.1372 4282337381
18.818348 822.94171 1271.1372 4282272872
21.170643 823.84088 1271.8954 4282274154
49.398167 823.84088 1271.8954 4287937791
51.750458 822.94171 1271.1372 4291943935
55.2789 823.84088 1271.8954 4292667647
23.431192 828.245 1269.0688 4283654270
-9.6587152 772.8446 1273.3698 4280167245
-7.2440367 772.8446 1273.3698 4280167245
-4.8293576 772.8446 1273.3698 4280494157
-12.073395 774.69067 1274.9263 4280627794
-9.6587152 774.69067 1274.9263 4280824659
-7.2440367 774.69067 1274.9263 4280758610
-9.6220188 779.26178 1272.2404 4280496208
-7.2165136 779.26178 1272.2404 4280496208
-4.8110094 779.26178 1272.2404 4280496208
2.4055047 779.26178 1272.2404 4280824158
-12.027523 781.10083 1273.791 4280758612
-9.6220188 781.10083 1273.791 4280562251
-7.2165136 781.10083 1273.791 4280628044
2.4055047 781.10083 1273.791 4280890199
-9.5853214 787.48291 1272.6321 4280628044
-7.1889906 787.48291 1272.6321 4280562251
-4.7926607 787.48291 1272.6321 4280562255
-2.3963304 787.48291 1272.6321 4280825171
1.1981652 787.48291 1272.6321 4280758866
-10.783486 789.31494 1274.1768 4280300368
-7.1889906 789.31494 1274.1768 4280562255
-4.7926607 789.31494 1274.1768 4280496210
2.3963304 789.31494 1274.1768 4280562001
-4.774312 796.57446 1273.7577 4280562255
-2.387156 796.57446 1273.7577 4280496462
0.79571867 796.8786 1274.0142 4280889423
4.774312 796.57446 1273.7577 4280824398
-2.3798165 803.26648 1274.1682 4280889165
0 802.35681 1273.4011 4280692817
4.7596331 803.26648 1274.1682 4280693839
7.1394496 802.35681 1273.4011 4280693840
9.5192661 801.44714 1272.6342 4280890199
0 809.55322 1272.9287 4280954962
10.667891 809.55322 1272.9287 4281547097
14.223853 809.55322 1272.9287 4281810269
0 811.3656 1274.4569 4281218132
11.853211 811.3656 1274.4569 4281810267
14.223853 811.3656 1274.4569 4281875297
11.80734 817.61731 1273.188 4282402660
14.168807 817.61731 1273.188 4282337380
14.168807 819.42261 1274.7102 4282468967
21.170643 825.63922 1273.4117 4282668910
-4.8697248 761.23413 1277.9684 4284311950
-2.4348624 761.23413 1277.9684 4283851399
-12.119267 770.10547 1277.6003 4280167245
-7.2715597 768.25244 1276.038 4280166993
-13.280734 776.53674 1276.4828 4280627794
-16.838531 782.93982 1275.3417 4280627794
-13.230275 782.93982 1275.3417 4280692567
-19.244038 784.77881 1276.8922 4280627794
-16.838531 784.77881 1276.8922 4280627794
-13.230275 784.77881 1276.8922 4280235348
-10.783486 791.14691 1275.7214 4280561744
-7.1889906 791.14691 1275.7214 4280496208
2.3963304 791.14691 1275.7214 4280496208
-9.5853214 792.97894 1277.2662 4280496208
-7.1889906 792.97894 1277.2662 4280496208
2.3963304 792.97894 1277.2662 4280954962
-4.774312 799.31195 1276.0659 4280889167
-2.387156 799.31195 1276.0659 4280954960
2.387156 799.31195 1276.0659 4280889169
4.774312 799.31195 1276.0659 4280496206
-7.161468 801.13696 1277.6047 4280628046
-4.774312 801.13696 1277.6047 4280955214
2.387156 801.13696 1277.6047 4280562001
-4.7596331 805.99561 1276.4692 4280693074
-2.3798165 805.99561 1276.4692 4280627281
1.5865444 805.69238 1276.2136 4280693074
4.7596331 805.99561 1276.4692 4280693841
7.1394496 805.99561 1276.4692 4280891220
10.272782 813.78204 1276.4945 4282007646
14.223853 813.17798 1275.9851 4282074722
16.530275 823.03333 1277.7548 4283127928
18.891743 823.03333 1277.7548 4282668910
-7.3321099 754.737 1279.0303 4283388761
-4.8880734 754.737 1279.0303 4283258460
-7.3321099 756.60547 1280.6058 4284309615
-4.8880734 756.60547 1280.6058 4284376955
-2.4440367 756.60547 1280.6058 4285495179
-7.3045874 763.09564 1279.538 4283784313
-4.8697248 763.09564 1279.538 4283259014
-19.390825 773.81165 1280.7252 4280562001
-16.966972 772.88513 1279.9441 4280824147
-14.543119 771.95856 1279.1628 4280627794
-16.902752 778.38275 1278.0393 4280627794
-14.488073 778.38275 1278.0393 4280824405
-19.31743 780.22882 1279.5958 4280496208
-19.244038 787.53735 1279.2183 4280758610
-16.838531 787.53735 1279.2183 4280758866
-14.433027 787.53735 1279.2183 4280431442
-10.783486 794.81097 1278.8109 4280759122
-7.1889906 794.81097 1278.8109 4280628046
-14.377981 796.64294 1280.3556 4281087577
-10.783486 796.64294 1280.3556 4280759122
-7.1889906 796.64294 1280.3556 4280628046
-7.161468 802.96198 1279.1434 4280628046
-9.548624 804.78699 1280.6823 4280562001
-7.161468 804.78699 1280.6823 4280627794
-4.7596331 808.72467 1278.7704 4280758610
-2.3798165 808.72467 1278.7704 4280824659
2.3798165 808.72467 1278.7704 4281218132
4.7596331 808.72467 1278.7704 4281481556
7.1394496 808.72467 1278.7704 4281744728
9.5192661 808.72467 1278.7704 4281810267
1.1899083 810.54407 1280.3044 4281415511
4.7596331 810.54407 1280.3044 4281744474
7.1394496 810.54407 1280.3044 4281876316
7.1119266 818.61511 1280.5696 4282074220
10.667891 817.70898 1279.8054 4282402409
14.223853 818.61511 1280.5696 4282337380
-9.7761469 758.474 1282.1813 4284113276
-7.3321099 758.474 1282.1813 4284244862
-13.442202 760.34247 1283.7567 4283586416
-9.7761469 760.34247 1283.7567 4283784313
-13.391743 764.95709 1281.1075 4280559950
-9.7394495 764.95709 1281.1075 4280166993
-17.044037 766.8186 1282.6771 4280822870
-14.609175 766.8186 1282.6771 4280233039
-19.390825 775.66467 1282.2877 4280562001
-21.814678 777.5177 1283.8501 4280562001
-21.732111 782.07483 1281.1523 4281021007
-24.14679 783.9209 1282.709 4280628046
-21.732111 783.9209 1282.709 4280693839
-19.244038 790.2959 1281.5442 4280496208
-16.838531 790.2959 1281.5442 4280562001
-13.230275 790.2959 1281.5442 4280562001
-19.244038 792.13495 1283.0947 4280627794
-16.838531 792.13495 1283.0947 4280693587
-14.433027 792.13495 1283.0947 4280824405
-14.377981 799.39099 1282.6726 4280824659
-10.783485 799.39099 1282.6727 4280759121
-9.548624 806.61194 1282.2211 4280627794
-7.161468 806.61194 1282.2211 4280627794
-9.548624 808.43701 1283.7599 4280956244
-4.774312 808.43701 1283.7599 4280956244
-2.387156 808.43701 1283.7599 4280956244
1.1899083 812.36346 1281.8385 4281481052
4.7596331 812.36346 1281.8385 4281744478
7.1394496 812.36346 1281.8385 4281810271
1.1899083 814.18286 1283.3726 4281744224
4.7596331 814.18286 1283.3726 4282137437
7.1394496 814.18286 1283.3726 4282334817
47.412846 820.42749 1282.0977 4279844983
49.783485 820.42749 1282.0977 4280371327
52.154129 820.42749 1282.0977 4284182440
18.965137 822.23987 1283.6259 4285031294
-17.172478 755.71381 1286.3942 4283585885
-12.266055 754.77606 1285.6035 4283455589
-9.8128443 753.83832 1284.8127 4284177772
-24.440367 764.07947 1286.9076 4280363595
-21.99633 764.07947 1286.9076 4280692304
-19.552294 763.1452 1286.1199 4281019987
-17.108257 762.21094 1285.3322 4280887884
-24.348623 770.5415 1285.8162 4280496208
-21.913761 769.61078 1285.0314 4280627793
-19.478899 768.68005 1284.2466 4281020757
-24.238533 779.37079 1285.4126 4280955214
-26.662386 781.22388 1286.9751 4280496208
-24.14679 785.76697 1284.2655 4280562255
-21.732111 785.76697 1284.2655 4280628048
-25.35413 787.61298 1285.822 4280627281
-21.732111 787.61298 1285.822 4280496208
-24.055046 793.974 1284.6454 4280824659
-21.649542 793.974 1284.6454 4280824659
-19.244038 793.974 1284.6454 4280824659
-16.838531 793.974 1284.6454 4280824659
-24.055046 795.81299 1286.196 4280890199
-21.649542 795.81299 1286.196 4280824405
-19.244038 795.81299 1286.196 4280824405
-16.838531 795.81299 1286.196 4280824405
-14.377981 803.05505 1285.7621 4280693074
-11.981651 803.05505 1285.7621 4280693074
-9.548624 810.26196 1285.2987 4281349718
-4.774312 811.17444 1286.0681 4281350490
-2.387156 811.17444 1286.0681 4281350490
1.1899083 816.91193 1285.6736 4281615980
4.7596331 816.00226 1284.9066 4281416547
7.1394496 817.82166 1286.4407 4282863725
10.709174 817.82166 1286.4407 4283060589
14.278899 817.82166 1286.4407 4282996342
-19.625689 757.58936 1287.9755 4283190877
-17.172478 757.58936 1287.9755 4283388513
-22.078899 759.46484 1289.5569 4281217103
-25.662384 765.94794 1288.4832 4280430414
-29.218349 772.40302 1287.3857 4280562001
-25.566055 772.40302 1287.3857 4280692817
-21.913761 772.40302 1287.3857 4280954962
-29.218349 774.26447 1288.9552 4280562001
-25.566055 774.26447 1288.9552 4280496208
-29.086239 783.0769 1288.5375 4280824659
-26.662386 783.0769 1288.5375 4280824659
-28.976147 791.30505 1288.9351 4281020755
-25.756577 790.0744 1287.8973 4280954962
-21.732111 789.45898 1287.3785 4280954962
-25.257797 797.65204 1287.7466 4281021271
-21.649542 797.65204 1287.7466 4280824154
-19.244038 797.65204 1287.7466 4280824405
-16.838531 797.65204 1287.7466 4280824405
-25.257797 799.49109 1289.2972 4281021269
-21.649542 799.49109 1289.2972 4280758612
-19.244038 799.49109 1289.2972 4280301141
-16.838531 799.49109 1289.2972 4280301141
-14.377981 805.80304 1288.0791 4280891214
-11.981651 805.80304 1288.0791 4280825421
-7.1889906 805.80304 1288.0791 4280956244
-19.170643 807.63507 1289.6239 4281022802
-16.774311 807.63507 1289.6239 4280957009
-14.377981 807.63507 1289.6239 4281021771
-11.981651 807.63507 1289.6239 4281219150
-7.1889906 807.63507 1289.6239 4281415511
-9.548624 815.73694 1289.915 4280763741
-4.774312 814.82446 1289.1456 4281419110
-2.387156 814.82446 1289.1456 4281550439
2.3798165 819.64099 1287.9747 4283586426
4.7596331 819.64099 1287.9747 4283916152
7.1394496 819.64099 1287.9747 4284179067
10.709174 819.64099 1287.9747 4283457140
14.278899 819.64099 1287.9747 4284309887
-27.086239 754.83624 1292.1943 4282403690
-24.623854 754.83624 1292.1943 4282862419
-22.161469 754.83624 1292.1943 4283256920
-29.438532 761.34033 1291.1383 4280956244
-26.985321 761.34033 1291.1383 4280824657
-31.891743 763.21582 1292.7196 4280496206
-29.438532 763.21582 1292.7196 4280496208
-31.772476 767.81641 1290.0586 4280954710
-29.32844 767.81641 1290.0586 4280626772
-26.884403 767.81641 1290.0586 4280626772
-34.216515 769.68494 1291.634 4280888917
-31.772476 769.68494 1291.634 4280888917
-34.088074 776.12592 1290.5248 4280627794
-31.653212 776.12592 1290.5248 4280627794
-29.218349 776.12592 1290.5248 4280562001
-26.783485 776.12592 1290.5248 4280496208
-34.088074 777.98743 1292.0944 4280562001
-31.653212 777.98743 1292.0944 4280627794
-29.218349 777.98743 1292.0944 4280562001
-31.510092 784.92993 1290.1 4281021773
-29.086239 784.92993 1290.1 4280758610
-31.510092 786.78302 1291.6624 4281218130
-29.086239 786.78302 1291.6624 4281020755
-31.390825 794.99713 1292.0481 4281218132
-28.976147 794.99713 1292.0481 4281218132
-26.561468 793.15112 1290.4916 4281086803
-25.257797 801.33008 1290.8479 4280955733
-21.649542 802.24963 1291.6232 4280890453
-19.244038 802.24963 1291.6232 4280956244
-16.838531 802.24963 1291.6232 4281022037
-16.774311 809.46704 1291.1686 4281285460
-14.377981 809.46704 1291.1686 4281351254
-10.783486 809.46704 1291.1686 4281548123
-7.1889906 809.46704 1291.1686 4281548126
-16.774311 811.29907 1292.7133 4280631380
-14.377981 811.29907 1292.7133 4281024864
-10.783486 811.29907 1292.7133 4281024864
-7.1889906 811.29907 1292.7133 4281024864
-14.322936 817.56201 1291.4539 4279975772
-10.742202 817.56201 1291.4539 4280173659
-14.322936 819.38696 1292.9927 4284182683
-11.93578 819.38696 1292.9927 4284379805
-34.473396 758.60126 1295.3689 4281747528
-32.011009 757.66003 1294.5752 4281156421
-28.317432 756.71875 1293.7816 4280630613
-24.623854 756.71875 1293.7816 4280756552
-40.069111 766.34161 1295.3552 4280823375
-36.798164 766.02905 1295.0917 4280823375
-34.344955 765.09131 1294.301 4280888917
-85.541283 772.48767 1293.9972 4280298313
-83.097244 772.48767 1293.9972 4280429898
-80.653214 771.55341 1293.2095 4280495176
-39.104588 772.48767 1293.9972 4280889940
-36.660549 772.48767 1293.9972 4280823891
-34.216515 771.55341 1293.2095 4280561749
-31.772476 771.55341 1293.2095 4280561749
-36.522934 779.84888 1293.6639 4280825169
-34.088074 779.84888 1293.6639 4280825169
-31.653212 779.84888 1293.6639 4280825169
-36.522934 781.71033 1295.2334 4280825423
-34.088074 781.71033 1295.2334 4281087566
-33.933945 788.63611 1293.2249 4281218130
-31.510092 788.63611 1293.2249 4281218130
-33.933945 790.48914 1294.7874 4281218132
-31.510092 790.48914 1294.7874 4281218132
-29.086239 790.48914 1294.7874 4281218132
-33.805504 796.8432 1293.6047 4281218132
-31.390825 796.8432 1293.6047 4281283925
-28.976147 796.8432 1293.6047 4281218132
-36.220184 798.68921 1295.1613 4280956244
-31.390825 798.68921 1295.1613 4281349718
-28.976147 798.68921 1295.1613 4281218132
-25.257797 805.00818 1293.9491 4281284695
-21.649542 805.92767 1294.7244 4281416280
-19.244038 806.84717 1295.4998 4281285460
-21.566973 814.96313 1295.8027 4281091702
-19.170643 814.96313 1295.8027 4280697714
-16.774311 814.04712 1295.0303 4280566377
-14.377981 813.1311 1294.2579 4281026399
-11.981651 813.1311 1294.2579 4281026399
-7.1889906 813.1311 1294.2579 4280961377
-42.016514 753.9726 1298.0062 4281416026
-39.544952 753.9726 1298.0062 4281811275
-37.073395 753.9726 1298.0062 4282008654
-34.601833 753.9726 1298.0062 4281617744
-40.629356 760.48376 1296.9562 4280822342
-36.93578 760.48376 1296.9562 4281019720
-34.473396 760.48376 1296.9562 4280562255
-46.78532 762.36627 1298.5435 4280888919
-44.322937 762.36627 1298.5435 4280823374
-41.86055 762.36627 1298.5435 4280823374
-78.502754 768.84229 1297.4637 4280627015
-76.049538 768.84229 1297.4637 4280627015
-44.157799 768.84229 1297.4637 4280823376
-41.704586 768.84229 1297.4637 4280954962
-40.326607 775.29034 1296.3604 4280627537
-36.660549 775.29034 1296.3604 4280758610
-46.436699 777.15887 1297.9358 4280758610
-43.992661 777.15887 1297.9358 4280824405
-40.326607 777.15887 1297.9358 4280693329
-37.740364 784.50256 1297.5878 4280955984
-34.088074 783.57184 1296.803 4281218130
-36.3578 794.19525 1297.9122 4281218132
-33.933945 792.34216 1296.3497 4281218132
-36.220184 800.53528 1296.7178 4281349718
-33.805504 800.53528 1296.7178 4281218130
-31.390825 800.53528 1296.7178 4281349716
-28.976147 800.53528 1296.7178 4281087829
-25.35413 800.53528 1296.7178 4281087829
-36.220184 802.38135 1298.2743 4281415511
-33.805504 802.38135 1298.2743 4281087566
-31.390825 802.38135 1298.2743 4281153359
-28.976147 802.38135 1298.2743 4281415511
-25.257797 808.68622 1297.0503 4281219416
-21.649542 808.68622 1297.0503 4281219415
-19.244038 808.68622 1297.0503 4280499538
-25.257797 810.52527 1298.601 4281682281
-21.649542 810.52527 1298.601 4281288550
-19.244038 810.52527 1298.601 4280961384
-19.170643 816.79517 1297.3474 4284577187
-16.774311 816.79517 1297.3474 4284445600
-46.959633 755.86212 1299.5995 4281678683
-43.252296 755.86212 1299.5995 4281283675
-39.544952 755.86212 1299.5995 4281877066
-37.073395 755.86212 1299.5995 4282206031
-51.902752 757.75165 1301.1926 4281284693
-49.431194 757.75165 1301.1926 4281809004
-46.959633 757.75165 1301.1926 4280887902
-44.488075 757.75165 1301.1926 4281019722
-49.247707 764.24878 1300.1307 4280888917
-46.78532 764.24878 1300.1307 4280888917
-44.322937 764.24878 1300.1307 4280889167
-51.710091 766.13135 1301.718 4280889167
-49.247707 766.13135 1301.718 4280954708
-46.78532 766.13135 1301.718 4280888915
-79.729355 770.71783 1299.0452 4280496460
-49.06422 770.71783 1299.0452 4280758610
-46.611008 770.71783 1299.0452 4280758610
-44.157799 770.71783 1299.0452 4280496208
-41.704586 770.71783 1299.0452 4280627794
-85.862389 772.59332 1300.6265 4280496210
-83.409172 772.59332 1300.6265 4280562255
-80.955963 772.59332 1300.6265 4280562255
-52.744034 772.59332 1300.6265 4280889167
-49.06422 772.59332 1300.6265 4280627794
-46.611008 772.59332 1300.6265 4280627794
-44.157799 772.59332 1300.6265 4280562001
-53.768806 779.02734 1299.5114 4280562001
-46.436699 779.02734 1299.5114 4280824659
-43.992661 779.02734 1299.5114 4280890199
-40.326607 779.02734 1299.5114 4280759121
-56.212845 780.89581 1301.0868 4280824659
-52.546791 780.89581 1301.0868 4280824405
-48.880733 780.89581 1301.0868 4280824405
-46.436699 780.89581 1301.0868 4280890199
-43.992661 780.89581 1301.0868 4280890453
-41.548622 780.89581 1301.0868 4280890453
-37.740364 787.2948 1299.942 4281218130
-37.740364 789.15625 1301.5116 4281218132
-43.629356 797.90137 1301.0371 4281022802
-41.205505 797.90137 1301.0371 4281088595
-38.781651 797.90137 1301.0371 4281415511
-33.933945 796.04828 1299.4746 4281283925
-36.220184 804.22736 1299.8308 4281876062
-33.805504 805.15039 1300.6091 4281811037
-25.35413 804.22736 1299.8308 4281743448
-25.257797 812.36426 1300.1516 4281485431
-7.2165136 812.36426 1300.1516 4280765792
-4.8110094 812.36426 1300.1516 4282012009
-2.4055047 812.36426 1300.1516 4282341231
0 812.36426 1300.1516 4283389304
-25.257797 814.20331 1301.7021 4284444064
-55.610092 760.58594 1303.5824 4280560714
-51.902752 760.58594 1303.5825 4280692303
-49.431194 759.64117 1302.7859 4280954712
-55.403671 768.95508 1304.0989 4280889166
-51.710091 768.01379 1303.3053 4280955214
-56.423855 775.40662 1302.9985 4280889168
-52.335163 775.09399 1302.735 4280823889
-49.06422 775.40662 1302.9985 4280758866
-56.212845 782.76428 1302.6622 4280693589
-52.546791 782.76428 1302.6622 4280301146
-48.880733 782.76428 1302.6622 4280890453
-46.436699 782.76428 1302.6622 4280890453
-43.992661 782.76428 1302.6622 4281086549
-41.548622 782.76428 1302.6622 4281086549
-56.212845 784.63281 1304.2377 4280890453
-52.546791 784.63281 1304.2377 4280366934
-48.880733 784.63281 1304.2377 4280956244
-46.436699 784.63281 1304.2377 4280956244
-43.992661 784.63281 1304.2377 4281218132
-41.548622 784.63281 1304.2377 4281283925
-51.132111 791.0177 1303.0812 4280956244
-48.697247 791.0177 1303.0812 4280956248
-46.262386 791.0177 1303.0812 4281087577
-43.827522 791.0177 1303.0812 4281153622
-41.392662 791.0177 1303.0812 4281087829
-38.957798 791.0177 1303.0812 4281218132
-51.132111 792.87921 1304.6508 4280956248
-48.697247 792.87921 1304.6508 4281087577
-46.262386 792.87921 1304.6508 4281087577
-43.827522 792.87921 1304.6508 4281153622
-41.392662 792.87921 1304.6508 4281153622
-38.957798 792.87921 1304.6508 4281087829
-48.477066 799.75439 1302.5996 4281219161
-46.053211 799.75439 1302.5996 4281153368
-43.629356 799.75439 1302.5996 4281087566
-41.205505 799.75439 1302.5996 4281284945
-38.781651 799.75439 1302.5996 4281481304
-46.053211 801.60742 1304.162 4281548380
-43.629356 801.60742 1304.162 4281744474
-41.205505 801.60742 1304.162 4281876316
-38.781651 801.60742 1304.162 4281941855
-31.510092 801.60742 1304.162 4281415761
-29.086239 801.60742 1304.162 4281742679
-62.06422 754.47314 1306.2765 4281086801
-58.340366 754.47314 1306.2765 4280429638
-54.616512 754.47314 1306.2765 4280363591
-62.06422 756.37109 1307.8767 4281284945
-59.58165 756.37109 1307.8767 4280626252
-55.610092 763.42023 1305.9723 4280692299
-56.845871 765.30975 1307.5654 4281085515
-83.7211 771.77887 1306.4799 4280627794
-78.796333 771.77887 1306.4799 4280693839
-58.877064 778.21985 1305.3706 4280824659
-58.877064 780.09534 1306.952 4280627796
-56.212845 787.43555 1306.6008 4280956246
-52.954132 787.12408 1306.3383 4280890454
-48.880733 786.50128 1305.8131 4280956244
-46.436699 786.50128 1305.8131 4280956244
-43.992661 786.50128 1305.8131 4281283925
-41.548622 786.50128 1305.8131 4281218132
-51.132111 794.74066 1306.2202 4281153370
-48.697247 794.74066 1306.2202 4281219161
-46.262386 794.74066 1306.2202 4281153368
-99.829361 796.60217 1307.7898 4281614173
-52.349541 796.60217 1307.7898 4281153370
-37.569725 803.46051 1305.7245 4282074470
-31.510092 803.46051 1305.7245 4281745761
-29.086239 803.46051 1305.7245 4281416797
-37.569725 805.3136 1307.2869 4281877346
-62.06422 758.26904 1309.4771 4280823374
-59.58165 758.26904 1309.4771 4280626761
-79.089905 767.19928 1309.1587 4280628046
-59.317432 767.19928 1309.1587 4280823374
-88.976151 769.08881 1310.7518 4280496208
-86.504585 769.08881 1310.7518 4280562001
-81.56147 769.08881 1310.7518 4280693587
-76.618347 769.08881 1310.7518 4280693839
-74.14679 769.08881 1310.7518 4280758610
-70.439453 769.08881 1310.7518 4280824145
-66.732109 769.08881 1310.7518 4280823374
-64.260551 769.08881 1310.7518 4280823374
-61.78899 769.08881 1310.7518 4280823374
-59.317432 769.08881 1310.7518 4280823374
-78.796333 773.66138 1308.0671 4280824659
-71.409172 773.66138 1308.0671 4281086549
-68.946793 773.66138 1308.0671 4281021007
-64.022018 773.66138 1308.0671 4281021007
-61.559631 773.66138 1308.0671 4280955214
-59.097248 773.66138 1308.0671 4280954962
-81.258713 775.54388 1309.6545 4280891218
-78.796333 775.54388 1309.6545 4280956244
-73.871559 775.54388 1309.6545 4281086549
-71.409172 775.54388 1309.6545 4281415513
-67.715599 775.54388 1309.6545 4281413969
-64.022018 775.54388 1309.6545 4280825169
-61.559631 775.54388 1309.6545 4280825169
-58.877064 781.97083 1308.5333 4280890453
-61.330276 783.84631 1310.1147 4280956244
-58.877064 783.84631 1310.1147 4280956244
-56.212845 790.23828 1308.9641 4280956248
-53.768806 790.23828 1308.9641 4280956248
-58.656879 792.10675 1310.5396 4281219161
-56.212845 792.10675 1310.5396 4281153368
-53.768806 792.10675 1310.5396 4281087577
-99.829361 799.39435 1310.144 4281746015
-97.394493 800.32507 1310.9288 4281877600
-51.132111 799.39435 1310.144 4281679965
-48.697247 798.46362 1309.3594 4281548380
-46.262386 800.32507 1310.9288 4281745759
-43.827522 800.32507 1310.9288 4281745761
-41.392662 800.32507 1310.9288 4282074470
-37.569725 807.16663 1308.8494 4281616992
-33.933945 807.16663 1308.8494 4281814116
-31.510092 807.16663 1308.8494 4282143082
-69.768806 755.5509 1313.7253 4280560968
-67.277061 754.59845 1312.9222 4280626760
-64.785324 754.59845 1312.9222 4280955470
-62.06422 760.16699 1311.0774 4280692810
-59.58165 760.16699 1311.0774 4280692810
-76.959633 762.06494 1312.6776 4280562251
-62.06422 762.06494 1312.6776 4280823374
-59.58165 762.06494 1312.6776 4281019722
-84.033028 770.97833 1312.3451 4280627794
-81.56147 770.97833 1312.3451 4280562001
-76.618347 770.97833 1312.3451 4280758610
-74.14679 770.97833 1312.3451 4281020755
-66.732109 770.97833 1312.3451 4281021007
-85.268806 772.86786 1313.9382 4280890963
-76.618347 772.86786 1313.9382 4280956244
-78.796333 777.42639 1311.2418 4280956244
-71.409172 778.36768 1312.0354 4281218132
-68.946793 778.36768 1312.0354 4281087570
-64.022018 778.36768 1312.0354 4280693839
-61.559631 778.36768 1312.0354 4280628046
-61.330276 785.7218 1311.6962 4280956244
-58.877064 785.7218 1311.6962 4280956248
-61.330276 787.59735 1313.2775 4281153622
-58.877064 787.59735 1313.2775 4281087577
-58.656879 793.97522 1312.115 4281285210
-56.212845 793.97522 1312.115 4281219161
-58.656879 795.84375 1313.6904 4281416797
-56.212845 795.84375 1313.6904 4281548126
-53.768806 795.84375 1313.6904 4281548126
-97.394493 802.18652 1312.4984 4282400862
-46.262386 802.18652 1312.4984 4281679966
-43.827522 802.18652 1312.4984 4281548378
-41.392662 802.18652 1312.4984 4281745757
-73.506424 757.45593 1315.3315 4280626761
-69.768806 757.45593 1315.3315 4280626761
-67.277061 757.45593 1315.3315 4280692810
-64.785324 757.45593 1315.3315 4280692810
-73.506424 759.36084 1316.9377 4280562251
-69.768806 759.36084 1316.9377 4280889167
-67.277061 759.36084 1316.9377 4280889167
-64.785324 759.36084 1316.9377 4280823374
-76.959633 763.96289 1314.278 4280628046
-74.477066 763.96289 1314.278 4280693839
-70.753212 763.96289 1314.278 4280824654
-67.029358 763.96289 1314.278 4280692810
-64.546791 763.96289 1314.278 4280889167
-62.06422 763.96289 1314.278 4280757581
-91.447708 774.75739 1315.5315 4281349718
-85.268806 774.75739 1315.5315 4281021778
-81.56147 774.75739 1315.5315 4280957011
-76.618347 774.75739 1315.5315 4280890451
-74.14679 774.75739 1315.5315 4281218132
-66.732109 774.75739 1315.5315 4281086801
-78.796333 781.19141 1314.4164 4281153370
-71.409172 781.19141 1314.4164 4281153370
-67.715599 781.19141 1314.4164 4281087829
-64.022018 781.19141 1314.4164 4280956244
-78.796333 783.07397 1316.0037 4281219161
-76.333946 783.07397 1316.0037 4281219161
-73.871559 783.07397 1316.0037 4281219161
-71.409172 783.07397 1316.0037 4281153368
-67.715599 783.07397 1316.0037 4281087829
-64.022018 783.07397 1316.0037 4281087829
-61.330276 790.41058 1315.6495 4281219160
-56.212845 797.71222 1315.2659 4281288291
-53.768806 797.71222 1315.2659 4281811805
-48.880733 797.71222 1315.2659 4281745759
-56.212845 799.58069 1316.8413 4281092193
-52.546791 799.58069 1316.8413 4281222496
-48.880733 799.58069 1316.8413 4281745759
-41.392662 804.04803 1314.068 4282140765
-86.889908 767.75873 1317.4785 4280824659
-91.855049 769.65668 1319.0789 4281087323
-89.372475 769.65668 1319.0789 4280956244
-91.447708 776.64697 1317.1246 4281285210
-86.504585 776.64697 1317.1246 4281415511
-81.56147 776.64697 1317.1246 4281219161
-79.089905 776.64697 1317.1246 4281153370
-76.618347 776.64697 1317.1246 4280956248
-74.14679 776.64697 1317.1246 4281218132
-66.732109 776.64697 1317.1246 4280825423
-91.447708 778.5365 1318.7179 4281219161
-81.56147 778.5365 1318.7179 4281153372
-76.618347 778.5365 1318.7179 4281153370
-74.14679 778.5365 1318.7179 4281153370
-91.108253 784.95642 1317.5909 4281417049
-88.645874 784.95642 1317.5909 4281416797
-86.183487 784.95642 1317.5909 4281219161
-82.489906 784.95642 1317.5909 4281088595
-78.796333 784.95642 1317.5909 4281481304
-76.333946 784.95642 1317.5909 4281415511
-73.871559 784.95642 1317.5909 4281219161
-71.409172 784.95642 1317.5909 4281219161
-67.715599 784.95642 1317.5909 4281153622
-100.9578 786.83899 1319.1782 4281091161
-98.495415 786.83899 1319.1782 4281548380
-91.108253 786.83899 1319.1782 4280893533
-86.183487 786.83899 1319.1782 4281416797
-78.796333 786.83899 1319.1782 4281481306
-71.409172 786.83899 1319.1782 4281415513
-67.715599 786.83899 1319.1782 4281349970
-61.330276 793.22382 1318.0216 4281285210
-90.768806 795.0993 1319.603 4281811555
-63.783485 795.0993 1319.603 4281024864
-61.330276 795.0993 1319.603 4280893535
-58.877064 795.0993 1319.603 4280893533
-68.433029 802.38342 1319.2046 4281814380
-63.544952 802.38342 1319.2046 4282010990
-61.100918 802.38342 1319.2046 4281945453
-58.656879 803.31769 1319.9923 4282864254
-56.212845 802.38342 1319.2046 4282010478
-51.324772 801.44922 1318.4169 4281288291
-48.880733 801.44922 1318.4169 4281354082
-46.436699 801.44922 1318.4169 4281617253
-43.992661 802.38342 1319.2046 4282798451
-41.548622 803.31769 1319.9923 4283719565
-96.820183 772.5036 1321.4792 4281219164
-94.337616 772.5036 1321.4792 4281284439
-89.372475 772.5036 1321.4792 4281283924
-84.407341 773.45258 1322.2794 4281285210
-97.626602 782.31555 1321.9043 4281614425
-93.919266 782.31555 1321.9043 4281548378
-91.447708 780.42603 1320.311 4281219161
-88.976151 780.42603 1320.311 4281219161
-85.268806 780.42603 1320.311 4281219417
-81.56147 780.42603 1320.311 4281219161
-64.260551 782.31555 1321.9043 4281153622
-98.495415 788.7215 1320.7655 4281548128
-91.108253 788.7215 1320.7655 4281548380
-88.645874 788.7215 1320.7655 4281548128
-86.183487 788.7215 1320.7655 4281416799
-73.871559 788.7215 1320.7655 4281351004
-97.264221 790.604 1322.3528 4281679714
-93.570641 790.604 1322.3528 4281613921
-91.108253 790.604 1322.3528 4281613921
-88.645874 790.604 1322.3528 4281024864
-86.183487 790.604 1322.3528 4280893535
-64.022018 790.604 1322.3528 4281285210
-93.222015 796.97485 1321.1843 4282074722
-90.768806 796.97485 1321.1843 4281811807
-68.689911 796.97485 1321.1843 4281222243
-63.783485 796.97485 1321.1843 4281420390
-61.330276 796.97485 1321.1843 4281354597
-58.877064 796.97485 1321.1843 4281092193
-93.222015 798.85034 1322.7657 4282074722
-90.768806 798.85034 1322.7657 4282074722
-88.315598 798.85034 1322.7657 4281877600
-66.236694 798.85034 1322.7657 4281091939
-58.877064 798.85034 1322.7657 4281222495
-53.970642 798.85034 1322.7657 4281222497
-96.820183 775.35052 1323.8798 4281284705
-94.337616 775.35052 1323.8798 4281285210
-89.372475 775.35052 1323.8798 4281153370
-85.648621 775.35052 1323.8798 4281284957
-99.30275 777.24847 1325.48 4281548126
-96.820183 777.24847 1325.48 4281416797
-94.337616 777.24847 1325.48 4281285210
-96.390823 784.20508 1323.4974 4281548380
-93.919266 784.20508 1323.4974 4281024862
-88.976151 784.20508 1323.4974 4281416797
-84.033028 784.20508 1323.4974 4281219415
-81.56147 784.20508 1323.4974 4281285208
-76.618347 784.20508 1323.4974 4281481306
-74.14679 784.20508 1323.4974 4281481306
-64.260551 784.20508 1323.4974 4281087829
-96.390823 786.0946 1325.0907 4281548128
-93.919266 786.0946 1325.0907 4281548380
-84.033028 786.0946 1325.0907 4281351004
-81.56147 786.0946 1325.0907 4281548126
-79.089905 786.0946 1325.0907 4281678429
-76.618347 786.0946 1325.0907 4281678429
-70.439453 786.0946 1325.0907 4281153878
-66.732109 786.0946 1325.0907 4281088595
-64.260551 786.0946 1325.0907 4281219161
-96.033028 793.42773 1324.7336 4282270817
-93.570641 792.48651 1323.9401 4281877348
-88.645874 793.42773 1324.7336 4281353571
-86.183487 793.42773 1324.7336 4281221729
-78.796333 793.42773 1324.7336 4282074469
-76.333946 793.42773 1324.7336 4281745247
-73.871559 793.42773 1324.7336 4281090912
-71.409172 793.42773 1324.7336 4281288036
-67.305199 793.11401 1324.4691 4281352032
-90.768806 800.72583 1324.3472 4282273391
-88.315598 800.72583 1324.3472 4282665067
-85.862389 800.72583 1324.3472 4282730860
-83.409172 800.72583 1324.3472 4282404466
-66.236694 800.72583 1324.3472 4282668408
-52.744034 800.72583 1324.3472 4283323009
