# .PCD v0.7 - Point Cloud Data file format
VERSION 0.7
FIELDS x y z rgb
SIZE 4 4 4 4
TYPE F F F U
COUNT 1 1 1 1
WIDTH 526
HEIGHT 1
VIEWPOINT 0 0 0 1 0 0 0
POINTS 526
DATA ascii
25.491743 782.39056 1212.093 4293258751
13.860551 791.70795 1214.717 4294114047
16.170643 791.70795 1214.717 4293719551
18.480734 790.82489 1213.9725 4293784063
23.266054 779.57428 1216.2585 4293258751
27.919266 779.57428 1216.2585 4293258751
31.409174 779.57428 1216.2585 4292995583
-6.9798164 781.35297 1217.7583 4284112511
18.612844 781.35297 1217.7583 4293718015
23.266054 781.35297 1217.7583 4293389567
25.592661 781.35297 1217.7583 4293389567
27.919266 781.35297 1217.7583 4293390079
31.409174 781.35297 1217.7583 4293192447
34.899082 781.35297 1217.7583 4292929279
16.222019 785.93396 1215.0808 4293587711
19.698166 785.93396 1215.0808 4293652223
23.174313 785.93396 1215.0808 4293455615
25.491743 785.93396 1215.0808 4293455615
27.809174 785.93396 1215.0808 4293389567
11.587156 787.70563 1216.5746 4293720063
13.904587 787.70563 1216.5746 4294113535
16.222019 787.70563 1216.5746 4293982207
20.85688 787.70563 1216.5746 4293784063
23.174313 787.70563 1216.5746 4293718015
25.491743 787.70563 1216.5746 4293718015
27.809174 787.70563 1216.5746 4293455615
30.126606 787.70563 1216.5746 4293389567
11.550459 793.474 1216.2062 4292803583
13.860551 793.474 1216.2062 4294310911
16.170643 793.474 1216.2062 4293784575
19.63578 793.474 1216.2062 4293981951
23.100918 793.474 1216.2062 4293850623
6.9302754 795.24011 1217.6953 4282869144
10.395412 795.24011 1217.6953 4290365935
13.860551 795.24011 1217.6953 4294114047
16.170643 795.24011 1217.6953 4293653503
19.63578 795.24011 1217.6953 4293785087
23.100918 795.24011 1217.6953 4293325055
25.411009 795.24011 1217.6953 4293522431
27.721102 795.24011 1217.6953 4293456127
34.651375 795.24011 1217.6953 4293455871
36.961468 795.24011 1217.6953 4293390079
0 802.41193 1217.2023 4284049820
23.009174 803.29144 1217.9438 4293587711
25.310091 803.29144 1217.9438 4293521919
27.61101 803.29144 1217.9438 4293390079
34.51376 802.41193 1217.2023 4293390079
0.7785933 775.56763 1219.4204 4286281134
16.350458 776.75806 1220.4242 4293389823
18.686239 776.75806 1220.4242 4293652223
21.022018 776.75806 1220.4242 4293520639
-4.6532111 784.9104 1220.7578 4279185240
9.3064222 784.9104 1220.7578 4291943935
13.959633 783.13171 1219.2581 4293916671
31.796942 783.72461 1219.7579 4293126911
34.899082 784.02106 1220.0079 4292995583
1.1587156 791.24902 1219.5623 4283655823
4.6348624 791.24902 1219.5623 4281095050
6.9522934 791.24902 1219.5623 4283332012
10.042202 790.06787 1218.5664 4289644538
20.85688 789.47736 1218.0685 4293981183
23.174313 789.47736 1218.0685 4293784063
25.491743 790.36316 1218.8154 4293718527
27.809174 790.36316 1218.8154 4293455871
30.126606 790.36316 1218.8154 4293455871
-4.6201835 797.00616 1219.1844 4281153120
-2.3100917 797.00616 1219.1844 4283061117
1.1550459 797.00616 1219.1844 4284115867
4.6201835 797.00616 1219.1844 4282800780
6.9302754 797.00616 1219.1844 4283392660
10.395412 797.00616 1219.1844 4290170605
13.860551 797.00616 1219.1844 4294311167
16.170643 797.00616 1219.1844 4293850623
19.63578 797.00616 1219.1844 4293785343
23.100918 797.00616 1219.1844 4293851135
25.411009 797.00616 1219.1844 4293719551
27.721102 797.00616 1219.1844 4293784575
30.031193 797.00616 1219.1844 4293850367
34.651375 797.00616 1219.1844 4293587711
-4.6201835 798.77228 1220.6736 4281350750
-2.3100917 798.77228 1220.6736 4283259003
2.3100917 798.77228 1220.6736 4283786392
4.6201835 798.77228 1220.6736 4282733963
6.9302754 798.77228 1220.6736 4284312995
10.395412 798.77228 1220.6736 4290760946
13.860551 798.77228 1220.6736 4294311167
16.170643 798.77228 1220.6736 4293521919
19.63578 798.77228 1220.6736 4293324799
23.100918 798.77228 1220.6736 4293521919
25.411009 798.77228 1220.6736 4293521919
27.721102 798.77228 1220.6736 4293390079
31.186239 798.77228 1220.6736 4293324287
0 805.93005 1220.1687 4283327385
27.61101 806.80957 1220.9103 4293456127
25.209175 813.05286 1219.6343 4292995327
27.500917 813.05286 1219.6343 4292995327
-7.0293579 772.71368 1222.2462 4289835473
-4.6862388 772.71368 1222.2462 4289242329
-2.3431194 772.71368 1222.2462 4288715985
11.715596 772.71368 1222.2462 4292139263
14.058716 772.71368 1222.2462 4292534271
-7.0293579 774.505 1223.7566 4285888406
-4.6862388 774.505 1223.7566 4286872746
-2.3431194 774.505 1223.7566 4288057276
2.3431194 774.505 1223.7566 4293318143
4.6862388 774.505 1223.7566 4292207612
7.0293579 774.505 1223.7566 4292339454
10.544037 774.505 1223.7566 4292008703
14.058716 774.505 1223.7566 4292995071
-4.6715598 778.54376 1221.9298 4285230724
-2.3357799 778.54376 1221.9298 4286941342
0 778.54376 1221.9298 4289834446
14.014679 778.54376 1221.9298 4293981183
16.350458 778.54376 1221.9298 4294046975
21.022018 778.54376 1221.9298 4293586431
-7.0073395 780.32947 1223.4355 4280430163
-4.6715598 780.32947 1223.4355 4278922069
-2.3357799 780.32947 1223.4355 4279777378
0 780.32947 1223.4355 4279711627
10.511009 780.32947 1223.4355 4293521919
-6.9798164 788.46783 1223.7573 4281744478
-4.6532111 787.57849 1223.0074 4280563808
-2.3266056 787.57849 1223.0074 4282274683
1.1633028 786.68909 1222.2576 4283128973
6.9798164 786.68909 1222.2576 4283930577
32.572475 787.57849 1223.0074 4293258751
34.899082 787.57849 1223.0074 4293324287
37.225689 788.46783 1223.7573 4293389567
-4.6348624 793.02075 1221.0562 4280564063
-2.3174312 793.02075 1221.0562 4282472060
1.1587156 793.02075 1221.0562 4283984536
4.6348624 793.02075 1221.0562 4282277264
31.67156 793.61133 1221.5541 4293324543
-4.6201835 800.53839 1222.1627 4281024864
-2.3100917 800.53839 1222.1627 4282801532
2.3100917 800.53839 1222.1627 4283458453
4.6201835 800.53839 1222.1627 4282012039
6.9302754 800.53839 1222.1627 4284380587
10.395412 800.53839 1222.1627 4291220984
13.860551 800.53839 1222.1627 4294180095
16.170643 800.53839 1222.1627 4293587711
19.63578 800.53839 1222.1627 4293587967
31.186239 800.53839 1222.1627 4293258495
-4.6201835 802.30444 1223.6517 4280960100
-2.3100917 802.30444 1223.6517 4282605182
2.3100917 802.30444 1223.6517 4282997398
4.6201835 802.30444 1223.6517 4281159042
6.9302754 802.30444 1223.6517 4284185776
10.395412 802.30444 1223.6517 4291614713
13.860551 802.30444 1223.6517 4293719039
16.170643 802.30444 1223.6517 4293390079
19.63578 802.30444 1223.6517 4293521663
23.100918 802.30444 1223.6517 4293522431
25.411009 802.30444 1223.6517 4293522431
27.721102 802.30444 1223.6517 4293258751
31.186239 802.30444 1223.6517 4293126911
34.651375 802.30444 1223.6517 4293192703
36.961468 802.30444 1223.6517 4293257983
0 808.56866 1222.3934 4283526043
19.557798 808.56866 1222.3934 4292995327
23.009174 808.56866 1222.3934 4293257727
25.310091 808.56866 1222.3934 4293191935
28.761467 808.56866 1222.3934 4293061119
32.212845 808.56866 1222.3934 4293061119
-2.3009174 810.32776 1223.8767 4283591829
0 810.32776 1223.8767 4283591575
13.805505 810.32776 1223.8767 4293192703
16.106422 810.32776 1223.8767 4292995071
19.557798 810.32776 1223.8767 4293060863
23.009174 810.32776 1223.8767 4293061119
29.911926 810.32776 1223.8767 4293061119
32.212845 810.32776 1223.8767 4292995071
19.479816 814.80493 1221.1116 4292273151
22.917431 814.80493 1221.1116 4292403967
25.209175 814.80493 1221.1116 4292601343
28.64679 814.80493 1221.1116 4292863487
19.479816 816.55695 1222.5889 4292600575
22.917431 816.55695 1222.5889 4292469759
25.209175 816.55695 1222.5889 4292864511
7.056881 769.89044 1226.4058 4291287551
9.409174 769.89044 1226.4058 4292271103
2.3431194 776.29633 1225.267 4294045183
4.6862388 776.29633 1225.267 4293782271
7.0293579 776.29633 1225.267 4293650943
10.544037 776.29633 1225.267 4292797439
2.3431194 778.08765 1226.7775 4282935228
4.6862388 778.08765 1226.7775 4287861467
7.0293579 778.08765 1226.7775 4292598783
-7.0073395 782.11523 1224.9412 4280954458
-2.3357799 782.11523 1224.9412 4280566893
1.16789 782.11523 1224.9412 4280895874
4.6715598 782.11523 1224.9412 4280503988
7.0073395 782.11523 1224.9412 4289122559
-7.0073395 783.90094 1226.4469 4281744478
4.6715598 783.90094 1226.4469 4279193481
-6.9798164 790.24652 1225.2572 4281744478
-10.469725 792.02527 1226.757 4281349720
-6.9798164 792.02527 1226.757 4281547100
-4.6201835 804.95361 1225.8855 4280829542
-2.3100917 804.95361 1225.8855 4282803333
2.3100917 804.95361 1225.8855 4282538891
4.6201835 804.95361 1225.8855 4281290628
6.9302754 804.95361 1225.8855 4285830601
10.395412 804.95355 1225.8855 4291745272
13.860551 804.95361 1225.8855 4293324287
16.170643 804.95361 1225.8855 4293126655
19.63578 804.07056 1225.1409 4293456127
23.100918 804.07056 1225.1409 4293521919
25.411009 804.07056 1225.1409 4293653503
31.186239 804.07056 1225.1409 4293258495
34.651375 804.07056 1225.1409 4293455871
-4.6018348 812.08679 1225.3599 4281420138
-2.3009174 812.08679 1225.3599 4283262342
0 812.08679 1225.3599 4283393942
11.504587 812.08679 1225.3599 4292995583
13.805505 812.08679 1225.3599 4293061119
16.106422 812.08679 1225.3599 4292798207
32.212845 812.08679 1225.3599 4292929279
-2.3009174 813.84589 1226.8431 4282869120
1.1504587 813.84589 1226.8431 4282932112
4.6018348 813.84589 1226.8431 4280896387
6.9027524 813.84589 1226.8431 4288528376
10.354128 813.84589 1226.8431 4292535547
13.805505 813.84589 1226.8431 4292930047
16.106422 813.84589 1226.8431 4292930047
-2.291743 820.06104 1225.5435 4285693648
0 820.06104 1225.5435 4284970911
29.79266 820.06104 1225.5435 4293126655
-9.3431196 785.68665 1227.9525 4281678429
-10.511009 787.47241 1229.4583 4281547099
-6.9798164 793.80396 1228.2567 4281941857
-6.9798164 795.58264 1229.7565 4282204777
-6.9522934 801.87921 1228.5254 4281877350
-6.9302754 808.48572 1228.8638 4281877094
-4.6201835 807.60272 1228.1191 4281223025
2.3100917 808.48572 1228.8638 4281946751
4.6201835 808.48572 1228.8638 4280830847
6.9302754 808.48572 1228.8638 4287475683
10.010398 808.19141 1228.6156 4291547899
-4.6018348 815.60498 1228.3263 4282209674
-2.3009174 815.60498 1228.3263 4283854243
1.1504587 815.60498 1228.3263 4282866573
4.6018348 815.60498 1228.3263 4280960382
6.9027524 815.60498 1228.3263 4289381886
10.354128 815.60498 1228.3263 4292862975
13.805505 815.60498 1228.3263 4292665855
16.106422 815.60498 1228.3263 4292402687
19.557798 815.60498 1228.3263 4292008703
23.009174 815.60498 1228.3263 4292403967
25.310091 815.60498 1228.3263 4292535551
-9.2036695 817.36401 1229.8094 4281222495
-6.9027524 817.36401 1229.8094 4282472562
-4.6018348 817.36401 1229.8094 4283259051
2.3009174 817.36401 1229.8094 4282141812
4.6018348 817.36401 1229.8094 4282143109
6.9027524 817.36401 1229.8094 4290169855
10.354128 817.36401 1229.8094 4293323007
13.805505 817.36401 1229.8094 4292140543
16.106422 817.36401 1229.8094 4291943167
19.557798 817.36401 1229.8094 4292140287
23.009174 817.36401 1229.8094 4292469247
25.310091 817.36401 1229.8094 4292732159
27.61101 817.36401 1229.8094 4292929279
-2.291743 821.81311 1227.0208 4284774061
0 821.81311 1227.0208 4284315546
29.79266 821.81311 1227.0208 4292862975
0 823.56519 1228.498 4282734210
-14.014679 789.25812 1230.9639 4280954962
-10.511009 791.04382 1232.4696 4281415511
-6.9798164 797.36133 1231.2562 4281942889
-9.3064222 799.14008 1232.756 4281416799
-6.9522934 803.65088 1230.0193 4282204262
-9.2697248 805.42261 1231.5131 4281613921
-9.2403669 812.90094 1232.5864 4280631651
-6.9302754 812.01794 1231.8419 4281815156
-4.6201835 811.13489 1231.0974 4281355880
-4.6018348 819.12311 1231.2927 4282471306
-2.3009174 820.88214 1232.7759 4283784573
2.3009174 820.00262 1232.0343 4282143353
4.6018348 820.00262 1232.0343 4283917730
6.9027524 820.00262 1232.0343 4291812863
10.354129 820.00262 1232.0343 4292994303
13.805505 820.00262 1232.0343 4292009727
16.106422 820.00262 1232.0343 4291943935
19.557798 819.12311 1231.2927 4292009471
23.009174 820.00262 1232.0343 4292534783
25.310091 820.00262 1232.0343 4292732159
28.377981 820.29584 1232.2815 4292797439
-14.058716 788.83569 1235.8398 4281218130
-10.511009 793.72241 1234.728 4281152855
-10.469725 800.91876 1234.2557 4281547358
-11.633027 802.69751 1235.7555 4281284705
-9.2403669 816.43311 1235.5647 4281616742
-6.9302754 816.43311 1235.5647 4282274415
-2.3009174 823.52075 1235.0007 4282666100
0.76697248 823.22754 1234.7535 4281617773
27.61101 822.64124 1234.259 4292666111
-4.774312 753.68695 1237.5961 4280637022
-2.387156 753.68695 1237.5961 4281952882
1.193578 753.68695 1237.5961 4283654036
-14.058716 792.41833 1238.8607 4280956244
-14.014679 796.401 1236.9866 4280824405
-11.678899 796.401 1236.9866 4280956248
-14.014679 798.18677 1238.4923 4280824405
-11.587156 814.28107 1238.9823 4282074724
-6.9302754 818.19922 1237.0538 4282205545
-4.6201835 818.19922 1237.0538 4282468969
19.63578 818.19922 1237.0538 4292403967
-4.6201835 819.96527 1238.543 4282731373
4.6201835 819.96527 1238.543 4287468730
6.9302754 819.96527 1238.543 4292732159
10.395412 819.96527 1238.543 4292535039
13.860551 819.96527 1238.543 4292403711
16.170643 819.96527 1238.543 4292403711
19.63578 819.96527 1238.543 4292666367
23.100918 819.96527 1238.543 4292797695
25.411009 819.96527 1238.543 4292929023
-14.014679 799.97247 1239.9979 4280824154
-9.2697248 816.05273 1240.4762 4282336874
-6.9522934 817.82446 1241.97 4282534762
2.3100917 821.73138 1240.0321 4284774552
4.6201835 821.73138 1240.0321 4287798493
6.9302754 821.73138 1240.0321 4292864511
10.395412 821.73138 1240.0321 4292731647
13.860551 821.73138 1240.0321 4292337919
16.170643 821.73138 1240.0321 4292798463
23.100918 821.73138 1240.0321 4292731903
25.411009 821.73138 1240.0321 4293060863
-2.3100917 823.49744 1241.5212 4281746271
0 823.49744 1241.5212 4282928212
25.411009 823.49744 1241.5212 4292665855
-14.377981 754.50665 1244.8274 4289506017
-11.633027 813.36975 1244.754 4282140265
-6.9522934 819.59619 1243.4639 4283388531
-4.6348624 820.48206 1244.2108 4282864503
2.3174312 821.36786 1244.9578 4287336086
4.6348624 821.36786 1244.9578 4290689762
6.9522934 821.36786 1244.9578 4293387263
10.42844 821.36786 1244.9578 4292534527
13.904587 821.36786 1244.9578 4292403199
16.222019 821.36786 1244.9578 4292797951
19.698166 820.48206 1244.2108 4292929023
23.174313 821.36786 1244.9578 4292271103
-10.469725 815.14844 1246.2538 4282337382
-9.3064222 816.92719 1247.7535 4283059823
-2.3174312 824.02539 1247.1985 4282800481
0 824.02539 1247.1985 4285493643
16.222019 823.13953 1246.4515 4293060863
20.85688 823.13953 1246.4515 4292666111
23.174313 823.13953 1246.4515 4292600319
-16.838531 753.51538 1250.5317 4285829822
-14.014679 812.47253 1250.5377 4282337380
-6.9798164 818.70587 1249.2533 4283586419
-4.6532111 820.48462 1250.7531 4282932589
2.3266056 820.48462 1250.7531 4288983253
4.6532111 820.48462 1250.7531 4291611641
6.9798164 820.48462 1250.7531 4293190655
10.469725 820.48462 1250.7531 4292797695
13.959633 820.48462 1250.7531 4292797695
18.612844 820.48462 1250.7531 4292929279
-2.3174312 826.68292 1249.4392 4287602604
0 826.68292 1249.4392 4290099170
0 828.45465 1250.9331 4292993791
-11.678899 814.25824 1252.0433 4282928486
-10.511009 816.04395 1253.5491 4283125612
-4.6532111 823.15265 1253.0027 4283721068
2.3266056 823.15265 1253.0027 4292664045
4.6532111 823.15265 1253.0027 4293453823
6.9798164 822.26331 1252.2528 4293321983
10.469725 822.26331 1252.2528 4292731903
16.286238 822.26331 1252.2528 4292666367
20.939449 822.26331 1252.2528 4292731647
-2.3174312 830.22632 1252.427 4293585663
0 830.22632 1252.427 4293191423
0 831.99805 1253.9208 4292468223
-14.058716 812.12305 1255.4751 4282796901
-14.058716 813.91437 1256.9856 4282796903
-7.0073395 817.82971 1255.0547 4283455347
-9.3431196 819.61542 1256.5604 4283192172
-7.0073395 819.61542 1256.5604 4282797414
14.014679 819.61542 1256.5604 4292600575
18.686239 819.61542 1256.5604 4292271103
-2.3266056 825.82068 1255.2524 4292204019
2.3266056 827.59943 1256.7522 4292994303
4.6532111 827.59943 1256.7522 4292600063
-10.544037 815.70569 1258.496 4283191663
-9.3431196 821.40112 1258.066 4283259512
-7.0073395 821.40112 1258.066 4283259512
7.0073395 821.40112 1258.066 4293322751
10.511009 821.40112 1258.066 4293060863
14.014679 821.40112 1258.066 4293061119
16.350458 821.40112 1258.066 4293061119
-7.0073395 823.18689 1259.5718 4288059564
-4.6715598 823.18689 1259.5718 4290493144
2.3357799 823.18689 1259.5718 4293125631
4.6715598 823.18689 1259.5718 4292797695
7.0073395 823.18689 1259.5718 4292731903
10.511009 823.18689 1259.5718 4292403967
14.014679 823.18689 1259.5718 4292600063
-16.466055 811.25244 1261.2811 4282926958
-14.113762 813.05078 1262.7975 4282994029
-14.058716 817.49701 1260.0063 4283388783
-11.715596 817.49701 1260.0063 4283257454
-14.058716 819.28833 1261.5167 4283323508
-11.715596 819.28833 1261.5167 4283784059
-4.6715598 824.9726 1261.0774 4292664575
-4.6715598 826.7583 1262.583 4292994303
-2.3357799 826.7583 1262.583 4292796671
-18.891743 806.7851 1264.0547 4282072673
-18.891743 808.59045 1265.5769 4282202978
-16.466055 814.84912 1264.3138 4282994025
-7.0293579 822.87103 1264.5376 4290691561
-22.521101 804.11609 1268.3444 4282071642
-21.25321 810.39581 1267.0991 4282400360
-18.891743 811.29846 1267.8602 4282533481
-16.530275 810.39581 1267.0991 4282796403
-14.113762 818.44586 1267.3464 4283718516
-10.585321 818.44586 1267.3464 4284244086
-10.585321 820.2442 1268.8628 4286611116
-30.818348 805.92847 1269.8724 4282071642
-28.447706 805.92847 1269.8724 4281940061
-26.077065 805.92847 1269.8724 4282137183
-22.521101 805.92847 1269.8724 4282203230
-28.447706 807.74084 1271.4006 4281810269
-26.077065 807.74084 1271.4006 4281810269
-23.706423 807.74084 1271.4006 4282202980
-18.891743 814.00653 1270.1436 4282665328
-16.530275 814.90918 1270.9047 4283586680
-7.056881 822.04254 1270.3792 4292796671
-26.177982 801.44714 1272.6342 4282071642
-22.521101 809.55322 1272.9287 4282730858
-22.521101 811.3656 1274.4569 4282731371
-16.530275 817.61731 1273.188 4284507528
-14.168807 817.61731 1273.188 4284438925
-14.168807 819.42261 1274.7102 4289701574
-10.626606 819.42261 1274.7102 4292005614
-30.937614 806.90527 1277.2363 4282138467
-28.557798 806.90527 1277.2363 4282139232
-26.177982 806.90527 1277.2363 4282336867
-21.335779 814.08417 1276.7491 4283390073
-18.965137 814.08417 1276.7491 4283718264
-10.626606 821.22803 1276.2325 4293453819
-7.0844035 821.22803 1276.2325 4292993279
-4.7229357 821.22803 1276.2325 4292534015
-9.4458714 823.03333 1277.7548 4292665855
-7.0844035 823.03333 1277.7548 4292402431
-4.7229357 823.03333 1277.7548 4292139775
-28.557798 808.72467 1278.7704 4282402920
-26.177982 808.72467 1278.7704 4282797677
-26.177982 810.54407 1280.3044 4282995050
-23.798164 810.54407 1280.3044 4282996596
-18.965137 817.70892 1279.8054 4286808221
-16.594496 817.70892 1279.8054 4288979390
-14.223853 818.61511 1280.5696 4292467177
-14.168807 824.83875 1279.277 4292468223
-10.626606 824.83875 1279.277 4292402431
-7.0844035 824.83875 1279.277 4292534015
-14.168807 826.6441 1280.7992 4292139775
-10.626606 826.6441 1280.7992 4292336895
-33.805504 783.9209 1282.709 4280824659
-31.390825 783.9209 1282.709 4280824659
-28.976147 783.9209 1282.709 4280889167
-33.677063 790.2959 1281.5442 4281218132
-33.677063 792.13495 1283.0947 4281349718
-31.033028 808.43701 1283.7599 4282402920
-28.645872 808.43701 1283.7599 4282797414
-23.798164 812.36346 1281.8385 4283586426
-22.608257 814.18286 1283.3726 4284245365
-18.965137 820.42749 1282.0977 4292204534
-16.594496 820.42749 1282.0977 4292862463
-14.223853 820.42749 1282.0977 4292600063
-11.853211 820.42749 1282.0977 4292731903
-18.965137 822.23987 1283.6259 4293256959
-16.594496 822.23987 1283.6259 4292862207
-11.80734 828.44946 1282.3214 4292797439
-24.440367 764.07947 1286.9076 4280233039
-33.933945 779.37079 1285.4126 4280825169
-31.510092 779.37079 1285.4126 4280825169
-33.805504 785.76697 1284.2655 4281087829
-31.390825 785.76697 1284.2655 4280890451
-33.420185 810.26196 1285.2987 4283192172
-31.033028 811.17444 1286.0681 4284047223
-28.645872 811.17444 1286.0681 4284112501
-26.258715 811.17444 1286.0681 4284507259
-22.211622 816.6087 1285.418 4287861921
-18.965137 824.05225 1285.1539 4292206335
-16.594496 824.05225 1285.1539 4292074751
-14.223853 825.86462 1286.6821 4292468223
-25.662384 765.94794 1288.4832 4280496462
-34.088074 774.26447 1288.9552 4281021773
-23.871559 815.73694 1289.915 4289109694
-22.211622 820.2475 1288.486 4292204537
-26.985321 761.34033 1291.1383 4280757581
-29.438532 763.21582 1292.7196 4280562255
-29.32844 767.81641 1290.0586 4280692810
-33.548622 809.46704 1291.1686 4284902274
-28.755962 811.29907 1292.7133 4285692290
-26.359632 811.29907 1292.7133 4285297532
-29.548624 758.60126 1295.3689 4280823374
-34.344955 766.9668 1295.8823 4281021773
-31.891743 766.02905 1295.0917 4280955724
-31.772476 771.55341 1293.2095 4280824394
-31.152294 813.1311 1294.2579 4284047481
-28.755962 814.04712 1295.0303 4285098906
-26.359632 814.04712 1295.0303 4287664833
-21.484404 821.21198 1294.5314 4292401919
-19.097248 821.21198 1294.5314 4292271359
-16.710093 821.21198 1294.5314 4292403199
-29.658716 753.9726 1298.0062 4280823374
-32.011009 760.48376 1296.9562 4280889167
-31.271559 808.68622 1297.0503 4285362564
-21.484404 823.03699 1296.0702 4292139519
-19.097248 823.03699 1296.0702 4292205567
-16.710093 823.03699 1296.0702 4292337151
-32.130276 755.86212 1299.5995 4280823376
-34.601833 757.75165 1301.1926 4280889167
-33.805504 806.07336 1301.3873 4285625480
-31.271559 812.36426 1300.1516 4285164670
-34.601833 759.64117 1302.7859 4280955725
-33.805504 807.91943 1302.9438 4284508032
-37.238533 756.37109 1307.8767 4281021007
-36.3578 803.46051 1305.7245 4284705665
-39.7211 758.26904 1309.4771 4280825169
-37.238533 758.26904 1309.4771 4280825169
-38.957798 800.32507 1310.9288 4284771458
-40.326607 799.58069 1316.8413 4284441984
