# .PCD v0.7 - Point Cloud Data file format
VERSION 0.7
FIELDS x y z rgb
SIZE 4 4 4 4
TYPE F F F U
COUNT 1 1 1 1
WIDTH 1158
HEIGHT 1
VIEWPOINT 0 0 0 1 0 0 0
POINTS 1158
DATA ascii
52.517429 768.28693 1249.9064 4292599551
54.735779 772.33691 1248.0891 4292994303
57.115597 772.33691 1248.0891 4293060607
47.596329 774.15625 1249.6232 4292467967
49.976147 774.15625 1249.6232 4292730879
52.355965 774.15625 1249.6232 4292731135
54.735779 774.15625 1249.6232 4292862719
57.115597 774.15625 1249.6232 4292928767
59.266056 782.36761 1250.0066 4293191167
61.636696 782.36761 1250.0066 4293125631
64.007339 781.46143 1249.2424 4293059839
66.377983 780.55524 1248.4784 4292534271
43.133945 763.66675 1252.5509 4292731135
46.728439 763.66675 1252.5509 4292796927
50.322937 763.66675 1252.5509 4292994559
52.719265 763.66675 1252.5509 4292731135
55.115597 763.66675 1252.5509 4292731135
42.968807 770.11194 1251.4452 4292731135
46.549541 770.11194 1251.4452 4292730879
50.130276 770.11194 1251.4452 4292664575
52.517429 770.11194 1251.4452 4292599551
35.807339 771.93695 1252.984 4292861951
38.194496 771.93695 1252.984 4292599807
40.58165 771.93695 1252.984 4292731391
42.968807 771.93695 1252.984 4292403455
45.355965 771.93695 1252.984 4292469247
47.596329 775.97565 1251.1572 4292862975
49.976147 775.97565 1251.1572 4292928767
52.355965 775.97565 1251.1572 4292534271
54.735779 775.97565 1251.1572 4292600063
57.115597 775.97565 1251.1572 4292796927
49.976147 777.79504 1252.6913 4292534271
52.355965 777.79504 1252.6913 4292402431
54.735779 777.79504 1252.6913 4292665855
58.305504 777.79504 1252.6913 4293059583
61.875229 777.79504 1252.6913 4292731135
59.266056 785.08618 1252.2988 4292927999
64.007339 785.08618 1252.2988 4292796927
66.377983 785.99237 1253.0629 4292600319
28.866055 759.03247 1255.1836 4288524794
31.271559 759.95197 1255.9589 4292141567
33.677063 760.87146 1256.7341 4292796159
36.884403 760.25848 1256.2173 4292336383
40.893578 759.95197 1255.9589 4292600063
43.299084 759.03247 1255.1836 4292468479
45.704586 759.03247 1255.1836 4292600063
49.312843 759.03247 1255.1836 4292796927
35.944954 767.33075 1255.6403 4293256703
38.341286 767.33075 1255.6403 4292796927
40.737614 766.41473 1254.8679 4292796671
43.133945 765.49872 1254.0956 4292862719
46.728439 765.49872 1254.0956 4292862463
38.194496 773.76196 1254.5228 4292928767
40.58165 773.76196 1254.5228 4293257983
42.968807 773.76196 1254.5228 4293191423
45.355965 773.76196 1254.5228 4293125631
38.194496 775.58698 1256.0615 4291350015
40.58165 775.58698 1256.0615 4292797439
42.968807 775.58698 1256.0615 4292271103
46.549541 775.58698 1256.0615 4292468223
47.596329 779.61444 1254.2253 4292534271
49.976147 779.61444 1254.2253 4292731647
52.355965 779.61444 1254.2253 4292534271
54.735779 779.61444 1254.2253 4292665855
57.115597 779.61444 1254.2253 4292862207
47.596329 781.43384 1255.7594 4292534271
49.976147 781.43384 1255.7594 4292665855
52.355965 781.43384 1255.7594 4292468479
54.735779 781.43384 1255.7594 4292665855
57.115597 781.43384 1255.7594 4292862207
61.875229 781.43384 1255.7594 4292796927
26.561468 754.38422 1257.8043 4288265972
28.976147 754.38422 1257.8043 4290693887
31.390825 754.38422 1257.8043 4292206847
33.805504 754.38422 1257.8043 4292534015
37.427521 754.38422 1257.8043 4292468223
41.049541 754.38422 1257.8043 4292665855
43.464222 754.38422 1257.8043 4292534271
45.878899 754.38422 1257.8043 4292468479
25.35413 756.23022 1259.361 4281432495
33.805504 756.23022 1259.361 4292270847
38.634861 756.23022 1259.361 4292402431
53.122936 756.23022 1259.361 4292796927
55.537613 756.23022 1259.361 4292862719
57.952293 756.23022 1259.361 4292993791
26.46055 764.54956 1259.8354 4287406288
28.866055 763.63 1259.0601 4291415271
31.271559 763.63 1259.0601 4293257463
33.677063 763.63 1259.0601 4293388031
37.285324 762.71051 1258.2848 4292730111
31.152294 769.16278 1257.1851 4287998186
34.347401 770.38409 1258.2148 4290231793
38.194496 778.32446 1258.3698 4288852219
40.58165 778.32446 1258.3698 4292404735
42.968807 778.32446 1258.3698 4292928767
45.355965 778.32446 1258.3698 4292534271
47.596329 784.16296 1258.0605 4292403455
49.976147 784.16296 1258.0605 4292403455
52.355965 784.16296 1258.0605 4292468479
54.735779 784.16296 1258.0605 4292599807
57.908871 784.46613 1258.3162 4292664831
61.875229 784.16296 1258.0605 4292599807
64.255043 785.07263 1258.8275 4292665855
66.634865 785.07263 1258.8275 4292666111
61.636696 791.42944 1257.6473 4292599551
64.007339 791.42944 1257.6473 4292928511
26.561468 758.07629 1260.9175 4286490328
28.976147 758.07629 1260.9175 4290889215
25.35413 759.92236 1262.474 4286413482
25.257797 766.38855 1261.3861 4279583096
28.866055 766.38855 1261.3861 4283326883
26.46055 768.2276 1262.9366 4281095552
28.866055 768.2276 1262.9366 4282603926
31.271559 768.2276 1262.9366 4286551505
34.746788 772.82678 1260.2744 4287472094
34.746788 774.65881 1261.8191 4286420953
35.011623 782.27863 1261.7039 4287663037
38.194496 781.97449 1261.4474 4286617824
40.58165 781.97449 1261.4474 4291551999
42.968807 781.97449 1261.4474 4292666623
45.355965 781.97449 1261.4474 4292732415
49.976147 786.89203 1260.3616 4292731903
52.355965 786.89203 1260.3616 4292666111
54.735779 786.89203 1260.3616 4292666111
59.495415 787.80176 1261.1287 4292599295
61.875229 786.89203 1260.3616 4292533759
64.255043 786.89203 1260.3616 4292796927
66.634865 786.89203 1260.3616 4292797951
24.238533 755.28107 1265.1007 4280174200
19.31743 761.76837 1264.0305 4280691813
21.732111 761.76837 1264.0305 4281942137
24.14679 761.76837 1264.0305 4281879676
19.31743 763.61444 1265.587 4280231264
21.732111 763.61444 1265.587 4280231264
26.46055 770.06665 1264.4873 4281751935
28.866055 770.06665 1264.4873 4283129489
31.271559 770.06665 1264.4873 4285498037
34.746788 776.49084 1263.3638 4284845757
28.755962 778.32281 1264.9086 4290420694
31.152294 778.32281 1264.9086 4288644283
33.548622 778.32281 1264.9086 4286284459
26.258715 784.71198 1263.7555 4292859391
28.645872 784.71198 1263.7555 4293054951
31.033028 784.71198 1263.7555 4292594400
34.613762 784.71198 1263.7555 4288058335
38.194496 784.71198 1263.7555 4286354642
40.58165 784.71198 1263.7555 4291091711
42.968807 784.71198 1263.7555 4292666111
46.549541 784.71198 1263.7555 4292732159
57.291744 784.71198 1263.7555 4292730367
26.258715 786.53699 1265.2943 4284772766
28.645872 786.53699 1265.2943 4285102513
31.033028 786.53699 1265.2943 4288655335
34.613762 786.53699 1265.2943 4287536336
38.194496 786.53699 1265.2943 4287011278
40.58165 786.53699 1265.2943 4291682559
42.968807 786.53699 1265.2943 4292994047
46.549541 786.53699 1265.2943 4292665343
50.130276 786.53699 1265.2943 4292929023
52.517429 786.53699 1265.2943 4292731903
54.904587 786.53699 1265.2943 4292666111
57.291744 786.53699 1265.2943 4292599551
58.305504 790.53076 1263.4297 4292665343
57.115597 792.35016 1264.9637 4292666111
16.966972 758.98718 1268.2257 4280756825
19.390825 757.13409 1266.6632 4281479260
21.814678 757.13409 1266.6632 4282597484
14.488073 766.38348 1267.9219 4280692310
16.902752 766.38348 1267.9219 4280758104
19.31743 766.38348 1267.9219 4280889185
21.732111 766.38348 1267.9219 4280757342
24.14679 766.38348 1267.9219 4278594644
25.658716 773.13165 1267.0717 4283781257
28.866055 772.8252 1266.8132 4284311972
31.271559 772.8252 1266.8132 4285299123
22.765137 781.98688 1267.9979 4282532463
26.359632 780.15485 1266.4532 4293245175
28.755962 780.15485 1266.4532 4293049070
31.152294 780.15485 1266.4532 4291996126
22.677982 788.36194 1266.8331 4283456906
26.258715 788.36194 1266.8331 4283720858
28.645872 788.36194 1266.8331 4283853463
31.033028 788.36194 1266.8331 4287735250
34.613762 788.36194 1266.8331 4287011516
38.194496 788.36194 1266.8331 4287668703
40.58165 788.36194 1266.8331 4291813631
42.968807 788.36194 1266.8331 4293191679
46.549541 788.36194 1266.8331 4292796927
50.130276 788.36194 1266.8331 4293060351
52.517429 788.36194 1266.8331 4292796927
54.904587 788.36194 1266.8331 4292731135
22.677982 790.18695 1268.3719 4284639889
26.258715 790.18695 1268.3719 4285100703
28.645872 790.18695 1268.3719 4283853459
31.033028 790.18695 1268.3719 4284116888
34.613762 790.18695 1268.3719 4286026668
38.194496 790.18695 1268.3719 4290758899
40.58165 790.18695 1268.3719 4292601087
42.968807 790.18695 1268.3719 4292994303
46.549541 790.18695 1268.3719 4292665599
50.130276 790.18695 1268.3719 4292600063
52.517429 790.18695 1268.3719 4292402431
54.904587 790.18695 1268.3719 4292534015
23.798164 794.16956 1266.4978 4285036191
26.177982 794.16956 1266.4978 4284575640
28.557798 794.16956 1266.4978 4283458192
30.937614 794.16956 1266.4978 4283063434
35.697247 794.16956 1266.4978 4291020522
52.355965 794.16956 1266.4978 4292534271
23.798164 795.98895 1268.0319 4284182933
26.177982 795.98895 1268.0319 4283130245
28.557798 795.98895 1268.0319 4284769421
30.937614 795.98895 1268.0319 4287072176
34.507339 795.98895 1268.0319 4292396003
45.216515 795.98895 1268.0319 4292469247
4.8477063 760.84021 1269.7881 4281150036
13.331193 760.84021 1269.7881 4281151061
16.966972 760.84021 1269.7881 4281150038
-2.4238532 762.6933 1271.3506 4281346386
9.6954126 762.6933 1271.3506 4280823124
12.119267 762.6933 1271.3506 4280888917
7.2440367 769.15259 1270.2567 4281743965
13.280735 770.07556 1271.0349 4280889685
16.902752 770.07556 1271.0349 4280955733
19.31743 770.07556 1271.0349 4280757845
21.732111 770.07556 1271.0349 4280165708
24.14679 769.15259 1270.2567 4279442266
25.257797 775.58368 1269.1392 4287329465
19.244038 777.42273 1270.6898 4280430665
21.649542 777.42273 1270.6898 4278786096
24.055046 777.42273 1270.6898 4285942409
19.170643 785.65088 1271.0874 4281416799
22.765137 783.81885 1269.5426 4282666866
19.097248 792.92444 1270.6802 4283588488
21.484404 792.92444 1270.6802 4284970141
33.420185 792.01196 1269.9108 4286086303
38.194496 792.92444 1270.6802 4292598783
40.58165 792.92444 1270.6802 4293059071
42.968807 792.92444 1270.6802 4292666367
46.947399 792.6203 1270.4237 4292600319
50.130276 792.92444 1270.6802 4292468991
28.557798 797.80835 1269.5659 4287991744
30.937614 797.80835 1269.5659 4291281395
34.507339 797.80835 1269.5659 4292795391
28.557798 799.62775 1271.1001 4292532216
30.937614 799.62775 1271.1001 4293124351
34.507339 799.62775 1271.1001 4292862207
38.077065 799.62775 1271.1001 4292402687
40.456882 799.62775 1271.1001 4292271359
0 755.64972 1273.2598 4280690507
9.7394495 755.64972 1273.2598 4281413717
13.391743 755.64972 1273.2598 4281151320
-2.4348624 757.51123 1274.8293 4280953677
1.2174312 757.51123 1274.8293 4281019726
7.3045874 757.51123 1274.8293 4281150036
9.7394495 757.51123 1274.8293 4281020755
-2.4238532 764.54633 1272.913 4281544021
4.8477063 764.54633 1272.913 4282731373
7.2715597 764.54633 1272.913 4281481306
9.6954126 764.54633 1272.913 4280692567
12.119267 764.54633 1272.913 4280758360
-2.4238532 766.39941 1274.4755 4282663529
0 766.39941 1274.4755 4282139482
9.6954126 766.39941 1274.4755 4280890203
7.2440367 772.8446 1273.3698 4281021005
9.6587152 772.8446 1273.3698 4280956244
13.280734 772.8446 1273.3698 4280955731
16.902752 772.8446 1273.3698 4281217878
19.31743 772.8446 1273.3698 4280297798
21.732111 772.8446 1273.3698 4279837247
7.2440367 774.69067 1274.9263 4281678170
9.6587152 774.69067 1274.9263 4281415513
13.280734 774.69067 1274.9263 4281217364
16.902752 774.69067 1274.9263 4281479510
13.230275 779.26178 1272.2404 4281021007
16.838531 779.26178 1272.2404 4281086551
19.244038 779.26178 1272.2404 4280626776
13.230275 781.10083 1273.791 4281086547
16.838531 781.10083 1273.791 4281676886
19.244038 781.10083 1273.791 4281744726
19.170643 787.48291 1272.6321 4283125875
14.377981 789.31494 1274.1768 4282206047
16.774311 789.31494 1274.1768 4283061356
19.097248 796.57446 1273.7577 4283192698
22.677982 796.57446 1273.7577 4286546596
26.258715 796.57446 1273.7577 4288584893
38.194496 795.66199 1272.9883 4292862207
40.58165 795.66199 1272.9883 4292599039
42.968807 796.57446 1273.7577 4292205055
46.549541 795.66199 1272.9883 4292534015
-97.572479 803.26648 1274.1682 4280627808
-95.192657 801.44714 1272.6342 4285888642
-92.812843 803.26648 1274.1682 4281018457
-4.8697248 760.30341 1277.1836 4281280593
1.2174312 760.30334 1277.1836 4281347670
4.8697248 759.37268 1276.3989 4280822874
7.3045874 759.37268 1276.3989 4280756825
-2.4238532 769.17896 1276.8191 4282599005
1.2119266 769.17896 1276.8191 4282468193
4.8477063 770.10547 1277.6003 4282205279
7.2715597 768.25244 1276.038 4280760679
9.6954126 768.25244 1276.038 4281415513
7.2440367 776.53674 1276.4828 4282138469
9.6587152 776.53674 1276.4828 4281744724
9.6220188 782.93982 1275.3417 4280757079
13.230275 782.93982 1275.3417 4281481053
16.838531 782.93982 1275.3417 4282007905
-4.8110094 784.77881 1276.8922 4280823374
0 784.77881 1276.8922 4280954962
9.6220188 784.77881 1276.8922 4281676882
13.230275 784.77881 1276.8922 4282336094
16.838531 784.77881 1276.8922 4282469219
14.377981 791.14691 1275.7214 4281551199
16.774311 791.14691 1275.7214 4282801010
14.377981 792.97894 1277.2662 4281944688
16.774311 792.97894 1277.2662 4282865790
19.097248 799.31195 1276.0659 4285622181
22.677982 799.31195 1276.0659 4290754791
26.258715 799.31195 1276.0659 4293190143
28.645872 799.31195 1276.0659 4293585407
31.033028 799.31195 1276.0659 4293190655
34.613762 799.31195 1276.0659 4292599551
38.194496 799.31195 1276.0659 4292599551
-95.486237 801.13696 1277.6047 4281018457
22.677982 801.13696 1277.6047 4292927484
35.807339 801.13696 1277.6047 4292534015
-7.3321099 754.737 1279.0303 4280756804
-4.8880734 754.737 1279.0303 4280887884
-12.220183 756.60547 1280.6058 4280887884
-7.3321099 756.60547 1280.6058 4281085515
-4.8697248 763.09564 1279.538 4281676634
2.4348624 763.09564 1279.538 4282731875
4.8697248 763.09564 1279.538 4282927982
-4.8477063 773.81165 1280.7252 4282927710
-2.4238532 772.88513 1279.9441 4283124833
1.2119266 772.88513 1279.9441 4282926433
4.8477063 772.88513 1279.9441 4282599274
7.2440367 778.38275 1278.0393 4280625748
9.6587152 778.38275 1278.0393 4280562001
-7.2440367 780.22882 1279.5958 4280757329
-4.8293576 780.22882 1279.5958 4281018707
-2.4146788 780.22882 1279.5958 4280952914
0 780.22882 1279.5958 4281280593
4.8293576 780.22882 1279.5958 4280690507
7.2440367 780.22882 1279.5958 4280953679
-7.2165136 787.53735 1279.2183 4280822605
-4.8110094 787.53735 1279.2183 4280888135
-2.4055047 787.53735 1279.2183 4281085514
0 787.53735 1279.2183 4280954193
7.2165136 787.53735 1279.2183 4282007648
9.6220188 787.53735 1279.2183 4282599264
12.027523 787.53735 1279.2183 4282730850
-4.7926607 794.81097 1278.8109 4281676634
0 794.81097 1278.8109 4282665315
14.377981 794.81097 1278.8109 4281551197
16.774311 794.81097 1278.8109 4281090646
14.377981 796.64294 1280.3556 4282004080
16.774311 796.64294 1280.3556 4284043663
-97.873398 802.96198 1279.1434 4279709788
-94.292664 802.96198 1279.1434 4280430163
-95.486237 804.78699 1280.6823 4281678681
-17.108257 758.474 1282.1813 4280692317
-13.442202 758.474 1282.1813 4280821325
-9.7761469 758.474 1282.1813 4280952912
-7.3321099 758.474 1282.1813 4281018961
-17.108257 760.34247 1283.7567 4281150040
-13.442202 760.34247 1283.7567 4280232782
-9.7761469 760.34247 1283.7567 4280559701
-7.3321099 760.34247 1283.7567 4280757079
-4.8697248 764.95709 1281.1075 4282533728
4.8697248 764.95709 1281.1075 4281155437
-7.3045874 766.8186 1282.6771 4282076773
-4.8697248 766.8186 1282.6771 4282861663
-7.2715597 775.66467 1282.2877 4280956246
-4.8477063 775.66467 1282.2877 4281541969
-2.4238532 775.66467 1282.2877 4281673554
1.2119266 775.66467 1282.2877 4281280593
4.8477063 775.66467 1282.2877 4280494161
-12.119267 777.5177 1283.8501 4280626250
-9.6954126 777.5177 1283.8501 4280757329
2.4238532 777.5177 1283.8501 4281280593
-9.6587152 782.07483 1281.1523 4280430161
-7.2440367 782.07483 1281.1523 4280562003
-2.4146788 782.07483 1281.1523 4280823374
2.4146788 782.07483 1281.1523 4280954962
4.8293576 782.07483 1281.1523 4281085263
7.2440367 782.07483 1281.1523 4281414228
-12.073395 783.9209 1282.709 4280494157
-9.6587152 783.9209 1282.709 4280626765
2.4146788 783.9209 1282.709 4281150290
4.8293576 783.9209 1282.709 4281217880
-9.6220188 790.2959 1281.5442 4281347923
-7.2165136 790.2959 1281.5442 4281347923
-4.8110094 790.2959 1281.5442 4281215829
-2.4055047 790.2959 1281.5442 4281281878
0 790.2959 1281.5442 4282071642
4.8110094 790.2959 1281.5442 4282533726
7.2165136 790.2959 1281.5442 4282797155
9.6220188 790.2959 1281.5442 4282994531
12.027523 790.2959 1281.5442 4282928482
-12.027523 792.13495 1283.0947 4281413717
-9.6220188 792.13495 1283.0947 4281413463
-7.2165136 792.13495 1283.0947 4281413463
-2.4055047 792.13495 1283.0947 4282137185
2.4055047 792.13495 1283.0947 4282533728
4.8110094 792.13495 1283.0947 4282795869
7.2165136 792.13495 1283.0947 4282927456
9.6220188 792.13495 1283.0947 4282927460
12.027523 792.13495 1283.0947 4282729824
-91.060547 800.30701 1283.4451 4281283675
-4.7926607 799.39099 1282.6726 4282599535
16.774311 798.47498 1281.9003 4291607003
19.170643 799.39099 1282.6726 4293057782
22.765137 800.30701 1283.4451 4293059071
26.359632 799.39099 1282.6726 4292665087
28.755962 799.39099 1282.6726 4292534015
31.152294 799.39099 1282.6726 4292468223
33.548622 798.47498 1281.9003 4292205055
-22.078899 755.71381 1286.3942 4282269523
-19.625689 755.71381 1286.3942 4280889697
-21.99633 764.07947 1286.9076 4281741925
-19.552294 763.1452 1286.1199 4281152086
-17.108257 763.1452 1286.1199 4282533995
-13.442202 763.14526 1286.1199 4282207334
-9.7761469 763.1452 1286.1199 4281813859
-7.3321099 762.21094 1285.3322 4281682531
-19.478899 769.61078 1285.0314 4282204754
-17.044037 769.61078 1285.0314 4282731098
-13.391743 769.61078 1285.0314 4281878626
-9.7394495 769.61078 1285.0314 4282469742
-7.3045874 769.61078 1285.0314 4282469486
-4.8697248 768.68005 1284.2466 4283059041
-13.331193 779.37079 1285.4126 4280625997
-16.966972 781.22388 1286.9751 4280756552
-14.543119 781.22388 1286.9751 4280626000
-13.280734 785.76697 1284.2655 4280953677
-9.6587152 785.76697 1284.2655 4281150286
2.4146788 785.76697 1284.2655 4281678429
4.8293576 785.76697 1284.2655 4281942107
-19.31743 787.61298 1285.822 4281019722
-16.902752 787.61298 1285.822 4281085515
-13.280734 787.61298 1285.822 4281282126
2.4146788 787.61298 1285.822 4282663779
-13.230275 793.974 1284.6454 4281281881
-9.6220188 793.974 1284.6454 4281415261
-7.2165136 793.974 1284.6454 4281481054
-4.8110094 793.974 1284.6454 4282138467
-2.4055047 793.974 1284.6454 4282665067
1.2027524 793.974 1284.6454 4282731108
4.8110094 793.974 1284.6454 4282731621
7.2165136 793.974 1284.6454 4282797414
9.6220188 793.974 1284.6454 4282336874
12.027523 793.974 1284.6454 4282336874
-13.230275 795.81299 1286.196 4282071647
-9.6220188 795.81299 1286.196 4282665317
-7.2165136 795.81299 1286.196 4282665317
-2.4055047 795.81299 1286.196 4282730858
1.2027524 795.81299 1286.196 4282533477
4.8110094 795.81299 1286.196 4282337630
7.2165136 795.81299 1286.196 4281482322
9.6220188 795.81299 1286.196 4283125084
13.230275 795.81299 1286.196 4287135640
-98.249542 803.97107 1286.5344 4281744478
-94.655045 803.05505 1285.7621 4281547349
-91.060547 802.13904 1284.9897 4281742425
-10.384098 803.36035 1286.0195 4282599782
-7.1889906 803.05505 1285.7621 4282534243
-4.7926607 803.97107 1286.5344 4282007905
22.765137 803.05505 1285.7621 4292665343
26.359632 803.05505 1285.7621 4292994303
28.755962 802.13904 1284.9897 4292731903
-19.625689 757.58936 1287.9755 4281150040
-21.99633 765.94794 1288.4832 4281349470
-21.913761 772.40302 1287.3857 4281479512
-19.478899 772.40302 1287.3857 4282927710
-17.044037 772.40302 1287.3857 4283190625
-13.391743 772.40302 1287.3857 4282533729
-9.7394495 772.40302 1287.3857 4281877348
-24.348623 774.26447 1288.9552 4280821325
-21.913761 774.26447 1288.9552 4281479512
-19.478899 774.26447 1288.9552 4282730830
-17.044037 774.26447 1288.9552 4282796623
-14.609175 774.26447 1288.9552 4281678681
-21.814678 783.0769 1288.5375 4280888136
-19.390825 783.0769 1288.5375 4280756552
-16.966972 783.0769 1288.5375 4280887882
-31.390825 791.30505 1288.9351 4281085263
-24.14679 791.30505 1288.9351 4281150290
-21.732111 790.38202 1288.1567 4281085008
-19.31743 790.38202 1288.1567 4281216084
-16.902752 790.38202 1288.1567 4281281877
-14.488073 789.45898 1287.3785 4281347923
-13.230275 797.65204 1287.7466 4282729824
-9.6220188 797.65204 1287.7466 4282861411
-7.2165136 797.65204 1287.7466 4282861411
-2.4055047 797.65204 1287.7466 4282336627
1.2027524 797.65204 1287.7466 4282205043
4.8110094 797.65204 1287.7466 4281612908
9.6220188 797.65204 1287.7466 4285294218
13.230275 797.65204 1287.7466 4290491860
16.838531 797.65204 1287.7466 4293254905
-21.649542 799.49109 1289.2972 4282205025
-19.244038 799.49109 1289.2972 4282533476
-16.838531 799.49109 1289.2972 4282665063
-13.230275 799.49109 1289.2972 4282731110
-4.8110094 799.49109 1289.2972 4282533728
-2.4055047 799.49109 1289.2972 4281875799
0 799.49109 1289.2972 4282797403
14.433027 799.49109 1289.2972 4292797182
16.838531 799.49109 1289.2972 4292797182
19.244038 799.49109 1289.2972 4292600063
-21.566973 805.80304 1288.0791 4282927206
-19.170643 805.80304 1288.0791 4283058537
-14.377981 805.80304 1288.0791 4282731360
-10.783486 805.80304 1288.0791 4282401621
-7.1889906 805.80304 1288.0791 4283783015
-4.7926607 805.80304 1288.0791 4286543242
-2.3963304 805.80304 1288.0791 4289635257
0 805.80304 1288.0791 4291477981
-19.170643 807.63507 1289.6239 4282929003
-10.783486 807.63507 1289.6239 4283848051
-7.1889906 807.63507 1289.6239 4287728043
-27.086239 754.83624 1292.1943 4283519086
-24.623854 754.83624 1292.1943 4283124555
-22.161469 754.83624 1292.1943 4281413937
-24.53211 763.21582 1292.7196 4280494161
-21.99633 767.81641 1290.0586 4281610589
-24.440367 769.68494 1291.634 4280755532
-24.348623 776.12592 1290.5248 4280690507
-21.913761 776.12592 1290.5248 4281019472
-19.478899 776.12592 1290.5248 4281019722
-17.044037 776.12592 1290.5248 4281217357
-37.740364 777.98743 1292.0944 4280887882
-34.088074 777.98743 1292.0944 4280887884
-31.653212 777.98743 1292.0944 4280887884
-29.218349 777.98743 1292.0944 4280952914
-25.566055 777.98743 1292.0944 4280821839
-21.913761 777.98743 1292.0944 4280756300
-19.478899 777.98743 1292.0944 4280624966
-33.933945 784.92993 1290.1 4281019722
-31.510092 784.92993 1290.1 4281019722
-24.238533 784.92993 1290.1 4280953929
-21.814678 784.92993 1290.1 4280953929
-36.3578 786.78302 1291.6624 4281019470
-33.933945 786.78302 1291.6624 4280953677
-31.510092 786.78302 1291.6624 4280953677
-29.086239 786.78302 1291.6624 4280953677
-25.450459 786.78302 1291.6624 4280953677
-33.805504 794.99713 1292.0481 4281413969
-31.390825 794.0741 1291.2698 4281348176
-28.976147 794.99713 1292.0481 4281413717
-25.35413 794.99713 1292.0481 4281413718
-21.732111 794.0741 1291.2698 4281413718
-19.31743 794.0741 1291.2698 4281742681
-16.902752 794.0741 1291.2698 4281939803
7.2440367 794.99713 1292.0481 4282928512
-97.422935 803.16913 1292.3984 4281351000
-93.814682 801.33008 1290.8479 4281415761
-24.85688 802.55615 1291.8816 4282467938
-21.649542 801.33008 1290.8479 4282336867
-19.244038 801.33008 1290.8479 4282467433
-16.838531 802.24963 1291.6232 4282730089
-14.433027 801.33008 1290.8479 4282797164
-2.4055047 801.33008 1290.8479 4282994800
1.6036698 801.94312 1291.3647 4288649653
4.8110094 803.16913 1292.3984 4292599290
16.838531 802.24963 1291.6232 4292796415
19.244038 802.24963 1291.6232 4292664831
21.649542 803.16913 1292.3984 4292993279
24.055046 803.16913 1292.3984 4292795903
-9.5853214 809.46704 1291.1686 4291015115
-9.5853214 811.29907 1292.7133 4293320437
-7.1889906 811.29907 1292.7133 4293978110
-4.7926607 811.29907 1292.7133 4293650175
-24.623854 758.60126 1295.3689 4280755030
-25.758717 766.02905 1295.0917 4280625229
-39.104588 773.42188 1294.7849 4280756552
-36.660549 773.42188 1294.7849 4280756552
-34.216515 773.42188 1294.7849 4280690507
-31.772476 773.42188 1294.7849 4280690507
-29.32844 773.42188 1294.7849 4280690507
-26.884403 772.48767 1293.9972 4280690759
-51.132111 779.84888 1293.6639 4281018957
-48.697247 779.84888 1293.6639 4280953929
-37.740364 779.84888 1293.6639 4280953931
-34.088074 779.84888 1293.6639 4281280845
-31.653212 779.84888 1293.6639 4281280845
-29.218349 779.84888 1293.6639 4280952912
-25.566055 779.84888 1293.6639 4280953677
-51.132111 781.71033 1295.2334 4280692810
-48.697247 781.71033 1295.2334 4280692810
-43.827522 781.71033 1295.2334 4281019722
-37.740364 781.71033 1295.2334 4281019722
-29.218349 781.71033 1295.2334 4280953677
-26.783485 781.71033 1295.2334 4280953677
-36.3578 788.63611 1293.2249 4281150290
-33.933945 788.63611 1293.2249 4281085263
-29.086239 788.63611 1293.2249 4281150286
-26.662386 788.63611 1293.2249 4281150286
-36.3578 790.48914 1294.7874 4281281876
-33.933945 790.48914 1294.7874 4281347919
-29.086239 790.48914 1294.7874 4281347919
-25.450459 790.48914 1294.7874 4281281872
-33.805504 796.8432 1293.6047 4281347923
-31.390825 796.8432 1293.6047 4281347923
-28.976147 796.8432 1293.6047 4281413717
-25.35413 796.8432 1293.6047 4281940828
2.4146788 796.8432 1293.6047 4284508021
4.8293576 796.8432 1293.6047 4287333536
7.2440367 796.8432 1293.6047 4290425806
9.6587152 796.8432 1293.6047 4291938793
12.073395 796.8432 1293.6047 4293320446
-91.757797 798.68921 1295.1613 4281349970
-33.805504 798.68921 1295.1613 4281479510
-31.390825 798.68921 1295.1613 4281479510
-28.976147 798.68921 1295.1613 4281349468
-26.561468 798.68921 1295.1613 4282007399
4.8293576 798.68921 1295.1613 4290952400
7.2440367 798.68921 1295.1613 4292860397
9.6587152 798.68921 1295.1613 4293584639
13.280734 798.68921 1295.1613 4293190399
-25.257797 805.00818 1293.9491 4282928743
-21.649542 805.92767 1294.7244 4282601062
-19.244038 806.84717 1295.4998 4282536806
-16.838531 805.92767 1294.7244 4282667111
-13.631192 806.23419 1294.9829 4285491582
-7.2165136 806.84717 1295.4998 4293120492
-4.8110094 805.92767 1294.7244 4291610337
-2.4055047 805.92767 1294.7244 4292663025
0 805.92767 1294.7244 4292992255
16.838531 805.00818 1293.9491 4293191679
19.244038 805.00818 1293.9491 4292467967
21.649542 805.00818 1293.9491 4291612671
-9.5853214 813.1311 1294.2579 4292729593
-7.1889906 814.04712 1295.0303 4289243848
-4.7926607 814.04712 1295.0303 4286351321
-2.3963304 813.1311 1294.2579 4287792835
-27.086239 762.36627 1298.5435 4280495174
-31.891743 768.84229 1297.4637 4280690759
-29.438532 768.84229 1297.4637 4280625218
-51.324772 775.29034 1296.3604 4281018961
-48.880733 775.29034 1296.3604 4280953677
-46.436699 775.29034 1296.3604 4280756554
-43.992661 775.29034 1296.3604 4280756552
-41.548622 775.29034 1296.3604 4280756552
-53.768806 777.15887 1297.9358 4281150286
-46.436699 777.15887 1297.9358 4280953929
-43.992661 777.15887 1297.9358 4280953929
-41.548622 777.15887 1297.9358 4280953929
-52.349541 785.43329 1298.3726 4280823374
-48.697247 785.43329 1298.3726 4280626761
-46.262386 785.43329 1298.3726 4280626761
-43.827522 785.43329 1298.3726 4280823374
-41.392662 785.43329 1298.3726 4280626252
-38.957798 784.50256 1297.5878 4280887630
-43.629356 794.19525 1297.9122 4280955214
-37.165752 792.95978 1296.8706 4280889168
-94.172478 800.53528 1296.7178 4281153622
-36.220184 800.53528 1296.7178 4281940313
-33.805504 800.53528 1296.7178 4282071642
-31.390825 800.53528 1296.7178 4282335071
-28.976147 800.53528 1296.7178 4282336863
7.2440367 800.53528 1296.7178 4292665083
9.6587152 800.53528 1296.7178 4292599551
13.280734 800.53528 1296.7178 4292665343
-28.976147 802.38135 1298.2743 4282994531
2.4146788 802.38135 1298.2743 4293321215
4.8293576 802.38135 1298.2743 4293123839
7.2440367 802.38135 1298.2743 4293453055
9.6587152 802.38135 1298.2743 4293125119
14.488073 802.38135 1298.2743 4292928511
-21.649542 808.68622 1297.0503 4282863713
-19.244038 808.68622 1297.0503 4283388031
-16.838531 808.68622 1297.0503 4285756579
-13.230275 808.68622 1297.0503 4290360266
-2.4055047 808.68622 1297.0503 4293452799
-21.649542 810.52527 1298.601 4287334287
-19.244038 810.52527 1298.601 4289701574
-16.838531 810.52527 1298.601 4292201452
-13.230275 810.52527 1298.601 4292730363
-34.473396 764.24878 1300.1307 4280953931
-32.011009 764.24878 1300.1307 4280690759
-29.548624 764.24878 1300.1307 4280495176
-34.473396 766.13135 1301.718 4280756552
-44.157799 770.71783 1299.0452 4280756552
-41.704586 770.71783 1299.0452 4280756552
-53.970642 772.59332 1300.6265 4281018961
-58.656879 779.02734 1299.5114 4280955214
-56.212845 779.02734 1299.5114 4280889165
-53.768806 779.02734 1299.5114 4280692810
-46.436699 779.02734 1299.5114 4280692810
-41.548622 779.02734 1299.5114 4280953929
-56.212845 780.89581 1301.0868 4280823124
-52.546791 780.89581 1301.0868 4280692045
-48.880733 780.89581 1301.0868 4280626252
-46.436699 780.89581 1301.0868 4280823374
-43.992661 780.89581 1301.0868 4281019722
-41.548622 780.89581 1301.0868 4280888136
-56.001835 787.2948 1299.942 4280757327
-52.349541 787.2948 1299.942 4281085515
-48.697247 787.2948 1299.942 4281019722
-46.262386 787.2948 1299.942 4281019722
-43.827522 787.2948 1299.942 4280823374
-41.392662 787.2948 1299.942 4280626252
-38.957798 787.2948 1299.942 4281018961
-68.176147 789.15625 1301.5116 4281282126
-60.871559 789.15625 1301.5116 4281085769
-56.001835 789.15625 1301.5116 4280626252
-52.349541 789.15625 1301.5116 4280561222
-48.697247 789.15625 1301.5116 4280953677
-46.262386 789.15625 1301.5116 4280953677
-43.827522 789.15625 1301.5116 4280823376
-41.392662 789.15625 1301.5116 4280823376
-92.106422 797.90137 1301.0371 4280562255
-89.682571 796.04828 1299.4746 4281349970
-36.3578 796.04828 1299.4746 4281611091
-24.951683 804.84271 1300.3497 4282863972
2.4146788 804.22736 1299.8308 4292926975
-19.244038 812.36426 1300.1516 4292334576
-16.838531 812.36426 1300.1516 4293452799
-13.230275 812.36426 1300.1516 4292861183
-9.6220188 812.36426 1300.1516 4291284715
-24.055046 814.20331 1301.7021 4292204530
-19.244038 814.20331 1301.7021 4292599807
-16.838531 814.20331 1301.7021 4292402429
-12.027523 814.20331 1301.7021 4292992767
-29.658716 759.64117 1302.7859 4280560968
-56.634861 769.89636 1304.8926 4280888917
-56.423855 774.46881 1302.2079 4281215829
-56.212845 782.76428 1302.6622 4280757077
-61.100918 784.63281 1304.2377 4280824396
-58.656879 784.63281 1304.2377 4280823376
-68.176147 791.0177 1303.0812 4281478478
-64.523857 791.0177 1303.0812 4281216076
-60.871559 791.0177 1303.0812 4281217357
-58.436699 791.0177 1303.0812 4280758603
-56.001835 791.0177 1303.0812 4280626761
-52.349541 791.0177 1303.0812 4280692810
-48.697247 791.0177 1303.0812 4280823374
-46.262386 791.0177 1303.0812 4280954960
-41.392662 791.0177 1303.0812 4281021007
-38.957798 791.0177 1303.0812 4281021007
-68.176147 792.87921 1304.6508 4281282126
-64.523857 792.87921 1304.6508 4281019466
-60.871559 792.87921 1304.6508 4281085515
-58.436699 792.87921 1304.6508 4281085515
-56.001835 792.87921 1304.6508 4281019722
-52.349541 792.87921 1304.6508 4280824139
-48.697247 792.87921 1304.6508 4281217357
-46.262386 792.87921 1304.6508 4281217357
-43.827522 792.87921 1304.6508 4281347919
-41.392662 792.87921 1304.6508 4281413969
-38.957798 792.87921 1304.6508 4281413969
-99.377983 799.75439 1302.5996 4281417301
-96.954132 799.75439 1302.5996 4281219415
-36.3578 799.75439 1302.5996 4282466657
-33.933945 799.75439 1302.5996 4282795869
-31.510092 799.75439 1302.5996 4282927456
12.119267 799.75439 1302.5996 4293190911
-36.3578 801.60742 1304.162 4282468704
-33.933945 801.60742 1304.162 4282665567
-31.510092 801.60742 1304.162 4282665567
-29.086239 801.60742 1304.162 4282928482
-24.14679 808.84247 1303.7222 4285821828
-21.732111 809.7655 1304.5005 4290362067
-16.838531 816.04236 1303.2528 4292796415
-14.433027 816.04236 1303.2528 4292796415
-27.308256 754.47314 1306.2765 4280363593
-32.273396 756.37109 1307.8767 4280756552
-59.097248 771.77887 1306.4799 4281215829
-61.330276 778.21985 1305.3706 4280954960
-58.877064 778.21985 1305.3706 4280823124
-63.783485 780.09534 1306.952 4280955214
-61.330276 780.09534 1306.952 4280955214
-58.877064 780.09534 1306.952 4280954712
-79.431198 788.36975 1307.3887 4281283922
-75.765137 788.36975 1307.3887 4281218130
-73.321098 787.43555 1306.6008 4281413969
-70.877068 787.43555 1306.6008 4281413969
-64.766968 786.50128 1305.8131 4280953673
-58.656879 786.50128 1305.8131 4280823374
-90.089905 794.74066 1306.2202 4280956757
-68.176147 794.74066 1306.2202 4280889167
-64.523857 794.74066 1306.2202 4280757068
-60.871559 794.74066 1306.2202 4281019470
-58.436699 794.74066 1306.2202 4281019722
-56.001835 794.74066 1306.2202 4281019722
-52.349541 794.74066 1306.2202 4281151308
-48.697247 794.74066 1306.2202 4281413969
-46.262386 794.74066 1306.2202 4281479762
-43.827522 794.74066 1306.2202 4281413969
-41.392662 794.74066 1306.2202 4281413969
-38.957798 794.74066 1306.2202 4281479762
-94.959633 796.60217 1307.7898 4281153622
-92.524773 796.60217 1307.7898 4281349970
-68.176147 796.60217 1307.7898 4280955214
-64.523857 796.60217 1307.7898 4280823373
-60.871559 796.60217 1307.7898 4280823374
-58.436699 796.60217 1307.7898 4281150286
-56.001835 796.60217 1307.7898 4281216335
-52.349541 796.60217 1307.7898 4281216079
-48.697247 796.60217 1307.7898 4281611091
-46.262386 796.60217 1307.7898 4281479762
-43.827522 796.60217 1307.7898 4281413717
-41.392662 796.60217 1307.7898 4281676632
-38.957798 796.60217 1307.7898 4281940313
-29.086239 803.46051 1305.7245 4283126631
-26.662386 803.46051 1305.7245 4283192424
-29.086239 805.3136 1307.2869 4283060324
-26.662386 805.3136 1307.2869 4282731360
-21.732111 811.61151 1306.057 4292862716
-21.732111 813.45758 1307.6135 4293387775
-19.31743 813.45758 1307.6135 4292862207
-61.559631 773.66138 1308.0671 4280954960
-87.985321 790.23828 1308.9641 4281349968
-83.097244 790.23828 1308.9641 4281087566
-79.431198 790.23828 1308.9641 4281021262
-75.765137 790.23828 1308.9641 4281021007
-73.321098 790.23828 1308.9641 4281348685
-70.877068 790.23828 1308.9641 4281217355
-87.985321 792.10675 1310.5396 4281349970
-83.097244 792.10675 1310.5396 4281087566
-79.431198 792.10675 1310.5396 4281217871
-75.765137 792.10675 1310.5396 4281282126
-73.321098 792.10675 1310.5396 4281217357
-70.877068 792.10675 1310.5396 4281217357
-97.394493 798.46362 1309.3594 4281285460
-94.959633 798.46362 1309.3594 4281219667
-92.524773 799.39435 1310.144 4281415763
-87.655045 800.32507 1310.9288 4281086549
-75.480736 800.32507 1310.9288 4281086299
-73.045868 800.32507 1310.9288 4281347923
-70.611008 800.32507 1310.9288 4281347923
-68.176147 799.39435 1310.144 4280954962
-64.523857 799.39435 1310.144 4281086289
-60.871559 799.39435 1310.144 4281282896
-58.436699 799.39435 1310.144 4281348430
-56.001835 799.39435 1310.144 4281413967
-52.349541 799.39435 1310.144 4281414740
-48.697247 799.39435 1310.144 4281743957
-46.262386 799.39435 1310.144 4282072665
-43.827522 799.39435 1310.144 4282335834
-41.392662 799.39435 1310.144 4282401627
-38.146175 799.70459 1310.4056 4282797922
-34.088074 800.32507 1310.9288 4283191659
-31.653212 800.32507 1310.9288 4283125866
-58.172478 808.09314 1309.6306 4281878626
-53.324772 809.01965 1310.4117 4282536557
-49.688988 808.09314 1309.6306 4282666599
-46.053211 808.09314 1309.6306 4282665576
-43.629356 809.01965 1310.4117 4282732916
-29.086239 807.16663 1308.8494 4282993794
-26.662386 808.09314 1309.6306 4288058816
-19.31743 815.30359 1309.17 4292534271
-85.862389 785.7218 1311.6962 4281676882
-83.409172 785.7218 1311.6962 4281349970
-85.862389 787.59735 1313.2775 4281284175
-90.429359 793.97522 1312.115 4281349970
-87.985321 793.97522 1312.115 4281218130
-83.097244 793.97522 1312.115 4281218130
-79.431198 793.97522 1312.115 4281086546
-75.765137 793.97522 1312.115 4280954962
-73.321098 793.97522 1312.115 4281019722
-70.877068 793.97522 1312.115 4281217357
-90.429359 795.84375 1313.6904 4281415763
-87.985321 795.84375 1313.6904 4281218132
-85.541283 795.84375 1313.6904 4281349718
-83.097244 795.84375 1313.6904 4281349970
-79.431198 795.84375 1313.6904 4281152338
-75.765137 795.84375 1313.6904 4281020755
-73.321098 795.84375 1313.6904 4281347919
-70.877068 795.84375 1313.6904 4281347919
-92.524773 802.18652 1312.4984 4281415763
-87.655045 802.18652 1312.4984 4281349970
-80.350456 802.18652 1312.4984 4281020753
-75.480736 802.18652 1312.4984 4281283925
-73.045868 802.18652 1312.4984 4281610837
-70.611008 802.18652 1312.4984 4281479508
-68.176147 802.18652 1312.4984 4281413717
-64.523857 802.18652 1312.4984 4281546069
-60.871559 802.18652 1312.4984 4281744728
-58.436699 802.18652 1312.4984 4281548630
-56.001835 802.18652 1312.4984 4281614423
-52.349541 802.18652 1312.4984 4281811550
-48.697247 802.18652 1312.4984 4282665828
-46.262386 802.18652 1312.4984 4282600035
-43.827522 802.18652 1312.4984 4282337380
-41.392662 802.18652 1312.4984 4282666346
-37.740364 802.18652 1312.4984 4282863463
-34.088074 802.18652 1312.4984 4282797666
-31.653212 802.18652 1312.4984 4282731873
-60.596329 810.87274 1311.9742 4282731108
-58.172478 811.79932 1312.7554 4283059307
-53.324772 811.79932 1312.7554 4283060337
-49.688988 811.79932 1312.7554 4283126133
-46.053211 811.79932 1312.7554 4283125879
-24.238533 810.87274 1311.9742 4293716479
-45.878899 820.84174 1313.8396 4292005606
-36.884403 825.85052 1311.5228 4292139263
-33.677063 825.23749 1311.006 4292270590
-90.711929 843.112 1312.9969 4284444040
-59.801834 759.36084 1316.9377 4280625746
-59.58165 763.96289 1314.278 4280757331
-85.862389 790.41058 1315.6495 4281218129
-97.761467 797.71222 1315.2659 4281415763
-95.317429 797.71222 1315.2659 4281415763
-90.429359 797.71222 1315.2659 4281349970
-85.541283 797.71222 1315.2659 4281086549
-83.097244 797.71222 1315.2659 4281086549
-79.431198 797.71222 1315.2659 4281152088
-95.317429 799.58069 1316.8413 4281481556
-90.429359 799.58069 1316.8413 4281415763
-85.541283 799.58069 1316.8413 4281284177
-83.097244 799.58069 1316.8413 4281218132
-78.209175 799.58069 1316.8413 4281283925
-87.655045 804.97876 1314.8528 4281349972
-82.785324 804.97876 1314.8528 4281349972
-80.350456 804.97876 1314.8528 4281283923
-76.698166 804.97876 1314.8528 4281611601
-73.045868 804.97876 1314.8528 4281742931
-70.611008 804.97876 1314.8528 4281742932
-68.176147 804.97876 1314.8528 4281676886
-64.523857 804.97876 1314.8528 4281875290
-60.871559 804.97876 1314.8528 4282073696
-56.001835 804.97876 1314.8528 4282207333
-53.566971 804.04803 1314.068 4282535262
-43.827522 804.04803 1314.068 4282404720
-41.392662 804.97876 1314.8528 4282536050
-37.740364 804.97876 1314.8528 4283191403
-34.088074 804.97876 1314.8528 4283519588
-31.653212 804.97876 1314.8528 4284967034
-29.218349 805.90955 1315.6376 4288913085
-58.172478 814.57886 1315.0991 4283191420
-53.324772 814.57886 1315.0991 4283652471
-49.688992 814.57886 1315.0991 4283914879
-46.053211 814.57886 1315.0991 4283979907
-53.324772 816.43188 1316.6616 4283389803
-49.688992 816.43188 1316.6616 4285362569
-46.053211 816.43188 1316.6616 4289243331
-43.629356 816.43188 1316.6616 4291150549
-41.205505 816.43188 1316.6616 4292795374
-38.781651 816.43188 1316.6616 4292796669
-33.933945 816.43188 1316.6616 4292336127
-31.510092 816.43188 1316.6616 4292336127
-29.086239 816.43188 1316.6616 4292270335
-43.464222 822.68774 1315.3962 4292402687
-41.049541 822.68774 1315.3962 4292205565
-38.634861 824.53381 1316.9528 4292270335
-38.488075 828.91553 1314.1072 4292270335
-95.85321 838.7793 1315.8839 4284310655
-90.711929 844.93701 1314.5358 4284115865
-60.022018 754.74481 1319.5859 4282861917
-95.317429 801.44922 1318.4169 4281481304
-91.244041 802.07202 1318.942 4281349971
-85.541283 802.38342 1319.2046 4281349972
-87.655045 808.70172 1317.9918 4281677915
-82.785324 808.70172 1317.9918 4281874267
-75.480736 807.771 1317.207 4281874518
-73.045868 808.70172 1317.9918 4282730843
-70.611008 808.70172 1317.9918 4282730844
-68.176147 808.70172 1317.9918 4282730589
-64.523857 808.70172 1317.9918 4282796385
-60.871559 809.63245 1318.7766 4283124584
-56.001835 808.70172 1317.9918 4283190894
-43.827522 808.70172 1317.9918 4283453804
-41.392662 808.70172 1317.9918 4284045941
-37.740364 808.70166 1317.9918 4286871448
-34.088074 808.70172 1317.9918 4289438132
-31.653212 808.70172 1317.9918 4291543765
-29.218349 808.70172 1317.9918 4292202991
-25.971865 809.01196 1318.2534 4292927227
-21.913761 809.63245 1318.7766 4292730623
-55.748623 818.28497 1318.224 4283651960
-53.324772 818.28497 1318.224 4284308609
-49.688992 818.28497 1318.224 4288321461
-43.629356 818.28497 1318.224 4292993269
-41.205505 818.28497 1318.224 4293453820
-37.569725 818.28497 1318.224 4292927999
-33.933945 818.28497 1318.224 4292270588
-31.510092 818.28497 1318.224 4292336381
-49.688992 820.13806 1319.7865 4292596976
-46.053211 820.13806 1319.7865 4292927737
-31.510092 820.13806 1319.7865 4292336383
-62.522934 758.56879 1322.8102 4279710038
-85.541283 805.18616 1321.5677 4281415513
-79.431198 805.18616 1321.5677 4281940058
-82.785324 811.4939 1320.3462 4281875297
-70.611008 811.4939 1320.3462 4282928486
-63.306423 811.4939 1320.3462 4283190125
-60.871559 811.4939 1320.3462 4283255919
-56.001835 811.4939 1320.3462 4283191420
-43.827522 811.4939 1320.3462 4284768376
-41.392662 811.4939 1320.3462 4288058026
-37.740364 811.4939 1320.3462 4291346661
-34.088074 811.4939 1320.3462 4293321471
-31.653212 811.4939 1320.3462 4293255679
-29.218349 811.4939 1320.3462 4292861439
-25.566055 811.4939 1320.3462 4292664575
-21.913761 811.4939 1320.3462 4292664575
-19.478899 811.4939 1320.3462 4292534271
-63.306423 813.35541 1321.9156 4283125366
-60.871559 813.35541 1321.9156 4283125366
-58.436699 813.35541 1321.9156 4283126129
-56.001835 813.35541 1321.9156 4282994800
-36.522934 813.35541 1321.9156 4292533497
-25.566055 813.35541 1321.9156 4292139007
-21.913761 813.35541 1321.9156 4292468223
-48.477066 821.99109 1321.3489 4292927231
-46.053211 821.99109 1321.3489 4293124607
-43.629356 821.99109 1321.3489 4292336127
-41.205505 821.99109 1321.3489 4292139007
-43.629356 823.84412 1322.9114 4291942141
-41.205505 823.84412 1322.9114 4292007934
-93.222015 800.72583 1324.3472 4281415511
-90.768806 802.60132 1325.9285 4281808472
-85.541283 807.98889 1323.9309 4281875039
-79.023857 807.67749 1323.6683 4282137437
-75.765137 807.98889 1323.9309 4282598244
-73.321098 808.9231 1324.7186 4282665315
-68.433029 808.9231 1324.7186 4283256169
-65.988991 808.9231 1324.7186 4283256169
-68.176147 815.21686 1323.4852 4283191922
-63.306423 815.21686 1323.4852 4283256961
-60.871559 815.21686 1323.4852 4283323010
-58.436699 815.21686 1323.4852 4283191409
-29.218349 815.21686 1323.4852 4292139007
-26.783485 815.21686 1323.4852 4292139007
-68.176147 817.07837 1325.0548 4283192174
-64.523857 817.07837 1325.0548 4283060588
-60.871559 817.07837 1325.0548 4282929257
-58.436699 817.07837 1325.0548 4285095531
-56.001835 817.07837 1325.0548 4288122008
-53.566971 817.07837 1325.0548 4290226631
-46.053211 825.6972 1324.4739 4292796671
-43.629356 825.6972 1324.4739 4292336381
-94.448624 804.47681 1327.5099 4281416281
-90.768806 804.47681 1327.5099 4281678683
-83.097244 810.79163 1326.2942 4282336867
-78.209175 810.79163 1326.2942 4282729572
-73.321098 811.72583 1327.0819 4282992747
-70.877068 811.72583 1327.0819 4283453299
-68.433029 810.79163 1326.2942 4283191661
-65.988991 811.72583 1327.0819 4283060334
-60.871559 818.93982 1326.6244 4285163916
-58.436699 818.93982 1326.6244 4288254106
-56.001835 818.93982 1326.6244 4291346634
-52.349541 818.93982 1326.6244 4293057776
-56.001835 820.80127 1328.1938 4292793841
-52.349541 820.80127 1328.1938 4292532729
-48.697247 820.80127 1328.1938 4292073212
-46.262386 820.80127 1328.1938 4292467967
-99.377983 827.55023 1326.0363 4283191411
-96.954132 827.55023 1326.0363 4283059569
-94.530273 827.55023 1326.0363 4283125362
-92.106422 827.55023 1326.0363 4282996596
-96.954132 829.40332 1327.5988 4283125875
-94.530273 829.40332 1327.5988 4283191924
-92.106422 829.40332 1327.5988 4283191672
-89.682571 829.40332 1327.5988 4283455101
-90.768806 806.35229 1329.0912 4281481304
-88.315598 806.35229 1329.0912 4281678431
-80.955963 806.35229 1329.0912 4282006882
-95.675232 808.22784 1330.6726 4281810267
-90.768806 808.22784 1330.6726 4281810267
-88.315598 808.22784 1330.6726 4282007905
-85.862389 808.22784 1330.6726 4282205027
-80.955963 808.22784 1330.6726 4282336867
-76.049538 808.22784 1330.6726 4282729572
-83.097244 814.52856 1329.4451 4282927980
-78.209175 814.52856 1329.4451 4283058539
-75.765137 814.52856 1329.4451 4283124332
-73.321098 814.52856 1329.4451 4283518060
-70.877068 814.52856 1329.4451 4283781231
-73.321098 816.39709 1331.0205 4283126381
-70.877068 816.39709 1331.0205 4283192174
-68.433029 816.39709 1331.0205 4283191924
-64.766968 816.39709 1331.0205 4283519862
-97.394493 822.66278 1329.7634 4283059823
-94.959633 822.66278 1329.7634 4283059823
-92.524773 822.66278 1329.7634 4282928755
-56.001835 822.66278 1329.7634 4292663295
-52.349541 822.66278 1329.7634 4292401913
-48.697247 822.66278 1329.7634 4292270073
-94.530273 831.25635 1329.1611 4284573827
-92.106422 831.25635 1329.1611 4284639107
-96.033028 803.78162 1333.4637 4281548378
-93.570641 803.78162 1333.4637 4281481304
-94.448624 811.04108 1333.0447 4282401631
-90.768806 810.10333 1332.2539 4282336867
-88.315598 811.97882 1333.8353 4282731110
-85.862389 811.97882 1333.8353 4282796903
-80.138222 810.72852 1332.7811 4282796648
-76.049538 810.10333 1332.2539 4282731110
-68.433029 818.26556 1332.5959 4284243064
-64.766968 818.26556 1332.5959 4287530655
-61.100918 818.26556 1332.5959 4291147467
-58.656879 818.26556 1332.5959 4292135655
-61.100918 820.13403 1334.1714 4292598247
-58.656879 820.13403 1334.1714 4292926719
-90.089905 828.24719 1334.472 4286020760
-87.655045 828.24719 1334.472 4285956513
-93.570641 805.66412 1335.051 4281876316
-88.645874 807.54663 1336.6384 4282533476
-86.183487 807.54663 1336.6384 4282599270
-83.7211 807.54663 1336.6384 4282731110
-100.58165 813.85437 1335.4167 4282665317
-98.128441 813.85437 1335.4167 4282731108
-78.502754 813.85437 1335.4167 4283059569
-76.049538 813.85437 1335.4167 4283257204
-71.14312 815.72986 1336.998 4282666080
-61.100918 822.93677 1336.5345 4292204533
-58.656879 822.93677 1336.5345 4291941882
-56.212845 822.00256 1335.7468 4291942141
-53.768806 822.00256 1335.7468 4292139259
-93.570641 809.42914 1338.2256 4282729572
-91.108253 809.42914 1338.2256 4282861415
-93.570641 811.31165 1339.813 4282731110
-91.108253 811.31165 1339.813 4282731110
-88.645874 811.31165 1339.813 4282927980
-86.183487 811.31165 1339.813 4282994029
-82.489906 811.31165 1339.813 4282928236
-90.768806 817.60535 1338.5795 4282796912
-88.315598 817.60535 1338.5795 4282862707
-67.463303 817.60535 1338.5795 4288254905
-63.783485 817.60535 1338.5795 4291216594
-90.768806 819.48083 1340.1609 4283127926
-88.315598 819.48083 1340.1609 4282800244
-73.596329 819.48083 1340.1609 4288189878
-71.14312 819.48083 1340.1609 4290821597
-67.463303 819.48083 1340.1609 4292202987
-63.783485 819.48083 1340.1609 4292270579
-63.544952 825.7395 1338.8978 4291350270
-61.100918 825.7395 1338.8978 4291481855
-93.570641 813.19415 1341.4003 4282927980
-91.108253 813.19415 1341.4003 4282927980
-88.645874 813.19415 1341.4003 4283189873
-76.333946 813.19415 1341.4003 4283190627
-73.871559 814.13538 1342.1938 4283388274
-71.409172 815.07666 1342.9875 4285229207
-88.315598 821.35632 1341.7422 4283586930
-85.862389 821.35632 1341.7422 4283850358
-73.596329 821.35632 1341.7422 4292464599
-71.14312 821.35632 1341.7422 4293253858
-71.14312 823.23181 1343.3236 4293056759
-67.463303 823.23181 1343.3236 4292007419
-85.268806 810.65845 1345.8022 4283059052
-81.56147 810.65845 1345.8022 4282928232
-79.089905 810.65845 1345.8022 4283256420
-82.900307 818.21417 1345.6329 4284246154
-78.796333 818.84167 1346.1621 4287004825
-76.333946 817.90045 1345.3684 4288519605
-85.268806 812.54797 1347.3955 4282994543
-81.56147 812.54797 1347.3955 4283455601
-79.089905 812.54797 1347.3955 4283191909
-76.618347 812.54797 1347.3955 4283455080
-86.504585 814.4375 1348.9886 4282866294
-81.56147 814.4375 1348.9886 4284837252
-79.089905 814.4375 1348.9886 4284968581
