# .PCD v0.7 - Point Cloud Data file format
VERSION 0.7
FIELDS x y z rgb
SIZE 4 4 4 4
TYPE F F F U
COUNT 1 1 1 1
WIDTH 1170
HEIGHT 1
VIEWPOINT 0 0 0 1 0 0 0
POINTS 1170
DATA ascii
84.645874 808.17438 757.27441 4294770687
88.348618 807.5777 758.51538 4294901759
59.317432 810.3623 758.24719 4285036997
61.78899 810.3623 758.24719 4284840655
65.084404 810.3623 758.24719 4293983999
67.330276 812.64545 756.24817 4294180351
70.027527 810.3623 758.24719 4294508287
74.14679 810.3623 758.24719 4294901759
76.618347 810.3623 758.24719 4294508543
79.913757 810.3623 758.24719 4294639615
82.385323 810.3623 758.24719 4294574079
84.85688 810.3623 758.24719 4294836223
64.866974 813.90088 757.30676 4294115327
68.151382 813.90088 757.30676 4294377471
70.614677 814.52863 757.83606 4294639615
43.515594 772.86102 760.63593 4286614146
46.240978 775.71484 760.42603 4294442495
47.21468 778.91071 759.19666 4294177781
47.21468 780.19983 760.28357 4283652546
47.111927 783.68231 760.60382 4279902566
46.957798 787.92859 760.26013 4280559451
48.634861 787.28754 759.7196 4280032601
46.957798 789.21075 761.34119 4280824156
49.365135 790.75244 760.02502 4280692064
51.875229 790.75244 760.02502 4281350002
97.056877 790.75244 760.02502 4294967295
46.855045 792.03174 761.10376 4280824156
49.365135 792.03174 761.10376 4280823396
52.538532 794.34015 759.1261 4280957304
95.069725 794.34015 759.1261 4294967295
97.056877 792.03174 761.10376 4294836223
46.700916 796.89038 761.27637 4280824158
49.480732 796.46533 760.91797 4281021286
52.260548 796.04028 760.55957 4281022319
52.422935 799.05981 760.4895 4280760945
93.196327 799.05981 760.4895 4294901759
52.030582 802.49603 760.77075 4281089143
91.330284 802.49603 760.77075 4294770687
52.961468 806.05286 759.8457 4280564343
54.616512 806.05286 759.8457 4281880202
52.409786 808.16168 761.62378 4280499320
55.381653 808.07922 760.24622 4282998942
57.798164 808.84021 759.57983 4285564097
72.660553 808.84021 759.57983 4294508543
88.348618 808.84021 759.57983 4294967295
91.027519 808.58344 761.97937 4294967295
55.321102 810.73395 761.17664 4283459490
58.5578 811.49286 760.50854 4284906172
61.78899 812.25183 759.84039 4285170385
65.084404 812.88165 760.37146 4294508543
67.555962 812.88165 760.37146 4294770687
69.203667 812.88165 760.37146 4294770687
73.403671 811.49292 760.50854 4294508543
76.660553 811.87274 760.1748 4294574079
79.913757 812.25183 759.84045 4294770687
82.385323 812.25183 759.84039 4294508543
84.952293 811.49292 760.50848 4294836223
88.348618 810.73389 761.17657 4294967295
59.317432 814.14136 761.43359 4282936253
61.78899 814.14136 761.43359 4285566684
65.084404 814.14136 761.43359 4294574079
67.555962 814.14136 761.43359 4294574079
70.027527 814.14136 761.43359 4294574079
70.866058 747.80548 763.0542 4290702591
72.594498 748.46619 763.61127 4293786111
42.614677 769.82874 764.61926 4285102279
44.080734 775.66937 763.00372 4290032383
44.080734 777.61359 764.64307 4279050851
45.677063 778.51709 762.78882 4282535864
45.528439 782.77814 762.45752 4280098904
43.842201 785.35638 764.63147 4280757331
45.528439 784.06726 763.54456 4280559703
43.746788 788.18451 764.3999 4280297811
45.429359 786.89813 763.31531 4280954710
43.603668 791.77502 763.5033 4280429398
45.280735 790.49286 762.42224 4280495191
41.088074 793.05713 764.58435 4280101452
43.508255 794.59039 763.26111 4280364370
45.739452 793.73755 762.54199 4280627032
48.528439 793.3111 762.1825 4280889949
43.508255 795.86975 764.33984 4280297811
45.181652 795.86975 764.33984 4280495191
46.03376 799.69562 763.64172 4280627292
49.013943 799.49109 762.94598 4280957286
93.196327 800.96832 762.09863 4294967295
49.926605 802.87677 763.70782 4280695156
93.196327 802.2406 763.17139 4294967295
51.477066 805.03503 762.91162 4280959098
92.437317 805.45819 763.26837 4294967295
94.651375 805.03503 762.91162 4294967295
52.133945 809.84875 763.04626 4280695673
91.855042 809.84875 763.04626 4294967295
52.133945 811.11401 764.11316 4281483643
55.321102 812.62769 762.77332 4284510894
57.798164 812.62769 762.77332 4284709820
73.486237 812.62769 762.77332 4294377471
76.788986 812.62769 762.77332 4294705151
80.091743 812.62769 762.77332 4294770687
82.56881 812.62769 762.77332 4294901759
85.045868 812.62769 762.77332 4294770687
88.445869 811.87085 763.44324 4294705151
91.027519 811.11401 764.11316 4294770687
56.14679 813.89014 763.83789 4285694659
58.899082 814.31097 764.19269 4283657401
62.201832 814.31097 764.19269 4287998446
64.857491 815.3183 763.29791 4294705151
67.105812 815.23541 764.1001 4294770687
70.105507 815.27686 763.69904 4294639615
74.311928 813.89014 763.83789 4294770687
77.614677 813.89014 763.83789 4294967295
79.266052 813.89014 763.83789 4294967295
74.322937 750.44824 765.28247 4293785855
40.187157 767.49091 766.57214 4280629635
37.622017 768.79828 767.67456 4281681293
40.187157 768.79828 767.67456 4278919021
40.910091 773.73822 767.91565 4279117398
42.614677 771.78345 766.26746 4285039821
42.522934 775.9386 767.15491 4279376974
44.080734 778.90979 765.73596 4280032854
43.985321 781.75049 765.51514 4280362323
40.601833 784.33716 767.69617 4280296780
42.293579 783.04382 766.60571 4280757331
42.155964 786.64557 765.71851 4280362573
40.381653 789.47083 765.4845 4280035405
42.06422 789.47083 765.4845 4280101198
41.088074 794.33923 765.66541 4279838029
41.06514 796.64441 766.95508 4279968845
43.508255 797.14905 765.41858 4280165973
43.508255 799.06799 767.03656 4279837266
45.181652 799.7077 767.57593 4280692319
46.144955 802.84088 766.2937 4280299361
48.368809 801.99084 765.5769 4280760943
45.866974 804.54108 767.72717 4280560990
48.817127 805.20929 765.67462 4280628587
46.598164 807.32983 767.46252 4280758110
49.298473 807.91577 766.21259 4280628075
49.816513 810.11304 767.19324 4280432232
52.133945 812.37933 765.18005 4281024632
54.616512 812.37933 765.18005 4283920299
72.822021 812.37933 765.18005 4294639615
76.132111 812.37933 765.18005 4294967295
81.924774 812.37933 765.18005 4294967295
85.234863 812.37933 765.18005 4294967295
88.544952 812.37933 765.18005 4294967295
91.027519 812.37933 765.18005 4294967295
55.444038 813.64465 766.24683 4284841926
58.478287 814.4881 766.95807 4283657663
61.78838 814.4881 766.95807 4287407087
64.546791 814.90991 767.31372 4294967295
73.649544 814.27728 766.78027 4294836223
76.959633 814.27728 766.78027 4294967295
79.4422 814.27728 766.78027 4294901759
81.924774 813.64465 766.24683 4294967295
85.234863 813.64465 766.24683 4294901759
88.544952 814.27728 766.78027 4294967295
66.880737 816.41516 765.9668 4294901759
70.183487 816.41516 765.9668 4294574079
35.988991 768.55273 770.0835 4280102247
37.622017 770.10565 768.77686 4280621673
40.187157 770.10565 768.77686 4279573346
37.622017 772.06671 770.43036 4280362073
39.332111 772.06671 770.43036 4280296023
37.500916 776.3446 770.11328 4280362069
40.341896 775.91016 769.74707 4280361299
39.971558 779.18951 769.896 4280559699
42.522934 777.88916 768.79956 4280427862
39.121101 780.48987 770.99243 4280428116
38.910091 788.21722 770.96777 4280362573
38.783485 791.80212 770.06641 4280035405
38.699081 795.90253 770.90759 4279706444
41.06514 799.20654 769.11536 4279967824
43.508255 800.987 768.65466 4280363605
41.834862 802.90601 770.27264 4279836746
43.508255 802.90601 770.27264 4279509073
45.033028 805.81616 768.80237 4280298845
46.144955 807.51636 770.23584 4280626779
48.817127 809.45038 769.25049 4281086820
49.926605 811.14679 770.68091 4280628591
52.365139 811.26465 769.47229 4280958331
55.628441 812.65204 769.33398 4285301966
82.19725 812.65204 769.33398 4294967295
85.518349 812.65204 769.33398 4294967295
56.458717 813.92157 770.40442 4286024676
58.949539 813.92157 770.40442 4282670775
61.440369 813.92157 770.40442 4287803903
73.894493 813.92157 770.40442 4294770687
76.385323 813.92157 770.40442 4294967295
78.876144 813.92157 770.40442 4294967295
81.366974 813.92157 770.40442 4294967295
85.518349 813.92157 770.40442 4294967295
88.839447 813.92157 770.40442 4294836223
62.891743 816.17523 768.38062 4292206591
64.546791 816.17523 768.38062 4294967295
67.029358 816.17523 768.38062 4294639615
70.339447 816.80786 768.91406 4294639615
35.988991 769.86292 771.18823 4279968597
35.132111 771.82819 772.84521 4280493914
35.341896 774.89935 772.81885 4280297304
35.796329 778.95093 772.31091 4280362069
37.500916 778.29932 771.76147 4280362067
35.796329 780.25409 773.40967 4280427862
37.420185 781.79022 772.08887 4280296526
39.121101 781.79022 772.08887 4280428368
39.121101 783.09058 773.1853 4280362319
35.603668 787.98285 773.38623 4279903819
37.299084 786.68671 772.29333 4280362573
35.526604 790.80396 773.1488 4279706444
37.218349 789.51056 772.05823 4279903819
37.659328 793.521 771.51562 4279772235
37.898163 796.4292 772.65973 4280033356
38.699081 798.47522 773.07678 4279770700
40.249542 800.74988 771.07068 4279639114
40.249542 802.6731 772.69226 4279443008
41.834862 805.46466 772.43005 4279903556
43.508255 805.46466 772.43005 4280034382
45.181652 806.10431 772.96936 4280823124
46.700916 809.64154 772.02783 4280954712
48.368809 809.64154 772.02783 4281349470
46.700916 810.91663 773.10291 4280954712
49.202751 810.91663 773.10291 4281021800
52.422935 812.41907 771.75366 4280631164
54.919266 812.41907 771.75366 4284449727
83.211006 812.41907 771.75366 4294967295
53.255047 813.69141 772.82642 4279976076
55.751373 813.69141 772.82642 4285170395
59.046791 814.70251 773.0249 4281816498
61.508255 815.07739 772.68701 4288729343
64.001831 815.07739 772.68701 4294310399
67.326607 815.07739 772.68701 4294573823
74.0578 814.32758 773.36279 4294770687
76.554131 814.32758 773.36279 4294967295
79.050461 814.32764 773.36279 4294836223
82.378899 814.32764 773.36279 4294901759
85.707336 814.32764 773.36279 4294901759
88.106415 815.07739 772.68701 4294901759
70.573395 816.46057 772.54529 4294770687
34.385323 768.85211 774.26001 4280493911
32.491745 776.64258 774.28857 4280493907
34.201836 776.64258 774.28857 4280362069
32.491745 778.60364 775.94214 4280493907
34.201836 777.94995 775.39099 4280427862
32.387157 782.86041 775.6073 4280428116
34.659939 781.9917 774.87469 4280362323
37.500916 781.55725 774.50842 4280362319
31.5 784.92749 776.04211 4280166993
34.868805 785.04114 774.82996 4280165968
32.317432 786.9917 776.47461 4280034642
33.908257 790.5752 775.57196 4279903310
35.103668 793.71399 775.60248 4279902540
37.097248 796.95868 774.41418 4279770700
37.631191 799.18213 775.41693 4279639621
38.699081 801.69104 775.78827 4279705156
40.808563 805.45099 775.03448 4279574595
41.926605 807.16058 776.47595 4280098372
43.555962 807.27209 775.26202 4280165197
45.600002 808.98279 775.39648 4280428624
49.202751 812.19177 774.1781 4280825449
51.704586 812.19177 774.1781 4281024640
50.036697 813.46686 775.25317 4279119212
52.538532 813.46686 775.25317 4282210723
55.874313 814.10443 775.79077 4286155232
58.376148 814.74194 776.32837 4282668436
60.044037 814.74194 776.32837 4280636589
73.387154 814.74194 776.32837 4294967295
75.888992 814.74194 776.32837 4294967295
79.22477 814.74194 776.32837 4294836223
82.560547 814.74194 776.32837 4294836223
85.896332 814.74194 776.32837 4294705151
61.576145 816.23602 774.97205 4289979135
64.072479 816.23602 774.97205 4294967295
67.400917 816.23602 774.97205 4294639615
70.729355 816.23602 774.97205 4294836223
30.847706 777.72406 777.81653 4280625750
30.781651 780.5647 777.59558 4280428116
30.68257 785.4668 777.80493 4280165971
31.5 787.53101 778.23737 4279969362
32.317432 790.24261 779.2157 4279968588
33.908257 794.46368 778.85059 4279968330
34.987156 796.33594 778.68524 4279967048
35.526604 798.56403 779.69189 4279770952
37.097248 800.82611 777.67517 4279705157
37.919266 803.13617 778.96893 4279442755
40.381653 805.55005 779.04218 4279966020
41.926605 808.44269 777.55701 4280097353
43.603668 809.08374 778.09753 4280034120
45.280735 809.72479 778.63806 4280494671
43.603668 811.00696 779.71912 4280229706
46.330276 811.57648 778.45538 4280559444
49.086239 812.07446 778.00336 4280298334
52.711926 812.50092 778.36292 4283195317
50.201836 813.78027 779.44153 4279248735
52.711926 813.78027 779.44153 4280891524
56.058716 813.78027 779.44153 4287929844
58.568806 813.78027 779.44153 4283521961
65.262383 813.78027 779.44153 4294967295
67.772476 813.78027 779.44153 4294836223
73.629356 813.78027 779.44153 4294967295
76.13945 813.78027 779.44153 4294967295
79.486237 813.78027 779.44153 4294901759
82.833023 813.78027 779.44153 4294770687
85.343117 813.78027 779.44153 4294705151
87.01651 813.78027 779.44153 4294705151
61.155964 816.44214 777.7619 4288924131
63.379818 816.01709 777.40356 4294967295
70.885323 816.01709 777.40356 4294967295
29.133945 780.99951 780.57825 4280165973
29.07156 785.1405 781.45386 4280033873
30.68257 788.07312 780.00244 4279772238
30.68257 790.02783 781.6507 4280099402
31.75046 793.06006 781.59131 4280164426
33.908257 797.05597 781.03638 4279705159
32.212845 798.35211 782.12927 4279836745
34.71743 799.10474 781.45587 4279705413
35.526604 801.79742 782.41821 4279705160
37.218349 802.44409 782.9635 4279835203
38.783485 805.33813 781.47955 4279834174
40.469727 805.98273 782.02307 4280162367
42.06422 808.12268 781.21136 4280425284
42.905502 810.05225 782.83826 4280295750
46.193581 811.17065 781.81921 4280887377
48.634861 812.28906 780.80017 4281215833
49.752911 813.9986 782.24164 4280757600
52.769722 814.95642 781.74133 4280233320
56.058716 815.05957 780.52026 4286418653
58.568806 815.05957 780.52026 4282732975
60.242203 815.05957 780.52026 4283989690
64.752296 814.99078 781.33429 4294901759
67.846786 814.95642 781.74133 4294901759
70.891747 814.99078 781.33429 4294901759
72.952293 814.21228 782.42181 4294836223
76.58593 813.9986 782.24164 4294901759
79.660553 814.21228 782.42188 4294901759
82.735168 813.9986 782.24164 4294770687
56.058716 816.33893 781.599 4279185539
58.568806 816.97858 782.13831 4282475193
60.799999 816.76538 781.9585 4290035700
63.588989 816.33893 781.599 4294967295
20.741285 774.23358 785.33765 4280822872
22.469725 774.23358 785.33765 4280822872
24.982569 776.52515 783.34583 4280691286
24.982569 778.50098 785.01172 4280363351
27.508257 779.36725 783.1261 4280231766
25.78899 781.33887 784.78851 4280034390
27.508257 780.68164 784.23438 4280034390
27.420183 784.93005 783.8924 4280034120
25.706423 786.89532 785.54944 4280231766
28.501528 787.97314 783.84229 4279903559
28.169724 790.84949 784.30548 4280099402
28.409784 794.1546 785.13019 4280033865
31.466972 794.79388 783.05322 4279836745
31.183487 796.96112 784.88062 4279902535
33.908257 800.29639 783.76862 4279836746
32.212845 802.2406 785.40796 4279311168
34.71743 802.98901 784.73096 4279637819
37.218349 803.73743 784.05396 4279964987
35.526604 805.03082 785.14453 4279244578
37.218349 805.03082 785.14453 4279701816
38.783485 808.56104 784.19696 4280032060
40.469727 808.56104 784.19696 4280163394
42.905502 811.33856 783.92285 4280690504
46.551071 811.76733 784.28436 4280757586
48.794495 812.62494 785.00745 4280693589
74.033028 812.62494 785.00745 4294443007
75.715599 812.62494 785.00745 4294639615
50.311928 816.1355 784.04346 4281152866
51.988991 816.1355 784.04346 4281416295
55.343121 816.77655 784.58398 4279179603
57.579205 816.99023 784.76416 4280692338
62.051376 816.1355 784.04346 4294967295
65.405502 816.1355 784.04346 4294770687
72.113762 816.1355 784.04346 4294967295
19.897247 775.45392 787.67474 4280560471
22.469725 776.2157 787.00897 4280495191
24.198166 775.55499 786.4519 4280495193
20.741285 778.19781 788.68018 4280363605
22.469725 778.19781 788.68018 4280297811
24.121101 781.13538 787.23303 4280297312
20.67523 783.11115 788.89893 4280364370
22.398165 783.11115 788.89893 4280167247
24.659937 784.1203 788.0058 4280362841
25.706423 788.20551 786.65417 4280362319
23.992661 790.82587 788.86365 4280426318
25.706423 789.51569 787.75891 4280492363
27.361467 791.02374 786.41443 4280099402
25.651377 792.9848 788.06793 4280229964
27.841589 796.32648 786.96149 4279968328
28.368195 799.06299 787.52472 4279770951
31.183487 799.12848 786.70801 4279705412
28.915596 801.29572 788.5354 4278982204
31.365139 803.53674 786.50085 4279374398
33.908257 803.53674 786.50085 4278981663
32.212845 804.83289 787.59375 4279374398
34.447704 805.76202 787.50513 4279572278
37.218349 806.32416 786.23499 4280032575
35.526604 807.61749 787.32556 4279769405
37.782261 808.47974 788.05255 4279968068
40.469727 811.13928 786.37097 4280231753
42.999084 811.78381 786.91443 4280692046
46.090519 811.99872 787.09552 4281021009
74.194496 812.42841 787.45789 4294705151
79.253212 812.42841 787.45789 4294967295
43.842201 813.71759 788.54492 4280954962
46.371559 813.71759 788.54492 4281152086
49.390827 814.27545 787.27118 4281349985
53.281342 814.7688 786.81512 4281284977
61.413761 815.19757 787.17664 4292994303
64.498474 814.7688 786.81512 4294901759
67.863609 814.34003 786.45361 4294770687
70.208565 813.78217 787.72729 4294705151
73.272476 814.45758 787.86078 4294377215
76.640366 813.81439 787.31848 4294836223
80.763306 813.91125 786.09204 4294836223
55.524769 816.48395 788.26135 4278193991
58.048622 816.48395 788.26135 4283388817
17.376146 772.40698 790.33777 4280296274
19.053211 776.67853 790.01526 4280559703
17.3211 778.00275 791.13184 4280428368
19.877064 779.51923 789.79443 4280428883
22.469725 779.51923 789.79443 4280232018
19.012844 780.84064 790.90857 4280625748
20.67523 785.08691 790.56488 4280689998
22.398165 785.08691 790.56488 4280624205
24.069725 787.2536 789.77576 4280558156
22.350458 789.88245 791.99219 4280165195
23.992661 792.7912 790.52069 4280033865
25.651377 794.94586 789.72144 4279968326
23.941284 797.56061 791.92615 4279442503
25.651377 796.25323 790.82385 4279444040
25.568808 799.80164 789.89172 4279376709
27.273394 799.80164 789.89172 4279311168
28.125687 801.10486 790.99048 4278324530
31.183487 803.46295 790.36279 4278981179
32.317432 805.19684 791.82471 4279377213
35.038532 807.85724 790.14374 4279574082
37.299084 808.72137 790.87231 4279770952
38.401226 810.07977 791.14569 4280296263
40.601833 810.85089 790.05188 4280493643
42.857494 812.3598 791.32416 4281020245
45.677063 812.79089 791.68762 4281086551
69.361465 812.79089 791.68762 4294901759
74.436699 812.79089 791.68762 4294705151
76.128441 812.79089 791.68762 4294705151
47.21468 815.00671 789.63184 4281349468
49.744034 815.00671 789.63184 4281481062
53.116516 815.00671 789.63184 4281219439
61.547707 815.00671 789.63184 4294310143
64.920181 815.00671 789.63184 4294901759
67.449539 815.00671 789.63184 4294901759
70.822021 815.00671 789.63184 4294639615
72.508255 815.00671 789.63184 4294574079
50.587154 816.29584 790.71887 4282204010
53.397552 816.72559 791.08124 4281022313
55.64587 816.94043 791.26233 4278190129
58.175228 816.94043 791.26233 4285296018
61.266666 817.15527 791.44354 4294967295
64.077065 817.58502 791.80579 4294967295
72.508255 816.94043 791.26233 4294705151
15.688073 772.12073 794.02039 4280426829
16.507339 775.06384 792.57788 4280493392
13.900917 777.05646 794.25806 4280165195
16.479816 778.19171 793.25323 4280362318
16.166361 781.09259 793.73712 4280427342
19.012844 782.16205 792.02271 4280428368
17.284403 783.48346 793.13696 4280755534
19.012844 784.14417 793.69403 4280623951
20.67523 787.72131 792.78613 4280493134
22.398165 787.06274 792.23083 4280492365
20.67523 789.69714 794.45203 4280165195
22.350458 791.19678 793.10046 4280165195
23.171558 793.63385 793.19324 4279705928
23.992661 797.37683 794.38721 4278653241
25.651377 799.52173 793.57971 4278192178
27.361467 800.17542 794.13086 4278322726
28.977982 803.05957 792.63867 4279046449
30.68257 803.71118 793.18811 4279114042
28.977982 805.01434 794.28687 4279374900
31.5 805.75574 793.604 4279835198
34.018349 806.49719 792.92114 4279968578
34.868805 807.79755 794.01758 4280230210
40.689907 811.31372 793.05811 4280362319
43.233028 812.60986 794.151 4281020501
46.522934 814.08429 792.7782 4281152091
49.906422 814.73096 793.32343 4281876070
52.444038 815.37762 793.86865 4281942121
62.594494 814.08429 792.7782 4294967295
65.41407 814.51538 793.14166 4294901759
67.669724 814.73096 793.32343 4294901759
70.207336 814.73096 793.32349 4294770687
74.436699 814.08429 792.7782 4294901759
76.128441 814.08429 792.7782 4294705151
53.201836 817.77258 793.92603 4279772495
55.64587 818.87415 792.89282 4279576653
58.175232 818.87415 792.89282 4291676372
60.704586 818.87415 792.89282 4294967295
65.977982 816.67096 794.95923 4294967295
67.669724 816.67096 794.95923 4294967295
55.64587 820.16327 793.97974 4285953991
57.332111 820.16327 793.97974 4291611135
13.900917 778.38489 795.37817 4280163913
15.638532 781.04175 797.61829 4280426829
17.3211 784.62378 796.71454 4280427596
17.284403 788.7691 797.59363 4280229706
19.012844 787.44769 796.47949 4280296009
20.67523 791.01434 795.56274 4280099402
20.10092 793.20966 797.41376 4279769416
22.350458 793.82556 795.31702 4279639114
20.631193 796.45435 797.53357 4279177018
22.350458 795.14001 796.42529 4279505218
23.13578 799.3421 796.04425 4278652464
23.13578 801.30737 797.70129 4278981916
25.651377 802.13647 795.78436 4278915116
27.361467 802.13647 795.78436 4279046191
28.216515 804.09753 797.43787 4279701297
31.534863 806.3175 795.38562 4280228159
32.387157 807.62073 796.4845 4280032577
35.202442 808.54755 796.39386 4280164162
37.460548 809.01086 796.34863 4279966786
39.163303 809.01086 796.34863 4280756301
40.822018 810.39825 796.21045 4281218132
44.223854 811.69861 797.30688 4281020254
46.623856 813.90601 795.2439 4281480802
49.732113 814.77008 795.97247 4282007915
50.862385 816.49835 797.42969 4281418103
52.444038 817.96436 796.04968 4278654797
54.13578 817.96436 796.04968 4278190141
13.944954 778.11755 799.07684 4280163913
13.944954 780.11646 800.76221 4280229706
15.638532 782.37012 798.7384 4280492878
15.638532 784.36279 800.41858 4280426831
15.588991 788.59644 800.06421 4280163913
17.284403 790.75122 799.26489 4280163660
19.012844 790.09052 798.70776 4280097868
16.420183 792.73328 800.93616 4280164168
18.952293 794.96594 798.89453 4279571776
17.229359 796.28314 800.00525 4278981700
19.771561 797.7688 798.64185 4278456367
20.058104 799.5213 800.11945 4278586144
22.350458 800.39758 800.85828 4279047456
24.069725 800.39758 800.85828 4279047204
25.706423 803.27264 799.3584 4279046697
27.420183 803.92773 799.91077 4279177270
29.07156 805.40491 798.54028 4279374650
31.351683 806.27655 799.27515 4279835198
34.201836 806.71228 799.64258 4280229958
35.056881 808.01965 800.745 4280295243
37.622017 808.01965 800.745 4280952914
39.332111 808.01965 800.745 4282926704
40.910091 810.22705 798.68213 4281742679
43.182873 811.09589 799.41461 4281348183
46.825687 812.91626 799.64148 4282007401
62.933945 812.99902 798.40332 4294967295
64.634865 812.99902 798.40332 4294967295
49.326607 814.94958 800.04797 4282336873
50.862385 817.79449 798.52258 4278595920
52.557796 817.79449 798.52258 4278190105
10.601835 763.59619 803.83716 4280032323
12.368808 763.59619 803.83716 4280164165
12.227523 779.94946 803.23743 4280032323
13.944954 782.11542 802.44769 4280163659
13.900917 786.35541 802.09863 4280163913
13.856881 790.58276 801.73901 4280228932
15.588991 789.92065 801.18079 4280688713
13.827523 794.05469 802.05029 4279966532
15.555964 794.05469 802.05029 4279769409
13.827523 795.3761 803.16455 4279835203
16.367889 797.60034 801.11584 4279308351
17.229359 799.57617 802.78174 4278322993
19.526606 799.79572 802.9668 4278389036
22.350458 801.71198 801.96655 4278981159
24.642813 802.5882 802.70538 4279373616
28.277065 805.23792 801.0155 4279637819
31.704586 806.5481 802.12024 4280032575
32.561466 807.85828 803.22485 4280427081
35.132111 807.85828 803.22485 4280558669
37.702751 807.85828 803.22485 4280757329
40.187157 809.32703 801.84729 4281546074
43.607338 810.6344 802.94971 4281347936
47.160244 814.57086 802.34473 4282730352
49.433029 815.4397 803.07727 4281086297
8.8623857 761.32147 805.84326 4279181132
7.0899081 762.67657 806.98584 4279705159
10.601835 764.94708 804.9762 4280164165
12.368808 764.94708 804.9762 4280295752
10.568808 769.23755 804.66974 4280360772
12.330276 769.23755 804.66974 4280294979
10.568808 771.25757 806.37292 4280229958
12.291743 773.51544 804.35266 4280229958
10.53578 775.52905 806.05054 4280164165
12.266055 776.36035 804.13525 4280164165
12.227523 781.28485 804.36353 4280032323
10.480734 783.95575 806.61548 4280098368
12.201835 784.7807 804.69501 4280098368
12.163302 789.67651 804.89893 4279705411
12.124771 793.89331 804.5304 4279968076
12.692355 796.15228 805.56299 4279244350
15.555964 796.69751 804.27869 4279308604
13.827523 798.01892 805.39282 4279177270
15.555964 798.67963 805.94995 4278783018
17.229359 801.55194 804.44775 4279241517
19.813763 802.21057 805.00305 4279111200
22.398165 802.21057 805.00305 4279243548
24.121101 802.86914 805.55835 4279504432
20.67523 804.18634 806.66895 4279308062
22.398165 804.18634 806.66895 4279637026
25.251375 804.23779 805.84033 4279768108
28.367889 804.99792 804.7373 4280096570
31.806421 806.31238 805.84552 4280557896
34.385323 806.96954 806.39966 4280558158
36.964218 806.96954 806.39966 4281018449
40.273396 809.16846 804.32959 4281610841
41.130276 810.47864 805.43433 4281742175
43.654129 811.8653 805.29553 4281939298
46.172478 813.24915 805.1543 4283123317
47.728439 816.74292 804.17603 4280888636
3.5633028 757.53033 809.18689 4279836456
5.3284402 761.16296 808.32556 4279835450
5.317431 765.38672 809.271 4279966782
7.951376 767.6488 807.25427 4280032323
5.3009176 769.67505 808.96271 4280097346
7.6568809 769.44989 808.77289 4280098372
8.2201834 773.50195 808.26544 4280164418
7.9266057 775.29749 809.7793 4280164417
8.7798166 778.88519 808.88037 4280098368
10.53578 777.54279 807.74841 4280229958
10.513762 780.37927 807.52393 4280098368
10.480734 785.2912 807.74146 4279771456
7.8605504 787.96204 809.99353 4279966782
10.480734 786.62659 808.86743 4279705159
8.7155962 790.77753 809.75134 4280032575
10.458715 789.44489 808.62769 4279968076
10.425688 793.66174 808.25916 4279442242
10.425688 795.65436 809.93933 4279374648
13.010092 796.76013 808.90967 4278651431
13.856881 799.19012 808.99646 4278257685
16.420183 800.66174 807.62122 4278782749
16.420183 801.98315 808.73535 4279110430
19.588991 802.86407 809.47821 4279242019
22.469725 803.30457 809.84961 4279504934
24.198166 803.30457 809.84961 4279702567
25.844036 805.50354 807.77966 4279768361
28.42844 805.50354 807.77966 4280095302
31.587156 806.38165 808.52002 4280558154
34.458717 806.82074 808.89026 4280821073
36.181652 806.82074 808.89026 4281347418
37.823853 808.28394 807.50793 4281676886
40.402752 808.94116 808.06207 4281808477
43.841286 810.91272 809.72449 4282925158
46.420185 810.91272 809.72449 4282201945
1.787156 755.25562 811.19299 4282136140
1.787156 756.62195 812.34497 4278197595
3.5633028 758.89246 810.33533 4279177520
8.9357796 756.62195 812.34497 4279770952
1.7816514 761.61658 812.63232 4279703612
5.344954 760.25452 811.48376 4280032325
8.9082565 760.25452 811.48376 4280032575
3.5522935 763.87872 810.61548 4279966782
1.7761468 766.59448 812.90527 4279964474
3.5449541 766.74182 810.41357 4279703360
1.772477 769.4519 812.69873 4279769405
3.5449541 768.09686 811.55615 4280096573
4.4174314 772.37683 811.24084 4280163644
4.4091744 775.52368 811.93207 4280031532
7.0458717 776.64417 810.91479 4280098368
4.4036698 777.99084 812.05029 4280294200
5.26789 782.91254 812.27612 4279311164
7.7262383 781.30164 810.91779 4279967549
8.7614679 784.39819 810.9126 4279574591
6.9871559 789.96521 811.6825 4279900993
8.1345568 792.99854 811.62408 4279441984
10.425688 796.98279 811.05945 4279111727
12.163302 796.98279 811.05945 4278651176
13.010092 799.41278 811.14624 4278650913
16.455046 801.83856 811.22961 4279111714
19.919266 803.16278 812.34619 4279374886
22.469725 804.62598 810.96375 4279702567
24.774313 805.06641 811.33514 4280030267
28.519266 805.28668 811.52087 4280162883
31.976147 805.94739 812.07788 4280557651
34.568806 805.94739 812.07788 4280820821
37.043121 808.13794 810.00085 4281742429
40.201832 809.01605 810.74121 4282268254
0 752.83777 815.69434 4278198881
0.89357799 757.91736 814.74524 4279440698
3.574312 757.98822 813.49695 4279703360
7.1486239 757.98822 813.49695 4280032575
-1.787156 760.72083 815.80103 4279244328
0 760.72083 815.80103 4279506233
1.7816514 762.9787 813.78076 4279703612
1.772477 770.80701 813.84119 4279835199
1.772477 772.16211 814.98376 4279966782
1.7669724 775.75397 814.08838 4280162367
-1.7669724 777.10486 815.22729 4279637819
0.88348621 777.10486 815.22729 4280096573
4.4036698 779.33746 813.18579 4279835198
1.7614679 781.35748 814.88892 4280031551
3.5229359 780.68414 814.32117 4279245371
4.0972476 784.70245 813.78534 4279966019
4.6727829 787.97052 813.9248 4280097857
4.3724771 790.86255 814.40112 4279835203
4.3669724 793.9715 815.06055 4279441723
7.8440366 794.77539 813.12231 4279242812
7.8440361 796.77435 814.80774 4278651441
10.458715 796.77435 814.80774 4278651686
13.321712 800.08246 813.67291 4278652191
16.507339 800.96802 814.41968 4278981413
16.507339 802.29645 815.53979 4279505189
19.113762 802.29645 815.53979 4279636774
20.78532 804.487 813.46265 4279964724
22.517431 804.487 813.46265 4279964724
25.115597 805.14911 814.02094 4279966013
31.177982 805.81122 814.57922 4281216081
32.309479 807.17987 814.86127 4281149773
34.568806 808.59015 814.30634 4281610583
36.988625 808.32599 814.08337 4282136927
40.660553 807.86279 815.00104 4282795367
0 749.1897 816.54248 4285425790
-1.8018348 751.25598 818.28473 4281544253
-1.7963303 755.58435 818.01025 4278196811
0 754.21106 816.85229 4278717232
-3.5816514 759.90015 817.72504 4279308329
-1.787156 762.77026 817.52911 4279834168
0 762.77026 817.52911 4279834171
-1.7816514 767.06494 817.2262 4279572026
0 767.06494 817.2262 4279703612
-3.5633028 768.42706 818.37463 4279637819
-1.7761468 770.66809 816.34009 4279769405
0 770.66809 816.34009 4279966782
-3.5522935 773.38385 818.63 4279572026
-1.772477 773.51715 816.12634 4279703612
0 773.51715 816.12634 4280096573
-1.7669724 779.13116 816.93585 4279834428
0 779.13116 816.93585 4279965758
-1.7669724 781.15747 818.64441 4280228160
0 781.15747 818.64441 4279966782
1.174312 784.27521 817.34912 4279769151
-1.7614679 786.0708 818.86304 4280359993
0.87798166 787.17657 817.83337 4279835452
0.87614679 790.3606 817.24805 4280032825
1.7522936 793.10583 818.2547 4279507519
4.3669724 796.64233 817.3125 4278914095
7.8440366 798.77325 816.49316 4278585899
10.458715 799.43958 817.05499 4278782495
12.782875 799.66168 817.24225 4278979617
13.073395 801.43854 818.74048 4279242018
16.559633 801.43854 818.74048 4279505189
20.012844 802.53174 817.70013 4279833645
22.588991 803.62488 816.65979 4280161846
26.06422 803.62488 816.65979 4280098368
28.670643 803.62488 816.65979 4280756298
29.53945 804.95331 817.77991 4281217355
31.277063 806.28174 818.90002 4281478478
38.227524 806.28174 818.90002 4282926174
40.833946 806.28174 818.90002 4282334297
32.910091 808.45966 816.81226 4282004822
34.6422 809.78381 817.92883 4283255387
36.374313 809.78381 817.92883 4283386973
-3.6146789 749.67847 820.87866 4283649632
-4.5045872 754.01099 820.60773 4278457915
-4.485321 760.82898 820.47034 4279572029
-7.1633029 764.69196 821.7655 4279572026
-4.4733944 764.07129 819.93408 4279572026
-7.1486239 767.55231 821.56116 4279835453
-5.3614678 766.86914 820.98517 4279703611
-3.5633028 769.78912 819.52319 4279703612
-5.344954 771.83228 821.24585 4279506233
-3.5522935 775.42065 820.34735 4279768635
-3.5449541 778.93744 820.69666 4280096573
-3.5449541 780.29254 821.83923 4279835702
-1.7669724 782.5083 819.78345 4279835702
-3.5229359 788.7641 821.13403 4280098372
-1.7614679 787.41742 819.99854 4280491579
-1.7559633 790.96729 819.06763 4280098372
0 790.96729 819.06763 4279508798
-1.7559633 792.98096 820.76544 4279898433
0 792.98096 820.76544 4279505980
1.7522936 795.78516 820.51385 4278914097
4.3669724 799.31323 819.56445 4278848539
7.8605504 799.31323 819.56445 4279176225
10.480734 799.98096 820.12756 4279176225
5.2403669 801.31641 821.25354 4279176225
7.8605504 801.31641 821.25354 4279242019
10.480734 801.31641 821.25354 4279307812
13.086239 802.04382 820.55884 4279569193
16.577982 802.04382 820.55884 4279766319
20.088074 801.31641 821.25354 4280162360
22.660551 802.77118 819.86414 4280425788
25.27523 802.77118 819.86414 4280426049
27.889908 802.77118 819.86414 4280953927
29.633028 804.10382 820.98779 4281610315
33.014679 808.27429 820.5802 4282597218
34.6422 811.10803 819.04541 4282398034
-5.4220185 751.06018 822.0437 4281021255
-7.2293577 753.82361 824.37378 4278782262
-9.0091743 758.14355 824.09222 4278784303
-7.2073393 758.14355 824.09222 4279505980
-5.4055047 756.07733 822.34998 4279374400
-10.777982 763.82422 824.95789 4279703360
-8.9816513 762.45093 823.79993 4279701816
-8.9541283 766.74561 823.49701 4279768898
-7.1486239 769.60175 823.28918 4279637819
-7.1266055 773.87537 822.96851 4279769405
-5.344954 773.87537 822.96851 4279703612
-7.1266055 775.23749 824.11707 4279966782
-5.3284402 778.13647 822.63721 4279835449
-4.436697 780.9104 823.66815 4280359993
-4.4256878 784.10638 823.09283 4280229428
-5.3009176 787.23633 823.76996 4280229686
-3.5229359 790.78406 822.83722 4280227397
-3.5229359 792.80408 824.54041 4279964474
-1.7559633 794.99463 822.46338 4279766838
0 794.99463 822.46338 4279045428
-3.5119267 796.33704 823.59521 4279375153
-1.7559633 797.0083 824.16119 4279374378
1.1694189 797.27032 823.51019 4278979881
4.380734 799.80408 823.90247 4279307811
7.8853211 800.47394 824.46729 4279570983
10.513762 800.47394 824.46729 4280029735
13.100918 802.65186 822.37952 4279766565
16.594496 803.31958 822.9425 4280424243
20.088074 803.31958 822.9425 4280556350
22.708258 802.65186 822.37952 4280753474
25.328442 802.65186 822.37952 4281017671
28.530886 803.54218 823.13019 4281216586
28.822018 805.32269 824.63159 4282203481
31.409174 805.37952 823.37146 4282465631
-9.9706421 752.26294 826.98199 4278389819
-7.2513762 750.18402 825.22913 4280166464
-12.651376 757.96881 827.8689 4279899690
-10.844037 756.5871 826.70386 4278979885
-12.612844 761.5874 826.99597 4279703862
-10.811009 760.20984 825.83447 4279701816
-12.574312 766.57086 827.2738 4279966784
-10.777982 765.88416 826.69482 4279834692
-10.744954 770.16833 826.38306 4279966782
-8.9541283 768.79926 825.22864 4279835203
-10.744954 771.53748 827.53735 4279835453
-8.9357796 772.33435 825.59326 4279835452
-8.0311928 775.4917 826.2934 4280031802
-8.314373 778.41571 826.79681 4280163389
-7.6966362 782.43634 826.26276 4279901492
-7.9926605 784.24689 827.78943 4279834929
-7.0899081 787.06787 827.552 4280228664
-5.3009176 789.93811 826.04797 4280228663
-5.2844038 794.1507 825.6759 4279703612
-3.5229359 796.17065 827.37909 4279702060
-1.7614679 796.84399 827.94678 4279569968
0.88073397 796.17065 827.37909 4279504934
4.3899083 799.69318 826.42505 4279701035
8.7798166 800.36438 826.99097 4279898677
7.0091743 801.81354 825.5968 4279701297
10.513762 801.81354 825.5968 4280161322
13.142202 801.81354 825.5968 4280292651
16.64679 803.1532 826.72632 4280752959
22.779816 801.81354 825.5968 4280622920
25.700304 802.26007 825.97333 4281479758
26.284403 804.49286 827.85596 4283320930
28.866055 805.5755 826.80676 4283124582
-10.910091 749.31628 828.42151 4279968097
-12.72844 750.70642 829.59375 4280558680
-13.596331 755.03479 829.31915 4279899455
-14.458715 759.35059 829.03394 4279703862
-13.814067 763.42407 828.54449 4279637819
-16.216515 765.71997 830.48035 4279441708
-13.494495 766.83203 829.45599 4279901239
-13.472477 770.00415 830.16858 4279900987
-10.744954 772.90656 828.69177 4280228414
-12.53578 774.27563 829.84619 4280164667
-10.722936 775.75006 828.47327 4280294720
-10.722936 777.11639 829.62537 4280098368
-10.689908 781.36688 829.28516 4279835447
-8.8807335 785.60474 828.93433 4279835702
-7.985321 787.69281 829.3869 4280229434
-7.0899081 790.45557 830.40845 4279638580
-5.3009176 793.99072 829.46503 4279309868
0 794.66614 830.03455 4279504934
-1.7614679 798.19067 829.08228 4279962673
4.4036698 798.86401 829.65002 4280028978
7.9266057 799.53735 830.21777 4280226858
10.53578 801.70685 828.12292 4280425786
13.169725 801.70685 828.12292 4280490554
19.315596 801.70685 828.12292 4280950597
22.242203 802.1543 828.50024 4280951881
24.583487 802.37805 828.6889 4282005072
24.583487 804.39172 830.38672 4283649382
-16.398165 751.99268 833.29431 4279770157
-14.576147 750.59973 832.11975 4280688735
-16.315596 757.80664 831.65631 4279441469
-18.977064 764.18658 833.11157 4279440948
-16.266054 762.11401 831.36401 4279572278
-18.018349 767.09747 831.64185 4279572276
-16.216515 767.09747 831.64185 4279703862
-18.018349 769.1637 833.38409 4279573559
-16.216515 768.47498 832.80334 4279835704
-16.765749 772.97968 832.67749 4279704630
-14.370643 772.75073 832.4845 4279901490
-12.53578 775.64478 831.00061 4280099120
-12.522936 778.4314 832.04218 4279966514
-12.510092 781.21527 833.08142 4280228410
-10.689908 784.09106 831.58215 4280032825
-12.47156 786.13416 833.30481 4280098874
-10.65688 788.3205 831.22412 4279575097
-8.8807335 788.3205 831.22412 4279509048
-10.65688 790.3573 832.94159 4279770920
-8.8807335 790.3573 832.94159 4279507491
-7.0899081 792.48816 832.12219 4279375153
-3.5339448 796.01697 831.17358 4279896880
0.88348621 796.01697 831.17358 4279896880
3.5339448 797.36786 832.3125 4280160820
7.951376 798.71869 833.45154 4280555578
10.568808 800.88397 831.35327 4280819517
13.21101 800.88397 831.35327 4280753727
16.733946 800.88397 831.35327 4280950344
19.376146 800.88397 831.35327 4281673300
21.137615 800.88397 831.35327 4281017675
17.027525 803.12842 833.24561 4282662996
19.376146 802.90399 833.0564 4282531407
21.724771 802.6795 832.86719 4282860390
-21.930275 751.1488 836.50684 4280426831
-20.102753 751.1488 836.50684 4279703364
-18.220184 754.08209 835.05603 4279441469
-21.86422 756.17151 836.81775 4279507023
-19.112844 756.91431 836.13605 4279177790
-19.941284 761.27155 834.57776 4279571776
-21.754128 763.35046 836.33069 4279637569
-19.880733 766.95007 835.44165 4279769152
-19.820183 771.22998 835.12634 4280097325
-17.065138 775.49731 834.80035 4279835450
-14.370643 775.49731 834.80035 4279966513
-17.065138 777.55731 836.53723 4279966782
-14.326606 779.75208 834.46375 4280228410
-17.012844 781.12115 835.61816 4279769406
-13.418348 781.85132 834.92578 4280033081
-16.977982 784.63098 835.96149 4280032575
-14.297248 784.63098 835.96149 4280098869
-13.065442 788.4043 835.21899 4279901741
-12.47156 790.22046 836.75024 4279375655
-10.689908 790.22046 836.75024 4279047706
-7.6966362 792.84686 835.04053 4279308328
-4.7363911 793.2995 835.42218 4279766833
-3.5522935 795.10992 836.94885 4280160820
-1.7743119 795.15417 835.6781 4280357942
1.1828746 795.16888 835.25458 4280293162
4.4348621 795.83167 836.24939 4280622384
8.8623857 797.90851 836.6925 4281082935
10.601835 800.06958 834.59058 4282200652
13.252294 800.06958 834.59058 4282003274
15.902752 800.06958 834.59058 4282463825
13.252294 801.42041 835.72961 4282070863
15.853211 804.92395 834.75964 4283585885
-25.662386 750.31335 839.72644 4279176225
-22.879816 751.42969 838.70563 4281609820
-20.102753 752.54596 837.68481 4280161626
-23.757797 753.94312 838.86292 4279639086
-22.77523 758.26093 838.57953 4279572027
-23.638533 761.82758 838.9707 4279572026
-22.96269 765.8913 838.47314 4280031798
-21.688074 769.7135 837.77173 4280097581
-19.880733 770.40436 838.35425 4280229166
-21.688074 771.78607 839.51929 4280162616
-19.820183 773.98505 837.44934 4280228410
-19.820183 776.05133 839.19159 4280163374
-19.759632 780.30396 838.85315 4279967534
-19.699083 785.22845 839.0813 4280098874
-16.977982 787.36365 838.26556 4279967288
-14.297248 788.04675 838.84155 4279770157
-16.977982 789.41302 839.99353 4280096823
-13.384403 790.4978 838.94617 4279244583
-10.689908 791.58252 837.8988 4279047456
-8.9082565 791.58252 837.8988 4279047456
-12.47156 792.94464 839.04724 4279374900
-10.689908 792.94464 839.04724 4279702567
-8.0174313 792.94464 839.04724 4279636527
-5.344954 792.94464 839.04724 4279636022
0 792.94464 839.04724 4280556843
-1.7761468 797.14673 838.6662 4280557123
7.9926605 797.14673 838.6662 4281215288
10.65688 797.82568 839.23865 4281741898
-27.577982 749.48627 842.95312 4278517787
-25.662386 751.71472 840.90808 4278981157
-23.829357 753.11609 842.0896 4279309620
-25.508257 761.74335 841.51575 4280031030
-27.330275 763.13629 842.69031 4279703360
-25.456881 764.60791 841.31506 4280163372
-25.456881 765.99805 842.48718 4280228410
-23.566973 769.58716 841.58936 4280228410
-21.688074 773.16779 840.68433 4280163372
-21.688074 774.54956 841.84937 4279899690
-27.027523 779.49512 842.09521 4280162616
-25.225689 779.49512 842.09521 4279967032
-22.823242 778.57684 841.32086 4279901492
-21.555964 781.67725 840.01111 4279967032
-19.759632 781.67725 840.01111 4280098874
-21.555964 783.73718 841.74805 4279967032
-19.699083 787.2821 840.81293 4280229434
-19.699083 789.33575 842.54443 4280096823
-17.012844 789.33575 842.54443 4279964724
-14.297248 790.7793 841.14563 4279309106
-13.403669 792.14563 842.29761 4279963938
-10.689908 794.3067 840.19568 4279768361
-8.0174313 794.3067 840.19568 4279833649
-4.4541283 794.3067 840.19568 4280030524
0.89082569 794.3067 840.19568 4280688958
4.4541283 794.3067 840.19568 4281082935
-8.0174313 795.66882 841.34424 4280031281
-4.1571865 796.12286 841.72705 4280359739
-1.7816514 797.03088 842.49268 4280753724
0.89082569 795.66882 841.34424 4281280068
4.4541283 795.66882 841.34424 4282136633
7.1266055 795.66882 841.34424 4281742400
8.8807335 799.18353 840.38354 4282927710
10.65688 799.86249 840.95605 4283321698
12.433027 800.54144 841.52856 4283518564
-27.577982 751.5946 844.7309 4278915620
-25.73945 750.89185 844.13831 4278914862
-25.662386 755.21808 843.862 4279243315
-27.495413 757.32013 845.6344 4279572026
-27.330275 764.52924 843.86475 4280096573
-27.330275 765.92218 845.03931 4279769655
-25.456881 767.38818 843.6593 4280162616
-25.456881 768.77832 844.83142 4280096823
-23.566973 772.35901 843.92651 4279703862
-27.027523 781.5614 843.83746 4279966779
-25.225689 781.5614 843.83746 4280032577
-23.423853 781.5614 843.83746 4280032321
-27.027523 783.62769 845.57971 4279769659
-25.225689 783.62769 845.57971 4280098368
-22.454128 785.79718 843.48486 4280229180
-21.555964 787.85718 845.2218 4280096567
-19.759632 788.54382 845.80078 4279898931
-17.012844 790.7049 843.69885 4279898931
-17.012844 792.07397 844.85327 4280095027
-13.403669 793.5119 843.44971 4280161567
-10.722936 794.19507 844.0257 4280097324
-8.042202 794.87823 844.60168 4280163122
-5.3614678 794.87823 844.60168 4280425786
0.89357799 794.87823 844.60168 4281477447
4.4678898 794.87823 844.60168 4282270543
7.1486239 794.87823 844.60168 4282795867
-4.4678898 796.24451 845.75366 4280754492
0.89357799 796.24451 845.75366 4281740115
5.3614678 796.24451 845.75366 4283124053
8.042202 796.24451 845.75366 4283190625
-1.7816514 799.07397 844.21539 4281082438
-34.114677 750.07739 847.37573 4278387218
-31.348623 750.07739 847.37573 4278978842
-29.504587 750.78229 847.97009 4279112234
-28.497248 754.40576 847.10114 4279309109
-29.416513 756.51416 848.87891 4279966532
-29.32844 760.12286 847.99756 4280030780
-29.240368 763.72321 847.10925 4279638069
-31.06789 765.12036 848.28723 4280031532
-28.28532 766.21777 847.25049 4280030517
-28.526606 769.65918 847.31818 4279966006
-25.456881 770.16846 846.00354 4279769655
-28.184402 772.25366 847.76172 4279966263
-25.456881 771.55859 847.17566 4279967032
-30.818348 777.90271 848.60083 4280228410
-28.917429 781.45819 847.67456 4279835453
-27.027523 785.00519 846.74121 4279703866
-25.225689 785.00519 846.74121 4280032825
-23.423853 785.00519 846.74121 4280032825
-25.225689 786.38269 847.90271 4279769405
-23.423853 786.38269 847.90271 4279703612
-21.555964 789.91711 846.95874 4279638069
-19.759632 790.60376 847.53772 4279637042
-17.065138 791.29041 848.1167 4280424237
-13.431192 793.44312 846.00769 4280294177
-7.1633029 794.81219 847.16211 4280557874
3.5816514 794.81219 847.16211 4282729295
-7.1633029 796.18127 848.31641 4281016640
-4.4678898 797.61084 846.90576 4281016642
0.89357799 797.61084 846.90576 4282528336
4.4770641 796.18127 848.31641 4283056726
7.1486239 797.61084 846.90576 4282730076
-3.574312 798.97711 848.05774 4281018707
-1.787156 798.97711 848.05774 4281479258
1.787156 798.97711 848.05774 4282729576
-34.166973 751.7912 850.78284 4279768613
-31.348623 752.89697 849.75317 4279770663
-33.192661 754.30676 850.94177 4280229162
-31.348623 754.30676 850.94177 4280229162
-33.093578 757.91974 850.06396 4279639084
-31.255045 757.91974 850.06396 4279639084
-33.093578 759.32532 851.24915 4280031532
-31.255045 759.32532 851.24915 4280097325
-34.827522 764.32697 851.54236 4279638069
-32.994495 763.62628 850.9516 4280031281
-31.06789 767.21606 850.05432 4280162866
-34.722935 769.31183 851.82141 4279572026
-32.895412 769.31183 851.82141 4280097325
-36.440369 772.8869 850.91174 4280162616
-30.974312 772.19043 850.32446 4280162868
-34.548622 774.33887 849.5199 4280162616
-32.730274 775.03394 850.10602 4280162616
-29.093578 774.33887 849.5199 4279967032
-34.548622 777.11914 851.86426 4279966782
-31.774311 778.20392 850.81683 4279967032
-30.818348 780.67462 850.93799 4279835199
-28.013762 784.91248 850.58716 4279966779
-25.225689 787.76025 849.06421 4279835702
-23.423853 787.76025 849.06421 4279638323
-21.622019 789.82654 850.80646 4279965228
-18.919266 790.51526 851.38721 4280096805
-16.216515 790.51526 851.38721 4280490536
-12.612844 790.51526 851.38721 4280491299
-14.370643 792.6637 849.27466 4280491299
-10.777982 792.6637 849.27466 4280360495
-8.9816513 793.35034 849.85358 4280492081
-7.1853213 795.41034 851.59045 4280887882
-5.3889909 795.41034 851.59045 4280887882
5.3724771 797.55042 849.47083 4282205275
-36.990826 752.09937 853.00464 4279637026
-35.141285 752.09937 853.00464 4279768613
-36.990826 753.51337 854.1969 4279376419
-35.036697 755.71655 852.13049 4279442212
-35.036697 757.12634 853.31921 4279768361
-36.770641 760.73083 852.43433 4279898931
-34.93211 760.73083 852.43433 4280030517
-34.827522 765.72833 852.724 4279703862
-32.994495 765.72833 852.724 4280163372
-38.377983 770.70898 852.99951 4279704364
-38.377983 772.10614 854.17749 4280031530
-36.440369 774.97632 852.67346 4280097596
-34.618347 774.27985 852.08618 4280228410
-36.440369 777.06573 854.43518 4279966532
-34.548622 779.20435 853.62244 4280032322
-32.730274 779.20435 853.62244 4279835197
-30.818348 782.06055 852.10657 4279966782
-30.818348 783.44647 853.27515 4279966782
-29.005505 784.8324 854.44373 4279769655
-27.110092 786.98511 852.33472 4279638069
-25.302752 786.98511 852.33472 4279572276
-23.495413 787.67596 852.91724 4279638069
-18.977064 789.74854 854.66479 4279965992
-16.216515 791.89276 852.54858 4280097325
-13.53578 790.82068 853.60669 4280294702
-10.811009 791.89276 852.54858 4280492081
-40.811008 752.01929 856.86121 4279638303
-38.955963 752.01929 856.86121 4279572767
-36.990826 754.92737 855.38916 4279768361
-42.412846 759.94592 855.69653 4280160551
-40.568806 759.94592 855.69653 4279965739
-37.802753 760.65076 856.29089 4279572016
-37.689907 764.94757 855.98975 4279572023
-40.447708 766.35315 857.17493 4279770157
-38.377983 773.5033 855.35559 4280097323
-38.377983 775.599 857.12262 4279573559
-37.04771 779.38739 856.39276 4279836471
-37.351379 781.24463 857.95874 4279771191
-34.548622 781.98468 855.96667 4279509051
-32.124157 782.21637 856.16205 4279835452
-34.548622 784.06989 857.72485 4280032575
-31.8211 784.06989 857.72485 4279835702
-28.099083 786.21832 855.6123 4279638571
-25.379816 786.21832 855.6123 4279375153
-22.660549 787.60425 856.78088 4279703847
-19.034863 788.99023 857.94946 4280162865
-14.502752 788.99023 857.94946 4280754226
-16.266054 791.13025 855.82983 4279965237
-12.651376 791.13025 855.82983 4280951349
-9.9403667 791.13025 855.82983 4280952632
-40.811008 754.14661 858.65491 4280161572
-38.955963 754.14661 858.65491 4280095779
-44.388992 760.58331 860.15808 4279965739
-42.412846 763.47034 858.66833 4280031532
-40.568806 762.76544 858.07397 4279572276
-43.334862 765.58502 860.45129 4280163368
-40.447708 767.75873 858.35999 4280163372
-40.447708 769.86707 860.13776 4279900721
-40.326607 774.83722 860.40436 4279639346
