# .PCD v0.7 - Point Cloud Data file format
VERSION 0.7
FIELDS x y z rgb
SIZE 4 4 4 4
TYPE F F F U
COUNT 1 1 1 1
WIDTH 1164
HEIGHT 1
VIEWPOINT 0 0 0 1 0 0 0
POINTS 1164
DATA ascii
80.232414 799.95947 800.48895 4287532989
71.977982 803.92773 799.91077 4280695940
73.691742 803.27264 799.3584 4281090946
73.533943 808.01965 800.745 4281748099
-33.851376 750.71991 803.44446 4293311999
-28.506422 750.71991 803.44446 4291545343
-25.833946 750.71991 803.44446 4279571270
-22.270641 750.71991 803.44446 4278190110
-16.925688 750.71991 803.44446 4290561019
-31.378593 755.27881 803.36426 4287533016
-26.642202 755.73145 803.74585 4278915988
-19.537615 755.73145 803.74585 4284046727
-16.873394 755.73145 803.74585 4284514017
-14.209174 755.73145 803.74585 4287599103
-31.018349 758.61133 803.55823 4280036227
-28.359632 758.61133 803.55823 4280432771
-24.814678 757.93384 802.98694 4278190628
-22.155964 757.25629 802.41565 4278190107
-19.497248 758.61133 803.55823 4280561751
-16.838531 758.61133 803.55823 4283391856
-13.293577 758.61133 803.55823 4282929838
103.3945 758.15967 803.17743 4292536575
106.34863 758.61133 803.55823 4292602111
-22.087156 760.89447 801.5592 4278190114
-1.7669724 760.89447 801.5592 4278191433
0.88348621 760.89447 801.5592 4278190135
4.4174314 760.89447 801.5592 4278190646
38.873394 760.89447 801.5592 4278190157
40.640366 760.89447 801.5592 4278191190
42.407341 760.89447 801.5592 4278190161
98.950462 760.89447 801.5592 4292734463
100.71743 760.89447 801.5592 4292734463
-33.572475 763.59619 803.83716 4278193474
-31.805504 763.59619 803.83716 4278192704
-19.436697 762.24536 802.69812 4278194229
-16.78624 762.24536 802.69812 4278191437
-13.252294 762.24536 802.69812 4278190185
-7.0678897 763.59619 803.83716 4278190131
-4.4174314 762.92078 803.2677 4278190420
-1.7669724 763.59619 803.83716 4278586946
0 762.92078 803.26764 4278322496
40.640366 762.24536 802.69812 4279248470
42.407341 762.24536 802.69812 4279445344
46.824768 762.24536 802.69812 4279113542
49.475231 762.92078 803.26764 4278197590
51.831192 763.14594 803.45752 4281355135
100.71743 762.24536 802.69812 4292800511
104.25137 763.59619 803.83716 4292931327
106.01835 763.59619 803.83716 4293127423
-40.51376 765.87091 801.83105 4278456139
-34.348625 767.21759 802.96655 4278460749
-31.706423 767.21759 802.96655 4279115337
-29.06422 765.87091 801.83105 4278192443
-25.541285 765.87091 801.83105 4278457662
-22.018349 765.87091 801.83105 4278260537
-19.376146 765.87091 801.83105 4278194489
-16.733946 765.87091 801.83105 4278192179
-12.917432 766.31982 802.20953 4278454587
-10.568808 767.21759 802.96655 4279049541
-7.0458717 767.21759 802.96655 4278522949
-4.4036698 767.21759 802.96655 4278851142
-1.7614679 767.21759 802.96655 4279244869
0.88073397 766.54425 802.3988 4278718276
40.51376 765.87091 801.83105 4280034392
43.155964 765.87091 801.83105 4280034390
46.678898 765.87091 801.83105 4278784577
-70.238533 770.83051 802.08887 4278983748
-68.482567 770.83051 802.08887 4279839057
-63.21468 770.83051 802.08887 4280692567
-61.458717 770.83051 802.08887 4280890203
-58.824768 770.83051 802.08887 4280824155
-55.312843 770.83051 802.08887 4280626776
-52.678898 770.83051 802.08887 4280495191
-50.922935 770.83051 802.08887 4280626776
-36.875229 770.83051 802.08887 4279704670
-31.60734 770.83051 802.08887 4279377995
-28.095413 770.83051 802.08887 4278983748
-25.461468 770.83051 802.08887 4278786880
-12.291743 770.83051 802.08887 4278917957
-10.53578 770.83051 802.08887 4278983496
1.7559633 770.83051 802.08887 4278588740
-70.091743 773.68103 801.87622 4278190123
-68.339447 773.68103 801.87622 4278190641
-63.082569 773.68103 801.87622 4278190124
-61.330276 773.68103 801.87622 4278192440
-58.701836 773.68103 801.87622 4278191679
-55.254128 772.927 802.54846 4278652485
-52.678898 772.17297 803.2207 4279178315
-49.940369 773.68103 801.87622 4279310672
-46.43578 773.68103 801.87622 4278981707
-42.93119 773.68103 801.87622 4279046984
-40.302753 773.68103 801.87622 4279244617
-37.712845 772.927 802.54846 4278851658
-34.241287 772.17297 803.2207 4278786119
-31.60734 772.17297 803.2207 4278326084
-28.912844 773.68103 801.87622 4278193985
-25.408257 773.68103 801.87622 4278194495
-22.779816 773.68103 801.87622 4278193717
-10.513762 773.68103 801.87622 4280560968
-7.8926606 772.927 802.54846 4280365645
-4.3899083 772.17297 803.2207 4279907668
-1.7559633 772.17297 803.2207 4279908184
1.7559633 772.17297 803.2207 4280235602
4.380734 773.68103 801.87622 4280759376
7.0091743 773.68103 801.87622 4281349968
84.110092 773.68103 801.87622 4281683328
-70.091743 775.02069 803.00574 4278190639
-58.701836 775.02069 803.00574 4278191664
-56.073395 775.02069 803.00574 4278192191
-49.940369 775.02069 803.00574 4278522699
-46.43578 775.02069 803.00574 4278391112
-42.93119 775.02069 803.00574 4278456130
-40.302753 775.02069 803.00574 4278915906
-38.550457 775.02069 803.00574 4278654006
-31.541285 775.02069 803.00574 4278194500
-28.912844 775.02069 803.00574 4278258238
-25.408257 775.02069 803.00574 4278191412
-7.8853211 775.02069 803.00574 4282007379
-4.380734 775.02069 803.00574 4282336093
4.380734 775.02069 803.00574 4283190625
7.0091743 775.02069 803.00574 4283849312
-66.377983 779.28174 802.67444 4280299604
-64.631195 778.61401 802.11145 4279446602
-61.719879 779.05914 802.48682 4279380564
-58.517429 779.28174 802.67444 4279511370
-55.897247 779.94946 803.23743 4280101452
-31.442202 779.94946 803.23743 4279771204
-28.822018 779.28174 802.67444 4279310917
-25.328442 779.28174 802.67444 4279308864
-22.708258 778.61401 802.11145 4280359493
-12.227523 778.61401 802.11145 4283781974
-7.5694184 779.05914 802.48682 4284110701
-5.2403669 779.94946 803.23743 4283519340
7.8605504 779.94946 803.23743 4284572530
10.480734 779.28174 802.67444 4285230719
13.100918 779.28174 802.67444 4285361535
16.594496 779.28174 802.67444 4285689475
20.088074 779.28174 802.67444 4285821323
22.708258 779.28174 802.67444 4285887375
25.328442 779.28174 802.67444 4285493905
27.948624 778.61401 802.11145 4286349721
100.44036 779.28174 802.67444 4293326591
103.64281 779.50433 802.86212 4293326847
108.30092 779.94946 803.23743 4293656063
-31.376146 782.78174 803.00952 4279968076
-28.761467 782.78174 803.00952 4279902029
-25.27523 782.78174 803.00952 4280033613
-22.660551 782.11542 802.44769 4280493135
-20.045872 782.11548 802.44763 4280690779
-16.559633 782.11548 802.44763 4280757589
-13.073395 782.11542 802.44769 4281152840
-10.458715 782.11542 802.44769 4281153106
-8.1345568 782.33759 802.63495 4280824401
-5.2293577 782.78174 803.00952 4279903819
22.660551 782.78174 803.00952 4278190133
25.27523 782.78174 803.00952 4278190130
28.761467 782.11548 802.44763 4281085530
31.376146 782.11542 802.44769 4280953930
33.990826 782.11542 802.44769 4280822343
41.834862 781.4491 801.88586 4282994025
43.57798 781.4491 801.88586 4282928232
46.192661 781.4491 801.88586 4280630347
49.678898 781.4491 801.88586 4280894589
52.293579 781.4491 801.88586 4281813631
95.871559 781.4491 801.88586 4292799999
97.614677 782.11542 802.44769 4292865535
104.58716 782.78174 803.00952 4293327103
106.33028 782.11542 802.44769 4293656063
109.81651 782.11542 802.44769 4293984255
112.43119 782.11542 802.44769 4294508543
115.04587 782.78174 803.00952 4294967295
29.53945 787.68384 803.21875 4280101198
31.277063 787.68384 803.21875 4279709273
33.883484 787.01965 802.65869 4278851142
37.069118 786.79828 802.47198 4278652983
40.833946 786.35541 802.09863 4278190104
43.440369 786.35541 802.09863 4278190097
46.046791 786.35541 802.09863 4279506733
97.306419 786.35541 802.09863 4293062399
99.044037 787.68384 803.21875 4293128447
32.910091 791.24487 802.29724 4279774297
34.6422 791.24487 802.29724 4280101452
37.529053 790.80347 801.92511 4280627031
40.704586 790.58276 801.73901 4280561752
43.302753 790.58276 801.73901 4280234069
45.900917 789.92065 801.18079 4279973962
48.499084 789.92065 801.18079 4280366689
91.801834 790.58276 801.73901 4292866303
94.399994 790.58276 801.73901 4292931327
96.998169 790.58276 801.73901 4292996863
29.445871 792.56909 803.41382 4280296528
32.044037 792.56909 803.41382 4280099926
34.6422 792.56909 803.41382 4280101200
37.200001 793.31189 802.73206 4280100692
40.618347 794.05469 802.05029 4280036187
44.07523 794.05469 802.05029 4279577431
46.667889 794.05469 802.05029 4279445846
49.260551 794.05469 802.05029 4279447897
52.71743 794.05469 802.05029 4280429400
55.310093 794.05469 802.05029 4280427360
57.038532 794.05469 802.05029 4280493409
69.137611 794.05469 802.05029 4280957302
76.915596 794.05469 802.05029 4286544564
79.508255 794.05469 802.05029 4280960884
85.5578 794.05469 802.05029 4292794859
89.014679 794.05469 802.05029 4293718783
91.607338 794.05469 802.05029 4292932095
94.300919 793.31189 802.73206 4292603647
97.864227 792.56909 803.41382 4292931327
29.383486 795.3761 803.16455 4279969610
32.840366 795.3761 803.16455 4280165971
34.568806 795.3761 803.16455 4280165971
37.161469 795.3761 803.16455 4280165972
40.618347 795.3761 803.16455 4280297559
44.07523 795.3761 803.16455 4279904598
46.667889 795.3761 803.16455 4279577686
49.260551 795.3761 803.16455 4279577688
52.71743 795.3761 803.16455 4280231766
55.995415 797.60034 801.11584 4280231269
58.579815 797.60034 801.11584 4280428898
61.164223 797.60034 801.11584 4279968094
64.610092 797.60034 801.11584 4279114336
68.055969 797.60034 801.11584 4278590824
70.640366 797.60034 801.11584 4280236423
76.670639 797.60034 801.11584 4284707228
79.255043 797.60034 801.11584 4281814635
82.70092 797.60034 801.11584 4291875288
85.422935 796.48822 802.1402 4294375679
89.014679 795.3761 803.16455 4293587711
91.607338 795.3761 803.16455 4293325567
94.199997 795.3761 803.16455 4293325823
44.796329 800.23474 803.33704 4280231766
46.519264 800.23474 803.33704 4280165973
49.103668 799.57617 802.78174 4279577183
52.549541 799.57617 802.78174 4280297559
55.995415 798.91754 802.22644 4279512157
65.471558 799.57617 802.78174 4280694384
67.768806 799.35663 802.59668 4280760437
82.70092 798.91754 802.22644 4294639615
84.423851 799.57617 802.78174 4294508287
93.038528 800.23474 803.33704 4293128447
97.345871 800.23474 803.33704 4293259775
99.930275 800.23474 803.33704 4293260031
55.876144 802.36914 802.52069 4279643481
58.455048 801.71198 801.96655 4280103006
61.320484 802.15009 802.33594 4279905633
64.472473 802.36914 802.52069 4280235117
68.197556 802.5882 802.70538 4280564087
70.489906 801.71198 801.96655 4280629373
76.507339 802.36914 802.52063 4280500861
79.945869 802.36914 802.52063 4283525834
82.524773 802.36914 802.52069 4290628351
58.839142 805.67462 801.38379 4279905382
63.409176 805.23792 801.0155 4280168549
71.121101 805.89301 801.56787 4280827514
73.691742 805.23792 801.0155 4281289093
58.267891 807.85828 803.22485 4279971427
63.409176 807.85828 803.22485 4280563811
71.121101 807.85828 803.22485 4280828282
73.691742 807.85828 803.22485 4281420933
75.405502 807.85828 803.22485 4281487232
80.546791 807.85828 803.22485 4278987634
-39.317432 749.79047 806.58484 4278190099
-13.40367 749.1073 806.00885 4292338175
-10.722936 749.1073 806.00885 4292142079
-8.3400612 749.33502 806.20087 4292996607
-4.765749 749.33502 806.20087 4293587199
0.89357799 749.79047 806.58484 4278190389
-33.851376 752.08203 804.5929 4293381375
-28.506422 752.08203 804.5929 4292268799
-25.833946 752.08203 804.5929 4280492363
-22.270641 752.08203 804.5929 4278190107
-19.598166 752.08203 804.5929 4287269821
-16.925688 752.08203 804.5929 4292398847
-1.7816514 752.08203 804.5929 4283584118
-40.087158 754.80615 806.88989 4278190106
-37.41468 754.80615 806.88989 4278190101
-34.742203 754.12512 806.31567 4281480316
-28.506422 753.44409 805.74146 4284706029
-12.47156 753.44409 805.74146 4286809844
-10.689908 753.44409 805.74146 4285564920
-8.0174313 754.80615 806.88989 4281683380
-4.4541283 754.12512 806.31567 4284379604
-1.7816514 753.44409 805.74146 4278193298
-33.746788 757.08929 804.89087 4280103249
-26.642202 757.08929 804.89087 4278190925
-10.65688 757.08929 804.89087 4281815217
-7.9926605 758.44714 806.03577 4278190186
-33.677063 759.96643 804.70068 4278192966
-31.018349 759.96643 804.70068 4278191189
-28.359632 759.96643 804.70068 4278387555
-10.634862 760.64392 805.27197 4278190157
-8.8623857 761.32147 805.84326 4278190125
103.68991 759.96643 804.70068 4292668159
106.34863 759.96643 804.70068 4292667391
-37.106422 764.94708 804.9762 4278460495
-8.8348627 764.94708 804.9762 4278720833
49.475231 764.94708 804.9762 4279709273
52.125687 764.94708 804.9762 4282867603
-34.348625 768.56421 804.10205 4279246157
-7.9266057 768.56421 804.10205 4278787408
-4.4036698 768.56421 804.10205 4278326090
-1.7614679 768.56421 804.10205 4278720077
0 769.23755 804.66974 4279445068
-54.434864 773.51544 804.35266 4278192962
-52.678898 773.51544 804.35266 4278522699
-36.875229 773.51544 804.35266 4278785592
-34.241287 773.51544 804.35266 4278915906
-1.7559633 773.51544 804.35266 4282663779
0.87798166 773.51544 804.35266 4283124832
-70.165138 776.28033 805.37585 4279971155
-68.411011 776.28033 805.37585 4280168534
-55.19725 776.36035 804.13525 4279117901
-52.678898 774.85785 805.48462 4279705942
-49.940369 776.36035 804.13525 4279245393
-46.43578 776.36035 804.13525 4279443281
-42.93119 776.36035 804.13525 4279246152
-40.302753 776.36035 804.13525 4278983748
-37.674309 776.36035 804.13525 4279376961
-34.241287 774.85785 805.48462 4279442502
-31.541285 776.36035 804.13525 4279443788
-4.380734 776.36035 804.13525 4284768118
-1.7522936 776.36035 804.13525 4285031033
0.87798166 775.52905 806.05054 4284702574
4.380734 776.36035 804.13525 4285623424
7.8853211 776.36035 804.13525 4285756804
-66.587158 779.03961 806.39441 4280493907
-63.958714 778.36975 805.82971 4280232536
-54.321102 778.36975 805.82965 4280363600
-52.568806 778.36975 805.82965 4280362590
-49.940369 778.36981 805.82965 4279968598
-46.43578 777.69995 805.26489 4279706192
-43.22324 778.14648 805.64142 4280034128
-40.302753 777.69995 805.26489 4279770954
-37.674309 777.69995 805.26489 4279575621
-34.169724 777.69995 805.26489 4279443784
-3.5045872 777.69995 805.26489 4283453272
-1.7522936 777.69995 805.26489 4283519066
0.87614679 779.03961 806.39441 4279315532
4.380734 778.36981 805.82965 4281352536
-61.137615 781.28485 804.36353 4280165973
-58.517429 781.95258 804.92651 4280035153
-55.897247 781.95258 804.92651 4280362577
-46.289909 781.95258 804.92651 4280165715
-41.049541 781.95258 804.92651 4280034381
-37.555962 781.95258 804.92651 4279772493
-34.062386 781.95258 804.92651 4279903314
-3.493578 781.28485 804.36353 4279969612
-1.746789 781.95258 804.92651 4279969360
4.3669724 782.6203 805.4895 4278589757
7.8605504 781.95258 804.92651 4278391853
10.480734 781.95258 804.92651 4278588478
13.100918 781.95258 804.92651 4278389816
16.594496 781.28485 804.36353 4278192178
20.088074 781.28485 804.36353 4278190642
100.44037 781.28485 804.36353 4292997375
103.06055 781.28485 804.36353 4293261055
108.88318 782.17511 805.1142 4293853183
112.66789 782.6203 805.4895 4294574079
115.28807 782.6203 805.4895 4294114559
-58.517433 783.95575 806.61548 4280100178
-55.023853 783.95575 806.61548 4280165973
-46.289909 783.95575 806.61548 4280165972
-43.669724 783.95575 806.61548 4280034642
-41.049541 783.95575 806.61548 4279903567
-37.555962 783.95575 806.61548 4279772238
-34.025688 784.70142 805.93616 4279771988
-31.376146 784.7807 804.69501 4280099152
-28.761467 784.7807 804.69501 4280033875
-25.27523 784.7807 804.69501 4279771985
-22.660551 784.7807 804.69501 4279903567
-20.045872 784.78064 804.69507 4280296527
-16.559633 784.78064 804.69507 4280099152
-13.073395 784.7807 804.69501 4279902547
-10.458715 784.7807 804.69501 4279901775
-7.8440361 784.78064 804.69507 4280033360
-4.3577981 784.78064 804.69507 4280296532
-1.7431192 785.44702 805.25684 4280296274
0.87339449 783.95575 806.61548 4279771981
4.3669724 783.95575 806.61548 4279641162
7.8605504 783.95575 806.61548 4279509579
10.458715 785.44702 805.25684 4279968076
13.073395 785.44702 805.25684 4280033099
16.559633 784.78064 804.69507 4279308861
20.045872 784.7807 804.69501 4279112508
22.660551 784.7807 804.69501 4279112257
25.27523 784.78064 804.69507 4279046724
28.470947 784.55859 804.50775 4278784058
31.376146 784.11438 804.13318 4278191421
100.51987 784.55859 804.50775 4293063167
103.71561 784.78064 804.69507 4293458687
106.33028 784.7807 804.69501 4293656063
109.06055 784.70142 805.93616 4293721855
112.66789 783.95575 806.61548 4294443007
115.28807 783.95575 806.61548 4293060863
-34.862385 786.7796 806.38049 4279771988
-31.376146 786.7796 806.38049 4279706192
-28.761467 786.7796 806.38049 4279837777
-25.27523 786.7796 806.38049 4279771982
-22.660551 786.7796 806.38049 4279903567
-20.917431 786.7796 806.38049 4280034120
-16.559633 786.7796 806.38049 4280230733
-13.073395 786.7796 806.38049 4280099152
-10.458715 786.7796 806.38049 4280296274
-7.8440366 786.7796 806.38049 4280296274
-4.3577981 786.7796 806.38049 4280164945
-1.7431192 786.7796 806.38049 4280296274
7.8440366 786.7796 806.38049 4280099935
10.458715 786.7796 806.38049 4279969362
13.073395 786.7796 806.38049 4280165712
16.559633 786.7796 806.38049 4280559449
20.045872 786.7796 806.38049 4280296793
22.660551 786.7796 806.38049 4280165971
25.27523 786.7796 806.38049 4280297561
103.7156 786.7796 806.38049 4293393151
106.33028 786.7796 806.38049 4293327103
108.07339 786.7796 806.38049 4293721343
-19.692966 789.89789 805.08563 4280231245
7.8192658 791.66907 806.57898 4280099152
10.425688 791.66907 806.57898 4279706192
12.163302 791.66907 806.57898 4279706192
19.113762 791.66907 806.57898 4279903317
22.588991 791.00488 806.01898 4279903571
25.195412 791.00488 806.01898 4279903061
28.381041 789.45508 804.71222 4280100687
31.277063 789.01227 804.33887 4279905884
100.20245 789.45508 804.71222 4292932095
103.38808 791.00488 806.01898 4293261311
105.9945 791.00488 806.01898 4293064191
27.713762 793.89331 804.5304 4279903817
31.177982 793.89331 804.5304 4280165971
97.864227 793.89331 804.5304 4293062911
100.46239 793.89331 804.5304 4293260543
102.1945 793.89331 804.5304 4293655295
8.6605501 795.87964 806.20514 4279968337
10.39266 795.87964 806.20514 4279837779
12.124771 796.54175 806.76343 4279772240
25.404282 796.10034 806.3913 4280164691
28.270338 796.15228 805.56299 4279903566
31.976147 796.69751 804.27869 4279315282
34.568806 796.69751 804.27869 4280035407
37.161469 796.69751 804.27869 4280100689
40.618347 796.69751 804.27869 4280165971
44.07523 796.69751 804.27869 4280231765
46.667889 796.69751 804.27869 4280165973
86.42202 796.69751 804.27869 4293457151
89.014679 796.69751 804.27869 4293128447
91.607338 796.69751 804.27869 4293194751
94.199997 796.69751 804.27869 4293128959
97.656883 796.69751 804.27869 4293128959
101.11376 796.69751 804.27869 4293128703
103.92661 795.21753 805.64685 4293129471
106.52477 795.87964 806.20514 4293260799
28.807341 798.8999 806.13568 4280296781
31.976147 798.67963 805.94995 4280165714
34.568806 798.67963 805.94995 4279903822
37.161469 798.67963 805.94995 4280034897
40.618347 798.67963 805.94995 4280100180
43.787155 798.8999 806.13568 4279904086
86.42202 798.67963 805.94995 4293786111
89.014679 798.67963 805.94995 4293062655
91.607338 798.67963 805.94995 4293062911
94.488068 798.8999 806.13568 4293194239
101.97798 798.01892 805.39282 4293128447
103.70642 798.67963 805.94995 4293325567
106.01101 798.8999 806.13568 4293260287
46.519264 802.21057 805.00305 4279707989
49.103668 802.21057 805.00305 4279838806
52.262386 801.99103 804.81793 4280231766
84.423851 802.21057 805.00305 4291032831
91.315598 802.86914 805.55835 4292930815
93.899994 802.86914 805.55835 4293194495
97.345871 802.21057 805.00305 4293456639
100.79174 802.21057 805.00305 4293522175
103.37614 802.86914 805.55835 4293523455
46.519264 804.18634 806.66895 4280428116
49.103668 804.18634 806.66895 4280296526
52.894951 805.28796 805.63574 4280100178
55.876144 805.65521 805.29144 4280165976
61.033947 805.65509 805.29132 4279905889
64.90229 805.32654 805.01434 4280366699
67.73909 805.39227 805.0697 4280564081
76.793884 804.77887 804.55255 4281420415
79.659325 804.77887 804.55255 4278923136
82.524773 804.99792 804.73724 4278202820
85.390221 806.09326 805.66083 4289188863
88.636696 805.57794 806.5343 4292868095
91.694191 806.09326 805.66083 4292996863
94.559631 806.31238 805.84552 4292733951
97.138535 806.31238 805.84558 4292997119
100.57706 806.31232 805.84552 4293325823
103.15596 806.31238 805.84552 4293391615
105.96056 804.18634 806.66895 4293523455
58.267891 809.16846 804.32959 4279905884
63.409176 809.16846 804.32959 4280171622
68.550461 809.16846 804.32959 4280891507
71.121101 809.16846 804.32959 4281024634
73.691742 809.16846 804.32959 4281289347
76.262383 809.16846 804.32959 4281552771
79.689911 809.16846 804.32959 4280698507
83.117432 809.16846 804.32959 4282083515
92.543121 809.16846 804.32959 4292931327
71.406731 810.91534 805.80255 4280828793
73.691742 811.13373 805.98669 4281091967
76.262383 811.13367 805.98669 4281487234
79.689911 811.13367 805.98669 4281289618
83.117432 811.13367 805.98669 4280769457
85.688072 811.13373 805.98669 4288527871
88.258713 811.13373 805.98669 4293131007
91.686241 811.13367 805.98669 4293194239
94.828133 811.35205 806.17084 4293128447
40.293579 748.26276 807.91272 4285236970
44.770641 749.63184 809.06714 4278190215
-40.21101 751.15674 807.73682 4278190124
-37.530273 751.15674 807.73682 4278190080
-35.743118 751.15674 807.73682 4280752007
-8.042202 751.15674 807.73682 4286156797
0.89357799 751.15674 807.73682 4278190130
41.104588 751.15674 807.73682 4278190217
42.891743 751.15674 807.73682 4278190217
-39.196331 756.8493 808.61261 4278193978
-37.41468 756.16827 808.03833 4278587957
-35.633026 756.16827 808.03833 4278192452
-37.299084 759.80505 807.18066 4278655051
-35.522934 759.80505 807.18066 4278720331
-70.823853 778.43774 808.50311 4280231761
-68.482567 778.21399 808.31439 4280494420
-66.587158 780.37927 807.52393 4280165973
-63.958714 781.04913 808.08875 4280100436
-61.330276 781.04907 808.08875 4279968850
-54.321102 780.37927 807.52393 4280428116
-52.568806 781.04907 808.08875 4280165461
-49.940369 781.04907 808.08875 4280099924
-43.807339 780.37927 807.52393 4280231766
0.87614679 780.37927 807.52393 4278329164
-58.611008 784.17487 808.76227 4280035407
-55.109177 784.17487 808.76227 4280231264
-52.568806 783.05853 809.78308 4280362069
-49.940369 783.05853 809.78308 4280231253
-46.289909 785.2912 807.74146 4280100689
-43.807339 783.05853 809.78308 4280035405
-41.049541 785.2912 807.74146 4280035407
-37.555962 785.2912 807.74146 4279838028
-33.188992 785.2912 807.74146 4279771988
0.87339449 785.2912 807.74146 4279903569
4.3669724 785.2912 807.74146 4279969612
110.04771 785.2912 807.74146 4293787391
112.66789 785.2912 807.74146 4294246399
115.28807 785.2912 807.74146 4291812095
-46.289909 786.62659 808.86743 4280231506
-41.049541 787.29431 809.43048 4280165712
-37.847095 787.07178 809.24286 4279903821
-33.746792 787.56689 808.78833 4279968595
-31.376146 788.11224 807.50403 4280296274
-28.761467 788.11224 807.50403 4279706962
-25.27523 788.11224 807.50403 4279444816
-22.660551 788.11224 807.50403 4279969362
-16.559633 788.11224 807.50403 4280099406
-13.073395 788.11224 807.50403 4280099406
-10.458715 788.11224 807.50403 4280689237
-7.8440366 788.11224 807.50403 4280427346
-4.3577981 788.11224 807.50403 4279968592
-1.7431192 788.11224 807.50403 4279903315
0.87339449 786.62659 808.86743 4279837524
4.3577981 788.11224 807.50403 4279641415
7.8440366 788.11224 807.50403 4279771987
10.458715 788.11224 807.50403 4279903569
13.073395 788.11224 807.50403 4279902800
16.559633 788.11224 807.50403 4280165205
20.045872 788.11224 807.50403 4279968852
104.58716 788.11224 807.50403 4293130239
109.46545 787.07178 809.24286 4293392383
112.66789 787.29431 809.43048 4293458431
115.28807 787.96204 809.99353 4289774332
117.03486 787.96204 809.99353 4278190131
-36.605503 789.44489 808.62769 4280101198
-34.862385 789.44489 808.62769 4280296274
-31.376146 790.11121 809.18951 4280362319
-28.761467 790.11121 809.18958 4280165712
-25.27523 790.11121 809.18951 4280100178
-22.660551 790.11121 809.18951 4280034642
-20.045872 790.11121 809.18958 4280034643
-16.559633 790.11121 809.18958 4280230733
-13.073395 790.11121 809.18958 4280034636
-10.458715 790.11121 809.18951 4280165720
-7.8440366 790.11121 809.18958 4279968591
-4.3577981 790.11121 809.18951 4279903310
-1.7431192 789.44489 808.62769 4279771986
0.87155962 790.11121 809.18958 4279902808
4.3577981 790.11121 809.18958 4279903301
13.944954 789.44489 808.62769 4279771986
16.559633 789.44489 808.62769 4279706193
20.917431 789.44489 808.62769 4279771988
108.94495 790.11121 809.18951 4293261311
112.43119 790.77753 809.75134 4293063423
-1.7376146 793.66174 808.25916 4280034384
6.9504585 793.66174 808.25916 4279902801
13.321712 793.44037 808.07245 4279706194
16.507339 793.66168 808.25916 4279640143
19.982569 793.66168 808.25916 4279968591
22.588991 793.66174 808.25916 4280033611
24.326605 792.9975 807.6991 4280099152
107.73211 792.9975 807.6991 4293064447
109.46973 794.32593 808.81921 4293655295
111.20734 794.32593 808.81921 4293983487
-1.7376146 795.65436 809.93933 4279969108
7.8192658 795.65436 809.93933 4279771986
10.39266 797.86597 807.88 4279706194
13.012844 796.76013 808.90967 4279902546
16.479816 796.76013 808.90967 4280033361
19.952293 796.76013 808.90967 4280099408
22.588991 795.65436 809.93933 4280165199
25.115597 797.86597 807.88 4280230481
109.12293 797.86597 807.88 4293655295
112.07614 795.65436 809.93933 4291878118
16.455046 799.19012 808.99646 4279902801
19.919266 799.19012 808.99646 4280099151
22.517431 799.19012 808.99646 4280164945
25.115597 799.19012 808.99646 4280099152
28.519266 800.66174 807.62122 4280100169
31.976147 800.66174 807.62122 4280362319
34.568806 800.66174 807.62122 4280035407
37.161469 800.66174 807.62122 4280034896
40.618347 800.66174 807.62122 4280165971
44.07523 800.66174 807.62122 4280100691
86.42202 800.66174 807.62122 4293983999
89.014679 800.66174 807.62122 4293194495
106.29908 800.66174 807.62122 4293523199
109.98899 799.19012 808.99646 4293785855
112.58716 799.19012 808.99646 4288193210
28.519266 801.98315 808.73535 4279968329
32.264221 802.42365 809.10675 4279968590
34.568806 802.64386 809.29248 4279838030
37.161469 802.64386 809.29248 4279837775
40.618347 802.64392 809.29248 4279838293
44.07523 802.64392 809.29248 4279838036
46.667889 803.30457 809.84961 4279969108
109.75597 802.64386 809.29248 4293391359
112.34863 802.64386 809.29248 4291548912
114.07706 803.30457 809.84961 4291681791
49.103668 806.16211 808.33496 4279969616
52.262386 806.38165 808.52002 4280034642
105.96056 806.16217 808.33496 4293456639
109.40642 806.82074 808.89026 4293391615
112.85229 806.82074 808.89026 4293523199
55.876144 808.94116 808.06201 4280101205
58.455048 808.94116 808.06207 4279906648
61.033943 808.94116 808.06201 4279709529
64.472473 808.94116 808.06201 4279907172
67.911011 808.9411 808.06201 4280499054
70.489906 809.59833 808.61621 4280959602
97.425079 808.72211 807.87738 4293063423
100.57706 808.94116 808.06207 4293325567
103.15596 808.94116 808.06207 4293390847
55.876144 810.91272 809.72449 4280232021
58.455048 810.91272 809.72449 4279709525
61.033943 810.91272 809.72449 4279906394
64.472473 810.91272 809.72449 4279971940
67.911011 810.91272 809.72449 4280499572
70.489906 810.91272 809.72449 4280632182
72.209175 810.91272 809.72449 4281024380
76.507339 810.91272 809.72449 4281553285
79.945869 810.91272 809.72449 4281421462
85.103668 810.91272 809.72449 4286818800
92.84037 810.91272 809.72449 4293457407
94.559631 810.91272 809.72449 4293391615
97.138535 810.91272 809.72449 4293128959
99.71743 810.91272 809.72449 4292932095
73.691742 813.09906 807.6438 4281353345
82.260551 813.09906 807.6438 4278201212
88.258713 813.09906 807.6438 4293588991
90.829369 814.40924 808.74847 4293259519
37.722935 748.71783 812.22058 4278190156
49.399082 748.71783 812.22058 4278191437
-71.116516 781.57013 811.1441 4279446096
-67.311928 780.67511 810.38947 4280165974
-64.092659 781.57013 811.14417 4280100181
-61.458717 782.24133 811.71014 4280100689
-58.824768 782.91254 812.27612 4280035407
-55.312843 782.91254 812.27612 4280231766
-52.678898 782.91254 812.27612 4280362069
-50.922935 782.91254 812.27612 4280427862
-49.06422 785.06799 811.47736 4280362071
-46.43578 785.73785 812.04211 4280362070
-43.807339 785.06799 811.47736 4280100176
115.65137 784.39819 810.9126 4289448191
117.40367 784.39819 810.9126 4278190153
-41.049541 789.29749 811.11951 4280362319
-37.555962 789.96521 811.6825 4279968843
-34.062386 789.96521 811.6825 4280165461
-31.442202 790.63293 812.24548 4280165199
-28.822018 790.63293 812.24548 4280296273
-26.201836 790.63293 812.24548 4280296274
115.28807 789.96521 811.6825 4286882295
117.03486 789.29749 811.11951 4278190163
-24.403669 792.11011 810.875 4280034642
-22.660551 792.11011 810.875 4280165971
-20.045872 792.11011 810.875 4279969614
-16.559633 792.77643 811.43683 4279837774
-13.073395 792.77649 811.43677 4279838029
-10.458715 792.77643 811.43683 4279706446
-7.8440361 792.77643 811.43683 4279706444
-4.3577981 792.77649 811.43677 4279837517
0.87155962 792.77643 811.43683 4279837775
4.3577981 792.77643 811.43683 4279838026
113.30275 792.11011 810.875 4290957029
-5.2128439 796.98279 811.05945 4279706958
8.6880732 796.98279 811.05945 4279706192
10.425688 796.98279 811.05945 4280033360
13.03211 796.98279 811.05945 4279836752
10.425688 798.31122 812.17944 4279967311
13.03211 798.31122 812.17944 4279967311
16.479816 799.41278 811.14624 4279967820
19.982569 798.31122 812.17944 4280033868
22.588991 798.31122 812.17944 4280165199
25.115597 800.51434 810.11304 4280033359
114.31927 800.51434 810.11304 4290034419
25.981651 801.83856 811.22961 4279967311
28.579817 801.83856 811.22961 4279902283
31.177982 802.50067 811.7879 4279837260
116.05138 802.50067 811.7879 4292602367
117.78349 802.50067 811.7879 4292930559
32.840366 804.62598 810.96375 4280033356
34.568806 804.62598 810.96375 4279641164
37.161469 805.28668 811.52087 4279837516
40.906422 805.06641 811.33514 4279837519
44.07523 805.28668 811.52087 4279706447
46.667889 805.28668 811.52081 4279771984
110.62019 805.94739 812.07788 4293259775
112.34863 805.94739 812.07788 4293259775
114.07706 805.94739 812.07788 4293325567
49.390823 808.57697 810.37109 4279706193
52.549545 808.79651 810.55615 4279968337
101.65321 809.45514 811.11145 4293195263
103.37614 809.45514 811.11145 4293391871
105.96056 808.79651 810.55615 4293260287
108.54495 808.79651 810.55615 4293128703
52.549541 810.77234 812.22217 4280035407
55.995415 810.77234 812.22217 4280166993
58.455048 812.22711 810.83264 4280429398
61.033943 812.22711 810.83264 4280365145
64.540367 811.49976 811.5274 4280037731
67.984406 811.49976 811.5274 4280696435
70.489906 812.22711 810.83264 4280959602
73.06881 812.22711 810.83264 4281353346
76.507339 812.22711 810.83264 4281749896
79.945869 812.22711 810.83264 4281682838
82.524773 812.22711 810.83264 4278199407
85.103668 812.22711 810.83264 4287739125
88.542206 812.22711 810.83264 4293523199
92.84037 812.22711 810.83264 4293128447
94.559631 812.22711 810.83264 4293457151
97.138535 812.22711 810.83264 4293194751
100.79175 810.77234 812.22217 4293523199
103.37614 810.77234 812.22217 4293392127
105.96056 810.77234 812.22217 4293391871
82.524773 813.5415 811.94092 4278199160
85.103668 813.5415 811.94092 4288528639
88.542206 813.5415 811.94092 4293588991
92.84037 813.5415 811.94092 4293062399
94.559631 813.5415 811.94092 4293259775
97.138535 813.5415 811.94092 4293194751
99.71743 813.5415 811.94092 4293260543
-68.69725 779.33746 813.18579 4279381075
-67.816513 781.35748 814.88892 4279904336
-64.293579 781.35748 814.88892 4280100944
-61.651375 782.03082 815.45667 4280035407
-71.40918 784.70245 813.78534 4280166226
-58.824768 784.255 813.40796 4279969614
-55.312843 784.255 813.40796 4280165971
-52.678898 784.92627 813.97394 4280099924
-50.337616 785.14996 814.1626 4280231253
-49.166973 786.93988 815.67188 4280362323
-46.484406 787.00867 814.42188 4280296532
-43.253826 787.47821 814.38165 4280230739
-40.302753 788.41711 814.30127 4280296274
-37.616512 790.86255 814.40112 4280035407
-34.062386 791.96838 813.37146 4279183444
-31.442202 791.96838 813.37146 4279641162
-28.822018 791.96838 813.37146 4279772240
-25.328442 791.96838 813.37146 4279903570
-22.708258 791.96838 813.37146 4279903567
-20.088074 791.96838 813.37146 4280296780
115.28807 791.96838 813.37146 4285301700
117.03486 791.96838 813.37146 4278190138
-33.188992 793.9715 815.06055 4279969105
-31.442202 793.9715 815.06055 4279969098
-28.822018 793.9715 815.06055 4280166226
-25.328442 793.9715 815.06055 4279969106
-22.708258 793.9715 815.06055 4279903822
-20.088074 793.9715 815.06055 4279837513
-16.874617 794.23944 814.41449 4280033613
-13.073395 794.77539 813.12231 4280033613
-10.458715 794.77539 813.12231 4279575621
-7.8440366 794.77539 813.12231 4279641161
-3.4862385 794.77539 813.12231 4279705942
-1.7431192 794.77539 813.12231 4279903065
0.87155962 794.77539 813.12231 4279706193
4.3577981 794.77539 813.12231 4279772238
6.972477 794.77539 813.12231 4279771986
115.04587 794.77539 813.12231 4284254370
117.03486 793.30377 814.49756 4278191392
-15.688073 796.77435 814.80774 4279968076
-13.073395 796.77435 814.80774 4279967822
-10.458715 796.77435 814.80774 4279836746
-7.8440366 796.77429 814.80774 4279837259
-4.3577981 796.77435 814.80774 4279639885
-1.7431192 796.77435 814.80774 4279573839
1.1620795 796.55225 814.62042 4279311946
4.3577981 796.77429 814.80774 4279312456
7.8440366 796.77435 814.80774 4279640137
10.458715 797.44067 815.36951 4279704909
12.201835 797.44067 815.36951 4279704909
13.900917 799.63959 813.29956 4279704909
16.507339 800.30377 813.85962 4279835978
19.982569 799.63959 813.29956 4280164428
22.588991 800.30383 813.85962 4280165199
24.905809 800.52521 814.04633 4280033358
28.670643 800.96802 814.41968 4280033613
25.195412 802.29645 815.53979 4279509322
28.670643 802.29645 815.53979 4279968076
31.277063 802.29645 815.53979 4279836747
32.910091 804.487 813.46265 4279705161
34.6422 805.14911 814.02094 4279574345
37.240368 805.81122 814.57922 4279770698
40.415901 805.36981 814.20703 4279837259
116.05138 805.14911 814.02094 4293193983
38.106422 807.13544 815.6958 4279705159
41.570641 807.13544 815.6958 4279641162
44.098167 807.5658 814.09656 4279575116
46.667889 808.59015 814.30634 4279508814
49.087708 808.85449 814.52911 4279771985
51.85321 809.91162 815.42041 4280099152
107.1633 809.91162 815.42041 4293260543
109.92881 808.85449 814.52911 4293128703
112.34863 808.59015 814.30634 4293063167
114.57065 808.2265 814.65369 4293193727
53.411011 812.08954 813.33276 4280296274
55.995415 812.08954 813.33276 4280559702
58.579815 812.08954 813.33276 4280363605
61.164223 812.08954 813.33276 4280494935
64.610092 812.08954 813.33276 4280168033
68.055969 812.08954 813.33276 4280696181
70.640366 812.08954 813.33276 4280828021
73.22477 812.08954 813.33276 4281419137
76.670639 812.08954 813.33276 4281684621
80.116516 812.08954 813.33276 4281879703
101.65321 812.08954 813.33276 4293194751
103.37614 812.08954 813.33276 4292932095
105.09908 812.08954 813.33276 4292997887
58.579815 813.40674 814.44336 4280165973
61.164223 813.40674 814.44336 4280035929
64.897247 813.84576 814.81354 4280036965
68.055969 814.06531 814.99866 4280761204
70.640366 814.06531 814.99866 4280762228
73.22477 814.06531 814.99866 4281353090
82.70092 813.40674 814.44336 4278200704
85.285324 813.40674 814.44336 4289252607
88.63578 814.13135 813.74628 4294049279
91.759026 814.81195 813.88409 4293522943
94.119873 814.76788 814.71906 4293588479
97.242203 814.78992 814.30157 4293325311
100.73854 814.42761 814.65015 4293325823
103.37614 813.40674 814.44336 4293062911
105.09908 813.40674 814.44336 4293062911
-63.611008 781.15747 818.64441 4279969362
-70.458717 783.37744 816.59216 4280362319
-67.522942 783.82635 816.9707 4279838546
-65.174309 784.05078 817.15991 4279510610
-61.651375 783.37744 816.59216 4280035155
-58.715595 783.82635 816.9707 4279969614
-55.486237 784.05078 817.15991 4279968849
-51.963303 784.72412 817.72766 4280230735
-51.963303 786.0708 818.86304 4280689487
-49.321102 786.0708 818.86304 4280755028
-46.607338 787.17657 817.83337 4280361810
-43.021103 788.28235 816.80371 4279969105
-40.387157 788.28235 816.80371 4280035155
-45.655045 789.62482 817.93567 4280099152
-43.021103 789.62482 817.93567 4279968338
-40.387157 789.62482 817.93567 4279969110
-37.674309 791.09644 816.56042 4280034642
-35.045872 791.09644 816.56042 4280165971
-36.798164 793.10583 818.2547 4279903311
-34.169724 793.10583 818.2547 4279838033
-31.541285 793.7757 818.81946 4279772238
-29.78899 793.7757 818.81946 4279903567
-22.779816 793.7757 818.81946 4279772238
-27.948624 795.97467 816.74951 4279969362
-25.328442 796.64233 817.3125 4279837518
-20.088074 795.97467 816.74951 4279575369
-16.885626 796.86493 817.50018 4280033869
-13.100918 797.31006 817.87549 4279967567
-10.480734 797.31006 817.87549 4279968076
-8.7339449 797.31006 817.87549 4279968076
0 796.64233 817.3125 4279640139
-6.972477 798.77325 816.49316 4279968076
-4.3577981 798.77325 816.49316 4279640138
-1.7431192 799.43958 817.05499 4279377992
1.7431192 798.77325 816.49316 4280033870
4.3577981 798.77325 816.49316 4279771204
7.8440366 799.43958 817.05499 4279312200
10.458715 799.43958 817.05499 4279245900
13.073395 799.43958 817.05499 4279574094
16.559633 800.1059 817.61682 4279639115
20.045872 799.43958 817.05493 4279902284
22.660551 800.1059 817.61682 4279968076
13.073395 801.43854 818.74048 4279246153
16.559633 801.43854 818.74048 4279508040
20.045872 801.43854 818.74048 4279311687
22.660551 801.43854 818.74048 4279181384
25.27523 801.43854 818.74048 4279246406
28.761467 801.43854 818.74048 4279968331
31.277063 803.62488 816.65979 4279770952
33.014679 803.62488 816.65979 4279639366
33.883484 804.95331 817.77991 4279573320
37.358719 805.61755 818.33997 4279835974
40.544342 805.83893 818.52667 4279902536
43.302753 809.1217 817.37054 4279575369
45.612232 809.34247 817.55664 4279837012
48.499084 809.78381 817.92883 4279706192
110.85505 809.78381 817.92883 4292931327
112.58716 809.78381 817.92883 4292997119
115.47401 809.34247 817.55664 4293325567
50.124771 811.23303 816.53467 4279903315
53.005505 811.67352 816.90607 4279837523
55.310093 811.89374 817.09174 4279903568
57.614681 812.11395 817.2774 4279773267
61.359634 812.55444 817.6488 4279709018
63.952293 812.55444 817.6488 4279971677
76.915596 811.89368 817.09174 4281685392
79.508255 811.89374 817.09174 4282933424
81.812843 812.11395 817.2774 4279909518
85.5578 812.55444 817.6488 4289451263
89.014679 812.55444 817.6488 4293194495
103.70642 812.55444 817.6488 4293325567
106.58716 812.11395 817.2774 4293128703
108.89175 811.23303 816.53467 4293062911
57.902752 813.87585 818.76294 4279903316
61.359634 813.87585 818.76294 4280363354
64.816513 813.87585 818.76294 4280101474
67.409172 813.87585 818.76294 4280563059
70.001831 813.87585 818.76294 4280957554
73.458717 813.87585 818.76294 4281091716
86.42202 813.87585 818.76294 4293523199
89.014679 813.87585 818.76294 4293523199
91.607338 813.87585 818.76294 4293259775
94.199997 813.87585 818.76294 4293457663
97.656883 813.87585 818.76294 4293260031
101.11376 813.87585 818.76294 4293391359
103.70642 813.87585 818.76294 4293457407
105.43486 813.87585 818.76294 4293128447
-63.611008 782.5083 819.78345 4280034642
-60.960548 782.5083 819.78345 4280034896
-60.960548 783.85919 820.92236 4279969616
-58.310093 783.85919 820.92236 4279969614
-55.65963 783.85919 820.92236 4280296530
-51.082569 787.41742 819.99854 4280362319
-49.321102 788.09076 820.56628 4280230481
-47.559631 788.09076 820.56628 4280230481
-44.036697 788.7641 821.13403 4279969362
-45.655045 790.96729 819.06763 4279903569
-42.14312 790.96729 819.06763 4279969362
-40.387157 790.96729 819.06763 4279969362
-38.631191 790.96729 819.06763 4280034642
-42.14312 792.30969 820.19946 4280035407
-37.753212 792.98096 820.76544 4280100175
-34.533947 793.20465 820.9541 4279968335
-31.541285 795.78516 820.51385 4279575371
-28.912844 795.78516 820.51385 4279641165
-25.408257 796.45496 821.07861 4279443787
-21.903671 795.78516 820.51385 4279902796
-19.275229 795.78516 820.51385 4279836488
-16.64679 796.45496 821.07861 4279509324
-13.142202 796.45496 821.07861 4279311950
-10.513762 796.45496 821.07861 4279311950
-8.7614679 796.45496 821.07861 4279443536
-6.9871559 798.64551 819.00146 4279639114
-4.075841 799.09064 819.37677 4279377480
-1.746789 799.98096 820.12756 4279115591
0.87339449 799.31323 819.56445 4279377480
4.3669724 799.31323 819.56451 4279442751
7.8605504 799.98096 820.12756 4279049798
10.480734 799.98096 820.12756 4279115337
-1.746789 801.31641 821.25354 4279049541
1.746789 801.31641 821.25354 4279114316
4.3669724 801.31641 821.25354 4279245126
7.8605504 801.31641 821.25354 4278917703
10.480734 801.31641 821.25354 4278917703
13.100918 801.31641 821.25354 4279114054
16.594496 801.31641 821.25354 4279376454
20.088074 801.31641 821.25354 4279246151
22.660551 802.77118 819.86414 4279115591
25.27523 802.77118 819.86414 4279312200
28.761467 802.77118 819.86414 4279443788
31.376146 802.77118 819.86414 4279639114
26.14679 804.10382 820.98779 4279442755
31.376146 804.10382 820.98779 4279508548
33.990826 804.10382 820.98779 4279440961
36.605503 804.10382 820.98779 4279833926
41.702751 807.61011 820.02014 4279444040
46.046791 808.93854 821.14026 4279311950
49.653824 811.5495 819.41766 4279640394
52.540668 811.99091 819.78979 4279443276
55.427525 812.43225 820.16199 4279311696
77.078903 812.43225 820.16199 4282014106
79.677063 812.43225 820.16199 4283261620
82.275223 812.43225 820.16199 4279649433
84.873398 812.43225 820.16199 4287486207
107.39082 812.43225 820.16199 4293128447
109.98899 811.77014 819.6037 4293260031
112.58716 811.77014 819.6037 4293062655
114.89664 811.5495 819.41766 4293325567
52.829357 813.75647 821.27844 4278457152
55.427525 813.75647 821.27844 4279115337
57.963303 814.47687 820.57782 4279115335
61.423851 814.47687 820.57782 4279575119
64.816513 815.19727 819.8772 4280231774
67.409172 815.19727 819.8772 4281086319
70.001831 815.19727 819.8772 4280957556
73.458717 815.19727 819.8772 4281287298
77.078903 813.75647 821.27844 4282407580
79.677063 813.75647 821.27844 4282999729
82.275223 813.75647 821.27844 4280109722
85.739456 813.75647 821.27844 4291095039
88.337616 813.75647 821.27844 4293785855
90.838531 814.47687 820.57782 4293392127
94.199997 815.19727 819.8772 4293457407
97.656883 815.19727 819.8772 4293325567
101.11376 815.19727 819.8772 4293128703
103.70642 815.19727 819.8772 4293261055
106.52477 813.75647 821.27844 4293063167
109.12293 813.75647 821.27844 4293062911
70.001831 816.51862 820.99133 4280759925
74.322937 816.51862 820.99133 4281289347
91.607338 816.51862 820.99133 4293392127
94.199997 816.51862 820.99133 4293457663
97.656883 816.51862 820.99133 4293326079
101.11376 816.51862 820.99133 4293391615
-60.264221 783.00269 824.12427 4279772490
-58.491745 783.00269 824.12427 4279969612
-55.747704 784.10638 823.09283 4280296274
-53.009174 785.21008 822.0614 4280296526
-54.776146 786.56091 823.20044 4280164945
-52.125687 787.23633 823.76996 4280099152
-49.321102 790.11072 822.26953 4280165199
-46.385319 790.55957 822.64795 4279968846
-43.449543 791.00848 823.02643 4279838029
-40.51376 790.78406 822.83722 4279903820
-38.752293 791.4574 823.40491 4280165199
-40.51376 792.80408 824.54041 4279641162
-37.813759 793.89935 823.50189 4280165199
-34.241287 794.99463 822.46338 4279575371
-35.119267 796.33704 823.59521 4279377995
-28.912844 797.79462 822.20813 4279377991
-25.408257 797.79462 822.20813 4279508552
-21.903669 797.79462 822.20813 4279508554
-19.295412 797.73706 823.46765 4279442761
-16.963303 797.27032 823.51019 4279377482
-13.169725 797.00824 824.16113 4279180874
-10.53578 797.0083 824.16119 4279246666
-7.9018345 797.0083 824.16119 4279377479
-5.2568808 797.79462 822.20813 4279573573
-31.541285 799.13428 823.33765 4278983748
-28.912844 799.13428 823.33765 4279246151
-24.53211 799.13428 823.33765 4279442505
-21.903669 799.80408 823.90247 4279310662
-15.770642 799.80408 823.90247 4279113285
-4.088685 799.58081 823.71417 4279180097
-1.7522936 800.47394 824.46729 4279113790
0.58409786 800.02734 824.09076 4279179593
4.380734 800.47394 824.46729 4279245375
8.7614679 800.47394 824.46729 4279244869
6.9871559 802.65186 822.37952 4279244869
10.480734 803.31958 822.9425 4279113540
13.100918 803.31958 822.9425 4279113538
16.594496 803.31958 822.9425 4279179841
20.088074 803.31958 822.9425 4279115585
22.708258 803.31958 822.9425 4278984511
25.037308 803.54218 823.13019 4279049790
28.822018 803.31958 822.9425 4279639881
31.442202 803.98724 823.50549 4279311168
13.974312 805.32269 824.63159 4279110971
16.594496 805.32269 824.63159 4278519345
20.088074 805.32269 824.63159 4278850102
22.708258 805.32269 824.63159 4278719797
25.328442 805.32269 824.63159 4278917176
28.822018 805.32269 824.63159 4279179578
31.442202 805.32269 824.63159 4278983748
34.026604 805.37952 823.37146 4279310401
37.51651 805.37952 823.37146 4279639363
40.700916 805.84271 823.32599 4279442752
43.57798 806.76904 823.23499 4279442755
43.57798 808.10168 824.35864 4279047999
45.321102 808.10168 824.35864 4279113540
46.915596 810.26697 822.26025 4279244869
49.522018 811.5954 823.38037 4279113282
52.997246 812.92383 824.50049 4278521151
55.603668 812.92383 824.50049 4279047495
57.341286 812.92383 824.50049 4279113288
107.73211 812.92383 824.50049 4292866303
109.46973 812.92383 824.50049 4292800511
111.78654 812.03827 823.75372 4293128447
114.68257 811.5954 823.38037 4292537343
58.891743 815.08069 822.39502 4279113790
61.489906 815.08069 822.39502 4279508809
64.954132 815.08069 822.39502 4280165726
67.552292 815.08069 822.39502 4280823406
72.748627 815.08069 822.39502 4280499831
77.078903 815.08069 822.39502 4282603939
79.677063 815.08069 822.39502 4283261102
82.275223 815.08069 822.39502 4281094046
85.739456 815.08069 822.39502 4291620095
88.337616 815.08069 822.39502 4293655039
90.069725 815.08069 822.39502 4293457919
103.92661 815.08069 822.39502 4293392127
105.65871 815.08069 822.39502 4293392127
67.552292 816.40491 823.5116 4280625246
70.150452 817.06702 824.06982 4280628850
73.614685 816.40491 823.5116 4281355646
85.739456 816.40491 823.5116 4292537599
88.337616 816.40491 823.5116 4293720063
91.224464 816.84637 823.88379 4293327103
94.399994 817.06702 824.06982 4293392639
97.760551 817.78455 823.3667 4293195519
100.35596 817.78455 823.36676 4293260543
103.06055 817.06702 824.06982 4293063167
105.65871 816.40491 823.5116 4293325567
-56.719265 784.35773 825.26685 4280164945
-10.568808 796.84399 827.94678 4279113540
-7.9266057 796.84399 827.94678 4279113537
-19.315596 799.02197 825.85913 4278916160
-17.559633 799.02197 825.85913 4278652991
-13.169725 799.02197 825.85913 4279113540
-4.682569 799.91693 826.61371 4278523194
-1.7522936 801.81354 825.5968 4278655551
1.1681957 802.26007 825.97333 4278654011
4.380734 802.4834 826.16156 4278785338
7.8853211 802.4834 826.16156 4278784827
10.513762 803.1532 826.72632 4278652991
12.266055 803.1532 826.72632 4278850113
4.380734 804.49286 827.85596 4278390830
10.513762 804.49286 827.85596 4278715963
13.120184 805.5755 826.80676 4278715960
16.594496 806.65814 825.75757 4278519345
20.088074 806.65814 825.75757 4278455086
22.708258 806.65814 825.75757 4278193451
25.328442 806.65814 825.75757 4278390580
28.912844 804.49286 827.85596 4278588213
31.541285 804.49286 827.85596 4278850363
34.117432 805.5755 826.80676 4278850363
37.613762 805.5755 826.80676 4278784570
41.049541 806.65814 825.75757 4279047999
13.974312 807.99359 826.88354 4278585649
20.961468 807.99359 826.88354 4278520106
22.708258 807.99359 826.88354 4278585899
25.328442 807.99359 826.88354 4278193194
27.948624 807.99359 826.88354 4278193194
41.922935 807.99359 826.88354 4279308854
43.669724 807.99359 826.88354 4279308854
46.192661 809.43433 825.4823 4278850620
47.06422 810.76697 826.60596 4278848819
49.388378 811.65533 827.35504 4279177538
52.293579 812.09955 827.72961 4278981700
