# .PCD v0.7 - Point Cloud Data file format
VERSION 0.7
FIELDS x y z rgb
SIZE 4 4 4 4
TYPE F F F U
COUNT 1 1 1 1
WIDTH 877
HEIGHT 1
VIEWPOINT 0 0 0 1 0 0 0
POINTS 877
DATA ascii
-51.387157 773.18658 1217.4128 4281681781
-49.051376 773.18658 1217.4128 4280892009
-46.715595 773.18658 1217.4128 4279448174
-43.211929 773.18658 1217.4128 4279051630
-46.532108 779.57428 1216.2585 4281418353
-44.205505 779.57428 1216.2585 4280629093
-41.878899 779.57428 1216.2585 4282336627
-51.185322 781.35297 1217.7583 4281088888
-48.858715 781.35297 1217.7583 4281088888
-46.532108 781.35297 1217.7583 4282007914
-44.205505 781.35297 1217.7583 4281942121
-41.878899 781.35297 1217.7583 4282138471
-56.234863 770.92236 1220.7358 4280432752
-52.720184 770.02667 1219.9806 4281682555
-49.205505 769.13098 1219.2253 4282669442
-46.862385 769.13098 1219.2253 4285229972
-43.347706 769.13098 1219.2253 4284177064
-39.833027 770.92236 1220.7358 4285760986
-58.394497 776.75806 1220.4242 4282535803
-56.058716 775.86523 1219.6714 4282076027
-52.555046 775.86523 1219.6714 4280760170
-49.051376 775.86523 1219.6714 4281023347
-46.715595 774.97235 1218.9185 4280234846
-43.211929 774.97235 1218.9185 4279773788
-39.708256 776.75806 1220.4242 4286678965
-51.185322 783.13171 1219.2581 4282142330
-48.858715 783.13171 1219.2581 4281615986
-46.532108 784.02106 1220.0079 4281022316
-44.205505 784.02106 1220.0079 4281087853
-41.878899 783.13171 1219.2581 4281086049
-55.2789 766.2937 1223.3732 4281944953
-63.264221 772.71368 1222.2462 4282406254
-60.921101 772.71368 1222.2462 4282864504
-58.57798 772.71368 1222.2462 4282732918
-39.833027 772.71368 1222.2462 4287668442
-64.435776 774.505 1223.7566 4282011246
-60.921101 774.505 1223.7566 4282535803
-56.058716 778.54376 1221.9298 4282601861
-53.722935 778.54376 1221.9298 4281680759
-39.708256 778.54376 1221.9298 4284375176
-56.058716 780.32947 1223.4355 4282666369
-53.722935 780.32947 1223.4355 4282403453
-39.708256 780.32947 1223.4355 4281217378
-44.205505 786.68909 1222.2576 4281681263
-49.590824 761.65106 1225.9988 4283921319
-47.229359 761.65106 1225.9988 4286807486
-43.687157 761.65106 1225.9988 4287925971
-68.216515 769.89044 1226.4058 4281745255
-65.86422 768.99127 1225.6477 4281419617
-61.159634 768.0921 1224.8895 4282734453
-58.807339 768.0921 1224.8895 4282208109
-70.293579 776.29633 1225.267 4279771456
-67.950462 776.29633 1225.267 4281942369
-64.435776 776.29633 1225.267 4282338423
-60.921101 776.29633 1225.267 4282928505
-58.57798 776.29633 1225.267 4283125627
-35.14679 776.29633 1225.267 4281808252
-70.293579 778.08765 1226.7775 4280231214
-67.950462 778.08765 1226.7775 4282073418
-65.607338 778.08765 1226.7775 4282796410
-60.921101 778.08765 1226.7775 4282994298
-58.57798 778.08765 1226.7775 4283125627
-37.48991 778.08765 1226.7775 4281019511
-35.14679 778.08765 1226.7775 4283454108
-52.555046 782.11523 1224.9412 4282404214
-49.051376 782.11523 1224.9412 4282141551
-42.044037 782.11523 1224.9412 4281611371
-39.708256 782.11523 1224.9412 4281545577
-52.555046 783.90094 1226.4469 4282666621
-49.051376 783.90094 1226.4469 4282403705
-46.715595 783.90094 1226.4469 4282141814
-42.044037 783.90094 1226.4469 4281742957
-39.708256 783.90094 1226.4469 4281677164
-45.042202 756.99432 1228.6124 4291874036
-59.036697 763.45642 1227.521 4281087323
-40.144955 763.45642 1227.521 4280426642
-63.759632 765.26178 1229.0432 4282077804
-37.783485 765.26178 1229.0432 4286486169
-68.216515 771.68878 1227.9221 4281548376
-37.636696 772.58795 1228.6803 4285296811
-35.284405 771.68878 1227.9221 4285693353
-70.293579 779.87903 1228.2878 4281350220
-67.950462 779.87903 1228.2878 4281876564
-65.607338 779.87903 1228.2878 4282732666
-60.921101 779.87903 1228.2878 4282994298
-58.57798 779.87903 1228.2878 4282994298
-56.234863 779.87903 1228.2878 4282732414
-37.48991 779.87903 1228.2878 4280757860
-35.14679 779.87903 1228.2878 4283784595
-70.293579 781.67035 1229.7982 4281942107
-67.950462 781.67035 1229.7982 4282336865
-65.607338 781.67035 1229.7982 4282864004
-60.921101 781.67035 1229.7982 4282666621
-58.57798 781.67035 1229.7982 4282732414
-56.234863 781.67035 1229.7982 4282666621
-37.48991 781.67035 1229.7982 4280629354
-35.14679 781.67035 1229.7982 4282011007
-70.073395 785.68665 1227.9525 4282007914
-67.737617 785.68665 1227.9525 4282665844
-52.555046 785.68665 1227.9525 4282667394
-49.051376 785.68665 1227.9525 4282733188
-46.715595 785.68665 1227.9525 4282536307
-43.211929 785.68665 1227.9525 4281811309
-39.708256 785.68665 1227.9525 4281152105
-70.073395 787.47241 1229.4583 4282665578
-67.737617 787.47241 1229.4583 4282797164
-51.387157 787.47241 1229.4583 4282602113
-49.051376 787.47241 1229.4583 4282536320
-46.715595 787.47241 1229.4583 4282339707
-43.211929 787.47241 1229.4583 4282142071
-49.976147 754.14301 1232.7485 4288785892
-47.596329 754.14301 1232.7485 4291347692
-42.836697 754.14301 1232.7485 4291611135
-40.456882 754.14301 1232.7485 4291808767
-59.266056 758.8067 1230.1406 4282598003
-52.154129 758.8067 1230.1406 4280960634
-40.300919 758.8067 1230.1406 4284505252
-37.930275 758.8067 1230.1406 4282995854
-35.559631 758.8067 1230.1406 4279377239
-61.636696 760.61908 1231.6687 4281284958
-37.930275 760.61908 1231.6687 4278199842
-37.783485 767.06714 1230.5654 4288454835
-35.42202 767.06714 1230.5654 4287401890
-63.511925 775.28546 1230.9547 4282862460
-63.511925 777.08386 1232.4711 4282732666
-64.826302 784.05878 1231.8121 4282666881
-60.921101 783.46167 1231.3086 4282470012
-58.57798 784.3573 1232.0638 4282535804
-56.234863 784.3573 1232.0638 4282404220
-53.891743 785.25299 1232.8191 4282601598
-39.833027 785.25299 1232.8191 4280496990
-37.48991 784.3573 1232.0638 4281086305
-35.14679 783.46167 1231.3086 4282467963
-67.737617 789.25812 1230.9639 4282928232
-61.875229 755.9624 1234.2826 4280097868
-57.115597 755.9624 1234.2826 4281617285
-54.735779 755.9624 1234.2826 4281485443
-66.634865 757.78174 1235.8167 4281087566
-64.255043 757.78174 1235.8167 4281613910
-35.559631 762.43146 1233.1969 4283920499
-63.511925 778.8822 1233.9874 4282666369
-65.607338 787.04431 1234.3295 4282011759
-58.57798 787.04431 1234.3295 4282536309
-56.234863 787.04431 1234.3295 4282273662
-52.720184 787.94006 1235.0847 4282601853
-49.205505 787.94 1235.0847 4282732668
-46.862385 787.94 1235.0847 4282732416
-43.738224 787.64142 1234.833 4282732669
-39.833027 787.04431 1234.3295 4281285472
-37.48991 787.04431 1234.3295 4280496208
-28.447706 767.86859 1237.7814 4278192195
-33.060551 776.09393 1238.1766 4282734231
-63.511925 782.47888 1237.02 4282535289
-61.159634 782.47888 1237.02 4282470009
-35.284405 782.47888 1237.02 4281480803
-63.511925 784.27722 1238.5364 4282011759
-61.159634 784.27722 1238.5364 4282470259
-35.284405 784.27722 1238.5364 4281022552
-51.548622 790.62701 1237.3502 4282994046
-49.205505 790.62701 1237.3502 4283125375
-46.862385 790.62701 1237.3502 4283190920
-44.519264 790.62701 1237.3502 4283125127
-35.807339 755.51196 1239.1349 4278191360
-33.420185 757.33698 1240.6737 4278200668
-31.033028 757.33698 1240.6737 4278197840
-33.317432 763.23993 1240.4188 4281291130
-30.937614 763.23993 1240.4188 4278190121
-33.317432 765.05933 1241.9529 4279641662
-30.937614 765.05933 1241.9529 4278192160
-28.447706 769.68097 1239.3094 4288457913
-33.188992 771.49335 1240.8376 4286345931
-28.447706 771.49335 1240.8376 4289900484
-33.060551 778.802 1240.46 4281808979
-30.699083 778.802 1240.46 4283848819
-28.337614 777.89929 1239.6989 4290096578
-25.976147 777.89929 1239.6989 4290623178
-61.159634 786.07556 1240.0527 4282406004
-58.807339 786.97473 1240.8108 4282603120
-55.670948 787.27441 1241.0635 4282667383
-42.341286 786.97473 1240.8108 4282929276
-39.988991 786.97473 1240.8108 4282731897
-37.636696 786.97473 1240.8108 4282732403
-35.284405 786.97473 1240.8108 4282666611
-28.755962 754.50665 1244.8274 4278659959
-26.359632 754.50665 1244.8274 4288068351
-23.963303 754.50665 1244.8274 4290626559
-33.420185 759.16193 1242.2124 4281288872
-31.033028 759.16193 1242.2124 4278190166
-28.645872 760.07446 1242.9818 4278190111
-26.258715 760.98694 1243.7512 4278256950
-33.317432 766.87872 1243.4869 4286017441
-30.937614 766.87872 1243.4869 4289570264
-30.818348 773.30573 1242.3658 4288195050
-28.447706 773.30573 1242.3658 4289902822
-26.077065 773.30573 1242.3658 4290100457
-22.521101 775.1181 1243.8939 4284573829
-33.060551 781.51001 1242.7433 4281350502
-30.699083 781.51001 1242.7433 4280824158
-28.337614 781.51001 1242.7433 4280430163
-25.976147 781.51001 1242.7433 4279640647
-23.614679 781.51001 1242.7433 4278591571
-33.060551 783.31543 1244.2656 4281813610
-30.699083 783.31543 1244.2656 4281813610
-28.337614 783.31543 1244.2656 4282074472
-58.807339 789.67224 1243.0853 4282403692
-54.886852 790.27167 1243.5908 4282796914
-51.750458 790.57141 1243.8435 4282993534
-49.398167 790.57141 1243.8435 4283059327
-47.045872 789.67224 1243.0853 4283125123
-44.693577 789.67224 1243.0853 4283125123
-26.359632 756.33862 1246.3721 4286747061
-23.963303 756.33862 1246.3721 4289638884
-26.258715 763.72449 1246.0594 4280165957
-30.937614 768.69812 1245.021 4290161919
-28.447706 776.93048 1245.4221 4281088892
-26.077065 776.93048 1245.4221 4280562292
-22.521101 776.93048 1245.4221 4278327164
-33.060551 785.12079 1245.7878 4282731371
-30.699083 785.12079 1245.7878 4282336613
-28.337614 785.12079 1245.7878 4282205547
-42.50642 786.92615 1247.3101 4283125629
-40.144955 786.92615 1247.3101 4282994044
-37.783485 786.92615 1247.3101 4282994046
-34.241287 786.92615 1247.3101 4283191673
-30.699083 786.92615 1247.3101 4282797164
-28.337614 786.92615 1247.3101 4282336874
-26.258715 766.46198 1248.3677 4286676627
-23.871559 766.46198 1248.3677 4283849853
-23.871559 768.28693 1249.9064 4290358748
-26.077065 781.46143 1249.2424 4282073960
-47.229359 788.73151 1248.8323 4282993794
-43.687157 788.73151 1248.8323 4283059840
-40.144955 788.73151 1248.8323 4283125629
-37.783485 788.73151 1248.8323 4282864254
-34.241287 788.73151 1248.8323 4282930297
-30.699083 788.73151 1248.8323 4283259512
-28.337614 788.73151 1248.8323 4283192174
-34.241287 790.53687 1250.3545 4282799231
-30.699083 790.53687 1250.3545 4282931585
-28.337614 790.53687 1250.3545 4283651969
-23.963303 761.83472 1251.0061 4278191420
-23.798164 777.79504 1252.6913 4281745509
-26.077065 785.08618 1252.2988 4282336870
-23.706423 785.08618 1252.2988 4282402668
-33.060551 792.34222 1251.8767 4282995842
-28.337614 792.34222 1251.8767 4283717514
-21.484404 773.76196 1254.5228 4278788949
-21.484404 775.58698 1256.0615 4280890201
-23.798164 779.61444 1254.2253 4281877350
-21.418348 781.43384 1255.7594 4282402924
-55.710091 787.80475 1254.5909 4282862707
-52.154129 787.80475 1254.5909 4282927999
-49.783485 787.80475 1254.5909 4282994048
-46.227524 787.80475 1254.5909 4282798211
-42.671558 787.80475 1254.5909 4282864254
-40.300919 787.80475 1254.5909 4282930047
-37.930275 787.80475 1254.5909 4282930049
-26.077065 787.80475 1254.5909 4282994296
-23.706423 787.80475 1254.5909 4282795116
-45.042202 789.61713 1256.1191 4283125123
-42.671558 789.61713 1256.1191 4282864254
-40.300919 789.61713 1256.1191 4282930047
-37.930275 789.61713 1256.1191 4282930049
-35.559631 789.61713 1256.1191 4282864256
-30.818348 789.61713 1256.1191 4283192965
-26.077065 789.61713 1256.1191 4283651721
-19.170643 770.99475 1258.7297 4280101200
-21.484404 777.41199 1257.6003 4281350750
-19.097248 779.23694 1259.1392 4281879926
-21.418348 784.16296 1258.0605 4282664814
-49.783485 791.42944 1257.6473 4283191420
-45.042202 791.42944 1257.6473 4283191168
-42.671558 791.42944 1257.6473 4282668158
-40.300919 791.42944 1257.6473 4282668158
-37.930275 791.42944 1257.6473 4282930049
-34.374313 791.42944 1257.6473 4282864256
-30.818348 791.42944 1257.6473 4283127172
-28.447706 791.42944 1257.6473 4283782022
-26.077065 791.42944 1257.6473 4284176780
-37.930275 793.24188 1259.1754 4282930049
-34.374313 793.24188 1259.1754 4282930049
-30.818348 793.24188 1259.1754 4283127172
-28.447706 793.24188 1259.1754 4283454597
-26.077065 793.24188 1259.1754 4283783561
-19.170643 772.82678 1260.2744 4281086301
-16.774311 772.82678 1260.2744 4280888665
-14.377981 772.82678 1260.2744 4279444038
-11.981651 772.82678 1260.2744 4278193457
-19.170643 774.65881 1261.8191 4280628587
-16.774311 774.65881 1261.8191 4279312983
-14.377981 774.65881 1261.8191 4281543486
-10.783486 774.65881 1261.8191 4283256189
-19.097248 782.88696 1262.2168 4282467179
-57.115597 787.80176 1261.1287 4281678447
-54.735779 787.80176 1261.1287 4282599549
-52.355965 787.80176 1261.1287 4282928251
-49.976147 786.89203 1260.3616 4283125375
-47.596329 787.80176 1261.1287 4283191170
-22.608257 787.80176 1261.1287 4283322745
-33.979206 795.65839 1261.213 4282995072
-30.818348 795.96045 1261.4677 4282929793
-28.447706 795.96045 1261.4677 4283126403
-9.6220188 770.06665 1264.4873 4278194487
-16.774311 776.49084 1263.3638 4281682547
-14.377981 776.49084 1263.3638 4284371072
-19.170643 778.32281 1264.9086 4281879660
-16.774311 778.32281 1264.9086 4282471797
-19.097248 784.71198 1263.7555 4282467452
-19.097248 786.53699 1265.2943 4282732918
-54.735779 790.53076 1263.4297 4282665344
-49.976147 790.53076 1263.4297 4282862707
-46.406422 790.53076 1263.4297 4283191422
-42.836697 790.53076 1263.4297 4282864254
-40.456882 790.53076 1263.4297 4282864254
-22.608257 790.53076 1263.4297 4283981438
-49.976147 792.35016 1264.9637 4282470261
-46.406422 792.35016 1264.9637 4282994043
-42.836697 792.35016 1264.9637 4282864254
-40.456882 792.35016 1264.9637 4282864254
-38.077065 792.35016 1264.9637 4283257215
-26.177982 792.35016 1264.9637 4283388804
-23.798164 792.35016 1264.9637 4282995840
-7.2440367 767.30652 1268.7001 4283265687
-12.027523 773.74469 1267.5885 4289700048
-9.6220188 773.74469 1267.5885 4291018727
-7.2165136 772.8252 1266.8132 4288585946
-4.8110094 772.8252 1266.8132 4287734765
-2.4055047 771.90564 1266.038 4289972991
-16.774311 780.15485 1266.4532 4283059573
-52.517429 788.36194 1266.8331 4282862707
-54.904587 790.18695 1268.3719 4282337395
-52.517429 790.18695 1268.3719 4282273139
-21.484404 790.18695 1268.3719 4283785356
-40.456882 794.16956 1266.4978 4283125629
-38.077065 794.16956 1266.4978 4282798209
-35.697247 794.16956 1266.4978 4282929795
-26.177982 794.16956 1266.4978 4282929797
-22.608257 794.16956 1266.4978 4283456139
-49.976147 795.98895 1268.0319 4282534769
-47.596329 795.98895 1268.0319 4282536309
-40.456882 795.98895 1268.0319 4282864254
-38.077065 795.98895 1268.0319 4282864002
-34.507339 795.98895 1268.0319 4282864514
-30.937614 795.98895 1268.0319 4282667391
-28.557798 795.98895 1268.0319 4282864517
-26.177982 795.98895 1268.0319 4282930311
-23.798164 795.98895 1268.0319 4282996358
-45.042202 802.30371 1266.8162 4282600566
-13.230275 775.58368 1269.1392 4286675912
-9.6220188 775.58368 1269.1392 4290952682
-7.2165136 775.58368 1269.1392 4291610612
-4.8110094 775.58368 1269.1392 4290626047
-14.433027 777.42273 1270.6898 4281420933
-7.2165136 777.42273 1270.6898 4287999724
-19.170643 785.65088 1271.0874 4283127674
-16.774311 783.81885 1269.5426 4282798711
-50.130276 792.01196 1269.9108 4282665844
-46.151684 792.6203 1270.4237 4282535800
-42.968807 792.92444 1270.6802 4282929277
-21.484404 793.83698 1271.4495 4283062151
-19.097248 792.92444 1270.6802 4283980933
-45.216515 797.80835 1269.5659 4282928501
-38.077065 797.80835 1269.5659 4282930049
-34.507339 797.80835 1269.5659 4282930049
-30.937614 797.80835 1269.5659 4282864256
-28.557798 797.80835 1269.5659 4282864519
-42.836697 799.62775 1271.1001 4282536570
-40.456882 799.62775 1271.1001 4282668156
-38.077065 799.62775 1271.1001 4282864002
-34.507339 799.62775 1271.1001 4282864002
-30.937614 799.62775 1271.1001 4282929795
-37.930275 805.92847 1269.8724 4282996344
-33.188992 805.92847 1269.8724 4283191422
-4.8477063 764.54633 1272.913 4283794373
-12.073395 774.69067 1274.9263 4282079119
-9.6587152 774.69067 1274.9263 4283262372
-16.838531 779.26178 1272.2404 4282928003
-14.433027 781.10083 1273.791 4283125879
-19.170643 787.48291 1272.6321 4283983494
-52.719265 789.31494 1274.1768 4282139500
-16.774311 789.31494 1274.1768 4284639118
-42.968807 795.66199 1272.9883 4282732668
-40.58165 795.66199 1272.9883 4282864254
-28.645872 797.48694 1274.5271 4282864004
-26.258715 796.57446 1273.7577 4282864262
-22.677982 796.57446 1273.7577 4282995842
-42.836697 801.44714 1272.6342 4282404216
-40.456882 801.44714 1272.6342 4282667645
-38.077065 801.44714 1272.6342 4282864254
-34.903976 802.05353 1273.1455 4282864252
-30.937614 802.35681 1273.4011 4282994816
-14.488073 776.53674 1276.4828 4282142064
-16.838531 782.93982 1275.3417 4282930551
-16.838531 784.77881 1276.8922 4284312202
-16.774311 791.14691 1275.7214 4282994296
-19.170643 792.97894 1277.2662 4282930049
-16.774311 792.97894 1277.2662 4282535292
-28.645872 799.31195 1276.0659 4282864004
-26.258715 799.31195 1276.0659 4282864004
-22.677982 799.31195 1276.0659 4282929798
-28.645872 801.13696 1277.6047 4282864004
-34.507339 805.08594 1275.7023 4282864251
-12.119267 773.81165 1280.7252 4281878892
-9.6954126 773.81165 1280.7252 4282143611
-7.2715597 773.81165 1280.7252 4286880707
-14.488073 780.22882 1279.5958 4283389306
-13.230275 788.45691 1279.9935 4282598239
-19.170643 794.81097 1278.8109 4282864002
-16.774311 794.81097 1278.8109 4282929795
-14.377981 794.81097 1278.8109 4283323008
-19.170643 796.64294 1280.3556 4283127172
-16.774311 796.64294 1280.3556 4283192965
-14.377981 796.64294 1280.3556 4283717262
-11.981651 796.64294 1280.3556 4283585676
-31.033028 802.96198 1279.1434 4282864254
-33.420185 804.78699 1280.6823 4282930301
-12.119267 775.66467 1282.2877 4282994550
-9.6954126 775.66467 1282.2877 4281944438
-12.119267 777.5177 1283.8501 4283257463
-14.488073 782.07483 1281.1523 4284573827
-14.488073 783.9209 1282.709 4284508271
-13.230275 790.2959 1281.5442 4282072927
-12.027523 792.13495 1283.0947 4283191422
-9.6220188 792.13495 1283.0947 4282862959
-28.755962 800.30701 1283.4451 4282864004
-26.359632 799.39099 1282.6726 4282864004
-22.765137 799.39099 1282.6726 4282929797
-19.170643 799.39099 1282.6726 4283061379
-16.774311 799.39099 1282.6726 4283127172
-14.377981 799.39099 1282.6726 4283257989
-11.981651 799.39099 1282.6726 4283323782
-33.420185 806.61194 1282.2211 4282798711
-31.033028 806.61194 1282.2211 4282798711
-34.613762 808.43701 1283.7599 4282339959
-31.033028 808.43701 1283.7599 4282668408
-4.8697248 770.5415 1285.8162 4289047013
-12.119267 779.37079 1285.4126 4283850104
-9.6954126 779.37079 1285.4126 4284046464
-12.119267 781.22388 1286.9751 4284047720
-9.6954126 781.22388 1286.9751 4284046718
-9.6587152 785.76697 1284.2655 4281874014
-9.6587152 787.61298 1285.822 4280956244
-9.6220188 793.974 1284.6454 4283257213
-7.2165136 793.974 1284.6454 4283191420
-4.8110094 793.974 1284.6454 4284044682
-9.6220188 795.81299 1286.196 4282995842
-7.2165136 795.81299 1286.196 4282798463
-4.8110094 795.81299 1286.196 4284503685
-31.152294 802.13904 1284.9897 4282864508
-28.755962 803.05505 1285.7621 4282864000
-26.359632 803.05505 1285.7621 4282929793
-22.765137 803.05505 1285.7621 4282929797
-19.170643 803.05505 1285.7621 4282995842
-16.774311 803.05505 1285.7621 4283061635
-14.377981 803.05505 1285.7621 4283192965
-7.3045874 772.40302 1287.3857 4282931333
-4.8697248 772.40302 1287.3857 4283785638
-9.7394495 774.26447 1288.9552 4282994048
-7.3045874 774.26447 1288.9552 4282927999
-4.8697248 774.26447 1288.9552 4282667395
-7.2715597 783.0769 1288.5375 4281150290
-7.2440367 789.45898 1287.3785 4282862959
-4.8293576 789.45898 1287.3785 4283651962
-2.4146788 790.38202 1288.1567 4284308873
-9.6220188 797.65204 1287.7466 4283127174
-7.2165136 797.65204 1287.7466 4282995845
-4.8110094 797.65204 1287.7466 4284571524
-2.4055047 797.65204 1287.7466 4288716483
-12.027523 799.49109 1289.2972 4283192965
-9.6220188 799.49109 1289.2972 4282864004
-7.2165136 799.49109 1289.2972 4282864004
-4.8110094 799.49109 1289.2972 4284639120
-2.4055047 799.49109 1289.2972 4287599806
13.230275 799.49109 1289.2972 4291940093
-28.755962 805.80304 1288.0791 4282668156
-26.359632 805.80304 1288.0791 4282668156
-22.765137 805.80304 1288.0791 4282930049
-19.170643 805.80304 1288.0791 4282930562
-34.746788 807.63507 1289.6239 4282074994
-31.152294 807.63507 1289.6239 4282536318
-21.566973 807.63507 1289.6239 4282799493
-19.170643 807.63507 1289.6239 4282995842
-7.3045874 776.12592 1290.5248 4284046464
-4.8697248 776.12592 1290.5248 4282536822
-7.3045874 777.98743 1292.0944 4283717753
-4.8697248 777.98743 1292.0944 4282733418
-7.2715597 784.92993 1290.1 4280429900
-4.8477063 784.92993 1290.1 4280234344
0 786.78302 1291.6624 4284965519
-2.4146788 793.15112 1290.4916 4287201197
0.80489296 794.38184 1291.5293 4287794867
7.2440367 794.99713 1292.0481 4285626529
9.6587152 794.99713 1292.0481 4286547660
13.280734 794.99713 1292.0481 4291678975
-16.838531 803.16913 1292.3984 4282996356
-12.829358 802.55615 1291.8816 4283127172
-9.6220188 802.24963 1291.6232 4283061639
-7.2165136 802.24963 1291.6232 4282864516
-4.8110094 802.24963 1291.6232 4282210179
-2.4055047 802.24963 1291.6232 4284578471
7.2165136 803.16913 1292.3984 4291743481
-33.548622 809.46704 1291.1686 4281682285
-31.152294 809.46704 1291.1686 4282142836
-33.548622 811.29907 1292.7133 4282336874
-2.4440367 772.48767 1293.9972 4284970400
-4.8697248 779.84888 1293.6639 4280038737
-2.4348624 779.84888 1293.6639 4282802043
-2.4348624 781.71033 1295.2334 4283129237
1.2119266 788.63611 1293.2249 4284701827
7.2715597 788.63611 1293.2249 4284905134
2.4238532 790.48914 1294.7874 4287333801
4.8477063 790.48914 1294.7874 4286941608
7.2715597 790.48914 1294.7874 4285823126
9.6954126 790.48914 1294.7874 4286613953
12.119267 790.48914 1294.7874 4291417087
1.2073394 796.8432 1293.6047 4287271867
4.8293576 796.8432 1293.6047 4287206595
7.2440367 796.8432 1293.6047 4287403717
9.6587152 796.8432 1293.6047 4290161885
1.2073394 798.68921 1295.1613 4287929032
4.8293576 798.68921 1295.1613 4290558424
7.2440367 798.68921 1295.1613 4290426838
9.6587152 798.68921 1295.1613 4289968127
12.073395 798.68921 1295.1613 4291349503
16.902752 798.68921 1295.1613 4291218682
-28.866055 805.92767 1294.7244 4282732666
-25.257797 805.92767 1294.7244 4282733181
-21.649542 806.84717 1295.4998 4282799744
-19.244038 806.84717 1295.4998 4282995842
-16.838531 805.92767 1294.7244 4283061379
-13.230275 805.92767 1294.7244 4283127174
-9.6220188 805.92767 1294.7244 4283388801
-7.2165136 805.92767 1294.7244 4283651973
-4.8110094 805.92767 1294.7244 4283323783
-2.4055047 805.92767 1294.7244 4283323783
7.2165136 805.92767 1294.7244 4292269823
-2.4440367 775.29034 1296.3604 4282470502
0 777.15887 1297.9358 4282997400
2.4348624 783.57184 1296.803 4284570761
4.8697248 785.43329 1298.3726 4283260309
9.7394495 785.43329 1298.3726 4287206104
12.174312 785.43329 1298.3726 4291153919
4.8477063 792.34216 1296.3497 4286679217
1.2073394 800.53528 1296.7178 4289373652
4.8293576 800.53528 1296.7178 4292598783
9.6587152 800.53528 1296.7178 4291218430
12.073395 800.53528 1296.7178 4291284223
16.902752 800.53528 1296.7178 4291548159
19.31743 800.53528 1296.7178 4291415807
1.2073394 802.38135 1298.2743 4288322256
4.8293576 802.38135 1298.2743 4292860671
9.6587152 802.38135 1298.2743 4292203775
-31.271559 808.68622 1297.0503 4282468717
-28.866055 808.68622 1297.0503 4282272889
-25.257797 808.68622 1297.0503 4282864508
-21.649542 808.68622 1297.0503 4282864504
-19.244038 808.68622 1297.0503 4282864769
-16.838531 808.68622 1297.0503 4282733440
-13.230275 808.68622 1297.0503 4283061129
-9.6220188 808.68622 1297.0503 4283388550
-7.2165136 808.68622 1297.0503 4283585928
-4.8110094 808.68622 1297.0503 4283192717
-2.4055047 808.68622 1297.0503 4283192717
-31.271559 810.52527 1298.601 4282468717
-28.866055 810.52527 1298.601 4281878645
-25.257797 810.52527 1298.601 4282667898
-21.649542 810.52527 1298.601 4282996344
-19.244038 810.52527 1298.601 4282864254
-16.838531 810.52527 1298.601 4282930047
-13.230275 810.52527 1298.601 4283061638
-7.2165136 810.52527 1298.601 4283192965
-4.8110094 810.52527 1298.601 4283126920
-2.4055047 810.52527 1298.601 4283587471
0 770.71783 1299.0452 4283720624
0 772.59332 1300.6265 4282734485
1.2220184 779.02734 1299.5114 4284180382
4.8880734 780.89581 1301.0868 4282472329
7.3321099 780.89581 1301.0868 4286024894
14.543119 796.04828 1299.4746 4291350268
1.2073394 805.15033 1300.6091 4283456920
4.8293576 805.15039 1300.6091 4287862722
7.2440367 806.07336 1301.3873 4291415783
9.6587152 804.22736 1299.8308 4292531967
-28.866055 812.36426 1300.1516 4282205043
-25.257797 812.36426 1300.1516 4282666358
-21.649542 812.36426 1300.1516 4282996344
-19.244038 812.36426 1300.1516 4282930301
-16.838531 812.36426 1300.1516 4282864508
-13.230275 812.36426 1300.1516 4282930049
-9.6220188 812.36426 1300.1516 4283127172
-7.2165136 812.36426 1300.1516 4283259014
-4.8110094 812.36426 1300.1516 4283127946
-28.866055 814.20331 1301.7021 4282139500
-25.257797 814.20331 1301.7021 4282535030
-21.649542 814.20331 1301.7021 4282601852
-19.244038 814.20331 1301.7021 4282864508
-16.838531 814.20331 1301.7021 4282864508
-14.433027 814.20331 1301.7021 4282995842
2.4532111 774.46881 1302.2079 4284115882
4.9064221 776.34436 1303.7893 4283655846
7.359633 776.34436 1303.7893 4288524785
13.331193 799.75439 1302.5996 4291941631
16.966972 799.75439 1302.5996 4292008447
19.390825 799.75439 1302.5996 4291810815
12.119267 801.60742 1304.162 4292071423
16.966972 801.60742 1304.162 4288916699
19.390825 801.60742 1304.162 4287273686
-9.6587152 807.91943 1302.9438 4283259014
-2.4146788 809.7655 1304.5005 4283588497
1.2073394 808.84247 1303.7222 4283456653
4.8293576 807.91943 1302.9438 4283192463
7.2440367 807.91943 1302.9438 4283784856
4.9247708 771.77887 1306.4799 4284117433
14.609175 794.74066 1306.2202 4291350783
9.6954126 803.46051 1305.7245 4290757375
9.6954126 805.3136 1307.2869 4282080164
-12.073395 811.61151 1306.057 4283127172
-9.6587152 811.61151 1306.057 4283192965
-7.2440367 811.61151 1306.057 4283390600
-4.8293576 811.61151 1306.057 4282997639
-2.4146788 811.61151 1306.057 4283392397
-21.732111 813.45758 1307.6135 4282404466
-19.31743 813.45758 1307.6135 4282142332
-16.902752 813.45758 1307.6135 4282471297
-13.280734 813.45758 1307.6135 4282929795
-7.2440367 813.45758 1307.6135 4283390859
-2.4146788 813.45758 1307.6135 4283785869
9.8495417 775.54388 1309.6545 4288061935
14.609175 798.46362 1309.3594 4290692854
1.2119266 809.01965 1310.4117 4283588749
4.8477063 808.09314 1309.6306 4283325325
7.2715597 808.09314 1309.6306 4283259532
12.174312 802.18652 1312.4984 4282606508
-21.814678 812.72583 1313.5366 4282010994
-19.390825 812.72583 1313.5366 4282470009
-13.331193 812.72583 1313.5366 4282930047
-9.6954126 810.87274 1311.9742 4282930309
-7.2715597 812.72583 1313.5366 4283194248
-4.8477063 811.79932 1312.7554 4283325063
-2.4238532 812.72583 1313.5366 4283456393
1.2119266 810.87274 1311.9742 4283719563
4.8477063 810.87274 1311.9742 4283456657
7.2715597 810.87274 1311.9742 4283785365
13.442202 797.71222 1315.2659 4287602646
17.108257 797.71222 1315.2659 4284711087
19.552294 797.71222 1315.2659 4280504249
14.66422 799.58069 1316.8413 4282674613
17.108257 799.58069 1316.8413 4282542771
19.552294 799.58069 1316.8413 4279846805
9.7394495 804.97876 1314.8528 4284834704
12.174312 804.97876 1314.8528 4288321476
22.078899 795.0993 1319.603 4280241333
24.53211 795.0993 1319.603 4279579011
14.66422 802.38342 1319.2046 4288781284
17.108257 802.38342 1319.2046 4286938824
19.552294 801.44922 1318.4169 4282600626
21.99633 801.44922 1318.4169 4282337197
-17.044037 809.63245 1318.7766 4282864767
-9.7394495 809.63245 1318.7766 4282667904
1.2174312 809.63245 1318.7766 4283522188
4.8697248 809.63245 1318.7766 4283456657
7.3045874 809.63245 1318.7766 4283983001
9.7394495 808.70172 1317.9918 4286740130
22.078899 796.97485 1321.1843 4279452303
24.53211 796.97485 1321.1843 4279775611
24.53211 798.85034 1322.7657 4283913374
13.442202 805.18616 1321.5677 4289831398
-21.913761 811.4939 1320.3462 4282141810
-19.478899 811.4939 1320.3462 4282272889
-17.044037 811.4939 1320.3462 4282996356
-13.391743 811.4939 1320.3462 4282930301
-9.7394495 811.4939 1320.3462 4282995842
-7.3045874 811.4939 1320.3462 4283390600
-4.8697248 811.4939 1320.3462 4283324807
-2.4348624 811.4939 1320.3462 4283390600
2.4348624 811.4939 1320.3462 4283653520
4.8697248 811.4939 1320.3462 4283588243
7.3045874 811.4939 1320.3462 4284311965
-14.609175 813.35541 1321.9156 4282930301
-7.3045874 813.35541 1321.9156 4283324805
-4.8697248 813.35541 1321.9156 4283193987
-2.4348624 813.35541 1321.9156 4283457159
19.625689 800.72583 1324.3472 4285885326
22.078899 800.72583 1324.3472 4290359250
24.53211 800.72583 1324.3472 4291087098
17.172478 802.60132 1325.9285 4285291442
19.625689 802.60132 1325.9285 4284505983
22.078899 802.60132 1325.9285 4290493146
0 808.9231 1324.7186 4283456142
9.7761469 808.9231 1324.7186 4286743445
13.034863 807.67749 1323.6683 4289110732
-2.4348624 815.21686 1323.4852 4283390600
17.172478 804.47681 1327.5099 4285821110
19.625689 804.47681 1327.5099 4287007375
22.078899 804.47681 1327.5099 4290625990
-19.552294 811.72583 1327.0819 4282730868
-17.108257 810.79163 1326.2942 4283257215
-13.034863 812.03729 1327.3445 4282929791
-9.7761469 811.72583 1327.0819 4283061632
-7.3321099 812.6601 1327.8696 4283127424
-4.8880734 812.6601 1327.8696 4283127172
1.2220184 811.72583 1327.0819 4283587724
4.8880734 811.72583 1327.0819 4283719311
7.3321099 811.72583 1327.0819 4284114326
9.7761469 811.72583 1327.0819 4283327123
12.220183 811.72583 1327.0819 4282142593
14.719266 806.35229 1329.0912 4287794868
17.172478 806.35229 1329.0912 4286873766
19.625689 806.35229 1329.0912 4288127456
22.078899 806.35229 1329.0912 4289509109
14.719266 808.22784 1330.6726 4285820324
17.172478 808.22784 1330.6726 4290886385
19.625689 808.22784 1330.6726 4289186027
22.078899 808.22784 1330.6726 4287080650
-17.108257 814.52856 1329.4451 4282993523
-13.442202 814.52856 1329.4451 4282667389
-2.4440367 814.52856 1329.4451 4283390598
2.4440367 814.52856 1329.4451 4283851149
7.3321099 814.52856 1329.4451 4284311961
-24.440367 816.39709 1331.0205 4282731373
-21.99633 816.39709 1331.0205 4282797166
-19.552294 816.39709 1331.0205 4282796914
-13.442202 816.39709 1331.0205 4283125627
24.623854 803.78162 1333.4637 4290032332
-17.172478 810.10333 1332.2539 4282862707
-9.8128443 811.97882 1333.8353 4283259260
-7.359633 811.97882 1333.8353 4283127674
0 811.97882 1333.8353 4283456391
4.9064221 811.97882 1333.8353 4283851410
9.8128443 811.97882 1333.8353 4283853211
13.901528 811.3537 1333.3082 4282209420
17.172478 811.04108 1333.0447 4289381105
19.625689 811.04108 1333.0447 4290494430
-14.66422 818.26556 1332.5959 4282994550
24.623854 805.66412 1335.051 4282869144
22.161469 807.54663 1336.6384 4289046972
24.623854 807.54663 1336.6384 4285494218
-17.172478 813.85437 1335.4167 4282862707
2.4532111 813.85437 1335.4167 4283982740
4.9064221 813.85437 1335.4167 4284113556
7.359633 813.85437 1335.4167 4284837022
9.8128443 813.85437 1335.4167 4283918741
12.266055 813.85437 1335.4167 4281418607
24.825687 794.32996 1339.8827 4292662015
28.549541 794.32996 1339.8827 4292334585
32.273396 794.32996 1339.8827 4285427857
-4.9247708 809.42914 1338.2256 4282995840
22.161469 809.42914 1338.2256 4290428905
24.623854 809.42914 1338.2256 4290360545
27.086239 809.42914 1338.2256 4286873516
-9.8495417 811.31165 1339.813 4283389306
-7.387156 811.31165 1339.813 4283389306
-2.4623854 811.31165 1339.813 4283783561
0 811.31165 1339.813 4283456395
14.774312 811.31165 1339.813 4282729082
17.236698 811.31165 1339.813 4287466434
19.699083 811.31165 1339.813 4290621400
22.161469 811.31165 1339.813 4290358485
24.623854 811.31165 1339.813 4288653511
27.086239 811.31165 1339.813 4286284963
24.53211 817.60535 1338.5795 4283917948
15.19266 755.2063 1342.2115 4291612415
24.825687 796.22791 1341.483 4292135927
28.422935 805.93463 1341.8193 4284702120
-2.4623854 813.19415 1341.4003 4283717512
1.2311927 813.19415 1341.4003 4283653774
7.387156 814.13538 1342.1938 4284837788
9.8495417 814.13538 1342.1938 4283851922
13.543119 814.13538 1342.1938 4283783559
17.236698 814.13538 1342.1938 4290360545
19.699083 814.13538 1342.1938 4290295271
22.161469 814.13538 1342.1938 4286742192
24.623854 813.19415 1341.4003 4281227915
28.317432 814.13538 1342.194 4281292654
32.011009 814.13538 1342.1938 4282152834
28.655045 793.65015 1345.8496 4292531196
32.392662 793.65015 1345.8496 4292268542
34.884403 793.65015 1345.8496 4288525294
27.308256 800.0238 1344.6836 4283000731
29.790825 801.92175 1346.2839 4284435089
-4.943119 808.76892 1344.2091 4283388804
29.658716 808.76892 1344.2091 4287205591
-7.4146791 810.65845 1345.8022 4283257465
-4.943119 810.65845 1345.8022 4283323010
4.943119 810.65845 1345.8022 4284113554
13.543119 817.90051 1345.3684 4283983775
17.236698 817.90045 1345.3684 4284512680
19.699083 817.90045 1345.3684 4285495509
22.161469 817.90045 1345.3684 4287337457
24.623854 817.90045 1345.3684 4289900762
28.31743 817.90051 1345.3684 4291545841
29.070335 796.19 1347.9912 4289240012
32.392662 796.50757 1348.2589 4289567445
34.884403 796.50757 1348.2589 4287401690
37.376148 797.46002 1349.062 4284967097
-7.4146791 812.54797 1347.3955 4283125627
-4.943119 812.54797 1347.3955 4283191168
-2.4715595 812.54797 1347.3955 4283717512
1.2357798 812.54797 1347.3955 4283521934
4.943119 812.54797 1347.3955 4284114319
-4.943119 814.4375 1348.9886 4283256961
-2.4715595 814.4375 1348.9886 4283585926
1.2357798 814.4375 1348.9886 4283324555
4.943119 814.4375 1348.9886 4283851149
7.4146791 814.4375 1348.9886 4287469764
9.8862381 814.4375 1348.9886 4287011278
22.871559 758.35883 1351.4097 4291349757
32.392662 799.36499 1350.6682 4284829847
34.884403 799.36499 1350.6682 4285028743
32.392662 801.26996 1352.2744 4291278581
34.884403 801.26996 1352.2744 4291474914
-4.943119 816.32703 1350.5819 4283323010
-2.4715595 817.27179 1351.3784 4283388803
2.4715595 817.27179 1351.3784 4283126405
13.593578 818.21655 1352.175 4291546360
17.300917 818.21655 1352.175 4291875830
19.772476 818.21655 1352.175 4292269823
22.244038 818.21655 1352.175 4292335615
24.715597 818.21655 1352.175 4292335615
28.422935 818.21655 1352.175 4291941119
32.392662 803.17493 1353.8806 4291153151
34.884403 803.17493 1353.8806 4290097663
0 813.30945 1355.8857 4283324555
4.9651375 813.30945 1355.8857 4283324807
7.4477062 813.30945 1355.8857 4288127696
9.930275 813.30945 1355.8857 4288716265
-2.4715595 820.10608 1353.7683 4283848834
2.4715595 820.10608 1353.7683 4282927999
13.593578 820.10608 1353.7683 4292137720
24.715597 820.10608 1353.7683 4292269567
28.422935 820.10608 1353.7683 4292007166
17.866055 755.17285 1356.5718 4291941119
20.418348 755.17285 1356.5718 4291349757
25.522936 755.17285 1356.5718 4291547133
28.07523 755.17285 1356.5718 4291810303
25.522936 757.12415 1358.2169 4291217916
0 815.2074 1357.486 4283454599
4.9651375 815.2074 1357.486 4282339455
7.4477062 815.2074 1357.486 4288655839
9.930275 815.2074 1357.486 4290887931
7.4146791 823.88513 1356.9547 4289708287
0 817.10535 1359.0863 4283585928
4.9651375 817.10535 1359.0863 4282798209
7.4477062 817.10535 1359.0863 4288982751
9.930275 817.10535 1359.0863 4292006637
17.377981 817.10535 1359.0863 4292663807
19.86055 817.10535 1359.0863 4292532991
22.343119 817.10535 1359.0863 4292401663
4.9651375 819.0033 1360.6866 4283257717
7.4477062 819.0033 1360.6866 4289771224
9.930275 819.0033 1360.6866 4291547133
13.654128 819.0033 1360.6866 4291217657
17.377981 819.0033 1360.6866 4291414780
19.86055 819.0033 1360.6866 4291611643
22.343119 819.0033 1360.6866 4292072191
24.825687 819.0033 1360.6866 4291941119
28.549541 819.0033 1360.6866 4291810303
9.930275 820.90125 1362.2869 4291809533
13.654128 820.90125 1362.2869 4291283447
17.377981 820.90125 1362.2869 4291020020
24.825687 820.90125 1362.2869 4291941375
28.549541 820.90125 1362.2869 4291613183
4.9651375 822.79913 1363.8872 4287201951
7.4477062 822.79913 1363.8872 4291741669
9.930275 822.79913 1363.8872 4291743227
24.825687 822.79913 1363.8872 4291349503
19.933945 818.41455 1366.7303 4291282428
22.425688 818.41455 1366.7303 4291940351
7.4477062 824.69708 1365.4874 4291546623
9.930275 824.69708 1365.4874 4291612663
13.704587 820.31952 1368.3365 4291283190
17.442202 820.31952 1368.3365 4291151862
19.933945 820.31952 1368.3365 4291085815
22.425688 820.31952 1368.3365 4291480573
13.704587 822.22449 1369.9427 4291086579
17.442202 822.22449 1369.9427 4291218168
19.933945 822.22449 1369.9427 4291218168
