# .PCD v0.7 - Point Cloud Data file format
VERSION 0.7
FIELDS x y z rgb
SIZE 4 4 4 4
TYPE F F F U
COUNT 1 1 1 1
WIDTH 1065
HEIGHT 1
VIEWPOINT 0 0 0 1 0 0 0
POINTS 1065
DATA ascii
28.13578 765.56335 725.70605 4292403455
31.445871 765.56335 725.70605 4292470271
33.92844 765.56335 725.70605 4292601599
37.238533 765.56335 725.70605 4293192703
21.587156 764.41089 728.65833 4291746559
25.461775 763.56451 727.94464 4291943423
29.889908 763.14136 727.58789 4292338943
33.21101 764.41089 728.65833 4292798975
38.192661 764.41089 728.65833 4292864767
39.85321 764.41089 728.65833 4292864767
19.033028 766.82867 726.77283 4291220223
23.170643 766.82867 726.77283 4291877887
26.480734 766.82867 726.77283 4292075263
28.963303 766.82867 726.77283 4292207103
31.445871 766.82867 726.77283 4292667647
34.755962 766.82867 726.77283 4292864767
36.411011 766.82867 726.77283 4292930559
14.06789 768.09399 727.83972 4290825727
16.550459 768.09399 727.83972 4291088895
19.033028 768.72668 728.37317 4291484159
22.343121 768.72668 728.37317 4291681279
25.65321 768.72668 728.37317 4292076031
28.963303 768.72668 728.37317 4292273151
31.445871 768.72662 728.37317 4292667647
34.755962 768.09399 727.83972 4292799743
38.277065 764.07129 730.98804 4292930559
16.605505 766.94989 730.79919 4290892287
33.764526 766.52679 730.44238 4292733951
36.532108 766.31519 730.26398 4292930815
16.605505 768.21936 731.86951 4290760447
19.033028 770.62457 729.97351 4291484415
22.343121 770.62457 729.97351 4291419135
25.65321 770.62457 729.97351 4291945215
28.963303 770.62457 729.97351 4292470783
31.445871 770.62457 729.97351 4292733951
34.041283 768.21936 731.86951 4292996351
36.532108 768.21936 731.86951 4292996607
19.033028 771.88983 731.04028 4291550207
22.343121 771.88983 731.04028 4291549951
25.65321 771.88983 731.04028 4292010495
28.963303 771.88983 731.04028 4292536575
31.445871 771.88983 731.04028 4292733951
33.100918 771.88983 731.04028 4292930559
26.422018 775.38416 731.37061 4292404479
8.3394499 763.73737 733.32263 4290234623
10.841284 763.73737 733.32263 4290365695
41.141285 762.88727 732.60577 4292799743
43.365139 763.73737 733.32263 4292733951
11.102139 766.50555 733.9126 4290497535
13.979449 766.36145 732.91913 4291023103
38.277065 765.9798 732.59723 4292864767
40.642937 766.229 733.85388 4292602111
43.317432 766.45032 734.30206 4292602367
11.623854 770.75842 734.01038 4291416831
14.391438 770.33527 733.65356 4290958079
16.605505 769.48889 732.93994 4290629375
34.871559 769.48889 732.93994 4293128191
37.362385 770.12366 733.47516 4292865023
16.550459 773.15515 732.10718 4291220735
19.033028 773.15515 732.10718 4291615487
22.343121 773.15515 732.10718 4291812863
24.825687 773.15515 732.10718 4292273151
28.963303 773.15515 732.10718 4292733183
31.445871 773.15515 732.10718 4292930559
33.92844 773.15515 732.10718 4292865535
19.033028 775.0531 733.70752 4291616255
22.343121 775.0531 733.70752 4291944959
25.377371 775.26398 733.88531 4292339199
28.963303 775.0531 733.70752 4292536319
31.445871 775.0531 733.70752 4292865279
33.92844 775.0531 733.70752 4292865535
36.411011 775.0531 733.70752 4292668671
7.2513757 763.03369 736.65338 4290496767
8.3394499 766.92517 736.01044 4290429942
10.007339 766.2876 735.4729 4290957311
7.5055046 768.83777 737.62317 4285435071
9.985321 769.79669 735.81555 4288918527
40.773392 769.79675 735.81555 4292667903
43.269726 769.79669 735.81555 4292404735
11.086239 771.81281 736.64337 4289116909
14.114679 772.66266 735.61603 4291221503
16.605505 772.66266 735.61603 4291287551
38.192661 772.66266 735.61603 4292537087
40.773392 771.7052 737.42468 4292537087
43.269726 771.7052 737.42468 4292470527
14.944954 774.56689 737.22168 4291418879
16.605505 774.56689 737.22168 4291287807
19.033028 776.95105 735.30774 4291748095
22.343121 776.95105 735.30774 4291878911
25.65321 776.95105 735.30774 4292536319
28.963303 776.95105 735.30774 4292602111
31.445871 776.95105 735.30774 4293062655
33.92844 776.95105 735.30774 4292865279
37.301834 775.75897 736.26471 4292733951
39.85321 774.56689 737.22168 4292733951
22.343121 778.21631 736.37463 4292010495
25.653212 778.849 736.90808 4292602111
28.963303 778.849 736.90808 4292865023
31.445871 778.849 736.90808 4292996607
33.92844 778.849 736.90808 4292996607
37.238533 778.849 736.90808 4292602111
6.6935778 766.44531 739.52991 4283454610
8.3394499 770.11292 738.69836 4279770480
8.3394499 771.38806 739.77344 4279573071
10.81743 772.97748 738.49756 4286952157
13.313762 772.97748 738.49756 4291879423
41.605503 772.97748 738.49756 4292339199
43.365139 771.38806 739.77344 4292273151
8.3211012 774.88593 740.10669 4280235352
10.81743 774.88586 740.10669 4287869153
14.145872 774.88593 740.10669 4292142335
16.605505 775.83643 738.29211 4291287807
19.096329 775.83643 738.29211 4291813887
40.729355 775.04309 738.93121 4292536319
43.269726 774.24976 739.57031 4292535807
16.605505 777.10596 739.36243 4291944959
19.096329 777.74072 739.89764 4292076287
22.417431 777.74072 739.89758 4292339455
40.960243 777.52911 739.71924 4292536319
25.65321 780.74695 738.50842 4292602111
28.687462 781.1687 738.86401 4292931071
31.445871 781.37958 739.04181 4293194239
33.92844 780.74695 738.50842 4293062655
36.962692 781.1687 738.86401 4292733439
39.7211 780.74695 738.50842 4292470527
6.6935778 769.00391 741.68726 4278190118
8.3211012 776.79443 741.71582 4282338660
10.830275 776.00391 742.35736 4286089169
14.160551 776.00391 742.35736 4289713407
16.642202 776.79443 741.71582 4292470783
8.3211012 778.06671 742.78857 4283259264
9.985321 778.06671 742.78857 4283459207
16.642202 778.06671 742.78857 4292668927
19.127522 779.09747 743.00366 4291879423
22.442204 779.49194 742.68237 4292404991
25.738533 779.6449 741.5033 4292601855
29.889908 779.6449 741.5033 4292996607
34.041283 779.6449 741.5033 4292997119
38.192661 779.6449 741.5033 4292602367
40.466663 779.01691 742.71777 4292404735
25.738533 780.91443 742.57373 4292733183
29.059633 781.54919 743.10895 4293390847
31.550459 781.54919 743.10895 4293325311
33.764526 781.33759 742.93048 4292865279
37.362385 780.91443 742.57373 4292602111
39.85321 782.18396 743.64417 4292536319
11.675229 776.48853 744.07397 4284380309
13.34312 776.48853 744.07397 4283463142
15.011009 776.48853 744.07397 4290634239
43.365139 776.48853 744.07397 4292930559
10.841284 777.76361 745.14917 4279315298
13.34312 778.40118 745.68677 4278192992
15.844955 778.40118 745.68677 4290565375
41.697247 778.40118 745.68677 4292602111
19.138531 780.61133 744.9342 4292141823
22.466972 781.2475 745.47058 4292536063
25.795414 781.24756 745.47058 4292733439
29.123852 781.88367 746.00696 4293062655
34.393887 781.45953 745.64941 4292667903
37.444954 781.2475 745.47058 4292602111
39.941284 781.88367 746.00696 4292667903
31.550459 783.45343 744.71448 4292931327
7.5467887 773.8252 748.36853 4282798977
10.888073 775.89355 748.8045 4279313233
43.508255 775.40051 747.08081 4293062399
11.713761 777.95917 749.23816 4278191668
13.387156 777.95917 749.23816 4278195032
15.844955 780.95142 747.83704 4291092479
19.180733 781.58893 748.37457 4292536063
22.794495 782.43903 749.09131 4292404479
25.852293 782.2265 748.91217 4292668159
28.354128 782.86407 749.44971 4292799999
30.855965 782.86407 749.44971 4292865535
34.469727 782.43903 749.09131 4292470527
37.527523 782.86407 749.44971 4292470527
41.280277 781.90771 748.64331 4292799743
21.634863 783.15594 747.07971 4292470015
29.123852 783.15594 747.07971 4292996863
31.620184 783.15594 747.07971 4292799743
33.284405 783.15594 747.07971 4292668159
37.444954 783.15594 747.07971 4292602111
39.941284 783.15594 747.07971 4292667903
5.0587158 771.17584 752.6748 4282734210
7.5788989 771.96216 752.02972 4282798979
10.095413 774.03479 752.46924 4280700026
11.713761 779.23853 750.31689 4278190389
13.387156 779.23853 750.31689 4278197601
11.713761 780.51782 751.39551 4278190882
13.387156 781.15747 751.93488 4278200160
15.897248 781.15753 751.93488 4291225855
19.458715 784.56427 750.8833 4292601343
22.516514 784.77679 751.0625 4292338431
25.852295 784.77679 751.0625 4292601599
28.354128 784.77673 751.0625 4293061887
30.855965 784.77673 751.0625 4292865023
34.191742 784.13922 750.5249 4292667903
37.527523 784.77673 751.0625 4292601855
40.585323 784.98926 751.2417 4292602111
37.527523 786.68945 752.67517 4292404735
40.029358 786.68945 752.67517 4292273151
5.0752292 770.11029 755.70044 4282999949
7.8691125 772.89471 754.12402 4283392654
10.117432 773.75409 754.84875 4280699261
7.5880733 775.04327 755.93567 4283460243
10.117432 775.04327 755.93567 4280568940
18.447706 782.80011 755.93591 4293390079
11.713761 783.07648 753.55298 4278199354
13.387156 783.07648 753.55298 4280042864
15.897248 783.07648 753.55298 4292275711
19.244038 783.71619 754.09229 4292929791
22.590824 784.99548 755.17102 4292602111
25.937614 784.99548 755.17096 4292601855
28.447706 784.99548 755.17096 4292601855
30.957798 784.99548 755.17096 4292601599
34.304588 784.35577 754.63165 4292470527
37.651375 785.63513 755.71033 4292536319
40.029358 787.96454 753.75037 4292010495
5.0752292 772.69702 757.88153 4283590290
7.612844 772.69702 757.88153 4283393937
10.150458 773.99036 758.97205 4279453292
6.7449541 776.3324 757.02271 4283460248
11.80367 776.3324 757.02271 4278191403
13.46055 781.10962 758.43463 4284644264
15.984404 781.10962 758.43469 4293457919
19.56575 784.50958 757.37726 4293062399
22.640366 785.36438 758.09802 4292799743
25.994495 785.36438 758.09802 4292470527
28.447706 786.91443 756.78906 4292470271
30.957798 786.91443 756.78906 4292535807
34.304588 786.91443 756.78906 4292536319
37.651375 786.91443 756.78906 4292602111
40.998165 786.91443 756.78906 4292404479
3.390826 772.42896 760.27155 4284116128
5.0752292 775.28369 760.0625 4284313258
7.612844 775.93042 760.60779 4284903603
10.150458 775.93042 760.60779 4280831086
11.80367 778.91071 759.19666 4279052376
11.80367 780.19983 760.28357 4285361320
13.489908 781.48895 761.37061 4286617576
16.019266 781.48895 761.37061 4292997887
19.349541 783.68231 760.60382 4285435596
22.71468 784.3255 761.14612 4290964991
25.238533 784.3255 761.14612 4292339199
26.833027 786.64648 759.17908 4292207103
28.510092 786.64648 759.17908 4292470271
31.025688 787.2876 759.7196 4292535807
34.659328 787.07391 759.53937 4292601599
37.454433 787.07391 759.53937 4292470527
41.088074 786.64648 759.17908 4292338687
4.2385321 775.0213 762.45728 4287140020
7.612844 778.51709 762.78882 4289504211
10.714374 778.73267 762.97052 4287071956
10.99633 780.45715 764.42456 4283919538
13.489908 782.77814 762.45752 4283134145
16.019266 782.77814 762.45752 4278985613
18.548624 782.77814 762.45752 4278190206
13.489908 785.35638 764.63147 4282929549
16.300306 784.9267 764.26923 4278190111
19.391743 784.71179 764.08801 4278458687
22.751375 785.09796 763.75958 4292080639
26.108257 785.48413 763.43103 4292470015
28.60367 785.61182 762.23071 4292535551
33.651375 785.61182 762.23071 4292601599
38.741283 785.48413 763.43109 4292469759
40.469727 784.06726 763.54456 4292272895
42.155964 784.06726 763.54456 4292667647
28.60367 786.89813 763.31531 4292272895
31.127522 786.89813 763.31531 4292535551
34.492661 786.89813 763.31531 4292601599
37.016514 786.89813 763.31531 4292601599
1.7045871 773.73822 767.91565 4284051878
4.2522936 773.98804 765.51025 4288716769
4.2522936 775.28839 766.60669 4289178851
11.020184 780.20593 766.82886 4283392660
13.533945 781.75049 765.51514 4280697265
15.225688 781.75049 765.51514 4278190181
42.385323 781.50208 767.92175 4292338943
11.842202 783.69049 767.15094 4282275456
13.533945 784.33716 767.69617 4282404216
16.07156 784.33716 767.69617 4278190117
38.910091 784.33716 767.69617 4292666623
40.601833 783.04382 766.60571 4292207103
19.672783 787.07526 766.08081 4280630633
22.764219 787.2901 766.26196 4292802047
26.136696 787.2901 766.26196 4292667391
28.666056 787.29016 766.26196 4292470015
31.195412 787.2901 766.26196 4292535807
34.56789 787.2901 766.26196 4292470015
37.097248 786.64557 765.71851 4292666623
1.7100917 772.7204 770.98157 4280828019
3.97737 775.47577 769.3808 4281421465
6.8183484 775.04138 769.01453 4285498050
5.1027522 777.88916 768.79956 4282936221
6.8036699 777.88916 768.79956 4284050872
40.689907 782.79822 769.01465 4292535551
42.385323 782.79822 769.01465 4292469759
11.842202 785.63055 768.78674 4283126912
13.533945 785.63055 768.78674 4282404218
16.07156 785.63055 768.78674 4278191136
18.609175 785.63055 768.78674 4278190095
38.06422 785.63055 768.78674 4292863487
40.689907 784.09442 770.10754 4292797951
42.385323 784.09442 770.10754 4292732159
13.533945 786.92389 769.8772 4282141814
16.353518 787.35498 770.24072 4278190359
19.455046 787.57056 770.42249 4280956766
22.838531 787.57056 770.42249 4292866815
25.376146 787.57056 770.42249 4292536063
27.913761 787.57056 770.42249 4292536063
31.297249 787.57056 770.42249 4292733183
34.680733 787.57056 770.42249 4292733695
37.782261 787.35498 770.24072 4292864511
1.7100917 774.02777 772.08386 4280629093
4.2614679 777.64777 771.21204 4282407550
6.8183484 777.64777 771.21204 4284248501
40.689907 785.39056 771.20044 4292864767
13.563303 786.68671 772.29333 4281682295
16.106422 787.33478 772.83978 4278190374
25.431192 787.98285 773.38623 4292601855
38.429356 787.55078 773.02197 4292865023
40.689907 787.33478 772.83978 4292865023
19.455046 789.51056 772.05823 4281417329
22.838531 789.51056 772.05823 4293261311
27.913761 789.51056 772.05823 4293062143
31.015291 789.94171 772.42169 4293193471
34.398777 789.94165 772.42169 4292930303
1.7137614 773.79352 774.50232 4281615216
13.60734 785.69135 775.37817 4281878894
15.308257 785.69135 775.37817 4278190117
16.158716 786.9917 776.47461 4278190100
19.497248 789.27905 774.47913 4282010221
22.888073 789.27905 774.47913 4293130239
25.431192 789.27905 774.47913 4292602111
27.974312 789.27905 774.47913 4292733951
31.647707 790.14313 775.2077 4292996607
35.038532 790.14313 775.2077 4292996607
38.31633 790.31598 775.35333 4293061631
40.689907 789.27905 774.47913 4292601599
11.970642 780.5647 777.59558 4283389065
13.636697 786.76996 778.90369 4281878391
16.193579 786.76996 778.90369 4278190110
19.560551 788.29205 777.57104 4282930056
22.962385 788.29205 777.57104 4293392383
25.513762 788.29205 777.57104 4292733951
28.065138 788.29205 777.57104 4292733695
28.915596 789.59241 778.66748 4292734975
31.183487 790.02588 779.03296 4292931839
34.58532 790.02588 779.03296 4292668159
37.420185 789.59241 778.66748 4292864767
39.121101 790.89282 779.76392 4292667391
16.193579 788.07312 780.00244 4278190097
19.602753 788.07312 780.00244 4283784835
23.011927 788.07312 780.00244 4293128703
25.568808 788.07312 780.00244 4292471039
27.273394 788.07312 780.00244 4292142591
16.193579 789.37628 781.10132 4278190110
19.88685 789.81073 781.46759 4285234610
23.011929 790.02789 781.65076 4292538879
25.568808 790.02783 781.6507 4292012285
28.125687 790.02783 781.6507 4291685627
31.81896 790.24506 781.8338 4292340991
35.228134 790.24506 781.8338 4292141567
37.500916 790.02783 781.6507 4292535807
39.205505 790.67944 782.20007 4292469759
13.680734 788.40894 784.20972 4281288041
16.245872 788.40894 784.20972 4278190093
18.811008 788.40894 784.20972 4283059539
16.245872 789.71637 785.31213 4278190107
19.666054 789.71637 785.31213 4285365677
23.011927 791.98267 783.29883 4291881466
25.568808 791.98267 783.29883 4290367709
28.125687 791.98267 783.29883 4291027951
31.534863 791.98267 783.29883 4291947004
35.001835 790.84949 784.30548 4292470527
37.622017 789.71637 785.31213 4292337919
39.332111 789.71637 785.31213 4292337919
31.534863 793.28583 784.39771 4292537855
13.710092 790.17078 788.31128 4282273137
16.271561 790.54779 787.97522 4278190097
19.687157 790.9248 787.63904 4286285484
23.086239 791.02374 786.41443 4292734719
25.651377 791.02374 786.41443 4292208639
28.216515 791.02374 786.41443 4292341748
35.367584 790.95776 787.23077 4292601599
37.662384 790.9248 787.63904 4292404223
39.374313 790.9248 787.63904 4292601855
23.086239 792.9848 788.06787 4292800767
25.651377 792.9848 788.06793 4292405247
28.216515 792.9848 788.06787 4292471547
31.636696 792.9848 788.06793 4292536319
34.201836 792.33112 787.51672 4292798207
16.333027 789.88245 791.99219 4278190094
37.823853 789.88245 791.99219 4292601599
39.543118 789.88245 791.99219 4292535807
19.708256 792.79126 790.52063 4287141821
23.110092 794.19604 790.39722 4292801023
25.651377 794.94586 789.72144 4292273407
28.216515 794.94586 789.72144 4292536063
31.671558 794.19604 790.39722 4292732415
34.846485 792.57281 790.33661 4292468991
29.07156 796.25323 790.82385 4292338687
12.922018 788.37994 793.34143 4282667387
12.922018 789.69714 794.45203 4282865022
16.333027 791.19678 793.10046 4278190112
36.964218 791.19678 793.10046 4292403967
39.543118 791.19678 793.10046 4292469759
12.034863 792.51123 794.20874 4282997641
17.192661 792.51123 794.20874 4278190093
19.741283 793.63385 793.19324 4288062667
23.13578 794.75647 792.17773 4292734207
25.706423 794.75647 792.17773 4292337919
27.420183 794.75647 792.17773 4292075263
31.704586 794.75647 792.17773 4292273151
35.132111 794.75647 792.17773 4292206847
37.823853 792.51123 794.20874 4292338943
39.543118 792.51123 794.20874 4292470271
18.851376 796.06665 793.28247 4287074747
23.992661 796.06665 793.28247 4292798463
25.706423 796.06665 793.28247 4292403711
28.277065 796.72174 793.83484 4292207359
31.704586 796.06665 793.28247 4292403967
34.27523 796.06665 793.28247 4292469759
13.783486 791.01434 795.56274 4282536320
15.506422 791.01434 795.56274 4278190114
12.922018 792.99011 797.22864 4282931073
16.358715 793.36359 796.88959 4278190104
20.653212 793.73718 796.55048 4289840381
22.350458 793.82556 795.31702 4292406527
37.277676 793.7666 796.13934 4292666623
40.173702 793.7077 796.96161 4292600575
18.911926 795.14001 796.42529 4287666586
22.350458 795.14001 796.42529 4292405759
24.929358 795.79718 796.97949 4292404223
28.367889 796.45435 797.53357 4292141311
31.519876 795.57812 796.79474 4292140031
34.385323 795.14001 796.42529 4292206591
36.104588 795.14001 796.42529 4292337919
12.963303 792.73328 800.93616 4282931840
16.392662 793.84961 799.91534 4278190104
19.813763 794.96594 798.89453 4289443546
22.398165 794.96594 798.89453 4292798975
32.735779 794.96594 798.89453 4292206591
34.458717 794.96594 798.89453 4292206591
37.043121 794.96594 798.89453 4292403455
40.488991 794.96594 798.89453 4292863487
17.229359 796.28314 800.00525 4278190080
19.813763 796.28314 800.00525 4289904336
22.398165 796.28314 800.00525 4292536319
24.982569 796.28314 800.00525 4292206079
28.397247 797.026 799.32355 4292206591
31.841284 797.026 799.32355 4292207103
34.458717 796.28314 800.00525 4292403967
36.181652 796.28314 800.00525 4292403967
40.488991 796.28314 800.00525 4292929279
12.976147 793.31189 802.73206 4282603903
15.555964 794.05469 802.05029 4278190108
38.025688 794.05469 802.05029 4292666111
16.420183 795.3761 803.16455 4278190112
19.84679 796.48822 802.1402 4290364136
22.398165 797.60034 801.11584 4292732927
24.982569 797.60034 801.11584 4292075519
28.42844 797.60034 801.11584 4292141311
31.874311 797.60034 801.11584 4292337919
34.458717 797.60034 801.11584 4292469759
37.103668 796.48822 802.1402 4292732415
40.555046 796.48822 802.1402 4292731903
43.21101 795.3761 803.16455 4292666111
29.289907 798.91754 802.22644 4292207103
12.163302 791.66907 806.57898 4283587459
13.856881 793.89331 804.5304 4282930560
13.856881 795.21753 805.64685 4282732666
16.445871 796.24963 805.86316 4278190860
19.898165 796.61963 805.52112 4290235340
22.493578 796.61963 805.52106 4292668159
25.062386 796.69751 804.27869 4292272127
27.655046 796.69751 804.27869 4292207103
31.976147 796.69751 804.27869 4292272895
34.568806 796.69751 804.27869 4292272895
37.503365 796.15228 805.56299 4292666879
40.35841 796.64557 805.10693 4292666623
43.21101 796.69751 804.27869 4292666111
25.062386 798.01892 805.39282 4292207103
28.519266 798.01892 805.39282 4292207103
31.976147 798.01892 805.39282 4292272895
34.568806 798.01892 805.39282 4292273151
36.297249 798.01892 805.39282 4292733695
10.458715 790.11121 809.18951 4281745256
13.03211 793.66174 808.25916 4282536056
41.702751 794.32593 808.81921 4292731903
43.440369 794.32593 808.81921 4292666111
16.507339 795.65436 809.93933 4278719271
19.952293 796.76013 808.90967 4290629325
22.517431 797.86597 807.88 4292994303
25.115597 797.86597 807.88 4292206847
28.579817 797.86597 807.88 4292141311
32.044037 797.86597 807.88 4292074751
34.6422 797.86597 807.88 4292074751
37.358719 795.65436 809.93933 4292600831
40.833946 795.65436 809.93933 4292600831
43.440369 795.65436 809.93933 4292666623
10.480734 790.63293 812.24548 4281547878
12.782875 792.99854 811.62408 4283457163
16.507339 796.98279 811.05945 4287336101
19.982569 796.98279 811.05945 4291549177
22.588991 796.98279 811.05945 4292470527
25.195412 796.98279 811.05945 4292141055
28.670643 796.98279 811.05945 4292141055
31.277063 796.98279 811.05945 4292272895
33.883484 796.98279 811.05945 4292338431
17.376146 798.31122 812.17944 4293062911
19.113762 798.31122 812.17944 4292602367
22.588991 798.31122 812.17944 4292272895
25.195412 798.31122 812.17944 4292141311
27.801834 798.31122 812.17944 4292010239
10.480734 791.96838 813.37146 4280629602
10.480734 793.30377 814.49756 4280165973
12.791438 794.72998 813.95605 4286548397
37.794495 794.72998 813.95605 4292666623
41.006424 794.70728 814.37292 4292863487
43.623852 794.70728 814.37292 4292666111
13.944954 796.10803 814.24597 4290623467
16.269114 796.9964 814.99493 4293914623
20.336391 796.9964 814.99493 4292535551
22.660551 797.44067 815.36951 4292141055
25.27523 797.44067 815.36951 4292141311
29.051987 796.9964 814.99493 4291943935
31.376146 796.77435 814.80774 4292272895
33.990826 796.77429 814.80774 4292338431
36.605503 796.10803 814.24597 4292667391
10.513762 792.43604 817.68994 4278195787
10.480734 795.97467 816.74951 4278194001
13.100918 796.64233 817.3125 4286552282
16.594496 797.31006 817.87549 4292340223
34.93578 797.31006 817.87549 4292535551
37.555962 796.64233 817.3125 4292732671
41.049541 796.64233 817.3125 4292797951
43.669724 796.64233 817.3125 4292600575
20.045872 798.77325 816.49316 4291944191
22.660551 798.77325 816.49316 4292010239
25.27523 798.77325 816.49316 4292207103
28.761467 798.77325 816.49316 4292207103
31.376146 798.77325 816.49316 4292273151
33.119267 798.77325 816.49316 4292338943
8.8348627 783.85919 820.92236 4280235350
8.8073397 788.09076 820.56628 4279511372
8.7798166 793.65216 821.33142 4279248201
10.513762 795.78516 820.51385 4278195789
13.392049 799.09064 819.37677 4285961689
16.594496 799.31323 819.56445 4292143103
20.088074 799.31323 819.56451 4291944447
22.708258 799.31323 819.56451 4292141567
25.328442 799.31323 819.56451 4292207103
28.822018 799.31323 819.56451 4292338431
31.442202 799.31323 819.56451 4292535039
34.062386 799.31323 819.56445 4292797951
37.555962 799.31323 819.56445 4292732159
41.049541 799.31323 819.56445 4292601599
43.669724 799.31323 819.56451 4292207103
45.416515 799.98096 820.12756 4292009471
16.594496 801.31641 821.25354 4291880703
20.088074 801.31641 821.25354 4292075519
22.708258 801.31641 821.25354 4292207103
25.328442 801.31641 821.25354 4292272127
28.822018 801.31641 821.25354 4292469759
31.442202 801.31641 821.25354 4292797951
34.062386 801.31641 821.25354 4292863743
37.555962 801.31641 821.25354 4292535551
41.049541 801.31641 821.25354 4292536063
43.669724 801.31641 821.25354 4292273151
45.321102 802.77118 819.86414 4292403967
7.951376 787.23633 823.76996 4280167761
8.7798166 794.99463 822.46338 4279837260
10.524771 797.73706 823.46765 4278196811
12.266055 797.79462 822.20813 4282544545
13.142202 799.80408 823.90247 4284383419
16.64679 800.47394 824.46729 4291946239
36.798164 800.47394 824.46729 4292601599
20.379206 803.09698 822.75488 4291943423
22.708258 803.31958 822.9425 4292337663
25.328442 802.65186 822.37952 4292403455
29.11315 803.09698 822.75488 4292601343
31.442202 803.31958 822.9425 4292666879
33.771255 803.09698 822.75488 4292667135
38.429359 803.31958 822.9425 4292667135
41.049541 803.31958 822.9425 4292403967
43.669724 803.31958 822.9425 4292404223
45.416515 802.65186 822.37952 4292469759
41.049541 805.32269 824.63159 4292535039
43.669724 805.32269 824.63159 4292666623
7.0678897 790.61353 826.61749 4280563037
8.8073397 794.1507 825.6759 4279511632
8.8073397 796.17065 827.37909 4279773007
10.53578 799.69318 826.42505 4278194760
13.142202 802.4834 826.16156 4283790513
16.64679 802.48334 826.1615 4292340223
19.275229 802.4834 826.16156 4292140543
21.903669 803.1532 826.72632 4292272127
25.408257 802.48334 826.1615 4292469503
28.620794 802.70673 826.34979 4292600575
31.541285 803.1532 826.72632 4292929279
34.461773 802.7066 826.34979 4292929535
37.382259 802.7066 826.34979 4292535295
14.018349 804.49286 827.85596 4284645833
17.522936 804.49286 827.85596 4292996095
19.275229 804.49286 827.85596 4292008959
21.903669 804.49286 827.85596 4292141055
33.293579 804.49286 827.85596 4293192447
38.550457 804.49286 827.85596 4292273151
41.112846 805.5755 826.80676 4292338687
43.807339 804.49286 827.85596 4292601599
7.0678897 793.99072 829.46503 4280562523
8.8073397 798.86401 829.65002 4279968846
10.53578 801.70685 828.12292 4278197067
12.291743 803.04932 829.25488 4281292166
15.80367 803.04932 829.25488 4291422719
25.461468 803.04932 829.25488 4292600831
28.973394 803.04932 829.25488 4292534783
31.60734 803.04932 829.25488 4292797695
35.119267 803.04932 829.25488 4292732671
36.875229 803.04932 829.25488 4292666623
14.047707 804.39172 830.38672 4284316090
16.681652 804.39172 830.38672 4292209151
19.315596 804.39172 830.38672 4292009471
21.949541 804.39172 830.38672 4292141055
26.339449 804.39172 830.38672 4292535551
28.973394 804.39172 830.38672 4292666111
31.60734 804.39172 830.38672 4292731903
34.241287 804.39172 830.38672 4292798463
37.753212 804.39172 830.38672 4292273151
40.387157 804.39172 830.38672 4292338943
42.055046 805.83246 828.98547 4292535807
5.317431 792.48816 832.12219 4280495958
7.0678897 796.69238 831.74304 4280692568
7.9376144 799.80133 832.4024 4280297812
10.568808 800.88397 831.35327 4278197325
12.917432 803.12842 833.24561 4281227656
16.733946 803.57733 833.62415 4292012799
19.376146 803.57733 833.62415 4292338687
22.018349 803.57733 833.62415 4292601855
25.247705 803.12842 833.24561 4292864511
29.06422 803.57733 833.62415 4292995327
31.706423 803.57733 833.62415 4293061119
34.348625 803.57733 833.62415 4293127167
36.990826 803.57733 833.62415 4292601086
40.51376 803.57733 833.62415 4292469759
44.036697 803.57733 833.62415 4292732415
38.631191 805.73419 831.51868 4292469759
42.14312 805.73419 831.51868 4292666623
43.313763 807.52411 833.02789 4292469503
8.8348627 800.06958 834.59058 4280232018
10.601835 800.06958 834.59058 4278199116
10.601835 801.42041 835.72961 4278199371
13.252294 802.7713 836.86865 4281094791
16.733946 804.92395 834.75964 4291684351
19.376146 804.92395 834.75964 4291944447
22.018349 805.59729 835.32739 4292272127
25.541285 805.59729 835.32739 4292601343
28.770643 805.37286 835.13812 4292798719
31.706423 804.92395 834.75964 4292996607
34.348625 804.92395 834.75964 4293127423
37.871559 804.92395 834.75964 4292601087
40.51376 804.92395 834.75964 4292535551
8.8623857 799.26355 837.83508 4279577938
10.634862 800.61865 838.97766 4278199375
14.135779 804.12219 838.00769 4281622945
16.78624 804.79761 838.57715 4291617791
19.436697 804.79761 838.57715 4292272383
22.087156 805.47302 839.14661 4292535551
25.621101 805.47302 839.14661 4292732415
28.271559 805.47302 839.14661 4292469247
30.922016 804.79761 838.57715 4292929791
34.455963 804.79761 838.57715 4292929791
37.989906 804.79761 838.57715 4292600319
40.640366 804.12219 838.00769 4292666111
42.996326 805.02277 838.76691 4292534271
8.8807335 799.18353 840.38354 4279380555
13.006726 802.40057 841.35211 4279778674
40.766972 803.3288 841.2627 4292600063
16.838531 804.68384 842.40527 4291159807
19.436697 806.82391 840.28564 4292930559
22.087156 806.82391 840.28564 4292995839
25.621101 806.82391 840.28564 4292733439
28.271559 806.82391 840.28564 4292667391
31.018349 804.68384 842.40527 4292864511
34.563301 804.68384 842.40527 4292600831
38.108257 804.68384 842.40527 4292468991
40.766972 804.68384 842.40527 4292732415
43.42569 804.68384 842.40527 4292470015
22.087156 808.17474 841.42468 4293127935
7.1486239 794.87823 844.60168 4279972692
8.9082565 798.39294 843.64111 4279512141
10.689908 799.07397 844.21539 4278199375
10.689908 801.11713 845.93811 4278199377
13.3211 803.2572 843.81836 4279056495
13.3211 804.61505 844.96338 4278399335
16.838531 806.03894 843.54785 4290832383
19.497248 806.03894 843.54785 4292930559
25.700916 806.03894 843.54785 4293720575
28.359632 806.03894 843.54785 4293720063
31.018349 806.03894 843.54785 4293259775
34.599998 805.32703 844.25562 4292864255
37.299084 804.61505 844.96338 4292732159
39.963303 804.61505 844.96338 4292535039
42.539448 806.03894 843.54785 4292535807
17.724771 807.39398 844.69043 4292995839
19.497248 808.07153 845.26172 4292996095
22.155962 808.07153 845.26172 4293193215
25.405502 807.8457 845.07129 4293719551
28.359632 807.39398 844.69043 4293916671
5.3889909 791.29041 848.1167 4280364622
7.1633029 794.81219 847.16211 4279841106
8.0495415 796.89606 847.61108 4279841106
8.9357796 798.97711 848.05774 4280430163
8.9082565 803.16028 847.66083 4280626517
10.689908 803.16028 847.66083 4279052368
40.087158 803.84131 848.23511 4292666623
13.3211 805.97296 846.10828 4278201696
15.985321 805.97296 846.10828 4288275455
31.082569 805.97296 846.10828 4293587967
34.634861 805.97296 846.10828 4293192703
37.299084 805.97296 846.10828 4292797951
42.627522 805.97296 846.10828 4292470271
14.209174 808.00977 847.82562 4278200436
16.873394 808.00977 847.82562 4290567423
19.537615 808.68872 848.39807 4292733183
22.201836 808.68872 848.39807 4293061631
26.050154 808.23608 848.01642 4293325055
28.418348 807.33081 847.25317 4293456127
31.082569 807.33081 847.25317 4293521919
34.634861 807.33081 847.25317 4293192959
5.4055047 790.51526 851.38721 4280233036
5.3889909 795.41034 851.59045 4280494924
7.1633029 797.55042 849.47083 4280495956
5.3724771 798.91949 850.62524 4280430161
7.1486239 800.34338 849.20984 4280495956
5.3614678 802.39282 850.93781 4280297804
7.1486239 802.39282 850.93781 4280691540
8.9082565 805.88446 849.95776 4280757331
10.689908 805.88446 849.95776 4279838285
12.47156 805.88446 849.95776 4278192690
28.506422 806.56549 850.53198 4293258751
31.178898 806.56549 850.53198 4293258751
34.742203 806.56549 850.53198 4293324287
37.41468 805.88446 849.95776 4292995583
40.087158 805.88446 849.95776 4292798207
42.759632 805.88446 849.95776 4292272895
8.9082565 807.92761 851.68054 4280823122
10.689908 807.92761 851.68054 4280625750
13.362385 807.92761 851.68054 4278192711
26.724771 807.92761 851.68054 4292207103
28.506422 807.92761 851.68054 4292207103
31.178898 807.92761 851.68054 4292667391
34.742203 807.92761 851.68054 4292469247
37.41468 807.92761 851.68054 4292666111
40.087158 807.92761 851.68054 4292600319
42.759632 807.92761 851.68054 4292140543
16.873394 810.04657 849.54309 4290236415
19.537615 810.04657 849.54309 4292272127
22.497858 810.49921 849.92474 4292140543
24.866055 810.04657 849.54309 4292141311
5.4055047 791.89276 852.54858 4280430415
3.6036696 793.27026 853.71008 4280297802
4.765749 804.89771 853.04987 4280034894
7.1486239 805.12543 853.24188 4280691537
4.4596329 808.2323 853.89941 4280230987
8.0174313 809.28967 852.82898 4280952659
10.689908 809.28967 852.82898 4280625750
13.362385 809.28967 852.82898 4278192195
16.925688 809.28967 852.82898 4290170367
19.598166 809.28967 852.82898 4292272639
21.379816 809.28967 852.82898 4292337919
25.833946 809.28967 852.82898 4292272383
28.506422 809.28967 852.82898 4292403967
31.178898 809.28967 852.82898 4292864255
34.742203 809.28967 852.82898 4292272383
37.41468 809.28967 852.82898 4292469759
40.147705 808.2323 853.89941 4292600575
42.759632 809.28967 852.82898 4292337919
8.9082565 810.65173 853.97742 4281020755
10.689908 810.65173 853.97742 4280625750
13.362385 810.65173 853.97742 4278190652
16.925688 810.65173 853.97742 4290169087
19.598166 810.65173 853.97742 4292338687
22.270641 810.65173 853.97742 4292206335
25.833946 810.65173 853.97742 4292008959
28.506422 810.65173 853.97742 4292205567
31.178898 810.65173 853.97742 4292140287
34.742203 810.65173 853.97742 4292141055
4.765749 808.99658 856.50592 4280888662
7.1486239 809.22437 856.69794 4281349716
37.530273 809.22437 856.69794 4291746303
40.21101 809.22437 856.69794 4291549183
42.891743 809.22437 856.69794 4291680255
8.9082565 812.01385 855.12598 4281876312
10.689908 812.01385 855.12598 4281087327
13.362385 812.01385 855.12598 4278191157
16.925688 812.01385 855.12598 4289972473
19.598166 812.01385 855.12598 4292404735
22.270641 812.01385 855.12598 4292075263
25.833946 812.01385 855.12598 4291943167
28.506422 812.01385 855.12598 4291942911
31.178898 812.01385 855.12598 4292074751
34.742203 812.01385 855.12598 4291877631
10.689908 813.37592 856.27441 4282996356
13.362385 814.05701 856.84863 4279181657
16.628746 813.83002 856.65723 4288331254
19.598166 813.37592 856.27441 4292075775
22.567583 813.8299 856.65723 4291943167
25.537003 813.83002 856.65723 4291746303
28.506422 813.37592 856.27441 4291615231
31.47584 813.83002 856.65723 4291943679
34.445263 813.83002 856.65723 4291943423
3.5816514 809.18774 859.28314 4280428882
1.787156 811.27374 858.42603 4280231764
5.3614678 811.27374 858.42603 4281284707
8.3400612 811.72919 858.81006 4282798193
10.722936 812.64008 859.578 4283324557
17.871559 812.64008 859.578 4290760447
19.658716 812.64008 859.578 4292207871
21.445871 812.64008 859.578 4292206335
26.807339 812.64008 859.578 4291746303
28.594496 812.64008 859.578 4291746047
30.381651 812.64008 859.578 4292075007
35.743118 812.64008 859.578 4291877887
37.530273 811.95691 859.00201 4291746303
40.21101 811.95691 859.00208 4291548671
43.487461 812.18463 859.19403 4291811327
10.722936 814.00635 860.72998 4282142082
13.403669 814.00635 860.72998 4279183456
16.977982 814.00635 860.72998 4288330485
19.658716 814.00635 860.72998 4292141567
22.339451 814.00635 860.72998 4291877887
25.913761 814.00635 860.72998 4291613951
28.594496 814.00635 860.72998 4291614463
31.27523 814.00635 860.72998 4291680255
34.849541 814.00635 860.72998 4291877631
37.530273 814.00635 860.72998 4291812095
4.4770641 811.24139 861.01477 4281020508
7.7602448 812.15411 861.78436 4281745510
40.293579 812.61047 862.16919 4291547903
42.979816 812.61047 862.16919 4291482111
10.744954 813.97961 863.32349 4281748086
13.403669 815.37268 861.88208 4279117916
16.977982 815.37268 861.88208 4288264434
19.658716 815.37268 861.88208 4292338431
22.339451 815.37268 861.88208 4292008703
25.913761 815.37268 861.88208 4291614463
28.594496 815.37268 861.88208 4291614463
31.27523 815.37268 861.88208 4291943167
34.849541 815.37268 861.88208 4291943167
37.607338 813.97961 863.32349 4292008959
39.398167 813.97961 863.32349 4291876607
23.233028 816.73895 863.03406 4291810559
25.913761 816.73895 863.03406 4291746047
4.4908257 810.51672 864.32776 4280757081
8.0834866 811.89008 865.48572 4281156198
41.315598 811.89008 865.48572 4291942399
44.309479 811.43231 865.09979 4291745023
46.704586 811.89008 865.48572 4291942911
8.0834866 813.26337 866.64368 4280761444
10.744954 815.34869 864.47791 4281025648
13.431192 815.34869 864.47791 4278722902
17.012844 815.34869 864.47791 4287671792
19.699083 815.34869 864.47791 4291681535
21.489908 815.34869 864.47791 4292205311
28.653212 815.34869 864.47791 4291417599
31.339451 815.34869 864.47791 4291877631
34.921101 815.34869 864.47791 4291613951
37.722935 813.26337 866.64368 4291613695
19.699083 816.71783 865.63232 4291812863
22.385321 816.71783 865.63232 4291877119
25.966972 816.71783 865.63232 4291548671
28.653212 816.71783 865.63232 4291548415
31.339451 816.71783 865.63232 4291811583
4.5045872 809.80054 867.64795 4280363868
5.4055047 811.86682 869.3902 4280954460
7.2073393 812.55554 869.97095 4280692315
9.0091743 812.55554 869.97095 4281547624
37.838531 812.55554 869.97095 4292008191
40.541283 811.86682 869.3902 4291876095
43.244038 811.86682 869.3902 4291613183
45.946789 811.17804 868.80945 4292008191
10.777982 814.63666 867.80164 4281288039
13.472477 814.63666 867.80164 4278787917
17.065138 814.63666 867.80164 4287539946
35.028442 814.63666 867.80164 4292008447
14.370643 816.01001 868.95959 4278192453
17.065138 816.01001 868.95959 4287669990
19.759632 816.01001 868.95959 4291812863
22.454128 816.01001 868.95959 4291811071
26.046789 816.01001 868.95959 4291417087
28.741285 816.01001 868.95959 4291547903
31.43578 816.01001 868.95959 4291810815
34.130276 816.01001 868.95959 4292008191
7.2073393 813.93304 871.13245 4280297559
10.210397 814.39227 871.51959 4281153120
13.213455 814.85138 871.90674 4278849603
16.216515 815.31061 872.29395 4286222039
18.919266 815.31061 872.29395 4290628092
21.622019 815.31061 872.29395 4292271103
28.829357 815.31061 872.29395 4291547903
31.532112 815.31061 872.29395 4291811071
34.234863 815.31061 872.29395 4291942911
36.937614 814.62183 871.7132 4291745535
40.541283 813.93304 871.13245 4291679743
43.244038 814.62183 871.7132 4291745279
45.045872 815.31061 872.29395 4291810559
23.352293 817.3833 870.11755 4291942143
26.046789 817.3833 870.11755 4291745279
5.4220185 811.85614 873.3053 4280559955
7.2293577 813.23785 874.47034 4280363353
9.6391439 814.159 875.24707 4281087329
12.651376 814.61963 875.63538 4279113538
37.954128 814.61963 875.63538 4291614463
40.665138 813.92871 875.05286 4291810559
43.376148 814.61963 875.63538 4292007423
14.414679 816.68811 873.45544 4278190154
16.216515 816.68811 873.45544 4286155735
18.919266 817.37689 874.03619 4290693370
22.823242 817.14728 873.84259 4291613695
25.225689 817.37683 874.03619 4291481855
27.92844 817.37689 874.03619 4291547903
31.532112 816.68811 873.45544 4291680255
34.234863 816.68811 873.45544 4291877119
36.036697 816.68811 873.45544 4291614463
5.4385319 811.16516 876.64685 4280559953
7.2513762 812.55109 877.81543 4280429398
1.812844 813.93701 878.98401 4280163911
5.4385319 813.93701 878.98401 4280428366
7.2513762 813.93701 878.98401 4280429398
9.9403667 816.00134 876.80042 4280955741
13.85627 816.46191 877.18878 4278454852
16.266054 816.6922 877.38293 4285499593
18.977064 817.38306 877.96545 4290233333
22.29052 816.92255 877.57715 4291942399
25.302752 817.38306 877.96545 4291810559
28.013762 817.38306 877.96545 4291744767
31.628439 816.6922 877.38293 4291547391
34.339451 816.6922 877.38293 4291613951
37.050461 816.6922 877.38293 4291613951
40.363911 816.46191 877.18878 4291678975
43.376148 816.00134 876.80042 4291876607
5.4550457 810.4826 879.99536 4280625746
7.2513762 815.32294 880.15259 4280495191
9.9706421 815.32294 880.15259 4280955741
12.689908 815.32294 880.15259 4279245123
41.695412 815.32294 880.15259 4291679487
43.508255 815.32294 880.15259 4291810559
9.9706421 816.70892 881.32117 4281021017
13.596331 816.70892 881.32117 4278850886
16.266054 818.76477 879.13049 4285106372
18.977064 818.76477 879.13049 4290101749
22.624771 817.73682 880.22583 4291548671
25.302752 818.76477 879.13049 4291482111
28.057798 817.73682 880.22583 4291613695
31.72477 816.70892 881.32117 4291481855
34.444038 816.70892 881.32117 4291613439
37.108257 817.73682 880.22583 4291680255
40.728439 817.73682 880.22583 4291548671
43.508255 816.70892 881.32117 4291613951
0.91100919 813.28241 884.97217 4280032325
4.5458717 813.95795 882.92572 4280296781
7.2733946 814.65302 883.51184 4280823124
10.000917 816.04315 884.68396 4280628826
13.615597 817.06897 883.58685 4278590022
16.315596 818.09485 882.48975 4284910526
19.034863 818.09485 882.48975 4290102004
22.660549 818.09485 882.48975 4291482623
25.379816 818.09485 882.48975 4291022847
28.099083 818.09485 882.48975 4290957055
31.774311 817.06897 883.58685 4291153663
34.444038 818.09485 882.48975 4291416319
37.163303 818.09485 882.48975 4291351807
40.78899 818.09485 882.48975 4291614463
43.508255 818.09485 882.48975 4291022591
39.882568 819.48077 883.65833 4291810559
1.827523 809.82941 885.98474 4280229704
-1.8220184 814.67535 886.14673 4279769405
4.5550461 814.67535 886.14673 4280296781
7.2880735 814.67535 886.14673 4280430163
-1.8183486 818.82343 887.0282 4280032827
0 816.0683 887.32117 4279442755
4.5550461 816.0683 887.32117 4280296781
7.2880735 816.0683 887.32117 4280364370
10.021101 816.0683 887.32117 4280561239
13.665138 816.0683 887.32117 4278785605
16.365137 817.43329 885.85608 4285238463
19.092661 817.43329 885.85608 4290036210
22.729359 817.43329 885.85608 4291614207
25.456881 817.43329 885.85608 4291219455
28.184402 817.43329 885.85608 4291219455
31.854128 816.75079 886.58862 4291219199
34.618347 816.0683 887.32117 4291350527
37.579205 817.89667 886.24677 4291417343
40.912842 818.12836 886.44214 4291481855
0.9137615 812.62372 888.34082 4279640134
1.827523 814.71948 890.10791 4280034632
4.5688076 815.41803 890.6969 4280429132
7.310092 815.41803 890.6969 4280430161
10.051376 815.41803 890.6969 4280627285
13.706423 815.41803 890.6969 4278521150
0.60733944 818.38989 889.27863 4279967555
16.398165 817.46124 888.49573 4285696195
19.434862 817.92554 888.88721 4290759156
22.77523 818.15771 889.08289 4291482623
25.508257 818.15771 889.08295 4291153151
28.241283 818.15771 889.08289 4291218943
31.58165 817.92554 888.88721 4291218943
34.618347 817.46124 888.49573 4291285503
36.440369 818.15771 889.08295 4291285503
41.906422 817.46124 888.49573 4291482111
-1.8183486 820.21362 888.20032 4279835704
1.8220184 820.24713 890.84473 4280034120
38.223854 820.23035 889.52252 4291482111
40.00367 820.21362 888.20032 4291349759
4.5688076 816.81519 891.875 4280428366
7.310092 816.81519 891.875 4280889167
10.051376 816.81519 891.875 4280692307
14.011009 817.28094 892.26764 4278388284
16.447706 817.51379 892.46399 4286024390
18.884405 817.74664 892.66034 4289969132
22.844036 818.21234 893.05298 4291285247
25.585321 818.21234 893.05298 4291219711
28.326607 818.21234 893.05298 4291285247
32.28624 817.74658 892.66034 4291153151
34.722935 817.51379 892.46399 4291284479
36.550457 818.21234 893.05298 4291283967
13.747706 817.57886 896.44299 4278389044
32.07798 817.57886 896.44299 4291153151
34.827522 817.57886 896.44299 4291482111
16.447706 819.6095 894.23108 4286551494
19.188992 819.6095 894.23108 4291350754
22.844036 819.6095 894.23108 4291482111
25.585321 820.30811 894.82013 4291350527
28.326607 819.6095 894.23108 4291218943
37.464218 819.6095 894.23108 4291548159
13.747706 818.98022 897.62463 4278256937
16.497248 818.98022 897.62463 4287404993
19.246788 818.98022 897.62463 4291219195
22.948624 817.96704 898.73236 4291283967
28.411926 818.98022 897.62463 4291218943
31.255045 816.9538 899.84009 4291350271
34.93211 816.9538 899.84009 4291351295
14.66422 820.38159 898.80615 4278192918
16.497248 820.38159 898.80615 4288000957
19.246788 820.38159 898.80615 4292665595
21.99633 820.38159 898.80615 4291941375
25.662386 821.08228 899.39697 4291415807
28.411926 820.38159 898.80615 4291416063
33.192661 814.92737 902.05554 4291153663
23.900917 818.35938 901.02515 4292007167
14.708257 819.76495 902.21033 4281413717
16.546789 819.76495 902.21033 4292203769
19.304588 819.76495 902.21033 4292142072
22.062386 819.76495 902.21033 4291613928
27.577982 819.76495 902.21033 4291481599
23.972477 817.74695 904.43298 4292008686
29.504587 817.74695 904.43298 4291351295
31.348623 816.33716 903.24426 4291547903
33.192661 816.33716 903.24426 4291285503
16.596331 819.15674 905.62158 4291222783
19.362385 819.15674 905.62158 4291813074
23.050459 819.15674 905.62158 4291550661
25.73945 821.17053 903.39551 4291678975
27.660551 819.15674 905.62158 4291416063
