# .PCD v0.7 - Point Cloud Data file format
VERSION 0.7
FIELDS x y z rgb
SIZE 4 4 4 4
TYPE F F F U
COUNT 1 1 1 1
WIDTH 1167
HEIGHT 1
VIEWPOINT 0 0 0 1 0 0 0
POINTS 1167
DATA ascii
43.073395 773.23218 780.56921 4280694881
41.35046 775.20795 782.23523 4278326586
43.887154 775.97321 781.57245 4283063690
43.841286 778.05286 782.01782 4283064712
46.271561 781.6546 781.13062 4283260556
47.882568 785.1405 781.45386 4283458708
49.592659 785.1405 781.45386 4283327379
76.099083 785.1405 781.45386 4294967295
51.989906 788.07312 780.00244 4283853211
55.399082 788.07312 780.00244 4284578513
58.808258 788.07312 780.00244 4285698037
61.365139 788.07312 780.00244 4283397054
63.92202 788.07312 780.00244 4289840889
67.331192 788.07312 780.00244 4294836223
70.740372 788.07312 780.00244 4294836223
73.297249 788.07312 780.00244 4294967295
79.263306 788.07312 780.00244 4294967295
49.433029 789.37628 781.10132 4284642730
52.274006 789.81061 781.46759 4283985318
55.114986 789.81073 781.46759 4283855276
58.808258 790.02783 781.6507 4284317639
61.365139 790.02783 781.6507 4284381875
63.92202 789.37628 781.10132 4292077823
67.331192 789.37628 781.10132 4294967295
70.740372 789.37628 781.10132 4294901759
73.297249 789.37628 781.10132 4294967295
35.119267 750.69379 785.11011 4280758360
34.93578 757.24707 784.09534 4280429398
34.862385 760.12701 783.90771 4280364370
36.605503 760.79333 784.46948 4280232785
33.883484 763.77222 783.05713 4280297552
33.593884 765.54346 784.5506 4280100688
36.48991 765.76489 784.7373 4280362318
34.6422 768.73328 783.31604 4280362573
38.106422 769.39539 783.87433 4280099658
37.200001 772.14697 784.88635 4279903305
39.754128 772.25153 783.66644 4279244862
38.025688 774.23358 785.33765 4279115591
40.552292 775.37939 784.34174 4278393663
41.35046 778.50098 785.01172 4279839568
43.841286 779.36725 783.1261 4282405502
43.554737 781.11981 784.60382 4282734719
44.557796 784.93005 783.8924 4283655050
46.271561 784.93005 783.8924 4284313236
47.345566 787.46857 784.28888 4284972463
49.592659 788.40894 784.20972 4284709554
51.302753 788.40894 784.20972 4284182955
56.433029 788.40894 784.20972 4285500097
64.128441 788.40894 784.20972 4294246399
67.54863 788.40894 784.20972 4294967295
70.968811 788.40894 784.20972 4294705151
73.533943 788.40894 784.20972 4294705151
76.180733 786.99841 784.32843 4294901759
78.664223 787.75525 783.65857 4294967295
49.592659 789.71637 785.31213 4285103031
52.157799 789.71637 785.31213 4284118446
55.57798 789.71637 785.31213 4284645305
58.998165 789.71637 785.31213 4283592102
61.563301 789.71637 785.31213 4288852702
64.128441 789.71637 785.31213 4294967295
67.54863 789.71637 785.31213 4294967295
70.968811 789.71637 785.31213 4294901759
73.533943 789.71637 785.31213 4294901759
33.467892 749.71106 788.20544 4280495191
35.119267 752.03625 786.24194 4280429400
33.363304 754.04993 787.93988 4280364115
31.376146 764.12494 787.27856 4279641164
31.376146 765.45752 788.40222 4279377995
33.883484 767.75751 786.41736 4279904080
36.48991 767.75751 786.41736 4279772236
33.883484 769.75012 788.09753 4279969356
36.374313 772.70587 786.66565 4279641162
34.6422 774.6922 788.34052 4279771974
37.200001 775.45398 787.67468 4278850871
39.754128 776.2157 787.00897 4279903558
37.161469 778.19781 788.68018 4279179584
40.488991 781.13538 787.23303 4280168536
40.488991 783.11115 788.89893 4281155936
43.669353 784.8877 787.78088 4283262607
46.420185 785.93921 788.66748 4284840356
47.985321 788.20551 786.65417 4285431996
75.405502 788.20551 786.65417 4294901759
47.985321 790.17078 788.31128 4284972723
49.64587 790.9248 787.63904 4284907187
52.21376 790.9248 787.63904 4284841911
55.903362 790.95776 787.23077 4282143887
59.06147 790.9248 787.63904 4287403145
61.629356 790.9248 787.63904 4294507263
64.19725 790.9248 787.63904 4294901759
67.657806 790.54779 787.9751 4294705151
71.083488 790.54779 787.97522 4294901759
73.691742 789.51569 787.75891 4294836223
54.722935 792.33112 787.51672 4284444849
31.706423 751.05768 789.34094 4280364370
28.973394 757.40601 790.76965 4280821075
31.60734 757.40601 790.76965 4279969614
26.284403 761.62427 791.71021 4284243860
28.912844 760.28461 790.58069 4281810008
28.822018 763.92419 789.72546 4281743431
26.201836 765.92737 791.41443 4282271599
28.822018 765.92737 791.41443 4281087566
31.376146 766.79016 789.52588 4280362573
29.633028 769.45544 791.77319 4281018970
31.376146 768.78912 791.21136 4279903819
33.014679 772.40698 790.33777 4279903302
34.6422 776.67853 790.01526 4279047747
34.6422 778.00275 791.13184 4279571524
37.161469 779.51923 789.79443 4279638858
37.161469 780.84064 790.90857 4280362828
37.904587 785.74554 791.12024 4280035405
40.488991 785.08691 790.56488 4281418602
44.127827 787.69171 790.1452 4283591062
46.420185 787.91077 790.3299 4284512680
46.420185 789.88245 791.99219 4284774831
61.033943 789.88245 791.99219 4294967295
65.332108 789.88245 791.99219 4294770687
47.985321 792.13611 789.96838 4284709554
49.699081 792.13611 789.96838 4284709554
52.269726 792.13611 789.96838 4282866071
55.697247 792.13611 789.96838 4282279517
58.267891 792.13611 789.96838 4293058031
26.504587 751.43842 793.58606 4279773001
28.271559 750.76294 793.01654 4280100689
30.922016 750.76294 793.01654 4280232273
26.422018 755.09766 792.74731 4280297298
26.422018 756.44434 793.88281 4283847038
24.583487 761.43335 794.16541 4281878391
24.53211 764.30353 793.96936 4282467429
25.328442 767.93054 793.10339 4283584631
27.948624 767.93054 793.10339 4284308620
22.708258 769.26593 794.22937 4282928514
25.328442 769.26593 794.22937 4283257722
28.790825 770.02698 793.56305 4282204275
31.376146 770.78809 792.89673 4279968578
26.14679 772.12073 794.02039 4280301141
28.761467 772.12073 794.02039 4279904362
31.376146 772.12073 794.02039 4279181636
31.277063 775.72803 793.13794 4279376961
33.014679 775.06384 792.57788 4279377988
29.53945 777.05646 794.25806 4279113790
32.093578 778.19171 793.25323 4279572026
34.6422 779.32697 792.24841 4279637569
29.445871 781.9754 794.48145 4278326586
32.044037 780.65118 793.36499 4278786087
34.568806 782.16205 792.02271 4280296003
37.161469 782.16205 792.02271 4280560460
29.383486 784.80487 794.2511 4278916156
31.976147 784.14417 793.69397 4279444286
34.568806 784.14417 793.69403 4280494412
36.297249 784.14417 793.69403 4280691792
37.330276 787.94086 792.97119 4280037201
40.488991 787.72137 792.78613 4281683057
43.647705 787.94086 792.97119 4284050842
63.748623 788.37994 793.34143 4294967295
68.055969 788.37994 793.34143 4294770687
37.043121 789.69714 794.45203 4280693333
40.488991 789.69714 794.45203 4282404461
43.93486 789.69714 794.45203 4284642205
46.420185 791.19678 793.10046 4284839341
48.999084 791.19678 793.10046 4284051106
52.437614 791.19678 793.10046 4280166001
55.876144 791.19678 793.10046 4288982327
58.455048 791.19678 793.10046 4294967295
61.099998 790.44696 793.77625 4294967295
64.610092 789.69714 794.45203 4294836223
53.297249 792.51123 794.20874 4287139977
24.814678 749.12585 795.56018 4279707208
23.042202 751.836 797.84534 4280298565
24.814678 750.4809 796.70276 4279968076
24.737616 754.14014 795.86414 4282465385
24.660551 757.79095 795.01831 4282796414
22.018349 759.81091 796.7215 4282338150
21.949541 763.44702 795.86328 4282270568
19.315596 765.46075 797.56116 4282597734
21.903669 766.31299 795.66364 4282599030
17.522936 768.32245 797.35803 4282137967
20.118347 769.46191 796.35675 4283520900
22.708258 770.60138 795.35547 4281943406
24.455046 770.60138 795.35547 4280827486
16.885628 772.38202 796.85675 4282009968
20.379206 772.38202 796.85675 4282471809
22.708258 772.60455 797.04443 4280629862
25.018961 772.88745 796.41095 4279380299
28.761467 773.45331 795.14404 4278983750
25.56575 775.67438 797.01678 4279311948
27.889908 775.45227 796.82953 4279376962
28.670643 779.04907 795.93817 4278851646
26.06422 781.04175 797.61829 4279245371
27.801834 781.04175 797.61829 4279047999
25.981651 785.948 797.83105 4279178033
27.713762 785.28589 797.27283 4279703864
28.951376 787.77802 796.75806 4280362821
31.976145 787.44769 796.47949 4280560969
34.568806 786.78699 795.92236 4280692562
64.816513 788.7691 797.59363 4294705151
34.458717 791.01434 795.56274 4280626776
37.043121 791.01434 795.56274 4281021532
40.488991 791.01434 795.56274 4281549673
43.93486 791.01434 795.56274 4282866569
46.519264 791.01434 795.56274 4282537353
49.103668 791.01434 795.56274 4279775848
51.688072 791.01434 795.56274 4278190080
55.995415 791.01434 795.56274 4293780977
58.579815 791.01434 795.56274 4294967295
61.164223 791.01434 795.56274 4294901759
32.161469 792.77057 797.04352 4280758610
34.458717 792.99011 797.22864 4280889947
37.043121 792.99011 797.22864 4281482083
40.488991 792.99011 797.22864 4281678694
43.93486 792.99011 797.22864 4282140533
46.519264 792.99011 797.22864 4280036955
49.103672 792.99011 797.22864 4281020738
52.549541 792.99011 797.22864 4291546516
55.995415 792.99011 797.22864 4294967295
58.579815 792.33154 796.67334 4294967295
60.877064 792.77057 797.04352 4294770687
23.089909 748.94202 798.02124 4279639614
21.313761 750.29993 799.16614 4279114292
19.497248 754.54614 800.13049 4281352519
22.155964 753.19104 798.98792 4280299592
19.436697 758.19275 799.28113 4282928973
21.203671 756.84186 798.14209 4282273637
16.78624 759.54358 800.42017 4283386986
19.376146 761.83093 798.42468 4282730074
16.440367 763.62646 799.93866 4283321714
19.275229 771.00177 799.61707 4282536570
17.46789 774.60767 798.7334 4282862707
20.379206 775.0528 799.1087 4280427598
22.708258 775.27539 799.29645 4279769412
20.088074 777.27856 800.98547 4279310919
22.708258 777.27856 800.98547 4279442505
24.984711 777.89545 798.88959 4279508034
22.660551 780.11646 800.76221 4279310401
25.233944 781.24329 799.75031 4279506233
24.326605 784.36279 800.41858 4278980145
25.981651 787.93433 799.50592 4280361798
28.519266 790.75122 799.26489 4280364110
31.111927 791.41193 799.82202 4281020755
58.766972 791.41193 799.82202 4294049791
62.223854 791.41193 799.82202 4294770687
29.383486 792.73328 800.93616 4280888917
31.976147 792.73328 800.93616 4281283925
34.458717 794.96594 798.89453 4281285210
37.043121 794.96594 798.89453 4281745507
40.488991 794.96594 798.89453 4282073965
44.006424 793.84961 799.91534 4281284195
46.667889 792.73328 800.93616 4278190118
49.260551 792.73328 800.93616 4290097712
52.632111 793.84961 799.91534 4294967295
55.995415 794.96594 798.89453 4294836223
58.579815 794.96594 798.89453 4294311679
60.302753 794.96594 798.89453 4294508543
37.043121 796.28314 800.00525 4281877350
40.488991 796.28314 800.00525 4282076009
53.411011 796.28314 800.00525 4294967295
56.85688 796.28314 800.00525 4294311935
58.579815 796.28314 800.00525 4294311935
60.302753 796.28314 800.00525 4294443007
17.816513 749.35785 802.29602 4280032575
19.598166 748.67676 801.72174 4279967035
17.816513 750.71991 803.44446 4279049764
17.761467 754.37354 802.60095 4280758060
15.853211 767.21759 802.96655 4282207859
14.047707 770.83051 802.08887 4282798209
15.80367 770.83051 802.08887 4282864002
14.047707 772.17297 803.2207 4282335848
16.681652 772.17297 803.2207 4281019994
19.275229 773.68103 801.87622 4279901518
17.522936 775.02069 803.00574 4279442505
20.088074 779.28174 802.67444 4279639110
22.660551 782.11542 802.44769 4279046714
24.326605 787.01965 802.65869 4280296772
25.981651 790.58276 801.73901 4280495175
27.713762 791.24487 802.29724 4280625746
25.981651 792.56909 803.41382 4280692556
28.548624 793.31189 802.73206 4280954710
31.976147 794.05469 802.05029 4281350495
34.568806 794.05469 802.05029 4281613921
44.07523 794.05469 802.05029 4278391834
46.667889 794.05469 802.05029 4286881405
49.260551 794.05469 802.05029 4293978612
51.85321 794.05469 802.05029 4294967295
55.310093 794.05469 802.05029 4294311935
29.383486 795.3761 803.16455 4281349466
31.976147 795.3761 803.16455 4281416544
34.568806 795.3761 803.16455 4281288291
37.161469 795.3761 803.16455 4281813608
40.618347 795.3761 803.16455 4281156446
44.07523 795.3761 803.16455 4282073360
46.667889 795.3761 803.16455 4293586019
49.260551 795.3761 803.16455 4294967295
52.71743 795.3761 803.16455 4294901759
55.310093 795.3761 803.16455 4294574079
57.809174 796.48822 802.1402 4294639615
10.722936 749.79047 806.58484 4279310625
13.70153 749.33502 806.20087 4279572531
16.034863 752.08203 804.5929 4279703360
13.362385 753.44409 805.74146 4280032314
8.8348627 766.29791 806.11523 4282336363
10.568808 769.23755 804.66974 4282799469
12.330276 769.23755 804.66974 4282404455
10.568808 771.25757 806.37292 4283194975
13.188992 772.38647 805.36279 4281417553
15.80367 773.51544 804.35266 4280035146
14.047707 775.52905 806.05054 4279311696
16.376759 775.80615 805.41211 4279377229
16.64679 778.36975 805.82965 4279311687
17.46789 781.95258 804.92651 4279114814
20.088074 781.95258 804.92651 4278982716
17.46789 783.95575 806.61548 4279374648
20.088074 783.95575 806.61548 4278782513
22.660551 784.7807 804.69501 4279375936
20.917431 786.7796 806.38049 4278848819
22.660551 786.7796 806.38049 4280427851
24.326605 790.34064 805.45898 4280626504
25.981651 793.89331 804.5304 4280955214
27.713762 793.89331 804.5304 4281217880
25.981651 795.21753 805.64685 4281087577
28.56422 796.24963 805.8631 4281284958
31.710093 796.64557 805.10693 4281090661
34.568806 796.69751 804.27869 4281616488
37.476452 796.64557 805.10693 4281288039
40.661469 796.61963 805.52112 4280102429
43.256882 796.61963 805.52106 4289381485
45.900917 795.87964 806.20514 4294374646
49.365139 795.87964 806.20514 4294901759
52.71743 796.69751 804.27869 4294639615
55.310093 796.69751 804.27869 4294639615
32.840366 798.01892 805.39282 4281617003
34.568806 798.01892 805.39282 4281878645
36.297249 798.01892 805.39282 4281746802
52.71743 798.01892 805.39282 4294639615
7.951376 767.6488 807.25427 4281487226
5.3009176 769.67505 808.96271 4281417057
7.951376 769.67511 808.96271 4282406518
10.568808 773.27753 808.07617 4280498778
12.330276 773.27753 808.07617 4279183175
10.568808 775.29749 809.7793 4279965767
13.169725 778.21399 808.31439 4279507781
13.142202 781.71893 808.65356 4279375423
15.770642 781.04907 808.08875 4279441472
13.142202 783.05853 809.78308 4279047996
16.594496 785.2912 807.74146 4279112506
19.21468 785.2912 807.74146 4278782512
13.974312 787.96204 809.99353 4278587957
16.594496 787.29431 809.43054 4279243831
20.045872 788.11224 807.50403 4279835195
22.660551 788.11224 807.50403 4280625218
20.045872 790.11121 809.18958 4280559174
22.660551 790.11121 809.18951 4280888651
24.905809 793.88312 808.4458 4280824408
25.195412 795.65436 809.93933 4280956248
28.623852 796.76013 808.90967 4281416544
32.044037 797.86597 807.88 4281682281
34.6422 797.86597 807.88 4281223531
37.300919 796.76013 808.90967 4278392865
40.833946 795.65436 809.93933 4288982691
43.440369 795.65436 809.93933 4294966527
46.046791 795.65436 809.93933 4294967295
49.4422 796.76013 808.90967 4294180863
52.829357 797.86597 807.88 4294574079
1.772477 769.4519 812.69873 4279638571
0 773.05225 811.8103 4279835702
4.4174314 772.37683 811.24084 4279836739
7.951376 772.37683 811.24078 4281217116
7.951376 774.40314 812.94934 4279769153
10.568808 776.64417 810.91479 4279639112
8.8073397 777.99084 812.05029 4279966532
10.53578 781.57013 811.14423 4279441727
10.513762 785.73785 812.04211 4279245371
12.850154 784.84473 811.28906 4279309627
13.100918 789.96521 811.6825 4278522411
16.303364 789.74268 811.49481 4279706170
17.431192 792.77643 811.43683 4280164681
20.045872 792.77643 811.43683 4280757585
22.660551 792.77643 811.43683 4280955476
22.588991 796.98279 811.05945 4281547102
25.195412 796.98279 811.05945 4281153368
28.670643 796.98279 811.05945 4282008931
31.277063 796.98279 811.05945 4281682281
33.883484 796.98279 811.05945 4281025380
20.851376 798.31122 812.17944 4281087577
22.588991 798.31122 812.17944 4281416799
25.195412 798.31122 812.17944 4281679967
28.670643 798.31122 812.17944 4282337127
1.772477 770.80701 813.84119 4279704116
0 772.16211 814.98376 4279703612
4.4311924 772.16211 814.98376 4279769153
4.4174314 775.75397 814.08838 4279900739
7.0678897 775.75397 814.08838 4279966532
4.4174314 777.10486 815.22729 4279703360
7.9376144 778.22119 814.20654 4279637567
5.2844038 782.03082 815.45667 4279769409
7.6330276 781.13306 814.69971 4279637566
7.901835 784.92627 813.97394 4279441467
8.1822634 787.47821 814.38165 4279441210
10.513762 787.74731 813.73651 4279114039
8.7614679 789.75677 815.43079 4279375153
10.513762 789.75677 815.43079 4279243313
13.100918 791.96838 813.37146 4279769655
15.721101 791.96838 813.37146 4280296253
10.480734 793.9715 815.06055 4279441469
12.809787 793.74896 814.87286 4280033602
16.559633 794.77539 813.12231 4280427850
20.045872 794.77539 813.12231 4281020505
37.477066 794.77539 813.12231 4281351450
40.963303 794.77539 813.12231 4293717939
43.57798 794.77539 813.12231 4294967295
46.192661 794.77539 813.12231 4294967295
49.678898 794.77539 813.12231 4294508543
52.293579 794.77539 813.12231 4294574079
13.363914 796.9964 814.99493 4280231496
16.559633 796.77435 814.80774 4280560464
19.755352 796.9964 814.99493 4281153115
22.660551 797.44067 815.36951 4281219165
25.27523 797.44067 815.36951 4282008929
28.761467 797.44067 815.36951 4281616738
31.376146 796.77435 814.80774 4281221739
33.990826 796.77435 814.80774 4279707424
37.477066 796.77429 814.80774 4290626984
41.253822 796.55225 814.62042 4294966527
43.57798 796.77435 814.80774 4294967295
46.483181 796.55225 814.62042 4294770687
49.388378 796.55225 814.62042 4294508543
-8.9082565 767.06494 817.2262 4278260280
-3.5633028 767.06494 817.2262 4279572276
-3.5633028 768.42706 818.37463 4279572276
-1.7761468 770.66809 816.34009 4279638069
1.7761468 770.66809 816.34009 4279769405
-1.7743119 773.4505 817.37817 4279703609
1.1828746 773.47272 816.96094 4279769661
0.59082568 775.77563 818.03058 4279769660
0 779.80658 817.50537 4279769405
4.1229358 778.90601 816.74603 4279703617
-1.7669724 781.15747 818.64441 4280032575
0.88348621 781.15747 818.64441 4279703612
3.5339448 781.15747 818.64441 4279703360
5.2844038 784.05078 817.15991 4279375676
5.2844038 786.0708 818.86304 4279048249
7.0238533 788.28235 816.80371 4279375153
5.26789 789.62482 817.93567 4278982456
7.8853211 791.09644 816.56042 4278585899
7.5932717 792.88257 818.06641 4279046193
8.1516819 796.86493 817.50018 4280032829
10.480734 796.64233 817.3125 4280100419
38.429359 797.31006 817.87549 4294967295
40.758411 796.86493 817.50018 4294836223
43.669724 797.31006 817.87549 4294508543
45.998779 796.86493 817.50018 4294574079
13.073395 799.43958 817.05499 4280560465
16.559633 799.43958 817.05493 4281021529
20.045872 799.43958 817.05493 4281417055
22.660551 799.43958 817.05499 4281286496
25.27523 799.43958 817.05493 4281944168
28.761467 799.43958 817.05493 4280367193
31.376146 799.43958 817.05499 4280827136
33.990826 799.43958 817.05499 4289771416
36.605503 799.43958 817.05499 4294966271
41.834862 800.1059 817.61682 4294574079
13.073395 801.43854 818.74048 4280693079
16.559633 801.43854 818.74048 4281152604
20.045872 801.43854 818.74048 4281483364
22.660551 801.43854 818.74048 4281748590
24.403669 801.43854 818.74048 4282011507
41.834862 801.43854 818.74048 4294574079
43.57798 801.43854 818.74048 4294639615
-5.3724771 764.69196 821.7655 4279376169
-7.1486239 767.55231 821.56116 4279507755
-4.4541283 769.78912 819.52319 4279441454
-7.1266055 771.83228 821.24585 4279638577
-4.4541283 771.83228 821.24585 4279573046
-4.4403667 776.09961 820.9198 4279769661
-1.7761468 774.7417 819.7749 4279443005
-1.772477 777.5824 819.55408 4279835453
1.772477 777.5824 819.55408 4279572026
-1.772477 780.29254 821.83923 4279835453
0.88623852 781.40039 820.81134 4279703612
3.5339448 782.5083 819.78345 4279245371
-1.7669724 783.85919 820.92236 4279769659
0.88348621 783.85919 820.92236 4279311164
3.5339448 783.85919 820.92236 4279245371
0 788.09076 820.56628 4279113789
3.5229359 788.09076 820.56628 4279114042
5.26789 790.96729 819.06763 4278982456
0 793.65216 821.33142 4278850363
4.3899083 792.98096 820.76544 4278586931
5.2568808 795.78516 820.51385 4279376447
5.2403669 799.98096 820.12756 4279903555
7.8605499 799.31323 819.56451 4280232004
10.480734 799.31323 819.56451 4280429135
26.201836 799.98096 820.12756 4280301146
28.822018 799.98096 820.12756 4280961824
31.442202 799.98096 820.12756 4289829547
34.062386 799.98096 820.12756 4294964476
37.847095 799.53583 819.7522 4294639359
40.176147 799.31323 819.56451 4294770687
43.669724 798.64551 819.00146 4294443007
45.416515 798.64551 819.00146 4294508543
5.2403669 801.31641 821.25354 4280100165
7.8605504 801.31641 821.25354 4280625741
10.458715 802.77118 819.86414 4280823124
13.073395 802.77118 819.86414 4280888664
16.577982 802.04382 820.55884 4281284191
20.088074 801.31641 821.25354 4281614950
22.708258 801.31641 821.25354 4282076787
25.328442 801.31641 821.25354 4279775315
28.822018 801.31641 821.25354 4286150954
31.442202 801.31641 821.25354 4293451263
34.062386 801.31641 821.25354 4294967295
37.555962 801.31641 821.25354 4294508031
41.005505 802.04382 820.55884 4294901759
43.57798 802.77118 819.86414 4294967295
13.073395 804.10382 820.98779 4281087065
41.834862 804.10382 820.98779 4294574079
43.57798 804.10382 820.98779 4294639615
-10.777982 762.45093 823.79993 4278652991
-8.0834866 762.45093 823.79993 4279178806
-12.53578 766.06104 822.9198 4278326840
-10.744954 766.74561 823.49701 4279439915
-8.9541283 766.06104 822.9198 4279898931
-8.9357796 769.60175 823.28918 4279506992
-7.1266055 773.87537 822.96851 4279769405
-8.9082565 775.23749 824.11707 4279443256
-7.1045871 777.45752 822.0647 4279835702
-4.4403667 778.13647 822.63721 4279901242
-7.9926605 780.17322 824.35461 4279769404
-4.436697 780.9104 823.66815 4279769661
-3.5449541 783.00269 824.12427 4279311168
-1.7669724 785.21008 822.0614 4279311168
1.7669724 785.21008 822.0614 4279245371
-3.5339448 787.9118 824.33948 4279442755
-1.7669724 786.56091 823.20044 4279113790
1.7669724 786.56091 823.20044 4279113792
-3.5229359 791.4574 823.40491 4279245119
-1.7614679 790.78406 822.83722 4279047997
1.174312 790.55957 822.64795 4278652984
3.5229359 790.11072 822.26953 4278587957
-3.5229359 792.80408 824.54041 4279506233
-1.7614679 792.80408 824.54041 4279308854
0.88073397 793.89935 823.50189 4278324528
3.5119267 794.99463 822.46338 4278719799
-3.5119267 797.6795 824.72717 4278585649
-1.7559633 797.0083 824.16119 4278914353
0.87798166 797.0658 822.90167 4279046197
3.5045872 797.79462 822.20813 4279574591
-1.7522936 800.47394 824.46729 4279048760
0.87614679 799.80408 823.90247 4280098623
3.5045872 799.80408 823.90247 4280100165
5.2403669 803.31958 822.9425 4280297290
7.8605499 803.31958 822.9425 4280625745
10.480734 803.31958 822.9425 4280955476
13.100918 803.98724 823.50549 4281416027
16.594496 803.31958 822.9425 4281877348
20.088074 803.31958 822.9425 4281813355
22.708258 803.31958 822.9425 4279971928
25.03731 803.09698 822.75488 4280894241
28.822018 802.65186 822.37952 4291474622
31.442202 802.65186 822.37952 4294967295
34.353516 803.09698 822.75488 4294442495
37.555962 803.31958 822.9425 4294442751
40.176147 803.31958 822.9425 4294639615
7.8605504 805.32269 824.63159 4280954708
10.480734 805.32269 824.63159 4281153370
13.100918 805.32269 824.63159 4281613922
16.594496 805.32269 824.63159 4282010220
20.088074 805.32269 824.63159 4279645249
38.429359 805.32269 824.63159 4294639615
40.176147 805.32269 824.63159 4294770687
-14.414679 761.5874 826.99597 4278193199
-13.472477 765.88416 826.69482 4279046713
-13.132721 769.71191 825.99823 4279440692
-10.744954 769.48376 825.80585 4279572276
-17.012844 771.53748 827.53735 4279374648
-13.418348 772.27747 826.85333 4279572276
-10.722936 773.01746 826.16931 4279377463
-8.9357796 771.65118 825.01721 4279638069
-10.722936 774.38379 827.32129 4279835702
-8.0174313 776.59955 825.2655 4279901239
-12.47156 777.96167 826.41394 4279377463
-10.689908 778.6427 826.98822 4279835200
-7.9926605 782.21008 826.07202 4279573824
-5.3284402 781.53113 825.49951 4279443005
-10.65688 784.24689 827.78943 4280032575
-7.9926605 784.24689 827.78943 4279704893
-4.7266049 784.80939 825.64771 4279376957
-5.3009176 790.61353 826.61749 4279179835
-3.5229359 794.1507 825.6759 4279243313
-5.2844038 796.17065 827.37909 4278522682
-3.5119267 799.69318 826.42505 4278653743
-1.7522936 802.4834 826.16156 4279968316
0.58409786 802.26007 825.97333 4280493377
4.088685 802.70673 826.34979 4280559950
22.779816 803.1532 826.72632 4281423441
25.700304 802.7066 826.34979 4289897856
28.912844 802.48334 826.1615 4294506237
31.541285 802.4834 826.16156 4294770687
33.877674 802.70673 826.34979 4294770687
36.798164 803.1532 826.72632 4294639615
-1.7522936 804.49286 827.85596 4280559169
0 804.49286 827.85596 4280887882
4.380734 804.49286 827.85596 4280823124
7.8605504 806.65814 825.75757 4281020253
10.480734 806.65814 825.75757 4281810267
13.142202 804.49286 827.85596 4281876579
16.64679 804.49286 827.85596 4281615979
19.275229 804.49286 827.85596 4279183692
21.903669 804.49286 827.85596 4284639518
34.93578 806.65814 825.75757 4294836223
37.555962 806.65814 825.75757 4294639615
-16.266054 760.7323 830.19897 4278193691
-16.216515 764.34241 829.31885 4278326840
-14.414679 762.9649 828.15735 4278784570
-16.216515 765.71997 830.48035 4278981952
-19.759632 770.6908 830.74756 4278523458
-16.166973 770.6908 830.74756 4279048762
-22.385321 772.90656 828.69177 4278194219
-17.908257 772.90656 828.69177 4278917176
-13.431192 772.90656 828.69177 4279638069
-22.385321 774.27563 829.84619 4278916921
-19.699083 774.27563 829.84619 4279245121
-17.012844 774.27563 829.84619 4279245877
-14.297248 775.75006 828.47327 4279377463
-13.70153 777.57184 830.00934 4279508028
-12.47156 781.36688 829.28516 4280032575
-10.689908 780.68585 828.71094 4279508548
-10.65688 785.60474 828.93433 4279769405
-7.9926605 785.60474 828.93433 4279573308
-12.433027 786.96265 830.07922 4279835203
-10.65688 786.96265 830.07922 4279835453
-7.9926605 786.96265 830.07922 4279441466
-16.838531 791.13312 830.97974 4279442755
-12.407339 791.13312 830.97974 4280032575
-10.634862 791.13312 830.97974 4279835702
-8.2715597 790.22974 830.21802 4279376441
-7.0678897 793.99072 829.46503 4278983234
-7.0458717 798.86401 829.65002 4279113009
-5.2844038 798.19067 829.08228 4278522155
-4.3899083 802.37805 828.6889 4280098619
1.7559633 802.37805 828.6889 4280756552
25.461468 803.04932 829.25488 4293584618
28.973394 803.04932 829.25488 4294901503
31.60734 803.04932 829.25488 4294442239
33.363304 803.04932 829.25488 4294967295
-4.3899083 804.39172 830.38672 4280297796
-1.7522936 805.83246 828.98547 4280363591
0.87798166 805.11206 829.6861 4281019470
4.3844037 805.11206 829.6861 4281020501
7.8853211 805.83246 828.98547 4281283675
10.513762 805.83246 828.98547 4282007905
13.169725 804.39172 830.38672 4282073957
16.681652 804.39172 830.38672 4280167749
19.315596 804.39172 830.38672 4281089610
21.949541 804.39172 830.38672 4289898375
36.798164 805.83246 828.98547 4294770687
-1.7522936 807.17212 830.11499 4280626765
0 807.17212 830.11499 4280823376
-13.665138 751.99268 833.29431 4278587691
-18.128441 759.88556 833.40918 4278192170
-18.073395 763.49573 832.52905 4278521401
-21.622019 767.09747 831.64185 4278193195
-19.820183 767.09747 831.64185 4278196022
-22.454128 773.43738 833.06348 4279244846
-19.699083 775.64478 831.00061 4279638069
-17.012844 775.64478 831.00061 4279703862
-22.385321 778.38293 833.30933 4279703862
-19.6789 778.4314 832.04218 4279769655
-16.995413 778.4314 832.04218 4279573564
-14.297248 779.84894 831.92944 4280032575
-21.445871 781.21527 833.08142 4279835702
-19.658716 781.21527 833.08142 4279967032
-16.977982 781.21527 833.08142 4279574590
-14.297248 781.21527 833.08142 4279835453
-21.379816 784.77209 832.15637 4279967032
-19.598166 784.77209 832.15637 4279967032
-16.925688 784.77209 832.15637 4279573318
-13.362385 784.09106 831.58215 4279900736
-21.379816 786.13416 833.30481 4279703612
-19.537615 788.3205 831.22412 4279835199
-16.873394 788.3205 831.22412 4279376962
-13.3211 788.3205 831.22412 4279443005
-10.65688 788.3205 831.22412 4279377211
-21.313761 789.67841 832.36914 4279443005
-19.537615 790.3573 832.94159 4279443005
-17.761467 791.03625 833.51404 4279181632
-14.209174 790.3573 832.94159 4279639357
-16.543119 793.3916 832.88397 4279312186
-12.998164 793.3916 832.88397 4279443258
-10.634862 793.16571 832.69348 4279638577
-8.8623857 792.48816 832.12219 4279572276
-8.8348627 796.69238 831.74304 4279310120
-10.601835 798.71869 833.45154 4278784029
-7.9266057 800.88397 831.35327 4279178025
-8.2201834 802.6795 832.86719 4280099642
25.541285 802.90399 833.0564 4294967295
29.06422 802.90399 833.0564 4294639359
31.706423 802.90399 833.0564 4294376959
34.6422 802.6795 832.86719 4294705151
-7.0238533 805.73419 831.51868 4280298050
-4.3899083 805.73419 831.51868 4280495176
1.7559633 805.73419 831.51868 4280889169
4.3899083 805.73419 831.51868 4281349723
7.901835 805.73419 831.51868 4281481307
10.53578 805.73419 831.51868 4282271070
13.169725 805.73419 831.51868 4282075234
16.681652 805.73419 831.51868 4280561460
19.315596 805.73419 831.51868 4285098845
21.949541 805.73419 831.51868 4293058523
-7.0238533 807.07666 832.65063 4280297802
-4.3899083 807.7478 833.21655 4280495184
-1.7559633 807.74786 833.21655 4280824150
0 808.46545 832.51349 4281020753
3.5119267 807.07666 832.65063 4281283675
7.901835 807.07666 832.65063 4281744224
10.53578 807.07666 832.65063 4282140263
14.047707 807.07666 832.65063 4280302157
16.681652 807.07666 832.65063 4282270786
19.315596 807.07666 832.65063 4292989628
-18.275229 751.1488 836.50684 4279515755
-16.398165 753.38562 834.46875 4278198353
-21.820183 757.65717 835.45435 4278661474
-19.092661 756.9621 834.86829 4278458938
-21.754128 761.27155 834.57776 4278195242
-19.941284 761.27155 834.57776 4278193957
-25.7474 775.72626 834.99335 4279572276
-22.454128 774.81067 834.22144 4279572276
-28.741285 777.55731 836.53723 4279245621
-26.046789 777.55731 836.53723 4279573559
-23.280733 779.75208 834.46375 4279967034
-25.07156 781.80573 836.19537 4279835702
-23.280733 781.12115 835.61816 4279835702
-23.233028 784.63098 835.96149 4279639353
-21.379816 788.85834 835.60181 4279508798
-23.161469 790.22046 836.75024 4279181632
-21.313761 793.07312 835.23138 4279115839
-19.537615 793.07312 835.23138 4279181632
-14.209174 793.75208 835.80383 4279377463
-21.313761 795.10992 836.94885 4279443005
-19.537615 795.10992 836.94885 4279574591
-16.838531 796.55341 835.54987 4279442749
-13.293577 796.55341 835.54993 4279113526
-10.634862 795.19836 834.40735 4279178535
-12.368808 800.06958 834.59058 4279177520
-10.601835 800.06958 834.59058 4278849570
-12.368808 802.09583 836.29913 4279113017
-10.601835 802.09583 836.29913 4279967289
28.271559 802.7713 836.86865 4294639615
30.038532 802.7713 836.86865 4294901759
-8.2201834 805.82178 835.5166 4280297799
1.7614679 805.59729 835.32733 4281086546
4.697248 805.82178 835.5166 4281349467
7.9266057 806.27063 835.89502 4282006883
10.568808 806.27063 835.89502 4281682281
12.917432 805.82178 835.5166 4280759114
16.733946 806.27063 835.89502 4286742655
19.376146 806.27063 835.89502 4294967295
21.724771 805.37286 835.13812 4294967295
25.541285 804.92395 834.75964 4294770687
31.706423 804.92395 834.75964 4294901759
-3.5119267 809.76154 834.91443 4280627796
-1.7559633 809.76154 834.91443 4280956761
0 809.76154 834.91443 4281087577
-3.5119267 811.104 836.04639 4280758360
-1.7559633 811.104 836.04639 4280890203
0 811.104 836.04639 4280955742
-20.102753 752.54596 837.68481 4281414219
-26.944954 778.9306 837.69519 4279835199
-28.741285 780.30396 838.85315 4279245371
-26.944954 780.30396 838.85315 4279377213
-25.07156 784.54395 838.50409 4279508798
-25.020184 788.04675 838.84155 4279181632
-23.233028 786.68042 837.68958 4279574591
-25.020184 789.41302 839.99353 4279115839
-23.161469 791.58252 837.8988 4278984252
-23.161469 792.94464 839.04724 4279443005
-19.537615 797.14673 838.6662 4279966782
-17.761467 797.82568 839.23865 4279639084
-15.952293 799.9411 838.40637 4278916899
-14.179816 799.9411 838.40637 4278849589
-12.368808 804.79761 838.57715 4280297281
-10.601835 804.79761 838.57715 4280231750
13.252294 805.47302 839.14661 4280558621
19.436697 805.47302 839.14661 4294967295
22.381653 805.02277 838.76691 4294770687
25.621101 804.12219 838.00769 4294443007
28.271559 804.12219 838.00769 4294574079
30.038532 804.12219 838.00769 4294901759
-7.9266052 808.29065 837.59827 4280626765
-5.2844038 808.29065 837.59827 4280693071
1.7614679 808.29065 837.59827 4281416545
4.4036698 808.29065 837.59827 4281876574
7.9266057 807.61731 837.03052 4282401895
10.568808 807.61731 837.03052 4280237397
16.733946 807.61731 837.03052 4293647821
-7.9266057 810.31061 839.30151 4280758097
-4.3981652 811.37854 838.23987 4281086809
-1.7559633 812.44641 837.17822 4281217628
0.88073397 811.37854 838.23987 4281678433
3.5229359 810.31061 839.30151 4282074470
0 813.78888 838.31018 4281613921
-34.234863 779.49512 842.09521 4279572276
-31.532112 779.49512 842.09521 4279703862
-28.829357 779.49512 842.09521 4279703612
-26.944954 781.67725 840.01111 4279703612
-25.020184 790.7793 841.14563 4279508798
-25.020184 792.14563 842.29761 4279508798
-22.270641 794.3067 840.19568 4279639100
-21.379816 796.34985 841.91846 4279900989
-19.537615 799.86249 840.95605 4279506232
-17.761467 799.86249 840.95605 4278654231
-21.313761 801.89929 842.67346 4279374648
-19.497248 803.3288 841.2627 4279243061
-16.555351 802.40057 841.35211 4279178781
-14.179816 802.65125 840.69147 4279968572
25.700916 803.3288 841.2627 4294311935
28.359632 803.3288 841.2627 4294639615
-12.407339 804.68384 842.40527 4280756804
-10.601835 806.82391 840.28564 4280626252
7.951376 806.82391 840.28564 4282008418
10.601835 806.82391 840.28564 4281281849
13.252294 806.82391 840.28564 4285491556
16.78624 806.82391 840.28564 4294967284
19.436697 806.82391 840.28564 4294967295
22.122936 805.75391 841.34546 4294836223
24.814678 804.68384 842.40527 4294639615
-10.601835 808.85022 841.9942 4280429389
-8.8348627 809.52563 842.56372 4280496210
1.7669724 809.52563 842.56372 4282206058
4.7119269 809.07538 842.18408 4281615972
7.951376 808.85016 841.9942 4279509830
10.601835 808.85022 841.9942 4284896292
13.252294 808.85022 841.99426 4294109134
16.491743 808.62506 841.80438 4294967295
19.436697 808.17474 841.42468 4294770687
21.203671 808.17474 841.42468 4294114559
-7.0458717 811.65723 840.43689 4280890453
-4.4036698 811.65723 840.43689 4281022041
-1.7614679 811.65723 840.43689 4281350752
-3.5229359 813.67725 842.14014 4281416543
-1.7614679 813.00391 841.57239 4281811303
0 813.67725 842.14014 4282140264
-28.013762 778.6947 845.34448 4279835452
-36.036697 782.25012 844.41821 4279967032
-34.234863 781.5614 843.83746 4279769654
-31.532112 781.5614 843.83752 4280031803
-27.027523 782.25012 844.41821 4279966782
-36.937614 783.62769 845.57971 4279705146
-34.234863 783.62769 845.57971 4279509050
-31.485321 784.7124 844.53229 4279508798
-27.027523 783.62769 845.57971 4279574341
-34.130276 788.54382 845.80078 4280032575
-31.43578 788.54382 845.80078 4279574591
-28.741285 788.54382 845.80078 4279705157
-26.944954 788.54382 845.80078 4279705157
-28.653212 792.07397 844.85327 4279966782
-25.927525 793.83557 844.37659 4279769660
-23.233028 794.19507 844.0257 4279769404
-28.594496 796.24451 845.75366 4279703360
-26.807339 796.24451 845.75366 4279769409
-24.943119 799.07397 844.21539 4279768391
-22.567583 798.84698 844.02393 4279571521
-24.943119 801.11713 845.93811 4279308854
-22.237614 802.18713 844.87823 4279111223
-19.537615 803.2572 843.81836 4279308606
-16.873394 803.2572 843.81836 4279966784
-14.209174 803.2572 843.81836 4280691011
26.642202 803.2572 843.81836 4294901759
-19.537615 804.61505 844.96338 4279835199
-16.873394 804.61505 844.96338 4280296003
-13.308256 805.32703 844.25562 4280297798
23.042202 806.03894 843.54785 4294377471
24.814678 806.03894 843.54785 4294049791
-12.407339 808.07153 845.26172 4280625746
-10.634862 808.74908 845.83301 4280627794
10.634862 808.74908 845.83301 4293584123
13.293577 808.74908 845.83301 4294967295
17.133944 808.29736 845.45215 4294574079
19.497248 808.07153 845.26172 4294442751
21.269724 807.39398 844.69043 4294311935
-7.6568809 811.32672 844.08234 4281219416
-5.3009176 811.55188 844.27222 4281351001
-1.7669724 812.22736 844.84167 4282074472
1.7669724 811.55188 844.27222 4282206057
4.4174314 811.55188 844.27222 4279707462
7.951376 810.87646 843.70276 4284437828
-7.0678897 813.57825 845.98071 4281548380
-4.4174314 813.57825 845.98071 4281549922
-1.7669724 813.57825 845.98071 4281617255
0.88348621 813.57825 845.98071 4280104017
-31.628441 782.8399 848.8396 4279574591
-28.917431 780.76733 847.09204 4279770690
-43.244038 785.00519 846.74121 4279572276
-40.541283 785.00519 846.74121 4279703609
-36.937614 785.00519 846.74121 4280032576
-34.234863 785.00519 846.74121 4279966782
-27.92844 785.00519 846.74121 4279705157
-43.244038 786.38269 847.90271 4279769655
-36.937614 786.38269 847.90271 4280098621
-34.729053 790.8327 847.73071 4279508798
-31.43578 789.91711 846.95874 4279508798
-31.339451 794.12769 846.5849 4279508798
-28.653212 793.44312 846.00769 4279966782
-31.339451 796.18127 848.31641 4279834946
-28.594496 797.61084 846.90576 4279703360
-26.807339 797.61084 846.90576 4279374652
-28.594496 798.97711 848.05774 4279703612
-26.807339 798.97711 848.05774 4279572026
-24.943119 803.16028 847.66083 4278784283
-22.270641 803.16028 847.66083 4279573038
-19.537615 805.97296 846.10828 4280427583
-16.873394 805.97296 846.10828 4280361288
-14.209174 805.97296 846.10828 4280165199
-21.313761 808.68872 848.39807 4280560968
-19.537615 808.00977 847.82562 4280363589
-16.873394 808.00977 847.82562 4280428876
-14.209174 808.00977 847.82562 4280495183
16.873394 808.68872 848.39807 4294442751
19.537615 808.68872 848.39807 4294705151
-12.407339 810.78168 847.54688 4280824150
-10.634862 810.78168 847.54688 4280956246
-8.8623857 810.78168 847.54688 4281219161
4.4311924 811.45923 848.11816 4282538292
7.9761467 810.78168 847.54688 4291808148
10.634862 810.78168 847.54688 4294967295
13.293577 810.78168 847.54688 4294770687
-4.4174314 814.92908 847.11975 4281550953
0 814.92908 847.11975 4281284958
-43.376148 785.60333 851.16968 4279835702
-40.363911 785.14276 850.78131 4279901241
-45.045872 787.76025 849.06421 4279769655
-36.937614 787.76025 849.06421 4279770687
-37.237919 790.05615 851 4279508798
-34.130276 793.35034 849.85358 4279770687
-34.130276 795.41034 851.59045 4279574591
-31.339451 797.55042 849.47083 4279639361
-31.617126 799.85052 850.53827 4279114810
-28.594496 800.34338 849.20984 4279245621
-26.807339 800.34338 849.20984 4279048499
-30.381651 802.39282 850.93781 4278392630
-28.594496 802.39282 850.93781 4278391854
-26.807339 802.39282 850.93781 4278392111
21.445871 803.07599 851.51379 4294443007
-30.288073 806.56549 850.53198 4278390314
-28.506422 806.56549 850.53198 4278917176
-25.537003 806.11151 850.14917 4279640884
-22.567583 805.65747 849.76636 4280101177
-25.833946 807.92761 851.68054 4280034882
-23.161469 807.92761 851.68054 4280494922
-21.313761 810.04657 849.54309 4280628046
-19.537615 810.04657 849.54309 4280496460
-16.429358 811.06494 850.40173 4280889688
-13.498715 811.67596 850.91699 4280956765
-10.645871 812.78833 850.54681 4280630109
-8.2776756 812.79694 850.11816 4280893281
-1.7743119 812.78833 850.54681 4281024350
1.7743119 812.78833 850.54681 4280825390
4.4376144 812.43579 850.90369 4290557064
7.9889908 812.43591 850.90369 4294967039
10.65688 811.40448 850.68799 4294639615
13.3211 812.08337 851.2605 4294245631
16.873394 810.04657 849.54309 4294508543
-7.0899081 814.16937 850.4032 4281613921
-4.4311924 814.16937 850.4032 4281878377
0 814.16937 850.4032 4278723328
-47.133945 784.8324 854.44373 4279835702
-43.508255 784.8324 854.44373 4279967032
-40.665138 786.98511 852.33472 4279836732
-36.995415 790.82068 853.60669 4279770687
-36.036697 793.95905 854.29083 4279508798
-34.130276 796.78363 852.74841 4279443005
-35.028442 798.15698 853.90637 4279311418
-34.025688 803.02679 854.08838 4279047745
-32.234863 801.65771 852.93396 4278392631
-31.57309 805.35321 853.4339 4278916658
-28.594496 805.80859 853.81787 4279509050
-30.381651 807.17487 854.96985 4279835704
-28.594496 807.17487 854.96985 4279838001
-25.875229 808.2323 853.89941 4280166717
-22.270641 809.28967 852.82898 4280758091
-19.598166 809.28967 852.82898 4280955214
-17.816513 809.28967 852.82898 4280561749
16.034863 809.28967 852.82898 4294443007
-24.943119 810.65173 853.97742 4280297802
-22.270641 810.65173 853.97742 4280692047
-19.598166 810.65173 853.97742 4281217878
-17.816513 810.65173 853.97742 4280955996
10.689908 810.65173 853.97742 4294311679
-15.985321 814.12024 852.97778 4281613921
-13.3211 814.79919 853.55029 4281550949
-10.65688 814.12024 852.97778 4281616742
-7.6966362 814.57294 853.35944 4281616744
-4.7363911 814.57294 853.35944 4281090403
-1.7761468 814.12024 852.97778 4278853445
0 814.12024 852.97778 4282533120
7.1045871 814.12024 852.97778 4294967295
13.3211 814.12024 852.97778 4294180095
-49.095413 784.06989 857.72485 4279769405
-46.367889 784.06989 857.72485 4279966782
-43.640366 784.06989 857.72485 4279967032
-40.335777 787.25775 856.48877 4279639869
-37.954128 791.13025 855.82983 4279574591
-37.954128 792.51196 856.99487 4279508798
-37.838531 797.40283 857.19458 4279377213
-35.327831 799.98804 855.45038 4279049281
-35.926605 802.27692 857.38013 4279048249
-34.025688 805.08044 855.82001 4278981426
-32.234863 805.76501 856.39722 4279375153
-34.025688 807.13409 857.55151 4279047456
-31.27523 809.22437 856.698 4279639352
-28.594496 809.22437 856.69794 4279705411
-26.807339 808.5412 856.12195 4280100165
-25.833946 812.01385 855.12598 4280297037
-22.270641 812.01385 855.12598 4280889171
-19.598166 812.01385 855.12598 4281349466
-17.816513 812.01385 855.12598 4281350750
1.7816514 812.01385 855.12598 4289638746
4.4541283 812.01385 855.12598 4294439935
8.9082565 812.01385 855.12598 4294967295
10.689908 812.01385 855.12598 4294443007
-25.833946 813.37592 856.27441 4280560462
-22.270641 814.05701 856.84863 4280955477
-19.598166 814.05701 856.84863 4281284957
-16.925688 814.05701 856.84863 4281483623
-13.362385 814.73804 857.42285 4281682535
-10.689908 814.05701 856.84863 4281682540
-8.9082565 814.05701 856.84863 4281814125
-4.1571865 814.284 857.04004 4279576095
-1.7816514 814.05701 856.84863 4284838743
0.59388381 813.8299 856.65723 4291608517
4.4541283 813.37592 856.27441 4294967295
8.0174313 813.37592 856.27441 4294705151
10.689908 813.37592 856.27441 4294508543
12.47156 813.37592 856.27441 4294377471
-7.1045871 816.836 855.2677 4281814637
-49.194496 784.03052 860.30774 4279703612
-46.461468 784.03052 860.30774 4279377211
-43.640366 785.46002 858.89697 4279377211
-41.822018 785.46002 858.89697 4279574591
-43.640366 786.85016 860.06909 4280032575
-41.822018 786.85016 860.06909 4279966782
-39.882568 791.06909 859.70233 4279443259
-37.954128 793.89368 858.15991 4279377463
-39.761467 795.96631 859.90741 4279311419
-37.838531 799.46912 858.93683 4279245626
-37.838531 801.5354 860.67908 4279506233
-35.926605 803.65021 858.53809 4279375153
-37.722935 805.71014 860.27502 4278914354
-35.926605 805.71014 860.27502 4278586902
-34.025688 809.18774 859.28314 4279441954
-32.234863 809.87231 859.86035 4279967032
-30.381651 811.95691 859.00201 4280230207
-28.594496 811.95691 859.00201 4279968583
-25.913761 812.64008 859.578 4280692048
1.787156 812.64008 859.578 4294967295
4.4678898 812.64008 859.578 4294967295
8.042202 812.64008 859.578 4294705151
10.722936 812.64008 859.578 4294770687
-30.381651 814.00635 860.72998 4280296003
-28.594496 814.00635 860.72998 4280624714
1.787156 814.00635 860.72998 4294967295
4.4678898 814.00635 860.72998 4294443007
8.042202 814.00635 860.72998 4294180863
-25.833946 816.1001 858.57129 4280757329
-22.270641 816.78113 859.14551 4281285215
-19.598166 816.1001 858.57129 4281416545
-16.925688 816.1001 858.57129 4281877095
-13.362385 816.1001 858.57129 4281748074
-10.689908 816.1001 858.57129 4281551726
-8.0174313 816.78113 859.14551 4280631109
-4.75107 816.55414 858.9541 4283917132
-1.7816514 816.78113 859.14557 4294241757
0 816.78113 859.14557 4294967295
-51.016514 785.42346 861.48218 4279508798
-49.194496 785.42346 861.48218 4279508798
-46.461468 785.42346 861.48218 4279966782
-51.623852 787.28076 863.04816 4280032323
-49.194496 787.51288 863.24396 4279966531
-46.765137 787.28076 863.04816 4280032575
-43.640366 788.2403 861.24133 4280032575
-41.822018 788.2403 861.24133 4279966782
-45.458717 790.3255 862.99951 4279966782
-43.640366 790.3255 862.99951 4279835450
-41.822018 789.63043 862.41345 4279967032
-41.695412 793.84094 862.03949 4279769661
-41.695412 795.91986 863.79236 4279637819
-40.363914 799.42065 862.82001 4279244858
-39.640366 802.9129 861.84058 4279308854
-39.640366 804.29047 863.00208 4278914612
-37.722935 807.77014 862.01196 4278979885
-35.327831 808.68573 862.78394 4279309614
-32.234863 811.9259 861.59198 4280032575
-31.339451 813.97961 863.32349 4279836742
-28.594496 815.37268 861.88208 4280560968
-25.913761 815.37268 861.88208 4280626768
-19.658716 815.37268 861.88208 4281613921
-16.977982 815.37268 861.88208 4281877096
-13.403669 815.37268 861.88208 4282336879
-10.722936 815.37268 861.88208 4281289835
-3.574312 815.37268 861.88208 4291150006
1.787156 815.37268 861.88208 4294967295
4.4733944 814.67615 862.60278 4294443007
7.1633029 813.97961 863.32349 4294311935
-28.594496 816.73895 863.03406 4280626765
-25.913761 816.73895 863.03406 4280692563
-22.339451 816.73895 863.03406 4281351008
-8.042202 816.73895 863.03406 4280957223
-4.4678898 816.73895 863.03406 4293914064
-1.787156 816.73895 863.03406 4294967295
0 816.73895 863.03406 4294770687
-7.1266055 821.54846 863.16528 4294768127
-51.016514 790.29877 865.59296 4279966785
-49.194496 789.60229 865.00574 4279966532
-46.765137 790.53094 865.78876 4279966782
-43.640366 793.10583 865.34375 4279769661
-41.695412 797.30579 864.96094 4279506233
-43.508255 798.69177 866.12964 4279245371
-41.568806 803.5658 866.31506 4278979635
-39.640366 805.66797 864.16357 4278979885
-39.640366 807.04547 865.32495 4278914862
-37.838531 807.73425 865.9057 4279309869
-34.729053 810.97443 864.71368 4279769654
-35.028442 813.26337 866.64368 4280032831
-31.339451 815.34869 864.47791 4280034120
-19.699083 815.34869 864.47791 4281613921
-17.012844 815.34869 864.47791 4281943141
-13.431192 815.34869 864.47791 4282140522
-10.744954 815.34869 864.47791 4279451477
1.7908257 815.34869 864.47791 4294377471
4.4770641 815.34869 864.47791 4294377471
7.1633029 815.34869 864.47791 4293982719
-30.444036 816.71783 865.63232 4280363591
-28.653212 817.40234 866.20953 4280757329
-25.953213 817.74921 865.84802 4280757846
-22.385321 817.40234 866.20947 4281416289
-17.908257 816.71783 865.63232 4281811303
-13.132721 817.17413 866.01709 4280167754
-10.744954 817.40234 866.20953 4280423202
-8.3461771 818.09912 865.05304 4287924094
-4.1749234 817.63666 865.5351 4294836213
-1.787156 818.10522 864.18616 4294967295
1.1938838 817.63666 865.5351 4293982719
3.5816514 816.71783 865.63232 4294114559
-7.1486239 820.83783 866.49011 4294967295
-5.3614678 820.15466 865.91412 4294967295
-1.787156 819.47156 865.33813 4294574079
0 820.15466 865.91412 4294180095
-46.765137 792.85254 867.74628 4280098116
-45.937157 796.22937 868.63147 4279835201
-43.640366 795.19104 867.10193 4279703612
-43.508255 800.0777 867.29822 4279308854
-41.695412 800.0777 867.29822 4279177268
-43.508255 802.15662 869.05109 4278980148
-40.665138 805.63837 868.06262 4279046701
-39.761467 807.71094 869.81018 4279310119
-36.937614 809.80054 867.64795 4279704369
-37.237919 812.09637 869.5838 4279835702
-34.130276 814.63666 867.80164 4280296003
-32.333946 814.63666 867.80164 4280297798
-19.759632 814.63666 867.80164 4281613921
-16.166973 814.63666 867.80164 4282206060
5.3889909 814.63666 867.80164 4294377471
-34.130276 816.01001 868.95959 4280232007
-31.43578 816.01001 868.95959 4280429132
-19.759632 816.01001 868.95959 4281679714
-17.065138 816.01001 868.95959 4282467688
-14.370643 816.01001 868.95959 4281025114
-25.668503 819.91235 868.32587 4281547100
-23.280733 819.45599 867.94104 4281941859
