# .PCD v0.7 - Point Cloud Data file format
VERSION 0.7
FIELDS x y z rgb
SIZE 4 4 4 4
TYPE F F F U
COUNT 1 1 1 1
WIDTH 1165
HEIGHT 1
VIEWPOINT 0 0 0 1 0 0 0
POINTS 1165
DATA ascii
-7.8440361 782.11542 802.44769 4280033336
-4.6483178 781.89331 802.26044 4281021254
-1.7431192 782.11542 802.44769 4281022543
-66.029358 787.01965 802.65869 4281412930
-64.29174 787.01965 802.65869 4282596947
-48.65321 786.35541 802.09863 4280757331
-46.046791 786.35541 802.09863 4280100176
-43.440369 787.01965 802.65869 4281546329
-40.833946 787.01959 802.65869 4281480783
-38.227524 787.01965 802.65869 4280757321
-33.883484 787.01965 802.65869 4279967805
-31.277063 787.01965 802.65869 4279506733
-28.670643 787.01959 802.65869 4279113255
-25.195412 787.01965 802.65869 4278588451
-22.588991 787.01965 802.65869 4278522915
-19.982569 787.01965 802.65869 4278457379
-16.507339 787.01959 802.65869 4278588460
-13.03211 787.01965 802.65869 4278719805
-10.425688 787.01965 802.65869 4278719809
-7.8192658 787.01959 802.65869 4278654274
-4.6336389 786.79816 802.47198 4278918730
-1.7376146 787.01965 802.65869 4279641168
-61.201221 790.36206 801.55292 4284964219
-49.076458 790.36206 801.55292 4284242546
-45.900917 790.58276 801.73901 4283847787
-36.374313 789.92065 801.18079 4282664281
-28.579817 791.24487 802.29724 4280560728
-25.115597 791.24487 802.29724 4279839058
-22.517431 791.24487 802.29724 4279643477
-19.919266 791.24487 802.29724 4279643734
-17.3211 791.24487 802.29724 4279381075
-12.124771 791.24487 802.29724 4279577684
-10.39266 791.24487 802.29724 4279249739
-6.9284406 791.24487 802.29724 4279969612
-4.0415902 790.80347 801.92511 4279575370
-1.7321101 791.24487 802.29724 4279641164
-60.495415 794.05469 802.05029 4278459984
-57.902752 794.05469 802.05029 4278851912
-55.310093 794.05469 802.05029 4278917957
-52.71743 794.05469 802.05029 4278654786
-49.260551 794.05469 802.05029 4278785348
-46.667889 794.05469 802.05029 4279047495
-44.121101 793.31189 802.73206 4278851912
-41.570641 792.56909 803.41382 4278982735
-31.177982 792.56909 803.41382 4279706194
-28.579817 792.56909 803.41382 4279771987
-25.089909 793.31189 802.73206 4279510610
-22.469725 794.05469 802.05029 4279183442
-19.877064 794.05469 802.05029 4279052878
-16.436697 793.31189 802.73206 4279837522
-12.990826 792.56909 803.41382 4279838029
-10.39266 792.56909 803.41382 4279052878
-7.7944956 792.56909 803.41382 4279379533
-4.3302751 792.56909 803.41382 4279772238
-1.7321101 792.56909 803.41382 4279772238
-60.495415 795.3761 803.16455 4279049541
-58.766972 795.3761 803.16455 4278853436
-55.995415 797.60034 801.11584 4279050048
-52.549541 797.60034 801.11584 4279049541
-49.103668 797.60034 801.11584 4278917705
-46.519264 797.60034 801.11584 4279115087
-44.00367 796.48822 802.1402 4279245907
-41.482571 795.3761 803.16455 4279245651
-36.297249 795.3761 803.16455 4279574867
-32.840366 795.3761 803.16455 4279770952
-28.519266 795.3761 803.16455 4279640399
-25.062386 795.3761 803.16455 4279771984
-22.469725 795.3761 803.16455 4279772238
-19.813763 797.60034 801.11584 4279706445
-16.420183 795.3761 803.16455 4279706193
-12.963303 795.3761 803.16455 4279969614
-10.370643 795.3761 803.16455 4279249235
-7.7779818 795.3761 803.16455 4279052369
-4.3211012 795.3761 803.16455 4279379536
-1.7284404 795.3761 803.16455 4279772238
-60.302753 800.23474 803.33704 4279706958
-58.579815 799.57617 802.78174 4279968073
-55.995415 799.57617 802.78174 4279837001
-52.549541 799.57617 802.78174 4279706443
-49.103668 799.57611 802.78174 4279706701
-46.519264 799.57617 802.78174 4279772238
-43.93486 799.57611 802.78174 4279706191
-40.488991 799.57611 802.78174 4279574864
-37.904587 800.23474 803.33704 4279706192
-31.012844 800.23474 803.33704 4279771986
-28.42844 800.23474 803.33704 4279771986
-24.982569 800.23474 803.33704 4279379536
-22.398165 800.23474 803.33704 4279052878
-19.813763 799.57617 802.78174 4279838026
-16.367891 799.57617 802.78174 4279706193
-12.922018 799.57611 802.78174 4279772238
-10.337615 799.57617 802.78174 4278987087
-8.0403671 799.79572 802.9668 4279182925
-49.858715 803.02637 803.07483 4280033870
-44.700916 803.02637 803.07483 4279641164
-39.543118 803.02637 803.07483 4279574606
-18.911926 803.02637 803.07483 4279052624
44.083179 748.87958 805.81689 4288988927
46.466057 749.79047 806.58484 4288920063
48.253212 748.42413 805.43286 4289055743
76.84771 747.74097 804.85681 4291157247
79.528442 747.74097 804.85681 4291222783
83.102753 747.74097 804.85681 4291617279
85.783485 748.42413 805.43286 4291814655
88.166359 749.33502 806.20087 4291946239
91.740669 748.87958 805.81689 4291749375
94.719269 748.42413 805.43286 4291815935
96.506424 748.42413 805.43286 4291880447
48.995415 752.08203 804.5929 4289379839
52.558716 752.08203 804.5929 4289577471
55.231194 752.08203 804.5929 4289972479
57.903671 752.08203 804.5929 4290038527
61.466972 752.08203 804.5929 4290828543
65.030273 752.08203 804.5929 4291156735
67.702751 752.08203 804.5929 4290697215
70.375229 752.08203 804.5929 4291025919
73.047707 752.08203 804.5929 4290959871
76.611008 752.08203 804.5929 4291353343
79.283485 752.08203 804.5929 4291682815
82.846786 752.08203 804.5929 4291880191
85.519264 752.08203 804.5929 4291946239
92.645874 752.08203 804.5929 4292012287
94.427521 752.08203 804.5929 4292143871
97.990829 752.08203 804.5929 4292077311
100.6633 752.08203 804.5929 4292471551
52.558716 753.44409 805.74146 4282870219
55.231194 753.44409 805.74146 4283856853
62.3578 753.44409 805.74146 4289578751
65.030273 753.44409 805.74146 4290369791
88.191742 754.12512 806.31567 4291946495
90.86422 754.12512 806.31567 4291880703
53.284405 757.08929 804.89087 4280107154
55.948624 757.08929 804.89087 4283657911
58.612843 757.08929 804.89087 4285629636
61.57309 757.54193 805.27246 4284644033
64.533333 757.54193 805.27246 4284978660
82.886848 757.54193 805.27246 4291618303
85.255043 757.76819 805.46332 4291749631
87.919266 758.44714 806.03577 4291947007
91.767578 757.99457 805.65411 4292077311
94.13578 757.08929 804.89087 4292077311
97.688072 757.08929 804.89087 4292405759
99.464218 757.76819 805.46332 4292274175
108.34496 758.44714 806.03577 4292471551
53.174313 759.96643 804.70068 4278393439
55.537613 760.41815 805.08154 4278194527
58.491745 760.64392 805.27197 4278191716
60.855045 760.86981 805.4624 4278653288
64.695412 760.64392 805.27197 4282090199
67.354126 759.96643 804.70068 4289845247
70.012848 759.96643 804.70068 4290961663
77.102753 760.64392 805.27197 4291552255
79.761467 760.64392 805.27197 4291683839
82.124763 760.86981 805.4624 4291749375
85.965134 761.32147 805.84326 4292077823
88.623856 761.32147 805.84326 4292208895
91.28257 761.32147 805.84326 4292208895
94.827515 760.64398 805.27197 4292405759
97.486237 760.64392 805.27197 4292668415
100.44037 760.86981 805.4624 4292602879
103.68991 760.64392 805.27197 4292471551
106.34863 760.64392 805.27197 4292537599
109.89358 761.32147 805.84326 4292339967
31.805504 764.94708 804.9762 4280167245
33.572475 764.94708 804.9762 4280035659
53.009174 764.94708 804.9762 4279971677
55.65963 764.94708 804.9762 4281091188
58.310093 764.94708 804.9762 4281815943
60.960548 764.94708 804.9762 4282275717
64.494492 764.94708 804.9762 4283404756
67.144951 764.94708 804.9762 4291485695
70.678902 764.94708 804.9762 4291223039
73.329361 764.94708 804.9762 4291420927
76.863304 764.94708 804.9762 4291618303
79.761467 762.67657 806.98584 4291684095
82.420181 762.67657 806.98584 4291880447
85.965134 762.67657 806.98584 4291946239
88.623856 762.67657 806.98584 4292077311
91.28257 762.67657 806.98584 4292143103
94.827522 762.67657 806.98584 4292275199
97.486237 762.67657 806.98584 4292078079
100.14495 762.67657 806.98584 4292274687
103.68991 762.67657 806.98584 4292339967
106.34863 762.67657 806.98584 4292406015
109.89358 762.67657 806.98584 4292405759
111.66605 762.67657 806.98584 4292405759
60.960548 766.29791 806.11523 4281683614
63.611008 766.29791 806.11523 4279457693
76.863304 766.29791 806.11523 4291749375
79.513763 766.29791 806.11523 4291946239
81.280731 766.29791 806.11523 4291946239
85.698166 766.29791 806.11523 4292078079
88.348625 766.29791 806.11523 4292208895
90.999084 766.29791 806.11523 4292209151
94.533028 766.29791 806.11523 4292603647
111.31927 766.29791 806.11523 4292866559
29.944954 768.56421 804.10205 4280559955
31.706423 769.23755 804.66974 4279572035
34.348625 769.23755 804.66968 4279638343
37.871559 769.23755 804.66974 4279573577
40.51376 769.23755 804.66974 4279705932
43.155968 769.23755 804.66968 4279639628
46.678898 768.56421 804.10205 4280100948
49.321102 768.56421 804.10205 4279577686
52.256882 769.01312 804.48047 4279774300
55.192657 769.01312 804.48047 4281024883
59.009174 769.23755 804.66974 4281356942
61.651375 769.91089 805.23743 4280897430
64.587158 769.46198 804.85895 4287281900
67.816513 769.23755 804.66974 4291945983
70.458717 769.23755 804.66974 4291354879
73.100922 769.23755 804.66974 4291420671
15.80367 773.51544 804.35266 4278190123
21.07156 773.51544 804.35266 4278190131
31.60734 773.51544 804.35266 4278191422
34.348625 771.25757 806.37292 4278191425
37.871559 771.25757 806.37292 4278190908
40.51376 771.25757 806.37292 4278586946
43.155964 771.25757 806.37292 4278259526
46.533028 773.51544 804.35266 4278262864
50.044952 773.51544 804.35266 4278592338
52.678898 773.51544 804.35266 4279511139
55.312843 773.51544 804.35266 4280432498
58.824768 773.51544 804.35266 4280764030
61.458717 773.51544 804.35266 4282147482
64.293579 771.25757 806.37292 4286950893
67.816513 771.25757 806.37292 4292471295
70.458717 771.25757 806.37292 4291880191
73.100922 771.25757 806.37292 4291815167
82.788994 771.25757 806.37292 4291879935
85.431198 771.25757 806.37292 4291946239
88.954132 771.25757 806.37292 4292274943
0 776.36035 804.13525 4279578951
13.142202 776.36035 804.13525 4278190125
16.64679 776.36035 804.13525 4278190120
19.275229 776.36035 804.13525 4278190117
21.903669 776.36035 804.13525 4278190129
25.408257 776.36035 804.13525 4278190131
28.912844 776.36035 804.13525 4278191151
31.60734 775.52905 806.05054 4278191165
34.241287 776.20032 806.61646 4278191938
36.875229 776.20032 806.61646 4278192200
40.387157 776.20032 806.61646 4278193481
43.313763 775.75287 806.2392 4278258760
46.207336 775.80615 805.41211 4278720331
49.940369 776.36035 804.13525 4278592592
52.568806 776.36035 804.13525 4279117398
55.567585 775.80615 805.41211 4279839072
58.764221 775.60913 804.80994 4279447912
61.458717 774.85785 805.48462 4279648371
63.799999 775.75275 806.2392 4282214042
67.311928 775.75287 806.2392 4289250530
71.116516 776.20032 806.61646 4292471551
73.750458 776.20032 806.61646 4292801279
82.530273 776.20032 806.61646 4292668927
85.164215 776.20032 806.61646 4292209151
89.554131 776.20032 806.61646 4292012287
14.018349 777.69995 805.26489 4278191153
16.64679 777.69995 805.26489 4278190896
19.275229 777.69995 805.26489 4278190382
21.61162 778.14648 805.64142 4278717758
25.408257 778.36981 805.82965 4278720322
28.912844 778.36975 805.82971 4278589762
31.541285 779.03961 806.39441 4279315532
33.293579 779.03961 806.39441 4279249739
46.727829 778.59302 806.01788 4279509072
49.940369 778.36981 805.82965 4278789711
52.568806 778.36975 805.82965 4279641938
54.905201 778.59302 806.01788 4279642453
58.409786 778.14648 805.64142 4279380051
61.330276 778.36975 805.82965 4278854468
73.596329 779.03961 806.39441 4291943935
0.87339449 781.28485 804.36353 4279771458
4.3669724 781.28485 804.36353 4279508799
8.1516819 781.72998 804.73883 4280100682
10.480734 781.95258 804.92651 4280099914
13.100918 781.95258 804.92651 4279771206
16.594496 781.95258 804.92651 4279574854
19.796942 782.17511 805.1142 4279772232
22.708258 781.95258 804.92651 4279706696
24.455046 782.6203 805.4895 4278921289
28.822018 782.6203 805.4895 4279115591
-69.72477 784.11438 804.13318 4278984502
-67.981651 784.7807 804.69501 4279119438
0.87155962 784.78064 804.69507 4279706699
4.3577981 784.7807 804.69501 4279706952
7.5535164 785.00275 804.88232 4279838031
10.458715 785.44702 805.25684 4279641162
13.088074 784.70142 805.93616 4279771978
16.594496 783.95575 806.61548 4279771978
20.088074 783.95575 806.61548 4279706703
22.708258 783.95575 806.61548 4279640399
24.455046 783.95575 806.61548 4278983496
28.822018 783.95575 806.61548 4279244635
61.137615 783.95575 806.61548 4279969362
-67.110092 786.7796 806.38049 4281416819
4.3577981 786.7796 806.38049 4279772238
7.8440366 786.7796 806.38049 4279968597
10.458715 786.7796 806.38049 4279641164
12.201835 786.7796 806.38049 4279641164
-66.029358 790.3407 805.45898 4279248985
-64.29174 790.34064 805.45898 4280234081
-62.554127 789.67651 804.89893 4281350506
-43.440369 789.01227 804.33887 4283059039
-40.544342 789.45508 804.71222 4281480794
-37.358719 789.67651 804.89893 4280494927
-33.883484 789.67651 804.89893 4280493641
-31.277063 789.01227 804.33887 4280626522
-15.638532 789.01227 804.33887 4279512404
-13.900917 789.01227 804.33887 4279577684
-8.6880732 789.01227 804.33887 4279249739
1.0425688 790.07501 805.23499 4279640399
4.0544343 791.22626 806.20563 4279640399
6.9504585 791.66907 806.57898 4279640399
12.163302 791.66907 806.57898 4279641164
-62.355965 793.89331 804.5304 4279049541
-39.838531 793.89331 804.5304 4279245651
-38.106422 793.89331 804.5304 4279443538
-34.6422 793.89331 804.5304 4279705159
-31.177982 793.89331 804.5304 4279640399
0 793.89331 804.5304 4279706192
-64.088074 795.87964 806.20514 4279706698
-61.359634 796.69751 804.27869 4279641165
-37.201836 795.95752 804.96277 4279771986
-34.6422 795.21753 805.64685 4279641164
-31.976147 796.69751 804.27869 4279640910
-28.519266 796.69751 804.27869 4279313487
-25.062386 796.69751 804.27869 4279379536
-22.469725 796.69751 804.27869 4279772238
-6.9137616 796.69751 804.27869 4278921039
-4.3211012 796.69751 804.27869 4279379536
-1.7284404 796.69751 804.27869 4279903567
0.86605507 795.87964 806.20514 4279509578
3.4642203 796.54175 806.76343 4278986580
6.9284406 796.54175 806.76343 4279640399
-62.223854 798.67963 805.94995 4279640910
-36.297249 798.01892 805.39282 4279706192
-34.568806 798.01892 805.39282 4279706192
-32.840366 798.01892 805.39282 4279771986
-4.3211012 798.01892 805.39282 4279772238
-1.7284404 798.67963 805.94995 4279771984
-60.302753 802.21057 805.00305 4279640400
-58.579815 802.21057 805.00305 4279705932
-55.995415 802.21057 805.00305 4279771466
-52.549541 802.21057 805.00305 4279837002
-48.242203 802.21057 805.00305 4279771724
-46.519264 802.21057 805.00305 4279705931
-43.647705 802.43011 805.18817 4279509578
-40.77615 802.43011 805.18817 4279116880
-37.043121 802.21057 805.00305 4279640399
-34.458717 802.21057 805.00305 4279640147
-31.874313 802.21057 805.00305 4279640402
-28.42844 802.21057 805.00305 4279640400
-24.982571 802.21057 805.00305 4279313743
-22.398165 802.21057 805.00305 4278986830
-20.67523 801.55194 804.44775 4278921037
-16.367889 802.21057 805.00305 4279771987
-12.922018 802.21057 805.00305 4279706193
-10.337615 801.55194 804.44775 4279772238
-7.753211 802.21057 805.00305 4279640908
-4.3073397 802.21057 805.00305 4279640653
-1.7229358 802.86914 805.55835 4279706192
-61.164223 804.18634 806.66895 4279443534
-58.579815 804.18634 806.66895 4279443788
-55.995415 804.18634 806.66895 4279443786
-52.466057 805.94513 806.18988 4279443784
-49.171013 805.91803 805.51306 4279509578
-46.420185 806.31238 805.84552 4279443785
-43.841286 806.31238 805.84558 4278854217
-40.445873 805.57794 806.5343 4279051083
-37.043121 804.18634 806.66895 4279509322
-34.42202 805.57794 806.5343 4279443536
-31.840366 805.57794 806.5343 4279443535
-28.383486 805.94519 806.18994 4279116365
-24.929358 806.31238 805.84558 4279313742
-22.350458 806.31238 805.84552 4279706701
-19.771561 805.65521 805.29144 4279706445
-16.046484 806.09326 805.66083 4279771986
-12.607951 806.09326 805.66083 4279771985
-10.315597 805.65521 805.29132 4279640909
-7.7440367 804.92078 805.98016 4279641164
-4.3073397 804.18634 806.66895 4279640653
-1.7229358 804.18634 806.66895 4279706192
108.34496 760.48401 807.75311 4292537855
83.306419 764.03162 808.12842 4292078079
97.486237 764.03162 808.12842 4292339967
100.14495 764.03162 808.12842 4292471807
103.68991 764.03162 808.12842 4292406015
106.34863 764.03162 808.12842 4292471295
109.00734 764.03162 808.12842 4292405503
76.863304 767.6488 807.25427 4291814911
79.513763 767.6488 807.25427 4292012031
82.164215 767.6488 807.25427 4291815423
85.698166 767.6488 807.25427 4291946751
88.348625 767.6488 807.25427 4292078079
90.999084 767.6488 807.25427 4291814911
94.533028 767.6488 807.25427 4292340735
97.183487 767.6488 807.25427 4292274943
100.14495 765.38672 809.271 4292668415
103.68991 765.38672 809.271 4292602879
106.34863 765.38672 809.271 4292799743
109.00734 765.38672 809.271 4292405247
111.66605 765.38672 809.271 4292668927
76.863304 769.67505 808.96265 4291881215
79.513763 768.99963 808.39319 4292537855
81.280731 768.99963 808.39319 4292143103
91.882568 768.99963 808.39319 4292208895
94.533028 769.67505 808.96271 4292339967
97.772484 769.90021 809.15253 4292471551
100.71743 770.35052 809.53223 4292537599
102.48441 770.35052 809.53223 4292406783
107.78532 770.35052 809.53223 4292603903
109.55229 769.67505 808.96271 4292538111
111.90826 769.44995 808.77289 4292603903
34.348625 772.60419 807.50842 4278190654
38.165134 773.05304 807.8869 4278191680
40.51376 772.60419 807.50842 4278193476
42.27523 772.60419 807.50842 4278193478
65.174309 772.60419 807.50842 4287085311
68.69725 772.60419 807.50842 4290767871
70.458717 772.60419 807.50842 4292013823
73.100922 772.60419 807.50842 4292013567
76.623856 773.95087 808.64392 4292472319
79.266052 773.27753 808.07617 4292012031
81.614677 773.05304 807.8869 4292208383
85.431198 772.60419 807.50842 4292011519
88.660553 773.05304 807.8869 4292143615
91.596329 773.27753 808.07617 4292405759
93.357796 773.95087 808.64392 4292668415
112.73395 773.27753 808.07617 4292472831
76.623856 775.29749 809.7793 4292734463
91.596329 775.29749 809.7793 4292669439
94.238525 775.29749 809.7793 4292603391
-73.750458 778.88519 808.88037 4278193436
35.119267 777.54279 807.74841 4278921037
37.753212 777.54279 807.74841 4279183953
40.387157 777.54279 807.74841 4279117646
43.021103 777.54279 807.74841 4278526543
59.702751 777.54279 807.74841 4279641162
64.092659 777.54279 807.74841 4278191702
67.604584 778.21399 808.31439 4278190160
71.116516 777.54279 807.74841 4281759448
76.384399 778.88519 808.88037 4292736511
79.896332 778.21399 808.31445 4292406527
82.530273 778.21399 808.31439 4292340735
85.164215 778.21399 808.31439 4292209407
88.676147 778.21399 808.31445 4292406527
-70.967896 781.04907 808.08875 4278396225
26.284403 781.04907 808.08875 4279116875
31.541285 781.04907 808.08875 4278983243
34.169724 781.04907 808.08875 4279245899
37.674309 781.04907 808.08875 4279443021
40.302753 781.04907 808.08875 4279377744
42.93119 781.04907 808.08875 4279443022
46.43578 781.04913 808.08875 4279377741
49.940365 781.04907 808.08875 4279443786
52.568806 781.04907 808.08875 4279574862
55.19725 781.04913 808.08875 4279509070
58.701836 781.04913 808.08875 4279903827
61.330276 780.37927 807.52393 4279508811
63.958714 781.04907 808.08875 4279049286
67.463303 781.71893 808.65356 4279770188
70.967896 781.04913 808.08875 4280098165
73.596329 781.04907 808.08875 4283064785
82.357796 781.71893 808.65356 4292405759
84.110092 781.71893 808.65356 4292143103
-70.967896 783.05853 809.78308 4281418119
13.974312 785.2912 807.74146 4279444038
16.594496 785.2912 807.74146 4279706699
20.088074 785.2912 807.74146 4279771730
22.708258 785.2912 807.74146 4279573843
25.328442 785.2912 807.74146 4280430946
28.822018 785.2912 807.74146 4283124112
31.442202 785.2912 807.74146 4282862208
34.062386 785.2912 807.74146 4282140282
37.555962 785.2912 807.74146 4280300639
41.049541 785.2912 807.74146 4280564319
43.669724 785.2912 807.74146 4279840595
46.36422 784.17487 808.76227 4279185488
49.783485 785.2912 807.74146 4278528328
52.568806 783.05853 809.78308 4278724428
55.19725 783.05853 809.78308 4278921293
58.701836 783.05853 809.78308 4279182411
62.011009 785.2912 807.74146 4279706956
64.631195 785.2912 807.74146 4279706956
67.463303 783.05853 809.78308 4280034385
70.744949 785.2912 807.74146 4278192957
73.365135 785.2912 807.74146 4278190157
80.605507 783.05853 809.78308 4293064191
82.357796 783.05853 809.78308 4292406015
84.110092 783.05853 809.78308 4292471807
-69.871559 787.96204 809.99353 4278592588
-68.053207 788.03711 808.74878 4278921562
5.2293577 788.11224 807.50403 4279706192
7.8440366 788.11224 807.50403 4279640401
10.458715 788.11224 807.50403 4279575369
13.073395 788.11224 807.50403 4279575369
16.559633 788.11224 807.50403 4279640909
20.06789 787.36938 808.18573 4279313490
22.708258 786.62659 808.86743 4278526029
25.328442 787.29431 809.43048 4280429918
28.822018 787.29431 809.43054 4284703875
31.442202 787.29431 809.43048 4283852165
34.062386 787.29431 809.43054 4283457157
37.555962 787.29431 809.43054 4282996620
41.049541 787.29431 809.43048 4283851935
43.669724 787.29431 809.43048 4283523223
46.289909 787.29431 809.43054 4283523990
49.783485 787.29431 809.43048 4282735255
52.403671 787.96204 809.99353 4283853732
61.719879 787.51691 809.61816 4278986319
64.631195 787.96204 809.99353 4279903567
68.124771 787.96204 809.99353 4279903567
70.744949 787.29431 809.43054 4279114055
73.365135 787.29431 809.43048 4278190143
-67.110092 790.11121 809.18951 4279248204
8.7155962 789.44489 808.62769 4279706192
10.458715 789.44489 808.62769 4279641164
13.944954 789.44489 808.62769 4279641162
16.850153 789.8891 809.00226 4279640908
20.045872 790.11121 809.18958 4279247950
22.660551 790.11121 809.18951 4278526282
24.403669 790.77753 809.75134 4278197066
33.990826 790.77753 809.75134 4284643241
36.605503 790.77753 809.75134 4284246689
-66.029358 793.66174 808.25916 4279706955
4.6336389 793.44037 808.07245 4278854994
8.1088686 793.44025 808.07245 4279706192
10.425688 793.66174 808.25916 4279641164
13.03211 793.66168 808.25916 4279379019
16.217737 793.88312 808.4458 4278986315
-66.029358 795.65436 809.93933 4279641164
-64.088074 797.86597 807.88 4279641164
0.86605507 797.86597 807.88 4279575371
4.3302751 797.86597 807.88 4278920785
7.7944956 797.86597 807.88 4278724428
10.39266 797.86597 807.88 4278855244
12.990826 797.86597 807.88 4279182157
16.482569 796.76013 808.90967 4279182159
19.113762 795.65436 809.93933 4278986578
-64.088074 799.19012 808.99646 4279575115
-62.223854 800.66174 807.62122 4279706194
0.86605507 799.9259 808.30884 4279509579
4.3302751 799.19012 808.99646 4278921037
7.7944956 799.19012 808.99646 4279575369
10.39266 799.19012 808.99646 4279641164
12.990826 799.19012 808.99646 4279574861
16.455046 799.19012 808.99646 4279247696
-65.680733 803.30457 809.84961 4279181636
0 802.64386 809.29248 4279509580
-64.322937 806.38165 808.52002 4279312710
-61.451374 805.94257 808.1499 4279509066
-58.579815 805.50354 807.77966 4279377995
-55.995415 806.16211 808.33496 4279443272
-37.043121 806.16217 808.33496 4279377993
-16.655046 806.38165 808.52002 4279706192
-13.209174 806.38165 808.52002 4279640399
-7.753211 806.16217 808.33496 4279247177
-4.3073397 806.16211 808.33496 4279443786
-1.7229358 806.16211 808.33496 4279509581
-60.174313 808.94116 808.06207 4279574343
-58.455048 808.28394 807.50793 4279705159
-52.437614 808.94116 808.06207 4279246406
-48.999084 808.9411 808.06201 4279115334
-46.420185 808.94116 808.06207 4279049798
-43.841282 808.9411 808.06201 4279181126
-40.402752 808.94116 808.06207 4279181127
-37.823853 809.59833 808.61621 4279377995
-34.385323 808.94116 808.06207 4279246665
-31.806421 808.9411 808.06201 4279312202
-28.367889 808.94116 808.06207 4279312201
-24.929358 808.9411 808.06201 4279443786
-22.350458 808.94116 808.06207 4279575116
-20.058105 808.72211 807.87738 4279575371
-10.315597 808.94116 808.06207 4279247693
-55.016514 810.91272 809.72449 4279115591
-52.437614 810.91272 809.72449 4278983748
-48.999084 810.91272 809.72449 4278984002
-46.420185 810.91272 809.72449 4279049793
-43.841286 810.91272 809.72449 4279049798
-40.402752 810.91272 809.72449 4279181130
-37.823853 810.91272 809.72449 4279377745
-34.385323 810.91272 809.72449 4279115337
-31.806421 810.91272 809.72449 4278788169
-28.367889 810.91272 809.72449 4278461000
-24.929358 810.91272 809.72449 4278592841
-22.350458 810.91272 809.72449 4278658379
-19.771561 810.91272 809.72449 4279312202
100.14495 766.74182 810.41357 4292406783
103.68991 766.74182 810.41357 4292537599
106.34863 766.74182 810.41357 4292537599
108.1211 766.74182 810.41357 4292537599
104.57615 768.77441 812.12744 4292538111
106.34863 768.09686 811.55615 4292406783
115.21101 769.4519 812.69873 4292603903
95.416512 771.70142 810.67126 4292537087
98.066971 772.37683 811.24084 4292537599
100.71743 772.37683 811.24078 4292340223
103.07339 772.60199 811.43066 4292077567
106.90184 772.37683 811.24078 4292537855
109.55229 772.37683 811.24078 4292669951
111.90826 772.60199 811.43066 4292604159
114.85321 773.05225 811.8103 4292669951
91.596329 776.64417 810.91479 4292603391
94.238525 776.64417 810.91479 4292471807
98.066971 774.40314 812.94934 4292735231
100.71743 774.40314 812.94934 4292143359
103.36789 774.40314 812.94934 4292208895
106.90184 774.40314 812.94934 4292669183
109.55229 774.40314 812.94934 4292669951
112.02661 775.52368 811.93207 4292538623
91.596329 777.99084 812.05029 4292274943
94.238525 777.99084 812.05029 4292406527
-75.506424 781.57007 811.14423 4284249274
-73.750458 781.57007 811.14423 4281028493
-71.994499 780.22766 810.01221 4280303983
56.190826 782.91254 812.27612 4284311965
76.384399 781.57007 811.1441 4288527603
79.720734 781.57013 811.14417 4292475391
82.530273 782.91254 812.27612 4292669439
85.60321 781.90576 811.42712 4292471807
88.500549 781.30164 810.91772 4292274687
-71.259941 784.84473 811.28906 4278398563
52.568806 784.39819 810.9126 4283392399
54.321102 785.06799 811.47736 4284116641
58.701836 785.06799 811.47729 4279511389
63.958717 784.39819 810.9126 4279706955
67.171257 784.84473 811.28906 4280034641
75.348625 785.73785 812.04211 4281283964
-69.871559 789.29749 811.11951 4279575621
26.201836 789.29749 811.11951 4282408845
28.822018 789.29749 811.11951 4284314796
31.442202 789.29749 811.11951 4284118948
38.429359 789.96521 811.6825 4284178306
41.049541 789.96521 811.6825 4284376206
43.669724 789.96521 811.6825 4285034658
46.289909 789.96521 811.6825 4283589799
49.783485 789.96521 811.6825 4282342308
52.403671 789.96521 811.6825 4283656630
62.302139 789.74268 811.49481 4279837259
64.631195 789.96521 811.6825 4279968328
67.251373 789.96521 811.6825 4279706701
70.453819 789.74268 811.49481 4279378513
73.365135 789.29749 811.11951 4278192449
-69.72477 792.77643 811.43683 4279247170
-67.981651 792.77643 811.43683 4279510085
20.336391 792.55438 811.24951 4279510605
22.660551 792.77643 811.43683 4279508807
25.27523 792.77649 811.43677 4280039275
28.761467 792.77649 811.43677 4282735780
31.376146 792.77643 811.43683 4282210457
33.990826 792.77649 811.43677 4283064224
36.605503 792.77643 811.43683 4284313004
-66.029358 796.98279 811.05945 4279641164
19.982569 796.98279 811.05945 4279313997
22.588991 796.98279 811.05945 4279641414
-69.504585 798.31122 812.17944 4279377995
-66.898163 798.31122 812.17944 4279443786
-64.088074 800.51434 810.11304 4279377991
1.7321101 800.51434 810.11304 4279641164
4.3302751 800.51434 810.11304 4279641164
7.7944956 800.51434 810.11304 4279641164
10.39266 800.51434 810.11304 4279640399
12.990826 800.51434 810.11304 4279640399
16.455046 800.51434 810.11304 4279640400
19.982569 798.31122 812.17944 4279771985
22.588991 798.31122 812.17944 4279903567
24.326605 798.31122 812.17944 4280034392
1.7321101 801.83856 811.22961 4279377995
4.3302751 802.50067 811.7879 4279641164
7.7944956 802.50067 811.78784 4279574860
10.39266 801.83856 811.22961 4279575115
12.990826 801.83856 811.22961 4279574861
16.455046 801.83856 811.22961 4279640399
0.8642202 805.28662 811.52081 4279509576
-64.610092 808.79657 810.55615 4279508299
-61.451374 809.01611 810.74121 4279312199
-58.579815 808.79651 810.55615 4279312200
-56.282574 808.57697 810.37109 4279312200
-36.181652 808.79651 810.55615 4279246156
-18.952293 808.13794 810.00085 4279575115
-16.367889 808.79651 810.55615 4279443533
-12.922018 808.79651 810.55615 4279509071
-10.337615 809.45514 811.11145 4278854994
-7.753211 808.79657 810.55615 4279312716
-4.3073397 808.79651 810.55615 4279509578
-1.7229358 808.79651 810.55615 4279509578
-64.610092 810.77234 812.22217 4279639368
-61.099998 811.49976 811.5274 4279115843
-58.579815 810.77234 812.22217 4279115591
-55.936699 811.49976 811.5274 4279049800
-52.437614 812.22711 810.83264 4278917958
-48.999084 812.22711 810.83264 4278983747
-46.420185 812.22711 810.83264 4279049793
-43.841286 812.22711 810.83264 4279049541
-40.444954 811.49976 811.5274 4279115337
-37.002754 811.49976 811.5274 4279508307
-34.385323 812.22711 810.83264 4279115337
-31.806421 812.22711 810.83264 4278919753
-28.367889 812.22711 810.83264 4278461000
-24.929358 812.22711 810.83264 4278919499
-22.350458 812.22711 810.83264 4279377995
-19.791744 811.49976 811.5274 4279311950
-16.367889 810.77234 812.22217 4279311700
-12.922018 810.77234 812.22217 4279443536
-10.337615 810.77234 812.22217 4279117398
-7.753211 810.77234 812.22217 4278723407
-4.3073397 810.77234 812.22217 4279116875
-1.7229358 810.77234 812.22217 4279575115
-55.016514 813.5415 811.94092 4279049545
-52.437614 813.5415 811.94092 4278917958
-48.999084 813.5415 811.94092 4278983749
-46.420185 813.5415 811.94092 4279049541
-43.841286 813.5415 811.94092 4278983748
-41.262386 813.5415 811.94092 4279115337
-31.806421 813.5415 811.94092 4279312202
-27.508257 813.5415 811.94092 4279312202
-25.78899 813.5415 811.94092 4279312202
-20.631193 813.5415 811.94092 4279377995
98.066971 775.75397 814.08838 4292472063
100.71743 775.75397 814.08838 4292406015
103.36789 775.75397 814.08838 4292340735
106.90184 775.75397 814.08838 4292735231
109.55229 775.75397 814.08838 4292603903
112.20275 775.75397 814.08838 4292538367
91.596329 779.33746 813.18579 4292406783
94.387154 778.22119 814.20654 4292603647
98.066971 777.10486 815.22729 4292537343
100.71743 777.10486 815.22729 4292734207
103.36789 777.10486 815.22729 4292668415
106.90184 777.10486 815.22729 4292669439
109.55229 777.10486 815.22729 4292603903
112.02661 778.22119 814.20654 4292407039
89.247711 781.58197 815.07812 4292537855
91.596329 781.35748 814.88892 4292537855
112.73395 780.68414 814.32117 4292538111
-77.262383 784.255 813.40796 4278198096
-73.750458 784.255 813.40796 4278199117
56.190826 784.255 813.40796 4283917487
77.262383 784.92627 813.97394 4279527914
79.896332 784.92621 813.974 4291428095
82.530273 784.92627 813.97394 4292670463
85.164215 784.255 813.40796 4292275199
-71.84404 787.74731 813.73651 4279639114
55.19725 787.74731 813.73651 4281815949
58.701836 787.74731 813.73651 4279512664
61.330276 788.41711 814.30127 4278920785
71.84404 788.41711 814.30127 4278460236
73.596329 788.41711 814.30127 4278193735
76.039146 786.98578 814.83856 4278202998
-71.618347 791.96838 813.37146 4279704907
38.429359 791.96838 813.37146 4282733949
41.049541 791.96838 813.37146 4282799234
43.669724 791.96838 813.37146 4283325070
46.289909 791.96838 813.37146 4283063709
49.783485 791.96838 813.37146 4283196830
52.403671 791.96838 813.37146 4284180648
55.111927 790.86255 814.40112 4284115360
58.701836 789.75677 815.43079 4279709275
62.107338 790.86255 814.40112 4279313231
64.631195 791.96838 813.37146 4279968076
67.358719 790.86255 814.40112 4279706957
70.967896 789.75677 815.43079 4279178829
73.596329 789.75677 815.43079 4278192413
-73.365135 793.30377 814.49756 4279312202
-70.671555 794.03955 813.80994 4279377995
-67.981651 794.77539 813.12231 4279575117
25.27523 794.77539 813.12231 4279643238
28.761467 794.77539 813.12231 4280300639
31.376146 794.77539 813.12231 4280103512
33.990826 794.77539 813.12231 4279709017
37.821407 794.23944 814.41449 4279248984
40.729053 794.23944 814.41449 4279182935
43.669724 793.9715 815.06055 4279183450
46.289909 793.9715 815.06055 4279052642
49.783485 793.9715 815.06055 4279315816
52.403671 793.9715 815.06055 4280562791
54.732723 793.74896 814.87286 4281944188
58.517433 793.30377 814.49756 4279971167
62.884403 793.30377 814.49756 4279771986
-74.082565 796.77435 814.80774 4279376708
-71.467888 796.10803 814.24597 4279574089
26.14679 796.77435 814.80774 4279771476
28.761467 796.77435 814.80774 4279443532
31.376146 796.77435 814.80774 4279640403
33.990826 796.77429 814.80774 4279640148
36.605503 796.77435 814.80774 4279442771
41.834862 796.10803 814.24597 4278460500
-70.373398 800.30383 813.85962 4279443782
-67.766975 800.30383 813.85962 4279443783
10.425688 800.96802 814.41968 4279640399
13.03211 800.96802 814.41968 4279706192
16.507339 800.96802 814.41968 4279706192
19.982569 800.30377 813.85962 4279706192
22.588991 800.30383 813.85962 4279706192
24.326605 799.63959 813.29956 4279706194
-72.97982 802.29645 815.53979 4279181632
-71.242203 802.29645 815.53979 4279181632
10.425688 802.29645 815.53979 4279640399
13.03211 802.29645 815.53979 4279509070
16.507339 802.29645 815.53979 4279574863
19.113762 802.29645 815.53979 4279640399
-69.284401 805.14911 814.02094 4279573831
-67.552292 804.487 813.46265 4279705159
4.3302755 805.14911 814.02094 4279050827
7.7944956 805.14911 814.02087 4279443281
-69.812836 808.06085 815.604 4279180866
-67.409172 808.59015 814.30634 4279311684
-65.680733 809.91162 815.42041 4279639114
-6.9137616 809.91162 815.42041 4278658379
0.8642202 807.92957 813.74915 4279575369
4.3247709 807.86279 815.00104 4279443786
7.7944956 807.13544 815.6958 4279573852
-63.748623 812.08954 813.33276 4279573321
-61.164223 812.08954 813.33276 4279115591
-58.579815 812.08954 813.33276 4279115591
-56.85688 812.08954 813.33276 4279049541
-39.627522 812.08954 813.33276 4279181130
-37.043121 812.08954 813.33276 4279115337
-34.458717 812.08954 813.33276 4279312202
-29.289907 812.08954 813.33276 4279246153
-24.121101 812.08954 813.33276 4279115337
-22.398165 812.08954 813.33276 4279312715
-18.952293 812.08954 813.33276 4279377995
-16.367889 812.08954 813.33276 4279377743
-12.922018 812.08954 813.33276 4279509581
-10.337615 812.08954 813.33276 4278920787
-8.6146793 812.08954 813.33276 4278788945
-4.3073397 812.08954 813.33276 4278789708
-1.7229358 812.08954 813.33276 4278986830
-67.194496 813.40674 814.44336 4279508548
-64.322937 813.84576 814.81354 4279441737
-61.164219 814.06531 814.99866 4278983749
-58.579815 814.06531 814.99866 4278917956
-55.995415 814.06531 814.99866 4279049283
-52.493576 814.78992 814.30157 4279180356
-48.999084 814.8559 813.04919 4279115336
-46.420185 814.8559 813.04919 4279115337
-43.841286 814.8559 813.04919 4279442503
-40.172474 814.32886 814.34882 4279246151
-37.043121 814.06531 814.99866 4279115587
-34.458717 814.06531 814.99866 4279115591
-31.874311 814.06531 814.99866 4279246664
-28.42844 814.06531 814.99866 4279246665
-24.982569 814.06531 814.99866 4279312201
-22.398165 814.06531 814.99866 4279377993
-19.813763 814.06531 814.99866 4278919499
-16.367889 814.06531 814.99866 4279051334
-13.209174 813.84576 814.81354 4279182156
-10.337615 813.40674 814.44336 4278854992
-48.999084 816.17029 814.15747 4279180357
-46.420185 816.17029 814.15747 4279115591
-43.841286 816.17029 814.15747 4279442503
-41.262386 816.17029 814.15747 4279639114
94.533028 779.13116 816.93579 4292537599
98.066971 779.13116 816.93585 4292471551
100.71743 779.13116 816.93585 4292602879
103.36789 779.13116 816.93579 4292668415
106.90184 778.45575 816.36633 4292669183
109.55229 779.13116 816.93585 4292866559
111.31927 779.13116 816.93585 4292537855
90.999084 781.15747 818.64441 4292537087
94.533028 781.15747 818.64441 4292668671
97.183487 781.15747 818.64441 4292668415
79.266052 784.72412 817.72766 4288020479
81.908257 784.72412 817.72766 4293393663
85.431198 784.05078 817.15991 4292406271
88.073395 783.37744 816.59216 4292339967
76.384399 788.28235 816.80371 4279583611
79.266052 786.0708 818.86304 4289654015
81.908257 786.0708 818.86304 4292605183
61.330276 791.09644 816.56042 4278921046
64.834862 791.09644 816.56042 4279771986
67.463303 791.09644 816.56042 4279640400
71.116516 789.62482 817.93567 4278260820
73.750458 789.62482 817.93567 4278202154
49.940369 793.7757 818.81946 4278460495
52.568806 793.7757 818.81946 4279180109
55.4893 793.3291 818.44293 4279114840
58.701836 793.10583 818.25464 4279311960
61.330276 792.43604 817.68994 4279574867
63.958717 792.43604 817.68994 4279706195
29.695414 797.31006 817.87549 4279641162
34.93578 797.31006 817.87549 4279705942
37.847095 796.86493 817.50018 4279444053
41.049541 796.64233 817.3125 4279247699
43.669724 796.64233 817.3125 4279313492
46.289909 795.97467 816.74951 4278460752
-74.082565 798.77325 816.49316 4279115843
20.917431 800.1059 817.61682 4279640399
22.660551 800.1059 817.61682 4279640399
25.27523 799.43958 817.05499 4279640400
27.889908 798.77325 816.49316 4279575369
31.376146 799.43958 817.05499 4279706193
33.700306 799.66168 817.24225 4279640400
-72.97982 803.62488 816.65979 4279115839
-71.242203 803.62488 816.65979 4279181632
10.425688 803.62488 816.65979 4279311696
13.03211 803.62488 816.65979 4279311951
16.507339 803.62488 816.65979 4279377743
20.045872 801.43854 818.74048 4279574864
22.660551 801.43854 818.74048 4279640399
24.403669 801.43854 818.74048 4279443534
-72.97982 804.95331 817.77991 4278984000
8.6880732 806.28174 818.90002 4279640147
10.425688 804.95331 817.77991 4279311696
13.03211 804.95331 817.77991 4279377487
15.638532 804.95331 817.77991 4279443534
0.86605507 809.12177 817.37054 4279443787
4.3302751 809.1217 817.37048 4279181124
6.9284406 808.45966 816.81226 4279640147
-69.137611 811.23303 816.53467 4279376961
-67.409172 812.55444 817.6488 4279376961
-65.680733 812.55444 817.6488 4279442503
-12.099083 812.55444 817.6488 4278592586
-10.370643 812.55444 817.6488 4278724428
-7.7779818 811.23303 816.53467 4279116622
-4.3211012 811.23303 816.53467 4279509069
-1.7284404 811.23303 816.53467 4279640399
-63.952293 813.87585 818.76294 4279376961
-19.012844 813.87585 818.76294 4279312202
-15.555964 813.87585 818.76294 4279379010
-12.963303 813.87585 818.76294 4279575371
-10.370643 813.87585 818.76294 4278986830
-61.164223 816.04114 816.66467 4278984000
-58.579815 816.04114 816.66467 4279310664
-55.995415 816.69971 817.21997 4279048769
-52.549545 816.69971 817.21997 4279114817
-48.931374 817.09491 817.55322 4279049284
-46.519264 816.69971 817.21997 4278918209
-43.93486 816.69971 817.21997 4279049798
-40.488991 816.69977 817.21997 4279114825
-37.043121 816.69971 817.21997 4278984514
-34.458717 816.69971 817.21997 4279180357
-31.874311 816.69971 817.21997 4279377221
-28.141283 816.48016 817.03485 4279442247
-25.269724 816.48016 817.03485 4279573578
-22.398165 816.04114 816.66467 4279704907
-20.67523 816.04114 816.66467 4279377995
-17.229359 816.04114 816.66467 4279115839
100.14495 778.93744 820.69666 4292209151
103.68991 778.93744 820.69666 4292405759
106.34863 778.25989 820.12537 4292341247
108.71192 778.48578 820.31573 4292538623
111.66605 778.93744 820.69666 4292341503
88.348625 782.5083 819.78345 4292603391
90.999084 782.5083 819.78345 4292537855
94.533028 782.5083 819.78345 4292537343
97.486237 780.29254 821.83923 4292537087
100.14495 780.29254 821.83923 4292274175
103.68991 780.29254 821.83923 4292274943
106.34863 780.29254 821.83923 4292340991
109.00734 780.29254 821.83923 4292406783
111.66605 780.29254 821.83923 4292538111
85.698166 783.85919 820.92236 4292603903
88.348625 783.85919 820.92236 4292669951
90.115593 783.85919 820.92236 4292603903
73.100922 788.7641 821.13403 4283788450
76.623856 787.41742 819.99854 4281100173
67.604584 790.96729 819.06763 4278982985
70.238533 790.96729 819.06763 4278193471
61.458717 792.98096 820.76544 4279640146
64.092659 792.98096 820.76544 4279902291
66.726608 792.98096 820.76544 4279575371
46.43578 795.78516 820.51385 4278854991
49.940369 795.11536 819.9491 4278855758
52.568806 795.11536 819.9491 4279771986
54.905201 795.56183 820.32562 4279377741
58.701836 795.11536 819.9491 4279377231
26.201836 799.98096 820.12756 4279246155
28.822018 799.31323 819.56451 4279378502
31.442202 799.98096 820.12756 4279640399
34.062386 799.98096 820.12756 4279705678
37.555962 799.31323 819.56445 4279640142
41.049541 799.31323 819.56451 4279574861
43.669724 798.64551 819.00146 4279444040
17.431192 802.77118 819.86414 4279640399
20.045872 802.77118 819.86414 4279771469
22.708258 801.31641 821.25354 4279836747
25.328442 801.31641 821.25354 4279508813
31.442202 801.31641 821.25354 4279967311
34.062386 801.31641 821.25354 4279573318
37.555962 801.31641 821.25354 4279311688
10.458715 804.10382 820.98779 4279443534
13.073395 804.10382 820.98779 4279639630
16.559633 804.10382 820.98779 4279573838
0.86880732 808.93854 821.14026 4279377741
4.3440366 808.93854 821.14026 4279770952
6.9504585 808.27429 820.5802 4279837260
-67.552292 812.43225 820.16199 4279311164
-65.820183 812.43225 820.16199 4279442755
-7.7944956 811.77014 819.6037 4279051337
-4.6189599 811.5495 819.41766 4279444039
-1.7321101 811.10803 819.04541 4279641164
-64.088074 813.75647 821.27844 4279311168
-61.42569 814.47687 820.57782 4279245375
-58.766972 815.19727 819.8772 4278917957
-29.383486 815.19727 819.8772 4279508548
-24.198166 815.19727 819.8772 4279967311
-22.469725 815.19727 819.8772 4280099154
-19.877064 815.19727 819.8772 4280296526
-16.436697 814.47687 820.57782 4280035405
-12.990826 813.75647 821.27844 4280100948
-10.39266 813.75647 821.27844 4280232787
-57.038532 816.51862 820.99133 4279113790
-55.310093 816.51862 820.99133 4279048249
-52.71743 816.51862 820.99133 4279179327
-50.124771 816.51862 820.99133 4279442505
-46.667889 816.51862 820.99133 4278983748
-44.07523 816.51862 820.99133 4279049798
-40.618347 816.51862 820.99133 4278852419
-37.161469 816.51862 820.99133 4278787637
-34.568806 816.51862 820.99133 4279311950
-31.976147 816.51862 820.99133 4279311946
-28.519266 816.51862 820.99133 4279838031
-25.062386 816.51862 820.99133 4280165972
-22.469725 816.51862 820.99133 4280626524
92.168808 781.64758 822.98169 4292143871
94.827522 781.64758 822.98169 4292406783
97.486237 781.64758 822.98169 4292406783
100.14495 781.64758 822.98169 4292274175
103.68991 781.64758 822.98169 4292405759
106.34863 781.64758 822.98169 4292340991
109.00734 781.64758 822.98169 4292340991
79.513763 785.21008 822.0614 4289193983
82.164215 785.21008 822.0614 4292735999
85.698166 785.21008 822.0614 4292801023
88.623856 783.00269 824.12427 4292866047
91.28257 783.00269 824.12427 4292537343
94.827522 783.00269 824.12427 4292603391
97.486237 783.00269 824.12427 4292537599
100.14495 783.00269 824.12427 4292143103
103.68991 783.00269 824.12427 4292406271
106.34863 783.00269 824.12427 4292603391
109.00734 783.00269 824.12427 4292537343
76.863304 787.23633 823.76996 4283658948
79.513763 787.23633 823.76996 4289452799
81.86972 787.01123 823.58008 4292472575
85.698166 786.56091 823.20044 4292471295
68.69725 790.78406 822.83722 4279311428
70.458717 790.78406 822.83722 4279316315
73.100922 790.78406 822.83722 4284053959
50.044952 794.99463 822.46338 4279247172
52.678898 794.99463 822.46338 4279443534
56.190826 794.99463 822.46338 4278983748
58.824768 794.99463 822.46338 4279377996
61.458717 794.99463 822.46338 4280034903
64.092659 794.99463 822.46338 4280362850
67.711929 793.89935 823.50189 4280237660
70.458717 792.80408 824.54041 4281094532
73.100922 792.80408 824.54041 4284448968
43.807339 797.79462 822.20813 4279706192
46.793884 797.27045 823.51019 4279707477
50.044956 797.00824 824.16113 4279971154
52.678898 797.0083 824.16119 4280692570
55.020184 796.78448 823.97247 4280560984
57.946789 796.33704 823.59521 4281218913
26.284403 800.47394 824.46729 4279311950
28.912842 799.80408 823.90247 4279574350
31.541285 800.47394 824.46729 4280362319
38.550457 800.47394 824.46729 4280564063
40.302753 799.80408 823.90247 4279773526
42.93119 799.80408 823.90247 4279709792
45.559631 799.80408 823.90247 4279842396
13.974312 803.98724 823.50549 4279967311
16.594496 803.98724 823.50549 4279770958
20.088074 803.31958 822.9425 4279180619
22.708258 803.31958 822.9425 4278983496
24.455046 802.65186 822.37952 4279311950
34.353516 803.09698 822.75488 4280494416
36.682568 802.65186 822.37952 4280823124
41.922935 803.98724 823.50549 4280959348
43.669724 803.98724 823.50549 4280630640
8.7155962 806.10272 822.67316 4279705675
10.458715 806.10272 822.67316 4280033360
12.801224 805.3606 823.7915 4280164945
16.594496 805.32269 824.63159 4280759131
20.088074 805.32269 824.63159 4280300890
33.188992 805.32269 824.63159 4280630108
37.555962 805.32269 824.63159 4280695646
41.049541 805.32269 824.63159 4280630373
43.669724 805.32269 824.63159 4280433256
46.289909 805.32269 824.63159 4280629602
0.87155962 808.10168 824.35864 4279117649
4.3577981 808.10168 824.35864 4280034903
-66.608559 812.03827 823.75372 4279179581
-64.29174 812.92383 824.50049 4279245119
-62.554127 812.92383 824.50049 4279245119
-12.163302 812.92383 824.50049 4280170328
-10.425688 812.92383 824.50049 4280301146
-7.8192658 812.25964 823.94043 4280168276
-4.3440366 811.5954 823.38037 4280234069
-1.7376146 810.93115 822.82031 4280168021
-60.623852 815.08069 822.39502 4279245119
-58.891743 815.08069 822.39502 4279245119
-19.919266 815.08069 822.39502 4280495191
-16.455046 815.08069 822.39502 4279906647
-13.856881 815.08069 822.39502 4280104534
-57.159634 816.40491 823.5116 4279376709
-55.427525 816.40491 823.5116 4279966532
-52.773396 817.78455 823.3667 4279902024
-49.312843 817.78455 823.3667 4279968332
-46.156574 817.76611 823.78717 4280034894
-43.817738 817.80304 822.94629 4280099916
-40.661469 817.78455 823.3667 4280166993
-37.20092 817.78455 823.3667 4280105043
-34.605503 817.78455 823.36676 4280631133
-32.309479 817.32471 823.41504 4280893794
-28.271561 817.32471 823.41504 4280893028
-25.088074 817.12244 822.80853 4280432477
-22.517431 816.40491 823.5116 4280300894
-15.588991 816.40491 823.5116 4280300894
-13.856881 816.40491 823.5116 4280300894
97.688072 782.88904 826.64441 4292275455
100.35229 782.88904 826.64441 4292208383
103.90459 782.88904 826.64441 4292537599
106.56881 782.88904 826.64441 4292538111
108.34496 782.88904 826.64441 4292538111
83.306419 785.71283 826.40942 4292604415
85.965134 785.71283 826.40942 4292406015
88.623856 785.03528 825.83813 4292339967
91.282578 785.03528 825.83813 4292208639
94.827515 785.03528 825.83813 4292209151
97.688072 784.24689 827.78943 4292406527
100.35229 784.24689 827.78943 4292339967
103.90459 784.24689 827.78943 4292734975
77.988991 787.06787 827.552 4283202511
79.761467 787.06787 827.552 4288926719
82.420181 787.06787 827.552 4291947007
85.965134 787.06787 827.552 4292471807
76.421562 790.95123 826.90222 4283529946
79.513763 791.96436 827.75647 4287288575
82.164215 791.96436 827.75647 4291421439
84.814682 791.96436 827.75647 4292471551
59.889908 794.1507 825.6759 4280761445
61.651375 794.1507 825.6759 4280629602
64.293579 794.1507 825.6759 4280367704
67.816513 794.1507 825.6759 4281159530
70.458717 794.1507 825.6759 4283787936
73.100922 794.1507 825.6759 4286223065
56.366974 796.17065 827.37909 4280957534
58.715595 795.94623 827.18988 4281285730
61.651375 795.49738 826.8114 4280955996
63.412846 795.49738 826.8114 4281549652
29.851376 800.36438 826.99097 4280692317
47.411011 799.02197 825.85913 4280304226
50.044952 799.69312 826.42505 4280564846
52.678898 799.69318 826.42505 4280629857
54.434864 799.69318 826.42505 4280695650
22.779816 803.1532 826.72632 4280300894
25.408257 802.4834 826.16156 4279446616
28.036697 801.81354 825.5968 4280165973
31.541285 801.81354 825.5968 4280891218
34.169724 802.4834 826.16156 4280826456
37.674309 801.81354 825.5968 4280957532
40.302753 801.81354 825.5968 4280761694
46.43578 801.81354 825.5968 4280565349
7.8605504 806.65814 825.75757 4280298577
10.480734 806.65814 825.75757 4280363355
13.100918 806.65814 825.75757 4280494939
16.594496 806.65814 825.75757 4280955741
19.21468 806.65814 825.75757 4281087323
21.903669 804.49286 827.85596 4280694380
25.408257 804.49286 827.85596 4280498270
33.188992 806.65814 825.75757 4280695649
