# .PCD v0.7 - Point Cloud Data file format
VERSION 0.7
FIELDS x y z rgb
SIZE 4 4 4 4
TYPE F F F U
COUNT 1 1 1 1
WIDTH 1167
HEIGHT 1
VIEWPOINT 0 0 0 1 0 0 0
POINTS 1167
DATA ascii
-28.13578 794.66516 750.2439 4284643497
-25.65321 794.66516 750.2439 4283000998
-22.378899 793.50256 751.22565 4281225101
-19.926605 792.33997 752.2074 4278731145
-46.341286 797.1958 752.37769 4280697444
-44.686237 795.93048 751.31079 4280172135
-21.515596 795.93048 751.31079 4282411162
-19.033028 796.56311 751.84424 4280960658
-16.550459 797.1958 752.37769 4278200939
-46.238533 800.00275 752.1283 4280696933
-43.761467 799.37152 751.59607 4280564836
-40.183487 799.16113 751.41864 4279838286
-36.330276 799.37152 751.59607 4281877087
-33.577984 799.58197 751.77344 4282075494
-31.376146 799.37152 751.59607 4281417817
-28.899082 799.37152 751.59607 4281158250
-25.596329 799.37152 751.59607 4282475678
-22.293579 799.37152 751.59607 4284446379
-19.266054 799.58197 751.77344 4284377523
-16.513762 800.00275 752.1283 4283127203
-42.840366 802.8042 751.87439 4281156200
-40.643425 802.38428 751.52032 4280826984
-37.348011 802.38428 751.52032 4281153639
-34.601833 802.8042 751.87439 4281218915
-32.954128 802.8042 751.87439 4281944938
-29.658716 802.8042 751.87439 4281814635
-26.363302 802.8042 751.87439 4279909983
-23.06789 802.8042 751.87439 4284116886
-43.664223 804.06384 752.93652 4281024109
-40.368805 804.06384 752.93652 4281419640
-37.073395 804.06384 752.93652 4281551997
-34.601833 804.06384 752.93652 4281551738
-32.130276 804.06384 752.93652 4282010481
-28.834862 804.06384 752.93652 4281550695
-25.53945 804.06384 752.93652 4282338662
-22.244038 804.06384 752.93652 4279319414
-10.936697 775.96423 754.09613 4291223551
-7.8568802 775.65723 754.70929 4289777406
-5.0587158 775.04327 755.93567 4287479551
-10.936697 777.8938 755.72314 4291159039
-57.020184 780.23584 753.7738 4280559923
-55.343121 780.23584 753.7738 4278389010
-18.447706 780.23584 753.7738 4290432255
-15.652599 780.66327 754.13409 4290170623
-13.416513 780.87689 754.31433 4290961151
-11.73945 782.80011 755.93591 4284645321
-55.640366 784.03601 754.36194 4282799509
-52.711926 783.71619 754.09229 4279316569
-49.644039 783.50293 753.91254 4279842918
-18.407339 783.07648 753.55298 4290761983
-16.176147 783.92938 754.27203 4290696703
-13.387156 784.99548 755.17096 4283797481
-52.538532 787.96454 753.75037 4281356662
-49.202751 787.96454 753.75037 4280829296
-15.844954 787.96454 753.75037 4286949614
-55.040367 790.51477 755.90063 4280367239
-52.816513 789.66473 755.18384 4281486444
-49.149544 790.01477 754.17096 4281288806
-18.306421 790.78979 753.51648 4284060378
-15.826606 790.01477 754.17096 4281749475
-13.34312 789.8772 755.36304 4278190165
-11.675229 790.51477 755.90063 4278190662
-51.590824 792.6983 755.12561 4280500832
-49.040367 793.47058 754.46875 4280501102
-46.495415 793.6095 753.27783 4280632686
-18.266054 793.6095 753.27783 4280173964
-16.605505 793.6095 753.27783 4278203835
-14.412232 793.42523 754.86652 4278195562
-11.649541 793.33447 755.66199 4278192963
-51.477066 796.1485 755.4187 4280170325
-48.986237 796.1485 755.4187 4280695651
-13.284404 796.1485 755.4187 4278595668
-11.623854 796.1485 755.4187 4281358974
-13.792048 799.72638 754.51141 4280828028
-11.585321 800.35901 755.0448 4281224320
-51.192661 803.15894 754.78961 4280104023
-49.541279 802.52765 754.25732 4280367454
-47.06422 802.52777 754.25732 4280630116
-44.587154 801.26526 753.19287 4281025648
-31.376146 801.26526 753.19287 4282734453
-28.073395 801.26526 753.19287 4281222497
-24.770641 801.26526 753.19287 4280962671
-21.46789 801.26526 753.19287 4285959090
-18.990826 802.52777 754.25732 4284576164
-16.513762 802.52765 754.25732 4285099974
-14.862386 802.52777 754.25732 4283323563
-43.664223 805.95343 754.52972 4280761964
-40.368805 805.95337 754.52972 4281157239
-37.073395 805.95343 754.52972 4281618049
-34.601833 805.95337 754.52972 4282144138
-32.130276 805.95337 754.52966 4281684860
-28.834862 805.95337 754.52972 4281879673
-25.264832 805.74341 754.35272 4281485673
-22.244038 805.95337 754.52966 4280959840
-19.772476 806.58325 755.06079 4279577964
-26.275229 808.87903 753.07239 4280695651
-34.48624 810.76221 754.66028 4281881479
-32.022934 810.13446 754.13098 4282406536
-28.738533 810.13446 754.13098 4282010758
-26.275229 810.76221 754.66028 4281354101
-3.9474003 773.55927 758.60858 4285833451
-7.5880733 776.3324 757.02271 4285308130
-10.936697 779.18011 756.80774 4286098168
-7.5788989 778.40082 757.45868 4278192236
-10.095413 781.10962 758.43463 4278197890
-8.4128437 781.10962 758.43463 4278190955
-11.180428 784.93701 757.73761 4278192223
-56.337616 787.34088 757.14862 4283916975
-55.040367 791.78992 756.97571 4279973476
-10.040367 789.47308 758.94641 4278193985
-10.007339 793.065 758.0509 4283394723
-8.3394499 793.065 758.0509 4280434038
-9.985321 795.87903 757.8075 4283852987
-8.3211012 797.15137 758.88037 4284382665
-9.9633026 799.32227 758.09467 4280303999
-13.240367 802.88965 757.17853 4284244415
-11.585321 802.25696 756.64514 4281744545
-51.192661 805.05273 756.38635 4280038485
-49.541283 805.68396 756.91858 4280432476
-47.064217 805.68396 756.91858 4280498787
-44.587154 806.31519 757.45081 4280696685
-18.165138 805.05273 756.38635 4280762237
-16.513762 805.68396 756.91858 4281221761
-14.321712 805.38519 757.53864 4283655080
-11.585321 804.7876 758.77881 4285166018
-49.541283 807.5777 758.51538 4280300894
-47.06422 807.5777 758.51538 4280432223
-43.389603 808.68268 756.83105 4280827757
-40.368805 808.47278 756.65399 4280960633
-37.073395 808.47278 756.65405 4281618823
-32.130276 809.1026 757.18506 4282078861
-28.834862 809.1026 757.18506 4282012306
-24.715597 808.47278 756.65399 4281419894
-22.244038 808.47278 756.65399 4281616756
-18.948624 808.47278 756.65405 4280499055
-16.513762 807.5777 758.51538 4279448424
-14.862386 807.5777 758.51538 4279514473
-42.840366 810.3623 758.24719 4281025648
-40.368805 810.3623 758.24719 4281026168
-37.073395 810.3623 758.24719 4281619081
-34.601833 810.3623 758.24719 4281750666
-32.130276 810.3623 758.24719 4282275476
-28.834862 810.3623 758.24719 4282537885
-25.53945 810.3623 758.24719 4282471561
-22.244038 810.3623 758.24719 4280566142
-18.948624 810.3623 758.24719 4281487216
-1.7009175 768.78656 761.12451 4291358719
-1.6954129 773.72516 761.36438 4283323079
-4.5113149 775.71484 760.42603 4278190158
-6.7449541 778.91071 759.19666 4278190126
-6.7449541 780.19983 760.28357 4278191422
-4.4966359 781.05927 761.0083 4278192962
-7.2911315 783.46796 760.42303 4278193473
-5.0477066 784.3255 761.14612 4278326086
-10.062386 786.64648 759.17908 4278192180
-7.8262992 787.50122 759.89972 4278192440
-6.6935778 790.75244 760.02502 4278193201
-4.1871557 789.98157 760.68311 4278194744
-7.5165138 793.18591 760.11493 4282668664
-4.183486 792.03174 761.10376 4278192403
-6.6715598 796.25281 760.73877 4285956277
-4.1697249 796.25281 760.73877 4278586167
-1.66789 796.89038 761.27637 4278190124
-7.7663612 799.27191 760.66827 4281291932
-10.627523 802.49603 760.77075 4283918784
-13.240367 806.05286 759.8457 4280565639
-49.651375 807.95081 761.44598 4280104543
-47.06422 808.84021 759.57983 4280301155
-44.587154 808.84021 759.57983 4280433002
-16.513762 808.84021 759.57983 4280105840
-13.78104 808.24725 760.82391 4279513430
-11.585321 808.58344 761.97937 4278987080
-47.064217 810.73389 761.17664 4280301669
-43.71376 811.49292 760.50848 4280564845
-40.368805 812.25183 759.84039 4280763259
-37.073395 812.25183 759.84039 4281553291
-34.601833 812.25183 759.84039 4281750922
-32.130276 812.25183 759.84045 4282275216
-28.834862 812.25183 759.84045 4282078606
-25.53945 812.25183 759.84039 4282341008
-22.244038 812.25183 759.84045 4282078856
-18.948624 812.25183 759.84045 4280961141
-16.513762 810.73389 761.17657 4280959338
-14.862386 810.73389 761.17657 4281222510
-40.368805 814.14136 761.43359 4280499833
-37.073395 814.14136 761.43359 4281618829
-34.601833 814.14136 761.43359 4282013070
-32.130276 814.14136 761.43359 4282275726
-28.834862 814.14136 761.43359 4282210187
-25.53945 814.14136 761.43359 4282341270
-22.244038 814.14136 761.43359 4282275727
-18.948624 814.14136 761.43359 4282012807
1.7100917 764.8761 764.36743 4291945983
0 767.22241 762.42163 4291945983
-1.7009175 770.08691 762.22095 4291620095
1.1363914 769.48041 763.45361 4292864767
3.4091742 769.82874 764.61926 4292604927
-1.7009175 772.68768 764.41382 4280165197
0 771.38733 763.31738 4288784118
-3.3908257 775.0213 762.45728 4278190107
-1.6954129 776.31744 763.55017 4278190117
-3.3834863 777.87042 762.24353 4278190125
-1.6954129 777.61359 764.64307 4278190133
-3.3724771 782.77814 762.45752 4278326084
-1.6917431 780.45715 764.42456 4278260291
-4.2064219 785.61182 762.23071 4278195523
-1.6862385 784.71179 764.08801 4278194491
-1.6825688 788.18451 764.3999 4278587698
-1.6733944 793.3111 762.1825 4278192942
0.83853209 793.05713 764.58435 4278190080
0.83669722 795.86975 764.33984 4287061907
-7.4889908 800.96832 762.09863 4279842449
-4.1697249 799.44061 763.4267 4278922104
-1.66789 799.44061 763.42657 4278260822
-7.4889913 802.87683 763.70782 4284183235
-4.1605506 803.51294 764.24426 4282408103
-10.51682 805.45819 763.26837 4281881481
-13.240367 809.84875 763.04626 4280631903
-46.238533 812.62769 762.77332 4280433002
-43.761467 812.62769 762.77332 4280564590
-16.513762 812.62769 762.77332 4282077834
-14.051376 811.87085 763.44324 4281222258
-11.585321 811.11401 764.11316 4280301146
-46.78899 814.73175 764.54755 4280367717
-43.761467 814.52136 764.37012 4280499822
-40.413761 815.27686 763.69904 4280499836
-37.114677 815.27686 763.69904 4281421454
-34.102753 815.23541 764.1001 4282013586
-31.878899 815.3183 763.29791 4282276242
-28.866972 815.27686 763.69897 4282144402
-25.53945 815.40106 762.49573 4282209686
-22.244038 815.40106 762.49573 4282406295
-18.969725 815.27686 763.69897 4282472595
-16.513762 814.52136 764.37012 4282538141
-14.862386 814.52136 764.37012 4281946004
-25.53945 816.66077 763.55786 4282209432
-22.244038 816.66077 763.55786 4282209432
0.85229355 772.17169 765.9408 4283193747
3.4091742 772.43506 766.81689 4285299146
1.133945 775.72186 766.97217 4278190119
3.401835 776.58875 767.70312 4278190146
0 778.90979 765.73596 4278193214
1.1302752 781.15283 766.75519 4278194490
8.4770641 781.50208 767.92175 4278190113
0 783.04382 766.60571 4278457152
5.0752292 784.33716 767.69617 4278190127
0 786.64557 765.71851 4278193467
0 789.47083 765.4845 4278190111
3.3724771 789.22382 767.89246 4284830978
0.83853209 795.6214 766.74646 4285363375
0.83669722 799.06799 767.0365 4279451766
-1.66789 802.62842 766.1145 4281948046
-7.4889908 805.42139 765.85339 4282934436
-4.1605506 805.42139 765.85339 4285431751
-1.6642202 806.05756 766.38977 4283853241
-10.51682 807.99725 765.40918 4279051586
-7.4798164 808.08667 766.79266 4279379283
-4.1605506 807.32983 767.46252 4282276005
-1.6642202 807.32983 767.46252 4284709068
-13.240367 812.37933 765.18005 4280105840
-10.774312 811.24622 766.18665 4280039264
-7.472477 810.11304 767.19324 4279119934
-47.168808 814.90991 767.31372 4280169315
-44.686237 814.90991 767.31372 4280696179
-13.792048 814.4881 766.95807 4282472337
-11.585321 814.27728 766.78027 4282538124
-42.93578 816.41516 765.9668 4280696179
-40.458717 816.41516 765.9668 4280434040
-37.155964 816.41516 765.9668 4281421707
-33.577984 816.83594 766.32159 4282275474
-31.376146 817.04639 766.49908 4282603927
-28.899082 817.04639 766.49902 4282537627
-25.596331 817.04639 766.49902 4282471836
-22.293579 817.04639 766.49902 4282340762
-18.990826 817.04639 766.49908 4282406295
-16.513762 816.41516 765.9668 4282537883
3.9688072 778.75604 769.53052 4278190633
6.8036699 779.18951 769.896 4278190108
10.205504 779.18951 769.896 4278190206
1.6954129 782.79822 769.01465 4278190126
3.401835 780.48987 770.99243 4278190121
6.8036699 780.48987 770.99243 4278190112
1.6917431 785.63055 768.78674 4278190101
5.0752292 786.92389 769.8772 4290554969
3.3724771 790.513 768.97937 4291877631
3.3651376 795.90253 770.90759 4281162906
0.83669722 800.987 768.65466 4280962948
3.3541284 799.46777 769.98962 4278201214
0.83669722 802.90601 770.27271 4282870695
-4.1605506 809.23834 769.07172 4279512139
-1.66789 807.72888 770.41504 4282209419
-9.9633026 812.01733 768.79883 4281552256
-7.4761472 811.64099 769.13556 4280172128
-4.1605506 811.14679 770.68091 4278194722
-46.495415 813.92157 770.40442 4280038246
-10.793578 813.92157 770.40442 4282669460
-8.3027525 813.92157 770.40442 4282340749
-43.858715 816.17523 768.38062 4280564591
-40.548622 816.17523 768.38062 4280367477
-37.238533 816.17523 768.38062 4281486985
-33.92844 816.80786 768.91406 4282407317
-31.445871 817.44055 769.44751 4282866334
-28.963303 817.44055 769.44751 4282865829
-25.624771 818.823 769.30505 4282473114
-22.601837 818.36212 769.35254 4282342297
-19.86055 817.44055 769.44751 4282079381
-16.550459 816.17523 768.38062 4282472090
-14.06789 816.17523 768.38062 4282406294
8.5229359 778.95093 772.31091 4278190113
11.079817 778.95093 772.31091 4279638847
4.2522936 781.79022 772.08887 4279569676
6.8183484 780.25409 773.40967 4285352096
3.3834863 790.80396 773.1488 4284781048
3.3541284 800.74988 771.07068 4278204300
1.6770642 803.31415 773.23279 4284313762
3.3541284 802.03204 772.15173 4282539680
0 805.46466 772.43005 4284246949
-1.66789 809.64154 772.02783 4278193431
-6.6568809 812.41907 771.75366 4282210174
-4.1642203 811.66785 772.42828 4280499293
-46.598164 813.69141 772.82642 4280234598
-44.077984 814.70251 773.0249 4280301161
-40.436085 815.11523 772.28296 4280235893
-37.362385 815.19104 771.47485 4281092743
-34.871559 815.19104 771.47485 4281554318
-18.286238 815.07739 772.68701 4282210710
-16.605505 815.19104 771.47485 4282472090
-14.130276 815.07739 772.68701 4282472344
-10.81743 814.32764 773.36279 4282472854
-7.7663612 814.11554 773.18402 4282801815
-41.51376 816.46057 772.54529 4280301675
-37.362385 816.46057 772.54529 4281026948
-33.764526 816.88379 772.9021 4282605727
-31.550459 817.09534 773.08051 4282670497
-29.059631 817.09534 773.08057 4282801570
-25.738533 817.7301 773.61572 4282670237
-22.417431 817.09534 773.08051 4282473627
-19.926605 816.46057 772.54529 4282407832
-16.605505 816.46057 772.54529 4282603930
13.695413 776.5282 775.50018 4282403975
15.423853 776.41388 776.71179 4278651244
8.5504589 778.60364 775.94214 4278452299
11.115597 777.94995 775.39099 4278190109
6.8183484 782.20886 775.05786 4290166004
4.5394497 784.74872 775.45532 4293849087
5.1027522 786.9917 776.47461 4290768127
5.0752292 794.68402 776.42041 4278190936
5.0587158 798.89246 776.04468 4282144157
3.3651376 801.69104 775.78827 4283853750
1.6770642 805.23737 774.85437 4284773797
-3.3467889 809.94226 776.20544 4280630386
-1.6733944 809.30261 775.66614 4278393667
0 807.27209 775.26202 4279311425
-5.0036697 812.19177 774.1781 4281879939
-43.365139 814.74194 776.32837 4280563809
-7.2275233 814.31689 775.96997 4282604187
-40.773392 816.23602 774.97205 4280367211
-37.444954 816.23602 774.97205 4281027202
-34.393887 817.08423 775.68719 4282475162
-31.620184 817.50836 776.0448 4282802084
-29.123852 817.50836 776.0448 4282802084
-25.795414 817.50836 776.0448 4282735776
-22.189604 817.08423 775.68719 4282670238
-19.138531 816.87219 775.50842 4282604701
-16.642202 816.87219 775.50842 4282735260
-14.145872 816.87219 775.50842 4282604188
-10.81743 816.23602 774.97205 4282538909
13.754128 775.42407 779.80139 4278190118
16.333027 775.42407 779.80139 4278194523
11.13945 778.37915 778.36877 4279970649
7.9804282 781.43628 778.33057 4292864252
7.6844034 784.32312 778.80261 4292540159
10.26055 783.17944 779.80029 4292932095
5.1027522 788.29205 777.57104 4289058047
7.6706419 786.76996 778.90369 4292733695
5.1027522 789.59241 778.66748 4278201986
7.6541286 790.89282 779.76392 4281942146
8.4770641 794.46368 778.85059 4279132814
7.3308868 796.8396 778.23798 4279520654
10.172477 795.75983 779.94348 4281365483
5.0587158 800.82611 777.67517 4283327145
7.6018348 799.69507 778.68353 4282211235
10.150458 798.56403 779.69189 4279195582
4.4941897 803.04669 778.67548 4283851944
6.7449541 802.75989 779.3056 4283785647
1.1217126 805.76447 779.22296 4278389288
3.3651376 804.90686 778.49988 4280233329
-3.3541284 809.72479 778.63806 4282800006
-1.6770642 809.72479 778.63806 4282800006
-45.181652 812.50092 778.36292 4280300642
-4.4648318 811.57648 778.45538 4282801046
-1.6770642 811.00696 779.71912 4283195282
-43.508255 813.78027 779.44153 4280300392
-6.6935778 813.78027 779.44153 4282407832
-40.678902 817.33484 777.99139 4280432493
-37.360733 817.03723 778.26355 4281092744
-34.445259 818.21338 778.3833 4282540200
-30.821102 818.67395 778.33569 4282801828
-29.155045 818.03644 777.7981 4282802086
-25.852295 817.29224 778.47864 4282801571
-22.516514 817.29224 778.47864 4282736289
-18.90275 817.71729 778.8371 4282736288
-15.844954 817.92981 779.01624 4282604193
-13.34312 817.92981 779.01624 4282407836
-10.841284 816.65466 777.9411 4282276507
-8.3394499 816.01709 777.40356 4282211230
-38.277065 820.05298 778.19031 4284707753
-33.284405 820.05298 778.19031 4282867879
-31.620184 820.05298 778.19031 4282670244
13.754128 776.73846 780.90967 4278190116
16.351376 775.97321 781.57245 4278190129
12.034863 778.05286 782.01782 4282011802
11.13945 781.6546 781.13062 4291747839
10.830582 785.3584 781.63751 4292732415
7.6706419 788.07312 780.00244 4281631191
10.795719 790.24506 781.8338 4286690045
11.86789 797.05597 781.03638 4285051135
8.4587154 799.85742 780.78247 4282405793
11.009174 799.10474 781.45587 4280510635
8.4587154 801.79742 782.41821 4284179626
10.150458 801.79742 782.41821 4283065249
4.2155962 805.33813 781.47955 4279111994
7.3070335 805.55298 781.66071 4280102009
0.84128439 807.47955 780.66907 4279510854
-45.429359 810.05225 782.83826 4280103258
-4.1926603 812.28906 780.80017 4282145687
-1.6825688 810.05225 782.83826 4281949078
-43.603668 814.21228 782.42181 4280761192
-41.926605 814.85333 782.9624 4281551210
-7.2611618 814.49469 781.7879 4282538393
-4.1926603 813.57123 781.88123 4282472343
-30.121101 817.61823 782.67761 4282669996
-28.447706 816.33893 781.599 4282867368
-25.937614 816.33893 781.599 4282998695
-22.590824 816.33893 781.599 4282802086
-19.522936 817.19183 782.31805 4282736292
-15.897248 817.61823 782.67761 4282669735
-13.387156 817.61823 782.67761 4282669982
-10.877064 816.33893 781.599 4282342043
-8.3669729 816.33893 781.599 4282211482
-40.029358 819.84247 780.62891 4282536350
-34.191742 820.48004 781.1665 4286021080
-31.689909 819.84247 780.62891 4283193780
19.012844 772.91223 784.22351 4278519895
13.783486 776.52515 783.34583 4278190212
16.367889 776.52515 783.34583 4278190152
19.877064 774.23358 785.33765 4278190141
12.909174 778.6048 783.79126 4291090431
16.367889 778.50098 785.01172 4281291704
13.754128 780.68164 784.23438 4292734719
15.473394 781.33887 784.78851 4290300388
13.710092 784.93005 783.8924 4292866303
11.970642 787.10156 783.10742 4291095807
13.680734 788.40894 784.20972 4293262079
16.245872 788.40894 784.20972 4292406783
11.93211 791.98267 783.29883 4289589503
13.680734 789.71637 785.31213 4293195519
15.390825 789.71637 785.31213 4292998143
13.636697 793.28583 784.39771 4287611391
15.341285 794.58899 785.49646 4290502655
13.60734 796.74438 784.69788 4282479806
11.86789 800.29639 783.76862 4281946768
11.009174 802.98901 784.73096 4280762492
8.4587154 805.03082 785.14453 4278191142
10.150458 805.03082 785.14453 4278191943
-47.21468 808.56097 784.19702 4280235100
0.84311932 808.56104 784.19696 4281552520
4.2155962 808.56104 784.19696 4280956265
7.1665134 808.56104 784.19702 4279575898
-45.429359 811.33856 783.92285 4280889949
-4.2064219 812.62494 785.00745 4282603417
-1.6825688 811.98175 784.46515 4282406809
-30.990826 818.15759 784.44043 4285628379
-28.510092 816.77655 784.58398 4282472884
-25.994495 816.1355 784.04346 4282933423
-22.919876 816.56281 784.40381 4282933672
-19.28624 817.4176 785.12451 4282736039
-15.93211 817.4176 785.12451 4282735780
-13.416513 817.4176 785.12451 4282473632
-10.900917 816.77649 784.58398 4282473117
-8.3853207 816.1355 784.04346 4282341787
17.284403 775.55499 786.4519 4278197851
19.60367 775.92853 787.63892 4278190160
19.012844 778.19781 788.68018 4290035944
17.229359 781.13538 787.23303 4293391615
16.333027 784.62482 787.5592 4292735231
19.513151 784.05389 788.82178 4292866815
16.264221 790.26971 787.08667 4291424255
19.708256 790.82587 788.86365 4293457151
17.100918 792.9848 788.06793 4289312503
15.341285 796.5437 787.14465 4280967856
13.60734 799.34521 786.89075 4281619092
15.341285 798.49847 788.79285 4282141840
11.86789 803.53674 786.50085 4281746050
13.60734 801.29572 788.5354 4283325089
11.295413 805.76202 787.50513 4278655557
7.8948007 808.47974 788.05255 4281026442
10.150458 808.26416 787.87079 4279974244
0.84311926 811.78387 786.91443 4282144407
4.2155962 811.78387 786.91443 4282210201
-26.079817 815.19757 787.17664 4282801069
-21.873394 815.19757 787.17664 4282933672
-7.2911315 814.7688 786.81512 4282472600
-4.2064219 814.55438 786.6344 4282603673
-1.6825688 814.55444 786.63434 4282537627
0.84311926 813.71759 788.54492 4282537883
-28.60367 816.48395 788.26135 4283851485
-13.46055 816.48395 788.26135 4282735778
-10.936697 816.48395 788.26135 4282604448
-7.5715594 816.48395 788.26135 4282472603
-4.2064219 816.48395 788.26135 4282603418
-1.6825688 816.48395 788.26135 4282734492
20.917431 769.45544 791.77319 4278190126
22.660551 768.78912 791.21136 4281940367
19.877064 779.51923 789.79443 4289512186
20.67523 784.42834 790.00952 4293195519
22.398165 785.08691 790.56488 4293196031
24.121101 785.08691 790.56488 4294244351
19.771561 787.2536 789.77576 4292209919
22.350458 789.88245 791.99219 4284777414
17.100918 794.94586 789.72144 4283920315
19.708256 792.7912 790.52069 4288196605
17.100918 796.90692 791.375 4280766870
15.341285 799.80164 789.89172 4282930331
13.60734 803.24622 790.18005 4278196055
15.341285 801.10486 790.99048 4280434319
13.60734 805.19684 791.82471 4278191936
11.86789 807.42523 789.77942 4278921567
1.6917431 812.79089 791.68762 4282537883
4.2293577 812.14429 791.14233 4282472087
7.6128435 810.85083 790.05188 4282276502
10.161468 810.1109 790.7359 4282537624
-26.136696 815.00671 789.63184 4282277035
-22.764221 815.00671 789.63184 4282803367
-19.391743 815.00671 789.63184 4282867881
-16.019266 815.00671 789.63184 4282736293
0 815.00671 789.63184 4282537883
-13.489908 816.29584 790.71887 4282539680
-10.96055 816.94043 791.26233 4282670495
-7.5880733 816.94043 791.26233 4282669725
-4.2155962 816.94043 791.26233 4282406555
-1.6862385 816.94043 791.26233 4282406814
25.328442 767.93054 793.10339 4280690603
27.948624 767.93054 793.10339 4289113087
22.660551 770.78809 792.89673 4278190120
25.302753 770.02698 793.56305 4278717249
28.822018 769.26593 794.22937 4287606739
20.917431 772.12073 794.02039 4282875840
22.660551 772.12073 794.02039 4278190402
24.403669 772.12073 794.02039 4278190099
25.926605 784.14417 793.69403 4287007662
28.519266 784.80487 794.2511 4280625992
22.398165 787.06274 792.23083 4293391615
24.121101 787.72131 792.78613 4285566694
22.350458 791.19678 793.10046 4278194853
24.956881 790.44696 793.77625 4278190169
19.708256 794.75647 792.17773 4280241079
22.350458 792.51123 794.20874 4278194587
24.069725 792.51123 794.20874 4278190107
19.42263 796.50342 793.6507 4280436099
17.100918 799.52173 793.57971 4281683846
18.811008 800.17542 794.13086 4282078082
15.341285 803.05957 792.63867 4278918994
11.906422 806.49719 792.92114 4279971699
13.60734 806.49719 792.92114 4278193490
15.341285 805.01434 794.28687 4278192204
11.906422 807.79755 794.01758 4282405779
5.0862384 812.60986 794.151 4282472090
7.6293578 811.31372 793.05811 4282472340
-30.451376 815.37762 793.86865 4285168794
-27.913761 814.73096 793.32343 4287076317
-25.376146 814.08429 792.7782 4284643523
-22.838531 814.08429 792.7782 4281296550
-19.455046 814.08429 792.7782 4282802088
-16.07156 814.73096 793.32349 4282736293
-13.533945 815.37762 793.86865 4282801823
0.56391436 814.51538 793.14166 4282537882
3.3834863 814.08429 792.7782 4282472090
-13.533945 816.67096 794.95923 4282868131
-10.99633 816.67096 794.95923 4282802082
-7.5990825 817.77258 793.92603 4282736288
-4.2293577 816.67096 794.95923 4282670238
-1.6917431 816.67096 794.95923 4282669982
26.201836 770.60138 795.35547 4278190103
28.822018 770.60138 795.35547 4278914139
22.660551 773.45331 795.14404 4278527117
25.602448 772.88745 796.41095 4279838785
28.822018 772.60455 797.04443 4278191693
31.442202 773.27228 797.60742 4278190141
22.660551 774.78595 796.2677 4292668415
25.27523 775.45227 796.82953 4288197082
27.889908 776.11859 797.39136 4282271643
28.579817 785.28589 797.27283 4278980899
25.926605 786.12628 795.36523 4278190494
27.655046 788.1084 797.03656 4281676102
25.844036 791.01434 795.56274 4280888919
22.350458 793.82556 795.31702 4278197600
24.695414 792.77057 797.04352 4280828268
20.631193 795.14001 796.42529 4280503695
22.350458 795.79718 796.97943 4280962189
20.565138 799.3421 796.04425 4281681026
17.100918 802.13647 795.78436 4278192983
19.395718 801.86011 796.42334 4278392923
13.636697 806.3175 795.38562 4281881475
15.390825 804.09753 797.43787 4281289081
10.788379 808.54755 796.39386 4282472595
5.1027522 811.69861 797.30688 4282144922
7.6541286 810.39825 796.21045 4282538135
-25.431192 813.90601 795.2439 4285958367
-22.888073 813.90601 795.2439 4283000998
-19.497248 813.90601 795.2439 4282735789
-16.106422 815.20215 796.33679 4282867109
1.6954129 813.90601 795.2439 4282537885
3.3908257 813.90601 795.2439 4282144922
-15.258716 816.49835 797.42969 4282933672
-13.533945 817.96436 796.04968 4282933926
-10.99633 817.96436 796.04968 4282802083
-7.612844 817.96436 796.04968 4282801823
-4.2385321 816.49835 797.42969 4282801052
-10.99633 819.25769 797.14026 4282868387
-8.4587154 819.25769 797.14026 4282867618
29.695414 774.60767 798.7334 4278190155
31.442202 774.60767 798.7334 4278190144
28.761467 777.45123 798.51501 4282135413
29.53945 782.37012 798.7384 4278190120
29.445871 787.93433 799.50592 4292402169
25.926605 791.41193 799.82202 4284645532
27.655046 790.75122 799.26489 4287865840
25.023853 793.84961 799.91534 4283328934
27.655046 792.73328 800.93616 4287866318
22.350458 797.7688 798.64185 4283717524
24.121101 796.28314 800.00525 4283261088
20.631193 800.39758 800.85828 4278190901
22.350458 799.74036 800.3042 4280168802
16.56636 803.49103 799.54248 4280763004
18.851376 802.61755 798.80603 4278197844
11.970642 806.71228 799.64258 4282275477
13.680734 806.05859 799.09143 4282472857
11.115597 808.01965 800.745 4282406295
-30.616514 812.99902 798.40332 4279972983
-28.065138 812.99902 798.40332 4281289623
-25.513762 812.99902 798.40332 4283855817
-22.962385 812.99902 798.40332 4286023099
-19.560551 812.99902 798.40332 4283329979
0.85045874 812.99902 798.40332 4282341535
4.2614679 811.53021 799.78088 4282275994
7.6706419 810.22705 798.68213 4282406295
-28.348623 814.73285 799.86523 4280433007
-25.513762 814.29938 799.49976 4283132323
-22.962385 814.29938 799.49976 4286221492
-19.277063 814.73285 799.86523 4284247743
-16.442202 815.16632 800.23071 4283460267
-4.2522936 815.59973 800.59619 4282866588
-1.7009175 814.29938 799.49976 4283063455
-13.563303 817.79449 798.52258 4282869415
-6.7816515 817.79449 798.52258 4283063709
-10.99633 820.55103 798.23071 4282867877
-7.6201835 819.8208 798.9231 4282933409
31.376146 782.11542 802.44769 4289903033
31.277063 787.01965 802.65869 4292339199
29.445871 790.58276 801.73901 4290827002
25.926605 794.05469 802.05029 4282339986
28.550459 793.31189 802.73206 4280178350
24.982569 797.60034 801.11584 4283522713
27.655046 795.3761 803.16455 4280437902
22.398165 800.23474 803.33704 4278190631
24.695414 799.35663 802.59668 4280561784
19.485016 802.15009 802.33594 4279576665
13.710092 806.5481 802.12024 4282013084
16.280735 805.23792 801.0155 4282275731
7.6954126 809.32703 801.84729 4282538135
0.85504586 810.6344 802.94971 4282866082
4.2752295 810.6344 802.94971 4282407578
-27.273394 814.13654 801.97852 4280761195
-25.568808 814.13654 801.97852 4281221746
-23.011927 814.13654 801.97852 4281224855
-19.88685 815.00531 802.711 4283524739
-1.7045871 814.13654 801.97852 4282932126
-16.158716 817.55029 802.24084 4282800287
-13.60734 817.55029 802.24084 4282998688
-4.2522936 816.90009 801.69263 4282801307
-13.60734 819.50085 803.8855 4281421437
-11.906422 819.50085 803.8855 4283197848
34.511009 763.81183 805.98102 4278190183
37.222019 762.67657 806.98584 4283653618
31.60734 774.85785 805.48462 4279699968
33.119267 785.44702 805.25684 4291552767
31.277063 790.34064 805.45898 4285304290
33.014679 790.34064 805.45898 4288857343
29.445871 793.89331 804.5304 4280898453
28.828135 796.64557 805.10693 4282932895
32.044037 795.21753 805.64685 4279981991
25.926605 798.67963 805.94995 4280035951
27.655046 798.67963 805.94995 4281092744
20.10092 802.43011 805.18817 4282406542
22.398165 801.55194 804.44775 4278657616
24.121101 801.55194 804.44775 4278190403
8.5963306 806.96954 806.39966 4282275992
10.315597 805.65515 805.29138 4282472340
12.894495 805.65515 805.29138 4282472087
16.350458 804.26355 805.42603 4282275480
18.952293 804.18634 806.66895 4282341272
6.8550458 809.16846 804.32959 4282341785
0.85688072 810.47864 805.43433 4282800541
3.4275229 810.47864 805.43433 4282604189
-18.750458 816.74292 804.17603 4281221746
34.599998 763.27625 808.7995 4278190131
33.572475 770.35052 809.53223 4288779648
33.293579 780.37927 807.52393 4293651967
34.93578 786.62659 808.86743 4290827263
34.862385 790.11121 809.18951 4285897961
31.277063 794.32593 808.81921 4281488534
33.014679 794.32593 808.81921 4281094032
29.445871 797.86597 807.88 4282411171
31.277063 795.65436 809.93933 4283459496
33.014679 795.65436 809.93933 4282801823
22.469725 800.66174 807.62122 4280431730
25.062386 800.66174 807.62122 4278191701
28.579817 799.19012 808.99646 4280108641
16.420183 803.30457 809.84961 4282340246
20.741285 801.98315 808.73535 4282538135
22.469725 801.98315 808.73535 4282340499
24.198166 801.98315 808.73535 4282144131
8.6146793 806.82074 808.89026 4282407578
10.337615 805.50354 807.77966 4282472340
12.922018 805.50354 807.77966 4282406550
1.7192661 809.59833 808.61621 4282734742
4.2981653 808.94116 808.06207 4282604189
6.8770642 808.28394 807.50793 4282407578
-3.4385321 810.91272 809.72449 4282866334
-1.7192661 810.91272 809.72449 4282866334
40.21101 756.62195 812.34497 4291810047
37.41468 760.93555 812.05804 4281879639
40.087158 761.61658 812.63232 4290037487
31.970642 763.87872 810.61548 4278190108
34.634861 763.87872 810.61548 4278190604
31.970642 765.23657 811.76038 4278190093
34.930885 765.68921 812.14203 4283127130
37.299084 766.59448 812.90527 4293123324
33.677063 769.4519 812.69873 4292467397
35.119267 781.57013 811.14417 4292010495
34.862385 792.11011 810.875 4278734252
31.277063 796.98279 811.05945 4283983534
25.981651 800.51434 810.11304 4281025394
28.626606 799.41278 811.14624 4278201942
16.455046 803.16278 812.34619 4282340760
19.919266 801.83856 811.22961 4282274964
22.517431 801.83856 811.22961 4282538648
24.249542 801.83856 811.22961 4282866330
8.6422014 805.94739 812.07788 4282407578
10.370643 805.28668 811.52081 4282407066
12.963303 804.62598 810.96375 4282013079
-1.7229358 808.13794 810.00085 4282866332
0.8614679 808.79651 810.55615 4282669977
4.3073397 808.79651 810.55615 4282669982
6.8917432 808.13794 810.00085 4282473371
-3.4385321 812.22711 810.83264 4282801823
-1.7192661 812.22711 810.83264 4282801823
-6.8770642 813.5415 811.94092 4283457949
-4.2981653 813.5415 811.94092 4283524260
40.21101 757.98822 813.49695 4287743467
42.891743 757.98822 813.49695 4292867071
43.78532 760.03772 815.22498 4292341247
37.41468 762.9787 813.78076 4288332194
40.087158 763.65979 814.35498 4291681791
35.522934 767.95233 814.05029 4293520639
37.299084 767.95233 814.05029 4293454847
37.299084 769.31024 815.19519 4291945727
39.07523 769.31024 815.19519 4291354879
36.990826 782.03082 815.45667 4291354111
36.875229 785.59747 814.53992 4286165503
36.875229 786.93988 815.67188 4284260863
34.93578 791.96838 813.37146 4281685154
36.798164 789.75677 815.43079 4281421726
33.990826 794.77539 813.12231 4283325864
31.376146 796.77435 814.80774 4278855003
33.700306 796.55225 814.62042 4283263398
19.982569 800.96802 814.41968 4282471570
22.588991 800.96802 814.41968 4282472079
25.195412 800.30383 813.85962 4282077842
28.381041 800.08246 813.67291 4279513710
16.507339 802.29645 815.53979 4282406296
19.982569 802.29645 815.53979 4282209422
22.588991 802.29645 815.53979 4282341001
8.6605501 805.81122 814.57922 4282538396
10.39266 805.81122 814.57922 4282799772
12.990826 804.487 813.46265 4282406296
0.57614678 808.14972 813.93488 4282670493
4.6091747 808.14972 813.93488 4282473374
6.9211011 807.20215 814.44397 4282604190
-1.7229358 814.72394 815.55396 4283325589
46.561466 759.90015 817.72504 4292209151
43.78532 762.77026 817.52905 4291683327
35.633026 767.06494 817.2262 4292537599
40.384098 766.15692 816.46063 4291616767
42.759632 767.06494 817.2262 4290893823
35.633026 768.42706 818.37463 4292339711
37.299084 770.66809 816.34009 4292142591
40.026604 769.54761 817.35736 4291617023
42.759632 768.42706 818.37463 4291091199
35.522934 772.026 817.48499 4291485695
37.299084 772.026 817.48499 4291617279
39.667278 772.93121 818.24835 4291683071
37.222019 774.87225 817.26892 4292076287
38.284405 778.90601 816.74603 4291419135
40.640366 781.15747 818.64441 4290698239
42.407341 781.15747 818.64441 4291353343
38.752293 784.05078 817.15991 4288987135
40.51376 784.72412 817.72766 4290565887
38.631191 788.28235 816.80371 4280506045
40.51376 786.0708 818.86304 4284716798
42.27523 786.0708 818.86304 4288459775
37.714676 790.3606 817.24805 4280043153
37.674309 793.10583 818.2547 4283721643
34.93578 796.64233 817.3125 4281355413
36.682568 796.64233 817.3125 4283594174
25.56575 799.66168 817.24225 4282078100
29.051987 799.66168 817.24225 4281093769
31.376146 799.43958 817.05499 4279715718
33.119267 798.77325 816.49316 4279123309
13.03211 803.62488 816.65979 4282734234
16.534863 802.53174 817.70013 4282603161
20.045872 801.43854 818.74048 4282275222
22.660551 801.43854 818.74048 4282012304
24.403669 801.43854 818.74048 4282207635
7.8192658 805.61755 818.33997 4282735778
10.425688 804.95331 817.77991 4282866334
-1.7321101 808.45966 816.81226 4282998434
0.86605507 809.1217 817.37048 4282736544
4.0415902 808.90106 817.18439 4282736034
0.8642202 812.55444 817.6488 4283262889
0.8642202 813.87585 818.76294 4284181159
48.64954 754.69977 821.18848 4292406527
46.561466 761.95374 819.45667 4292208383
33.955963 764.8197 819.25708 4293193983
44.678898 764.8197 819.25708 4291485695
46.561466 763.32288 820.61108 4291748095
48.352295 764.69196 821.7655 4291813887
44.678898 766.86914 820.98517 4291420159
46.466057 766.86914 820.98517 4291485183
40.977982 769.78912 819.52319 4291420927
42.759632 769.78912 819.52319 4291288575
43.947399 771.60529 821.05444 4291288319
46.322937 772.51331 821.82007 4291025919
40.851376 774.7417 819.7749 4291550719
43.21957 775.64697 820.53815 4291550719
40.766972 777.5824 819.55408 4291616767
44.311928 778.93744 820.69666 4291419135
43.359634 781.40039 820.81134 4291353343
46.084404 780.29254 821.83923 4291222527
44.174313 783.85919 820.92236 4290499327
40.51376 787.41742 819.99854 4282746832
42.27523 788.09076 820.56628 4283202010
38.631191 790.96729 819.06763 4281489054
40.387157 790.96729 819.06763 4281291675
40.387157 792.30969 820.19946 4281947279
42.14312 792.98096 820.76544 4280505502
38.550457 795.11536 819.9491 4284646337
40.302753 795.78516 820.51385 4283789484
26.201836 799.98096 820.12756 4285299905
28.822018 799.98096 820.12756 4283461315
31.442202 799.98096 820.12756 4280306063
34.062386 799.31323 819.56451 4279385206
37.555962 798.64551 819.00146 4282608283
13.073395 802.77118 819.86414 4282865820
16.559633 802.77118 819.86414 4282800539
20.088074 801.31641 821.25354 4282537883
22.708258 801.31641 821.25354 4282011285
8.7155962 804.10382 820.98779 4282801573
10.458715 804.10382 820.98779 4282735778
13.073395 804.10382 820.98779 4282735262
5.2128439 807.61011 820.02014 4282867366
46.990826 751.06018 822.0437 4292275455
50.003056 751.52075 822.43207 4292077823
52.412846 751.75104 822.62622 4292208895
55.123856 752.44189 823.20874 4292207615
50.605503 753.82361 824.37378 4292143103
52.412846 753.82361 824.37378 4292077311
54.220184 753.82361 824.37378 4292076799
49.250153 757.45483 823.51147 4292011263
52.253212 758.83234 824.67297 4291748095
48.500916 761.07764 822.64197 4291813887
50.297249 763.82422 824.95789 4291813887
48.949238 766.97382 823.68945 4291682815
46.466057 768.91858 822.71313 4291222783
49.14679 770.28491 823.86523 4291420671
46.322937 773.87537 822.96851 4291287807
48.995415 773.87537 822.96851 4291551487
48.995415 775.23749 824.11707 4291288063
51.667889 775.23749 824.11707 4291552255
47.06789 778.13647 822.63721 4291485183
46.970642 781.64758 822.98169 4291092223
49.732109 780.17322 824.35461 4291419391
44.174313 785.21008 822.0614 4290040831
46.899082 784.10638 823.09283 4291419647
44.174313 786.56091 823.20044 4283271920
47.119263 787.01123 823.58008 4289579263
44.036697 790.78406 822.83722 4281360555
45.798164 790.78406 822.83722 4281231569
43.089909 793.89935 823.50189 4282867116
45.798164 792.80408 824.54041 4279455647
37.407951 797.75629 823.04785 4279647877
40.344955 797.73706 823.46765 4278726534
42.14312 796.33704 823.59521 4280500867
21.903669 800.47394 824.46729 4282405527
25.408257 799.13428 823.33765 4283131567
29.204893 799.58081 823.71417 4287072759
31.541285 799.80408 823.90247 4286352335
34.169724 799.13428 823.33765 4280632462
38.550457 799.13428 823.33765 4278266748
13.100918 803.98724 823.50549 4282801057
16.594496 803.31958 822.9425 4282669469
19.21468 803.31958 822.9425 4282538141
4.3577981 806.76904 823.23499 4282867629
7.8486238 805.74109 823.02234 4282867364
10.469725 805.37952 823.37146 4282801572
13.100918 805.32269 824.63159 4282801826
15.721101 805.32269 824.63159 4282801825
4.3577981 808.10168 824.35864 4283261108
6.972477 808.10168 824.35864 4283129768
50.605503 755.20538 825.53882 4292142591
52.412846 755.20538 825.53882 4292076799
55.123856 755.20538 825.53882 4291945983
57.834862 755.20538 825.53882 4292076799
55.123856 756.5871 826.70386 4291419647
57.834862 757.27795 827.28638 4291288063
50.451378 760.20984 825.83447 4291748095
52.253212 760.89862 826.41522 4291813887
54.655659 760.66901 826.22168 4291682303
53.291134 765.65527 826.50177 4291945727
52.829357 769.48376 825.80585 4291814911
52.7211 772.33435 825.59326 4291880703
55.515594 771.53748 827.53735 4291814655
57.306423 771.53748 827.53735 4291814143
49.886238 776.59955 825.2655 4291485439
52.641281 775.4917 826.2934 4291879935
55.401836 774.38379 827.32129 4291814143
51.667889 777.96167 826.41394 4291682815
49.732109 781.53113 825.49951 4291615999
51.508255 782.21008 826.07196 4291813631
49.629356 785.03528 825.83813 4291550207
51.508255 784.24689 827.78943 4292273919
51.401836 787.06787 827.552 4291486975
47.708256 790.61353 826.61749 4281363385
49.475231 790.61353 826.61749 4282939603
44.036697 794.1507 825.6759 4281421969
45.798164 794.1507 825.6759 4280896133
40.51376 796.84399 827.94678 4281684621
42.862385 795.94623 827.18988 4280107893
45.798164 795.49738 826.8114 4280367991
25.461468 799.69318 826.42505 4282344622
28.680735 799.91693 826.61371 4288389107
31.60734 800.36438 826.99097 4289442815
33.948624 799.46942 826.23639 4283722173
37.753212 799.02197 825.85913 4280700558
17.522936 803.1532 826.72632 4282801825
19.275229 803.1532 826.72632 4282669982
21.903669 801.81354 825.5968 4282537117
8.7339449 806.65814 825.75757 4283063975
10.480734 806.65814 825.75757 4282933926
13.100918 806.65814 825.75757 4282933667
16.622019 805.5755 826.80676 4282801570
19.275229 804.49286 827.85596 4282801573
5.2293577 809.43433 825.4823 4284180146
7.8532109 808.71399 826.18292 4283460014
10.480734 807.99359 826.88354 4282933926
13.100918 807.99359 826.88354 4282999205
15.721101 807.99359 826.88354 4282867618
56.027523 760.04144 829.61646 4292077055
58.437305 760.27173 829.81061 4292076799
63.256882 760.04144 829.61646 4292405503
55.85688 765.71997 830.48035 4291945727
59.2789 769.31744 829.5896 4291879935
58.201836 772.90656 828.69177 4292010751
53.614677 775.75006 828.47327 4291813887
55.515594 774.27563 829.84619 4291813887
57.306423 774.27563 829.84619 4291944959
53.614677 777.11639 829.62537 4292010751
55.401836 777.79956 830.20135 4292010239
53.449543 781.36688 829.28516 4292009983
53.284405 785.60474 828.93433 4292339455
51.508255 786.96265 830.07922 4288995327
51.401836 789.77802 829.83716 4286236927
44.174313 794.66614 830.03455 4281554572
47.119263 794.21582 829.65485 4284904372
49.475231 793.99072 829.46503 4284777164
51.242203 793.31525 828.89551 4286167551
25.541285 799.53735 830.21777 4282478266
29.06422 799.53735 830.21777 4289970687
31.706423 799.53735 830.21777 4287474431
34.6422 799.08844 829.83929 4284188895
37.871559 798.19067 829.08228 4279256991
40.51376 798.19067 829.08228 4280898201
21.949541 802.37805 828.68896 4282603422
10.480734 809.32898 828.00952 4283196840
13.100918 809.32898 828.00952 4282999718
61.636696 758.49963 832.2406 4292405503
65.262383 758.49963 832.2406 4292339455
67.075226 758.49963 832.2406 4292536831
61.636696 759.88556 833.40918 4292273407
65.262383 759.88556 833.40918 4292536063
56.027523 762.11401 831.36401 4291617023
58.738533 762.80487 831.94653 4291879935
61.449543 764.18658 833.11157 4292010495
63.708714 763.49573 832.52905 4292339199
61.262386 769.1637 833.38409 4291879167
63.06422 769.1637 833.38409 4292076543
59.2789 772.75073 832.4845 4292010495
57.306423 775.64478 831.00061 4292010239
55.401836 779.84894 831.92944 4292207359
57.306423 777.69836 832.73212 4291944703
55.401836 781.21527 833.08142 4292142079
53.449543 784.77209 832.15637 4292274431
53.284405 788.3205 831.22412 4289843711
55.231194 786.13416 833.30481 4291291135
53.284405 790.3573 832.94159 4292076287
46.970642 793.84326 833.26477 4287604969
49.629356 793.84326 833.26477 4292928511
51.401836 792.48816 832.12219 4292733183
37.989906 797.36786 832.3125 4284518098
40.640366 797.36786 832.3125 4279586199
42.996326 796.46729 831.55322 4281488537
25.541285 800.88397 831.35327 4282806461
29.06422 800.88397 831.35327 4290825215
31.706423 800.88397 831.35327 4288392703
34.455963 798.71869 833.45154 4287933695
24.660551 802.90399 833.0564 4281751201
65.064217 767.64093 836.02417 4291944959
67.77523 767.64093 836.02417 4292011263
61.262386 771.91876 835.70709 4292273151
59.2789 775.49731 834.80035 4292076287
58.292664 778.65466 835.50049 4292076543
55.401836 782.58154 834.2334 4292274431
57.306423 781.12115 835.61816 4292142591
57.188992 784.63098 835.96149 4292076031
55.231194 788.17731 835.02759 4292339455
53.449543 790.22046 836.75024 4293259263
55.231194 790.22046 836.75024 4292470015
47.955963 793.75208 835.80383 4287612927
51.508255 793.07312 835.23138 4292999167
34.563301 797.90851 836.6925 4288526079
38.108257 796.55341 835.54993 4287408367
40.851376 795.10992 836.94885 4280565385
43.751678 795.62061 835.63544 4279389589
46.740063 795.1394 836.10175 4280772273
49.680733 795.15417 835.6781 4289054199
26.504587 800.06958 834.59058 4281555878
28.271559 800.06958 834.59058 4282803412
30.922018 800.06958 834.59058 4286486527
26.504587 802.09583 836.29913 4282078365
28.271559 802.09583 836.29913 4280964256
30.038532 801.42041 835.72961 4284124369
67.981651 766.81525 839.2522 4292207871
70.70092 766.81525 839.2522 4292405759
64.160553 769.7135 837.77173 4292207359
61.262386 773.98505 837.44934 4292273407
64.160553 771.78607 839.51929 4292207103
61.262386 776.05133 839.19159 4292142335
63.06422 775.36255 838.61084 4292339967
59.2789 778.9306 837.69519 4292011007
59.2789 780.30396 838.85315 4292076031
59.097248 783.85938 837.92688 4292076287
57.78471 787.13593 838.07355 4292142335
53.449543 791.58252 837.8988 4293194751
55.401836 789.41302 839.99353 4292668415
57.188992 789.41302 839.99353 4292405759
52.558716 792.94464 839.04724 4292998143
35.522934 797.82568 839.23865 4289313535
37.299084 796.46777 838.09375 4287869183
39.963303 796.46777 838.09375 4287210231
42.627522 796.46777 838.09375 4283661255
31.313761 800.16699 838.59686 4283002810
33.677063 799.26355 837.83508 4289119231
67.981651 769.58716 841.58936 4292207359
65.064217 773.16779 840.68433 4292405247
64.160553 774.54956 841.84937 4292602367
66.871559 774.54956 841.84937 4292338943
61.262386 778.8064 841.51447 4292076031
63.965141 778.8064 841.51447 4292272895
61.674007 783.96606 841.9411 4292142591
59.097248 787.2821 840.81293 4292471551
55.401836 790.7793 841.14563 4293588479
58.14312 790.0575 841.84503 4292668159
44.541283 794.3067 840.19568 4280240018
46.322937 794.3067 840.19568 4278336396
48.995415 794.3067 840.19568 4278534816
52.641281 793.2262 841.24664 4285701626
55.401836 792.14563 842.29761 4292930559
35.633026 797.03088 842.49268 4287996415
37.41468 796.34985 841.91846 4288786687
39.790215 796.12286 841.72705 4288591103
43.650459 795.66882 841.34424 4282934999
46.322937 795.66882 841.34424 4278667666
48.995415 795.66882 841.34424 4278205070
28.418348 800.54144 841.52856 4282669744
33.746788 799.18353 840.38354 4284058591
71.058716 764.52924 843.86475 4292536063
73.791748 764.52924 843.86475 4292274175
70.915596 767.38818 843.6593 4292471039
72.880737 765.92218 845.03931 4292076799
70.915596 768.77832 844.83142 4292207615
68.888077 773.052 844.5108 4292404735
66.871559 775.93127 843.0144 4292667391
66.871559 778.00385 844.76196 4292470783
64.26545 781.33179 843.64386 4292011007
66.667892 782.25012 844.41821 4292537087
61.07523 785.79718 843.48486 4292406015
63.965141 783.62769 845.57971 4292405759
66.667892 783.62769 845.57971 4292471295
61.973392 787.85718 845.2218 4292668415
64.667892 787.85718 845.2218 4292667903
58.201836 790.7049 843.69885 4293193727
41.104588 794.87823 844.60168 4287539191
43.78532 794.87823 844.60168 4286553855
46.466057 794.87823 844.60168 4287340776
49.14679 794.87823 844.60168 4280900005
52.423237 793.96735 843.83368 4280180935
55.401836 793.5119 843.44971 4290505471
58.201836 792.07397 844.85327 4293654527
60.888073 792.07397 844.85327 4293062399
35.743118 796.24451 845.75366 4286354420
37.530273 796.24451 845.75366 4288920319
40.21101 796.24451 845.75366 4288526079
43.78532 796.24451 845.75366 4288199167
46.466057 796.24451 845.75366 4289314047
49.14679 796.24451 845.75366 4282672820
28.506422 799.75507 844.78967 4282999216
31.178898 798.39294 843.64111 4281357221
33.851376 798.39294 843.64111 4282611137
71.917435 748.6676 846.18701 4292931839
67.307343 750.78229 847.97009 4292339199
70.688072 750.54736 847.77197 4292471039
73.761467 750.07739 847.37573 4292667903
75.605507 750.07739 847.37573 4292931071
73.791748 767.31512 846.21375 4292208383
70.915596 770.16846 846.00354 4292272895
73.791748 769.40454 847.97546 4292405503
70.915596 772.25366 847.76172 4292536319
68.888077 775.82385 846.84796 4292536575
68.678902 781.45819 847.67456 4292207615
66.667892 785.00519 846.74121 4292733951
66.667892 786.38269 847.90271 4292667903
59.2789 791.29041 848.1167 4292279039
61.973396 790.60376 847.53772 4292996863
53.127827 794.3559 846.77734 4278599580
55.515594 794.12769 846.5849 4283934966
57.306423 793.44312 846.00769 4290042111
31.27523 797.61084 846.90576 4282473897
34.849541 797.61084 846.90576 4281294002
37.530273 797.61084 846.90576 4283205096
40.21101 797.61084 846.90576 4286161653
43.831192 796.89606 847.61108 4288397311
46.561466 796.18127 848.31641 4288329215
49.247707 796.18127 848.31641 4283395003
51.933945 796.18127 848.31641 4281618587
31.27523 798.97711 848.05774 4282868646
33.955963 798.97711 848.05774 4282211230
77.680733 747.85742 849.42798 4293259263
79.530273 747.85742 849.42798 4293193471
81.379814 747.85742 849.42798 4292864767
75.605507 754.30676 850.94177 4292668415
76.98716 762.9256 850.36084 4292076799
80.653214 762.9256 850.36084 4292799743
76.755966 767.21606 850.05432 4292405503
78.583488 767.21606 850.05432 4292405503
76.755966 769.31183 851.82141 4292602111
78.583488 769.31183 851.82141 4292536319
