# .PCD v0.7 - Point Cloud Data file format
VERSION 0.7
FIELDS x y z rgb
SIZE 4 4 4 4
TYPE F F F U
COUNT 1 1 1 1
WIDTH 1164
HEIGHT 1
VIEWPOINT 0 0 0 1 0 0 0
POINTS 1164
DATA ascii
-49.060551 767.52362 753.51941 4278651744
-46.522934 767.52362 753.51941 4282148531
-43.985321 767.52362 753.51941 4289178347
-21.992661 767.52362 753.51941 4291945727
-20.344954 767.24438 755.90002 4291879935
-49.906422 769.46362 755.15521 4278190080
-46.522934 769.46362 755.15521 4280296296
-43.985321 768.81696 754.60999 4287537597
-20.300917 770.11029 755.70044 4292010751
-42.999084 773.1095 754.30524 4280368272
-40.469727 773.1095 754.30524 4282999722
-38.783485 773.1095 754.30524 4287013351
-20.234863 773.75409 754.84875 4291748095
-42.999084 775.04327 755.93567 4280232540
-40.469727 775.04327 755.93567 4280635526
-37.605503 775.65723 754.70929 4283200425
-35.333946 775.96423 754.09613 4287542249
-21.873394 775.96423 754.09613 4291485439
-20.234863 775.04327 755.93567 4291813887
-37.016514 777.8938 755.72314 4278598278
-35.333946 777.8938 755.72314 4282479808
-20.190826 777.8938 755.72314 4292077055
-33.541283 780.87689 754.31433 4283593635
-31.02569 781.51801 754.85492 4284842684
-22.640366 781.51794 754.85486 4292075519
-20.124771 782.15906 755.39539 4292208383
-28.447706 783.71619 754.09229 4288066813
-25.937614 784.35577 754.63159 4288985063
-22.590824 783.07648 753.55298 4291353343
-17.137615 752.83051 756.8269 4292471295
-18.811008 755.72449 756.651 4292405759
-18.811008 757.68555 758.30457 4292274431
-19.29052 763.49341 757.53351 4291879935
-18.710093 766.18585 758.93164 4291944959
-52.557796 769.1886 757.53937 4278190126
-50.862385 769.1886 757.53937 4278190080
-18.649542 769.83667 758.08582 4291748095
-49.060551 771.40369 756.79102 4278190080
-46.522934 772.69702 757.88153 4278453785
-18.609175 773.99036 758.97205 4292734975
-42.999084 776.3324 757.02271 4279968546
-40.469727 776.3324 757.02271 4282011780
-38.783485 776.3324 757.02271 4281419386
-42.999084 777.62152 758.10962 4278199107
-40.469727 777.62152 758.10962 4278195526
-37.900002 778.40082 757.45868 4281947784
-35.333946 779.18011 756.80774 4281617794
-18.508257 779.18011 756.80774 4291681535
-37.016514 781.10962 758.43463 4281153900
-34.492661 781.10962 758.43463 4282274438
-20.190826 781.75281 758.97693 4286882559
-31.025688 784.08221 757.01697 4281685130
-28.510092 784.72327 757.5575 4280896895
-25.994495 785.36438 758.09802 4281754529
-22.919876 784.50958 757.37726 4288718579
-15.506422 748.86395 760.02258 4292207871
-16.333027 751.76501 759.85266 4292405759
-13.783486 750.18115 761.13318 4292076799
-16.305504 754.26514 759.99866 4292339967
-17.137615 757.4162 760.69342 4292405503
-17.100918 760.95398 761.06042 4292076287
-16.193579 765.91919 761.32288 4292010751
-51.877983 768.78656 761.12451 4278190098
-49.326607 768.78656 761.12451 4278190093
-16.158716 768.78656 761.12451 4292142335
-49.166973 773.72516 761.36438 4282868090
-18.649542 771.13281 759.17871 4292208639
-16.106422 773.72516 761.36438 4283400125
-46.522934 775.93042 760.60779 4282800255
-42.999084 778.91071 759.19666 4279115615
-40.469727 778.91071 759.19666 4278190634
-38.783485 778.91071 759.19666 4281288302
-18.548624 778.91071 759.19666 4289840109
-42.999081 780.84436 760.82715 4282866568
-40.469727 780.84436 760.82709 4281158257
-38.783485 780.84436 760.82709 4278592330
-18.548624 780.84436 760.82709 4279049592
-37.016514 783.03912 760.06152 4278194740
-34.212231 783.46796 760.42303 4280697462
-31.127522 783.68231 760.60382 4282670997
-28.60367 784.3255 761.14612 4282801806
-21.873394 783.68231 760.60382 4282933170
-20.190826 783.68231 760.60382 4279644049
-25.994495 786.64648 759.17908 4281421951
-23.478899 786.64648 759.17908 4280633761
-10.370643 749.12689 764.16833 4291879935
-13.209174 751.9375 762.61407 4292142591
-15.473394 755.05103 762.62329 4292405247
-12.907339 754.92047 763.82123 4292076799
-10.337615 754.13275 764.46509 4291813887
-15.423853 759.38147 762.35046 4292076287
-13.710092 760.03656 762.90283 4292142079
-16.245872 762.26135 762.16272 4291944447
-13.680734 763.56873 763.26514 4292208127
-11.127523 763.43896 764.46368 4291814399
-13.636697 767.22241 762.42163 4290434559
-51.877983 770.08691 762.22095 4279707709
-49.326607 770.08691 762.22095 4278457906
-16.158716 770.08691 762.22095 4291091449
-13.60734 770.08691 762.22095 4287807219
-11.363914 769.39435 764.25299 4281422240
-8.5229359 769.82874 764.61926 4285510655
-54.429359 772.68768 764.41382 4282866795
-51.877983 772.03748 763.8656 4283393406
-13.60734 772.03748 763.8656 4278190147
-11.055964 772.68768 764.41382 4278190136
-49.166973 775.66937 763.00372 4283063690
-16.106422 775.66937 763.00372 4279378832
-49.166973 777.61359 764.64307 4282931848
-46.522934 778.51709 762.78882 4282800780
-16.088074 778.38867 763.98859 4278190113
-13.563303 777.61359 764.64307 4278190093
-45.677063 780.45715 764.42456 4282995852
-42.999084 782.77814 762.45752 4282472329
-40.469727 782.77814 762.45752 4282800776
-37.940369 782.77814 762.45752 4281552496
-35.411011 782.77814 762.45752 4279646030
-18.548624 782.77814 762.45752 4278190169
-16.07156 780.45715 764.42456 4281019437
-40.469727 784.06726 763.54456 4282603908
-37.659328 784.49689 763.90692 4282406539
-34.56789 784.71185 764.08801 4280170856
-31.161469 785.48413 763.43109 4281683323
-28.60367 785.61182 762.23071 4283195286
-26.079817 785.61182 762.23071 4282011005
-22.71468 785.61182 762.23071 4278595699
-19.096024 785.01178 763.46893 4278456895
-16.300306 784.9267 764.26923 4284372326
-28.60367 786.89813 763.31531 4283718546
-26.079817 786.89813 763.31531 4284181913
-22.71468 786.89813 763.31531 4280172165
-20.190826 786.89813 763.31531 4280301655
-12.099083 750.44824 765.28247 4292076799
-10.370643 750.44824 765.28247 4291879935
-8.6422014 751.76965 766.39673 4291748095
-12.060551 755.44995 765.57581 4292207615
-10.337615 755.44995 765.57581 4291944959
-8.6146793 755.44995 765.57581 4291879167
-12.034863 758.33698 765.39392 4292273407
-10.315597 758.33698 765.39392 4292010751
-8.6146793 756.76715 766.6864 4291944959
-8.5963306 760.30859 767.05634 4292077311
-10.26055 766.18353 765.46985 4291615743
-6.8403668 767.49091 766.57214 4291941119
-5.1412845 765.93237 767.87402 4292665087
-4.2752295 768.79828 767.67456 4292404479
-51.877983 773.98804 765.51025 4282604164
-13.60734 773.98804 765.51025 4278190092
-11.055964 773.98804 765.51025 4278190091
-7.5001831 772.17444 766.59705 4282006902
-5.1137614 773.73822 767.91565 4281349720
-54.429359 775.28839 766.60669 4282603908
-51.594498 775.72186 766.97217 4282668932
-10.772477 775.72186 766.97217 4280361018
-7.9376144 776.15527 767.33765 4278190100
-49.166973 778.90979 765.73596 4282931846
-47.471561 778.90979 765.73596 4282995852
-13.563303 778.90979 765.73596 4286150824
-11.86789 778.90979 765.73596 4286611375
-46.623856 780.20593 766.82886 4282800008
-43.453213 781.66766 766.31738 4282603656
-15.225688 781.75049 765.51514 4287401100
-13.533945 781.75049 765.51514 4291150045
-10.737615 780.638 767.19318 4290955223
-8.4770641 781.50208 767.92175 4287734485
-42.293579 783.04382 766.60571 4282669192
-40.601833 783.69049 767.15094 4282603399
-38.06422 783.69049 767.15094 4282538120
-35.526604 784.33716 767.69617 4282472327
-13.533945 783.69049 767.15094 4291743999
-11.842202 783.69049 767.15094 4291086079
-33.72477 786.64557 765.71851 4281619080
-30.914373 787.07526 766.08081 4279844453
-28.666056 787.29016 766.26196 4280897648
-26.136696 787.2901 766.26196 4282209683
-22.764221 787.2901 766.26196 4283256987
-19.672783 787.07526 766.08081 4281353072
-16.019266 786.64557 765.71851 4285956543
-21.921101 789.22382 767.89246 4285560720
-19.391743 789.22382 767.89246 4283850661
-6.9284406 751.51849 768.80103 4291944959
-5.1963301 751.51849 768.80103 4291878911
-6.9137616 755.07318 769.18213 4292207359
-5.1853213 754.41248 768.625 4292076031
-5.1853213 757.0553 770.85339 4291418879
-6.8917432 759.40155 768.90759 4291615999
-7.7366972 762.28015 768.71875 4292733439
-1.7192661 764.90894 770.9353 4292272639
-4.2752295 770.10565 768.77686 4287007463
-1.7137614 768.55273 770.0835 4292929279
-3.4201834 771.41302 769.87915 4286485415
-1.7100917 772.06671 770.43036 4285364654
-54.546787 775.69299 769.5639 4282603398
-52.842201 775.69299 769.5639 4282800777
-4.2614679 775.69299 769.56396 4278190106
-51.027523 778.53931 769.34778 4282931847
-49.326607 778.53931 769.34778 4282866054
-46.77523 779.18951 769.896 4282734987
-7.3706422 778.32257 769.16504 4280099889
-5.1027522 779.18951 769.896 4278190117
-49.326607 780.48987 770.99243 4282931848
-46.77523 780.48987 770.99243 4282800526
-43.304588 781.64404 770.00354 4282669190
-38.994495 782.79822 769.01465 4282800008
-10.172477 782.79822 769.01465 4290954751
-7.6541286 780.48987 770.99243 4285561285
-5.1027522 780.48987 770.99243 4278190147
-40.689907 784.09442 770.10754 4282931596
-38.106422 784.86249 769.44714 4282734729
-34.680733 785.63055 768.78674 4282341512
-32.14312 785.63055 768.78674 4281553025
-18.609175 785.63055 768.78674 4282076287
-16.07156 785.63055 768.78674 4279519879
-13.533945 785.63055 768.78674 4284045757
-11.007339 784.86249 769.44714 4285889503
-8.4770641 784.09442 770.10754 4281285279
-33.834862 786.92389 769.8772 4282471558
-31.297249 786.92389 769.8772 4281815172
-27.913761 786.92389 769.8772 4279777142
-25.376146 787.57056 770.42249 4279973229
-23.120489 787.78613 770.60425 4280958059
-19.455046 788.21722 770.96777 4280894866
-16.07156 787.57056 770.42249 4282144131
-13.533945 787.57056 770.42249 4280435589
-11.842202 786.92389 769.8772 4283131049
-3.4752293 751.15222 772.41626 4291483903
-5.1963301 754.16693 771.03406 4291878655
-5.1853213 758.37671 771.96753 4292075007
-3.4568808 759.69812 773.08179 4291615487
-1.7100917 774.02777 772.08386 4278190103
-51.989906 778.29932 771.76147 4282932879
-3.4091742 778.29932 771.76147 4278190102
-1.7045871 778.29932 771.76147 4278190104
-51.137615 780.25409 773.40967 4283129489
-49.433029 780.25409 773.40967 4282734731
-46.876144 780.25409 773.40967 4282734731
-43.421101 781.02216 772.74927 4282865801
-6.8036699 781.79022 772.08887 4278190158
-4.2559633 781.02216 772.74927 4278190115
-1.7045871 780.25409 773.40967 4278190080
-39.971558 783.09058 773.1853 4282800528
-37.299084 785.39056 771.20044 4282800008
-35.603668 785.39056 771.20044 4282734215
-10.172477 785.39056 771.20044 4281618591
-7.640367 784.2406 772.19287 4278190127
-5.1027522 783.09058 773.1853 4278190094
-31.365139 786.68671 772.29333 4282471043
-27.974312 787.33478 772.83978 4282208639
-25.431192 787.98285 773.38623 4282011257
-15.258716 787.98285 773.38623 4284510349
-13.563303 787.98285 773.38623 4282930851
-11.020184 787.33478 772.83978 4279447666
-8.4770641 786.68671 772.29333 4278190154
-22.838531 789.51056 772.05823 4279579765
-19.455046 789.51056 772.05823 4280961134
-16.917431 789.51056 772.05823 4284378762
-1.7431192 749.466 774.91858 4291418111
-3.4752293 753.80908 774.65649 4291418623
-1.7376146 753.80908 774.65649 4291352831
-1.7321101 758.13953 774.38379 4291483647
0.86605507 760.24164 774.84808 4291417599
3.4642203 760.78796 776.61682 4291549183
1.1522936 762.78143 775.68158 4292206847
0.8614679 766.64612 775.01611 4292598271
0.57431191 769.21356 775.43677 4284380354
0 773.79352 774.50232 4278190122
0 775.75879 776.15942 4278190115
-47.027523 779.25732 776.49329 4282800778
-43.466972 781.55725 774.50842 4282997387
-40.0578 782.86041 775.6073 4282734987
-3.4091742 781.55725 774.50842 4278190080
-1.7045871 782.20886 775.05786 4287663517
-39.205505 784.16364 776.70605 4282800008
-37.420185 785.04114 774.82996 4282865801
-34.868805 785.04114 774.82996 4282865287
-31.501835 784.92749 776.04211 4282405763
-7.3706422 785.25787 775.0127 4278195253
-4.2522936 785.0412 774.82996 4287008965
-1.7045871 784.16364 776.70605 4294308351
-25.513762 786.9917 776.47461 4282471295
-23.812843 786.9917 776.47461 4282011776
-13.60734 786.9917 776.47461 4284440206
-11.055964 786.9917 776.47461 4285099172
-7.6541286 786.9917 776.47461 4280172646
-4.2522936 786.9917 776.47461 4283927741
-22.040367 789.27905 774.47913 4281748603
-19.497248 789.27905 774.47913 4281420394
-16.106422 789.27905 774.47913 4281221507
0.87339449 751.23755 779.02838 4291286783
0 753.46387 778.28943 4291417855
13.073395 754.79651 779.41309 4292338943
15.688073 754.79651 779.41309 4292207103
3.4752293 757.13013 777.45667 4291417599
4.039144 763.95215 778.41278 4292338943
3.4568808 766.30518 778.65259 4292667391
1.7229358 769.93915 777.7926 4278190651
3.4458716 769.93915 777.7926 4278861205
1.7192661 772.79529 777.58484 4278190095
3.4458716 771.25635 778.90332 4278190173
1.7192661 774.76685 779.24725 4278190144
-49.699081 779.03424 778.92114 4282933393
-47.128441 779.03424 778.92114 4282997387
0 778.37915 778.36884 4286152121
-43.607338 780.5647 777.59558 4282932109
-41.042202 781.87207 778.698 4282800008
0 781.87207 778.698 4294639103
-40.187157 783.17944 779.80029 4282800778
-37.500916 785.4668 777.80493 4282538633
-34.944038 785.4668 777.80493 4282669961
-31.587158 784.32312 778.80261 4282668679
-28.125687 785.4668 777.80493 4282668421
-1.7045871 785.4668 777.80493 4291161343
0 783.17944 779.80029 4293196799
-40.0578 786.76996 778.90369 4282932111
-27.273394 786.76996 778.90369 4282734210
-25.568808 786.76996 778.90369 4282602881
-23.011927 786.76996 778.90369 4282208888
-19.560551 788.29205 777.57104 4280763507
-16.158716 788.29205 777.57104 4280235376
-13.60734 788.29205 777.57104 4282866012
-11.055964 788.29205 777.57104 4285430440
-7.6541286 788.29205 777.57104 4282603667
-4.2522936 788.29205 777.57104 4283263370
-1.7045871 786.76996 778.90369 4290366705
-17.009174 789.59241 778.66748 4281749373
-10.205504 789.59241 778.66748 4281288343
-7.6541281 790.24261 779.2157 4283723681
-5.1027522 789.59241 778.66748 4284444815
3.5045872 749.5675 781.54431 4291088895
14.047707 748.00891 782.84619 4292207615
5.2403669 753.24072 780.71741 4291812095
7.8605504 753.90845 781.2804 4291878143
10.480734 753.90845 781.2804 4291812607
12.809787 755.0213 782.21875 4292076287
15.721101 754.57617 781.84338 4292207615
5.2293577 756.79547 781.09857 4291812095
7.8440366 757.46179 781.6604 4291943935
10.458715 758.12805 782.22223 4291945471
13.073395 758.79437 782.78406 4292933887
5.2128439 761.11542 780.81702 4292274431
7.8192658 761.11542 780.81702 4292010495
7.8192658 762.44385 781.93701 4292470527
10.425688 762.44385 781.93701 4291816447
5.1963301 766.08484 781.08301 4287282943
7.7944956 766.74695 781.64124 4292404730
5.1853213 769.6087 781.43805 4282466955
6.9137616 770.26941 781.99512 4278190185
3.4458716 773.23218 780.56921 4278190111
1.7192661 776.73846 780.90967 4288719579
3.4385321 776.73846 780.90967 4278215318
-48.13945 778.05286 782.01782 4283063950
3.4385321 778.05286 782.01782 4284907489
-46.271561 780.34442 780.02588 4282734985
-43.700916 780.99951 780.57825 4282997900
-31.704586 782.96478 782.23535 4282865799
1.7137614 780.99951 780.57825 4292010221
3.4275229 782.96478 782.23535 4293588479
-40.187157 785.79419 782.005 4282997651
-37.622017 785.1405 781.45386 4282932109
-34.771866 784.92261 781.2702 4282866314
-28.216515 785.1405 781.45386 4282603398
-25.651377 785.79419 782.005 4282603656
0.85504586 785.1405 781.45386 4289052905
-23.011927 788.07312 780.00244 4282734467
-19.602753 788.07312 780.00244 4281750139
-15.341285 788.07312 780.00244 4281485945
-13.636697 788.07312 780.00244 4280436840
-11.93211 788.07312 780.00244 4280700013
-3.4091742 788.07312 780.00244 4278599306
-1.7045871 788.07312 780.00244 4279586201
-37.500916 790.67944 782.20007 4283194766
-19.318655 789.81073 781.46759 4282471550
-16.193579 790.02789 781.65076 4282208894
-13.636697 790.02783 781.6507 4281749883
-11.079817 790.02789 781.65076 4280633715
-7.6706419 790.67944 782.20007 4278195535
-4.2614679 790.02783 781.6507 4283789238
-1.7045871 790.02783 781.6507 4280959635
12.201835 760.79333 784.46948 4291750652
10.425688 763.77222 783.05713 4292474367
10.425688 765.76489 784.7373 4291417330
12.163302 766.42908 785.29736 4293455103
8.0831804 769.61603 784.06036 4281283688
5.1853213 772.25153 783.66644 4278192433
7.7871561 772.14697 784.88635 4278190092
5.1688075 776.52515 783.34583 4278190172
7.7779818 774.23358 785.33765 4278190090
-46.420185 779.36725 783.1261 4282604176
-44.796329 779.15955 785.56702 4283260811
4.5920491 778.78973 784.38312 4292799486
6.8917432 778.50098 785.01172 4290433517
-42.981651 781.33887 784.78851 4283063693
5.1577983 781.99603 785.34265 4293587967
-37.702751 785.58514 784.4447 4283063182
-35.988991 784.93005 783.8924 4282997646
-31.704586 784.93005 783.8924 4282866314
-29.133945 784.93005 783.8924 4282866312
3.4275229 784.27496 783.34009 4291877631
-34.822018 786.96405 784.73541 4282997645
-32.561466 786.89532 785.54944 4282997902
-27.971865 786.96405 784.73541 4282997129
-25.6789 786.99841 784.32843 4282996871
-23.099083 787.37683 783.99347 4282865541
-20.521101 788.40894 784.20972 4282800260
0.85596329 787.37683 783.99347 4281492869
-35.911926 789.71637 785.31213 4282997900
-25.651377 789.71637 785.31213 4283193739
-22.231194 789.71637 785.31213 4282931848
-19.666054 789.71637 785.31213 4282866053
-16.193579 791.98267 783.29883 4282668674
-13.680734 789.71637 785.31213 4282210176
-11.079817 791.98267 783.29883 4281947262
-7.6706419 791.98267 783.29883 4278193957
-4.2614679 791.98267 783.29883 4285957826
-1.7045871 791.98267 783.29883 4287795199
0 789.71637 785.31213 4285167522
-35.796329 793.28583 784.39771 4282672020
-10.227523 793.28583 784.39771 4282603135
-7.6706419 793.28583 784.39771 4279911261
-5.1137614 793.28583 784.39771 4280970360
15.770642 757.60535 788.32153 4289002166
13.974312 760.58563 786.9104 4288603290
15.721101 761.25336 787.47339 4291099306
13.088074 762.69055 787.37714 4292668923
10.425688 767.75751 786.41736 4287010998
12.201835 765.45752 788.40222 4292866559
10.425688 769.08594 787.53748 4278190147
12.163302 770.41437 788.65759 4278190102
10.39266 772.70587 786.66565 4278190099
8.6422014 776.2157 787.00897 4282998909
10.370643 776.2157 787.00897 4279112006
12.111927 775.45465 787.67535 4278190128
10.370643 778.19781 788.68018 4285094792
5.1688075 781.79395 787.78833 4293589247
7.753211 781.13538 787.23303 4290690508
-30.946789 784.62482 787.5592 4283063436
4.1284404 784.58496 788.04883 4281882514
7.7449541 784.52515 788.7832 4278985598
-34.27523 788.20551 786.65417 4283063696
-31.704586 788.20551 786.65417 4283063438
-28.277065 788.20551 786.65417 4283062667
-23.992661 788.20551 786.65417 4282931848
1.7137614 788.20551 786.65417 4280627806
-34.201836 791.02374 786.41443 4282933141
-31.704586 790.17078 788.31128 4282997394
-28.277063 790.17078 788.31128 4282997391
-25.706423 790.17078 788.31128 4282997390
-23.405504 790.45508 787.67902 4282931595
-19.666054 791.02374 786.41443 4282866055
-16.245872 791.02374 786.41443 4282800006
-13.695413 790.9248 787.63904 4282668419
-11.970642 791.02374 786.41443 4282734210
-3.4201834 791.02374 786.41443 4285364693
-1.7100917 791.02374 786.41443 4289114879
0.85688072 790.54779 787.97522 4290689779
-25.651377 793.63849 788.61914 4283063182
-22.231194 792.9848 788.06793 4282997647
-19.951071 792.76691 787.88422 4282997642
-16.530888 792.76691 787.88422 4282866055
-10.830582 792.76691 787.88422 4282602884
-7.6954126 792.33112 787.51672 4281684092
-4.2752295 792.33112 787.51672 4282669955
-1.7100917 792.33112 787.51672 4289312220
16.64679 760.95441 791.14545 4293523710
19.275229 761.62427 791.71021 4293194495
13.974312 763.92419 789.72546 4294113791
13.088074 766.0249 790.18866 4282071437
16.594496 765.92737 791.41443 4291813119
13.944954 768.78912 791.21136 4278192978
15.688073 769.45544 791.77319 4278190131
12.124771 776.67853 790.01526 4278321186
10.370643 779.51923 789.79443 4282797407
12.124771 778.00275 791.13184 4278190095
10.370643 780.84064 790.90857 4278190137
10.337615 785.08691 790.56488 4279245637
4.2981653 787.91077 790.3299 4283786942
7.7366972 787.91083 790.32996 4278265206
1.7192661 789.88245 791.99219 4288720639
4.2981653 789.88245 791.99219 4289643263
7.7366972 789.88245 791.99219 4286681560
-28.277065 792.13611 789.96838 4283194769
-25.706423 793.44629 791.073 4283063696
-23.405504 793.50946 790.25421 4283129236
-19.407949 793.50946 790.25421 4283063182
-15.995107 793.00958 790.70477 4282931848
-13.710092 792.13611 789.96838 4282733961
-11.425076 793.00958 790.70477 4282734215
-7.7119265 792.13611 789.96838 4282472066
-4.5700307 792.57281 790.33661 4281946752
-1.7137614 792.7912 790.52069 4282406793
0 792.13611 789.96838 4283851972
-22.231194 796.25323 790.82385 4282997904
-20.521101 796.25323 790.82385 4283194766
19.376146 756.44434 793.88281 4292736509
21.137615 756.44434 793.88281 4292932095
21.07156 761.43335 794.16541 4293128959
19.275229 763.63367 793.40454 4293983487
17.46789 767.93054 793.10339 4278196104
13.944954 770.78809 792.89673 4278190108
16.577982 770.02698 793.56305 4278190134
19.21468 769.26593 794.22937 4284177854
15.688073 772.12073 794.02039 4278191670
13.900917 775.06384 792.57788 4278190124
13.012844 778.19171 793.25323 4278256962
15.638532 777.05646 794.25806 4278849863
12.977982 781.40662 792.69385 4278258238
16.155352 782.0376 793.66187 4278324795
13.251376 783.92389 793.5083 4278985545
15.555964 784.80487 794.2511 4278193455
10.337615 787.72131 792.78613 4279256441
12.060551 787.72131 792.78613 4278201439
-13.754128 791.19678 793.10046 4282734985
-7.7366972 791.19678 793.10046 4282537604
-3.4385321 791.19678 793.10046 4282274434
0.85963303 791.19678 793.10046 4283132055
4.2981653 791.19678 793.10046 4290364138
7.7458715 790.44696 793.77625 4288849388
10.337615 789.69714 794.45203 4281815207
12.060551 789.69714 794.45203 4278722680
-18.911926 792.51123 794.20874 4283260559
-16.333027 792.51123 794.20874 4282997643
-12.894495 792.51123 794.20874 4282800778
-10.315597 792.51123 794.20874 4282603656
-7.7366972 792.51123 794.20874 4282603654
-4.2981653 792.51123 794.20874 4282603394
-1.7192661 792.51123 794.20874 4282667904
0 792.51123 794.20874 4281159031
5.1577983 792.51123 794.20874 4284182972
-22.278898 796.06665 793.28247 4282801806
-20.565138 796.06665 793.28247 4283063950
21.137615 757.79095 795.01831 4292931071
21.949541 762.77582 795.29736 4293851135
24.583487 764.11829 796.4292 4293787391
19.275229 765.64319 795.09888 4285306879
21.903671 766.31299 795.66364 4292141044
24.583487 765.46075 797.56116 4294180351
17.46789 770.60138 795.35547 4278190119
19.21468 770.60138 795.35547 4278190119
21.903669 768.32245 797.35803 4278848364
24.53211 768.32245 797.35803 4287466462
16.559633 773.45331 795.14404 4278389315
20.088074 772.60455 797.04443 4278190895
22.708258 773.27228 797.60742 4278190120
24.455046 773.27228 797.60742 4278190136
17.431192 774.78595 796.2677 4278194750
20.045872 775.45227 796.82953 4278194236
22.660551 776.11859 797.39136 4278190895
17.376146 778.38489 795.37817 4278194750
19.113762 779.04907 795.93817 4278522429
19.113762 781.04175 797.61829 4278260028
17.3211 783.96167 796.15631 4278524223
19.630581 785.50659 797.45892 4278261576
13.827523 787.44769 796.47949 4280042870
16.247339 787.71198 796.70233 4278789468
19.012844 788.7691 797.59363 4281149816
1.7229358 791.01434 795.56274 4281685375
3.4458716 791.01434 795.56274 4282735526
7.753211 791.01434 795.56274 4289765363
10.337615 791.01434 795.56274 4291680511
12.060551 791.01434 795.56274 4290298861
-18.911926 793.82556 795.31702 4283063950
-16.057493 793.7666 796.13934 4282800778
-12.915596 793.36365 796.88953 4282734985
-10.326606 793.73718 796.55048 4282734729
-7.7366972 793.82556 795.31702 4282603656
-4.2981653 793.82556 795.31702 4282603652
-1.7192661 793.82556 795.31702 4282800260
0.8614679 792.99011 797.22864 4282406019
4.0165138 793.26855 796.59149 4282209919
7.7366972 793.82556 795.31702 4288193714
10.315597 793.82556 795.31702 4292270847
12.922018 792.99011 797.22864 4290562559
16.080734 793.20966 797.41376 4288719842
-19.771561 795.79718 796.97949 4282802058
-17.192661 795.79718 796.97943 4282801292
-7.7366972 795.14001 796.42529 4282603399
-4.011621 795.57812 796.79474 4282472324
-1.7192661 795.79718 796.97943 4282340737
5.1577983 795.14001 796.42529 4281551992
7.7366972 795.14001 796.42529 4282671502
10.315597 795.14001 796.42529 4284512979
29.944954 764.52423 800.69568 4293457407
26.339449 766.80316 798.69312 4292729855
28.095413 766.80316 798.69312 4293457407
21.903669 769.66211 798.48755 4278190112
25.408257 769.66211 798.48755 4285239491
29.266054 768.59308 800.20233 4291419903
26.284403 771.00177 799.61707 4278190151
28.620794 771.89484 800.37012 4280694688
25.619574 775.0528 799.1087 4278190107
27.948624 775.94312 799.8595 4278191104
20.917431 778.11755 799.07684 4278654787
22.660551 778.11755 799.07684 4278457407
24.984711 778.33966 799.26416 4278191414
27.948624 777.27856 800.98547 4278190106
20.851376 782.37012 798.7384 4278192191
22.588991 782.37012 798.7384 4278190121
25.236698 781.24329 799.75031 4280164382
28.761467 780.11646 800.76221 4289237927
22.588991 783.69855 799.85852 4278190119
25.195412 783.69855 799.85852 4283978031
28.670643 784.36279 800.41858 4292729835
20.78532 787.27222 798.94763 4280626776
22.517431 787.93433 799.50592 4280565106
25.115597 787.93433 799.50598 4289369546
28.291132 788.15503 799.69208 4293586175
17.284403 790.09052 798.70776 4278858617
19.877064 790.75122 799.26489 4279910527
-15.506422 794.96594 798.89453 4282800780
-12.922018 794.96594 798.89453 4282668940
-10.337615 794.96594 798.89453 4282603658
-7.753211 794.96594 798.89453 4282472329
-5.1688075 794.96594 798.89453 4282472329
0.8614679 794.96594 798.89453 4282340222
4.3073397 794.96594 798.89453 4282076803
7.753211 794.96594 798.89453 4282407301
10.337615 794.96594 798.89453 4283326352
12.922018 794.96594 798.89453 4289312211
16.395412 793.84961 799.91534 4293060092
19.877064 792.73328 800.93616 4285754567
22.469725 792.73328 800.93616 4282661303
-18.911926 797.7688 798.64185 4282867851
-16.349541 797.026 799.32355 4282997905
-12.922018 796.28314 800.00525 4282668938
-10.337615 796.28314 800.00525 4282668940
-7.753211 796.28314 800.00525 4282603402
-4.3073397 796.28314 800.00525 4282472326
-1.7192661 797.7688 798.64185 4282274947
0.8614679 796.28314 800.00525 4282406018
4.3073397 796.28314 800.00525 4282668170
7.753211 796.28314 800.00525 4282733953
10.337615 796.28314 800.00525 4281749371
12.922018 796.28314 800.00525 4282276494
15.506422 796.28314 800.00525 4283790769
31.706423 767.21759 802.96655 4292401151
29.851376 772.17297 803.2207 4278920204
31.60734 772.17297 803.2207 4278204799
29.78899 775.02069 803.00574 4279374913
33.188992 779.94946 803.23743 4293454079
29.633028 781.4491 801.88586 4294767359
31.376146 782.11542 802.44769 4292995583
33.119267 782.78174 803.00952 4292010495
29.53945 787.68384 803.21875 4287408891
22.517431 789.92065 801.18079 4278206838
25.115597 790.58276 801.73901 4278923912
27.713762 790.58276 801.73901 4280702368
17.284403 794.05469 802.05029 4289697529
19.877064 794.05469 802.05029 4293054975
22.469725 794.05469 802.05029 4292728063
25.115597 792.56909 803.41382 4284314058
27.713762 792.56909 803.41382 4278203764
-15.506422 797.60034 801.11584 4282604176
-12.922018 797.60034 801.11584 4282800780
-10.337615 797.60034 801.11584 4282800526
-7.753211 797.60034 801.11584 4282734473
-4.3073397 797.60034 801.11584 4282669190
-1.7229358 797.60034 801.11584 4282472581
0.8642202 795.3761 803.16455 4282668422
4.3073397 797.60034 801.11584 4282733963
7.753211 797.60034 801.11584 4282668676
10.337615 797.60034 801.11584 4282011776
12.944036 796.48822 802.1402 4281947004
16.395412 796.48822 802.1402 4285432215
19.877064 795.3761 803.16455 4293058805
22.469725 795.3761 803.16455 4294967295
-15.506422 798.91754 802.22644 4282801552
-12.634862 799.35663 802.59668 4282735755
-10.337615 799.57617 802.78174 4282734987
-7.753211 799.57617 802.78174 4282734471
-4.3073397 799.57617 802.78174 4282800005
-1.7229358 799.57617 802.78174 4282800006
-15.473394 801.71198 801.96655 4283063950
-13.754128 801.71198 801.96655 4282932107
31.706423 768.56421 804.10205 4286093055
34.348625 769.91089 805.23743 4290572031
37.871559 769.91089 805.23743 4292603391
31.60734 773.51544 804.35266 4278864039
34.348625 771.25757 806.37292 4290964223
37.871559 771.25757 806.37292 4292668671
44.036697 771.25757 806.37292 4292733951
31.541285 776.36035 804.13525 4293584125
34.241287 774.85785 805.48462 4293454847
36.875229 776.20032 806.61646 4292930815
35.045872 777.69995 805.26489 4292733695
34.93578 781.95258 804.92651 4291813375
31.376146 784.7807 804.69501 4291943167
33.724773 784.50568 805.33514 4292798719
31.376146 786.7796 806.38049 4289839859
33.119267 786.7796 806.38049 4292603135
29.53945 789.67651 804.89893 4280576427
31.277063 791.00488 806.01898 4278201212
33.014679 791.66907 806.57898 4279256455
25.115597 793.89331 804.5304 4288256232
28.579817 793.89331 804.5304 4278930558
0.8642202 796.69751 804.27869 4282668422
4.3211012 796.69751 804.27869 4282733963
8.0721712 796.64557 805.10693 4282799242
10.370643 796.69751 804.27869 4282930049
12.977064 796.61963 805.52106 4283127942
16.72049 796.64557 805.10693 4282801026
19.898165 796.61963 805.52106 4281290378
22.493578 796.61963 805.52106 4284648143
25.115597 795.87964 806.2052 4292601582
27.713762 795.87964 806.20514 4294246399
-12.099083 799.34033 806.50708 4282669453
-10.370643 799.34033 806.50708 4282865801
-7.7779818 799.34033 806.50708 4282800007
-4.3211012 799.34033 806.50708 4282930824
-1.7284404 799.34033 806.50708 4283061899
0.8642202 798.01892 805.39282 4282733953
4.3211012 798.01892 805.39282 4282930311
6.9137616 798.01892 805.39282 4282930059
10.370643 798.01892 805.39282 4282864519
15.555964 798.01892 805.39282 4283654288
22.469725 799.34033 806.50708 4280498007
40.640366 767.6488 807.25427 4292931071
42.407341 767.6488 807.25427 4292799743
40.640366 769.67505 808.96271 4292668671
42.996334 769.90021 809.15253 4292536831
38.165134 773.05304 807.8869 4292799487
40.51376 773.95087 808.64392 4292667903
38.752293 775.29749 809.7793 4292338943
40.51376 775.29749 809.7793 4292338943
37.753212 778.21399 808.31439 4292142079
36.798164 781.04907 808.08875 4292404735
34.93578 785.2912 807.74146 4293127679
36.798164 783.05853 809.78308 4292864511
33.990826 788.11224 807.50403 4284514008
36.682568 787.29431 809.43048 4290236159
34.862385 790.11121 809.18951 4280371606
29.53945 793.66174 808.25916 4292340210
31.277063 793.66174 808.25916 4283341277
33.014679 792.9975 807.6991 4278215833
0.86605507 797.86597 807.88 4282930565
4.3302751 797.86597 807.88 4282996104
7.8082571 796.76013 808.90967 4282995852
10.425688 795.65436 809.93933 4282800008
13.03211 795.65436 809.93933 4282865031
16.507339 795.65436 809.93933 4282996101
19.982569 795.65436 809.93933 4283063168
25.195412 795.65436 809.93933 4279512692
28.670643 795.65436 809.93933 4288854507
31.277063 795.65436 809.93933 4294443007
-10.370643 800.66174 807.62122 4282603658
-7.7779818 800.66174 807.62122 4282603658
-4.3211012 800.66174 807.62122 4282866062
-1.7321101 799.19012 808.99646 4282997137
-7.7779818 801.98315 808.73535 4282472586
-5.1853213 801.98315 808.73535 4282603658
43.290825 772.37683 811.24078 4292602111
45.941284 773.05225 811.8103 4292667903
40.51376 776.64417 810.91479 4292338943
43.290825 774.40314 812.94934 4292404479
45.941284 774.40314 812.94934 4292536319
40.51376 777.99084 812.05029 4292272895
42.27523 777.99084 812.05029 4292272895
38.631191 781.57013 811.14423 4292404735
38.550457 785.73785 812.04211 4292668415
36.682568 789.96521 811.6825 4278729607
33.990826 792.77643 811.43683 4287211990
0.86880732 796.98279 811.05945 4282996104
4.3440366 796.98279 811.05945 4282996104
6.9504585 796.98279 811.05945 4282930059
10.425688 796.98279 811.05945 4282734213
13.03211 796.98279 811.05945 4282733959
16.507339 796.98279 811.05945 4282930825
19.982569 796.98279 811.05945 4283194000
22.588991 796.98279 811.05945 4281154935
25.195412 796.98279 811.05945 4278196017
28.670643 796.98279 811.05945 4283593406
-3.4642203 800.51434 810.11304 4282931855
-1.7321101 800.51434 810.11304 4282800526
0.86880732 798.31122 812.17944 4282865801
19.982569 798.31122 812.17944 4282996104
22.588991 798.31122 812.17944 4282667141
25.195412 798.31122 812.17944 4282601836
28.670643 798.31122 812.17944 4278197080
31.277063 798.31122 812.17944 4278201522
46.179817 767.95233 814.05029 4292799743
47.85688 770.80701 813.84119 4292667903
47.85688 772.16211 814.98376 4292602111
44.174313 775.75397 814.08838 4292272895
45.941284 775.75397 814.08838 4292141311
40.51376 779.33746 813.18579 4292338687
43.22477 778.22119 814.20654 4292404479
45.941284 777.10486 815.22729 4292076287
40.51376 780.68414 814.32117 4292866047
42.27523 781.35748 814.88892 4292865279
40.387157 784.92627 813.97394 4290106623
38.550457 787.74731 813.73651 4279916185
40.387157 786.93988 815.67188 4283014606
37.616512 790.86255 814.40112 4283133599
8.7155962 794.77539 813.12231 4282995852
31.376146 794.77539 813.12231 4294246143
33.990826 794.77539 813.12231 4294114303
37.555962 793.9715 815.06055 4290429158
40.176147 794.63922 815.62354 4284967068
0.87155962 797.44067 815.36951 4282800008
4.3577981 796.77429 814.80774 4282799753
7.5535164 796.55225 814.62042 4282733961
10.458715 796.77435 814.80774 4282537093
13.073395 796.77435 814.80774 4282471557
16.559633 796.77429 814.80774 4282668678
20.045872 797.44067 815.36951 4282865029
22.660551 797.44067 815.36951 4282930309
24.403669 797.44067 815.36951 4282930562
29.633028 797.44067 815.36951 4278193727
31.376146 797.44067 815.36951 4278190134
33.990826 796.77435 814.80774 4288788187
36.605503 797.44067 815.36951 4293784289
-4.6336389 800.08234 813.67291 4282472840
-1.7376146 799.63959 813.29956 4282734985
26.06422 799.63959 813.29956 4282601598
27.801834 799.63959 813.29956 4280762224
48.104588 765.70288 816.07776 4293523455
52.558716 767.06494 817.2262 4293325823
49.732109 770.66809 816.34009 4292602111
52.396332 770.66809 816.34009 4293194239
55.060551 770.66809 816.34009 4293523199
47.85688 773.51715 816.12634 4292272895
49.629356 773.51715 816.12634 4292207103
52.396332 772.70496 818.0575 4292404991
55.060551 772.026 817.48499 4292667903
58.612843 772.026 817.48499 4292733951
47.85688 775.5498 817.84021 4292339711
49.629356 775.5498 817.84021 4292405759
44.174313 779.13116 816.93585 4292404735
46.530273 779.35626 817.12567 4292142335
61.844036 778.45575 816.36633 4292536319
47.708256 781.15747 818.64441 4292667647
49.475231 781.15747 818.64441 4292339455
43.155964 784.05078 817.15991 4291747070
46.385319 784.27521 817.34912 4293062143
40.387157 788.28235 816.80371 4280573344
43.089909 787.17657 817.83337 4279789252
46.678898 786.0708 818.86304 4290627580
40.302753 791.09644 816.56042 4282800800
43.021103 789.62482 817.93567 4280050839
45.655045 789.62482 817.93567 4285369544
43.22324 792.88257 818.06641 4282082461
46.43578 793.7757 818.81946 4280569989
0 797.31006 817.87549 4282800008
4.3669724 797.31006 817.87549 4282800008
8.1516819 796.86493 817.50018 4282602631
10.480734 797.31006 817.87549 4282602631
13.100918 797.31006 817.87549 4282471814
15.721101 797.31006 817.87549 4282472327
38.429359 795.97467 816.74951 4292534780
41.049541 796.64233 817.3125 4278985071
43.669724 797.31006 817.87549 4281228699
-3.4862385 798.77325 816.49316 4282472327
-1.7431192 799.43958 817.05499 4282538118
1.7431192 798.77325 816.49316 4282800008
17.431192 798.77325 816.49316 4282734213
20.045872 799.43958 817.05499 4282668421
22.660551 799.43958 817.05499 4282800007
25.27523 799.43958 817.05493 4282668422
28.761467 799.43958 817.05499 4282470777
31.376146 799.43958 817.05499 4281748083
33.990826 799.43958 817.05493 4279379288
37.477062 799.43958 817.05499 4278191426
40.091743 800.1059 817.61682 4280362810
-1.7431192 801.43854 818.74048 4282209672
20.917431 801.43854 818.74048 4282734213
22.660551 801.43854 818.74048 4282734213
25.27523 801.43854 818.74048 4282734215
28.761467 801.43854 818.74048 4282406017
31.376146 801.43854 818.74048 4282930562
33.990826 801.43854 818.74048 4280955742
37.477066 801.43854 818.74048 4280363586
40.091743 801.43854 818.74048 4283983212
57.012844 769.78912 819.52319 4292733951
55.231194 771.83228 821.24585 4292471295
57.903671 771.83228 821.24585 4292667903
60.576145 772.51331 821.82007 4292470527
52.692356 775.19434 820.15656 4292405759
49.629356 777.5824 819.55408 4292406015
51.401836 778.25989 820.12537 4292339711
49.475231 782.5083 819.78345 4292602111
52.20826 781.40039 820.81134 4292338687
49.475231 783.85919 820.92236 4292734719
52.125687 783.85919 820.92236 4292273663
47.559631 787.41742 819.99854 4290632959
49.321102 787.41742 819.99854 4292733183
51.082569 788.09076 820.56628 4291878911
46.533028 790.96729 819.06763 4281226904
49.166973 790.96729 819.06763 4285761249
49.752293 792.75714 820.57684 4285174223
46.43578 795.78516 820.51385 4283788697
49.06422 796.45496 821.07861 4286221507
0.87339449 799.31323 819.56445 4282537862
4.3669724 799.31323 819.56451 4282603395
7.5694184 799.09064 819.37677 4282668169
10.480734 799.31323 819.56451 4282733960
13.100918 799.31323 819.56451 4282602886
16.594496 799.31323 819.56445 4282602885
19.21468 799.98096 820.12756 4282536836
41.922935 799.31323 819.56451 4282013315
43.669724 799.31323 819.56451 4282342279
45.416515 799.98096 820.12756 4282997387
0.87339449 801.31641 821.25354 4282537603
4.3669724 801.31641 821.25354 4282275458
6.9871559 801.31641 821.25354 4282406285
16.594496 801.31641 821.25354 4282471556
20.088074 801.31641 821.25354 4282602884
22.708258 801.31641 821.25354 4282734213
25.300919 802.04382 820.55884 4282537092
28.761467 802.77118 819.86414 4282471556
31.376146 802.77118 819.86414 4282996356
33.990826 802.77118 819.86414 4281089135
37.477066 802.77118 819.86414 4279708503
40.963303 802.77118 819.86414 4284443793
43.669724 801.31641 821.25354 4284506767
45.416515 801.31641 821.25354 4283193739
29.633028 804.10382 820.98779 4282471556
31.376146 804.10382 820.98779 4282340225
33.990826 804.10382 820.98779 4282734719
37.477066 804.10382 820.98779 4281158256
40.963303 804.10382 820.98779 4283063171
55.231194 773.87537 822.96851 4292405503
57.903671 773.87537 822.96851 4292602111
61.466972 773.87537 822.96851 4292470527
64.13945 773.87537 822.96851 4292405503
55.231194 775.23749 824.11707 4292470271
57.903671 775.23749 824.11707 4292601855
61.466972 775.23749 824.11707 4292405503
53.284405 777.45752 822.0647 4292338943
55.060551 778.81537 823.20972 4292338943
58.612843 778.81537 823.20972 4292733695
62.165138 778.81537 823.20972 4292733951
64.829361 778.13647 822.63721 4292668159
67.493576 778.81537 823.20972 4292864767
69.269722 778.81537 823.20972 4292798975
55.948624 780.17322 824.35461 4292076031
58.612843 780.17322 824.35461 4292404991
62.165138 780.17322 824.35461 4292733695
64.829361 780.17322 824.35461 4292668159
70.157791 780.17322 824.35461 4292733951
53.009174 785.21008 822.0614 4292601855
54.946789 783.00269 824.12427 4292601855
53.009174 786.56091 823.20044 4292405247
54.776146 787.9118 824.33948 4292865535
52.256882 791.00848 823.02643 4286487505
54.605503 791.4574 823.40491 4287874303
50.922935 794.99463 822.46338 4284839854
52.678898 794.99463 822.46338 4282872226
54.605503 792.80408 824.54041 4286227670
8.7614679 797.79462 822.20813 4282602379
47.311928 797.79462 822.20813 4283852696
50.303364 797.27032 823.51019 4284183734
52.678898 797.0083 824.16119 4284381857
8.1773701 800.02734 824.09076 4282471304
10.513762 799.80408 823.90247 4282274435
13.142202 799.80408 823.90247 4282340227
47.311928 799.80408 823.90247 4282338182
49.06422 799.80408 823.90247 4281225347
5.2403669 803.31958 822.9425 4282275191
16.594496 802.65186 822.37952 4282602885
20.379206 803.09698 822.75488 4282800264
22.708258 803.31958 822.9425 4282668421
25.328442 803.31958 822.9425 4282471556
28.530886 803.54218 823.13019 4282405763
31.442202 803.98724 823.50549 4282537349
34.062386 803.98724 823.50549 4282734726
37.555962 803.98724 823.50549 4282011524
41.049541 803.98724 823.50549 4281089899
43.669724 803.31958 822.9425 4287928503
45.416515 803.31958 822.9425 4286876635
20.961468 805.32269 824.63159 4282274180
22.708258 805.32269 824.63159 4282208387
25.328442 805.32269 824.63159 4282274434
28.822018 805.32269 824.63159 4282405763
31.442202 805.32269 824.63159 4282471556
34.062386 805.32269 824.63159 4282471811
37.555962 805.32269 824.63159 4282668678
41.049541 805.32269 824.63159 4281027190
43.669724 805.32269 824.63159 4282610072
57.012844 776.59955 825.2655 4292470271
60.576145 776.59955 825.2655 4292667903
61.170029 778.86969 827.17969 4292667391
65.030273 779.32373 827.5625 4292733183
67.702751 778.6427 826.98822 4292930559
70.375229 779.32373 827.5625 4293127935
73.047707 777.96167 826.41394 4292668159
56.836697 782.21008 826.07196 4292272383
58.612843 782.21008 826.07196 4292470015
55.833027 785.03528 825.83813 4292602111
58.612843 784.24689 827.78943 4292535807
61.277065 784.24689 827.78943 4292470271
58.491745 787.06787 827.552 4292997119
56.543118 789.93811 826.04797 4291089663
58.310093 791.28894 827.18695 4289844479
60.077065 791.96436 827.75647 4291220479
55.486237 794.1507 825.6759 4281359266
55.486237 796.17065 827.37915 4282670992
58.128441 796.17065 827.37909 4283856563
50.922935 799.69318 826.42505 4285166215
52.678898 799.69318 826.42505 4284967301
54.434864 800.36438 826.99097 4285356913
5.2568808 803.1532 826.72632 4282010494
7.8853211 802.48334 826.1615 4281946237
10.513762 802.4834 826.16156 4281880447
13.142202 802.4834 826.16156 4282012031
16.64679 802.4834 826.16156 4282143360
19.275229 802.4834 826.16156 4282537862
46.727829 802.70673 826.34979 4285626573
49.06422 802.4834 826.16156 4287918985
14.018349 804.49286 827.85596 4281749373
16.64679 804.49286 827.85596 4281880446
19.275229 804.49286 827.85596 4281945984
21.903669 804.49286 827.85596 4282077571
25.408257 804.49286 827.85596 4282143361
28.822018 806.65814 825.75757 4282208641
31.442202 806.65814 825.75757 4282340227
34.062386 806.65814 825.75757 4282340227
37.555962 806.65814 825.75757 4282800267
41.049541 806.65814 825.75757 4282077574
43.669724 806.65814 825.75757 4281750150
46.43578 804.49286 827.85596 4285562551
49.06422 804.49286 827.85596 4288448185
37.555962 807.99359 826.88354 4282668677
40.176147 807.99359 826.88354 4282800006
71.486237 778.48267 830.77734 4292864767
73.273392 777.79956 830.20135 4292798975
75.060547 777.79956 830.20135 4292536063
61.466972 780.68585 828.71094 4292601343
65.030273 781.36688 829.28516 4292732671
67.702751 781.36688 829.28516 4293061887
69.484406 780.68585 828.71094 4293193215
61.277065 785.60474 828.93433 4292602367
61.150459 788.42297 828.69458 4293062399
63.941284 786.96265 830.07922 4292667903
62.036697 789.77802 829.83716 4292996607
63.809174 790.45557 830.40845 4293062399
60.960548 793.99066 829.46503 4287936240
56.366974 798.19067 829.08228 4283394694
59.302753 798.63959 829.46075 4279715707
61.651375 799.53735 830.21777 4284064473
5.26789 803.04932 829.25488 4282599301
7.901835 803.04932 829.25488 4281945462
50.922935 802.37805 828.6889 4294234615
52.678898 802.37805 828.6889 4293515511
55.312843 802.37805 828.6889 4289309890
57.946789 802.37805 828.6889 4282275163
7.901835 804.39172 830.38672 4281547876
10.53578 804.39172 830.38672 4281291132
14.018349 805.83246 828.98547 4281749373
16.64679 805.83246 828.98547 4281683580
19.275229 805.83246 828.98547 4281749373
21.927523 805.11206 829.6861 4282011778
25.433945 805.11206 829.6861 4282143361
28.912844 805.83246 828.98547 4282208641
31.541285 805.83246 828.98547 4282340227
34.169724 805.83246 828.98547 4282406018
42.93119 805.83246 828.98547 4282602629
46.43578 805.83246 828.98547 4284047259
49.993576 805.11206 829.6861 4285763257
52.678898 804.39172 830.38672 4292072430
55.312843 804.39172 830.38672 4293121023
58.824768 804.39172 830.38672 4282862706
16.622019 808.25055 829.06226 4281617531
19.275229 807.17212 830.11499 4281683326
35.045872 807.17212 830.11499 4282340227
37.674309 807.17212 830.11499 4282471295
40.302753 807.17212 830.11499 4282668156
42.93119 807.17212 830.11499 4282471558
13.974312 811.33215 829.69855 4281682553
16.594496 811.33215 829.69861 4281682808
70.592659 779.84894 831.92944 4292864767
73.273392 779.84894 831.92944 4292864767
75.214676 778.38293 833.30933 4292601599
70.592659 781.21527 833.08142 4292799743
65.327217 783.86407 831.39081 4292536319
67.702751 784.09106 831.58215 4292667903
65.71743 788.3205 831.22412 4292667903
67.702751 786.13416 833.30481 4292733951
69.484406 786.13416 833.30481 4292733951
65.71743 790.3573 832.94159 4292668927
64.695412 793.16571 832.69348 4292472319
61.844036 796.01697 831.17358 4287483135
64.199997 796.91754 831.93286 4290500863
10.568808 800.88397 831.35327 4281551740
12.330276 800.88397 831.35327 4281617533
59.889908 800.88397 831.35327 4278601812
61.651375 800.88397 831.35327 4281496704
64.395416 799.80133 832.4024 4287215359
67.144951 798.71869 833.45154 4293653503
12.330276 802.23065 832.48865 4281291132
61.651375 802.23065 832.48865 4278858544
64.293579 802.90399 833.0564 4286098383
8.7798166 805.73419 831.51868 4281943917
10.53578 805.73419 831.51868 4282273916
13.169725 805.73419 831.51868 4281945722
21.949541 805.73419 831.51868 4282077564
25.461468 805.73419 831.51868 4281945985
28.973394 805.73419 831.51868 4282143361
31.60734 805.73419 831.51868 4282208389
33.363304 805.73419 831.51868 4282208389
46.533028 805.73419 831.51868 4283522186
50.044952 805.73419 831.51868 4283459975
52.678898 805.73419 831.51868 4290034049
55.312843 805.73419 831.51868 4292334545
58.824768 805.73419 831.51868 4281549686
61.458717 805.73419 831.51868 4278197820
10.53578 807.07666 832.65063 4279903569
12.291743 807.07666 832.65063 4281482601
19.275229 808.51178 831.24451 4281683576
21.949541 807.07666 832.65063 4282207871
29.851376 807.07666 832.65063 4282143361
31.60734 807.07666 832.65063 4281881221
34.241287 807.07666 832.65063 4282077827
37.71376 808.46545 832.51355 4282471298
40.344955 808.46545 832.51349 4282602371
43.021103 807.74786 833.21655 4282667912
46.533028 807.74786 833.21655 4282668422
50.044956 807.74786 833.21655 4282800272
52.678898 807.74786 833.21655 4283196043
55.312843 807.74786 833.21655 4282536841
58.824768 807.74786 833.21655 4280364359
61.458717 807.07666 832.65063 4281816372
77.242203 776.18402 835.37927 4292601599
79.038528 776.18402 835.37927 4292403967
73.423851 779.75208 834.46375 4292733951
75.214676 779.75208 834.46375 4292864255
70.592659 782.58154 834.2334 4292733695
73.423851 781.12115 835.61816 4292602111
75.214676 781.80573 836.19537 4292470015
71.486237 784.63098 835.96149 4292338687
73.273392 784.63098 835.96149 4292338687
67.702751 788.17731 835.02759 4292930815
69.484406 788.17731 835.02759 4292930559
69.484406 790.22046 836.75024 4293259007
67.493576 792.39417 834.65894 4293587967
69.269722 793.75208 835.80383 4292798207
67.354126 795.19836 834.40735 4293324543
69.269722 795.10992 836.94885 4292732671
68.028442 800.06958 834.59058 4293128703
68.322937 801.87067 836.10931 4293062143
70.678902 802.7713 836.86865 4292601599
19.376146 806.27063 835.89502 4281814648
22.018349 806.27063 835.89502 4281880191
25.541285 805.59729 835.32733 4282142088
28.770643 805.82178 835.5166 4282208641
31.706423 806.27063 835.89502 4282274434
34.348625 806.27063 835.89502 4282340226
61.651375 806.27063 835.89502 4290362287
64.293579 805.59729 835.32739 4292005619
66.935783 805.59729 835.32733 4293127935
37.753212 809.76154 834.91443 4282733185
40.387157 809.76154 834.91443 4282864004
43.021103 809.76154 834.91443 4282864520
46.533028 809.76154 834.91443 4282406533
52.678898 809.76154 834.91443 4283194516
56.190826 809.76154 834.91443 4285227927
58.824768 809.76154 834.91443 4292072702
40.387157 811.104 836.04639 4282601859
77.478897 776.05133 839.19159 4292732671
77.242203 780.30396 838.85315 4292273151
75.214676 784.54395 838.50409 4292273151
71.486237 787.36359 838.26556 4292470527
73.273392 787.36359 838.26556 4292470527
71.266052 791.58252 837.8988 4292536319
73.273392 789.41302 839.99353 4292536319
75.060547 789.41302 839.99353 4291944447
