# .PCD v0.7 - Point Cloud Data file format
VERSION 0.7
FIELDS x y z rgb
SIZE 4 4 4 4
TYPE F F F U
COUNT 1 1 1 1
WIDTH 1164
HEIGHT 1
VIEWPOINT 0 0 0 1 0 0 0
POINTS 1164
DATA ascii
-31.185322 954.74158 1293.3215 4292076287
-6.682569 954.74158 1293.3215 4283981463
-4.4550457 955.59302 1294.0394 4284636026
-2.2275229 956.44452 1294.7573 4284898942
1.1137614 955.59302 1294.0394 4284767613
4.4550457 956.44452 1294.7573 4284702068
20.047707 954.74158 1293.3215 4284831350
22.275229 954.74158 1293.3215 4284634741
-43.293579 961.60974 1293.8804 4290497023
-39.963303 961.60974 1293.8804 4290300408
-37.743118 961.60974 1293.8804 4290234615
-15.541285 961.60974 1293.8804 4294836223
-13.321101 961.60974 1293.8804 4294967295
-11.100918 961.60974 1293.8804 4292140263
-7.7706423 961.60974 1293.8804 4284580796
-4.4403667 961.60974 1293.8804 4283321712
-2.2201834 961.60974 1293.8804 4284571778
0 961.60974 1293.8804 4284898944
-42.183487 963.30707 1295.3115 4290496767
-39.963303 963.30707 1295.3115 4290299897
-37.743118 963.30707 1295.3115 4290299897
-15.541285 963.30707 1295.3115 4294573567
-7.7706423 963.30707 1295.3115 4288126134
-4.4403667 963.30707 1295.3115 4282793080
-2.2201834 963.30707 1295.3115 4284569491
1.1100917 963.30707 1295.3115 4284832897
4.4403667 963.30707 1295.3115 4284832373
-30.979816 968.44415 1294.4109 4290234365
-28.766972 968.44415 1294.4109 4290300158
-25.447706 968.44415 1294.4109 4289970680
-22.128441 968.44415 1294.4109 4289641462
-19.915596 968.44415 1294.4109 4289773049
-28.766972 970.13586 1295.8374 4290300412
2.4715595 753.9726 1298.0062 4294639615
4.943119 753.9726 1298.0062 4294705151
-49.247707 760.48376 1296.9562 4286265209
-46.78532 760.48376 1296.9562 4287383690
2.4623854 760.48376 1296.9562 4294836223
-49.247707 762.36627 1298.5435 4284957821
-46.78532 762.36627 1298.5435 4285550215
7.387156 762.36627 1298.5435 4294770687
9.8495417 762.36627 1298.5435 4294836223
-49.06422 768.84229 1297.4637 4283911816
-46.611008 768.84229 1297.4637 4284108938
-44.157799 768.84229 1297.4637 4284765830
2.4532111 768.84229 1297.4637 4294967295
4.9064221 768.84229 1297.4637 4294770687
7.359633 768.84229 1297.4637 4294770687
9.8128443 768.84229 1297.4637 4294770687
-48.880733 775.29034 1296.3604 4282729082
-46.436699 775.29034 1296.3604 4284176784
-43.992661 775.29034 1296.3604 4285886380
-40.326607 775.29034 1296.3604 4286478519
-36.660549 775.29034 1296.3604 4284702111
2.4440367 775.29034 1296.3604 4294574079
4.8880734 775.29034 1296.3604 4294443007
7.3321099 775.29034 1296.3604 4294508543
9.7761469 775.29034 1296.3604 4294508543
-48.880733 777.15887 1297.9358 4283257215
-46.436699 777.15887 1297.9358 4283651973
-43.992661 777.15887 1297.9358 4286411973
-40.326607 777.15887 1297.9358 4285492146
2.4440367 777.15887 1297.9358 4294180351
4.8880734 777.15887 1297.9358 4294180351
-48.697247 785.43329 1298.3726 4290164223
-46.262386 785.43329 1298.3726 4291479807
-43.827522 784.50256 1297.5878 4292131583
-41.392662 784.50256 1297.5878 4289631201
-37.740364 783.57184 1296.803 4288373404
2.4348624 783.57184 1296.803 4294377471
4.8697248 784.50256 1297.5878 4294114559
7.3045874 784.50256 1297.5878 4294114559
9.7394495 784.50256 1297.5878 4294114559
12.174312 784.50256 1297.5878 4294311679
-46.053211 794.19525 1297.9122 4286940106
-43.629356 792.34216 1296.3497 4292326653
2.4238532 792.34216 1296.3497 4294180863
4.8477063 793.26868 1297.131 4293982975
7.2715597 794.19525 1297.9122 4293982719
9.6954126 794.19525 1297.9122 4293982719
12.119267 793.26868 1297.131 4294114303
-45.878899 800.53528 1296.7178 4290213305
2.4146788 800.53528 1296.7178 4293720575
4.8293576 800.53528 1296.7178 4293852415
-48.293579 802.38135 1298.2743 4289158291
2.4146788 802.38135 1298.2743 4293786367
4.8293576 802.38135 1298.2743 4293918207
9.6587152 802.38135 1298.2743 4293654271
13.280734 802.38135 1298.2743 4293785599
-48.110092 808.68622 1297.0503 4289221531
-45.704586 808.68622 1297.0503 4290340012
-49.312843 810.52527 1298.601 4289024913
-50.322937 818.62714 1298.8921 4288700293
-46.728439 817.71118 1298.1198 4289484175
-43.133945 816.79517 1297.3474 4290139028
-2.3963304 817.71118 1298.1198 4293720063
0 817.71118 1298.1198 4293654271
-52.517429 824.862 1297.609 4288436101
-50.130276 824.862 1297.609 4288436101
-46.151684 824.25366 1297.0961 4289353610
-42.968807 823.03699 1296.0702 4290204303
-9.548624 823.03699 1296.0702 4294048255
-7.161468 823.03699 1296.0702 4293916671
-4.774312 823.03699 1296.0702 4293852159
-2.387156 823.94946 1296.8396 4294311679
0 823.94946 1296.8396 4294048511
-57.115597 830.55737 1297.1791 4287715476
-54.735779 830.55737 1297.1791 4287583634
-52.355965 830.55737 1297.1791 4288107148
-49.976147 830.55737 1297.1791 4288173197
-46.406422 830.55737 1297.1791 4288760970
-42.836697 830.55737 1297.1791 4289152142
-40.456882 830.55737 1297.1791 4289349778
-2.3798165 830.55737 1297.1791 4283725046
0 830.55737 1297.1791 4280111280
-57.115597 832.37677 1298.7131 4287650192
-54.735779 832.37677 1298.7131 4287453070
-52.355965 832.37677 1298.7131 4288041606
-49.976147 832.37677 1298.7131 4288107400
-46.406422 832.37677 1298.7131 4288564357
-42.836697 832.37677 1298.7131 4288757636
-2.3798165 832.37677 1298.7131 4282343877
0 832.37677 1298.7131 4283523747
-59.266056 838.55127 1297.3792 4286471035
-55.710091 838.55127 1297.3792 4287385476
-52.154129 838.55127 1297.3792 4287843712
-49.783485 838.55127 1297.3792 4287843712
-46.227524 838.55127 1297.3792 4288432256
-42.671558 838.55127 1297.3792 4288891012
-40.300919 838.55127 1297.3792 4289022341
-2.3706422 838.55127 1297.3792 4282015651
0 838.55127 1297.3792 4283326100
-52.154129 840.36365 1298.9072 4287647103
-49.783485 840.36365 1298.9072 4287647103
-46.227524 840.36365 1298.9072 4288366208
-42.671558 840.36365 1298.9072 4288759172
-40.300919 840.36365 1298.9072 4289153930
0 840.36365 1298.9072 4282409614
-40.144955 844.69769 1296.0215 4289219721
-37.783485 844.69769 1296.0215 4289612169
-35.42202 844.69769 1296.0215 4289612169
-7.0844035 844.69769 1296.0215 4293585407
-4.7229357 844.69769 1296.0215 4293389567
-2.3614678 844.69769 1296.0215 4292139519
-40.144955 846.50305 1297.5438 4288760455
-2.3614678 846.50305 1297.5438 4292994815
0 846.50305 1297.5438 4291548927
-42.341286 854.41278 1297.6729 4289565389
-39.988991 852.61444 1296.1565 4287516559
-37.636696 852.61444 1296.1565 4288563076
-2.3522935 852.61444 1296.1565 4293192191
0 853.51361 1296.9147 4292863487
-37.48991 860.48901 1296.2561 4290874834
-7.0293579 860.48901 1296.2561 4292599039
-4.6862388 860.48901 1296.2561 4291877887
-2.3431194 860.48901 1296.2561 4292338431
0 860.48901 1296.2561 4292535551
-37.48991 862.2804 1297.7666 4290874551
2.3431194 862.2804 1297.7666 4292995071
11.715596 862.2804 1297.7666 4292996351
-35.036697 868.72278 1297.9664 4288043141
-31.922323 868.42523 1297.7155 4290009510
-28.029358 867.82996 1297.2136 4290862747
1.16789 868.72284 1297.9664 4292404223
10.511009 869.61566 1298.7192 4292535551
14.014679 869.61566 1298.7192 4292536319
-34.899082 875.62457 1297.2457 4287847285
-25.592661 875.62457 1297.2457 4291979937
-9.3064222 875.62457 1297.2457 4292137215
-6.9798164 875.62457 1297.2457 4292268799
-4.6532111 875.62457 1297.2457 4291745535
-2.3266056 875.62457 1297.2457 4292008703
0 875.62457 1297.2457 4292008959
-40.715595 877.40332 1298.7455 4287332477
-37.225689 877.40332 1298.7455 4287518594
-9.3064222 877.40332 1298.7455 4292071423
-6.9798164 877.40332 1298.7455 4292400639
-4.6532111 877.40332 1298.7455 4291942911
-2.3266056 877.40332 1298.7455 4291942911
0 877.40332 1298.7455 4292008959
-37.078899 883.3772 1297.2424 4287910536
-4.6348624 883.3772 1297.2424 4292009215
-2.3174312 883.3772 1297.2424 4292141055
-39.396332 885.14893 1298.7362 4286993000
0 885.14893 1298.7362 4291746559
-36.961468 889.72559 1297.363 4288497795
-34.651375 889.72559 1297.363 4288826504
-2.3100917 889.72559 1297.363 4291679999
0 889.72559 1297.363 4291811839
-34.51376 896.52222 1296.5536 4288364412
-27.61101 896.52222 1296.5536 4289874305
-4.6018348 896.52222 1296.5536 4291812095
-2.3009174 896.52222 1296.5536 4291746047
0 896.52222 1296.5536 4291680255
-28.761467 898.28125 1298.0369 4289743241
-2.3009174 898.28125 1298.0369 4292008703
0 898.28125 1298.0369 4291746047
-34.376148 905.91187 1297.9307 4288432004
-32.084404 905.91187 1297.9307 4288956031
-28.64679 905.03583 1297.192 4289217925
-25.209175 904.15979 1296.4534 4289808782
-4.5834861 904.15979 1296.4534 4292601087
-2.291743 904.15979 1296.4534 4292206591
0 904.15979 1296.4534 4292008959
-4.5688071 911.28748 1297.231 4292470015
0 911.28748 1297.231 4292273407
-43.403671 913.03394 1298.7036 4284371583
0 913.03394 1298.7036 4292601343
-43.229359 918.84503 1297.0632 4286279591
2.2752295 920.58447 1298.5299 4286675383
4.5504589 920.58447 1298.5299 4286545330
-43.089909 925.0343 1297.0497 4283324550
-40.822018 925.0343 1297.0497 4284964221
-37.420181 924.16736 1296.3187 4284700792
-24.946789 925.0343 1297.0497 4285360259
-22.6789 925.0343 1297.0497 4285425571
-19.655046 924.7453 1296.806 4287660235
-15.875229 925.0343 1297.0497 4288512480
-13.60734 925.0343 1297.0497 4288576950
-42.950459 932.92358 1298.4697 4283585924
-40.689907 932.05945 1297.7411 4284899221
-37.299084 932.05945 1297.7411 4286806679
-24.866055 932.05945 1297.7411 4287397015
-22.605505 932.05945 1297.7411 4287659947
-20.344954 932.05945 1297.7411 4287002017
-15.823853 931.19537 1297.0125 4286347956
-13.563303 932.05945 1297.7411 4286611901
-10.549236 931.77148 1297.4982 4286677431
-6.7816515 931.19537 1297.0125 4285360275
2.2605505 932.92358 1298.4697 4285621386
-33.770641 938.64221 1296.7512 4286741426
-28.1422 938.64221 1296.7512 4285954191
-24.765137 938.64221 1296.7512 4286545821
-22.513762 938.64221 1296.7512 4286085783
-13.508257 938.64221 1296.7512 4283323006
-4.5027523 938.64221 1296.7512 4285292676
2.2513762 938.64221 1296.7512 4285423744
-37.147705 940.3634 1298.2025 4283851166
-24.765137 940.3634 1298.2025 4282931353
2.2513762 940.3634 1298.2025 4285489537
4.5027523 940.3634 1298.2025 4285357697
-40.392662 947.31421 1298.8313 4281815430
-38.148624 946.45642 1298.108 4282601099
-35.904587 945.59863 1297.3848 4285228709
-4.4880733 945.59863 1297.3848 4285292676
-2.2440367 945.59863 1297.3848 4285226883
2.2440367 946.45642 1298.108 4285160574
4.4880733 946.45642 1298.108 4285094780
-37.992661 952.96552 1297.056 4287011541
-2.2348623 952.96552 1297.056 4284833147
2.2348623 952.96552 1297.056 4284701822
4.4697247 952.96552 1297.056 4284963702
16.761467 952.96552 1297.056 4284897396
-42.462387 954.67407 1298.4967 4289771506
-40.227524 954.67407 1298.4967 4288986095
16.761467 954.67407 1298.4967 4284963442
20.113762 954.67407 1298.4967 4284897396
22.348623 954.67407 1298.4967 4284504690
-49.005505 959.85046 1297.6292 4289972212
-46.777981 959.85046 1297.6292 4290038005
-43.436699 958.14746 1296.1932 4289904882
-40.095413 958.14746 1296.1932 4290628076
-37.867889 958.14746 1296.1932 4290693869
-4.4550457 958.14746 1296.1932 4284373371
-2.2275229 958.14746 1296.1932 4284899715
2.2275229 958.14746 1296.1932 4284833147
4.4550457 958.14746 1296.1932 4284766830
-35.522934 965.00439 1296.7427 4290365951
-15.541285 965.00439 1296.7427 4290825471
-7.7706423 965.00439 1296.7427 4289704140
-4.4403667 965.00439 1296.7427 4285682049
-2.2201834 965.00439 1296.7427 4285550463
0 965.00439 1296.7427 4284635773
-34.412842 966.70178 1298.1738 4290497273
-17.761467 966.70178 1298.1738 4289707244
-4.4403667 966.70178 1298.1738 4284767917
-2.2201834 966.70178 1298.1738 4283912608
0 966.70178 1298.1738 4284175476
-49.431194 755.86212 1299.5995 4286132604
-46.959633 755.86212 1299.5995 4287251341
-51.902752 757.75165 1301.1926 4283909747
-49.247707 764.24878 1300.1307 4283386755
-46.78532 764.24878 1300.1307 4283386755
9.8495417 764.24878 1300.1307 4294639615
-51.710091 766.13135 1301.718 4284108938
-51.517429 770.71783 1299.0452 4283911043
4.9064221 770.71783 1299.0452 4294508543
9.8128443 770.71783 1299.0452 4294508543
-51.517429 772.59332 1300.6265 4283057783
-48.880733 779.02734 1299.5114 4285952675
-46.436699 779.02734 1299.5114 4286413226
-43.992661 779.02734 1299.5114 4287658716
-41.548622 779.02734 1299.5114 4287329494
4.8880734 779.02734 1299.5114 4294377471
-56.212845 780.89581 1301.0868 4283528092
-51.324772 780.89581 1301.0868 4288260059
-48.880733 780.89581 1301.0868 4288916456
-46.436699 780.89581 1301.0868 4289903351
-48.697247 787.2948 1299.942 4289114353
-46.262386 787.2948 1299.942 4290495999
4.8697248 787.2948 1299.942 4293851135
7.3045874 787.2948 1299.942 4293982719
9.7394495 787.2948 1299.942 4294048511
12.174312 787.2948 1299.942 4294311679
-48.697247 789.15625 1301.5116 4289373897
-46.262386 789.15625 1301.5116 4290690014
7.3045874 789.15625 1301.5116 4294180351
9.7394495 789.15625 1301.5116 4294114559
-48.477066 796.97485 1300.2559 4288440504
4.8477063 796.04828 1299.4746 4293786111
7.2715597 796.97485 1300.2559 4293786367
9.6954126 797.90137 1301.0371 4293523455
13.331193 796.97485 1300.2559 4293851391
-49.903362 804.84271 1300.3496 4288698004
2.4146788 805.15039 1300.6091 4293522943
4.8293576 805.15039 1300.6091 4293654783
7.2440367 804.22736 1299.8308 4293589247
9.6587152 805.15039 1300.6091 4293128447
13.683181 804.84271 1300.3496 4293456639
-57.732109 812.36426 1300.1516 4287317634
-55.326607 812.36426 1300.1516 4287580806
-52.921101 812.36426 1300.1516 4288434052
-50.515594 812.36426 1300.1516 4288894603
2.4055047 812.36426 1300.1516 4293588223
14.433027 812.36426 1300.1516 4293850879
16.838531 812.36426 1300.1516 4294048511
19.244038 812.36426 1300.1516 4293982463
-57.732109 814.20331 1301.7021 4287252608
-55.326607 814.20331 1301.7021 4287647110
-52.921101 814.20331 1301.7021 4288500611
-50.515594 814.20331 1301.7021 4288961162
2.4055047 814.20331 1301.7021 4293588991
4.8110094 814.20331 1301.7021 4293654015
7.2165136 814.20331 1301.7021 4293785855
9.6220188 814.20331 1301.7021 4293982463
13.230275 814.20331 1301.7021 4294377215
16.838531 814.20331 1301.7021 4294443007
19.244038 814.20331 1301.7021 4292734719
-52.719265 820.45917 1300.4368 4288437637
-50.322937 820.45917 1300.4368 4288700552
-47.926605 820.45917 1300.4368 4289353871
-57.511925 822.2912 1301.9814 4287057030
-55.115597 822.2912 1301.9814 4288043926
2.3963304 822.2912 1301.9814 4292798463
14.377981 822.2912 1301.9814 4283657634
-57.291744 826.68701 1299.1478 4287452299
-54.904587 826.68701 1299.1478 4287715472
-52.517429 826.68701 1299.1478 4288239238
-50.130276 826.68701 1299.1478 4288173445
-47.743118 826.68701 1299.1478 4288957830
0 826.68701 1299.1478 4286813678
2.387156 828.51196 1300.6866 4280111280
14.322936 828.51196 1300.6866 4293192191
0 834.19617 1300.2472 4283919275
-59.266056 842.17603 1300.4354 4286470533
-55.710091 842.17603 1300.4354 4287057031
-52.154129 842.17603 1300.4354 4287450491
-49.783485 842.17603 1300.4354 4287516285
-46.227524 842.17603 1300.4354 4288170878
-42.671558 842.17603 1300.4354 4288891012
0 842.17603 1300.4354 4288855292
16.594496 842.17603 1300.4354 4289639414
-54.524769 843.9884 1301.9636 4286596487
-52.154129 843.9884 1301.9636 4287054198
-49.783485 843.9884 1301.9636 4287448956
-46.227524 843.9884 1301.9636 4288104574
-42.671558 843.9884 1301.9636 4288694662
7.1119266 843.9884 1301.9636 4282214312
9.4825687 843.9884 1301.9636 4283460266
14.223853 843.9884 1301.9636 4282999465
16.594496 843.9884 1301.9636 4286749667
-42.50642 848.30841 1299.066 4288694662
-40.144955 848.30841 1299.066 4288628869
0 848.30841 1299.066 4292864255
-43.687157 850.11377 1300.5883 4288439457
2.3614678 850.11377 1300.5883 4293521663
-39.988991 856.21118 1299.1892 4290021332
0 856.21118 1299.1892 4292666111
10.585321 856.21118 1299.1892 4290694112
-42.341286 858.00952 1300.7056 4289161133
-39.988991 858.00952 1300.7056 4290148284
2.3522935 858.00952 1300.7056 4292469759
7.056881 858.00952 1300.7056 4293126655
10.585321 858.00952 1300.7056 4292863999
-37.48991 864.96741 1300.0322 4287578495
2.3431194 864.07172 1299.277 4292731647
4.6862388 864.96741 1300.0322 4292469759
7.0293579 864.96741 1300.0322 4292732927
10.544037 864.96735 1300.0322 4292798975
-37.372478 871.40137 1300.225 4288505210
4.6715598 871.40137 1300.225 4292272895
7.0073395 871.40137 1300.225 4292470271
9.3431196 871.40137 1300.225 4292536319
-39.708256 873.18713 1301.7306 4287004545
-37.372478 873.18713 1301.7306 4288570751
2.3357799 873.18713 1301.7306 4292337663
4.6715598 873.18713 1301.7306 4292141055
7.0073395 873.18713 1301.7306 4292535807
10.511009 873.18713 1301.7306 4292536319
16.350458 873.18713 1301.7306 4292536319
-44.205505 880.96069 1301.745 4288579727
-40.715595 880.07141 1300.9951 4288185719
-4.6532111 879.18201 1300.2452 4291614975
-2.3266056 879.18201 1300.2452 4291746559
0 880.07135 1300.9951 4291943679
-40.555046 886.92059 1300.2301 4287252870
2.3174312 886.92059 1300.2301 4292075775
-44.031193 888.69226 1301.7239 4286336372
-40.555046 888.69226 1301.7239 4287842179
2.3174312 888.69226 1301.7239 4291877119
-36.961468 892.37476 1299.5967 4288693892
-34.651375 892.37476 1299.5967 4288562563
-31.186239 892.37476 1299.5967 4289152645
-43.891743 894.14087 1301.0858 4284897425
-40.426605 894.14087 1301.0858 4287515263
-36.961468 894.14087 1301.0858 4288627583
-31.186239 894.14087 1301.0858 4289283465
2.3100917 894.14087 1301.0858 4291746047
4.6201835 894.14087 1301.0858 4291549183
-49.086243 900.62671 1300.0144 4285623954
-46.018349 901.79944 1301.0032 4287331528
-43.71743 901.79944 1301.0032 4286278840
-40.266056 901.79944 1301.0032 4286663552
-36.814678 900.91992 1300.2616 4288496512
-34.51376 900.91992 1300.2616 4288562305
-32.212845 900.91992 1300.2616 4288889219
-29.911926 900.04034 1299.52 4289546637
2.3009174 901.79944 1301.0032 4291877119
-41.251377 907.66394 1299.408 4286729340
-36.667889 907.66394 1299.408 4287905408
-34.376148 907.66394 1299.408 4288432008
-32.084404 907.66394 1299.408 4288956283
-29.79266 907.66394 1299.408 4288890490
-45.834862 909.41602 1300.8851 4287069116
-43.543118 909.41602 1300.8851 4285489828
-41.251377 909.41602 1300.8851 4286266479
-37.813759 909.41602 1300.8851 4287513718
2.291743 909.41602 1300.8851 4292404991
-45.688072 914.78033 1300.1761 4285753249
-43.403671 914.78033 1300.1761 4285950629
2.2844036 914.78033 1300.1761 4289575415
-45.688072 916.52679 1301.6487 4285621918
2.2844036 916.52679 1301.6487 4289244113
4.5688071 916.52679 1301.6487 4287995343
-45.504585 922.32391 1299.9966 4282664824
2.2752295 922.32391 1299.9966 4285162130
4.5504589 922.32391 1299.9966 4285491345
-45.504585 924.06335 1301.4633 4283984788
2.2752295 924.06335 1301.4633 4285292685
4.5504589 924.06335 1301.4633 4285358478
6.8256879 924.06335 1301.4633 4285292685
9.1009178 924.06335 1301.4633 4285424005
-43.089909 928.50189 1299.9735 4283652491
-40.822018 927.63501 1299.2426 4285096839
2.26789 928.50189 1299.9735 4285424529
4.53578 929.36877 1300.7045 4285490570
-42.950459 934.65179 1299.9269 4283717755
-40.689907 934.65179 1299.9269 4284700298
-37.299084 934.65179 1299.9269 4286344595
-24.866055 934.65179 1299.9269 4287398299
-42.950459 936.38 1301.384 4283455349
-40.689907 936.38 1301.384 4283979408
-37.299084 936.38 1301.384 4284570772
-42.776146 942.94519 1300.3794 4284835746
-40.524769 942.94519 1300.3794 4285032359
-37.147705 942.08459 1299.6538 4286283195
-24.765137 942.08459 1299.6538 4283192495
-42.636696 949.88757 1301.0011 4287009745
-40.392662 949.88757 1301.0011 4286486477
-49.166973 956.38263 1299.9373 4288720599
-46.93211 956.38263 1299.9373 4289181150
16.761467 956.38263 1299.9373 4285224813
20.113762 956.38263 1299.9373 4285093232
22.348623 956.38263 1299.9373 4284700784
-51.401836 958.09119 1301.3779 4290103035
2.2348623 958.09119 1301.3779 4284833151
4.4697247 958.09119 1301.3779 4284832627
-49.005505 961.55334 1299.0651 4290562814
-46.777981 961.55334 1299.0651 4290497021
-44.550457 961.55334 1299.0651 4290496767
-13.365138 961.55334 1299.0651 4294836223
-11.137614 961.55334 1299.0651 4293061113
-43.065445 963.82397 1300.9796 4290299903
-40.095413 964.10779 1301.2189 4290234361
-37.867889 964.10779 1301.2189 4290365947
-15.592661 964.95929 1301.9368 4290430967
-13.365138 964.10779 1301.2189 4292271615
-11.137614 964.10779 1301.2189 4293455871
-7.7963305 964.95929 1301.9368 4291546339
2.2275229 963.25635 1300.501 4284833151
4.4550457 964.10779 1301.2189 4284570232
-33.302753 968.39911 1299.605 4290563066
-31.082569 968.39911 1299.605 4290300412
-25.53211 968.39911 1299.605 4290168319
-22.201836 968.39911 1299.605 4290101498
-19.981651 968.39911 1299.605 4290035705
-28.862385 970.09644 1301.0361 4290234365
-54.374313 761.5307 1304.379 4283451517
-51.902752 760.58594 1303.5825 4283713657
-54.993271 769.26886 1304.3634 4283254400
-56.423855 775.40662 1302.9985 4284441747
-52.744034 775.40662 1302.9985 4285033346
-56.212845 782.76428 1302.6622 4286612118
-52.546791 782.76428 1302.6622 4288585443
-56.212845 784.63281 1304.2377 4288184986
-52.546791 784.63281 1304.2377 4288978903
-51.132111 791.0177 1303.0812 4283985831
-48.697247 791.0177 1303.0812 4285032109
-51.132111 792.87921 1304.6508 4287464635
9.7394495 792.87921 1304.6508 4293916927
-53.324772 799.75439 1302.5996 4288242581
-50.900917 799.75439 1302.5996 4288242581
7.2715597 799.75439 1302.5996 4293852415
-55.748623 801.60742 1304.162 4287058823
-53.324772 801.60742 1304.162 4288305035
-61.57431 809.7655 1304.5005 4286991233
-53.122936 807.91943 1302.9438 4288236421
2.4146788 807.91943 1302.9438 4293588991
4.8293576 808.84247 1303.7222 4293851903
7.2440367 808.84247 1303.7222 4293851903
9.6587152 808.84247 1303.7222 4293522431
12.878288 808.53485 1303.4628 4293456639
16.902752 807.91943 1302.9438 4293522175
-61.741283 817.26837 1304.2866 4286794612
-57.732109 816.96185 1304.0281 4286990974
-55.326607 816.96185 1304.0281 4287648904
-52.921101 816.04236 1303.2528 4288502657
2.4055047 816.96185 1304.0281 4294377471
4.8110094 816.96185 1304.0281 4293786111
7.2165136 816.96185 1304.0281 4293062397
9.6220188 816.96185 1304.0281 4291681791
13.230275 816.96185 1304.0281 4289838829
-62.304588 824.12317 1303.5262 4286992769
-59.908257 824.12317 1303.5262 4287124098
2.3963304 824.12317 1303.5262 4282800049
4.7926607 824.12317 1303.5262 4282207676
7.1889906 824.12317 1303.5262 4281615538
10.783486 824.12317 1303.5262 4285433287
14.377981 824.12317 1303.5262 4292403455
2.387156 832.16199 1303.7642 4284050604
2.3798165 838.74463 1304.0823 4282342802
4.7596331 838.74463 1304.0823 4282670243
7.1394496 838.74463 1304.0823 4283657137
10.312538 839.04785 1304.338 4283853225
14.278899 838.74463 1304.0823 4284049315
-49.783485 845.80078 1303.4917 4287646319
-46.227524 845.80078 1303.4917 4288170117
2.3706422 845.80078 1303.4917 4292601343
4.7412844 845.80078 1303.4917 4289645823
7.1119266 845.80078 1303.4917 4283592881
10.667891 845.80078 1303.4917 4283325350
14.223853 845.80078 1303.4917 4281426855
16.594496 845.80078 1303.4917 4285703656
-44.867889 851.91919 1302.1105 4288845523
2.3614678 851.91919 1302.1105 4292994815
4.7229357 851.91919 1302.1105 4293126399
7.0844035 851.91919 1302.1105 4292731647
10.626606 851.91919 1302.1105 4288194777
14.168807 851.91919 1302.1105 4281817504
16.530275 851.91919 1302.1105 4285765083
-43.687157 853.72449 1303.6327 4290285790
2.3614678 853.72449 1303.6327 4292731903
4.7229357 853.72449 1303.6327 4293060607
7.0844035 853.72449 1303.6327 4293652991
14.168807 853.72449 1303.6327 4280445654
-43.517433 859.80786 1302.2218 4288043648
-39.988991 859.80786 1302.2218 4289687953
4.704587 859.80786 1302.2218 4292995071
7.056881 859.80786 1302.2218 4293126655
9.409174 859.80786 1302.2218 4292864511
-43.517433 861.6062 1303.7382 4287120755
-39.988991 861.6062 1303.7382 4287711860
-39.833027 868.55005 1303.053 4286870148
-37.48991 867.65442 1302.2977 4287190395
4.6862388 867.65442 1302.2977 4292075263
7.0293579 867.65442 1302.2977 4292470015
14.058716 869.44574 1303.8081 4292536319
-44.379818 874.97284 1303.2363 4286017898
2.3357799 874.97284 1303.2363 4292337663
4.6715598 874.97284 1303.2363 4292141311
7.0073395 874.97284 1303.2363 4292601855
9.3431196 874.97284 1303.2363 4292536319
-46.715595 876.75854 1304.7419 4288055689
-44.379818 876.75854 1304.7419 4288252811
2.3357799 876.75854 1304.7419 4292075007
4.6715598 876.75854 1304.7419 4291812095
7.0073395 876.75854 1304.7419 4292009215
10.511009 876.75854 1304.7419 4292141055
14.014679 876.75854 1304.7419 4292272895
16.350458 876.75854 1304.7419 4292338943
-48.858715 884.51813 1304.7445 4284043384
-46.532108 883.62878 1303.9946 4285615732
-44.205505 883.62878 1303.9946 4285944440
-41.878899 882.73938 1303.2448 4286664291
4.6532111 884.51813 1304.7445 4291812607
-53.300919 890.46399 1303.2178 4285950370
-44.031193 890.46399 1303.2178 4285681269
-40.555046 890.46399 1303.2178 4287711365
2.3174312 890.46399 1303.2178 4291745535
4.6348624 890.46399 1303.2178 4291549439
-48.666054 892.23566 1304.7117 4287531434
-46.348625 892.23566 1304.7117 4286147492
6.9522934 892.23566 1304.7117 4291614975
-48.511925 895.90692 1302.575 4288518325
-46.201836 895.90692 1302.575 4288711354
-43.891743 895.90692 1302.575 4285355911
-40.426605 895.90692 1302.575 4287317881
-36.961468 895.90692 1302.575 4288430461
-34.651375 895.90692 1302.575 4288430461
-32.341286 895.90692 1302.575 4289086086
2.3100917 895.90692 1302.575 4291877887
4.6201835 895.90692 1302.575 4291746559
6.9302754 895.90692 1302.575 4291483647
-46.201836 897.67303 1304.0641 4288515538
-43.891743 897.67303 1304.0641 4285357474
-40.426605 897.67303 1304.0641 4287318397
2.3100917 897.67303 1304.0641 4291746559
4.6201835 897.67303 1304.0641 4291812095
6.9302754 897.67303 1304.0641 4291746047
10.395412 897.67303 1304.0641 4291549439
-49.469727 905.31757 1303.9696 4284505704
-46.018349 904.43799 1303.228 4286938815
-43.71743 904.43799 1303.228 4286280885
-39.882568 904.14484 1302.9808 4286533758
-36.814678 903.55847 1302.4865 4287905660
2.3009174 904.43799 1303.228 4292141055
4.6018348 904.43799 1303.228 4291943935
6.9027524 904.43799 1303.228 4291878143
-49.272476 911.16803 1302.3624 4286939325
-45.834862 911.16803 1302.3624 4286805924
2.291743 911.16803 1302.3624 4292864255
-49.272476 912.92004 1303.8397 4286017957
4.5834861 912.92004 1303.8397 4289114103
-45.688072 918.27325 1303.1212 4282926456
6.8532109 920.01965 1304.5938 4285557138
9.1376143 920.01965 1304.5938 4285885336
-45.504585 925.80273 1302.9298 4284574107
4.5504589 925.80273 1302.9298 4285490319
6.8256879 925.80273 1302.9298 4285424525
9.1009178 925.80273 1302.9298 4285293698
-45.504585 927.54224 1304.3965 4284112272
6.8256879 927.54224 1304.3965 4285490570
10.238532 927.54224 1304.3965 4285359747
13.651376 927.54224 1304.3965 4285621384
2.26789 932.83643 1303.6283 4285292422
4.53578 931.96954 1302.8973 4285162116
6.8036699 931.10266 1302.1664 4285096324
-42.950459 938.10822 1302.8412 4284180116
-40.689907 938.10822 1302.8412 4284443300
-46.341286 939.83643 1304.2983 4284902301
-49.530273 947.24817 1304.0076 4285690284
-45.027523 947.24817 1304.0076 4285694648
-42.776146 945.52698 1302.5563 4282273664
4.5027523 947.24817 1304.0076 4285029497
-49.368809 952.461 1303.1709 4288587223
-47.124771 952.461 1303.1709 4288719065
-44.880733 952.461 1303.1709 4288850404
-51.401836 959.7998 1302.8186 4290758911
6.704587 959.7998 1302.8186 4284766580
22.348623 959.7998 1302.8186 4284503394
24.583487 959.7998 1302.8186 4284569187
-51.401836 961.50836 1304.2592 4290233853
-49.166973 961.50836 1304.2592 4290234111
-46.93211 961.50836 1304.2592 4290102783
7.8220181 961.50836 1304.2592 4284701305
-37.867889 966.66229 1303.3727 4290628859
-34.897858 967.79761 1304.33 4290497273
-31.185322 968.36523 1304.8086 4290234365
-25.616514 968.36523 1304.8086 4290299903
-22.275229 968.36523 1304.8086 4290102015
-20.047707 968.36523 1304.8086 4290102015
-16.706421 967.51379 1304.0906 4289510131
-13.365138 967.51379 1304.0906 4289247728
-11.137614 967.51379 1304.0906 4290366205
-7.7963305 967.51379 1304.0906 4290100214
-4.4550457 967.51379 1304.0906 4286874562
-2.2275229 967.51379 1304.0906 4283650705
0 967.51379 1304.0906 4283715437
-57.099083 756.37109 1307.8767 4282991227
-54.616512 756.37109 1307.8767 4283713139
-54.374313 763.42023 1305.9723 4283517058
-56.845871 765.30975 1307.5654 4282597503
-53.970642 778.21985 1305.3706 4285496753
-61.330276 780.09534 1306.952 4283388802
-58.877064 780.09534 1306.952 4285032829
-56.212845 787.43555 1306.6008 4286021272
-52.954132 787.12408 1306.3383 4286352049
-56.001835 794.74066 1306.2202 4287199917
-52.349541 794.74066 1306.2202 4288312490
-63.306423 796.60217 1307.7898 4287066518
-60.871559 796.60217 1307.7898 4286869139
-58.436699 796.60217 1307.7898 4287196305
-56.001835 796.60217 1307.7898 4287130512
-63.020184 803.46051 1305.7245 4287190411
-58.172478 803.46051 1305.7245 4287516809
-55.748623 803.46051 1305.7245 4287516809
-53.324772 803.46051 1305.7245 4287974548
7.2715597 803.46051 1305.7245 4293851903
12.119267 803.46051 1305.7245 4293325823
-63.020184 805.3136 1307.2869 4287320198
-60.596329 805.3136 1307.2869 4287254405
-58.172478 805.3136 1307.2869 4287581057
-55.748623 805.3136 1307.2869 4287646851
-65.196327 811.61151 1306.057 4286402178
-61.57431 811.61151 1306.057 4286924661
-65.196327 813.45758 1307.6135 4286205317
-60.366974 813.45758 1307.6135 4286925681
-61.340366 819.7204 1306.354 4286729342
4.8110094 819.7204 1306.354 4291878911
7.2165136 819.7204 1306.354 4288786644
9.6220188 819.7204 1306.354 4285893087
12.027523 819.7204 1306.354 4283656126
2.3963304 827.78723 1306.6156 4283589540
4.7926607 826.87122 1305.8433 4283127457
7.1889906 826.87122 1305.8433 4283522216
10.384098 826.56592 1305.5858 4288125897
14.377981 827.78723 1306.6156 4292536575
2.387156 833.987 1305.303 4283984286
4.774312 833.987 1305.303 4283721378
7.161468 833.987 1305.303 4284576687
9.548624 833.987 1305.303 4285626054
11.93578 835.81201 1306.8418 4284246700
-58.305504 841.47369 1306.3834 4286598791
2.3798165 841.47369 1306.3834 4285890750
4.7596331 841.47369 1306.3834 4282477228
11.899082 841.47369 1306.3834 4283394473
-54.735779 843.29309 1307.9175 4286400379
-52.355965 843.29309 1307.9175 4286791010
-49.783485 847.61316 1305.0199 4287061624
-47.412846 847.61316 1305.0199 4288112544
4.7412844 847.61316 1305.0199 4292733183
7.1119266 847.61316 1305.0199 4287075006
10.667891 847.61316 1305.0199 4281292486
14.223853 847.61316 1305.0199 4281887396
16.594496 847.61316 1305.0199 4287216373
-52.154129 849.42554 1306.5481 4286870434
-49.783485 849.42554 1306.5481 4288252087
-47.412846 849.42554 1306.5481 4288384972
-47.229359 856.43256 1305.916 4287781009
-44.867889 855.52991 1305.1549 4288175525
4.7229357 855.52991 1305.1549 4292731903
14.168807 855.52991 1305.1549 4290565887
-43.517433 863.40454 1305.2545 4286467961
-39.988991 863.40454 1305.2545 4286532720
-43.517433 865.20288 1306.7708 4287132554
-43.347706 871.23706 1305.3186 4285953394
14.058716 871.23706 1305.3186 4292536319
-49.205505 873.02844 1306.829 4287070588
-46.862385 873.02844 1306.829 4286939000
11.715596 873.02844 1306.829 4292536319
14.058716 873.02844 1306.829 4292536319
16.401834 873.02844 1306.829 4292536319
-51.387157 878.54431 1306.2477 4286082687
-49.051376 878.54431 1306.2477 4287003789
-46.715595 878.54431 1306.2477 4288119176
2.3357799 878.54431 1306.2477 4292207103
4.6715598 878.54431 1306.2477 4291746559
7.0073395 878.54431 1306.2477 4291746559
10.511009 878.54431 1306.2477 4292141055
14.014679 878.54431 1306.2477 4292272895
16.350458 878.54431 1306.2477 4292536063
-51.387157 880.33002 1307.7534 4285623170
-49.051376 880.33002 1307.7534 4284570482
2.3357799 880.33002 1307.7534 4292009983
4.6715598 880.33002 1307.7534 4291419391
7.0073395 880.33002 1307.7534 4291485439
9.3431196 880.33002 1307.7534 4291878399
-52.348625 886.29688 1306.2443 4284305796
-48.858715 886.29688 1306.2443 4284305279
-46.532108 886.29688 1306.2443 4286072943
4.6532111 886.29688 1306.2443 4291483391
-51.185322 888.07556 1307.744 4285358226
-48.858715 888.07556 1307.744 4284305538
-46.532108 888.07556 1307.744 4285286511
6.9798164 888.07556 1307.744 4291812351
10.469725 888.07556 1307.744 4291680511
-53.300919 894.89319 1306.9524 4285360005
-50.983486 894.00739 1306.2054 4287663273
10.42844 894.00739 1306.2054 4291549439
13.904587 895.77905 1307.6993 4291285759
16.222019 894.89319 1306.9524 4291483391
18.53945 895.77905 1307.6993 4291549439
-53.132111 899.43909 1305.5532 4283188831
-50.822018 899.43909 1305.5532 4282926174
4.6201835 899.43909 1305.5532 4291549439
6.9302754 899.43909 1305.5532 4291549439
10.395412 899.43909 1305.5532 4291483647
13.860551 899.43909 1305.5532 4291417599
-53.132111 901.2052 1307.0424 4283517793
-49.666969 901.2052 1307.0424 4284242786
10.395412 901.2052 1307.0424 4291746815
13.860551 901.2052 1307.0424 4291614975
-52.921101 908.83569 1306.936 4287266993
-49.469727 907.07666 1305.4529 4286283679
4.6018348 907.95618 1306.1945 4292470271
6.9027524 907.95618 1306.1945 4292404479
9.9706421 907.66302 1305.9473 4292535039
13.805505 907.07666 1305.4529 4291022591
-52.710091 914.67212 1305.317 4285228691
-49.272476 914.67212 1305.317 4285294223
6.8752294 914.67212 1305.317 4286482104
9.1669722 914.67212 1305.317 4286218927
-52.710091 916.42419 1306.7943 4282335602
-49.272476 916.42419 1306.7943 4282924916
6.8752294 916.42419 1306.7943 4286611123
10.312843 916.42419 1306.7943 4286545834
13.750459 916.42419 1306.7943 4286413730
-47.972477 923.51257 1307.5389 4285953709
11.422018 922.63934 1306.8027 4285424773
13.706422 923.51257 1307.5389 4285817734
-45.504585 929.28162 1305.8632 4284046475
10.238532 929.28162 1305.8632 4285227907
-45.504585 931.02106 1307.3298 4284046464
6.8256879 931.02106 1307.3298 4284635773
10.238532 931.02106 1307.3298 4284897918
-45.3578 934.57031 1305.0902 4283586678
4.53578 934.57031 1305.0902 4285160836
6.8036699 934.57031 1305.0902 4285029249
-54.429359 936.30408 1306.5521 4282404466
-52.161469 936.30408 1306.5521 4283128446
-49.893578 936.30408 1306.5521 4283062403
-46.491745 936.30408 1306.5521 4283654028
6.8036699 936.30408 1306.5521 4285226110
9.0715599 936.30408 1306.5521 4285226108
-46.341286 941.56458 1305.7556 4283847817
-54.253212 943.29285 1307.2128 4283323006
-51.992661 943.29285 1307.2128 4282994298
-49.732109 943.29285 1307.2128 4283125629
-46.341286 943.29285 1307.2128 4282469499
6.7816515 943.29285 1307.2128 4285029245
-51.781651 948.96936 1305.4589 4286809520
-49.530273 948.96936 1305.4589 4287006924
-46.153214 948.96936 1305.4589 4286876366
6.7541285 950.69055 1306.9102 4284636275
10.131193 950.69055 1306.9102 4284832627
7.8541284 955.89215 1306.064 4284898163
11.220183 955.89215 1306.064 4284832627
13.46422 955.89215 1306.064 4284963189
16.830275 955.89215 1306.064 4284963445
20.196331 955.89215 1306.064 4284897396
22.440367 955.89215 1306.064 4284635243
24.684404 955.89215 1306.064 4284701036
-56.100918 957.60773 1307.5105 4290693108
-53.85688 957.60773 1307.5105 4290627326
8.9761467 957.60773 1307.5105 4284832373
11.220183 957.60773 1307.5105 4284832373
13.46422 957.60773 1307.5105 4285289340
16.830275 957.60773 1307.5105 4285158264
20.196331 957.60773 1307.5105 4284895347
-49.166973 963.21692 1305.6998 4290233599
-46.93211 963.21692 1305.6998 4290233599
-43.952297 964.35596 1306.6603 4290496767
-40.227524 964.92554 1307.1404 4290497273
2.2348623 964.07123 1306.4202 4284570490
4.4697247 964.92554 1307.1404 4284504688
7.4495411 963.78644 1306.1801 4284569973
11.174312 963.21692 1305.6998 4284700534
22.348623 963.21692 1305.6998 4284502638
24.583487 963.21692 1305.6998 4284568687
-57.099083 758.26904 1309.4771 4283449979
-61.78899 769.08881 1310.7518 4286545834
-59.317432 769.08881 1310.7518 4286282926
-61.559631 775.54388 1309.6545 4281747336
-59.097248 775.54388 1309.6545 4280698993
-58.877064 781.97083 1308.5333 4287724435
-61.330276 783.84631 1310.1147 4285358226
-58.877064 783.84631 1310.1147 4286282369
-58.656879 790.23828 1308.9641 4287136954
-56.212845 790.23828 1308.9641 4287400126
-53.768806 790.23828 1308.9641 4287464635
-61.100918 792.10675 1310.5396 4286412713
-58.656879 792.10675 1310.5396 4286936744
-63.306423 798.46362 1309.3594 4286929806
-60.871559 799.39435 1310.144 4287060109
-58.436699 798.46362 1309.3594 4287058823
-60.137615 823.39844 1309.4553 4287257476
-62.304588 829.61926 1308.1604 4287325827
-59.908257 829.61926 1308.1604 4286997118
4.7926607 829.61926 1308.1604 4283916954
7.1889906 829.61926 1308.1604 4286746309
10.783486 829.61926 1308.1604 4291215605
14.377981 829.61926 1308.1604 4291877375
-62.304588 831.45123 1309.7051 4287128965
11.981651 831.45123 1309.7051 4286678743
14.377981 831.45123 1309.7051 4285759993
-54.735779 845.11249 1309.4515 4286798469
-52.355965 845.11249 1309.4515 4286732915
-54.735779 846.93188 1310.9856 4287655841
-49.783485 851.23792 1308.0762 4289432767
-47.412846 851.23792 1308.0762 4289826269
-52.154129 853.05029 1309.6044 4286599571
-49.783485 853.05029 1309.6044 4287257501
-49.590824 860.04333 1308.9606 4286401155
-47.229359 860.04333 1308.9606 4286598011
-49.398167 868.79956 1309.8035 4287071104
-47.045872 867.90039 1309.0453 4286546034
-43.517433 867.00122 1308.2871 4287004025
-51.548622 874.8197 1308.3394 4286016883
-49.205505 874.8197 1308.3394 4287332743
-53.891743 876.61108 1309.8499 4285951351
-52.555046 882.11572 1309.259 4284964999
7.0073395 883.00854 1310.0118 4291812607
10.121713 883.30615 1310.2628 4291877887
16.350458 883.00854 1310.0118 4292075519
18.686239 883.90143 1310.7646 4292009215
-52.348625 889.85425 1309.2438 4287925424
10.469725 889.85425 1309.2438 4291681023
13.959633 889.85425 1309.2438 4291417087
16.286238 889.85425 1309.2438 4291679999
13.959633 891.63293 1310.7435 4291285759
16.222019 898.43665 1309.9401 4291614975
18.53945 899.32251 1310.687 4291811839
-53.132111 902.97125 1308.5315 4284241267
10.395412 902.97125 1308.5315 4292601087
13.860551 902.97125 1308.5315 4292336895
-53.132111 904.73737 1310.0205 4286544283
16.170643 904.73737 1310.0205 4289443568
18.480734 904.73737 1310.0205 4288914912
-58.673393 910.59479 1308.4192 4285886367
-52.921101 910.59479 1308.4192 4285952416
6.9027524 910.59479 1308.4192 4286679762
10.354128 910.59479 1308.4192 4286217160
13.805505 910.59479 1308.4192 4284709048
-55.222019 912.35388 1309.9025 4285426070
11.504587 912.35388 1309.9025 4286482356
13.805505 912.35388 1309.9025 4286284472
-55.001835 919.92834 1309.7489 4284046464
-52.710091 919.05231 1309.0103 4283980676
-49.272476 919.05225 1309.0103 4283850893
11.458715 918.17627 1308.2716 4285885336
13.750459 919.05231 1309.0103 4285621130
16.042202 919.92834 1309.7489 4285751941
19.479816 919.92834 1309.7489 4285947267
-52.541283 925.25903 1309.0115 4284505985
-50.256882 925.25903 1309.0115 4284570511
-47.972477 925.25903 1309.0115 4284570511
-52.541283 927.00549 1310.484 4284570493
-50.256882 927.00549 1310.484 4284373368
-47.972477 927.00549 1310.484 4284439162
13.706422 927.00549 1310.484 4285555591
15.990826 927.00549 1310.484 4285292676
-54.605503 932.7605 1308.7964 4284308859
-52.330276 932.7605 1308.7964 4285164168
-50.055046 932.7605 1308.7964 4284441723
-47.779816 932.7605 1308.7964 4283915379
10.238532 932.7605 1308.7964 4285029247
13.651376 932.7605 1308.7964 4285225856
18.201836 932.7605 1308.7964 4285685115
11.376146 934.49994 1310.2631 4285226108
13.651376 934.49994 1310.2631 4285226362
15.926605 934.49994 1310.2631 4285094777
18.201836 934.49994 1310.2631 4285094777
-54.429359 938.0379 1308.014 4283454599
-52.161469 938.0379 1308.014 4284243858
-49.893578 938.0379 1308.014 4284310156
6.8036699 938.0379 1308.014 4285226108
9.0715599 938.0379 1308.014 4285226362
13.60734 938.0379 1308.014 4285095031
15.875229 938.0379 1308.014 4285095031
-54.429359 939.77173 1309.476 4283979909
-52.161469 939.77173 1309.476 4283914116
-49.893578 939.77173 1309.476 4283848067
6.8036699 939.77173 1309.476 4285226108
10.205505 940.63867 1310.2069 4285095031
13.60734 940.63867 1310.2069 4285029238
15.875229 939.77173 1309.476 4285095031
-51.992661 945.02106 1308.6699 4284836750
-47.471561 945.02106 1308.6699 4285953713
6.7816515 945.88513 1309.3984 4285029496
10.172478 945.88519 1309.3984 4284898163
13.563303 945.88513 1309.3984 4284963188
6.7541285 952.41174 1308.3615 4284832623
10.131193 952.41174 1308.3615 4284700784
13.508257 952.41174 1308.3615 4285027941
-56.100918 959.3233 1308.957 4290824957
-53.85688 959.3233 1308.957 4290233853
11.220183 959.3233 1308.957 4284832121
13.46422 959.3233 1308.957 4285092984
16.830275 959.3233 1308.957 4285092981
20.196331 959.3233 1308.957 4284895599
22.440367 959.3233 1308.957 4284503144
25.806423 959.3233 1308.957 4284372332
-52.734863 961.03894 1310.4036 4290364671
13.46422 961.03894 1310.4036 4284831350
16.830275 961.03894 1310.4036 4284830580
20.196331 961.03894 1310.4036 4284895347
-42.462387 966.63409 1308.5811 4290562559
-40.227524 967.4884 1309.3014 4290168311
-37.992661 967.4884 1309.3014 4290299896
-34.640366 968.34265 1310.0217 4290299903
-31.288073 968.34265 1310.0217 4290235135
-29.053211 968.34265 1310.0217 4290169343
-25.700916 968.34265 1310.0217 4290234111
-22.348623 968.34265 1310.0217 4289905917
-20.113762 968.34265 1310.0217 4289905917
-16.761467 968.34265 1310.0217 4289774586
-13.409174 968.34265 1310.0217 4289380339
-11.174312 968.34265 1310.0217 4289775097
-7.8220181 968.34265 1310.0217 4289641468
-4.4697247 968.34265 1310.0217 4287336145
-2.2348623 968.34265 1310.0217 4283454358
1.1174312 967.4884 1309.3014 4284044402
4.4697247 966.63409 1308.5811 4284241769
6.704587 966.63409 1308.5811 4284504940
-57.099083 760.16699 1311.0774 4283123576
-61.78899 770.97833 1312.3451 4284903060
-59.317432 770.97833 1312.3451 4284442516
-64.022018 779.3089 1312.8291 4284438141
-61.559631 779.3089 1312.8291 4285030279
-61.330276 785.7218 1311.6962 4286346920
-58.877064 785.7218 1311.6962 4284904866
-61.330276 787.59735 1313.2775 4287464633
-61.340366 825.23749 1311.006 4287192962
12.027523 825.23749 1311.006 4292990719
-62.066055 841.28699 1311.4581 4286665868
-58.485321 841.28699 1311.4581 4286928010
-57.291744 843.112 1312.9969 4287061385
-54.735779 848.75128 1312.5198 4288774067
-52.355965 848.75128 1312.5198 4288643251
-52.154129 854.86267 1311.1324 4286004870
-49.783485 854.86267 1311.1324 4287254936
-54.524769 856.67505 1312.6606 4285352820
-52.154129 856.67505 1312.6606 4286268280
-51.952293 862.75134 1311.2439 4286078326
-49.590824 862.75134 1311.2439 4286670463
-47.229359 862.75134 1311.2439 4286738053
-51.952293 864.5567 1312.7661 4286739813
-49.590824 864.5567 1312.7661 4286871399
-51.750458 870.5979 1311.3197 4286544244
-53.891743 878.4024 1311.3602 4285491584
11.715596 878.4024 1311.3602 4291878399
14.058716 878.4024 1311.3602 4292009471
16.401834 878.4024 1311.3602 4292206847
11.715596 880.19373 1312.8706 4292009471
14.058716 880.19373 1312.8706 4291877887
14.014679 885.68719 1312.2704 4291417599
16.350458 885.68719 1312.2704 4292075775
18.612844 895.19043 1313.7432 4291483391
-55.618347 902.86584 1313.6747 4285031044
16.222019 901.09418 1312.1809 4292336895
18.53945 901.09418 1312.1809 4292468735
-57.752293 906.50342 1311.5096 4285820313
-55.442204 907.38647 1312.2542 4285754011
11.550459 906.50342 1311.5096 4290429155
13.860551 906.50342 1311.5096 4289245925
18.480734 908.26953 1312.9988 4285234351
-55.222019 914.11292 1311.3856 4282730104
16.106422 914.11292 1311.3856 4286084766
-55.222019 915.87201 1312.8689 4282796151
16.106422 915.87201 1312.8689 4285424525
19.557798 915.87201 1312.8689 4285621384
-57.293579 923.43243 1312.7035 4284047231
-55.001835 922.5564 1311.9648 4283979642
-52.710091 921.68036 1311.2262 4286019224
-50.41835 921.68036 1311.2262 4286282674
16.042202 921.68036 1311.2262 4285817734
-54.825687 928.75195 1311.9565 4284768378
-52.541283 928.75195 1311.9565 4285228929
-50.256882 928.75195 1311.9565 4285030781
-47.972477 928.75195 1311.9565 4284702072
13.706422 928.75195 1311.9565 4285357699
15.990826 930.49841 1313.4292 4285225856
11.376146 936.23938 1311.7297 4285094777
-49.368809 962.75452 1311.8501 4290430463
-47.124771 962.75452 1311.8501 4290430463
8.9761467 962.75452 1311.8501 4284700536
11.220183 962.75452 1311.8501 4284634743
13.46422 962.75452 1311.8501 4284765809
16.830275 962.75452 1311.8501 4284700272
20.196331 962.75452 1311.8501 4284568685
22.440367 962.75452 1311.8501 4284634480
24.684404 962.75452 1311.8501 4284634480
-49.368809 964.47009 1313.2966 4290299391
-47.124771 964.47009 1313.2966 4290365439
-44.880733 964.47009 1313.2966 4290496511
8.9761467 964.47009 1313.2966 4284832125
11.220183 964.47009 1313.2966 4284634489
13.46422 964.47009 1313.2966 4284634993
16.830275 964.47009 1313.2966 4284503148
20.196331 964.47009 1313.2966 4284503144
22.440367 964.47009 1313.2966 4284568687
-7.8220181 970.05127 1311.4623 4289773303
-2.2348623 970.90552 1312.1826 4283917995
0 970.90552 1312.1826 4285099142
-59.801834 759.36084 1316.9377 4282794625
-59.58165 763.96289 1314.278 4284702626
-57.291744 844.93701 1314.5358 4286537360
-58.485321 846.76196 1316.0745 4286538125
-54.735779 850.57068 1314.0537 4286536328
-54.735779 852.39001 1315.5879 4285351301
-55.710091 859.39355 1314.9529 4285223275
-52.154129 858.48737 1314.1887 4285678721
-54.313763 866.36206 1314.2883 4286347392
-51.952293 866.36206 1314.2883 4286676346
-54.313763 868.16742 1315.8105 4286477697
14.058716 881.98505 1314.381 4291417599
16.222019 904.63757 1315.1686 4287601100
18.53945 904.63757 1315.1686 4284640706
16.222019 906.40924 1316.6624 4285301441
-60.832417 911.21295 1315.4806 4284505484
-57.752293 910.91864 1315.2324 4284571020
16.170643 910.03558 1314.4879 4286942403
18.480734 910.91864 1315.2324 4286873264
-57.522934 917.63104 1314.3521 4284177023
-57.522934 919.39014 1315.8352 4284375682
19.557798 919.39014 1315.8352 4285554308
23.009174 919.39014 1315.8352 4285422981
-55.001835 925.18445 1314.1808 4284439164
16.042202 926.93652 1315.6581 4285357699
18.333944 926.93652 1315.6581 4285357951
-56.284405 959.29651 1314.1665 4290890751
-55.158714 961.0177 1315.6177 4290299646
-51.781651 961.0177 1315.6177 4290299391
-43.758713 966.18567 1314.7432 4290496255
-40.392662 967.90125 1316.1897 4290300158
-38.148624 967.90125 1316.1897 4290431743
-34.78257 967.90125 1316.1897 4290431999
-31.416513 967.90125 1316.1897 4290431743
-29.172478 967.90125 1316.1897 4290365951
-25.806423 967.90125 1316.1897 4290168574
-22.440367 967.90125 1316.1897 4290036220
-20.196331 967.90125 1316.1897 4289904891
-16.830275 967.90125 1316.1897 4289773814
-13.46422 967.90125 1316.1897 4289642482
-11.220183 967.90125 1316.1897 4289971447
-4.4880733 967.90125 1316.1897 4286942418
2.2440367 967.04346 1315.4664 4284110964
4.4880733 966.18567 1314.7432 4284176237
7.4801221 966.75751 1315.2253 4284242291
11.220183 967.04346 1315.4664 4284175728
13.46422 967.04346 1315.4664 4284306028
16.456268 966.75751 1315.2253 4284437615
22.440367 966.18567 1314.7432 4284503155
-59.908257 841.52734 1318.2009 4286800786
-58.485321 848.58698 1317.6133 4286536845
-57.291744 850.41199 1319.1521 4285811852
-58.305504 854.20941 1317.1219 4285026682
-59.495415 856.02881 1318.656 4284700536
-56.105198 862.71631 1317.7545 4286082162
-54.313763 869.97278 1317.3328 4286017146
20.85688 908.18097 1318.1562 4287663811
-57.752293 913.56775 1317.4662 4282927984
23.100918 913.56775 1317.4662 4285685896
23.100918 915.33386 1318.9552 4285422981
-59.056881 922.32196 1318.3073 4284112768
19.557798 922.02869 1318.0601 4285291646
-58.774311 957.11853 1318.8702 4290824959
-54.033028 962.73889 1317.069 4290233599
-51.781651 962.73889 1317.069 4290233599
-49.530273 964.46008 1318.5203 4290496767
-47.2789 964.46008 1318.5203 4290562559
20.262384 964.46008 1318.5203 4284634993
-49.530273 966.18127 1319.9716 4290365438
-46.153214 966.18127 1319.9716 4290562814
-42.776146 966.18127 1319.9716 4290365438
4.5027523 966.18127 1319.9716 4283979891
9.0055046 966.18127 1319.9716 4283979117
19.136696 966.18127 1319.9716 4284175224
22.513762 966.18127 1319.9716 4284305527
-38.148624 969.61682 1317.6362 4290300410
2.2440367 969.61682 1317.6362 4286020758
-62.543118 838.11066 1321.8602 4286865807
-62.304588 844.27539 1320.5181 4286735754
-62.304588 846.10736 1322.0627 4286208397
