# .PCD v0.7 - Point Cloud Data file format
VERSION 0.7
FIELDS x y z rgb
SIZE 4 4 4 4
TYPE F F F U
COUNT 1 1 1 1
WIDTH 1175
HEIGHT 1
VIEWPOINT 0 0 0 1 0 0 0
POINTS 1175
DATA ascii
19.497248 768.77441 812.12744 4294967295
22.155964 768.77441 812.12744 4294967295
25.700916 769.4519 812.69873 4294967295
10.601835 772.37683 811.24078 4292886930
13.252294 772.37683 811.24084 4294887920
16.78624 772.37683 811.24084 4293245905
19.436697 773.05225 811.8103 4294957055
21.792662 772.60199 811.43066 4294967295
25.621101 773.05225 811.8103 4294967295
5.3009176 774.40314 812.94934 4285279086
7.951376 774.40314 812.94934 4292870203
10.601835 774.40314 812.94934 4293337224
13.252294 774.40314 812.94934 4294953727
16.78624 774.40314 812.94934 4293623498
19.436697 774.40314 812.94934 4294938878
22.087156 774.40314 812.94934 4294966783
25.621101 774.40314 812.94934 4294967295
28.271559 774.40314 812.94934 4294967295
30.922018 774.40314 812.94934 4294967295
17.614679 777.99084 812.05029 4294912768
19.376146 777.99084 812.05029 4294921504
22.018349 777.99084 812.05029 4293833443
25.541285 777.99084 812.05029 4294967295
29.06422 777.99084 812.05029 4294967295
14.047707 782.91254 812.27612 4294909064
16.681652 782.91254 812.27612 4294913422
19.315596 782.91254 812.27612 4294925746
21.07156 782.91254 812.27612 4294941404
25.754128 782.46509 811.89874 4294967295
28.973394 782.24133 811.71014 4294967295
31.60734 782.91254 812.27612 4294967295
33.363304 782.91254 812.27612 4294967295
10.513762 785.73785 812.04211 4294930377
13.142202 785.73785 812.04211 4294724005
16.64679 785.73785 812.04211 4294914964
19.275229 785.73785 812.04211 4294933727
22.195719 785.29132 811.66559 4294947067
25.408257 785.73785 812.04211 4294569983
28.620794 785.29126 811.66559 4294967295
8.7339449 790.63293 812.24548 4294928597
10.480734 789.96521 811.6825 4294930119
13.100918 789.96521 811.6825 4294928063
16.594496 789.96521 811.6825 4294788244
20.088074 789.96521 811.6825 4294939866
22.708258 789.96521 811.6825 4294945265
25.328442 789.96521 811.6825 4290153174
28.530886 790.18781 811.87012 4293783551
10.458715 793.44275 811.99866 4294927809
13.073395 793.44275 811.99866 4294930629
16.559633 793.44275 811.99866 4294858645
20.045872 793.44275 811.99866 4294943961
22.660551 793.44275 811.99866 4294948607
24.403669 793.44275 811.99866 4288254638
16.507339 798.31122 812.17944 4294933956
19.982569 798.31122 812.17944 4294945263
22.588991 798.31122 812.17944 4294946559
24.326605 798.31122 812.17944 4289363377
16.455046 803.16278 812.34619 4294938333
19.919266 802.50067 811.78784 4294933993
22.517431 802.50067 811.7879 4294942463
24.826912 802.72137 811.97394 4292456677
28.579817 803.16278 812.34619 4294307284
25.062386 805.94739 812.07788 4294964479
28.519266 805.94739 812.07788 4294967295
24.121101 810.77234 812.22217 4294961663
11.970642 822.40082 812.87085 4294516618
13.680734 822.40082 812.87085 4294907772
16.245872 822.40082 812.87085 4294516353
19.666054 822.40082 812.87085 4294940910
23.086239 822.40082 812.87085 4294952187
11.93211 827.16827 812.96643 4293406571
13.636697 827.16827 812.96643 4294908029
16.477676 826.73389 812.60016 4294714502
19.318655 826.73389 812.60016 4294939372
23.011927 827.16827 812.96643 4294489337
25.568808 827.16827 812.96643 4294965503
22.040367 834.64453 812.7301 4294943202
16.733946 853.43933 812.88098 4294936805
19.244038 853.43933 812.88098 4294936795
21.754128 853.43933 812.88098 4294931646
25.100918 853.43933 812.88098 4294963455
15.844954 858.09595 812.8833 4294934495
19.180733 858.09595 812.8833 4294937065
22.516514 858.09595 812.8833 4294482157
25.018349 858.09595 812.8833 4294959615
-3.5926607 752.83777 815.69434 4288681039
-1.7963303 752.15112 815.11536 4287899998
0.89816517 752.15112 815.11536 4286913364
3.5926607 750.09113 813.37854 4278190113
19.759632 750.09113 813.37854 4294967295
22.454128 750.09113 813.37854 4294967295
28.741285 750.09113 813.37854 4294834687
31.43578 751.46442 814.53644 4294901247
35.028442 751.46442 814.53644 4294967295
37.722935 752.15112 815.11536 4294967295
39.519264 752.83777 815.69434 4294967295
1.7908257 755.10828 813.68469 4289804635
3.5816514 755.10828 813.68469 4288299886
30.444036 755.10828 813.68469 4294967295
34.025688 755.10828 813.68469 4294967295
-3.5816514 757.84644 815.99353 4288348160
-1.7908257 757.16187 815.41632 4288872476
0.59694189 756.93365 815.22394 4290056741
4.4678898 757.98822 813.49695 4291314049
16.977982 757.98822 813.49695 4294967295
19.658716 757.98822 813.49695 4294967295
22.339451 757.98822 813.49695 4294967295
25.913761 757.98822 813.49695 4294967295
28.594496 757.98822 813.49695 4294967295
31.308258 757.23279 814.16803 4294967295
35.21957 756.93365 815.22394 4294967295
37.607338 757.84644 815.99353 4294967295
40.293579 757.84644 815.99353 4294967295
-3.574312 760.72083 815.80103 4286447616
-1.787156 760.72083 815.80103 4286644224
1.1914374 760.26538 815.41699 4289069056
3.574312 759.35455 814.64905 4291428428
25.020184 759.35455 814.64905 4294967295
28.594496 759.35455 814.64905 4294967295
31.57309 759.81 815.03302 4294967295
34.551682 760.26544 815.41699 4294967295
37.530273 760.72083 815.80103 4294967295
-1.7816514 764.34082 814.9292 4294364671
1.7816514 764.34082 814.9292 4294029553
4.1571865 763.4328 814.16357 4291831638
7.1266055 762.9787 813.78076 4292673623
23.161469 762.9787 813.78076 4294967295
25.833946 762.9787 813.78076 4294967295
28.506422 762.9787 813.78076 4294967295
30.881958 763.88678 814.54639 4294967295
33.851376 764.34082 814.9292 4294967295
3.5522935 767.95233 814.05029 4294947988
28.418348 767.95233 814.05029 4294967295
31.082569 767.95233 814.05029 4294967295
-1.7761468 769.31024 815.19519 4289052159
1.7761468 769.31024 815.19519 4293845503
4.4348621 770.05859 814.51819 4290346926
7.9761467 770.80701 813.84119 4293263904
28.359632 770.80701 813.84119 4294967295
31.018349 770.80701 813.84119 4294967295
34.634861 769.31024 815.19519 4294967295
-1.772477 772.16211 814.98376 4289245673
1.772477 772.16211 814.98376 4294967295
3.5449541 772.16211 814.98376 4294955263
34.563301 772.16211 814.98376 4294967295
-1.7669724 775.75397 814.08838 4291413998
4.4174314 775.75397 814.08838 4291138516
7.951376 775.75397 814.08838 4294321774
10.601835 775.75397 814.08838 4294115452
13.252294 775.75397 814.08838 4294927592
15.902752 775.75397 814.08838 4294270707
31.805504 775.75397 814.08838 4294967295
34.455963 775.75397 814.08838 4294967295
-1.7669724 777.10486 815.22729 4291875327
1.7669724 777.10486 815.22729 4294966015
4.4174314 777.10486 815.22729 4292847074
7.951376 777.10486 815.22729 4294462128
10.568808 779.33746 813.18579 4294917255
13.21101 779.33746 813.18579 4294123142
16.733946 779.33746 813.18579 4294912153
19.376146 779.33746 813.18579 4294913932
22.018349 779.33746 813.18579 4294226899
24.660551 779.33746 813.18579 4294967295
29.944954 779.33746 813.18579 4294967295
31.706423 779.33746 813.18579 4294967295
34.403671 778.22119 814.20654 4294967295
37.106422 777.10486 815.22729 4294967295
-1.7614679 781.35748 814.88892 4287997414
1.7614679 782.03082 815.45667 4294700031
4.697248 781.58197 815.07812 4291598800
7.9266057 780.68414 814.32117 4294402229
10.568808 780.68414 814.32117 4294929081
12.330276 780.68414 814.32117 4293476753
35.229359 780.68414 814.32117 4294967295
36.990826 782.03082 815.45667 4294967295
5.26789 785.59747 814.53992 4289298102
7.901835 784.255 813.40796 4294204854
31.60734 784.255 813.40796 4294967295
34.533947 784.70245 813.78534 4294967295
-1.7559633 786.93988 815.67188 4288128743
4.3899083 786.93988 815.67188 4292455896
7.5932717 787.52411 813.54828 4293545393
29.78899 787.07751 813.17175 4294967295
31.541285 787.74731 813.73651 4294967295
33.902142 787.47821 814.38165 4294967295
36.875229 786.93988 815.67188 4294967295
4.380734 789.75677 815.43079 4291800534
7.8605504 791.96838 813.37146 4293940150
26.201836 791.96838 813.37146 4278846238
28.822018 791.96838 813.37146 4285632201
31.442202 791.96838 813.37146 4294967295
34.117432 790.86255 814.40112 4294967295
36.798164 789.75677 815.43079 4294967295
-1.746789 794.63922 815.62354 4290164976
1.746789 794.63922 815.62354 4294702079
4.6581039 794.19409 815.24823 4291405775
7.8513761 794.03955 813.80994 4294006985
10.458715 794.77539 813.12231 4294928838
13.073395 794.77539 813.12231 4294930881
16.559633 794.77539 813.12231 4294931618
20.045872 794.77539 813.12231 4294945490
22.660551 794.77539 813.12231 4294947562
25.27523 794.77539 813.12231 4284959098
28.761467 794.77539 813.12231 4284649825
31.442202 793.30377 814.49756 4294967295
34.353516 793.74896 814.87286 4294967295
37.555962 794.63922 815.62354 4294967295
-1.7431192 797.44067 815.36951 4292856575
5.2293577 797.44067 815.36951 4291141573
7.8440361 796.77429 814.80774 4294537161
10.458715 796.77435 814.80774 4294933452
13.073395 796.10803 814.24597 4294931904
26.14679 796.10803 814.24597 4279238679
28.761467 796.10803 814.24597 4279259664
31.376146 796.10803 814.24597 4286947547
33.700306 796.9964 814.99493 4294836223
36.605503 797.44067 815.36951 4294967295
8.6880732 800.96802 814.41968 4294910347
10.425688 800.96802 814.41968 4294923688
13.03211 800.30383 813.85962 4294935748
16.507339 799.63959 813.29956 4294937813
26.06422 799.63959 813.29956 4280811586
28.670643 799.63959 813.29956 4280503843
31.277063 800.30383 813.85962 4292466431
33.883484 800.96802 814.41968 4294967295
-1.7376146 802.29645 815.53979 4293699807
7.8192658 802.29645 815.53979 4293005893
10.425688 802.29645 815.53979 4294787986
37.358719 802.29645 815.53979 4294967295
7.7944956 805.81122 814.57922 4292935754
10.39266 805.81122 814.57922 4293984368
12.702141 804.92841 813.83478 4294925493
16.455046 804.487 813.46265 4294937562
19.919266 804.487 813.46265 4294936019
22.517431 804.487 813.46265 4294947053
32.044037 804.487 813.46265 4294967295
34.6422 805.14911 814.02094 4294967295
37.240368 805.81122 814.57922 4294967295
5.1963301 807.13544 815.6958 4292498052
7.7816515 808.88721 815.21069 4292557448
10.370643 809.25092 814.86334 4293984357
13.251376 808.14972 813.93488 4294776194
16.420183 807.9295 813.74921 4294925256
19.877066 807.92957 813.74915 4294939123
22.469725 807.9295 813.74921 4294947071
25.350458 807.70929 813.56348 4294965503
28.519266 807.92957 813.74915 4294967295
31.976145 808.59027 814.30621 4294967295
34.568806 809.25092 814.86334 4294967295
37.181652 808.88727 815.21069 4294967295
39.838531 807.13544 815.6958 4294967295
12.922018 812.08954 813.33276 4294774388
16.367889 812.08954 813.33276 4294914460
19.813763 812.08954 813.33276 4294935020
22.398165 812.08954 813.33276 4294946303
24.982569 812.08954 813.33276 4294963455
28.42844 812.08954 813.33276 4294967295
7.753211 814.06531 814.99866 4293817532
10.337615 814.06531 814.99866 4294262921
12.634862 813.84576 814.81354 4294127489
16.333027 814.8559 813.04919 4294781840
19.793579 814.13135 813.74628 4294934751
22.398165 813.40674 814.44336 4294947583
24.982569 813.40674 814.44336 4294964223
28.715597 813.84576 814.81354 4294967295
31.874313 814.06531 814.99866 4294967295
34.458717 814.06531 814.99866 4294967295
37.043121 814.72394 815.55396 4294967295
8.5963306 817.48468 815.26575 4294473421
10.315597 817.48468 815.26575 4294929590
13.754128 816.17029 814.15747 4294916747
16.333027 816.17029 814.15747 4294455173
19.771561 816.17029 814.15747 4294937571
22.350458 816.17029 814.15747 4294947839
25.215902 816.6084 814.52686 4294965759
28.081345 817.04657 814.8963 4294967295
30.946789 817.48468 815.26575 4294967295
8.5688076 820.96014 814.27209 4291638157
11.13945 820.30505 813.71973 4294326675
13.710092 819.64996 813.16736 4294914963
16.280735 819.64996 813.16736 4294256516
19.708256 819.64996 813.16736 4294939879
23.13578 819.64996 813.16736 4294954495
25.706423 820.96014 814.27209 4294967295
28.277065 820.96014 814.27209 4294967295
5.1412845 822.27032 815.37671 4294601895
7.7027521 822.98926 814.67493 4292819315
11.115597 823.70819 813.97314 4294057323
13.680734 823.70819 813.97314 4294906486
15.390825 823.70819 813.97314 4294909827
20.521101 823.70819 813.97314 4294945527
23.086239 823.70819 813.97314 4294885371
25.651377 823.70819 813.97314 4294967295
28.216515 823.70819 813.97314 4294967295
31.704586 822.27032 815.37671 4294967295
34.27523 822.27032 815.37671 4294967295
7.6954126 825.01556 815.07544 4293997436
10.26055 825.01556 815.07544 4294788224
28.216515 825.01556 815.07544 4294967295
30.781651 825.01556 815.07544 4294967295
5.1137614 829.7746 815.16406 4293740172
7.95474 829.34015 814.79785 4294466191
11.079817 828.47144 814.06531 4293934710
13.636697 828.47144 814.06531 4294909064
16.193579 828.47144 814.06531 4294713733
19.602753 828.47144 814.06531 4294933210
23.296026 828.90582 814.43158 4294689789
25.568808 829.12305 814.61469 4294966783
28.125687 829.12305 814.61469 4294967295
31.250765 829.34015 814.79785 4294967295
5.1027522 833.80487 815.94629 4291571567
7.9376144 833.3714 815.58081 4293602715
11.055964 831.85431 814.30164 4294068895
13.60734 831.85431 814.30164 4294644599
16.158716 831.85425 814.30164 4294384503
19.560551 831.85431 814.30164 4294928048
22.962385 831.85431 814.30164 4294818801
25.513762 832.50452 814.84985 4294966271
27.781652 833.3714 815.58081 4294967295
31.466972 833.80487 815.94629 4294967295
11.020184 835.94067 813.823 4294856857
13.563303 835.94067 813.823 4294931900
16.106422 835.94067 813.823 4294793622
19.497248 835.94067 813.823 4294938052
22.888073 835.94067 813.823 4294024673
25.431192 835.94067 813.823 4294963455
7.6293578 837.23688 814.91589 4292290961
11.008257 838.59412 814.75232 4294266502
13.548624 838.59412 814.75226 4294730944
16.088989 838.59412 814.75226 4294931126
19.476147 838.59412 814.75226 4294942172
22.851376 838.94934 814.39783 4293958628
25.403669 838.59412 814.75226 4294963967
27.944035 838.59406 814.75232 4294967295
30.517431 837.23688 814.91589 4294967295
7.612844 841.24463 815.67908 4294209190
10.99633 841.24463 815.67908 4294467509
13.533945 841.24463 815.67908 4294923181
16.07156 841.24463 815.67908 4294922918
19.455046 841.24463 815.67908 4294939878
23.684404 841.24463 815.67908 4293568998
27.913761 841.24463 815.67908 4294967295
31.297249 841.24463 815.67908 4294967295
10.96055 845.94617 815.71924 4294866631
13.489908 845.94617 815.71924 4294931654
15.738227 845.08673 814.99457 4294927796
19.391743 844.65704 814.6322 4294936532
22.483179 844.22729 814.26984 4294747377
25.855658 844.22729 814.26984 4294964223
28.666056 845.30164 815.17572 4294967295
30.914373 845.51642 815.35693 4294967295
33.72477 845.94617 815.71924 4294967295
13.46055 848.6424 815.37646 4294726315
15.984404 847.99921 814.83417 4294929612
19.349541 847.35602 814.29187 4294931911
22.71468 847.35602 814.29187 4294883827
26.079817 847.35602 814.29187 4294965759
28.60367 848.6424 815.37646 4294967295
31.127522 848.6424 815.37646 4294967295
33.651375 848.6424 815.37646 4294967295
16.770641 850.75299 813.23193 4294934231
19.28624 850.75299 813.23193 4294932425
22.640366 850.75299 813.23193 4294745570
25.994495 850.75299 813.23193 4294965759
10.900917 853.31726 815.39404 4294534583
13.387156 854.71863 813.95972 4294929085
15.629359 853.82416 814.07745 4294934992
19.244038 854.71863 813.95972 4294937571
22.88685 853.82404 814.07745 4293956314
26.236084 853.82404 814.07745 4294964735
28.510092 852.67615 814.85352 4294967295
31.025688 853.31726 815.39404 4294967295
33.541283 853.31726 815.39404 4294967295
10.877064 855.99799 815.03845 4294665648
13.387156 855.99799 815.03845 4294930131
26.774311 855.99799 815.03845 4294967295
28.447706 855.99799 815.03845 4294967295
30.121101 855.99799 815.03845 4294967295
10.841284 860.64618 815.03357 4294862250
13.34312 860.00861 814.49597 4294862266
15.844954 859.37103 813.95837 4294933719
19.180733 859.37103 813.95837 4294936039
22.516514 859.37103 813.95837 4294679794
26.130278 859.79608 814.31671 4294964735
28.354128 860.64618 815.03357 4294967295
30.855965 860.64618 815.03357 4294967295
14.423242 862.88739 814.30719 4294796733
16.642202 862.67535 814.12842 4294935767
18.86116 862.46332 813.94965 4294935775
22.466972 862.67535 814.12842 4294549750
25.518044 862.88739 814.30719 4294962431
11.649541 864.5838 815.73767 4293460033
14.129358 865.27753 815.01453 4294526627
16.605505 865.97125 814.29138 4294934981
19.373087 865.5481 813.93457 4294935005
22.417431 865.97125 814.29138 4294682367
25.767891 865.27753 815.01453 4294964223
29.123852 864.5838 815.73767 4294967295
31.620184 864.5838 815.73767 4294967295
11.623854 867.24078 815.36182 4293474942
14.114679 867.24078 815.36182 4294386827
16.605505 867.24078 815.36182 4294590595
19.033028 869.31769 813.18896 4294933456
22.381653 868.27924 814.27539 4294680829
25.738533 867.24078 815.36182 4294963199
29.059633 867.24078 815.36182 4294967295
31.550459 867.24078 815.36182 4294967295
14.343731 871.42651 814.96704 4294400419
16.550459 871.21564 814.78925 4294593667
19.033028 871.21558 814.78931 4294795187
22.343121 871.21564 814.78925 4294941175
25.65321 871.21564 814.78925 4294962687
28.963303 871.84827 815.32263 4294967295
31.445871 871.84827 815.32263 4294967295
33.100918 871.84827 815.32263 4294967295
14.036697 875.7522 815.99829 4294666671
16.513762 875.7522 815.99829 4294931403
18.990826 875.7522 815.99829 4294935245
22.018349 875.33136 815.64349 4294408907
25.596329 875.7522 815.99829 4294961663
28.899082 875.7522 815.99829 4294967295
31.376146 875.7522 815.99829 4294967295
13.958715 882.95215 815.52893 4294863576
16.422018 882.95215 815.52893 4294937059
18.885323 882.95215 815.52893 4294941152
22.169724 882.95215 815.52893 4294944469
24.633028 882.95215 815.52893 4294954744
14.746789 885.56982 815.12012 4294927047
19.662386 885.56982 815.12012 4294941130
22.939449 885.56982 815.12012 4294948068
14.713761 889.43176 815.76025 4292949616
16.348623 889.43176 815.76025 4294320005
22.070641 889.43176 815.76025 4294944229
25.340366 889.43176 815.76025 4294957567
14.66422 893.95789 815.65247 4294933968
21.99633 893.95789 815.65247 4294936282
25.255047 893.95789 815.65247 4291525065
17.031193 900.37988 815.83533 4294934218
21.897247 900.37988 815.83533 4294935261
25.141285 900.37988 815.83533 4291587760
14.548624 904.86536 815.69324 4294135450
16.973394 904.86536 815.69324 4294934999
19.398165 904.86536 815.69324 4294945249
21.822937 904.86536 815.69324 4294947302
25.055964 904.86536 815.69324 4291392672
27.480734 904.86536 815.69324 4280483840
20.966972 907.43536 815.24414 4294944235
22.579817 907.43536 815.24414 4294948600
24.192661 907.43536 815.24414 4293561293
11.26422 911.22992 815.82751 4292542564
13.677982 911.22992 815.82751 4294453906
16.896332 911.22992 815.82751 4294927555
20.382874 910.81982 815.48175 4294939622
22.52844 911.22992 815.82751 4294943979
24.137615 911.22992 815.82751 4294947834
13.64679 913.78583 815.36658 4294053231
16.8578 913.78583 815.36658 4294856130
20.068806 913.78583 815.36658 4294939385
22.477064 913.78583 815.36658 4294944214
24.082569 913.78583 815.36658 4294950125
16.799999 916.99756 814.15051 4294519442
19.200001 916.99756 814.15051 4294930887
12.8 918.22083 815.18188 4293853285
16 918.22083 815.18188 4294444637
20.799999 918.22083 815.18188 4294929066
17.176147 951.18182 815.50513 4280684358
18.715597 952.41492 815.23682 4278650679
16.35688 954.83893 815.97266 4284570536
19.472477 954.83893 815.97266 4279048262
22.588074 954.83893 815.97266 4282805405
25.703671 954.83893 815.97266 4292467707
28.819267 954.83893 815.97266 4294967039
16.318348 957.29663 815.42896 4284307646
19.426605 957.29663 815.42896 4281612893
22.534863 957.29663 815.42896 4280639630
25.64312 957.29663 815.42896 4290171122
-3.6036696 749.1897 816.54248 4286197343
0 749.1897 816.54248 4285271905
40.541283 749.1897 816.54248 4294967295
43.244038 749.1897 816.54248 4294967295
-5.4055047 751.25598 818.28473 4288155174
41.442204 750.56726 817.70398 4294967295
43.244038 750.56726 817.70398 4294967295
45.646484 751.4856 818.47833 4294967295
-4.4908257 754.89771 817.43127 4288544808
37.722935 754.21106 816.85229 4294967295
40.417431 754.21106 816.85229 4294967295
43.710705 755.12665 817.62427 4294967295
46.704586 755.58435 818.01025 4294967295
-5.3724771 760.58466 818.30225 4293184504
40.293579 759.21558 817.14783 4294967295
43.875229 759.90015 817.72504 4294967295
-4.4678898 762.77026 817.52911 4294170879
0 762.0871 816.95312 4294950911
35.743118 762.0871 816.95312 4294967295
37.530273 762.0871 816.95312 4294967295
40.21101 762.77026 817.52905 4294967295
42.891743 763.45343 818.1051 4294967295
-4.1571865 766.6109 816.84344 4289377254
-1.7816514 765.70288 816.07776 4294967295
0.59388381 766.15692 816.46063 4293974780
34.742203 765.70288 816.07776 4294967295
37.41468 766.38391 816.65198 4294967295
40.087158 767.06494 817.2262 4294967295
-7.1266055 768.42706 818.37463 4285757615
-4.4403667 770.66809 816.34009 4287073733
0 770.66809 816.34009 4292663284
37.299084 770.66809 816.34009 4294967295
40.026604 769.54761 817.35736 4294967295
42.759632 768.42706 818.37463 4294967295
-7.1045871 773.38385 818.63 4289375712
-4.436697 772.77161 816.80566 4290493156
0.88623852 773.51715 816.12634 4293847807
37.222019 773.51715 816.12634 4294967295
40.259327 772.4787 817.8667 4294967295
-7.0899081 776.22729 818.4115 4285498041
-4.4311924 774.87225 817.26892 4290428398
0 774.87225 817.26892 4293516287
38.994495 774.87225 817.26892 4294967295
40.766972 776.22729 818.4115 4294967295
-4.4174314 779.13116 816.93579 4286747083
0.58899081 778.90601 816.74603 4292660223
3.5339448 778.45575 816.36633 4294560767
38.284405 778.90601 816.74603 4294967295
40.640366 779.80658 817.50537 4294967295
-7.0678897 781.15747 818.64441 4286810803
-5.3009176 781.15747 818.64441 4287271354
40.640366 781.15747 818.64441 4294967295
42.407341 781.15747 818.64441 4294967295
-4.1100917 784.27521 817.34912 4286352068
-1.7614679 783.37744 816.59216 4287406047
0.88073397 784.05078 817.15991 4292860158
3.5229359 783.37744 816.59216 4294958591
38.165134 783.82635 816.9707 4294967295
40.51376 784.72412 817.72766 4294967295
-4.3981652 787.17657 817.83337 4286548412
-1.7559633 788.28235 816.80371 4287865051
0.87798166 787.17657 817.83337 4292730108
38.631191 788.28235 816.80371 4294967295
40.51376 786.0708 818.86304 4294967295
42.27523 786.0708 818.86304 4294967295
-3.5119267 789.62482 817.93567 4288849366
-1.7522936 791.09644 816.56042 4288454864
0.87614679 790.3606 817.24805 4293584629
3.5045872 791.09644 816.56042 4294960127
37.674309 791.09644 816.56042 4294967295
40.387157 789.62482 817.93567 4294967295
42.14312 789.62482 817.93567 4294967295
-4.380734 793.10583 818.2547 4291280631
0 792.43604 817.68994 4292465140
40.302753 792.43604 817.68994 4294967295
42.055046 793.7757 818.81946 4294967295
-3.493578 796.64233 817.3125 4292196598
0.87339449 795.97467 816.74951 4294636028
3.493578 795.97467 816.74951 4294962943
38.429359 795.97467 816.74951 4294967295
40.758411 796.86493 817.50018 4294967295
-3.4862385 800.1059 817.61682 4292449740
-1.7431192 798.77325 816.49316 4293905151
0.87155962 799.43958 817.05499 4294896883
4.3577981 799.43958 817.05499 4290090677
6.972477 798.77325 816.49316 4291952729
37.477066 798.77325 816.49316 4294967295
40.091743 800.1059 817.61682 4294967295
-3.4862385 801.43854 818.74048 4288741460
-1.7376146 803.62488 816.65979 4292553102
0.86880732 803.62488 816.65979 4291577493
4.3440366 803.62488 816.65979 4290718896
40.900002 802.53174 817.70013 4294967295
-3.4752293 805.61755 818.33997 4288742716
-1.7376146 804.95331 817.77991 4293014891
0.86880732 804.95331 817.77991 4290985095
3.4752293 804.95331 817.77991 4292234881
41.702751 804.95331 817.77991 4294967295
43.440369 806.28174 818.90002 4294967295
-3.4642203 809.78381 817.92883 4289399901
-1.7321101 808.45966 816.81226 4293742745
0.57737005 808.90106 817.18439 4292174226
4.3302751 808.45966 816.81226 4294082992
40.993271 808.90106 817.18439 4294967295
43.302753 809.78381 817.92883 4294967295
-1.7284404 811.89374 817.09174 4293741464
1.1522936 812.11395 817.2774 4292041100
4.3211012 811.89374 817.0918 4294147502
37.161469 811.23303 816.53467 4294967295
40.330276 812.11395 817.2774 4294967295
-3.4568808 813.87585 818.76294 4289332050
0.8642202 813.87585 818.76294 4292169869
3.4568808 813.87585 818.76294 4293421723
40.618347 813.87585 818.76294 4294967295
43.21101 813.87585 818.76294 4294967295
-3.4458716 818.01697 818.33057 4289530425
-1.7229358 817.3584 817.77521 4292556656
0.8614679 818.01697 818.33057 4291972461
4.590826 817.39948 816.93799 4294079148
6.8844037 817.4201 816.51935 4294273474
32.116207 817.8797 816.47089 4294967295
34.42202 817.4201 816.51935 4294967295
37.200001 817.38312 817.27283 4294967295
39.627522 818.01697 818.33057 4294967295
-1.7192661 821.42786 818.59058 4292099438
1.7192661 821.42786 818.59058 4291642993
3.4385321 820.77063 818.03644 4292688520
36.964218 820.77063 818.03644 4294967295
-1.7137614 824.89069 817.58618 4291576698
1.7137614 824.89069 817.58618 4291840375
4.2844038 824.2356 817.03381 4292948617
32.561466 823.58051 816.48145 4294967295
35.132111 823.58051 816.48145 4294967295
37.702751 824.89069 817.58618 4294967295
-1.7137614 826.20087 818.69092 4291048292
0.85504586 826.91565 817.98553 4291968392
4.2752295 826.97668 816.729 4292687489
6.8403668 826.323 816.17786 4294003821
32.491745 826.323 816.17786 4294967295
35.056881 826.97668 816.729 4294967295
37.622017 827.63037 817.28015 4294967295
39.416515 826.20087 818.69092 4294967295
-1.7100917 828.93774 818.38257 4289862989
0.85504586 828.93774 818.38257 4291768715
35.911926 828.93774 818.38257 4294967295
37.622017 828.93774 818.38257 4294967295
39.332111 828.93774 818.38257 4294967295
-1.7045871 833.03253 817.91107 4290989710
1.1363914 833.24976 818.09424 4291774335
3.97737 831.51221 816.62921 4292689274
6.8183484 831.07776 816.26294 4294533792
28.977982 831.07776 816.26294 4294967295
31.534863 831.07776 816.26294 4294967295
34.944038 832.38092 817.36169 4294967295
37.500916 833.03253 817.91107 4294967295
40.0578 833.68414 818.46045 4294967295
-1.7009175 836.40558 818.13916 4291254945
1.7009175 836.40558 818.13916 4292171134
3.9688072 835.53864 817.4082 4292497804
32.317432 835.10522 817.04272 4294967295
34.868805 835.75537 817.59094 4294967295
37.420185 836.40558 818.13916 4294967295
39.121101 836.40558 818.13916 4294967295
4.521101 839.39716 816.73737 4293157287
7.6293578 838.53302 816.00879 4293680293
31.365139 838.53302 816.00879 4294967295
34.473392 839.39716 816.73737 4294967295
38.14679 839.82916 817.10168 4294967295
4.2385321 841.12531 818.19458 4292758692
7.612844 842.53802 816.76965 4294076573
10.99633 842.53802 816.76965 4294732994
13.533945 842.53802 816.76965 4294932932
32.14312 842.53802 816.76965 4294967295
34.680733 842.53802 816.76965 4294901759
38.14679 841.12531 818.19458 4294901759
40.689907 841.12531 818.19458 4294967295
1.6917431 845.12469 818.95068 4291912064
4.2293577 844.47803 818.4054 4292626342
7.612844 843.83136 817.86011 4294077075
35.526604 843.83136 817.86011 4294967295
38.346176 844.26245 818.22363 4294901759
40.601833 844.47803 818.4054 4294836223
42.293579 845.12469 818.95068 4294967295
4.2155962 848.52448 817.89319 4293286828
7.5880728 847.87988 817.34967 4293944977
10.96055 847.23529 816.80615 4294603456
35.411011 847.23529 816.80615 4294967295
37.659328 848.09473 817.53082 4294770687
-1.6862385 849.8136 818.9801 4290924667
1.6862385 849.8136 818.9801 4292633252
4.2155962 849.8136 818.9801 4292893356
7.5715594 851.21509 817.54565 4293813410
10.936697 849.92871 816.46106 4294535103
13.46055 849.92871 816.46106 4294860704
31.127522 849.92871 816.46106 4294967295
34.77309 850.35748 816.82257 4294967295
37.900002 850.51434 818.26288 4294901759
40.469727 849.8136 818.9801 4294770687
4.2064219 852.5014 818.63025 4292892844
7.5467887 854.59937 816.47522 4294007727
31.86422 854.59937 816.47522 4294967295
34.379814 854.59937 816.47522 4294967295
37.016514 852.5014 818.63025 4294967295
-1.6770642 857.16364 818.63733 4289396780
0.83853209 857.16364 818.63733 4290117678
4.1926603 855.88147 817.55627 4292291951
7.5302753 857.27728 816.11707 4293936791
10.877064 857.27728 816.11707 4294928558
28.447706 857.27728 816.11707 4294967295
30.957798 857.27728 816.11707 4294967295
34.343121 856.57935 816.83667 4294967295
37.733944 857.16364 818.63733 4294967295
-1.6733944 859.83594 818.27454 4289873792
1.6733944 859.83594 818.27454 4290979435
4.183486 859.19629 817.73511 4292687946
7.5302753 858.55658 817.1958 4293869444
34.583485 858.98309 817.55536 4294967295
36.814678 859.83594 818.27454 4294967295
4.1697249 863.19641 817.18384 4292630908
7.5055046 862.55884 816.6463 4291691363
10.563302 862.34637 816.4671 4293133133
28.354128 861.92126 816.10876 4294967295
30.855965 861.92126 816.10876 4294967295
33.913761 862.7713 816.8255 4294967295
36.693577 863.19641 817.18384 4294967295
-1.66789 864.4715 818.25903 4290727581
1.66789 864.4715 818.25903 4291779208
4.1697249 864.4715 818.25903 4292897192
7.4889908 865.85614 816.81042 4293350549
9.985321 865.85614 816.81042 4294198665
34.116516 865.85614 816.81042 4294967295
37.527523 864.4715 818.25903 4294967295
-1.6642202 868.40076 818.95593 4290133364
1.6642202 868.40076 818.95593 4292106865
4.1605506 867.76465 818.41956 4293026231
7.4844041 868.10938 818.05627 4293615264
10.793578 869.14502 816.96747 4294202802
13.284404 868.51025 816.43225 4294722974
29.059633 868.51025 816.43225 4294967295
31.550459 868.51025 816.43225 4294967295
34.343731 868.47284 817.27271 4294967295
37.42477 868.10938 818.05627 4294967295
39.941284 868.40076 818.95593 4294967295
7.472477 871.04926 818.57312 4293811841
38.192661 871.04926 818.57312 4294967295
39.85321 871.04926 818.57312 4294967295
4.9651375 875.64417 818.52332 4292957597
7.7235475 875.22241 818.16766 4294206106
10.757798 873.74622 816.92297 4293549230
14.06789 873.11359 816.38953 4294864306
16.550459 873.11359 816.38953 4294928571
19.033028 873.11359 816.38953 4294527141
23.170643 873.11359 816.38953 4294614494
25.65321 873.11359 816.38953 4294962175
28.963303 873.11359 816.38953 4294967295
31.445871 873.11359 816.38953 4294967295
33.92844 874.37891 817.45648 4294967295
36.824772 874.69519 817.72314 4294967295
7.4311924 878.27722 818.12732 4294065807
10.458715 877.43555 817.41766 4294273188
14.036697 877.01471 817.06287 4294732213
16.513762 877.01471 817.06287 4294933720
18.990826 877.01471 817.06287 4294939879
22.293579 877.01471 817.06287 4294278860
25.871559 877.43555 817.41766 4294963455
28.899082 877.646 817.59509 4294967295
31.376146 877.646 817.59509 4294967295
33.85321 878.27722 818.12732 4294967295
10.98471 880.4848 817.37262 4293874339
14.005505 879.64502 816.66455 4294798022
16.477064 879.64502 816.66455 4294933723
18.948624 879.64502 816.66455 4294939619
22.244038 879.64502 816.66455 4294938833
25.53945 880.27484 817.19562 4294827263
28.834862 880.90466 817.72668 4294967295
31.306421 880.90466 817.72668 4294967295
7.4146786 882.16437 818.78882 4292488829
10.674313 884.20764 816.58752 4293204372
13.137614 884.20764 816.58752 4293929358
16.422018 884.20764 816.58752 4294933466
18.06422 884.20764 816.58752 4294939120
21.348623 884.20764 816.58752 4294944214
25.454128 884.20764 816.58752 4294696191
28.738533 884.20764 816.58752 4294967295
32.07798 883.18604 817.68817 4294967295
34.601833 882.16437 818.78882 4294967295
4.9266057 886.71857 818.70471 4293873850
7.3899078 885.46313 817.64612 4292758926
10.650459 886.82251 816.17627 4293208215
13.927523 886.82251 816.17627 4294391438
16.385321 886.82251 816.17627 4294927567
18.843121 886.82251 816.17627 4294939102
22.120182 886.82251 816.17627 4294945247
25.397247 886.82251 816.17627 4294892799
28.674313 886.82251 816.17627 4294967295
31.988073 886.14282 816.91119 4294967295
34.48624 885.46313 817.64612 4294967295
36.949539 886.71857 818.70471 4279046293
39.412846 886.71857 818.70471 4278190197
4.9155965 889.32782 818.2887 4292367012
7.373395 888.70148 817.76062 4293684114
10.644037 889.03998 817.39197 4293939346
13.633639 889.81281 816.95361 4294004373
17.166054 890.68164 816.81409 4294258570
19.10153 888.94403 817.09308 4294930885
22.070641 890.68164 816.81409 4294943216
25.340366 890.68164 816.81409 4294957311
28.6422 889.37842 817.02332 4294703871
31.933945 889.03998 817.39197 4287014617
34.409176 888.70148 817.76062 4279710603
36.866974 889.32782 818.2887 4278190153
7.3568811 892.5564 818.3949 4293352610
10.626606 892.5564 818.3949 4294343591
13.078899 892.5564 818.3949 4294936799
17.166054 891.93146 817.86792 4294468255
19.618349 891.93146 817.86792 4294717566
28.610092 891.93146 817.86792 4279173219
32.152294 892.34808 818.21924 4278190178
34.877064 892.76471 818.57056 4278587729
11.405504 896.44922 817.75317 4293680795
14.1211 896.034 817.40302 4294669778
17.379816 895.61884 817.05292 4294470853
19.552294 895.82642 817.22797 4294659468
21.99633 895.20355 816.70276 4294933449
25.255047 895.20355 816.70276 4290535864
28.513762 895.82642 817.22791 4278911008
31.500916 896.034 817.40302 4278190894
34.216515 896.44922 817.75317 4278190114
7.3321099 897.69489 818.80347 4292299724
10.590826 897.69489 818.80347 4293348776
13.818348 899.03735 817.31934 4294600107
16.25688 897.79449 816.27148 4294934483
19.508257 899.03735 817.31934 4294933995
21.946789 897.79449 816.27148 4294935508
25.198166 897.79449 816.27148 4291459001
28.449541 899.03735 817.31934 4279042067
31.700916 899.03735 817.31934 4278255629
35.031193 897.69489 818.80347 4279566371
8.1192665 901.57007 818.14685 4292563869
10.555046 901.57013 818.14685 4294006962
13.51682 902.03326 817.22931 4294597281
17.031193 901.61993 816.88086 4294933972
19.46422 901.61993 816.88086 4294943471
21.897247 901.61993 816.88086 4294941671
25.141285 901.61993 816.88086 4291457198
28.655661 902.03326 817.22931 4278714382
31.629358 902.23993 817.40363 4290426332
34.100918 901.57007 818.14685 4294175487
4.866055 904.10004 818.97205 4291893112
6.4880733 904.10004 818.97205 4292156772
34.873394 904.10004 818.97205 4294703871
4.8495412 908.57288 818.81934 4291429451
7.4359636 907.58417 817.98572 4293139558
10.500917 907.052 816.88281 4294600360
13.72477 907.38483 816.50952 4294796988
16.954128 907.38477 816.50952 4294932428
19.376146 907.38477 816.50952 4294935242
22.579817 908.6684 816.28381 4294945772
25.28746 907.81268 816.43427 4291195802
28.273396 907.05188 816.88293 4279304192
31.68367 907.08984 817.56885 4287599003
34.485626 908.16095 818.47198 4283717015
7.2577982 911.13446 818.36304 4291952727
9.6770639 909.90143 817.32349 4292477027
25.805504 909.90143 817.32349 4294493434
28.493576 910.31244 817.66998 4279828528
31.18165 910.72345 818.01654 4278648875
7.50948 914.51056 818.59357 4292149837
10.191437 912.87018 817.21051 4292673622
25.74679 913.07526 817.38342 4294958079
28.160551 913.69043 817.90204 4293119978
30.574312 914.92065 818.93933 4283650899
8.027523 917.46808 818.47131 4292477776
10.43578 916.24066 817.4364 4293264221
13.914372 915.42236 816.7464 4294577514
17.660551 916.24066 817.4364 4294913668
20.068806 915.62695 816.91895 4294929334
22.477064 916.24066 817.43634 4294931675
24.483944 916.24066 817.4364 4294947066
28.096329 916.85437 817.95386 4294967295
30.504587 917.46808 818.47131 4293256677
11.2 920.05566 816.729 4293527134
13.333333 919.85181 816.55713 4294183265
16.799999 920.05566 816.729 4294909045
20 920.0556 816.729 4294776682
22.4 920.66724 817.24475 4294331548
25.066666 920.25952 816.90088 4294689509
27.733332 920.25952 816.90088 4294967295
30.4 920.66724 817.24475 4294967295
10.4 921.89044 818.27612 4293394778
13.6 921.89044 818.27612 4294314342
16.799999 921.89044 818.27612 4294842743
20 921.89044 818.27612 4294715231
22.4 921.89044 818.27612 4294259343
24.770641 922.54626 817.52106 4294549213
27.93578 923.20215 816.76599 4294967295
31.165138 922.54626 817.52106 4294967295
14.366973 924.42255 817.79492 4294907764
17.519266 926.34021 816.79584 4294909808
19.908257 926.34021 816.79584 4294908259
23.121101 926.29602 818.06659 4294722972
25.511927 925.68579 817.55206 4294358523
27.903671 925.68579 817.55206 4294965503
31.074312 926.013 817.17395 4294967295
34.262386 926.013 817.17395 4293914354
37.513763 925.64294 818.82397 4283649852
13.537615 928.16663 818.33582 4294185575
16.702751 928.81824 817.57721 4294842214
19.862385 929.46985 816.8186 4294906977
23.093578 928.16663 818.33582 4294655637
25.482569 928.16663 818.33582 4293566951
27.840366 928.81824 817.57721 4294964479
31.020184 928.81824 817.57721 4294967295
34.163303 929.46985 816.8186 4294967295
37.427521 928.16663 818.33582 4289178028
13.506422 931.29199 818.35498 4293794666
16.684402 931.29199 818.35498 4294778725
19.862385 931.29199 818.35498 4294645857
23.040367 931.29199 818.35504 4294590623
25.423853 930.68463 817.8429 4293434852
28.072172 931.08954 818.18433 4294965247
30.72049 931.08954 818.18433 4294967295
34.428135 931.08954 818.18433 4294967295
37.341286 931.29199 818.35498 4294835711
39.72477 931.89941 818.86719 4286677127
12.682569 934.40906 818.36719 4289921162
16.645872 934.40906 818.36719 4294511724
19.816513 934.40906 818.36719 4294452584
22.987156 934.40906 818.36719 4294589081
26.157799 933.8031 817.85626 4294363122
28.53578 934.40906 818.36719 4294967295
31.17798 934.00507 818.02655 4294967295
33.820187 934.00507 818.02655 4294967295
37.255047 934.40906 818.36719 4294967295
11.07156 938.12231 818.88208 4289235665
13.444036 938.12231 818.88208 4292789503
16.870949 937.71924 818.54224 4291132841
18.979816 937.5177 818.37231 4292807545
26.888073 938.12231 818.88208 4294962175
28.469725 938.12231 818.88208 4294967295
30.842201 937.5177 818.37231 4294967295
34.005505 937.5177 818.37231 4294967295
17.337614 941.26111 817.60449 4289430215
18.913761 941.26111 817.60449 4291386835
26.794495 941.26111 817.60449 4294962175
29.158714 941.26111 817.60449 4294967295
31.522936 941.26111 817.60449 4294967295
34.675228 941.26111 817.60449 4294967295
9.4568806 942.46613 818.62048 4278779904
12.609175 942.46613 818.62048 4278190183
17.337614 942.46613 818.62048 4291204064
26.763302 943.70898 818.36041 4294960639
29.10734 944.02991 817.97699 4294967295
31.449541 944.35083 817.59357 4294967039
33.808258 943.74976 817.08679 4294769919
32.422016 947.03223 817.23846 4294901247
34.51376 946.8324 817.06995 4294770175
13.334863 948.63141 818.58691 4291929513
15.651376 949.90662 817.04602 4288908740
20.346788 949.90662 817.04602 4280759155
22.722019 949.26904 817.81647 4291994096
25.855965 949.26904 817.81647 4293910496
29.022936 948.63141 818.58691 4294967039
32.122017 949.26904 817.81647 4294967039
35.215599 949.90662 817.04602 4294835199
10.930275 953.56934 817.51819 4288384372
13.288074 952.3363 817.7865 4287659894
16.395412 952.37561 816.51172 4284897184
20.299082 952.37561 816.51172 4278190113
22.641285 952.37561 816.51172 4285684924
25.764221 952.37561 816.51172 4293057522
28.887157 952.37561 816.51172 4294901247
32.01009 952.97247 817.01489 4294572543
34.352295 952.37561 816.51172 4294506239
4.6844039 954.76312 818.52478 4283709015
7.0266056 954.76312 818.52478 4284301342
10.149542 954.76312 818.52478 4283651460
13.241284 956.02985 816.97681 4281087872
28.819267 956.02985 816.97681 4294769919
31.934862 956.02985 816.97681 4294572543
34.271561 956.02985 816.97681 4294572543
46.063301 954.76312 818.52478 4294507263
49.186241 954.76312 818.52478 4294770175
13.241285 957.81628 818.48309 4280955809
16.347706 958.13232 818.09552 4284307388
19.449541 958.44824 817.70801 4281745506
22.534863 959.07886 816.93164 4281814654
25.64312 959.07892 816.93158 4289116896
28.78624 958.44751 817.7074 4294704383
31.934862 957.81628 818.48315 4294375167
35.050461 957.81628 818.48315 4294244095
42.839447 958.41174 818.98523 4294638847
45.955048 958.41174 818.98523 4294507519
48.291744 957.22083 817.98096 4294704383
23.311926 960.86108 818.43433 4283326604
25.64312 960.86108 818.43433 4288065490
48.798164 749.67847 820.87866 4294967295
49.250153 754.24054 820.80127 4294967295
-5.3889909 756.95764 819.16821 4285399101
46.704586 757.64429 819.74719 4294967295
-7.1853213 759.70428 821.48401 4292332287
44.770641 761.95374 819.45667 4294967295
46.561466 761.95374 819.45667 4294967295
-8.0587158 764.00745 821.18829 4285562034
43.78532 764.8197 819.25708 4294967295
46.561466 763.32288 820.61108 4294967295
48.352295 764.69196 821.7655 4294967295
-8.9357796 767.55231 821.56116 4288719567
44.678898 766.18604 820.40918 4294967295
46.466057 766.86914 820.98517 4294967295
-7.1266055 769.78912 819.52319 4289045968
43.650459 769.78912 819.52319 4294967295
-8.9082565 771.15125 820.67163 4289310171
43.947399 771.60529 821.05444 4294967295
46.322937 772.51331 821.82007 4294967295
-8.8807335 775.42065 820.34735 4285823919
43.515594 775.42065 820.34735 4294967295
-7.9761467 778.25989 820.12537 4286415534
43.42569 778.25989 820.12537 4294967295
-7.9651375 781.40039 820.81134 4285954467
43.290825 782.5083 819.78345 4294967295
46.084404 780.29254 821.83923 4294967295
-7.0678897 783.85919 820.92236 4285889703
44.174313 783.85919 820.92236 4294967295
45.941284 783.85919 820.92236 4294967295
-7.6330276 788.31519 820.75555 4288652242
-5.2844038 787.41742 819.99854 4289309136
44.036697 788.09076 820.56628 4294967295
45.798164 788.7641 821.13403 4294967295
-5.26789 790.96729 819.06763 4290100468
42.14312 790.96729 819.06763 4294967295
-7.0238533 792.98096 820.76544 4291012578
43.899082 792.98096 820.76544 4294967295
45.655045 793.65216 821.33142 4294967295
-5.2568808 795.11536 819.9491 4291866345
43.807339 796.45496 821.07861 4294967295
45.559631 796.45496 821.07861 4294967295
-5.2403669 799.31323 819.56451 4290135913
41.922935 798.64551 819.00146 4294967295
43.669724 799.98096 820.12756 4294967295
-6.9871559 801.31641 821.25354 4288086057
-5.2293577 802.77118 819.86414 4287758373
43.57798 802.77118 819.86414 4294967295
45.416515 801.31641 821.25354 4294967295
-5.2293577 804.10382 820.98779 4287440982
45.321102 804.10382 820.98779 4294967295
-5.2128439 808.27429 820.5802 4287309151
45.177982 808.93854 821.14026 4294967295
-4.3302751 811.77014 819.6037 4288155979
43.302753 811.10803 819.04541 4294967295
45.034863 812.43225 820.16199 4294967295
-5.1853213 815.19727 819.8772 4288224853
41.482571 815.19727 819.8772 4294967295
43.21101 815.19727 819.8772 4294967295
45.034863 813.75647 821.27844 4294967295
-5.1853213 816.51862 820.99133 4288355410
41.482571 816.51862 820.99133 4294967295
43.21101 816.51862 820.99133 4294967295
-4.3073397 820.65137 820.55182 4289737047
0 819.99274 819.99646 4292301180
40.77615 820.43182 820.3667 4294967295
-4.011621 823.61847 820.43768 4290129243
0 822.74225 819.69885 4292235133
40.402752 823.39941 820.25293 4294967295
-4.2926607 826.44104 820.85547 4289338424
41.130276 827.51111 819.79565 4294967295
-4.2807341 829.5332 820.19257 4290464116
0 830.24512 819.48486 4291046259
40.187157 830.24512 819.48486 4294967295
-4.2752295 832.20618 821.13843 4290990736
43.607338 832.20618 821.13843 4294967295
-3.97737 835.85614 820.29181 4290663311
0 834.9873 819.55933 4291974012
40.910091 834.9873 819.55933 4294967295
42.614677 835.63892 820.1087 4294967295
-4.2577982 838.29999 821.04443 4290463622
-1.7009175 838.35614 819.78381 4290794639
0.85045874 838.3562 819.78381 4291973496
40.822018 837.70593 819.2356 4294967295
43.421101 838.29999 821.04443 4294967295
-3.401835 840.3067 821.42847 4290464397
-1.6954129 842.42151 819.28735 4290003846
0.84770644 841.36414 820.35791 4291712372
43.304588 841.36414 820.35791 4294967295
-3.3908257 845.01379 821.47314 4290792313
-1.6954129 843.71765 820.38025 4290399104
0 843.71765 820.38025 4292306822
44.080734 845.01379 821.47314 4294967295
-3.3834863 847.71143 821.13171 4290990460
-1.6917431 846.41809 820.04114 4290529398
0.56391436 846.84918 820.4046 4291778690
40.601833 846.41809 820.04114 4294770687
42.857494 847.28027 820.76825 4294835967
-1.6862385 851.10272 820.06714 4291450218
0.84311926 851.10272 820.06714 4292894639
38.783485 851.10272 820.06714 4294967295
40.469727 851.10272 820.06714 4294770687
42.155964 851.10272 820.06714 4294704895
-4.2155962 852.39185 821.15405 4289135415
-1.6825688 853.78772 819.71484 4290514507
0.84128439 853.08978 820.43445 4291302506
37.857796 853.78772 819.71484 4294967295
40.469727 852.39185 821.15405 4294506751
42.155964 852.39185 821.15405 4294704383
-3.9259937 855.93164 821.52264 4289935718
40.381653 855.0741 820.79956 4294770175
42.06422 856.36041 821.88416 4294901759
-3.3541284 859.72791 820.79944 4291125423
0 858.44574 819.71838 4290913642
38.572475 858.44574 819.71838 4294967295
40.249542 859.08679 820.25891 4294967295
-3.9082568 862.35956 821.27435 4290268044
-1.6733944 861.11523 819.35315 4290598823
0.55779815 861.54169 819.71271 4291645328
38.488075 861.11523 819.35315 4294967295
41.307644 862.35956 821.27435 4294901759
-1.66789 865.74664 819.33411 4290859905
0.83394498 865.74664 819.33411 4291648113
40.029358 865.74664 819.33411 4294967295
-3.8917434 867.87183 821.12616 4290331766
-1.6642202 869.6731 820.02869 4289804916
0.55474007 868.78931 820.15558 4291976813
4.1605506 869.6731 820.02869 4292235453
41.651375 868.34741 820.21899 4294967295
43.365139 868.29688 821.4845 4294967295
-3.3284404 870.94537 821.10156 4291717781
-1.6642202 870.94537 821.10156 4291125644
0.83211011 870.94537 821.10156 4291715996
4.1513762 872.31879 819.64343 4291973548
6.6422019 872.31879 819.64343 4293089158
38.192661 872.31879 819.64343 4294967295
40.683487 872.31879 819.64343 4294967295
-4.9816513 874.85779 821.7843 4288151602
-1.6605505 874.85779 821.7843 4290383707
1.1070336 874.43457 821.42749 4291503763
3.321101 873.58832 820.71387 4292957597
40.960247 874.01147 821.07062 4294967295
43.174313 874.85779 821.7843 4294967295
-1.6550459 878.17474 820.65698 4292094820
1.6550459 878.17474 820.65698 4288873555
3.8617737 877.33124 819.94574 4291824724
37.238533 876.90948 819.59009 4294967295
40.272781 877.75299 820.30133 4294967295
-3.3100917 879.44006 821.72388 4288938040
-1.6550459 879.44006 821.72388 4292358508
0.82752293 879.44006 821.72388 4291844468
4.4036698 880.38135 819.90155 4292359540
7.4311924 879.53967 819.19177 4292947315
33.85321 879.53967 819.19177 4294967295
37.155964 880.1709 819.72412 4294967295
40.504585 880.12109 820.99011 4290828014
43.031193 879.44006 821.72388 4285370575
-1.6513761 882.0647 821.3208 4292029279
1.6513761 882.0647 821.3208 4291647829
3.8446484 883.84399 820.20502 4292560553
37.073395 883.42407 819.85095 4293520106
40.703365 882.93774 821.18488 4283390389
-1.6477064 885.94342 821.97522 4293146477
3.2954128 885.94342 821.97522 4292630183
40.302753 886.95874 820.86926 4278190130
1.6422018 890.48499 821.88049 4291648167
4.0999999 889.90503 820.08344 4292301725
36.866974 890.58051 819.34497 4278586944
40.478287 890.09839 820.68243 4279179586
3.8232419 892.25073 820.75323 4292171673
37.686237 891.83319 820.40125 4279510344
39.870945 892.66827 821.10529 4278652981
4.359633 895.26447 820.67822 4292896668
7.3568807 894.43121 819.97571 4292824762
9.8091745 894.43121 819.97571 4293680795
35.966972 894.43121 819.97571 4278190099
37.601833 895.05615 820.50262 4278255642
40.054131 895.68109 821.02954 4278190101
4.8880734 898.94055 819.85376 4293157811
6.5174313 898.94055 819.85376 4293091514
35.845871 898.94055 819.85376 4294637823
37.475231 898.94055 819.85376 4290295492
1.6293578 901.43182 821.95435 4290186575
3.7993886 901.04608 820.75714 4292624542
6.5027523 901.52307 819.41528 4293351829
35.765137 901.52307 819.41528 4294966271
37.390827 902.14453 819.93927 4292201180
39.87431 901.47601 820.68372 4281547135
42.363304 901.43182 821.95435 4278190080
1.6256881 904.00879 821.51111 4290381126
4.0587158 904.67444 820.76434 4291297351
35.684402 905.34009 820.01758 4294044158
38.117432 905.34009 820.01758 4285296251
40.6422 904.00879 821.51111 4278324499
1.6220183 906.58014 821.06311 4291169105
3.2440367 906.58014 821.06311 4291495244
38.117432 906.58014 821.06311 4278190188
40.550457 906.58014 821.06311 4279310696
4.0412846 910.42664 820.38232 4291691340
34.755043 910.42664 820.38232 4278848814
37.988075 910.42664 820.38232 4279441729
40.412846 911.04456 820.90332 4280494157
-1.6165137 912.2804 821.94543 4288938026
1.6165137 912.2804 821.94543 4291367770
