# .PCD v0.7 - Point Cloud Data file format
VERSION 0.7
FIELDS x y z rgb
SIZE 4 4 4 4
TYPE F F F U
COUNT 1 1 1 1
WIDTH 1164
HEIGHT 1
VIEWPOINT 0 0 0 1 0 0 0
POINTS 1164
DATA ascii
-22.765137 809.46704 1291.1686 4291782579
-19.170643 809.46704 1291.1686 4292313557
-16.774311 809.46704 1291.1686 4293037023
-14.377981 809.46704 1291.1686 4290417893
-10.783486 809.46704 1291.1686 4288978416
-7.1889906 809.46704 1291.1686 4290368255
-4.7926607 809.46704 1291.1686 4291354879
-2.3963304 809.46704 1291.1686 4292473343
0 809.46704 1291.1686 4292799743
-28.755962 811.29907 1292.7133 4290336400
-26.359632 811.29907 1292.7133 4289744520
-23.963303 811.29907 1292.7133 4290398863
-16.774311 811.29907 1292.7133 4292904408
-2.3963304 811.29907 1292.7133 4292997887
0 811.29907 1292.7133 4292931071
-21.484404 817.56201 1291.4539 4292372145
-19.097248 817.56201 1291.4539 4291783363
-2.387156 817.56201 1291.4539 4292995839
0 817.56201 1291.4539 4292734463
-22.677982 819.38696 1292.9927 4290795420
-2.387156 819.38696 1292.9927 4292469759
0 819.38696 1292.9927 4292208383
-21.418348 823.27979 1291.0428 4291518378
-19.038532 823.27979 1291.0428 4291782334
-16.658716 823.27979 1291.0428 4291716540
-7.1394496 823.27979 1291.0428 4293709823
-4.7596331 823.27979 1291.0428 4292930047
-2.3798165 823.27979 1291.0428 4292732415
-21.418348 825.09918 1292.5769 4291650734
-2.3798165 825.09918 1292.5769 4292863999
0 825.09918 1292.5769 4292471551
-26.077065 833.11414 1292.7947 4288828812
-22.125994 832.51001 1292.2853 4290861471
-18.965137 831.30176 1291.2666 4291389370
-7.1119266 832.20795 1292.0306 4293780474
-4.7412844 831.30176 1291.2666 4292601343
-2.3706422 832.20795 1292.0306 4292863999
0 832.20795 1292.0306 4292340223
-21.25321 839.28162 1291.4548 4291322033
-18.891743 839.28162 1291.4548 4290732210
-16.530275 839.28162 1291.4548 4292442828
-14.168807 839.28162 1291.4548 4291602374
-10.626606 839.28162 1291.4548 4294041333
-7.0844035 839.28162 1291.4548 4292992751
-4.7229357 839.28162 1291.4548 4292534271
-25.976147 841.08698 1292.9771 4288829592
-22.433945 841.08698 1292.9771 4290664091
-18.891743 841.08698 1292.9771 4290601137
-16.530275 841.08698 1292.9771 4292443341
-14.168807 841.08698 1292.9771 4291931355
-10.626606 841.08698 1292.9771 4293646073
-7.0844035 841.08698 1292.9771 4292334574
-4.7229357 841.08698 1292.9771 4292007934
-2.3614678 841.08698 1292.9771 4292731647
0 841.08698 1292.9771 4292076031
-9.409174 845.42102 1290.0913 4292795386
-7.056881 845.42102 1290.0913 4291940077
-4.704587 845.42102 1290.0913 4291416826
-14.113762 847.21942 1291.6075 4291929581
-10.585321 847.21942 1291.6075 4293909245
-7.056881 847.21942 1291.6075 4291743468
-4.704587 847.21942 1291.6075 4291154942
-2.3522935 847.21942 1291.6075 4292404991
0 847.21942 1291.6075 4292536831
-14.058716 853.32373 1290.2145 4291139819
-10.544037 853.32373 1290.2145 4293908479
-7.0293579 853.32373 1290.2145 4291742966
-4.6862388 853.32373 1290.2145 4291220217
-2.3431194 853.32373 1290.2145 4292470015
0 853.32373 1290.2145 4292405503
-14.058716 855.11505 1291.7249 4291399912
-10.544037 855.11505 1291.7249 4294104063
-7.0293579 855.11505 1291.7249 4292004089
-4.6862388 855.11505 1291.7249 4291154422
-2.3431194 855.11505 1291.7249 4292601855
0 855.11505 1291.7249 4292471551
-25.693579 860.68701 1291.1909 4288896141
-22.189907 860.68701 1291.1909 4290403497
-14.014679 860.68701 1291.1909 4291203816
-10.511009 860.68701 1291.1909 4291866622
-7.0073395 860.68701 1291.1909 4293121535
-30.365137 862.47278 1292.6965 4289555377
-28.029358 862.47278 1292.6965 4289883560
-25.693579 862.47278 1292.6965 4288896665
-22.189907 862.47278 1292.6965 4290799018
-14.014679 862.47278 1292.6965 4289889232
-10.511009 862.47278 1292.6965 4289564890
-7.0073395 862.47278 1292.6965 4293188095
-9.2036695 889.48596 1290.6208 4290493371
-6.9027524 889.48596 1290.6208 4292072403
-16.106422 891.245 1292.104 4291073490
-13.805505 891.245 1292.104 4290548948
-10.354128 891.245 1292.104 4290816204
-6.9027524 891.245 1292.104 4292267736
-4.6018348 891.245 1292.104 4291023604
-10.312843 898.90363 1292.0215 4290484186
-6.8752294 898.90363 1292.0215 4290616544
-4.5834861 898.90363 1292.0215 4289836023
-11.376146 911.88733 1291.1967 4292196323
-19.339451 913.62671 1292.6633 4291731684
-15.926605 913.62671 1292.6633 4288706244
-13.651376 913.62671 1292.6633 4288307847
-11.376146 913.62671 1292.6633 4292123841
-15.592661 951.33563 1290.4497 4283852207
-13.365138 951.33563 1290.4497 4284971913
-2.2275229 953.03857 1291.8856 4284570745
0 953.03857 1291.8856 4284702079
-15.541285 958.21503 1291.0181 4292870143
-11.100918 959.06372 1291.7336 4293721596
0 959.06372 1291.7336 4283980410
-16.227524 964.49677 1291.0826 4294311935
-13.277064 965.06067 1291.5581 4294311935
-7.7449541 964.21472 1290.8448 4288861693
-4.4256883 964.21478 1290.8448 4292403199
-2.2128441 964.21478 1290.8448 4284376216
-34.473396 758.60126 1295.3689 4291853810
-32.011009 757.66003 1294.5752 4292382965
7.387156 756.71875 1293.7816 4293720575
9.8495417 757.66003 1294.5752 4293786623
12.311927 758.60126 1295.3689 4293720575
-31.891743 766.02905 1295.0917 4289671296
-29.438532 765.09131 1294.301 4289865340
2.4532111 766.02905 1295.0917 4293128959
4.9064221 766.02905 1295.0917 4293128703
7.359633 765.09131 1294.301 4293786879
9.8128443 766.02905 1295.0917 4293392127
13.083793 766.34161 1295.3552 4293392639
-31.772476 773.42188 1294.7849 4289151127
-29.32844 773.42188 1294.7849 4289802620
-26.069723 772.17627 1293.7346 4291052694
2.4440367 772.48767 1293.9972 4292996863
4.8880734 772.48767 1293.9972 4293062655
7.3321099 772.48767 1293.9972 4293325823
9.7761469 772.48767 1293.9972 4293063679
13.442202 773.42188 1294.7849 4292932351
17.108257 773.42188 1294.7849 4292997887
-26.783485 779.84888 1293.6639 4288695173
-2.4348624 779.84888 1293.6639 4292799487
0 779.84888 1293.6639 4292602111
-29.218349 781.71033 1295.2334 4288958622
-26.783485 781.71033 1295.2334 4288169363
2.4348624 781.71033 1295.2334 4292931071
4.8697248 781.71033 1295.2334 4292734463
7.3045874 781.71033 1295.2334 4292800255
17.044037 781.71033 1295.2334 4293195263
-29.086239 788.63611 1293.2249 4288630664
2.4238532 788.63611 1293.2249 4292800511
4.8477063 788.63611 1293.2249 4292734463
-31.510092 790.48914 1294.7874 4289748393
-29.086239 790.48914 1294.7874 4288960914
7.2715597 790.48914 1294.7874 4292866559
-31.390825 796.8432 1293.6047 4289675406
-28.976147 796.8432 1293.6047 4289608837
4.8293576 796.8432 1293.6047 4292669439
7.2440367 796.8432 1293.6047 4292735231
-33.805504 798.68921 1295.1613 4289016961
7.2440367 798.68921 1295.1613 4293128447
9.6587152 798.68921 1295.1613 4293062911
-33.677063 805.92767 1294.7244 4289416851
-31.271559 805.92767 1294.7244 4289482389
-28.866055 805.92767 1294.7244 4289677963
-26.46055 805.00818 1293.9491 4290928029
2.4055047 805.92767 1294.7244 4292799743
4.8110094 805.92767 1294.7244 4292931327
7.2165136 805.92767 1294.7244 4292865535
-33.548622 814.04712 1295.0303 4288691839
-31.152294 814.04712 1295.0303 4289020804
-28.755962 814.04712 1295.0303 4289610122
-26.359632 814.04712 1295.0303 4289939344
-23.963303 814.04712 1295.0303 4290200462
2.3963304 814.96313 1295.8027 4292800255
4.7926607 814.96313 1295.8027 4292735231
-23.871559 821.21198 1294.5314 4289939346
0 821.21198 1294.5314 4292339967
-23.798164 826.91858 1294.111 4289546385
0 826.91858 1294.111 4292537343
-26.177982 828.73798 1295.645 4288630945
-23.798164 828.73798 1295.645 4289347207
2.3798165 828.73798 1295.645 4292274943
-30.818348 834.92651 1294.3229 4290079143
-28.447706 835.8327 1295.0869 4290210217
-26.077065 835.8327 1295.0869 4288828564
-22.916208 835.53058 1294.8322 4290335131
-7.1119266 834.92651 1294.3229 4292993523
-2.3706422 835.8327 1295.0869 4292995071
0 835.8327 1295.0869 4292273919
-28.337614 842.89233 1294.4993 4289814170
-25.976147 842.89233 1294.4993 4289287826
-22.433945 842.89233 1294.4993 4290599840
-18.891743 842.89233 1294.4993 4290800313
-16.530275 842.89233 1294.4993 4292708310
-14.168807 842.89233 1294.4993 4291930855
-11.80734 842.89233 1294.4993 4294957823
-2.3614678 842.89233 1294.4993 4292601343
0 842.89233 1294.4993 4292601855
-30.579817 850.8161 1294.6403 4289292453
-28.227524 850.8161 1294.6403 4290079393
-25.875229 849.91693 1293.8821 4289090957
-22.34679 849.91693 1293.8821 4290599839
-18.818348 849.91693 1293.8821 4290866113
-16.466055 849.91693 1293.8821 4292050387
-14.113762 849.01776 1293.1239 4291666159
1.1761467 849.91693 1293.8821 4292273919
-28.117432 856.90637 1293.2354 4289883047
-25.774311 856.90637 1293.2354 4288961945
-22.259632 856.90637 1293.2354 4290337954
-18.744955 856.90637 1293.2354 4290866108
-16.401834 856.90637 1293.2354 4292642519
-14.058716 856.90637 1293.2354 4291595237
-4.6862388 856.90637 1293.2354 4291417596
1.1715597 856.90637 1293.2354 4292208127
-31.632111 858.69775 1294.7457 4289423273
-28.117432 858.69775 1294.7457 4290014365
-18.744955 858.69775 1294.7457 4290801347
-16.401834 858.69775 1294.7457 4292643551
-4.6862388 858.69775 1294.7457 4292141567
-2.3431194 858.69775 1294.7457 4292207359
1.1715597 858.69775 1294.7457 4292339711
-30.365137 865.15137 1294.9551 4289354402
-28.029358 865.15137 1294.9551 4289747864
-25.693579 865.15137 1294.9551 4289353106
-22.189907 865.15131 1294.9551 4290732974
-18.686239 865.15137 1294.9551 4291528409
-16.350458 865.15137 1294.9551 4291791580
-14.014679 865.15137 1294.9551 4290153417
-10.511009 865.15137 1294.9551 4289301444
-7.0073395 865.15137 1294.9551 4293449727
-4.6715598 865.15137 1294.9551 4292732159
-2.3357799 865.15137 1294.9551 4292271359
0 865.15137 1294.9551 4291747839
-16.286238 872.06714 1294.2462 4291464151
-13.959633 872.06714 1294.2462 4289892555
-9.3064222 872.06714 1294.2462 4288715944
-2.3266056 872.06714 1294.2462 4292402943
0 872.06714 1294.2462 4292076543
-23.266054 873.84589 1295.746 4289419425
-19.776146 873.84589 1295.746 4292185816
-16.286238 873.84589 1295.746 4291267542
-13.959633 873.84589 1295.746 4289760461
-10.469725 873.84589 1295.746 4289567424
-6.9798164 873.84589 1295.746 4290032319
-4.6532111 873.84589 1295.746 4290758399
-2.3266056 873.84589 1295.746 4292403199
0 873.84589 1295.746 4292142335
-16.222019 881.60553 1295.7485 4290742218
-13.904587 881.60553 1295.7485 4288775868
-10.428441 880.71967 1295.0016 4290622919
-6.9522934 880.71967 1295.0016 4290166955
-4.6348624 880.71967 1295.0016 4290431483
-2.3174312 881.60553 1295.7485 4291878911
0 881.60553 1295.7485 4291617535
-16.170643 887.07654 1295.1294 4290612174
-13.860551 887.07654 1295.1294 4290022083
-10.780429 885.89911 1294.1366 4290684874
-6.9302754 885.31042 1293.6403 4291087293
-4.6201835 886.19348 1294.3848 4290629625
-2.3100917 886.19348 1294.3848 4291748351
0 887.07654 1295.1294 4291880191
-16.106422 893.00409 1293.5872 4291270872
-13.805505 893.00409 1293.5872 4291205077
-10.354128 893.00409 1293.5872 4290617039
-6.9027524 893.00409 1293.5872 4290292174
-4.6018348 893.00409 1293.5872 4290102002
-2.3009174 893.00409 1293.5872 4292075775
0 893.00409 1293.5872 4292142335
-18.407339 894.76312 1295.0704 4291534814
-16.106422 894.76312 1295.0704 4291140056
-13.805505 894.76312 1295.0704 4291601622
-10.354128 894.76312 1295.0704 4291143133
-6.9027524 894.76312 1295.0704 4290224348
-4.6018348 894.76312 1295.0704 4289706744
-2.3009174 894.76312 1295.0704 4292009471
0 894.76312 1295.0704 4292142335
-25.209175 902.40771 1294.9761 4289617813
-22.917431 902.40771 1294.9761 4289228988
-20.625689 902.40771 1294.9761 4291992294
-16.042202 902.40771 1294.9761 4292260079
-13.750459 902.40771 1294.9761 4291145727
-10.312844 901.53168 1294.2374 4288646877
-6.8752294 901.53168 1294.2374 4289636086
-4.5834861 901.53168 1294.2374 4290296572
-2.291743 902.40771 1294.9761 4290164223
0 902.40771 1294.9761 4289705459
-20.559633 907.79456 1294.2859 4291929056
-15.990826 907.79456 1294.2859 4291470054
-13.706422 907.79456 1294.2859 4289695953
-10.279816 907.79456 1294.2859 4291410418
-22.844036 909.54102 1295.7584 4289427888
-19.417431 909.54102 1295.7584 4292455655
-15.990826 909.54102 1295.7584 4290812119
-13.706422 909.54102 1295.7584 4289367224
-9.1376143 909.54102 1295.7584 4291742207
-6.8532109 909.54102 1295.7584 4290492159
-4.5688071 909.54102 1295.7584 4287865042
-19.718655 915.94598 1294.6188 4291596499
-15.926605 916.2359 1294.8633 4288766895
-13.651376 916.2359 1294.8633 4288240521
-10.617737 916.52582 1295.1078 4290876107
-6.8256879 917.10559 1295.5967 4288317142
-4.5504589 917.10559 1295.5967 4286679230
-20.113762 949.54834 1294.1748 4285694150
-4.4697247 949.54834 1294.1748 4286743197
-11.174312 951.25696 1295.6155 4286025148
2.2348623 951.25696 1295.6155 4284833921
4.4697247 951.25696 1295.6155 4284768124
-17.820183 956.44452 1294.7573 4290241023
-13.365138 956.44452 1294.7573 4294967295
-11.137614 954.74158 1293.3215 4288790271
-6.682569 955.59302 1294.0394 4285496488
-4.4550457 954.74158 1293.3215 4285098886
0 954.74158 1293.3215 4284308859
-11.100918 961.60974 1293.8804 4290437088
-19.981651 963.30707 1295.3115 4293983487
-11.100918 963.30707 1295.3115 4290301400
0 963.30707 1295.3115 4281418353
-36.93578 760.48376 1296.9562 4289016195
-34.473396 760.48376 1296.9562 4289671339
13.543119 760.48376 1296.9562 4293523455
-36.93578 762.36627 1298.5435 4288751994
-34.473396 762.36627 1298.5435 4289209465
14.774312 762.36627 1298.5435 4293523455
-34.344955 768.84229 1297.4637 4289543293
-31.891743 768.84229 1297.4637 4289279865
-29.438532 768.84229 1297.4637 4289868163
13.492661 768.84229 1297.4637 4293589759
17.172478 768.84229 1297.4637 4293523967
19.625689 768.84229 1297.4637 4293392895
-34.216515 775.29034 1296.3604 4290272706
-31.772476 775.29034 1296.3604 4289548726
-29.32844 775.29034 1296.3604 4290006404
2.4440367 775.29034 1296.3604 4292799743
4.8880734 775.29034 1296.3604 4292931071
7.3321099 775.29034 1296.3604 4293128703
9.7761469 775.29034 1296.3604 4293062911
13.442202 775.29034 1296.3604 4293260543
17.108257 775.29034 1296.3604 4293326847
-36.660549 777.15887 1297.9358 4289224363
-34.216515 777.15887 1297.9358 4289943219
-31.772476 777.15887 1297.9358 4290140854
-29.32844 777.15887 1297.9358 4289748118
2.4440367 777.15887 1297.9358 4292733695
4.8880734 777.15887 1297.9358 4292733951
7.3321099 777.15887 1297.9358 4292931071
9.7761469 777.15887 1297.9358 4292603647
13.442202 777.15887 1297.9358 4292735231
17.108257 777.15887 1297.9358 4292867327
-34.088074 785.43329 1298.3726 4289550501
-31.653212 784.50256 1297.5878 4289616292
-29.218349 783.57184 1296.803 4288236171
4.8697248 783.57184 1296.803 4292800255
7.3045874 784.50256 1297.5878 4292866047
9.7394495 785.43329 1298.3726 4292997119
14.609175 785.43329 1298.3726 4292931071
17.044037 784.50256 1297.5878 4293063167
-33.933945 793.26868 1297.131 4289942166
9.6954126 793.26868 1297.131 4292799999
13.331193 793.26868 1297.131 4292931583
16.966972 793.26868 1297.131 4293063167
19.390825 793.26868 1297.131 4292866559
21.814678 794.19525 1297.9122 4292735231
-33.805504 800.53528 1296.7178 4288955016
9.6587152 800.53528 1296.7178 4292930559
14.488073 800.53528 1296.7178 4292931071
16.902752 800.53528 1296.7178 4292799743
19.31743 800.53528 1296.7178 4292406783
-36.220184 802.38135 1298.2743 4288366992
9.6587152 802.38135 1298.2743 4292930559
13.280734 802.38135 1298.2743 4293260031
16.902752 802.38135 1298.2743 4293194751
19.31743 802.38135 1298.2743 4292932095
-36.082569 808.68622 1297.0503 4290736809
-33.677063 808.68622 1297.0503 4290605710
-31.271559 808.68622 1297.0503 4290539917
2.4055047 808.68622 1297.0503 4292733951
4.8110094 808.68622 1297.0503 4292866047
7.2165136 808.68622 1297.0503 4292931839
-37.285324 810.52527 1298.601 4288564868
2.4055047 810.52527 1298.601 4292799999
4.8110094 810.52527 1298.601 4292735231
7.2165136 810.52527 1298.601 4292866559
-34.347401 818.01642 1298.3772 4289485199
-31.152294 817.71118 1298.1198 4289616015
-28.755962 817.71118 1298.1198 4289876874
-26.359632 817.71118 1298.1198 4289547909
2.3963304 817.71118 1298.1198 4292537343
4.7926607 817.71118 1298.1198 4292603391
7.1889906 817.71118 1298.1198 4292603647
9.5853214 817.71118 1298.1198 4292668927
-28.645872 824.862 1297.609 4290275264
-26.258715 823.94946 1296.8396 4288959140
-23.871559 823.03699 1296.0702 4289742737
2.387156 823.94946 1296.8396 4292603391
4.774312 823.94946 1296.8396 4292406271
7.161468 824.862 1297.609 4292669183
-28.557798 830.55737 1297.1791 4290078623
2.3798165 830.55737 1297.1791 4292405759
4.7596331 830.55737 1297.1791 4292339967
7.1394496 830.55737 1297.1791 4292537343
-34.507339 832.37677 1298.7131 4289027228
2.3798165 832.37677 1298.7131 4292208895
4.7596331 832.37677 1298.7131 4292405247
7.1394496 832.37677 1298.7131 4292799999
-37.930275 838.55127 1297.3792 4288568212
-34.374313 838.55127 1297.3792 4289093788
-30.818348 838.55127 1297.3792 4290277038
-28.447706 838.55127 1297.3792 4290408367
2.3706422 838.55127 1297.3792 4292273407
-37.930275 840.36365 1298.9072 4287842447
-34.374313 840.36365 1298.9072 4289157786
-30.818348 840.36365 1298.9072 4289683865
2.3706422 840.36365 1298.9072 4292272895
4.7412844 840.36365 1298.9072 4292076799
7.1119266 840.36365 1298.9072 4292537343
-34.241287 844.69769 1296.0215 4288432521
-30.699083 844.69769 1296.0215 4288891021
-28.337614 844.69769 1296.0215 4289021315
-25.976147 844.69769 1296.0215 4289613195
-22.433945 844.69769 1296.0215 4290534297
-18.891743 844.69769 1296.0215 4290669245
-16.530275 844.69769 1296.0215 4291985105
2.3614678 844.69769 1296.0215 4292273663
-37.783485 846.50305 1297.5438 4288305033
-34.241287 846.50305 1297.5438 4288697489
-30.699083 846.50305 1297.5438 4288827543
-28.337614 846.50305 1297.5438 4289089416
2.3614678 846.50305 1297.5438 4292076799
4.7229357 846.50305 1297.5438 4292076799
7.0844035 846.50305 1297.5438 4292603135
-31.363914 853.81329 1297.1674 4289423524
-28.227524 852.61444 1296.1565 4290145450
-25.875229 852.61444 1296.1565 4289290397
-22.34679 852.61444 1296.1565 4290600874
-18.818348 852.61444 1296.1565 4291128515
-16.466055 852.61444 1296.1565 4292510168
2.3522935 852.61444 1296.1565 4292339967
4.704587 853.51361 1296.9147 4291617279
-32.803669 860.48901 1296.2561 4288568482
-18.744955 860.48901 1296.2561 4291461841
-16.401834 860.48901 1296.2561 4291790806
-4.6862388 860.48901 1296.2561 4292667647
-2.3431194 860.48901 1296.2561 4292272895
1.1715597 860.48901 1296.2561 4292011263
-35.14679 862.2804 1297.7666 4288831650
-32.803669 862.2804 1297.7666 4289224613
2.3431194 862.2804 1297.7666 4291945727
-31.14373 868.42511 1297.7155 4288630406
-28.029358 868.72278 1297.9664 4289418635
-25.693579 868.72278 1297.9664 4289287049
-22.189907 868.72278 1297.9664 4290996919
-18.686239 868.72278 1297.9664 4291793369
-16.350458 867.82996 1297.2136 4291596243
-14.014679 867.82996 1297.2136 4290549450
-10.900306 868.42523 1297.7155 4290025670
-7.0073395 868.72278 1297.9664 4291083471
-4.6715598 868.72278 1297.9664 4291350271
-2.3357799 867.82996 1297.2136 4292205823
1.16789 868.72278 1297.9664 4291944959
-23.266054 875.62457 1297.2457 4289354405
-19.776146 875.62457 1297.2457 4292120535
-16.286238 875.62457 1297.2457 4291136722
-13.959633 875.62457 1297.2457 4289628100
-10.469725 875.62457 1297.2457 4290554050
-6.9798164 875.62457 1297.2457 4290229934
-4.6532111 875.62457 1297.2457 4290627326
-2.3266056 875.62457 1297.2457 4292140543
0 875.62457 1297.2457 4291813631
-27.919266 877.40332 1298.7455 4289421715
-23.266054 877.40332 1298.7455 4289684910
-19.776146 877.40332 1298.7455 4291989973
-16.286238 877.40332 1298.7455 4291400145
-13.959633 877.40332 1298.7455 4289762000
-2.3266056 877.40332 1298.7455 4291944447
0 877.40332 1298.7455 4291813887
4.6532111 877.40332 1298.7455 4291485439
6.9798164 877.40332 1298.7455 4291814399
9.3064222 877.40332 1298.7455 4291617279
-19.698166 883.3772 1297.2424 4292188635
-16.222019 883.3772 1297.2424 4290414533
-13.904587 883.3772 1297.2424 4289432263
0 883.3772 1297.2424 4291879935
-23.174313 885.14893 1298.7362 4289687731
-19.698166 885.14893 1298.7362 4291926235
2.3174312 885.14893 1298.7362 4291945983
-25.411009 890.60864 1298.1077 4290078623
-23.100918 890.60864 1298.1077 4290282432
-19.250765 890.01996 1297.6113 4291796700
-2.3100917 888.84259 1296.6185 4292207871
1.1550459 889.72559 1297.363 4292142335
4.6201835 890.60864 1298.1077 4291485951
-23.009174 896.52222 1296.5536 4289755584
-19.557798 896.52222 1296.5536 4291599583
-16.106422 896.52222 1296.5536 4291601635
-13.805505 896.52222 1296.5536 4291996909
-2.3009174 896.52222 1296.5536 4292402175
0 896.52222 1296.5536 4292207871
-27.61101 898.28125 1298.0369 4287711612
-25.310091 898.28125 1298.0369 4289619609
-23.009174 898.28125 1298.0369 4289492676
-19.557798 898.28125 1298.0369 4291600095
-16.106422 898.28125 1298.0369 4292062434
-13.805505 898.28125 1298.0369 4291669755
-2.3009174 898.28125 1298.0369 4292534271
0 898.28125 1298.0369 4292798207
-27.500917 905.03583 1297.192 4287579514
-25.209175 905.03583 1297.192 4289224339
-22.917431 905.03583 1297.192 4289099192
-19.09786 904.74384 1296.9458 4291929321
-16.042202 904.15979 1296.4534 4292851703
-13.750459 904.15979 1296.4534 4290947053
-10.312843 904.15979 1296.4534 4289437403
-6.8752294 905.03583 1297.192 4291941119
-4.5834861 905.03583 1297.192 4288985087
-2.291743 905.03583 1297.192 4285629913
0 905.03583 1297.192 4285823915
-22.844036 911.28748 1297.231 4289493683
-9.1376143 911.28748 1297.231 4289374719
-6.8532109 911.28748 1297.231 4286743256
-4.5688071 911.28748 1297.231 4285167793
-2.2844036 911.28748 1297.231 4284312484
0 911.28748 1297.231 4285491595
-25.128441 913.03394 1298.7036 4289421713
-22.844036 913.03394 1298.7036 4289820084
-9.1376143 913.03394 1298.7036 4289767642
-6.8532109 913.03394 1298.7036 4286477992
-4.5688071 913.03394 1298.7036 4285036958
-2.2844036 913.03394 1298.7036 4284115856
0 913.03394 1298.7036 4284770954
-19.339451 919.71472 1297.7966 4288244393
-15.926605 919.71472 1297.7966 4288175002
-13.651376 919.71472 1297.7966 4288630925
-10.238532 919.71472 1297.7966 4290280897
-6.8256879 919.71472 1297.7966 4291536111
-4.5504589 919.71472 1297.7966 4289111259
-2.2752295 919.71472 1297.7966 4286479539
0 920.58447 1298.5299 4286086301
-11.33945 924.16736 1296.3187 4287650962
-22.605505 932.92358 1298.4697 4280172915
-20.344954 932.92358 1298.4697 4285436611
-27.016514 940.3634 1298.2025 4282468213
-24.765137 940.3634 1298.2025 4281612904
-4.5027523 940.3634 1298.2025 4287468478
-25.806423 947.31421 1298.8313 4287141331
-22.440367 947.31421 1298.8313 4286483410
-17.952293 947.31421 1298.8313 4284444345
-6.73211 947.31421 1298.8313 4287207065
-4.4880733 945.59863 1297.3848 4286743724
-2.2440367 947.31421 1298.8313 4284177270
1.1220183 947.31421 1298.8313 4284570498
-16.761467 952.96552 1297.056 4282547093
-13.409174 952.96552 1297.056 4287342832
-2.2348623 952.96552 1297.056 4284309626
2.2348623 952.96552 1297.056 4284572030
4.4697247 952.96552 1297.056 4284702333
-25.700916 954.67407 1298.4967 4288133622
-22.348623 954.67407 1298.4967 4288267518
-20.113762 954.67407 1298.4967 4289846527
-2.2348623 954.67407 1298.4967 4283654290
2.2348623 954.67407 1298.4967 4284505983
4.4697247 954.67407 1298.4967 4284702585
-31.185322 959.85046 1297.6292 4289775871
-28.957798 959.85046 1297.6292 4290170623
-24.502752 959.85046 1297.6292 4291880703
-22.275229 958.99896 1296.9111 4293129983
-20.047707 958.99896 1296.9111 4293656063
-17.820183 958.99896 1296.9111 4294180863
-13.365138 958.99896 1296.9111 4294377471
0 959.85046 1297.6292 4283125616
-15.541285 965.00439 1296.7427 4291682303
-7.7706423 965.00439 1296.7427 4293918207
-4.4403667 965.00439 1296.7427 4293194239
-2.2201834 965.00439 1296.7427 4284443791
-43.252296 755.86212 1299.5995 4290077344
-39.544952 755.86212 1299.5995 4291264948
-37.073395 755.86212 1299.5995 4291199155
14.829358 755.86212 1299.5995 4293720575
-43.252296 757.75165 1301.1926 4287637624
-39.544952 757.75165 1301.1926 4288358265
-36.93578 764.24878 1300.1307 4289084550
-34.473396 764.24878 1300.1307 4289475452
17.236698 764.24878 1300.1307 4293458943
19.699083 764.24878 1300.1307 4293392895
-39.398167 766.13135 1301.718 4289220756
-36.93578 766.13135 1301.718 4288760205
-36.798164 770.71783 1299.0452 4289484969
-34.344955 770.71783 1299.0452 4290138022
-36.798164 772.59332 1300.6265 4290802895
-36.660549 779.02734 1299.5114 4289288857
-34.216515 779.02734 1299.5114 4289747362
-31.772476 779.02734 1299.5114 4290273706
9.7761469 779.02734 1299.5114 4292800255
13.442202 779.02734 1299.5114 4293063423
-36.660549 780.89581 1301.0868 4289354405
-34.216515 780.89581 1301.0868 4289747877
9.7761469 780.89581 1301.0868 4292733951
13.442202 780.89581 1301.0868 4292865535
-36.522934 787.2948 1299.942 4289749158
-34.088074 787.2948 1299.942 4289748393
9.7394495 787.2948 1299.942 4293062911
13.391743 787.2948 1299.942 4292865791
17.044037 787.2948 1299.942 4293129215
19.478899 787.2948 1299.942 4292801535
-36.522934 789.15625 1301.5116 4290472104
-36.3578 796.97485 1300.2559 4288494727
12.927218 796.66602 1299.9955 4293260031
16.966972 796.04828 1299.4746 4292799999
19.390825 796.04828 1299.4746 4292537855
21.814678 797.90137 1301.0371 4292801535
-37.427521 805.15039 1300.6091 4288828558
9.6587152 805.15039 1300.6091 4292537599
13.280735 805.15033 1300.6091 4292669183
16.902752 805.15039 1300.6091 4292734719
19.31743 806.07336 1301.3873 4292931327
-37.285324 812.36426 1300.1516 4288300929
7.2165136 812.36426 1300.1516 4292932351
9.6220188 812.36426 1300.1516 4292735231
13.230275 812.36426 1300.1516 4292669439
16.838531 812.36426 1300.1516 4292932351
-40.893578 814.20331 1301.7021 4287515262
-37.285324 814.20331 1301.7021 4288695430
13.230275 814.20331 1301.7021 4292734463
16.838531 814.20331 1301.7021 4292800255
19.244038 814.20331 1301.7021 4292735231
21.649542 814.20331 1301.7021 4292735231
-38.341286 820.45917 1300.4368 4288829071
-34.746788 820.45917 1300.4368 4289487770
-31.152294 820.45917 1300.4368 4289817504
-28.755962 820.45917 1300.4368 4290143405
7.1889906 820.45917 1300.4368 4292537855
10.783486 820.45917 1300.4368 4292603647
-40.737614 822.2912 1301.9814 4287582087
-38.341286 822.2912 1301.9814 4288501392
-34.746788 822.2912 1301.9814 4289356185
-31.152294 822.2912 1301.9814 4290868907
10.783486 822.2912 1301.9814 4292537599
14.377981 822.2912 1301.9814 4292603391
16.774311 822.2912 1301.9814 4292603391
-31.033028 826.68701 1299.1478 4290079906
-28.645872 826.68701 1299.1478 4289552047
4.774312 826.68701 1299.1478 4292143103
7.161468 826.68701 1299.1478 4292340735
9.548624 826.68701 1299.1478 4292537087
-35.807339 828.51196 1300.6866 4289158816
-31.033028 828.51196 1300.6866 4290079906
10.742202 828.51196 1300.6866 4292471807
14.322936 828.51196 1300.6866 4292406783
16.710093 828.51196 1300.6866 4292735487
19.097248 828.51196 1300.6866 4292669439
21.484404 828.51196 1300.6866 4292669439
-40.456882 836.0155 1301.7812 4287584399
-38.077065 834.19617 1300.2472 4288501656
-34.507339 834.19617 1300.2472 4289093020
-30.937614 834.19617 1300.2472 4290408108
2.3798165 834.19617 1300.2472 4292799487
4.7596331 835.10583 1301.0142 4292273919
7.1394496 835.10583 1301.0142 4292405503
10.709173 835.10583 1301.0142 4292471551
16.658716 835.10583 1301.0142 4292537087
19.038532 836.0155 1301.7812 4292471807
-40.300919 842.17603 1300.4354 4287513995
-37.930275 842.17603 1300.4354 4287579007
4.7412844 842.17603 1300.4354 4292076799
7.1119266 842.17603 1300.4354 4292603135
9.4825687 842.17603 1300.4354 4292669183
-40.300919 843.9884 1301.9636 4287650460
10.667891 843.9884 1301.9636 4292537087
-37.783485 848.30841 1299.066 4288306578
-34.241287 848.30841 1299.066 4289292963
4.7229357 848.30841 1299.066 4292076799
7.0844035 848.30841 1299.066 4292208383
-37.783485 850.11377 1300.5883 4288503956
-34.241287 850.11377 1300.5883 4289358239
7.0844035 850.11377 1300.5883 4292208895
-37.636696 856.21118 1299.1892 4288042151
-35.284405 856.21118 1299.1892 4289094840
4.704587 856.21118 1299.1892 4291617791
-35.284405 858.00952 1300.7056 4288634539
4.704587 858.00952 1300.7056 4291355135
-35.14679 864.96741 1300.0322 4287513734
-32.803669 864.07172 1299.277 4288892053
2.3431194 864.96741 1300.0322 4292010495
4.6862388 864.96741 1300.0322 4291682303
-31.533028 871.40137 1300.225 4289223328
-28.029358 871.40137 1300.225 4289618326
-25.693579 871.40137 1300.225 4289355154
2.3357799 871.40137 1300.225 4292142335
4.6715598 871.40137 1300.225 4291748095
7.0073395 871.40137 1300.225 4292208639
-56.058716 873.18713 1301.7306 4285748098
-52.555046 873.18713 1301.7306 4285878913
-35.036697 873.18713 1301.7306 4288635554
-31.533028 873.18713 1301.7306 4288962724
-28.029358 873.18713 1301.7306 4289619609
-25.693579 873.18713 1301.7306 4289093265
2.3357799 873.18713 1301.7306 4291682047
4.6715598 873.18713 1301.7306 4291287807
7.0073395 873.18713 1301.7306 4291682815
10.511009 873.18713 1301.7306 4291617023
14.014679 873.18713 1301.7306 4291879935
-60.491745 880.07135 1300.9951 4285551496
-58.165138 880.07135 1300.9951 4285485447
-27.919266 880.07135 1300.9951 4289290386
-25.592661 880.07135 1300.9951 4289158799
-23.266054 880.07135 1300.9951 4289949363
-19.776146 879.18201 1300.2452 4292056023
2.3266056 880.07135 1300.9951 4291814655
4.6532111 880.07135 1300.9951 4291354623
6.9798164 880.07135 1300.9951 4291288831
10.469725 880.07135 1300.9951 4291552255
13.959633 880.07135 1300.9951 4291748095
16.286238 880.96069 1301.745 4291682303
-27.809174 886.92059 1300.2301 4288829073
-25.491743 886.92059 1300.2301 4289881762
-23.174313 886.92059 1300.2301 4290148795
-20.85688 886.92059 1300.2301 4292385757
2.3174312 886.92059 1300.2301 4292208127
4.6348624 886.92059 1300.2301 4291683071
6.9522934 886.92059 1300.2301 4291945983
-27.809174 888.69226 1301.7239 4288236419
6.9522934 888.69226 1301.7239 4291551743
10.42844 888.69226 1301.7239 4291551743
16.222019 888.69226 1301.7239 4291880447
20.85688 888.69226 1301.7239 4291682303
-25.411009 892.37476 1299.5967 4289947044
-23.100918 892.37476 1299.5967 4290084285
-20.790825 892.37476 1299.5967 4292321247
2.3100917 892.37476 1299.5967 4292076543
4.6201835 892.37476 1299.5967 4291682047
-30.031193 894.14087 1301.0858 4288170367
-27.721102 894.14087 1301.0858 4287843201
-25.411009 894.14087 1301.0858 4289685405
2.3100917 894.14087 1301.0858 4292207871
4.6201835 894.14087 1301.0858 4291288831
-32.212845 901.79944 1301.0032 4287711612
-29.144953 900.62671 1300.0144 4287908222
-18.407339 900.04034 1299.52 4291602405
2.3009174 900.91992 1300.2616 4288983012
4.6018348 900.91992 1300.2616 4289440736
6.9027524 901.79944 1301.0032 4288979923
-28.64679 907.66394 1299.408 4287580032
-25.209175 907.66394 1299.408 4289356951
-2.291743 907.66394 1299.408 4284377757
0 907.66394 1299.408 4283392134
-28.64679 909.41602 1300.8851 4287580029
-25.209175 909.41602 1300.8851 4289291158
-25.128441 914.78033 1300.1761 4290012307
-22.844036 914.78033 1300.1761 4290278585
-18.275229 914.78033 1300.1761 4290804429
-2.2844036 914.78033 1300.1761 4285100199
0 914.78033 1300.1761 4285361558
-27.412844 916.52679 1301.6487 4286270840
-25.128441 916.52679 1301.6487 4287915921
-22.844036 916.52679 1301.6487 4289100207
0 916.52679 1301.6487 4286416297
-19.339451 922.32391 1299.9966 4286869689
-15.926605 922.32391 1299.9966 4286471594
-13.651376 922.32391 1299.9966 4287124618
-9.1009178 922.32391 1299.9966 4287456693
-6.8256879 922.32391 1299.9966 4291601652
-4.5504589 922.32391 1299.9966 4289833185
-2.2752295 922.32391 1299.9966 4285951142
0 922.32391 1299.9966 4283979659
-19.339451 924.06335 1301.4633 4287336134
-15.926605 924.06335 1301.4633 4286808755
-13.651376 924.06335 1301.4633 4287201195
-10.238532 924.06335 1301.4633 4285950114
-6.8256879 924.06335 1301.4633 4289699044
-4.5504589 924.06335 1301.4633 4289571812
-2.2752295 924.06335 1301.4633 4285295267
0 924.06335 1301.4633 4283650424
-24.946789 929.36877 1300.7045 4282796401
-22.6789 929.36877 1300.7045 4281288833
-18.899084 928.79083 1300.2172 4286550470
-15.875229 928.50189 1299.9735 4286286268
-13.60734 928.50189 1299.9735 4285890497
-10.205505 928.50183 1299.9735 4285757365
-6.8036699 928.50189 1299.9735 4287861195
-4.53578 928.50189 1299.9735 4288123327
-2.26789 928.50189 1299.9735 4285228179
0 928.50189 1299.9735 4284504199
-27.126606 934.65179 1299.9269 4282732414
-24.866055 934.65179 1299.9269 4282074741
-22.605505 934.65179 1299.9269 4280042612
-19.21468 934.65179 1299.9269 4284647615
-15.823853 934.65179 1299.9269 4287607537
-4.521101 934.65179 1299.9269 4283523733
-2.2605505 934.65179 1299.9269 4283786905
0 934.65179 1299.9269 4284702083
-31.647707 936.38 1301.384 4282796664
-28.256882 936.38 1301.384 4282863228
-24.866055 936.38 1301.384 4282206324
-22.605505 936.38 1301.384 4281615734
-19.21468 936.38 1301.384 4285957538
-15.823853 936.38 1301.384 4289575876
-13.563303 936.38 1301.384 4288326143
-6.7816515 936.38 1301.384 4285168597
-4.521101 936.38 1301.384 4284377759
-2.2605505 936.38 1301.384 4284114587
0 936.38 1301.384 4284242566
-33.770641 943.80579 1301.1051 4285824673
-31.519266 942.94519 1300.3794 4284114577
-28.1422 942.94519 1300.3794 4283984020
-24.765137 942.94519 1300.3794 4283195020
-22.513762 943.80579 1301.1051 4283068836
-19.136696 943.80579 1301.1051 4283197853
-15.759633 943.80579 1301.1051 4284379557
-13.508257 943.80579 1301.1051 4286808197
-11.256881 943.80579 1301.1051 4287400335
-6.7541285 943.80579 1301.1051 4287994532
-4.5027523 942.08459 1299.6538 4287993528
-2.2513762 942.94519 1300.3794 4284243843
0 942.94519 1300.3794 4284242300
-25.806423 950.74536 1301.7244 4278208642
-22.440367 950.74536 1301.7244 4280638319
-20.196331 950.74536 1301.7244 4281032821
-17.952293 949.02979 1300.2778 4285168808
-31.288073 956.38263 1299.9373 4290366975
-29.053211 956.38263 1299.9373 4290235391
-25.700916 956.38263 1299.9373 4291550975
2.2348623 956.38263 1299.9373 4284309633
4.4697247 956.38263 1299.9373 4284636540
-33.522934 958.09119 1301.3779 4289906685
-26.818348 958.09119 1301.3779 4290828031
2.2348623 958.09119 1301.3779 4284375682
4.4697247 958.09119 1301.3779 4284506235
-33.412846 961.55334 1299.0651 4289839607
-31.185322 961.55334 1299.0651 4289643261
-28.957798 961.55334 1299.0651 4290366975
-25.616514 961.55334 1299.0651 4291615743
-22.275229 961.55334 1299.0651 4292996607
-34.15535 964.3916 1301.4581 4289709045
-31.185322 964.10779 1301.2189 4289643254
-28.957798 964.10779 1301.2189 4289643255
-25.616514 964.10779 1301.2189 4289380600
-22.275229 964.10779 1301.2189 4289315321
-20.047707 964.10779 1301.2189 4289973245
-17.077675 964.3916 1301.4581 4290827004
-13.365138 964.10779 1301.2189 4292931327
-11.137614 964.10779 1301.2189 4293128703
-7.7963305 964.95929 1301.9368 4294049279
-4.4550457 964.95929 1301.9368 4293258495
-2.2275229 964.95929 1301.9368 4285955748
0 964.10779 1301.2189 4282075772
20.047707 964.95929 1301.9368 4284241269
-43.252296 760.58594 1303.5824 4287773315
-39.544952 760.58594 1303.5825 4288490618
17.300917 759.64117 1302.7859 4293720575
-44.322937 768.95508 1304.0989 4287647118
-40.629356 768.95508 1304.0989 4288961190
-39.251377 775.40662 1302.9985 4288631449
-39.104588 782.76428 1302.6622 4288498844
-36.660549 782.76428 1302.6622 4289485739
12.220183 782.76428 1302.6622 4292931327
-40.326607 784.63281 1304.2377 4287910037
-37.740364 791.0177 1303.0812 4288557441
-41.392662 792.87921 1304.6508 4286922608
-38.957798 792.87921 1304.6508 4288098178
21.913761 792.87921 1304.6508 4292932351
-38.781651 799.75439 1302.5996 4288695957
21.814678 799.75439 1302.5996 4293129215
-38.781651 801.60742 1304.162 4288696974
19.390825 801.60742 1304.162 4292997119
21.814678 801.60742 1304.162 4293260543
-43.464222 809.7655 1304.5005 4287384705
-41.049541 808.84247 1303.7222 4287648133
9.6587152 807.91943 1302.9438 4292274943
13.280734 807.91943 1302.9438 4292340479
16.902752 807.91943 1302.9438 4292537599
19.31743 808.84247 1303.7222 4292668671
21.732111 808.84247 1303.7222 4292866047
-48.110092 817.88135 1304.8035 4286993023
-45.704586 816.96185 1304.0281 4287189888
-43.299084 816.96185 1304.0281 4287713926
-40.893578 816.96185 1304.0281 4287713926
-38.488075 816.04236 1303.2528 4288763017
13.631192 816.65533 1303.7697 4292603391
16.838531 816.96185 1304.0281 4292603135
19.244038 816.96185 1304.0281 4292603391
-40.737614 824.12317 1303.5262 4287845261
-38.341286 824.12317 1303.5262 4288697744
-34.746788 824.12317 1303.5262 4289290135
11.981651 824.12317 1303.5262 4292668415
14.377981 824.12317 1303.5262 4292603391
16.774311 824.12317 1303.5262 4292669439
19.170643 824.12317 1303.5262 4292538111
-40.58165 830.33698 1302.2253 4287649431
-38.194496 830.33698 1302.2253 4288304533
10.742202 830.33698 1302.2253 4292669439
14.322936 830.33698 1302.2253 4292669439
16.710093 830.33698 1302.2253 4292669439
19.097248 830.33698 1302.2253 4292603391
21.484404 830.33698 1302.2253 4292669439
-40.58165 832.16199 1303.7642 4287781528
14.322936 832.16199 1303.7642 4292603391
19.097248 832.16199 1303.7642 4292537599
21.484404 832.16199 1303.7642 4292603391
-42.836697 838.74463 1304.0823 4287055237
-40.456882 837.8349 1303.3153 4286925442
11.105809 838.44141 1303.8267 4292668671
14.278899 838.74463 1304.0823 4292668927
16.658716 838.74463 1304.0823 4292471551
19.038532 838.74463 1304.0823 4292537599
21.418348 838.74463 1304.0823 4292734975
-42.671558 845.80078 1303.4917 4286797463
-40.300919 845.80078 1303.4917 4287389857
10.667891 845.80078 1303.4917 4291945471
-37.783485 851.91919 1302.1105 4287845790
-35.42202 851.91919 1302.1105 4288964272
7.0844035 851.91919 1302.1105 4291946495
-40.144955 853.72449 1303.6327 4287452820
7.0844035 853.72449 1303.6327 4291946495
9.4458714 853.72449 1303.6327 4292339967
-37.636696 859.80786 1302.2218 4288108183
4.704587 859.80786 1302.2218 4291813887
7.056881 859.80786 1302.2218 4292208639
-37.636696 861.6062 1303.7382 4287645065
7.056881 861.6062 1303.7382 4291879679
-44.519264 869.44574 1303.8081 4287126415
-39.833027 869.44574 1303.8081 4287321731
-37.48991 868.55005 1303.053 4287910028
-35.14679 868.55005 1303.053 4288436372
-32.803669 867.65442 1302.2977 4288762254
4.6862388 867.65442 1302.2977 4291353599
7.0293579 867.65442 1302.2977 4291814143
10.544037 869.44574 1303.8081 4291879935
14.058716 869.44574 1303.8081 4292142591
16.401834 869.44574 1303.8081 4292142591
-56.058716 874.97284 1303.2363 4285747846
-52.555046 874.97284 1303.2363 4285681538
-37.372478 874.97284 1303.2363 4287649431
-35.036697 874.97284 1303.2363 4288570533
-31.533028 874.97284 1303.2363 4289028518
-25.693579 874.97284 1303.2363 4289289872
2.3357799 874.97284 1303.2363 4291879679
11.678899 874.97284 1303.2363 4291814399
14.014679 874.97284 1303.2363 4291813887
16.350458 874.97284 1303.2363 4291682303
-56.058716 876.75854 1304.7419 4285353865
-52.555046 876.75854 1304.7419 4285418370
-49.051376 876.75854 1304.7419 4285877377
-39.708256 876.75854 1304.7419 4286863761
-37.372478 876.75854 1304.7419 4287649431
-35.036697 876.75854 1304.7419 4288504740
-31.533028 876.75854 1304.7419 4288831393
16.350458 876.75854 1304.7419 4291748095
-34.899082 884.51813 1304.7445 4288305308
-31.409174 883.62878 1303.9946 4288700823
-27.919266 882.73938 1303.2448 4289291156
-25.592661 882.73938 1303.2448 4289357205
4.6532111 882.73938 1303.2448 4291289087
6.9798164 882.73938 1303.2448 4291683839
10.469725 883.62872 1303.9946 4292011775
13.959633 883.62878 1303.9946 4291814399
16.286238 883.62878 1303.9946 4292012031
19.776146 884.51813 1304.7445 4292405759
-30.126606 890.46399 1303.2178 4288040323
-27.809174 890.46399 1303.2178 4288170376
6.9522934 890.46399 1303.2178 4291813887
10.42844 890.46399 1303.2178 4291683071
16.222019 890.46399 1303.2178 4292077055
19.698166 890.46399 1303.2178 4291682303
23.174313 890.46399 1303.2178 4291747583
-32.444038 892.23566 1304.7117 4288104317
6.9522934 892.23566 1304.7117 4291815167
10.42844 892.23566 1304.7117 4292011007
-31.186239 895.90692 1302.575 4287711613
2.3100917 895.90692 1302.575 4292930047
4.6201835 895.90692 1302.575 4292535295
6.9302754 895.90692 1302.575 4292863999
-34.651375 897.67303 1304.0641 4287644802
-32.341286 897.67303 1304.0641 4287645052
6.9302754 897.67303 1304.0641 4289967600
9.2403669 897.67303 1304.0641 4289837560
-34.51376 904.43799 1303.228 4287382652
-32.212845 904.43799 1303.228 4287382653
-29.911926 903.55847 1302.4865 4287646589
2.3009174 904.43799 1303.228 4284508308
4.6018348 904.43799 1303.228 4285228687
6.9027524 904.43799 1303.228 4285162894
-34.376148 911.16803 1302.3624 4287186298
-32.084404 911.16803 1302.3624 4287252093
-28.64679 911.16803 1302.3624 4287514490
2.291743 911.16803 1302.3624 4284705161
-34.376148 912.92004 1303.8397 4286989168
-32.084404 912.92004 1303.8397 4286988403
-28.64679 912.92004 1303.8397 4287579253
2.291743 912.92004 1303.8397 4285888159
4.5834861 912.92004 1303.8397 4285888418
11.458715 912.92004 1303.8397 4285824673
13.750459 912.92004 1303.8397 4286086303
-31.981651 920.01965 1304.5938 4286609842
-28.555046 919.14648 1303.8574 4285688468
-25.128441 919.14648 1303.8574 4286543257
-22.844036 919.14648 1303.8574 4286674105
2.2844036 919.14648 1303.8574 4285559196
4.5688071 920.01965 1304.5938 4285096335
13.706422 920.01965 1304.5938 4285294974
19.417431 920.01965 1304.5938 4285163136
-36.403671 925.80273 1302.9298 4281744494
-34.128441 925.80273 1302.9298 4282073459
-31.85321 925.80273 1302.9298 4282335852
-28.440367 925.80273 1302.9298 4282007656
-25.027523 925.80273 1302.9298 4283653507
-22.752293 925.80273 1302.9298 4283785640
-20.477064 925.80273 1302.9298 4286351310
2.2752295 925.80273 1302.9298 4284637072
4.5504589 925.80273 1302.9298 4285029766
-36.403671 927.54224 1304.3965 4282139500
-34.128441 927.54224 1304.3965 4282534258
-31.85321 927.54224 1304.3965 4282927730
-28.440367 927.54224 1304.3965 4282927730
2.2752295 927.54224 1304.3965 4285292685
4.5504589 927.54224 1304.3965 4284899463
6.8256879 927.54224 1304.3965 4285030792
10.238532 927.54224 1304.3965 4285031298
-36.28624 932.83643 1303.6283 4282731121
-34.018349 932.83643 1303.6283 4282731121
-31.750458 932.83643 1303.6283 4282796664
-28.348625 931.96954 1302.8973 4282862459
-24.946789 931.10266 1302.1664 4282204273
-18.14312 931.10266 1302.1664 4286946291
-15.875229 931.10266 1302.1664 4288262143
-13.60734 931.96954 1302.8973 4286224883
-10.205505 931.96948 1302.8973 4285303248
-6.8036699 931.96954 1302.8973 4284842421
-4.53578 931.10266 1302.1664 4285034921
-2.26789 931.10266 1302.1664 4283850647
1.133945 931.96954 1302.8973 4284636805
4.53578 932.83643 1303.6283 4284505985
6.8036699 932.83643 1303.6283 4284177021
-33.908257 938.10822 1302.8412 4282205547
-31.647707 938.10822 1302.8412 4282139500
-29.387156 938.10822 1302.8412 4282402672
-22.605505 938.10822 1302.8412 4283320428
-19.21468 938.10822 1302.8412 4287927984
-15.823853 938.10822 1302.8412 4287600807
-13.563303 938.10822 1302.8412 4285237192
-10.172478 938.10822 1302.8412 4286944977
-6.7816515 938.10822 1302.8412 4288257747
-2.2605505 938.10822 1302.8412 4284310671
0 938.10822 1302.8412 4283782265
-37.299084 939.83643 1304.2983 4282010475
-33.908257 939.83643 1304.2983 4282273648
-22.605505 939.83643 1304.2983 4281354877
-19.21468 939.83643 1304.2983 4286616498
-15.823853 939.83643 1304.2983 4287141022
-13.563303 939.83643 1304.2983 4285892504
-10.172478 939.83643 1304.2983 4286812311
-6.7816515 939.83643 1304.2983 4288653733
2.2605505 939.83643 1304.2983 4284900489
-33.770641 946.38757 1303.282 4283590036
-31.519266 946.38757 1303.282 4283393963
-28.517431 946.6745 1303.5238 4283328173
-24.765137 947.24817 1304.0076 4282736811
-22.513762 947.24817 1304.0076 4285493412
-20.262384 947.24817 1304.0076 4285690534
-33.660549 952.461 1303.1709 4288327903
-31.416513 952.461 1303.1709 4288002030
-29.172478 952.461 1303.1709 4287870443
-33.660549 954.17657 1304.6174 4290366705
-37.992661 959.7998 1302.8186 4289576689
-35.757797 959.7998 1302.8186 4289773814
2.2348623 959.7998 1302.8186 4283655314
4.4697247 959.7998 1302.8186 4284440190
-43.579819 961.50836 1304.2592 4289708019
-40.227524 961.50836 1304.2592 4289576689
-37.992661 961.50836 1304.2592 4289773812
-35.757797 961.50836 1304.2592 4289905654
2.2348623 961.50836 1304.2592 4283130758
4.4697247 961.50836 1304.2592 4284243068
-34.526604 967.51379 1304.0906 4289512697
-31.185322 967.51379 1304.0906 4289578494
-28.957798 967.51379 1304.0906 4289446651
-25.987768 967.22998 1303.8512 4289183992
-22.275229 966.66229 1303.3727 4289380089
-20.047707 966.66229 1303.3727 4289248503
-17.820183 966.66229 1303.3727 4289182197
-13.365138 966.66229 1303.3727 4288460282
-11.137614 966.66229 1303.3727 4289381375
-7.425077 967.22998 1303.8512 4291223039
-4.4550457 967.51379 1304.0906 4293060863
-2.2275229 966.66229 1303.3727 4287467965
0 966.66229 1303.3727 4285361308
-49.651375 756.37109 1307.8767 4287252343
-47.168808 756.37109 1307.8767 4286989170
-46.959633 763.42023 1305.9723 4287124089
-43.252296 763.42023 1305.9723 4288173197
-46.959633 765.30975 1307.5654 4286993280
-44.322937 771.77887 1306.4799 4287647882
-41.86055 771.77887 1306.4799 4288108433
-44.157799 778.21985 1305.3706 4288371353
-40.477982 778.21985 1305.3706 4288171924
-44.157799 780.09534 1306.952 4288240798
-41.704586 780.09534 1306.952 4287780247
-43.992661 788.36975 1307.3887 4287777165
-40.733944 787.12408 1306.3383 4287842958
-43.827522 794.74066 1306.2202 4287977099
-41.392662 794.74066 1306.2202 4287648134
-38.957798 794.74066 1306.2202 4288299652
-43.827522 796.60217 1307.7898 4288109198
-41.392662 796.60217 1307.7898 4288569749
-43.629356 803.46051 1305.7245 4287911556
-41.205505 803.46051 1305.7245 4287714177
21.814678 803.46051 1305.7245 4293391871
-46.053211 805.3136 1307.2869 4287386243
-43.629356 805.3136 1307.2869 4287845510
-45.878899 811.61151 1306.057 4286925690
-43.464222 811.61151 1306.057 4287383933
-49.500916 813.45758 1307.6135 4286729854
-52.921101 820.63989 1307.1294 4286205826
-49.312843 820.63989 1307.1294 4286731138
-45.704586 820.63989 1307.1294 4287190657
-43.299084 820.63989 1307.1294 4287582344
19.244038 819.7204 1306.354 4292538111
-52.719265 827.78723 1306.6156 4286205567
-50.322937 827.78723 1306.6156 4286271360
-46.329052 827.17657 1306.1007 4287059075
-43.133945 826.87122 1305.8433 4287320207
-40.737614 825.9552 1305.0709 4288175257
-38.341286 825.9552 1305.0709 4288566936
-33.548622 825.9552 1305.0709 4289356440
-52.517429 833.987 1305.303 4286271358
-50.130276 833.987 1305.303 4286468736
-45.355965 833.987 1305.303 4286994565
-42.968807 833.987 1305.303 4287321483
14.322936 833.987 1305.303 4292339455
21.484404 833.987 1305.303 4292669183
-46.549541 835.81201 1306.8418 4286926719
-42.836697 841.47369 1306.3834 4287124116
14.278899 841.47369 1306.3834 4292734463
16.658716 841.47369 1306.3834 4292931839
19.038532 841.47369 1306.3834 4292668415
21.418348 841.47369 1306.3834 4292537087
-49.976147 843.29309 1307.9175 4286402941
-46.406422 843.29309 1307.9175 4286600323
14.278899 843.29309 1307.9175 4292142591
16.658716 843.29309 1307.9175 4292471551
19.038532 843.29309 1307.9175 4292668415
21.418348 843.29309 1307.9175 4292668415
-49.783485 847.61316 1305.0199 4286271871
-46.227524 847.61316 1305.0199 4286600075
-42.671558 847.61316 1305.0199 4286993815
-40.300919 847.61316 1305.0199 4287914917
10.667891 847.61316 1305.0199 4292208639
-52.154129 849.42554 1306.5481 4286271871
-49.783485 849.42554 1306.5481 4286271871
-47.412846 849.42554 1306.5481 4286401411
-42.671558 849.42554 1306.5481 4287058573
-40.300919 849.42554 1306.5481 4287387538
10.667891 849.42554 1306.5481 4292274175
14.223853 849.42554 1306.5481 4292142591
-42.50642 857.33521 1306.6772 4287385741
-40.144955 856.43256 1305.916 4287780754
-37.783485 855.52991 1305.1549 4287845279
7.0844035 855.52991 1305.1549 4291881471
10.233027 856.7334 1306.1698 4292208639
-43.517433 863.40454 1305.2545 4286596221
-39.988991 863.40454 1305.2545 4286989187
-37.636696 863.40454 1305.2545 4287316353
7.056881 863.40454 1305.2545 4291945471
-54.102753 865.20288 1306.7708 4285812606
-51.750458 865.20288 1306.7708 4285943160
-49.398167 865.20288 1306.7708 4285943160
-43.517433 865.20288 1306.7708 4286794368
-39.988991 865.20288 1306.7708 4287123073
