# .PCD v0.7 - Point Cloud Data file format
VERSION 0.7
FIELDS x y z rgb
SIZE 4 4 4 4
TYPE F F F U
COUNT 1 1 1 1
WIDTH 1171
HEIGHT 1
VIEWPOINT 0 0 0 1 0 0 0
POINTS 1171
DATA ascii
27.126606 834.64453 812.7301 4294967295
-1.6917431 837.36462 812.40759 4292956834
0.84587157 838.4325 811.34595 4293617555
4.2293577 837.36462 812.40759 4292625793
7.5880733 839.50043 810.2843 4294263723
10.96055 839.50043 810.2843 4294934736
13.489908 839.50043 810.2843 4294944748
16.019266 839.50043 810.2843 4294958335
19.391743 839.50043 810.2843 4294967039
22.802753 838.4325 811.34595 4294967295
25.376146 837.36462 812.40759 4294967295
27.06789 837.36462 812.40759 4294967295
-3.3724771 842.07874 812.45825 4291970986
-1.6862385 841.4342 811.91479 4292562867
0.56207949 841.64911 812.09595 4293684134
4.2155962 841.4342 811.91479 4294143398
7.3070335 841.2193 811.73364 4294467742
20.234863 840.78961 811.37134 4294967295
22.483179 841.2193 811.73364 4294967295
25.855658 841.64911 812.09595 4294967295
0 844.78339 812.12268 4293486494
5.0477066 844.78339 812.12268 4294932667
7.8519874 844.35455 811.76117 4294799813
10.936697 843.49701 811.03809 4294730948
13.46055 843.49701 811.03809 4294935757
15.984404 843.49701 811.03809 4294752503
19.349541 843.49701 811.03809 4294965247
22.71468 844.1402 811.58038 4294967295
26.921101 844.78339 812.12268 4294967295
8.3853207 848.18872 811.06982 4294666183
10.900917 848.18872 811.06982 4294927829
13.416513 848.18872 811.06982 4294935488
18.447706 848.18872 811.06982 4294959359
22.640366 848.18872 811.06982 4294901247
25.994495 848.18872 811.06982 4294835711
5.0311928 849.47083 812.15088 4294932422
7.5467887 849.47083 812.15088 4294731719
10.877064 850.88068 810.72363 4294929891
13.387156 850.88068 810.72363 4294934984
15.897248 850.88068 810.72363 4294284515
19.244038 850.88068 810.72363 4294963199
22.590824 850.88068 810.72363 4294901503
25.937614 850.88068 810.72363 4294835711
28.510092 849.47083 812.15088 4294967295
-1.6733944 853.43933 812.88098 4292828569
0 853.43933 812.88098 4293219772
4.183486 853.43933 812.88098 4294143647
7.809175 853.01288 812.52148 4294667461
10.877064 852.79962 812.34167 4294862808
13.387156 852.15997 811.80237 4294934214
23.427523 852.15997 811.80237 4294966783
26.216513 852.58643 812.16193 4294900991
28.447706 852.79968 812.34167 4294901247
30.121101 853.43933 812.88098 4294967039
0 856.8208 811.80811 4292689038
5.0036697 856.8208 811.80811 4294341556
7.5055046 856.8208 811.80811 4294470587
10.841284 856.8208 811.80811 4294865622
13.34312 856.18323 811.27057 4294935757
15.844954 855.54572 810.73303 4294483947
19.180733 855.54572 810.73303 4294962175
22.794495 855.9707 811.09137 4294967295
25.574312 856.39575 811.44971 4294901503
-1.6660551 859.4314 812.70129 4292232588
0.55596334 858.98627 812.76196 4292754301
4.1651378 859.43146 812.70129 4293941661
7.22263 858.98627 812.76196 4294469543
10.81743 859.49457 811.44653 4294935003
14.402447 860.00293 810.13104 4294940631
16.623854 859.55774 810.19171 4294355954
19.11743 859.55774 810.19165 4294961919
22.466972 859.49463 811.44653 4294967039
25.810093 859.78107 812.3421 4294901503
28.354128 858.09595 812.8833 4294967295
30.022018 858.09595 812.8833 4294967295
-1.6605505 863.43225 812.15063 4293160613
0 863.43225 812.15063 4292892858
4.1513762 863.43225 812.15063 4293014923
8.3027525 862.16272 811.0802 4294927529
10.793578 862.16272 811.0802 4294935002
13.284404 862.16272 811.0802 4294934715
19.926605 862.16272 811.0802 4294966015
22.417431 862.79749 811.61542 4294967039
24.908257 863.43225 812.15063 4294836223
0 866.78711 811.05518 4292895418
4.1376147 866.78711 811.05518 4294467763
7.4477062 866.78711 811.05518 4294798243
23.170643 866.78711 811.05518 4294967295
24.825687 866.78711 811.05518 4294836223
-1.6550459 868.05237 812.12207 4294731155
0.82752293 868.74609 811.39893 4293355188
4.1376147 868.05237 812.12207 4294534079
7.4385319 868.74609 811.39893 4294931889
10.733945 869.43976 810.67578 4294073239
14.036697 869.43976 810.67578 4294735039
19.816513 869.43976 810.67578 4294966271
22.293579 869.43976 810.67578 4294967295
25.625687 868.74609 811.39893 4294967295
28.963303 868.05237 812.12207 4294967295
-1.6513761 871.96472 812.80481 4291035225
0.55045873 871.54395 812.45001 4292946565
4.4036698 871.54395 812.45001 4293941942
7.4311929 871.3335 812.27258 4294535850
10.733945 871.3335 812.27258 4294668992
13.750459 871.58466 811.6123 4294731709
16.477064 872.08691 810.29175 4293427676
18.948624 872.08691 810.29175 4294960127
22.269726 871.39459 811.01605 4294901503
25.596329 870.70227 811.74036 4294967295
28.899082 871.96472 812.80481 4294967295
31.376146 871.96472 812.80481 4294967295
0 874.60626 812.41602 4291166283
10.710092 874.60626 812.41602 4294602422
14.280122 874.18634 812.06201 4294798795
16.477064 873.34656 811.35388 4293624535
18.948624 873.34656 811.35388 4294959871
23.06789 873.34656 811.35388 4294967295
25.53945 873.34656 811.35388 4294967295
28.011009 874.60626 812.41602 4294967295
13.958715 877.93024 811.29468 4294734795
16.422018 877.30249 810.76538 4294151129
18.885323 877.30249 810.76538 4294957567
22.169724 877.30249 810.76538 4294966783
25.727829 877.09326 810.58893 4294967295
0 879.18573 812.35327 4293282440
4.9266057 879.18573 812.35327 4294909555
10.93945 880.0611 812.2193 4294338463
13.934862 880.84216 811.78784 4294863079
16.385321 881.18549 811.42334 4294347991
18.843121 881.18549 811.42334 4294759167
22.120182 881.18549 811.42334 4294966271
25.397247 881.18549 811.42334 4294967295
28.444036 880.0611 812.2193 4294967295
0 884.43225 811.5448 4292149856
13.89633 884.43225 811.5448 4294926297
17.166054 884.43225 811.5448 4294945524
19.618349 884.43225 811.5448 4294632447
22.070641 884.43225 811.5448 4294966783
25.340366 884.43225 811.5448 4294967295
-3.2697248 885.68213 812.59863 4290641997
-1.6348624 885.68213 812.59863 4290445387
0.81743121 885.68213 812.59863 4291625034
4.0871563 885.68213 812.59863 4293132896
7.3568807 885.68213 812.59863 4294118513
10.626606 885.68213 812.59863 4294793091
13.89633 885.68213 812.59863 4294927567
17.138531 886.70587 811.49982 4294943221
19.618349 885.68213 812.59863 4294830079
22.070641 885.68213 812.59863 4294967295
25.340366 885.68213 812.59863 4294967295
27.79266 885.68213 812.59863 4294967295
-1.6293578 890.22095 812.50159 4293227701
0 889.59814 811.97644 4292761993
4.8880734 890.22095 812.50159 4292820887
7.3321099 888.97528 811.45129 4293722202
10.590826 888.97528 811.45129 4293722205
13.849541 888.97528 811.45129 4294790079
17.108257 888.97528 811.45129 4294940664
19.552294 888.97528 811.45129 4294961919
21.724771 889.80573 812.15155 4294966783
25.255047 888.97528 811.45129 4294967295
27.699083 890.22095 812.50159 4294967295
0 892.82312 812.07971 4293228444
4.8770642 892.82312 812.07971 4294928838
7.3155961 891.58026 811.03174 4293401172
10.566973 891.58026 811.03174 4293263445
13.818348 891.58026 811.03174 4294125506
17.069725 891.58026 811.03174 4294940158
19.508257 891.58026 811.03174 4294960383
21.946789 892.82312 812.07971 4294966527
25.198164 892.20166 811.55566 4294967295
27.636698 892.82312 812.07971 4294967295
0 896.65979 812.69849 4292633252
4.866055 896.65979 812.69849 4294013368
7.2990823 895.41974 811.65289 4294864824
10.543119 895.41974 811.65302 4293216661
13.787156 895.41968 811.65302 4294252129
17.301529 894.59302 810.95587 4294741234
19.46422 894.79968 811.13019 4294893567
22.167585 895.83307 812.00146 4294966783
25.141285 896.03979 812.17572 4294967295
28.385323 896.65979 812.69849 4294967295
8.0825691 899.922 811.52515 4294141376
10.507339 899.922 811.52515 4294859957
13.740367 899.922 811.52515 4293468573
16.973394 899.30408 811.00409 4294005951
19.398165 898.68622 810.48303 4294563839
21.553518 899.51007 811.17773 4294966015
25.055964 899.922 811.52515 4294967295
0 901.15784 812.56714 4291509416
4.0412846 901.15784 812.56714 4293819309
7.274312 901.15784 812.56714 4293679807
10.507339 901.15784 812.56714 4294531525
13.740367 901.15784 812.56714 4294077880
16.953213 901.83057 811.82629 4293608329
19.891743 902.09222 810.73895 4294036735
22.579817 902.50323 811.08545 4294967295
25.02844 901.83057 811.82629 4294967295
27.480734 901.15784 812.56714 4294967295
8.0642204 903.73627 812.12512 4293944261
9.6770639 903.73627 812.12512 4294596544
13.709174 903.73627 812.12512 4294931907
16.91468 904.40753 811.38306 4293611907
20.114677 905.0788 810.64099 4293709557
22.52844 905.0788 810.64099 4294967295
24.97156 904.40753 811.38306 4294967295
27.418348 903.73627 812.12512 4294967295
10.191437 907.12915 812.36981 4294864571
13.677982 907.53925 812.71558 4294599899
16.876148 907.59332 811.45319 4293882245
20.068806 908.26245 810.70935 4294303732
22.477064 908.26245 810.70935 4294967295
24.900002 907.92749 811.08093 4294901759
27.892355 907.12915 812.36981 4294967295
10.43578 910.10358 812.26172 4294859421
13.64679 910.10358 812.26172 4294667229
16.8578 910.10358 812.26172 4293491879
20.871559 910.10358 812.26172 4294967295
22.477064 910.10358 812.26172 4294967295
24.885323 910.10358 812.26172 4294966783
27.293577 910.10358 812.26172 4294967295
10.4 914.55115 812.08777 4293657185
13.333333 914.14337 811.74396 4294586299
16.799999 913.93958 811.57214 4293488301
19.84 913.57263 811.2627 4294702834
22.4 913.93958 811.57208 4294967295
24.533333 914.14337 811.74396 4294901503
27.200001 914.55115 812.08777 4294967295
11.174312 917.1001 811.62085 4293001828
13.568808 917.1001 811.62085 4294381165
16.761467 917.1001 811.62085 4293554109
19.954128 917.1001 811.62085 4294834145
10.376146 918.3205 812.6499 4293596266
13.553211 919.59076 812.4129 4294513268
16.483179 919.1673 812.49188 4293285796
19.920183 919.92151 812.03772 4294898906
22.348623 918.3205 812.6499 4294967295
7.9449539 923.39587 811.69714 4293926769
10.063609 922.99091 811.35571 4293793127
13.506422 923.39587 811.69714 4294513270
16.684402 923.39587 811.69714 4294205870
19.862385 923.39587 811.69714 4294437348
23.040367 923.39587 811.69714 4294967295
25.423853 923.39587 811.69714 4294967295
28.601835 923.39587 811.69714 4294770175
7.1504583 924.61066 812.72144 4293530725
10.304587 925.92517 811.21375 4293727845
13.491743 925.26794 811.96759 4294580595
16.684402 924.61066 812.72144 4294463394
19.816513 925.92517 811.21375 4293706212
22.987156 925.92517 811.21375 4294967295
26.422018 925.52118 810.87311 4294967295
28.601835 924.61066 812.72144 4294836223
30.190826 924.61066 812.72144 4294836223
10.304587 927.13715 812.23572 4294055023
13.475229 927.13715 812.23572 4294583923
16.645872 927.13715 812.23572 4294721173
20.064833 927.97748 812.0722 4293699034
22.946789 928.72546 811.61292 4294967295
26.112843 928.72546 811.61292 4294704895
28.53578 927.13715 812.23572 4294967295
20.561468 930.86719 812.76477 4294951423
22.933945 930.86719 812.76477 4294835967
26.097248 930.86719 812.76477 4294901759
17.337614 935.23627 812.52454 4294924467
19.964525 934.83466 812.18585 4294962431
22.85413 934.63379 812.01648 4294967295
26.006422 935.23627 812.52454 4294770687
22.014679 937.73889 812.01855 4294967295
13.272477 947.60059 812.48547 4281680666
15.614679 947.60059 812.48547 4282926229
18.737616 946.4068 811.479 4291870899
23.422018 947.60059 812.48547 4294967295
25.764221 947.60059 812.48547 4294507519
28.106422 947.60059 812.48547 4294836223
7.788991 950.07513 811.95593 4282732448
10.125689 950.07513 811.95593 4288194802
13.241284 950.07513 811.95593 4282597012
17.13578 948.88416 810.95178 4286808016
19.472477 948.88416 810.95178 4293648634
22.588074 949.47961 811.45386 4294901759
24.92477 950.07513 811.95593 4294703615
0.77889907 952.49915 812.69177 4278389303
3.6324158 952.08813 812.78125 4285492639
6.9972477 952.8186 812.30719 4285892038
10.360856 952.94012 811.75555 4290491903
13.210093 953.13812 811.92249 4289634202
16.059328 951.75195 810.75372 4286472857
19.685627 951.75195 810.75372 4292794623
22.534863 951.95001 810.92072 4294507519
25.922935 952.51416 812.26837 4294703615
28.007339 952.49915 812.69177 4294505983
7.7522936 956.19281 811.88208 4288529378
9.8195724 955.79767 811.54901 4290625533
13.178899 956.19281 811.88208 4288056979
16.021406 955.40259 811.21582 4290491554
19.639143 955.40253 811.21582 4291875327
22.481651 955.00745 810.88269 4293060094
25.582569 955.6001 811.38239 4294769919
27.908257 956.19281 811.88208 4294637823
7.7522936 957.37811 812.88159 4289970861
10.077982 957.37811 812.88159 4290362623
13.178899 957.37811 812.88159 4286939323
16.647247 958.01294 812.10876 4288914864
19.198534 958.37634 812.15363 4291876095
22.428442 958.64764 811.33594 4292468988
25.36734 958.88416 811.53534 4294901759
28.649542 958.60419 812.6073 4294704383
-13.292844 751.73914 814.76794 4288553031
-10.777982 750.09113 813.37854 4289101765
32.333946 750.77777 813.95746 4294967295
34.729053 752.37994 815.30835 4294967295
-10.744954 755.10828 813.68469 4289658946
32.234863 755.10828 813.68469 4294967295
-13.431192 757.84644 815.99353 4290334074
-10.744954 756.47736 814.83911 4289790033
-8.9357796 757.98822 813.49695 4290118229
31.27523 757.98822 813.49695 4294967295
34.622631 757.39008 815.6087 4294967295
-13.403669 760.72083 815.80103 4290466426
-10.722936 760.03772 815.22504 4291118968
32.168808 759.35455 814.64905 4294967295
33.955963 760.72083 815.80103 4294967295
-10.689908 764.34082 814.9292 4291715492
-8.0174313 762.9787 813.78076 4291050357
28.506422 762.9787 813.78076 4294967295
31.1789 763.65979 814.35498 4294967295
-10.65688 767.95233 814.05029 4291396035
-8.8807335 767.95233 814.05029 4290869690
30.194496 767.95233 814.05029 4294967295
-10.65688 769.31024 815.19519 4291273952
-7.9761467 770.80701 813.84119 4293379835
28.359632 770.80701 813.84119 4294967295
31.051376 770.05859 814.51819 4294967295
-10.634862 772.16211 814.98376 4292327657
31.018349 772.16211 814.98376 4294967295
-10.601835 775.75397 814.08838 4291076311
28.271559 775.75397 814.08838 4294967295
30.038532 775.75397 814.08838 4294967295
-10.568808 779.33746 813.18579 4290223816
-8.8073397 779.33746 813.18579 4290421196
26.422018 779.33746 813.18579 4294967295
28.183487 779.33746 813.18579 4294967295
30.922018 777.10486 815.22729 4294967295
-12.330276 782.03082 815.45667 4291544063
-10.568808 780.68414 814.32117 4292266228
29.944954 780.68414 814.32117 4294967295
31.706423 782.03082 815.45667 4294967295
33.467892 782.03082 815.45667 4294967295
-10.53578 784.92627 813.97394 4291543024
-8.7798166 784.255 813.40796 4294568191
29.851376 784.255 813.40796 4294967295
31.60734 785.59747 814.53992 4294967295
33.363304 785.59747 814.53992 4294967295
-12.291743 786.93988 815.67188 4288911579
-10.53578 786.93988 815.67188 4290555846
-8.1773701 787.52411 813.54828 4292334318
29.78899 787.07751 813.17175 4294967295
31.541285 788.41711 814.30127 4294967295
34.206421 787.67847 814.98657 4294967295
-10.513762 789.75677 815.43079 4292001256
-7.8743119 790.86255 814.40112 4291082220
29.695414 791.96838 813.37146 4294967295
31.442202 791.96838 813.37146 4294967295
34.117432 790.86255 814.40112 4294967295
36.798164 789.75677 815.43079 4294967295
-8.1516819 793.74896 814.87286 4292795135
-5.2293577 794.77539 813.12231 4291611643
26.14679 794.77539 813.12231 4294967295
28.761467 794.77539 813.12231 4294967295
31.442202 793.30377 814.49756 4294967295
34.353516 793.74896 814.87286 4294967295
36.682568 794.63922 815.62354 4294967295
-7.5535164 796.9964 814.99493 4292730108
-5.2293577 796.10803 814.24597 4294440959
29.633028 796.10803 814.24597 4294967295
31.376146 796.10803 814.24597 4294967295
33.700306 796.9964 814.99493 4294967295
36.605503 797.44067 815.36951 4294967295
-5.2128439 800.30383 813.85962 4293191163
29.53945 799.63959 813.29956 4294967295
31.277063 800.30383 813.85962 4294967295
33.014679 800.96802 814.41968 4294967295
-7.8192658 802.29645 815.53979 4290361305
34.752293 802.29645 815.53979 4294967295
36.48991 802.29645 815.53979 4294967295
-6.9284406 805.81122 814.57922 4291347967
-5.1963301 805.14911 814.02094 4292335354
32.044037 804.487 813.46265 4294967295
34.6422 805.81122 814.57922 4294967295
-10.39266 807.13544 815.6958 4293641727
-7.4960246 808.54572 815.14081 4294363380
-5.1853213 808.59021 814.30627 4294105343
28.519266 807.2688 813.19214 4294967295
32.148991 808.32599 814.08337 4294967295
34.568806 809.25092 814.86334 4294967295
37.240368 807.13544 815.6958 4294967295
-5.1688075 812.08954 813.33276 4293433568
28.42844 812.08954 813.33276 4294967295
31.012844 812.08954 813.33276 4294967295
-10.337615 814.72394 815.55396 4289674632
-7.4660549 814.28485 815.18378 4290661503
-5.1577983 814.8559 813.04919 4293559968
28.367889 814.8559 813.04919 4294967295
32.161469 813.84576 814.81354 4294967295
34.458717 814.06531 814.99866 4294967295
37.043121 814.72394 815.55396 4294967295
-7.7366972 817.48468 815.26575 4290463634
-5.1577983 816.17029 814.15747 4291118968
29.227524 816.17029 814.15747 4294967295
31.519876 817.04657 814.8963 4294967295
34.385323 817.48468 815.26575 4294967295
-6.8550458 820.96014 814.27209 4290658447
-5.1412845 820.30505 813.71973 4291579036
29.133945 819.64996 813.16736 4294967295
31.704586 820.96014 814.27209 4294967295
-7.7119265 822.27032 815.37671 4291386007
-5.1302752 823.70819 813.97314 4293160110
29.07156 823.70819 813.97314 4294967295
31.671558 822.98926 814.67493 4294967295
34.27523 822.27032 815.37671 4294967295
-6.8403668 825.01556 815.07544 4290720378
-5.1302752 825.01556 815.07544 4292562326
31.636698 825.01556 815.07544 4294967295
-7.3865438 829.34015 814.79785 4291050096
-5.1137614 828.47144 814.06531 4290981745
28.977982 828.47144 814.06531 4294967295
31.250765 829.34027 814.79785 4294967295
-7.3706422 833.3714 815.58081 4291185778
-4.53578 831.63751 814.1189 4291245156
28.348623 831.63751 814.1189 4294967295
31.183487 833.3714 815.58081 4294967295
-4.2385321 835.94067 813.823 4292169608
28.822018 835.94067 813.823 4294967295
-6.7816515 837.23688 814.91589 4291647079
-4.5113149 839.08905 813.86157 4292171918
1.6917431 838.65796 813.49805 4294341288
28.195719 839.08905 813.86157 4294967295
30.484404 838.59412 814.75226 4294967295
-6.7669725 841.24463 815.67908 4291581568
32.14312 841.24463 815.67908 4294967295
33.834862 841.24463 815.67908 4294900991
-6.7449541 845.94617 815.71924 4290919820
-4.3842201 844.39923 814.41486 4291708819
-1.6862385 843.36786 813.54529 4292495794
1.6862385 844.01245 814.08875 4293157788
3.3724771 843.36786 813.54529 4293615780
28.666056 843.36786 813.54529 4294967295
30.914373 844.22729 814.26984 4294901759
34.56789 845.94617 815.71924 4294835199
-3.9259939 848.21362 815.01495 4292369316
-1.6825688 846.71289 813.74957 4292760231
0.84128439 847.35602 814.29187 4293354916
3.9259937 846.49847 813.56885 4293879473
6.7302752 846.0697 813.20728 4294930126
28.60367 846.0697 813.20728 4294770175
31.127522 847.35602 814.29187 4294901759
34.492661 848.6424 815.37646 4294704383
-1.6770642 850.75299 813.23193 4292371361
0 850.75299 813.23193 4292892588
4.1926603 850.75299 813.23193 4294009772
6.7082567 850.75299 813.23193 4294798025
31.025688 850.75299 813.23193 4294901759
-4.1908255 853.02649 814.49493 4291574148
-1.6733944 854.71863 813.95972 4293539466
1.6752293 853.37683 814.13635 4294006964
3.3467889 854.71863 813.95972 4294670521
28.447706 854.71863 813.95972 4294901759
31.259939 853.82416 814.07745 4294901503
34.361469 853.02649 814.49493 4294835967
-4.183486 855.99799 815.03845 4290585194
31.794495 855.99799 815.03845 4294967295
34.304588 855.99799 815.03845 4294967295
-6.6715598 860.64618 815.03357 4291185261
-4.4477067 859.79608 814.31671 4292106375
1.66789 859.37103 813.95837 4292888477
28.354128 859.37103 813.95837 4294967295
31.133947 859.79608 814.31671 4294901759
34.191742 860.64618 815.03357 4294967295
-3.8831806 862.88739 814.30719 4291969664
1.6642202 862.03918 813.59204 4292168878
26.627523 862.03918 813.59204 4294901759
29.123852 862.03918 813.59204 4294967295
31.620184 863.31152 814.66479 4294967295
33.284405 863.31152 814.66479 4294967295
-4.1568809 865.27753 815.01453 4291175001
-1.6605505 864.70178 813.22095 4293289633
1.6605505 864.70178 813.22095 4292698295
26.568808 864.70178 813.22095 4294901759
29.059633 864.70178 813.22095 4294967295
31.550459 865.97125 814.29138 4294967295
34.079819 865.27753 815.01453 4294967295
-3.3100917 869.31769 813.18896 4290641991
-1.6550459 869.31769 813.18896 4292613989
1.6550459 869.31769 813.18896 4294662310
3.3100917 869.31769 813.18896 4294007991
28.963303 869.31769 813.18896 4294967295
31.445871 869.31769 813.18896 4294967295
33.986237 868.27924 814.27539 4294967295
36.532108 867.24078 815.36182 4294967295
-4.1376147 871.21564 814.78925 4290715499
34.204281 871.0047 814.61151 4294967295
36.411011 871.84827 815.32263 4294967295
-3.8532112 874.48975 814.93384 4291900548
-1.6495413 874.54663 813.67377 4290783859
1.1009175 874.52765 814.09375 4291496017
4.1238532 874.54663 813.67371 4293669510
7.4229355 874.54663 813.67377 4294732481
10.710092 875.86597 813.47815 4294798245
29.131498 874.98639 813.60858 4294967295
31.341284 874.54663 813.67377 4294967295
33.85321 874.48975 814.93384 4294967295
36.330276 875.7522 815.99829 4294967295
-3.8446484 877.96539 815.24835 4291570519
-1.6477064 877.12561 814.54028 4292627840
1.6477064 877.12561 814.54028 4290519390
3.2954128 877.12561 814.54028 4292345932
7.4146786 877.12561 814.54028 4294267569
32.404892 877.54559 814.89435 4294967295
34.601833 878.38531 815.60242 4294967295
-3.2844036 881.69666 814.47046 4290773043
-1.6422018 881.06897 813.94116 4292355649
0.82110089 880.44122 813.41187 4292227707
4.1055045 880.44122 813.41187 4293264736
7.3899078 880.44122 813.41187 4294133910
9.8532114 880.44122 813.41187 4294930851
29.559633 880.44122 813.41187 4294967295
31.749235 881.27814 814.11761 4294967295
-6.5541286 884.31714 814.06384 4290058333
-4.9155965 884.31714 814.06384 4289795161
1.6385322 883.06445 813.00769 4292018269
4.0963306 883.06445 813.00769 4293591621
7.3733945 883.06445 813.00769 4294058622
10.650459 883.06445 813.00769 4294924955
28.947401 883.48199 813.35968 4294901759
31.988073 883.63464 814.79639 4294967295
34.48624 882.95215 815.52893 4294967295
-6.5541286 885.56982 815.12012 4291187323
-4.0871563 886.93201 813.65259 4291448711
-1.6348624 886.93201 813.65259 4291578513
1.6348624 886.93201 813.65259 4292165755
4.0871563 886.93201 813.65259 4292815995
22.888073 886.93201 813.65259 4294967295
28.610092 886.93201 813.65259 4294967295
31.951376 885.56982 815.12012 4294967295
34.409176 885.56982 815.12012 4294967295
-6.5394497 889.43176 815.76025 4290328428
-4.359633 888.59845 815.05768 4292304785
1.6348624 888.18188 814.70642 4291910528
3.2697248 888.18188 814.70642 4293347231
29.427523 888.18188 814.70642 4294967295
31.879818 888.80682 815.2334 4294967295
34.332111 889.43176 815.76025 4294967295
-3.9104588 892.9613 814.81219 4291578257
-1.6293578 891.46655 813.55188 4292825525
1.6293578 892.08936 814.07703 4292701063
3.2587156 891.46655 813.55188 4293282985
29.32844 891.46655 813.55188 4294967295
31.772476 892.71222 814.60217 4294967295
35.031193 893.95789 815.65247 4294967295
-3.2513762 896.55164 815.22351 4292039538
-1.6256881 895.30878 814.17554 4291972744
0.81284404 894.68738 813.65155 4292962964
3.7932723 894.48022 813.47687 4293749436
28.449541 894.06592 813.12756 4294967295
31.971863 895.72308 814.5249 4294967295
-1.6220183 899.13983 814.78967 4292105863
1.0813456 898.31317 814.09259 4293024445
4.0550461 897.89984 813.74414 4293819293
6.4880733 897.89984 813.74414 4294536134
28.655661 898.31317 814.09259 4294901503
31.359022 898.7265 814.44116 4294967295
-3.2440367 900.37988 815.83533 4292764041
-1.6220183 900.37988 815.83533 4294277280
0.80825686 902.39368 813.60913 4292365494
4.0412846 902.39368 813.60913 4294208680
6.4660549 902.39368 813.60913 4294931156
11.315597 902.39368 813.60913 4294929878
29.097248 902.39368 813.60913 4294967295
31.577065 901.38678 814.72223 4294967295
34.062386 900.37988 815.83533 4294967295
-3.2330275 904.86536 815.69324 4290576459
-1.6165137 904.24744 815.17224 4291431778
0.80825686 904.29944 813.90802 4291766139
4.0376148 904.29944 813.90802 4293741212
7.2577982 904.9693 813.16479 4294934724
11.289908 904.9693 813.16479 4294930635
13.709174 904.9693 813.16479 4294665425
29.031193 904.9693 813.16479 4294967295
31.487156 904.29944 813.90802 4294901759
33.946789 904.86536 815.69324 4294967295
-3.225688 907.43536 815.24414 4290840140
-1.612844 907.43536 815.24414 4290840140
0.806422 906.81885 814.72437 4291954493
4.0302753 907.1524 814.35156 4292746349
7.2495413 907.4859 813.97876 4294395520
28.965137 908.76947 813.75293 4294638591
31.433027 907.1524 814.3515 4294835967
33.869724 907.43536 815.24414 4294967295
-1.6091744 911.22992 815.82751 4290774347
0.80458719 910.61481 815.30884 4291362894
4.0229359 909.99969 814.79016 4292411720
7.23211 910.66534 814.04346 4293527658
10.43578 911.33099 813.29675 4294394227
14.449541 911.33099 813.29675 4294660817
25.688074 911.33099 813.29675 4294966783
28.096329 911.33099 813.29675 4294835967
31.344036 910.66534 814.04346 4294901759
34.329052 910.81982 815.48175 4294572543
-3.2110093 913.78583 815.36658 4290576972
0.80275232 913.78583 815.36658 4291166285
4.0137615 913.17212 814.84912 4292937815
6.9571862 912.96753 814.67657 4293202027
28.899082 913.17212 814.84912 4294835711
31.307339 913.17212 814.84912 4294770175
33.715595 913.78583 815.36658 4294836223
-3.2 916.99756 814.15051 4290314827
8 916.38599 813.63483 4293400432
9.6000004 915.77435 813.11914 4293660015
22.4 915.77435 813.11914 4294967295
24.799999 916.38599 813.63477 4294967295
27.200001 916.38599 813.63483 4294967295
0 918.22083 815.18188 4291299144
7.1999998 918.22083 815.18188 4293334893
11.174312 919.54089 813.67896 4293595237
17.559633 919.54089 813.67896 4294938329
23.14679 919.54089 813.67896 4294967295
25.541285 919.54089 813.67896 4294967295
27.968807 918.88086 814.43042 4294901759
30.330275 920.76129 814.70789 4294835967
-1.5963303 921.98175 815.73694 4290774347
0 921.98175 815.73694 4291231822
3.9908257 921.98175 815.73694 4292740192
6.3706422 922.07861 813.20264 4293334375
-1.5926605 924.51379 815.25586 4291105615
0.79633027 924.51379 815.25586 4291298124
3.9816513 924.51379 815.25586 4292937317
7.1504583 925.82544 813.74573 4293332835
31.022018 925.16962 814.50079 4294901759
-3.7076452 927.8501 815.45288 4288170875
-1.5871559 928.30066 814.52478 4287704159
0.7944954 928.30139 814.52533 4288874842
3.9651375 928.62787 814.14667 4291822680
7.133945 928.95508 813.76855 4293594467
10.304587 928.95508 813.76855 4293991287
13.475229 928.95508 813.76855 4294584954
16.645872 928.95508 813.76855 4294065551
19.023853 928.95508 813.76855 4289352861
28.53578 928.95508 813.76855 4294901759
30.93211 928.62787 814.14667 4294835711
33.898472 927.8501 815.45288 4294901247
36.546787 928.25507 815.79431 4294900991
-3.9633026 930.77313 815.30139 4288513468
-1.5853211 930.77313 815.30139 4289827012
0.79266053 931.4248 814.54285 4287972793
3.9633026 930.77313 815.30139 4288811348
7.1266055 931.4248 814.54285 4290327133
10.280734 932.07642 813.7843 4292877174
13.444036 932.07642 813.7843 4294651266
16.60734 932.07642 813.7843 4293801608
18.979816 932.07642 813.7843 4292387540
26.097248 932.07642 813.7843 4294901759
28.53578 930.77313 815.30139 4294967295
30.913761 930.77313 815.30139 4294967295
-3.1633027 934.49475 815.82336 4285163888
-1.5816513 934.49475 815.82336 4281281845
0 933.89014 815.3136 4286604411
4.2177367 934.09174 815.48358 4289961663
7.3810401 933.68866 815.14374 4290222546
10.017125 933.68866 815.14374 4290717371
13.444036 933.28558 814.80383 4294451570
15.816514 933.28558 814.80383 4292616571
28.469725 933.89014 815.3136 4294704383
30.578592 934.09174 815.48358 4294967295
0 938.8512 815.57251 4278190646
3.677676 938.04785 814.8952 4279254384
6.8299699 937.24457 814.21783 4287070691
10.507646 937.24457 814.21783 4290022878
13.389908 937.36737 813.66748 4292043681
16.549541 937.0437 814.04858 4293344415
19.6789 937.69116 813.28638 4294697471
23.081347 938.10773 813.20166 4294309375
25.976147 937.69116 813.28638 4294769919
29.158714 937.64618 814.55652 4294835711
33.099083 938.8512 815.57251 4294967295
4.1932721 940.94464 814.72162 4286941366
7.0761466 940.74432 814.55273 4288324075
10.48318 940.54395 814.38379 4288129221
13.628135 940.54395 814.38379 4290286319
16.773088 940.54395 814.38379 4291713955
19.655964 940.14325 814.0459 4292646399
22.800919 940.14325 814.0459 4293980414
25.945873 940.14325 814.0459 4294901759
29.090824 940.14325 814.0459 4294901759
31.449541 940.14325 814.0459 4294967295
34.594494 941.3454 815.05945 4294704383
36.166973 941.3454 815.05945 4294967295
7.0596333 943.83392 814.54175 4289311968
9.9357796 943.43414 814.20465 4287800549
13.073395 943.43414 814.20465 4286805676
15.688073 942.63458 813.53052 4293770447
19.610092 942.63458 813.53052 4292579806
22.747707 942.63458 813.53052 4294308863
25.885323 942.63458 813.53052 4294835199
29.022936 942.63458 813.53052 4294835455
32.160549 943.23425 814.03613 4294967295
4.1798167 945.86005 815.37811 4288781771
7.0522938 945.67517 814.78613 4285766882
10.173394 946.31696 814.01929 4288456416
16.433945 945.12036 813.01038 4291801063
20.346788 945.12036 813.01038 4294831328
22.694496 945.12036 813.01038 4294967295
25.824772 945.12036 813.01038 4294704383
29.215902 945.51923 813.34668 4294835967
31.824463 946.71582 814.35565 4294704127
35.235783 946.5943 814.90717 4294901247
37.607338 946.27344 815.29059 4294836223
3.1229358 948.79431 813.49207 4282463084
6.2458715 948.79431 813.49207 4288193010
26.544954 948.79431 813.49207 4294900991
29.147402 949.1922 813.82764 4294901503
32.270336 949.59015 814.16309 4294769407
35.913761 949.9881 814.49866 4294967295
37.475231 949.9881 814.49866 4294901759
-3.1155963 953.64795 814.96851 4286411936
-1.5614679 951.18182 815.50513 4278386734
1.5577981 952.45703 813.96423 4278191421
4.6733947 952.45703 813.96423 4292730111
29.598166 952.45703 813.96423 4294835199
31.699694 952.42896 814.81268 4294637823
35.091743 952.41492 815.23682 4294835455
37.431194 952.41492 815.23682 4294967295
39.036697 951.18182 815.50513 4294967295
-3.8853211 956.10852 814.42712 4288516035
-1.5541284 955.5144 813.92621 4287726252
0.7770642 955.5144 813.92627 4283319974
3.8853211 955.51447 813.92621 4283127209
6.2165136 955.5144 813.92621 4288263096
29.52844 954.92035 813.42529 4294637823
32.118652 955.71246 814.0932 4294638335
35.050461 954.83893 815.97266 4294901247
38.166054 954.83893 815.97266 4294835967
-3.1082568 957.29663 815.42896 4282779729
-1.5541284 957.29663 815.42896 4286332551
0.7770642 957.29663 815.42896 4289099158
4.1406727 958.11401 815.24609 4290491872
7.2403665 958.53632 814.73016 4289773286
10.077982 959.15613 814.38062 4285430505
12.920489 958.95856 814.21411 4284244015
15.504587 959.15613 814.38068 4282273114
29.458715 959.74878 814.88037 4294967295
31.784403 959.15613 814.38062 4294704639
34.190826 957.29663 815.42896 4294967295
38.076149 957.29663 815.42896 4294704127
17.034863 960.97345 814.60498 4287479741
19.357798 960.97345 814.60498 4290364157
22.441286 961.28876 814.2168 4292665593
25.522018 961.604 813.82861 4294835711
28.403059 960.96039 815.02997 4294704127
-16.216515 749.1897 816.54248 4285661226
36.937614 749.1897 816.54248 4294967295
-18.018349 751.25598 818.28473 4288224313
-16.216515 751.25598 818.28473 4288816450
37.838531 751.25598 818.28473 4294967295
40.240978 751.4856 818.47833 4294967295
-16.166973 755.58435 818.01025 4289285486
-13.472477 754.21106 816.85229 4289206869
35.926605 754.21106 816.85229 4294967295
-17.012844 759.90015 817.72504 4288629370
35.816513 759.90015 817.72504 4294967295
37.607338 760.58466 818.30225 4294967295
-16.680122 762.99799 817.72113 4288108687
-13.403669 762.0871 816.95312 4290729348
34.849541 762.77026 817.52911 4294967295
37.530273 763.45343 818.1051 4294967295
46.466057 763.45343 818.1051 4294967295
-16.034863 767.06494 817.2262 4289238995
-13.362385 766.38391 816.65198 4290220480
32.069725 765.70288 816.07776 4294967295
33.851376 766.38391 816.65198 4294967295
-19.598166 768.42706 818.37463 4289632458
-16.925688 768.42706 818.37463 4289897957
-13.3211 770.66809 816.34009 4291541245
34.689907 769.54761 817.35736 4294967295
37.41468 768.42706 818.37463 4294967295
-19.537615 772.70496 818.0575 4287529904
-17.169418 772.47858 817.8667 4287925454
-13.308256 772.77161 816.80566 4289173736
31.904587 773.51715 816.12634 4294967295
34.634861 772.70496 818.0575 4294967295
-15.952293 775.5498 817.84021 4288454614
-13.58899 775.32391 817.64972 4289305824
33.677063 774.87225 817.26892 4294967295
-15.902752 779.80658 817.50537 4288915415
-13.252294 779.13116 816.93585 4290622201
31.805504 778.45575 816.36633 4294967295
34.455963 779.13116 816.93585 4294967295
-15.902752 781.15747 818.64441 4288256468
37.106422 781.15747 818.64441 4294967295
-15.853211 784.72412 817.72766 4287795917
-13.504588 783.82635 816.9707 4288978658
35.229359 783.37744 816.59216 4294967295
36.990826 784.72412 817.72766 4294967295
-16.733946 786.0708 818.86304 4287533247
-13.169725 788.28235 816.80371 4289965035
38.752293 786.0708 818.86304 4294967295
-13.169725 789.62482 817.93567 4290230514
-10.513762 791.09644 816.56042 4292858879
37.674309 791.09644 816.56042 4294967295
-12.266055 793.10583 818.2547 4290297338
-10.513762 792.43604 817.68994 4291809535
38.550457 792.43604 817.68994 4294967295
40.302753 793.10583 818.2547 4294967295
42.639141 793.3291 818.44293 4294967295
-12.227523 797.31006 817.87549 4288652266
-10.480734 796.64233 817.3125 4290425573
38.429359 795.97467 816.74951 4294967295
41.049541 797.31006 817.87549 4294967295
43.669724 797.31006 817.87549 4294967295
-10.458715 800.1059 817.61682 4289702347
-7.8440366 798.77325 816.49316 4291150059
34.862385 798.77325 816.49316 4294967295
37.767586 799.21747 816.86768 4294967295
40.091743 800.1059 817.61682 4294967295
-17.431192 801.43854 818.74048 4290619074
-13.073395 801.43854 818.74048 4291476476
-10.425688 803.62488 816.65979 4290821623
-8.6880732 803.62488 816.65979 4291216381
37.358719 803.62488 816.65979 4294967295
40.963303 801.43854 818.74048 4294967295
43.57798 801.43854 818.74048 4294967295
-15.638532 806.28174 818.90002 4288165236
-13.03211 805.61755 818.33997 4291132102
41.123547 805.39618 818.15332 4294967295
43.440369 806.28174 818.90002 4294967295
-12.990826 809.78381 817.92883 4288687718
-10.39266 808.45966 816.81226 4290535876
-8.6605501 808.45966 816.81226 4291193806
37.240368 808.45966 816.81226 4294967295
40.704586 809.1217 817.37054 4294967295
-12.963303 812.55444 817.6488 4289017965
-10.370643 811.23303 816.53467 4289344658
-8.6422014 811.23303 816.53467 4289936795
37.161469 811.23303 816.53467 4294967295
39.754128 811.89374 817.09174 4294967295
-12.963303 813.87585 818.76294 4289479799
39.754128 813.87585 818.76294 4294967295
-12.634862 818.23651 818.51562 4289939823
-10.326606 817.4201 816.51935 4290467994
-8.5963306 818.79907 816.37402 4290205334
34.385323 818.79907 816.37402 4294967295
37.200001 817.38312 817.27283 4294967295
39.627522 818.01697 818.33057 4294967295
-12.034863 821.42786 818.59058 4289276764
-10.315597 820.77063 818.03644 4290529669
36.964218 820.77063 818.03644 4294967295
-10.282569 824.89069 817.58618 4289603417
-8.5688076 823.58051 816.48145 4290657661
35.417736 824.01727 816.84967 4294967295
-11.128441 826.91565 817.98553 4289145954
-8.5504589 826.323 816.17786 4290721641
32.491745 826.323 816.17786 4294967295
34.771866 827.19458 816.91278 4294967295
37.702751 826.20087 818.69092 4294967295
-10.26055 828.93774 818.38257 4290004848
35.056881 828.93774 818.38257 4294967295
-11.079817 833.03253 817.91107 4289413240
-8.5229359 831.07776 816.26294 4290465399
32.387157 831.07776 816.26294 4294967295
34.944038 833.03253 817.91107 4294967295
37.500916 833.68414 818.46045 4294967295
-10.205504 835.75537 817.59094 4290464105
-8.5045872 835.10522 817.04272 4290333296
32.317432 835.10522 817.04272 4294967295
34.018349 835.10522 817.04272 4294967295
-7.9119263 838.96509 816.37305 4291055722
32.212845 838.53302 816.00879 4294967295
34.755962 839.18109 816.55524 4294901247
-10.172477 841.12531 818.19458 4291056225
-7.612844 842.53802 816.76965 4290988401
34.680733 842.53802 816.76965 4294769407
38.14679 841.12531 818.19458 4294835455
-10.150458 845.12469 818.95068 4290265454
-8.4587154 843.83136 817.86011 4290990682
38.06422 844.47803 818.4054 4294901503
-10.117432 848.52448 817.89319 4290068345
-7.8691125 847.66504 817.16846 4291186057
37.940369 847.87988 817.34967 4294835967
-10.117432 849.8136 818.9801 4289471606
-7.2911315 850.78632 817.18408 4290918280
37.605503 850.31915 817.66229 4294967295
-10.095413 852.5014 818.63025 4289538174
-7.5605502 853.55042 817.55273 4290655868
37.733944 854.59937 816.47522 4294967295
-10.062386 857.16364 818.63733 4288544833
-7.8214059 856.77417 817.43683 4291573884
34.304588 857.27728 816.11707 4294967295
37.733944 856.52258 818.0968 4294835455
-10.040367 859.83594 818.27454 4288872501
-8.3669729 859.83594 818.27454 4289921605
37.651375 859.19629 817.73517 4294967039
-7.2275233 862.7713 816.8255 4289529154
35.025688 861.92126 816.10876 4294967295
36.693577 862.55884 816.6463 4294967295
-10.007339 864.4715 818.25903 4290136666
-7.4981651 865.16382 817.53473 4290396247
-4.9926605 865.85614 816.81042 4289076539
38.277065 865.85614 816.81042 4294967295
40.029358 864.4715 818.25903 4294967295
-9.985321 868.40076 818.95593 4290463825
-7.206728 868.43634 818.11395 4290986859
-4.9816513 868.51025 816.43225 4289009731
37.639145 868.93341 816.78906 4294967295
40.466663 868.43634 818.11395 4294967295
-6.6422019 871.04926 818.57312 4291447711
41.51376 871.04926 818.57312 4294967295
-6.6201835 874.37891 817.45642 4290318702
-4.9651375 873.11359 816.38953 4291842212
37.652294 874.06256 817.1897 4294967295
40.134861 874.69519 817.72314 4294967295
-7.4311924 877.646 817.59509 4289527879
36.880733 877.85645 817.77246 4294967295
-7.4146786 880.27484 817.19562 4289598026
-4.943119 879.64502 816.66455 4290774869
34.601833 879.64502 816.66455 4294967295
36.249542 880.90466 817.72668 4294967295
-9.8862381 882.16437 818.78882 4289874014
-8.211009 884.20764 816.58752 4290400358
37.012844 883.18604 817.68817 4294967295
-10.674313 886.09082 818.17542 4289083732
-7.3733945 886.82251 816.17627 4290529637
34.409176 886.82251 816.17627 4294967295
36.909172 886.14282 816.91119 4294967295
39.412846 886.71857 818.70471 4294967295
-9.831193 888.70148 817.76062 4289081693
-7.6354737 889.81281 816.95361 4290463093
35.149544 890.68164 816.81409 4294967295
37.14006 888.49268 817.58466 4294967295
39.324772 889.32782 818.2887 4294967295
-9.8091745 892.5564 818.3949 4288819815
-7.3568807 892.5564 818.3949 4290594688
37.601833 892.5564 818.3949 4294967295
39.236698 893.18134 818.92188 4294967295
-6.5174313 896.44922 817.75317 4290394727
-4.8880734 895.82642 817.22797 4291382399
35.302753 895.61884 817.05292 4294967295
-7.3321099 897.69489 818.80347 4289474138
-4.0642204 898.41589 816.79541 4292236154
34.952293 898.41589 816.79541 4294967295
37.475231 897.69489 818.80347 4294967295
39.104588 897.69489 818.80347 4294967295
-6.4880733 902.85999 817.92639 4289529943
-4.329052 901.58673 817.72485 4289922645
35.14373 902.03326 817.22931 4294967295
37.348625 901.57007 818.14685 4294901759
38.92844 904.10004 818.97205 4294573567
-9.6990824 908.57288 818.81934 4288413769
-7.4330277 907.35608 817.2702 4289465171
-4.3045869 907.81268 816.43427 4290251344
-1.612844 908.6684 816.28381 4290774347
35.522934 907.38477 816.50952 4294770431
37.988075 907.33704 817.77722 4294770175
40.412846 908.57288 818.81934 4294901759
-9.6770639 911.13446 818.36304 4288479307
-6.451376 910.51794 817.84326 4289791050
-4.3009171 910.31244 817.66998 4290447951
37.901833 910.51794 817.84326 4294704383
-4.8275228 914.92065 818.93933 4289727304
-1.6091744 912.46014 816.86475 4290774095
32.183487 913.69037 817.9021 4294967295
35.401836 913.07526 817.38342 4294770175
37.413303 913.99799 818.16138 4294704383
-4.0137615 916.85437 817.95386 4290184782
-1.6055046 915.62695 816.91895 4291301467
1.0703365 915.42236 816.7464 4291101257
4.0137615 915.62695 816.91895 4292675157
6.4220185 915.01324 816.40149 4293005161
28.899082 915.01324 816.40149 4294967295
31.307339 916.24066 817.4364 4294901503
34.357796 916.48615 817.64337 4294835967
36.926605 917.46808 818.47131 4294835199
-3.7333333 920.25952 816.90088 4290315085
-1.6 919.44403 816.21326 4290774095
1.0666667 919.85181 816.55713 4291100745
4 919.44403 816.21326 4292609113
32 920.66724 817.24475 4294770175
34.400002 920.66724 817.24475 4294770175
-6.4000001 921.89044 818.27612 4289593919
-3.9908257 923.20215 816.76599 4290251077
34.321098 923.20215 816.76599 4294901759
37.599998 921.89044 818.27612 4294836223
-6.9125381 925.67157 817.97607 4287388281
-4.7779818 925.73145 816.28247 4287570492
35.038532 925.73145 816.28247 4294967295
37.722324 925.70099 817.12891 4294835967
39.908257 925.64294 818.82397 4294967295
-7.1596327 928.81824 817.57721 4287529139
34.163303 929.46985 816.8186 4294901247
37.341286 929.46985 816.8186 4294835199
40.612846 928.16663 818.33582 4294967295
-7.4152904 931.08954 818.18433 4283322507
-3.9633026 931.98511 816.32336 4286479028
-1.5853211 931.98511 816.32336 4286018975
1.5853211 931.98511 816.32336 4290944462
3.1706421 931.98511 816.32336 4290483892
31.706423 931.98511 816.32336 4294835967
34.084404 931.98511 816.32336 4294770175
37.341286 930.68463 817.8429 4294704383
40.254433 931.49445 818.5257 4294835967
47.669724 931.89941 818.86719 4294967295
49.258717 931.89941 818.86719 4294967295
-6.3412843 933.8031 817.85626 4282663543
-4.2250762 934.43671 817.51849 4282794610
-1.5816513 935.70392 816.8429 4278977836
1.0556575 934.86835 817.01044 4283057742
31.633028 935.70392 816.8429 4294967295
34.06514 934.12677 817.47522 4294835967
37.255047 933.80304 817.8562 4294835711
39.633026 934.40906 818.36719 4294770175
-6.3266053 938.12231 818.88208 4280951878
-3.9541283 937.5177 818.37231 4280688452
-1.5816513 937.5177 818.37231 4280160826
1.5816513 936.91315 817.86255 4279310412
34.796329 936.91315 817.86255 4294704383
37.168808 936.91315 817.86255 4294901759
-3.940367 941.26111 817.60449 4280951879
-1.5761468 941.26111 817.60449 4280950595
0.52538228 940.45782 816.92719 4279900484
37.827522 940.05615 816.5885 4294967295
-3.940367 942.46613 818.62048 4280886343
-1.5761468 942.46613 818.62048 4281082437
0.78623855 943.42883 817.47015 4279769411
3.9311926 942.54755 816.07312 4287201454
34.594494 942.54755 816.07312 4294967295
36.953209 942.54755 816.07312 4294967295
40.144035 943.70898 818.36041 4294967295
-1.5688074 947.43207 817.57556 4279503419
1.5688074 946.23267 816.56433 4279705159
39.220184 946.23267 816.56433 4294967295
-3.9183486 949.26904 817.81647 4278386731
0 948.71008 816.03711 4278587957
34.433029 948.71008 816.03711 4294703871
39.128441 948.71008 816.03711 4294967295
-4.6844039 952.37561 816.51172 4286412967
39.817429 952.37561 816.51172 4294901759
-4.6733947 956.02985 816.97681 4278190165
35.829357 956.02985 816.97681 4294836223
-6.2311926 958.41174 818.98523 4286680766
-3.8926606 958.1322 818.09552 4283191656
-1.5541284 959.07886 816.93158 4281084737
0.7770642 959.07892 816.93158 4282271277
3.6262996 959.27686 817.09857 4281940400
6.7345567 959.27686 817.09857 4282072509
10.101835 959.67297 817.4325 4289827528
13.469113 959.27686 817.09857 4289900736
15.541285 959.67297 817.4325 4280378952
31.859632 959.67297 817.4325 4294637823
35.009174 958.44751 817.7074 4294638591
38.098167 958.76355 817.31976 4294770175
41.184402 959.07892 816.93158 4294770431
43.515594 959.67297 817.4325 4294901759
45.122936 958.44824 817.70795 4294901759
0 960.86108 818.43433 4290560511
3.8853211 960.86108 818.43433 4278583546
6.993578 960.86108 818.43433 4278190229
10.101835 960.86108 818.43433 4281765456
13.210092 960.86108 818.43433 4289777407
16.318348 960.86108 818.43433 4289117860
19.380733 962.11951 816.87927 4290888189
22.481651 962.11951 816.87927 4293388795
25.582569 962.11951 816.87927 4294835711
28.718349 961.4903 817.6568 4294704383
31.859632 960.86108 818.43433 4294506751
34.967888 960.86108 818.43433 4294572543
23.25688 963.30481 817.87878 4294966527
25.582569 963.30481 817.87878 4294704127
41.568806 748.29675 819.71362 4294967295
43.376148 749.67847 820.87866 4294967295
45.183487 749.67847 820.87866 4294967295
-18.919266 754.01099 820.60773 4288628590
37.838531 753.32227 820.02698 4294967295
40.841587 753.78143 820.41412 4294967295
43.244038 754.01099 820.60773 4294967295
-19.759632 758.33099 820.32617 4288563322
-17.963303 756.95764 819.16821 4288826232
37.722935 756.95764 819.16821 4294967295
40.118042 757.87323 819.94019 4294967295
43.111927 758.33099 820.32617 4294967295
-22.385321 761.95374 819.45667 4287848318
-19.699083 761.95374 819.45667 4288374935
40.293579 761.95374 819.45667 4294967295
43.875229 761.95374 819.45667 4294967295
-25.07156 763.32288 820.61108 4287462546
-22.385321 763.32288 820.61108 4288054181
-19.658716 764.8197 819.25708 4288514230
-17.871559 764.8197 819.25708 4288054978
35.743118 764.8197 819.25708 4294967295
37.530273 764.8197 819.25708 4294967295
40.253212 764.07129 819.93408 4294967295
43.875229 763.32288 820.61108 4294967295
-25.020184 766.86914 820.98517 4287855261
-22.339451 766.18604 820.40918 4288645300
40.508869 766.64142 820.79315 4294967295
43.78532 766.86914 820.98517 4294967295
-22.270641 769.78912 819.52319 4286935448
35.633026 769.78912 819.52319 4294967295
37.41468 769.78912 819.52319 4294967295
39.196331 769.78912 819.52319 4294967295
-24.943119 771.83228 821.24585 4287528862
-22.270641 771.83228 821.24585 4286938270
37.41468 771.15125 820.67163 4294967295
40.087158 771.83228 821.24585 4294967295
43.650459 772.51331 821.82007 4294967295
-19.537615 775.42065 820.34735 4288189882
-17.761467 774.7417 819.7749 4287140551
35.522934 774.7417 819.7749 4294967295
37.299084 774.7417 819.7749 4294967295
39.07523 776.09961 820.9198 4294967295
-17.724771 778.25989 820.12537 4287335619
37.222019 777.5824 819.55408 4294967295
-19.497248 780.29254 821.83923 4287398829
-17.669725 782.5083 819.78345 4286677179
38.873394 782.5083 819.78345 4294967295
40.766972 780.29254 821.83923 4294967295
-19.436697 783.85919 820.92236 4287528602
40.640366 783.85919 820.92236 4294967295
42.407341 783.85919 820.92236 4294967295
-19.376146 788.7641 821.13403 4287532464
-16.733946 788.09076 820.56628 4287930057
40.51376 787.41742 819.99854 4294967295
42.27523 787.41742 819.99854 4294967295
-14.047707 790.96729 819.06763 4288324069
43.899082 790.96729 819.06763 4294967295
-15.80367 792.98096 820.76544 4288718292
-14.047707 792.30969 820.19946 4288915175
-15.770642 796.45496 821.07861 4289175492
-14.018349 795.11536 819.9491 4288257509
-20.088074 799.98096 820.12756 4288517042
-15.721101 799.98096 820.12756 4291277004
-13.100918 798.64551 819.00146 4289108708
41.922935 798.64551 819.00146 4294967295
43.669724 798.64551 819.00146 4294967295
-22.708258 801.31641 821.25354 4289500594
-20.06789 802.04382 820.55884 4289892805
-16.559633 802.77118 819.86414 4291469507
43.57798 802.77118 819.86414 4294967295
-20.045872 804.10382 820.98779 4286791803
-17.431192 804.10382 820.98779 4287375720
-16.796942 808.05292 820.39355 4287571297
43.440369 808.27429 820.5802 4294967295
45.177982 808.93854 821.14026 4294967295
-15.588991 811.77014 819.6037 4288164450
41.570641 811.77014 819.6037 4294967295
43.302753 812.43225 820.16199 4294967295
-15.588991 813.75647 821.27844 4288037734
-13.827523 815.19727 819.8772 4288691300
41.570641 813.75647 821.27844 4294967295
43.302753 813.75647 821.27844 4294967295
-15.555964 816.51862 820.99133 4288365401
-15.506422 821.30994 821.10718 4286977614
-13.783486 819.99274 819.99646 4288750420
39.627522 820.65137 820.55182 4294967295
-13.181041 823.18036 820.06818 4288356182
37.823853 822.74225 819.69885 4294967295
39.543118 824.05664 820.80701 4294967295
-15.473394 825.37103 821.91528 4289351027
-13.754128 825.37103 821.91528 4289088375
-11.99633 827.51111 819.79565 4289285498
37.702751 827.51111 819.79565 4294967295
39.543118 825.37103 821.91528 4294967295
-13.710092 828.82129 820.90027 4288361847
