# .PCD v0.7 - Point Cloud Data file format
VERSION 0.7
FIELDS x y z rgb
SIZE 4 4 4 4
TYPE F F F U
COUNT 1 1 1 1
WIDTH 1157
HEIGHT 1
VIEWPOINT 0 0 0 1 0 0 0
POINTS 1157
DATA ascii
-6.9798164 882.73938 1303.2448 4288653259
-4.6532111 883.62878 1303.9946 4288852735
-2.3266056 884.51813 1304.7445 4292470527
-30.126606 890.46399 1303.2178 4291015867
-6.9522934 890.46399 1303.2178 4284773257
-4.6348624 890.46399 1303.2178 4286094789
-31.285322 892.23566 1304.7117 4289830812
-2.3174312 892.23566 1304.7117 4284327633
-30.031193 895.90692 1302.575 4289505697
-27.721102 895.90692 1302.575 4290952818
-6.9302754 895.90692 1302.575 4291217663
-4.6201835 895.90692 1302.575 4287934719
-2.3100917 895.90692 1302.575 4287145471
-31.186239 897.67303 1304.0641 4286285240
-2.3100917 897.67303 1304.0641 4292207359
-40.266056 905.31757 1303.9696 4285956541
-36.814678 904.43799 1303.228 4283521407
-34.51376 904.43799 1303.228 4284113544
-32.212845 904.43799 1303.228 4286015899
-29.144953 904.14484 1302.9808 4290556384
-4.6018348 903.55847 1302.4865 4291682047
-2.3009174 903.55847 1302.4865 4291879679
-36.667889 911.16803 1302.3624 4287664120
-34.376148 911.16803 1302.3624 4286282467
-32.084404 911.16803 1302.3624 4284577670
-28.64679 911.16803 1302.3624 4284048758
-25.209175 911.16803 1302.3624 4291414750
-22.917431 911.16803 1302.3624 4292661247
-20.625689 911.16803 1302.3624 4292529663
-41.251377 912.92004 1303.8397 4287522208
-37.813759 912.92004 1303.8397 4292198386
-34.376148 912.92004 1303.8397 4291282175
-32.084404 912.92004 1303.8397 4288263128
-28.64679 912.92004 1303.8397 4284512945
-25.209175 912.92004 1303.8397 4284710342
-22.917431 912.92004 1303.8397 4285429956
-20.625689 912.92004 1303.8397 4288785399
1.1458715 912.92004 1303.8397 4291550463
-41.119267 919.14648 1303.8574 4284902558
-37.692657 918.27325 1303.1212 4285626029
-34.266056 918.27325 1303.1212 4289048306
-31.981651 918.27325 1303.1212 4291674872
-28.555046 918.27325 1303.1212 4292662015
-25.128441 919.14648 1303.8574 4292794623
-22.844036 920.01965 1304.5938 4291876607
-19.417431 918.27325 1303.1212 4290098165
1.1422018 920.01965 1304.5938 4291483903
-40.954128 925.80273 1302.9298 4285102513
-38.678898 925.80273 1302.9298 4283391895
-25.027523 925.80273 1302.9298 4288128673
-22.752293 925.80273 1302.9298 4288788702
1.1376147 925.80273 1302.9298 4291287295
-40.954128 927.54224 1304.3965 4285891000
2.2752295 927.54224 1304.3965 4291353087
-40.822018 931.96954 1302.8973 4285956531
-37.420181 931.96948 1302.8973 4285628329
-34.018349 931.96954 1302.8973 4284773527
-29.482569 931.10266 1302.1664 4290038005
-15.875229 931.10266 1302.1664 4285960886
-9.0715599 931.96954 1302.8973 4291219455
-6.8036699 932.83643 1303.6283 4291023103
-4.53578 932.83643 1303.6283 4291088113
1.133945 931.96948 1302.8973 4291483647
-33.908257 938.10822 1302.8412 4282998154
-31.647707 938.10822 1302.8412 4282408330
-28.256882 938.10822 1302.8412 4287473887
-15.823853 938.10822 1302.8412 4285563564
-13.563303 938.10822 1302.8412 4286348204
-10.172478 938.10822 1302.8412 4286018216
-6.7816515 938.10822 1302.8412 4285622179
-4.521101 938.10822 1302.8412 4285753486
-2.2605505 938.10822 1302.8412 4287003553
0 938.10822 1302.8412 4287531445
-38.429359 939.83643 1304.2983 4283062401
-33.908257 939.83643 1304.2983 4282867598
-31.647707 939.83643 1304.2983 4282539680
-28.256882 939.83643 1304.2983 4286354374
-24.866055 939.83643 1304.2983 4288129743
-4.521101 939.83643 1304.2983 4285358478
-2.2605505 939.83643 1304.2983 4285490321
-33.770641 946.38757 1303.282 4284840634
-31.519266 946.38757 1303.282 4286153139
-28.1422 946.38757 1303.2819 4286416313
-24.765137 947.24817 1304.0076 4288191173
-4.5027523 945.52698 1302.5563 4285753738
-2.2513762 945.52698 1302.5563 4285819531
-40.392662 952.461 1303.1709 4290563071
-38.148624 952.461 1303.1709 4287996901
-29.172478 952.461 1303.1709 4285172429
-26.92844 952.461 1303.1709 4281563835
-4.4880733 952.461 1303.1709 4285490570
-2.2440367 952.461 1303.1709 4285490570
-40.392662 954.17657 1304.6174 4290299647
-38.148624 954.17657 1304.6174 4289444347
-2.2440367 954.17657 1304.6174 4285096589
-43.579819 959.7998 1302.8186 4290365942
-40.227524 959.7998 1302.8186 4290234103
-37.992661 959.7998 1302.8186 4291155199
-35.757797 959.7998 1302.8186 4291417343
-51.401836 961.50836 1304.2592 4290693108
-46.93211 961.50836 1304.2592 4290430963
-43.579819 961.50836 1304.2592 4290037756
-40.227524 961.50836 1304.2592 4290103287
-37.992661 961.50836 1304.2592 4290103287
-2.2348623 961.50836 1304.2592 4284900743
-33.412846 966.66229 1303.3727 4290168308
-31.185322 967.51379 1304.0906 4290168562
-28.957798 966.66229 1303.3727 4290167793
-52.133945 754.47314 1306.2765 4289898193
-49.651375 754.47314 1306.2765 4290292971
-52.133945 756.37109 1307.8767 4289570514
-49.651375 756.37109 1307.8767 4290491629
-47.168808 756.37109 1307.8767 4290820594
9.930275 756.37109 1307.8767 4294705151
-46.959633 763.42023 1305.9723 4291744511
-43.252296 763.42023 1305.9723 4292665343
-46.959633 765.30975 1307.5654 4291219711
-43.252296 765.30975 1307.5654 4292469247
-44.322937 771.77887 1306.4799 4290822143
-40.629356 771.77887 1306.4799 4291612159
-44.157799 778.21985 1305.3706 4291220479
-41.704586 778.21985 1305.3706 4292602111
1.2266055 778.21985 1305.3706 4294245887
4.9064221 778.21985 1305.3706 4293720063
7.359633 778.21985 1305.3706 4293983231
9.8128443 778.21985 1305.3706 4294048511
13.492661 778.21985 1305.3706 4294246143
-44.157799 780.09534 1306.952 4291876607
1.2266055 780.09534 1306.952 4294114559
4.9064221 780.09534 1306.952 4294048511
-46.436699 787.43555 1306.6008 4290755580
-43.992661 787.43555 1306.6008 4290233087
1.6293578 787.12408 1306.3383 4293851647
4.8880734 787.43555 1306.6008 4293654015
7.3321099 787.43555 1306.6008 4293654015
9.7761469 787.43555 1306.6008 4293653503
13.034863 787.12408 1306.3383 4293719551
-56.001835 794.74066 1306.2202 4287126165
-43.827522 794.74066 1306.2202 4288961986
-41.392662 794.74066 1306.2202 4290212053
-38.957798 794.74066 1306.2202 4289753295
1.2174312 794.74066 1306.2202 4293391615
14.609175 794.74066 1306.2202 4293785855
-46.262386 796.60217 1307.7898 4289622703
-43.827522 796.60217 1307.7898 4289356742
-41.392662 796.60217 1307.7898 4288961984
2.4348624 796.60217 1307.7898 4293719551
9.7394495 796.60217 1307.7898 4293982719
14.609175 796.60217 1307.7898 4294114559
-43.629356 803.46051 1305.7245 4289685666
-41.205505 803.46051 1305.7245 4290014888
2.4238532 803.46051 1305.7245 4293983231
4.8477063 803.46051 1305.7245 4294114559
14.543119 803.46051 1305.7245 4293786111
-46.053211 805.3136 1307.2869 4288962725
-43.629356 805.3136 1307.2869 4289354405
2.4238532 805.3136 1307.2869 4293786367
4.8477063 805.3136 1307.2869 4293852415
9.6954126 805.3136 1307.2869 4293523455
14.543119 805.3136 1307.2869 4293523455
-45.878899 811.61151 1306.057 4288303257
-43.464222 811.61151 1306.057 4288890781
1.2073394 811.61151 1306.057 4293654271
4.8293576 811.61151 1306.057 4293851647
7.2440367 811.61151 1306.057 4293720063
9.6587152 811.61151 1306.057 4293523455
13.280734 811.61151 1306.057 4293457407
16.902752 811.61151 1306.057 4293325823
-48.293579 813.45758 1307.6135 4288304029
-45.878899 813.45758 1307.6135 4288961959
1.2073394 813.45758 1307.6135 4293720575
4.8293576 813.45758 1307.6135 4293523455
7.2440367 813.45758 1307.6135 4293457407
9.6587152 813.45758 1307.6135 4293457407
13.280734 813.45758 1307.6135 4293457151
16.902752 813.45758 1307.6135 4293457407
-60.137615 820.63989 1307.1294 4286470014
-49.71376 820.33344 1306.871 4288372643
0.80183488 820.94647 1307.3878 4293326079
4.8110094 821.55945 1307.9047 4293325567
9.6220188 821.55945 1307.9047 4293062911
13.230276 820.63995 1307.1294 4293457407
-58.710091 826.87122 1305.8433 4286665603
-55.115597 825.9552 1305.0709 4286862477
-52.719265 825.9552 1305.0709 4287255184
-50.322937 826.87122 1305.8433 4287979163
-47.127827 826.56592 1305.5858 4288700571
-33.548622 825.9552 1305.0709 4290869924
-2.3963304 825.9552 1305.0709 4293325055
-52.517429 833.987 1305.303 4287321479
-50.130276 833.987 1305.303 4287387528
-46.549541 833.987 1305.303 4288831891
0 833.987 1305.303 4293062399
14.322936 833.987 1305.303 4293128447
-52.517429 835.81201 1306.8418 4287255686
-50.130276 835.81201 1306.8418 4287321479
-46.549541 835.81201 1306.8418 4288831629
1.193578 835.81201 1306.8418 4293193471
4.774312 835.81201 1306.8418 4293259775
7.161468 835.81201 1306.8418 4293391359
9.548624 835.81201 1306.8418 4293391103
-42.836697 841.47369 1306.3834 4289550482
-40.456882 841.47369 1306.3834 4289748118
1.1899083 841.47369 1306.3834 4292864767
4.7596331 841.47369 1306.3834 4292733951
7.1394496 841.47369 1306.3834 4292997119
10.709174 841.47369 1306.3834 4293128447
-45.216515 843.29309 1307.9175 4288962958
1.1899083 843.29309 1307.9175 4292733951
4.7596331 843.29309 1307.9175 4292537087
7.1394496 843.29309 1307.9175 4292997631
10.709174 843.29309 1307.9175 4293325567
14.278899 843.29309 1307.9175 4293390847
16.658716 843.29309 1307.9175 4293259263
-42.671558 847.61316 1305.0199 4289815955
-40.300919 847.61316 1305.0199 4289947798
-37.930275 847.61316 1305.0199 4290144416
-35.559631 847.61316 1305.0199 4291328947
0 847.61316 1305.0199 4292930559
-42.671558 849.42554 1306.5481 4289882516
-40.300919 849.42554 1306.5481 4290211480
-37.930275 849.42554 1306.5481 4289818538
-35.559631 849.42554 1306.5481 4290542004
1.1853211 849.42554 1306.5481 4293258751
7.1119266 849.42554 1306.5481 4292931583
14.223853 849.42554 1306.5481 4292864767
-43.687157 857.33521 1306.6772 4288766354
-40.144955 856.43256 1305.916 4289753253
-37.783485 855.52991 1305.1549 4289883560
1.1807339 857.33521 1306.6772 4288522663
-39.988991 863.40454 1305.2545 4288632714
1.1761467 863.40454 1305.2545 4291547646
4.704587 863.40454 1305.2545 4288788223
-39.988991 865.20288 1306.7708 4289292693
2.3522935 865.20288 1306.7708 4289048310
4.704587 865.20288 1306.7708 4289903103
7.056881 865.20288 1306.7708 4287732200
-39.833027 871.23706 1305.3186 4289887129
1.1715597 871.23706 1305.3186 4285698496
10.544037 871.23706 1305.3186 4284249019
-43.347706 873.02844 1306.829 4287391614
1.1715597 873.02844 1306.829 4285826752
4.6862388 873.02844 1306.829 4281950402
7.0293579 873.02844 1306.829 4287542783
10.544037 873.02844 1306.829 4287074807
-42.044037 878.54431 1306.2477 4287594854
-39.708256 878.54431 1306.2477 4286871131
-37.372478 878.54431 1306.2477 4287065489
-35.036697 878.54431 1306.2477 4286604938
-31.533028 878.54431 1306.2477 4288248691
-2.3357799 878.54431 1306.2477 4292929791
-42.044037 880.33002 1307.7534 4289174404
-39.708256 880.33002 1307.7534 4288976768
-37.372478 880.33002 1307.7534 4287531151
-35.036697 880.33002 1307.7534 4287202186
-2.3357799 880.33002 1307.7534 4292011519
-37.225689 886.29688 1306.2443 4289369478
-34.899082 886.29688 1306.2443 4290093457
-31.409174 886.29688 1306.2443 4290291629
-2.3266056 886.29688 1306.2443 4290955007
-37.225689 888.07556 1307.744 4288711025
-34.899082 888.07556 1307.744 4289960835
-32.572475 888.07556 1307.744 4289765800
-2.3266056 888.07556 1307.744 4287213270
-39.396332 895.77905 1307.6993 4289896657
-37.078899 895.77905 1307.6993 4289969106
-34.761467 894.89319 1306.9524 4287794354
-32.444038 894.00739 1306.2054 4287268735
-36.961468 899.43909 1305.5532 4291019490
-34.651375 899.43909 1305.5532 4291217126
-69.30275 901.2052 1307.0424 4285352570
-66.992661 901.2052 1307.0424 4285286521
-40.426605 901.2052 1307.0424 4287075783
1.1550459 901.2052 1307.0424 4292273151
-46.018349 908.83569 1306.936 4285616246
-43.71743 907.95618 1306.1945 4288710831
-40.266056 907.95618 1306.1945 4287467210
-36.814678 907.07666 1305.4529 4285296814
-34.51376 907.07666 1305.4529 4284770214
-32.212845 907.07666 1305.4529 4284638073
0.76697248 908.24933 1306.4417 4291812863
4.6018348 908.83569 1306.936 4291944447
-43.543118 914.67212 1305.317 4284433517
-41.251377 914.67212 1305.317 4286144650
-38.959633 914.67212 1305.317 4291210711
-34.376148 914.67212 1305.317 4292005622
-25.209175 914.67212 1305.317 4286347756
-22.917431 914.67212 1305.317 4285234840
1.1458715 914.67212 1305.317 4292141055
-43.543118 916.42419 1306.7943 4285294223
-22.917431 916.42419 1306.7943 4291022072
1.1458715 916.42419 1306.7943 4291549439
4.5834861 916.42419 1306.7943 4291483903
-43.403671 923.51257 1307.5389 4285824421
1.1422018 921.76611 1306.0664 4291483903
4.5688071 922.63934 1306.8027 4291352063
6.8532109 923.51257 1307.5389 4291483903
9.1376143 923.51257 1307.5389 4291418111
13.706422 923.51257 1307.5389 4291287807
-43.229359 931.02106 1307.3298 4285365156
-40.822018 934.57031 1305.0902 4285430951
-37.420181 934.57031 1305.0902 4285234082
-43.089909 936.30408 1306.5521 4286020258
-40.822018 936.30408 1306.5521 4285036958
-37.420181 936.30408 1306.5521 4283063686
4.53578 936.30408 1306.5521 4290356686
-40.689907 941.56458 1305.7556 4286546350
-37.299084 941.56458 1305.7556 4286745269
-33.908257 941.56458 1305.7556 4286417844
-29.387156 941.56458 1305.7556 4284973493
-2.2605505 941.56458 1305.7556 4285490822
1.1302752 941.56458 1305.7556 4285097593
-40.689907 943.29285 1307.2128 4285169839
-37.299084 943.29285 1307.2128 4285958844
1.1302752 943.29285 1307.2128 4285557379
-37.147705 948.96936 1305.4589 4279584149
-29.267889 948.96936 1305.4589 4282935941
-4.5027523 948.96936 1305.4589 4285424777
-2.2513762 948.96936 1305.4589 4285424777
1.1220183 955.89215 1306.064 4285097089
-47.124771 957.60773 1307.5105 4290168812
1.1220183 957.60773 1307.5105 4285097089
4.4880733 957.60773 1307.5105 4285097089
-52.519264 963.21692 1305.6998 4290628600
-46.93211 963.21692 1305.6998 4290366203
-43.579819 964.07123 1306.4202 4289971964
-40.227524 964.07123 1306.4202 4290037751
-37.992661 964.07123 1306.4202 4289906165
-35.757797 964.07123 1306.4202 4289905139
-25.700916 964.92554 1307.1404 4289641712
-22.348623 964.92554 1307.1404 4289116404
-20.113762 964.92554 1307.1404 4289642748
-16.38899 964.35596 1306.6602 4292011263
-13.409174 964.07123 1306.4202 4294048255
-11.174312 964.92554 1307.1404 4292008182
-7.4495411 964.35596 1306.6602 4285626793
-4.4697247 964.07123 1306.4202 4283650415
-2.2348623 964.07123 1306.4202 4284768897
-52.133945 758.26904 1309.4771 4289702878
-49.651375 758.26904 1309.4771 4290163961
-49.431194 767.19928 1309.1587 4288982015
-46.959633 767.19928 1309.1587 4291087359
-44.488075 767.19928 1309.1587 4292073215
-51.902752 769.08881 1310.7518 4288521954
-49.431194 769.08881 1310.7518 4288652019
-46.959633 769.08881 1310.7518 4290757375
-44.322937 773.66138 1308.0671 4291020287
-41.86055 773.66138 1308.0671 4292007167
-49.247707 775.54388 1309.6545 4289707003
-46.78532 775.54388 1309.6545 4291220479
-46.611008 781.97083 1308.5333 4292005887
-51.517429 783.84631 1310.1147 4288913365
-49.06422 783.84631 1310.1147 4289769466
-61.100918 790.23828 1308.9641 4288648142
-58.656879 790.23828 1308.9641 4288908988
-56.212845 790.23828 1308.9641 4289172159
-51.324772 790.23828 1308.9641 4290683348
-48.880733 790.23828 1308.9641 4290815465
-46.436699 790.23828 1308.9641 4290618087
2.4440367 790.23828 1308.9641 4293916927
4.8880734 790.23828 1308.9641 4293653759
7.3321099 790.23828 1308.9641 4293653759
9.7761469 790.23828 1308.9641 4293719551
12.220183 790.23828 1308.9641 4294048511
-61.100918 792.10675 1310.5396 4286998170
-58.656879 792.10675 1310.5396 4287191958
-51.324772 792.10675 1310.5396 4288174238
-48.880733 792.10675 1310.5396 4287911844
-46.436699 792.10675 1310.5396 4288898740
4.8880734 792.10675 1310.5396 4293784575
7.3321099 792.10675 1310.5396 4293916159
9.7761469 792.10675 1310.5396 4293982719
12.220183 792.10675 1310.5396 4294114303
-63.306423 800.32507 1310.9288 4286796936
-60.871559 800.32507 1310.9288 4286862729
-56.001835 800.32507 1310.9288 4287387286
-51.132111 800.32507 1310.9288 4288636839
-48.697247 800.32507 1310.9288 4288766881
-46.262386 799.39435 1310.144 4289491117
-43.827522 798.46362 1309.3594 4289753526
4.8697248 798.46362 1309.3594 4293982719
7.3045874 799.39435 1310.144 4294180095
9.7394495 799.39435 1310.144 4293654015
12.985932 799.08417 1309.8824 4293786111
-49.688992 809.01965 1310.4117 4288041625
-46.053211 807.16663 1308.8494 4289422506
4.8477063 807.16663 1308.8494 4293851903
7.2715597 807.16663 1308.8494 4293983231
9.6954126 807.16663 1308.8494 4293523455
12.119267 807.16663 1308.8494 4293457407
-60.366974 815.30359 1309.17 4286731643
-57.952293 815.30359 1309.17 4287189641
-50.708256 815.30359 1309.17 4287912094
1.2073394 815.30359 1309.17 4293721343
4.8293576 815.30359 1309.17 4293523199
7.2440367 815.30359 1309.17 4293391615
9.6587152 815.30359 1309.17 4293259775
13.280734 815.30359 1309.17 4293260031
16.902752 815.30359 1309.17 4293457151
2.4146788 817.14966 1310.7266 4293918207
4.8293576 817.14966 1310.7266 4293523455
7.2440367 817.14966 1310.7266 4293325823
9.6587152 817.14966 1310.7266 4293259775
1.2027524 823.39844 1309.4553 4293193983
4.8110094 823.39844 1309.4553 4293259775
7.2165136 823.39844 1309.4553 4293259775
9.6220188 823.39844 1309.4553 4293325567
13.230275 823.39844 1309.4553 4293522943
-57.511925 829.61926 1308.1604 4286796934
1.1981652 829.61926 1308.1604 4293325055
9.5853214 829.61926 1308.1604 4293457407
14.377981 829.61926 1308.1604 4293391103
-57.511925 831.45123 1309.7051 4286732676
2.3963304 831.45123 1309.7051 4293259519
4.7926607 831.45123 1309.7051 4293325567
7.1889906 831.45123 1309.7051 4293391615
10.783486 831.45123 1309.7051 4293062911
-46.549538 838.54944 1309.1499 4288633222
4.774312 837.63696 1308.3806 4292930559
-45.216515 845.11249 1309.4515 4288896913
2.3798165 845.11249 1309.4515 4293062399
4.7596331 845.11249 1309.4515 4292733951
7.1394496 845.11249 1309.4515 4293194495
10.709174 845.11249 1309.4515 4293193983
14.278899 845.11249 1309.4515 4293259263
16.658716 845.11249 1309.4515 4293259263
-46.406422 846.93188 1310.9856 4288437646
4.7596331 846.93188 1310.9856 4292405247
10.709174 846.93188 1310.9856 4292931071
-45.042202 851.23792 1308.0762 4288635540
-42.671558 851.23792 1308.0762 4289489291
-40.300919 851.23792 1308.0762 4290147221
1.1853211 851.23792 1308.0762 4293784063
4.7412844 851.23792 1308.0762 4293521151
7.1119266 851.23792 1308.0762 4293915647
10.667891 851.23792 1308.0762 4293390079
14.223853 851.23792 1308.0762 4292996607
-45.042202 853.05029 1309.6044 4288373651
-42.671558 853.05029 1309.6044 4289029785
1.1853211 853.05029 1309.6044 4289573089
4.7412844 853.05029 1309.6044 4292464895
7.1119266 853.05029 1309.6044 4293978367
-43.687157 860.04333 1308.9606 4288107141
4.7229357 859.14062 1308.1995 4285900013
7.0844035 860.04333 1308.9606 4286225904
10.626606 860.94598 1309.7217 4284054211
-47.045872 868.79956 1309.8035 4286731641
-43.517429 867.90039 1309.0453 4286926709
4.704587 867.90039 1309.0453 4284050625
7.056881 867.90039 1309.0453 4284905933
9.409174 867.00122 1308.2871 4284317092
-46.862385 874.8197 1308.3394 4286931586
-43.347706 874.8197 1308.3394 4286868341
1.1715597 874.8197 1308.3394 4291484927
4.6862388 874.8197 1308.3394 4291221247
7.0293579 874.8197 1308.3394 4292076543
10.544037 874.8197 1308.3394 4293191679
14.058716 874.8197 1308.3394 4292864511
-46.862385 876.61108 1309.8499 4286472066
-44.519264 876.61108 1309.8499 4288972201
1.1715597 876.61108 1309.8499 4292601087
4.6862388 876.61108 1309.8499 4292536575
7.0293579 876.61108 1309.8499 4291483903
10.544037 876.61108 1309.8499 4291221759
16.401834 876.61108 1309.8499 4293456639
-52.555046 883.90143 1310.7646 4286599548
-49.051376 883.00854 1310.0118 4286401657
-42.822632 883.30615 1310.2628 4288777098
-39.708256 883.00854 1310.0118 4289831566
-37.372478 882.11572 1309.259 4289107075
-35.036697 882.11572 1309.259 4289107075
2.3357799 883.90143 1310.7646 4287667940
-40.715595 889.85425 1309.2438 4286925424
-37.225689 889.85425 1309.2438 4285091138
-34.899082 889.85425 1309.2438 4287262563
1.1633028 889.85425 1309.2438 4278348738
-58.165138 891.63293 1310.7435 4285745781
-52.348625 891.63293 1310.7435 4286269565
-48.858715 891.63293 1310.7435 4286794883
-46.532108 891.63293 1310.7435 4286531968
-44.205505 891.63293 1310.7435 4286531968
-40.715595 891.63293 1310.7435 4286007172
-37.225689 891.63293 1310.7435 4284830087
1.1633028 891.63293 1310.7435 4281427681
4.6532111 891.63293 1310.7435 4281691048
-64.888077 899.32251 1310.687 4285286514
-61.798168 898.73193 1310.1891 4285352048
-57.93578 899.32251 1310.687 4285548653
-55.618347 899.32251 1310.687 4285941362
-53.300919 898.43665 1309.9401 4286270583
-48.666054 899.32251 1310.687 4286334836
-46.348625 899.32251 1310.687 4284368753
-44.031193 898.43665 1309.9401 4288183207
-40.555046 897.55078 1309.1931 4290162888
1.1587156 897.55078 1309.1931 4292339199
4.6348624 898.43665 1309.9401 4291747071
6.9522934 898.43665 1309.9401 4291286527
10.428441 898.43665 1309.9401 4290104058
-53.132111 902.97125 1308.5315 4286007672
-46.201836 902.97125 1308.5315 4284304758
-43.891743 902.97125 1308.5315 4289436612
1.1550459 902.97125 1308.5315 4292141567
4.6201835 902.97125 1308.5315 4292273407
-46.201836 904.73737 1310.0205 4284371320
2.3100917 904.73737 1310.0205 4291878911
4.6201835 904.73737 1310.0205 4292010239
6.9302754 904.73737 1310.0205 4292273407
10.395412 904.73737 1310.0205 4291945471
-48.319267 910.59479 1308.4192 4286008702
-46.018349 910.59479 1308.4192 4285745779
-43.71743 910.59479 1308.4192 4285943158
4.6018348 910.59479 1308.4192 4291877887
6.9027524 910.59479 1308.4192 4292075007
-52.921101 912.35388 1309.9025 4285091449
-48.319267 912.35388 1309.9025 4285354367
-46.018349 912.35388 1309.9025 4284959861
4.6018348 912.35388 1309.9025 4292009215
6.9027524 912.35388 1309.9025 4292075007
9.2036695 912.35388 1309.9025 4291747583
-45.834862 919.05231 1309.0103 4285297566
-43.543118 919.05231 1309.0103 4285758117
4.5834861 918.17627 1308.2716 4291549439
6.8752294 919.05231 1309.0103 4291680767
9.1669722 919.92834 1309.7489 4291549439
-45.688072 925.25903 1309.0115 4284509849
-43.403671 925.25903 1309.0115 4285693866
4.5688071 925.25903 1309.0115 4291353855
9.1376143 925.25903 1309.0115 4291156479
-45.688072 927.00549 1310.484 4284443541
-43.403671 927.00549 1310.484 4285825194
4.5688071 927.00549 1310.484 4291484159
9.1376143 927.00549 1310.484 4291353343
-45.504585 932.7605 1308.7964 4285166998
-43.229359 932.7605 1308.7964 4285561756
4.5504589 932.7605 1308.7964 4292139007
-45.504585 934.49994 1310.2631 4285888672
6.8256879 934.49994 1310.2631 4291935461
10.238532 934.49994 1310.2631 4292203769
-45.3578 938.0379 1308.014 4285691038
-43.089909 938.0379 1308.014 4285559709
-40.822018 938.0379 1308.014 4284773018
-36.28624 938.0379 1308.014 4282867598
0 938.0379 1308.014 4285951369
4.53578 938.0379 1308.014 4288912792
-45.3578 940.63867 1310.2069 4284772255
-43.089909 940.63867 1310.2069 4285167270
4.53578 941.50555 1310.9379 4285162630
-45.21101 946.74927 1310.1271 4290429439
-42.950459 945.88513 1309.3984 4288061161
-40.689907 945.88513 1309.3984 4284383960
-37.299084 945.02106 1308.6699 4281160089
0 945.88513 1309.3984 4285294204
0 952.41174 1308.3615 4285097089
-46.153214 954.13293 1309.8126 4289904106
-42.776146 954.13293 1309.8126 4290101750
4.5027523 954.13293 1309.8126 4285097089
6.7541285 954.13293 1309.8126 4285097089
11.256881 954.13293 1309.8126 4285096576
-49.368809 959.3233 1308.957 4290365169
1.1220183 959.3233 1308.957 4285097089
4.4880733 959.3233 1308.957 4284768124
8.9761467 959.3233 1308.957 4285096828
13.46422 959.3233 1308.957 4285096828
-49.368809 961.03894 1310.4036 4290300410
1.1220183 961.03894 1310.4036 4284899966
4.4880733 961.03894 1310.4036 4284768378
7.8541284 961.03894 1310.4036 4284965500
11.220183 961.03894 1310.4036 4284899192
13.46422 961.03894 1310.4036 4285031035
17.952293 961.03894 1310.4036 4284832897
-43.20734 967.20361 1309.0613 4290102776
-40.227524 967.4884 1309.3014 4290037238
-37.992661 967.4884 1309.3014 4290037494
-34.640366 967.48834 1309.3014 4290037748
-31.288073 968.34265 1310.0217 4290103801
-29.053211 967.4884 1309.3014 4290103542
-25.700916 966.63409 1308.5811 4289642480
-22.348623 966.63409 1308.5811 4289182958
-20.113762 966.63409 1308.5811 4288920042
-16.761467 966.63409 1308.5811 4290038773
-13.409174 966.63409 1308.5811 4292666879
-11.174312 966.63409 1308.5811 4292469247
-7.8220181 966.63409 1308.5811 4287138511
-4.4697247 967.4884 1309.3014 4282927205
-2.2348623 967.4884 1309.3014 4284440443
-54.818348 754.59845 1312.9222 4288649929
-52.133945 760.16699 1311.0774 4289310955
-49.651375 760.16699 1311.0774 4289967871
-52.133945 762.06494 1312.6776 4288589290
-49.651375 762.06494 1312.6776 4289311743
-51.902752 770.97833 1312.3451 4288786144
-49.431194 770.97833 1312.3451 4288982015
-46.959633 770.97833 1312.3451 4290824191
-54.374313 772.86786 1313.9382 4288062668
-51.902752 772.86786 1313.9382 4288786392
-54.172478 779.3089 1312.8291 4287794620
-51.710091 779.3089 1312.8291 4288781515
-49.247707 778.36768 1312.0354 4289704695
-46.78532 777.42639 1311.2418 4291811327
-56.423855 785.7218 1311.6962 4287335616
-52.744034 785.7218 1311.6962 4289174735
-49.06422 785.7218 1311.6962 4290228725
-53.970642 787.59735 1313.2775 4289499073
-61.100918 793.97522 1312.115 4286602110
-58.656879 793.97522 1312.115 4287059329
-56.212845 793.97522 1312.115 4287125122
-52.546791 793.97522 1312.115 4287451282
-48.880733 793.97522 1312.115 4287583121
4.8880734 793.97522 1312.115 4293851135
7.3321099 793.97522 1312.115 4294180095
12.220183 793.97522 1312.115 4294180351
-61.100918 795.84375 1313.6904 4286992769
-58.656879 795.84375 1313.6904 4287123587
-56.212845 795.84375 1313.6904 4287649931
-52.546791 795.84375 1313.6904 4287978907
-48.880733 795.84375 1313.6904 4288504736
-63.306423 802.18652 1312.4984 4286666883
-56.001835 802.18652 1312.4984 4287126669
-51.132111 802.18652 1312.4984 4288045220
-48.697247 802.18652 1312.4984 4288633759
7.3045874 802.18652 1312.4984 4293852415
12.174312 802.18652 1312.4984 4293523455
-55.748623 810.87274 1311.9742 4287188878
-53.324772 810.87274 1311.9742 4287319698
-50.900917 810.87274 1311.9742 4287846042
7.2440367 818.99573 1312.2831 4293259775
-60.137615 827.07648 1312.5565 4286600323
1.2027524 825.23749 1311.006 4293062655
4.8110094 826.15698 1311.7812 4292931071
7.2165136 826.15698 1311.7812 4293325823
9.6220188 825.23749 1311.006 4293391615
12.829358 825.85052 1311.5228 4293391359
-57.511925 833.28326 1311.2498 4286796934
11.981651 833.28326 1311.2498 4293654015
-52.719265 835.1153 1312.7944 4287123071
-50.322937 835.1153 1312.7944 4287517829
-47.743118 841.28699 1311.4581 4288765836
-50.130276 843.112 1312.9969 4287453570
-47.743118 843.112 1312.9969 4288436362
-47.596329 848.75128 1312.5198 4288241039
-47.412846 854.86267 1311.1324 4288503945
4.7412844 854.86267 1311.1324 4290497750
7.1119266 854.86267 1311.1324 4291747817
9.4825687 854.86267 1311.1324 4292994815
-47.412846 856.67505 1312.6606 4287976836
10.667891 856.67505 1312.6606 4285697496
-47.229359 862.75134 1311.2439 4287451001
-43.687157 862.75134 1311.2439 4287451001
10.626606 862.75134 1311.2439 4283661481
-47.229359 864.5567 1312.7661 4287057782
14.168807 864.5567 1312.7661 4282671770
-49.398167 872.3963 1312.8361 4286337916
-47.045872 870.5979 1311.3197 4287127421
14.113762 870.5979 1311.3197 4287668942
-46.862385 878.4024 1311.3602 4286077309
-44.519264 878.4024 1311.3602 4289038250
1.1715597 878.4024 1311.3602 4292929791
7.0293579 878.4024 1311.3602 4289840109
-51.548622 880.19373 1312.8706 4286534527
-46.862385 880.19373 1312.8706 4286273659
-44.519264 880.19373 1312.8706 4288971171
1.1715597 880.19373 1312.8706 4293521151
4.6862388 880.19373 1312.8706 4292602879
-63.066055 885.68719 1312.2704 4285615992
-60.730274 885.68719 1312.2704 4285747064
-58.394497 885.68719 1312.2704 4285812858
-56.058716 885.68719 1312.2704 4286468723
-52.555046 886.58002 1313.0232 4286532982
-49.051376 886.58008 1313.0232 4286597751
-46.715595 886.58008 1313.0232 4286531960
-43.601227 886.28247 1312.7723 4288046977
-39.708256 885.68719 1312.2704 4288905587
1.16789 885.68719 1312.2704 4282280664
4.6715598 886.58008 1313.0232 4283002007
7.0073395 887.4729 1313.776 4289843161
-61.655045 893.41168 1312.2434 4285351790
-58.165138 893.41168 1312.2434 4285680238
-55.838531 893.41168 1312.2434 4286007668
-52.348625 893.41168 1312.2434 4286138998
-46.532108 893.41168 1312.2434 4286139772
-44.205505 893.41168 1312.2434 4287389838
-41.878899 893.41168 1312.2434 4286409885
1.1633028 893.41168 1312.2434 4291156223
4.6532111 893.41168 1312.2434 4288004860
6.9798164 893.41168 1312.2434 4287544309
9.3064222 893.41168 1312.2434 4284456429
-60.491745 895.19043 1313.7432 4285351019
-58.165138 895.19043 1313.7432 4285482861
-55.838531 895.19043 1313.7432 4285810289
-51.185322 895.19043 1313.7432 4286466422
-48.858715 895.19043 1313.7432 4286663801
-46.532108 895.19043 1313.7432 4285352568
-64.888077 901.09418 1312.1809 4285286511
-61.025684 901.68475 1312.6788 4285351277
-57.93578 901.97998 1312.9277 4285482863
-49.824768 901.97998 1312.9277 4286270327
6.9522934 901.09418 1312.1809 4292865535
10.42844 901.09418 1312.1809 4292865279
13.904587 901.97998 1312.9277 4292405247
-57.752293 908.26953 1312.9988 4285154412
-53.132111 908.26953 1312.9988 4285615476
-49.666969 907.38647 1312.2542 4286073725
6.9302754 906.50342 1311.5096 4292273151
10.010398 907.68085 1312.5023 4291813631
13.860551 908.26953 1312.9988 4291682303
-49.469727 914.11292 1311.3856 4285162121
-46.018349 914.11292 1311.3856 4285491345
6.9027524 914.11292 1311.3856 4291615487
9.2036695 914.11292 1311.3856 4291418879
-49.469727 915.87201 1312.8689 4285032080
10.354128 915.87201 1312.8689 4291615743
13.805505 915.87201 1312.8689 4291681535
-48.890518 922.84839 1312.2111 4284836247
-45.834862 921.68036 1311.2262 4285429663
6.8752294 923.43243 1312.7035 4291287807
11.458715 922.5564 1311.9648 4291418879
-46.830276 928.75195 1311.9565 4284443027
4.5688071 928.75195 1311.9565 4291024383
9.1376143 928.75195 1311.9565 4290958847
-47.972477 930.49841 1313.4292 4285035169
6.8532109 930.49841 1313.4292 4292402175
9.1376143 930.49841 1313.4292 4292205055
-47.779816 937.10907 1312.4631 4285034899
4.5504589 937.97876 1313.1964 4284506233
6.8256879 937.10907 1312.4631 4287466132
9.8593273 936.81915 1312.2186 4288782267
-46.869724 943.81732 1312.8871 4288457159
2.26789 944.10632 1313.1307 4285425790
4.53578 944.10632 1313.1307 4285621894
-42.950459 948.47742 1311.5842 4290562815
1.5070337 949.05353 1312.0699 4285294464
6.7541285 955.85413 1311.2639 4285097089
10.131193 955.85413 1311.2639 4285096574
6.7541285 957.57532 1312.7152 4284899967
11.256881 957.57532 1312.7152 4285096828
-56.100918 962.75452 1311.8501 4290168310
-52.734863 962.75452 1311.8501 4289906167
-49.368809 962.75452 1311.8501 4289446646
-47.124771 962.75452 1311.8501 4289907197
1.1220183 962.75452 1311.8501 4284965503
4.4880733 962.75452 1311.8501 4284900219
7.8541284 962.75452 1311.8501 4284899706
11.220183 962.75452 1311.8501 4284899192
13.46422 962.75452 1311.8501 4284899192
17.952293 962.75452 1311.8501 4284833149
20.196331 962.75452 1311.8501 4284833149
-56.100918 964.47009 1313.2966 4290168308
-52.734863 964.47009 1313.2966 4290168310
-49.368809 964.47009 1313.2966 4290168306
-47.124771 964.47009 1313.2966 4290563064
1.1220183 964.47009 1313.2966 4284768128
4.4880733 964.47009 1313.2966 4284768378
6.73211 964.47009 1313.2966 4284768378
17.952293 964.47009 1313.2966 4284570234
-2.2348623 970.05127 1311.4623 4284047749
-54.818348 757.45593 1315.3315 4288192217
-54.818348 759.36084 1316.9377 4287536602
-54.616512 763.96289 1314.278 4287403739
-52.133945 763.96289 1314.278 4288587757
-54.616512 765.86084 1315.8783 4286876873
-54.374313 774.75739 1315.5315 4287403206
-51.902752 774.75739 1315.5315 4288850652
-55.403671 781.19141 1314.4164 4287137467
-61.559631 783.07397 1316.0037 4287203264
-59.097248 783.07397 1316.0037 4286875065
-53.970642 789.47284 1314.8589 4287582100
-58.656879 797.71222 1315.2659 4287058577
-53.768806 797.71222 1315.2659 4287715737
-61.100918 799.58069 1316.8413 4286798469
-58.656879 799.58069 1316.8413 4287126669
-53.768806 799.58069 1316.8413 4287321241
-63.306423 804.97876 1314.8528 4286663797
-60.871559 804.97876 1314.8528 4286861175
-58.436699 804.97876 1314.8528 4286925698
-56.001835 804.97876 1314.8528 4287452042
-52.755352 804.66852 1314.5912 4287780508
-48.697247 804.04803 1314.068 4288961955
-55.326607 829.83508 1314.8826 4286863495
-52.719265 836.94727 1314.3391 4287123589
-50.322937 836.94727 1314.3391 4287584140
-55.115597 838.7793 1315.8839 4286862977
-52.719265 838.7793 1315.8839 4287321985
-50.322937 838.7793 1315.8839 4287387778
-50.130276 844.93701 1314.5358 4287257476
-52.517429 846.76196 1316.0745 4287584903
-50.130276 846.76196 1316.0745 4287782282
-49.976147 850.57068 1314.0537 4287651214
-47.596329 850.57068 1314.0537 4288110480
10.709174 850.57068 1314.0537 4293390847
14.278899 850.57068 1314.0537 4293325311
-52.355965 852.39001 1315.5879 4287452551
-49.976147 852.39001 1315.5879 4287978895
11.899082 852.39001 1315.5879 4293652735
-49.783485 859.39355 1314.9529 4287254405
-47.412846 858.48737 1314.1887 4287779202
-51.952293 866.36206 1314.2883 4286599807
-49.590824 866.36206 1314.2883 4286534014
14.168807 866.36206 1314.2883 4284311952
-54.313763 868.16742 1315.8105 4286403973
-51.952293 868.16742 1315.8105 4286731139
-49.590824 868.16742 1315.8105 4286599809
-54.102753 875.99298 1315.8687 4286404223
-51.750458 875.09381 1315.1106 4286534527
-49.398167 875.09381 1315.1106 4286139769
4.704587 875.99298 1315.8687 4292406271
10.585321 875.99298 1315.8687 4282746832
14.113762 875.09381 1315.1106 4287604186
-46.862385 881.98505 1314.381 4286207611
0 881.98505 1314.381 4290299391
4.6862388 881.98505 1314.381 4286158572
7.0293579 881.98505 1314.381 4290237695
7.0293579 883.77643 1315.8915 4290240511
-56.058716 889.25861 1315.2817 4285941625
7.0073395 889.25861 1315.2817 4286164716
-49.051376 891.04437 1316.7874 4286533244
-51.185322 896.96912 1315.2429 4286466422
13.959633 896.96912 1315.2429 4292339199
16.286238 896.96912 1315.2429 4292536575
-55.838531 898.7478 1316.7427 4285810037
16.286238 898.7478 1316.7427 4292733695
-53.300919 904.63757 1315.1686 4285745779
-50.983486 904.63757 1315.1686 4286073213
11.587156 904.63757 1315.1686 4292208383
13.904587 904.63757 1315.1686 4292142591
-55.618347 906.40924 1316.6624 4285418098
-57.752293 910.91864 1315.2324 4284632694
-55.442204 910.91864 1315.2324 4284830073
-53.132111 911.8017 1315.9771 4285029247
-50.822018 910.03558 1314.4879 4285091195
11.550459 910.91864 1315.2324 4291879167
13.860551 910.91864 1315.2324 4291813887
-52.921101 917.63104 1314.3521 4283256702
-49.469727 917.63104 1314.3521 4284178319
11.504587 917.63104 1314.3521 4291615231
-55.222019 919.39014 1315.8352 4283124864
-52.921101 919.39014 1315.8352 4283387779
-50.620182 919.39014 1315.8352 4283585926
-55.001835 926.06049 1314.9194 4283981435
-52.710091 926.06049 1314.9194 4283981435
-49.654434 925.76849 1314.6732 4284375694
6.8752294 926.06049 1314.9194 4291287039
11.458715 926.06049 1314.9194 4291353599
-50.256882 932.24481 1314.9017 4283651969
-47.972477 932.24481 1314.9017 4285428380
-50.256882 933.99127 1316.3743 4283390852
-50.055046 941.45764 1316.1296 4283916402
-47.779816 939.71826 1314.663 4284444042
6.8256879 940.58795 1315.3962 4285490823
9.8593273 940.29803 1315.1519 4285227647
-46.491745 946.70703 1315.3236 4290102765
4.53578 946.70703 1315.3236 4285294470
-45.3578 948.4408 1316.7855 4290430451
4.53578 948.4408 1316.7855 4285097089
6.8036699 948.4408 1316.7855 4285162882
10.205505 948.4408 1316.7855 4285097091
9.042202 951.9339 1314.4987 4285162369
15.759633 961.0177 1315.6177 4284899192
-58.344955 966.18567 1314.7432 4289971699
-56.100918 966.18567 1314.7432 4289971699
-52.734863 966.18567 1314.7432 4290102517
-49.368809 966.18567 1314.7432 4290430713
-47.124771 966.18567 1314.7432 4290430713
-44.132721 967.32941 1315.7075 4290168311
-40.392662 967.90125 1316.1897 4290037492
-38.148624 967.90125 1316.1897 4290103285
-34.78257 967.90125 1316.1897 4290169076
-31.416513 967.90125 1316.1897 4290300410
-29.172478 967.90125 1316.1897 4290234617
-26.180429 966.75751 1315.2253 4289840884
-22.440367 967.04346 1315.4664 4289972208
-20.196331 966.18567 1314.7432 4289775088
-16.830275 966.18567 1314.7432 4289511664
-13.46422 967.04346 1315.4664 4290167797
-11.220183 966.18567 1314.7432 4291154687
-7.8541284 967.04346 1315.4664 4286744778
-4.4880733 967.90125 1316.1897 4282468717
0 967.04346 1315.4664 4284243065
4.4880733 966.18567 1314.7432 4284570482
17.952293 966.18567 1314.7432 4284438641
-57.099083 767.75873 1317.4785 4287863507
-54.616512 767.75873 1317.4785 4287733200
-57.099083 769.65668 1319.0789 4287864268
-56.845871 776.64697 1317.1246 4286808755
-61.78899 778.5365 1318.7179 4286808255
-59.317432 778.5365 1318.7179 4286414514
-63.306423 808.70172 1317.9918 4286598772
-60.871559 807.771 1317.207 4286794354
-58.436699 807.771 1317.207 4286728327
-60.137615 832.59357 1317.2084 4286337664
-57.732109 832.59357 1317.2084 4286730366
-55.326607 832.59357 1317.2084 4286927489
-57.732109 834.43262 1318.759 4286730366
-55.326607 834.43262 1318.759 4286861695
-55.115597 840.61133 1317.4286 4286862725
-52.719265 841.52734 1318.2009 4287388291
-52.517429 848.58698 1317.6133 4287190663
-54.904587 850.41199 1319.1521 4287060612
-52.355965 854.20941 1317.1219 4287253889
-49.976147 854.20941 1317.1219 4287648647
-54.735779 856.02881 1318.656 4286729090
-52.355965 856.02881 1318.656 4286925188
-54.524769 863.01837 1318.0092 4286468478
-52.154129 862.11218 1317.2451 4286794622
-49.783485 862.11218 1317.2451 4287057793
16.594496 863.92456 1318.7732 4288588497
-54.313763 869.97278 1317.3328 4286469507
-51.952293 869.97278 1317.3328 4286469759
-54.313763 871.77814 1318.8551 4286469507
-54.102753 877.79132 1317.385 4286469505
7.056881 877.79132 1317.385 4290366194
9.409174 877.79132 1317.385 4285635327
9.409174 879.58966 1318.9014 4292404735
9.3724775 886.46338 1318.157 4288789242
14.014679 892.83008 1318.2931 4289708287
-62.818348 900.52649 1318.2424 4285154671
-58.165138 902.30524 1319.7422 4285351532
-55.838531 901.41589 1318.9923 4285811059
-53.511925 900.52649 1318.2424 4286139510
16.286238 900.52649 1318.2424 4292142335
-60.253212 908.18097 1318.1562 4284630898
16.222019 908.18097 1318.1562 4291945727
-61.411926 909.95264 1319.6501 4284502393
-57.752293 913.56775 1317.4662 4284504438
-55.442204 913.56775 1317.4662 4284373117
-53.132111 913.56775 1317.4662 4284899717
-60.062386 915.33386 1318.9552 4283321962
-57.752293 915.33386 1318.9552 4283190375
-55.442204 915.33386 1318.9552 4282796151
-58.673393 922.02869 1318.0601 4283652476
-55.222019 921.14917 1317.3185 4283520120
-52.921101 921.14917 1317.3185 4283651962
-55.001835 928.6886 1317.1354 4283259264
-52.710091 928.6886 1317.1354 4283456643
-50.41835 928.6886 1317.1354 4283719565
-57.293579 930.44067 1318.6127 4282798463
-55.001835 930.44067 1318.6127 4282536559
-52.710091 930.44067 1318.6127 4282997110
-52.541283 935.73773 1317.8468 4284310657
-50.256882 935.73773 1317.8468 4284508032
-52.541283 937.48413 1319.3193 4283851914
-50.256882 937.48413 1319.3193 4283588477
-50.055046 943.19708 1317.5963 4286748314
6.8256879 944.06677 1318.3296 4285556872
9.1009178 944.93652 1319.063 4285689226
10.131193 962.73889 1317.069 4284899194
13.508257 962.73889 1317.069 4284899194
15.759633 962.73889 1317.069 4284833401
20.262384 962.73889 1317.069 4284701820
22.513762 962.73889 1317.069 4284702068
2.2513762 964.46008 1318.5203 4284373368
6.7541285 964.46008 1318.5203 4284702068
10.131193 964.46008 1318.5203 4284833399
13.508257 964.46008 1318.5203 4284768376
15.759633 964.46008 1318.5203 4284702583
20.262384 964.46008 1318.5203 4284504690
22.513762 964.46008 1318.5203 4284570484
-58.535778 966.18127 1319.9716 4289839857
-55.158714 966.18127 1319.9716 4290103028
-51.781651 966.18127 1319.9716 4290365942
-49.530273 966.18127 1319.9716 4290496767
-47.2789 966.18127 1319.9716 4290365439
-24.765137 966.18127 1319.9716 4290038005
-19.136696 966.18127 1319.9716 4289774320
-15.759633 966.18127 1319.9716 4289642484
-11.256881 966.18127 1319.9716 4291286525
19.136696 966.18127 1319.9716 4284175724
-57.521099 757.61279 1322.0042 4287601104
-58.555962 763.17078 1320.1503 4287006399
-59.801834 765.07574 1321.7565 4286744769
-62.06422 771.55463 1320.6792 4287730633
-58.754131 772.18726 1321.2125 4287401661
-60.596329 823.84412 1322.9114 4286862725
-57.732109 836.27161 1320.3097 4286862977
-57.732109 838.11066 1321.8602 4286796932
-55.115597 844.27539 1320.5181 4287191438
-58.710091 846.10736 1322.0627 4286600325
-55.115597 846.10736 1322.0627 4286994826
-54.904587 852.237 1320.6909 4286729342
-54.735779 857.84821 1320.1901 4286532220
-52.355965 857.84821 1320.1901 4286794106
-56.895412 865.73688 1320.3014 4286469766
-61.636696 867.54926 1321.8295 4286141568
-56.895412 867.54926 1321.8295 4286403713
-56.675228 874.48621 1321.1384 4286338174
11.80734 875.38885 1321.8995 4283266790
14.168807 875.38885 1321.8995 4284119740
9.409174 881.38806 1320.4177 4293325055
11.761468 883.1864 1321.934 4288392690
14.113762 883.1864 1321.934 4284122839
11.715596 889.15039 1320.4226 4283601376
14.058716 889.15039 1320.4226 4286485438
-65.144951 904.08392 1321.2419 4284958575
-62.042812 904.67682 1321.7418 4284892783
16.286238 904.08392 1321.2419 4291813887
-60.253212 911.72437 1321.1439 4284438645
-60.062386 917.09991 1320.4443 4283125866
-57.752293 917.09991 1320.4443 4282994279
-58.673393 925.54688 1321.0265 4283586184
-57.293579 932.19275 1320.09 4282864506
-55.001835 932.19275 1320.09 4282994800
-52.710091 932.19275 1320.09 4283389558
-57.293579 933.94476 1321.5673 4283654272
-55.001835 933.94476 1321.5673 4283850107
-58.535778 967.90247 1321.4229 4289577200
-46.153214 967.90247 1321.4229 4290234362
-42.776146 967.90247 1321.4229 4290103287
-40.524769 967.90247 1321.4229 4290103797
-37.147705 967.90247 1321.4229 4289840627
-33.770641 967.90247 1321.4229 4289774836
-31.519266 967.90247 1321.4229 4290036722
-28.1422 967.90247 1321.4229 4289905394
-24.765137 967.90247 1321.4229 4290103287
-22.513762 967.90247 1321.4229 4290103799
-18.011009 967.90247 1321.4229 4289248238
-15.759633 967.90247 1321.4229 4289314287
-13.508257 967.90247 1321.4229 4289707242
-9.0055046 967.90247 1321.4229 4290167551
-6.7541285 967.90247 1321.4229 4285364413
-2.2513762 967.90247 1321.4229 4286154658
-59.801834 766.98071 1323.3627 4287140801
-63.020184 825.6972 1324.4739 4286402691
-60.596329 825.6972 1324.4739 4286665864
-60.366974 832.841 1323.957 4286469502
-57.732109 839.94971 1323.4109 4286599812
-55.326607 839.94971 1323.4109 4287191692
-60.137615 841.78876 1324.9615 4286402691
-57.732109 841.78876 1324.9615 4286599558
-58.710091 847.93939 1323.6074 4286731908
-62.304588 849.77142 1325.1521 4286073465
-58.710091 849.77142 1325.1521 4286532733
-58.087463 857.10358 1324.7943 4286402168
-57.115597 861.487 1323.2582 4286534529
-59.266056 869.36163 1323.3577 4286403723
-56.895412 869.36163 1323.3577 4286403713
-61.636696 871.17401 1324.8859 4285746813
-59.266056 871.17401 1324.8859 4286075777
16.594496 871.17401 1324.8859 4286817774
-61.398167 877.19421 1323.4218 4286009469
-59.036697 877.19421 1323.4218 4286141055
-56.675228 877.19421 1323.4218 4286272123
11.80734 878.09692 1324.1829 4292667647
14.168807 878.09692 1324.1829 4291286783
11.761468 884.98474 1323.4503 4284120011
14.113762 884.98474 1323.4503 4282938512
-63.066055 899.97296 1324.3158 4284826476
-60.730274 899.97296 1324.3158 4284890981
16.350458 899.97296 1324.3158 4292208383
-62.818348 909.42004 1325.7412 4284109179
-62.570641 915.2677 1324.1316 4283586167
-62.124771 929.94458 1324.7345 4283850358
-59.823853 929.06506 1323.9929 4283390597
-55.001835 935.69684 1323.0446 4283194241
2.2605505 964.03137 1324.699 4283980920
4.521101 964.03137 1324.699 4283915883
6.7816515 964.03137 1324.699 4283981676
10.172478 964.03137 1324.699 4284111729
13.563303 964.03137 1324.699 4284307573
15.823853 964.03137 1324.699 4284373622
-62.293579 770.79059 1326.5751 4287071422
-60.366974 835.61011 1326.292 4286600325
-60.366974 837.45612 1327.8484 4286534276
-62.543118 843.62775 1326.5122 4286468482
-62.304588 851.60339 1326.6968 4285943163
-58.710091 851.60339 1326.6968 4286336126
-62.304588 853.43542 1328.2416 4285811824
-59.908257 853.43542 1328.2416 4285943410
-61.636696 872.98639 1326.4139 4285812606
-59.266056 872.98639 1326.4139 4285878399
16.594496 872.98639 1326.4139 4285040842
16.594496 874.79877 1327.9421 4286351812
-59.036697 880.80493 1326.4663 4285549429
-56.675228 880.80493 1326.4663 4286072691
-65.607338 898.10706 1327.9746 4285023855
-62.818348 911.19879 1327.241 4283518838
-62.570641 919.69696 1327.8662 4283651960
-62.372478 925.93036 1327.8899 4283784313
-59.823853 931.70361 1326.2177 4283720065
-64.42569 933.46271 1327.7009 4283588475
-62.124771 933.46271 1327.7009 4283720317
-58.673393 933.46271 1327.7009 4283456639
-55.383484 965.75952 1326.1561 4290169078
-51.992661 965.75952 1326.1561 4290300662
-49.732109 965.75952 1326.1561 4290234363
-20.344954 965.75952 1326.1561 4289643248
-11.302752 965.75952 1326.1561 4291088895
-4.521101 965.75952 1326.1561 4284904591
18.084404 965.75952 1326.1561 4284570232
-58.774311 967.48779 1327.6133 4290037238
-55.383484 967.48779 1327.6133 4290234614
-51.992661 967.48779 1327.6133 4290234867
-49.732109 967.48779 1327.6133 4290037744
-46.341286 967.48779 1327.6133 4290037747
-42.950459 967.48779 1327.6133 4290103287
-40.689907 967.48779 1327.6133 4290037490
-37.299084 967.48779 1327.6133 4289906164
-33.908257 967.48779 1327.6133 4289708789
-31.647707 967.48779 1327.6133 4290036722
-28.256882 967.48779 1327.6133 4289839600
-24.866055 967.48779 1327.6133 4289839857
-22.605505 967.48779 1327.6133 4289774838
-19.21468 967.48779 1327.6133 4289379567
-15.823853 967.48779 1327.6133 4289379310
-13.563303 967.48779 1327.6133 4290035948
-10.172478 967.48779 1327.6133 4290825210
-6.7816515 967.48779 1327.6133 4286285241
-4.521101 967.48779 1327.6133 4285036958
-2.2605505 967.48779 1327.6133 4285892011
-63.306423 824.52423 1331.333 4286008956
-63.020184 832.18286 1329.9424 4286403456
-64.70092 855.26746 1329.7863 4285747576
-62.304588 856.18347 1330.5586 4286009456
-65.401833 907.11584 1330.3385 4284174972
-62.570641 922.35449 1330.1071 4283586426
-64.888077 924.12622 1331.601 4283784313
-58.673393 935.2218 1329.1841 4282404194
1.133945 964.91217 1330.6737 4286218652
4.53578 964.91211 1330.6737 4285955730
6.8036699 964.91211 1330.6737 4286219159
10.205505 964.91217 1330.6737 4285692320
13.60734 964.91211 1330.6737 4285295255
15.875229 964.91211 1330.6737 4285163669
19.277065 964.91211 1330.6737 4285096833
22.6789 964.04523 1329.9427 4284569200
-58.774311 969.21594 1329.0704 4289643763
-56.51376 969.21594 1329.0704 4289775349
-49.732109 969.21594 1329.0704 4289774834
-18.084404 969.21594 1329.0704 4289641962
-58.774311 972.67236 1331.9849 4290168306
-63.306423 826.38568 1332.9026 4286271610
-63.020184 835.88904 1333.0674 4286468484
-65.196327 842.99426 1332.5181 4286140287
-62.781651 842.99426 1332.5181 4286206080
-65.196327 844.84027 1334.0746 4286008702
-65.144951 919.203 1333.9899 4283651961
-54.429359 967.51288 1332.8666 4289774836
-52.161469 967.51288 1332.8666 4289774836
-46.491745 967.51288 1332.8666 4289905911
-43.089909 967.51288 1332.8666 4289774586
-40.822018 967.51288 1332.8666 4289642736
-37.420181 967.51288 1332.8666 4289708530
-34.018349 967.51288 1332.8666 4289774836
-31.750458 967.51288 1332.8666 4290037492
-28.348625 967.51288 1332.8666 4289642991
-24.946789 967.51288 1332.8666 4289643248
-22.6789 967.51288 1332.8666 4289576939
-20.411009 967.51288 1332.8666 4289576939
-15.875229 967.51288 1332.8666 4290036720
-13.60734 967.51288 1332.8666 4290627839
-10.205505 967.51288 1332.8666 4288854256
-6.8036699 967.51288 1332.8666 4284646073
-4.53578 967.51288 1332.8666 4284052893
-2.26789 967.51288 1332.8666 4284645031
-58.965137 969.2467 1334.3285 4290036722
-55.563301 969.2467 1334.3285 4290036723
-52.161469 969.2467 1334.3285 4290036468
-49.893578 969.2467 1334.3285 4289906165
-46.491745 969.2467 1334.3285 4289971706
