# .PCD v0.7 - Point Cloud Data file format
VERSION 0.7
FIELDS x y z rgb
SIZE 4 4 4 4
TYPE F F F U
COUNT 1 1 1 1
WIDTH 1166
HEIGHT 1
VIEWPOINT 0 0 0 1 0 0 0
POINTS 1166
DATA ascii
-1.6825688 846.0697 813.20728 4289685302
1.6825688 846.0697 813.20728 4290733112
43.746788 846.0697 813.20728 4294967295
45.429359 848.6424 815.37646 4294967295
-3.3541284 850.75299 813.23193 4289687601
-1.6770642 850.75299 813.23193 4289556272
43.603668 850.75299 813.23193 4294967295
-3.9107034 853.35693 814.5556 4291538842
41.834862 854.71863 813.95972 4294967295
43.555962 853.37683 814.13635 4294967295
45.280735 852.67615 814.85352 4294967295
-5.0201836 855.99799 815.03845 4294561516
45.181652 855.99799 815.03845 4294967295
-6.6715598 860.64618 815.03357 4288161141
-4.4477067 859.79608 814.31671 4292051644
41.697247 859.37103 813.95837 4294967295
43.365139 860.00861 814.49597 4294967295
45.033028 860.64618 815.03357 4294967295
-3.3284404 862.67535 814.12842 4291125392
-1.6642202 862.03918 813.59204 4293633471
38.277065 862.03918 813.59204 4294967295
41.050762 862.46332 813.94965 4294967295
43.269726 863.31152 814.66479 4294967295
-4.1605506 864.5838 815.73767 4288558698
-1.6605505 864.70178 813.22095 4292105111
37.362385 864.70178 813.22095 4294967295
40.683487 865.33655 813.75616 4294967295
44.101837 864.5838 815.73767 4294967295
-3.321101 867.24078 815.36182 4288362097
-1.6550459 869.31769 813.18896 4292243884
1.6550459 869.31769 813.18896 4292903095
38.066055 869.31769 813.18896 4294967295
41.376148 869.31769 813.18896 4294967295
44.004585 867.24078 815.36182 4294967295
-3.3100917 871.84827 815.32263 4283179312
-1.6550459 870.58301 814.25586 4290935458
43.858715 870.58301 814.25586 4294967295
46.341286 871.84827 815.32263 4294967295
-3.3027523 875.7522 815.99829 4287059456
-1.6513761 874.48975 814.93384 4285545768
1.2385321 874.8338 814.56989 4286791508
4.119266 875.86597 813.47815 4289417559
6.5908256 875.86597 813.47815 4291909009
43.737614 874.20258 814.03766 4294967295
47.06422 875.12097 815.46606 4294967295
-1.6477064 878.38531 815.60242 4288973568
0.54923546 877.96539 815.24835 4289764984
3.2954128 877.12561 814.54028 4285423673
46.13578 877.12561 814.54028 4294573567
-1.6422018 881.69666 814.47046 4288977942
0.82110089 881.69666 814.47046 4288715622
4.1055045 880.44122 813.41187 4286865725
44.339451 880.44122 813.41187 4294967295
45.981651 881.06897 813.94116 4294967295
-3.2844036 882.95215 815.52893 4289241139
-1.6385322 884.31714 814.06384 4289307189
0.81926608 884.31714 814.06384 4288845897
3.8232419 883.48199 813.35968 4290813568
6.5541286 883.06445 813.00769 4289365580
37.686237 883.06445 813.00769 4294967295
39.324772 883.06445 813.00769 4294967295
43.694187 883.48199 813.35968 4294967295
46.751373 883.63464 814.79639 4294967295
50.087158 882.95215 815.52893 4294967295
-3.2770643 885.56982 815.12012 4285554965
-1.6385322 885.56982 815.12012 4288713028
0.81926608 886.25092 814.38635 4289897066
4.0871563 886.93201 813.65259 4290616708
37.601833 886.93201 813.65259 4294967295
40.054131 886.93201 813.65259 4294967295
43.323853 886.93201 813.65259 4294967295
46.698166 885.56982 815.12012 4294967295
-3.2697248 889.43176 815.76025 4284881968
-1.6348624 888.80682 815.23334 4288635002
1.0899082 888.59845 815.05768 4288058198
3.2697248 888.18188 814.70642 4290155377
44.141285 888.18188 814.70642 4294967295
46.321102 889.01514 815.409 4294967295
-1.6293578 893.95789 815.65247 4282974239
0.65174311 892.96143 814.81219 4287323724
3.2587156 892.08936 814.07703 4289760298
40.733944 891.46655 813.55188 4294967295
43.177982 892.08936 814.07703 4294967295
46.436699 893.33508 815.12732 4294967295
3.7932723 895.30878 814.17554 4288896024
40.6422 894.06592 813.12756 4294967295
43.351685 895.72308 814.5249 4294967295
46.061161 896.13739 814.87421 4294967295
4.0550461 898.51984 814.26691 4287712098
6.4880733 897.89984 813.74414 4287563537
40.550457 897.89984 813.74414 4294967295
42.71315 898.7265 814.44116 4294967295
46.227524 899.13983 814.78967 4294967295
0.81100917 900.37988 815.83533 4291743231
4.0412846 902.39368 813.60913 4286537387
6.4660549 902.39368 813.60913 4285071377
40.412846 902.39368 813.60913 4294967295
42.983486 900.37988 815.83533 4294967295
46.227524 900.37988 815.83533 4294967295
0.53883791 904.45343 815.34589 4285097120
4.0412846 903.62952 814.65125 4287990743
6.451376 904.9693 813.16479 4291674102
38.708256 904.9693 813.16479 4294967295
40.321102 904.9693 813.16479 4294967295
42.837616 904.24744 815.17224 4294967295
45.801224 904.45343 815.34589 4294967295
0 907.43536 815.24414 4282985526
3.7633028 906.61334 814.55103 4286081686
6.4440365 907.4859 813.9787 4285298115
41.933945 906.81885 814.7243 4294967295
43.546787 907.43536 815.24414 4294967295
45.159634 907.43536 815.24414 4294967295
3.7510703 910.85352 814.63818 4285217084
7.2247705 911.33099 813.29675 4283575851
10.43578 911.33099 813.29675 4292728317
12.844037 911.33099 813.29675 4294967295
38.532108 911.33099 813.29675 4294967295
40.988075 910.66534 814.04346 4294967295
43.447708 910.61481 815.30884 4294967295
45.593273 910.81982 815.48175 4294967295
4.2813454 913.37671 815.02167 4287650376
7.2247705 912.55841 814.33167 4285413677
11.238532 912.55841 814.33167 4291550719
41.207951 912.96753 814.67657 4294967295
43.348625 913.78583 815.36658 4294967295
4.8000002 916.99756 814.15051 4287385627
6.9333329 916.18213 813.46289 4287648069
9.6000004 915.77435 813.11914 4281932032
13.6 915.77435 813.11914 4294834175
17.6 915.77435 813.11914 4294967295
37.866669 916.18213 813.46289 4294967295
40.533333 916.58984 813.8067 4294967295
4 918.22083 815.18188 4284960040
6.9174309 919.94775 814.02197 4286603883
38.311928 919.54089 813.67896 4294967295
40.440365 919.94769 814.02197 4294967295
43.200001 918.22083 815.18188 4294967295
4.788991 921.98175 815.73694 4289900510
7.4324155 922.89032 813.88702 4285029569
38.223854 922.07861 813.20264 4294967295
40.660549 922.63898 814.98309 4294967295
4.7779818 924.51379 815.25586 4288194815
7.1577978 925.16962 814.50079 4293387775
9.5339451 925.82544 813.74573 4294967295
40.519264 925.82544 813.74573 4294967295
3.972477 927.64764 815.28217 4291407330
7.1422014 928.30066 814.52478 4294637055
10.304587 928.95508 813.76855 4294967295
12.682569 928.34912 813.25757 4294967295
40.721714 928.72076 814.44305 4291872975
3.9633026 930.77313 815.30139 4288121461
7.133945 930.77313 815.30139 4294375148
10.280734 932.07642 813.7843 4294967295
13.444036 932.07642 813.7843 4294967295
15.816514 932.07642 813.7843 4294967295
34.005505 932.07642 813.7843 4278190188
40.332108 932.07642 813.7843 4284243882
43.596329 930.77313 815.30139 4291283417
7.908257 933.89014 815.3136 4278190099
10.280734 933.8902 815.3136 4283128894
13.444036 933.89014 815.3136 4293453283
34.005505 933.28558 814.80383 4278452294
40.332108 933.28558 814.80383 4278190132
7.0926609 938.8512 815.57251 4291940095
11.033028 938.8512 815.57251 4286744269
14.185321 937.64618 814.55652 4278190127
16.53945 937.36737 813.66748 4287728316
19.655964 938.94104 813.03223 4293641376
25.159634 938.94104 813.03223 4290474183
29.090824 938.94104 813.03223 4283905624
31.522936 936.44122 813.54053 4278190126
33.848625 937.69116 813.28638 4279246926
36.99633 937.69116 813.28638 4282068302
40.191742 937.0437 814.04858 4289960631
43.081345 937.64624 814.55646 4289768140
45.708256 938.8512 815.57251 4294967295
4.7174311 941.3454 815.05945 4291280114
7.8623853 941.3454 815.05945 4290428151
9.9590216 940.94464 814.72162 4291215099
13.366055 940.74432 814.55267 4286343588
16.511009 940.74432 814.55267 4283650663
18.869724 940.14325 814.0459 4285890816
33.022018 941.3454 815.05945 4278190168
36.691132 940.94464 814.72162 4280955004
40.098167 940.74432 814.55267 4291016931
42.981037 940.94464 814.72162 4292200167
45.601833 941.3454 815.05945 4294960639
7.8440366 943.83392 814.54175 4290229715
10.197248 943.83392 814.54175 4293189119
14.119267 943.83392 814.54175 4294967295
15.688073 943.83392 814.54175 4292725759
19.610092 942.63458 813.53052 4283335596
22.747707 942.63458 813.53052 4289174233
25.623856 943.03436 813.86761 4292585972
28.238533 942.63458 813.53052 4288245695
31.376146 943.23425 814.03613 4282596230
34.51376 943.23425 814.03613 4279701553
36.866974 943.83392 814.54175 4278583317
39.220184 943.83392 814.54175 4278190113
4.7064219 945.03333 815.55298 4286539869
6.7871556 946.2879 814.86688 4285295209
9.9198771 946.2879 814.86688 4284705861
12.521101 945.12036 813.01038 4294967291
17.216515 945.12036 813.01038 4291673087
19.56422 945.12036 813.01038 4287459815
23.477064 945.12036 813.01038 4290292699
26.60734 945.12036 813.01038 4291205374
32.867889 946.31696 814.01929 4286801799
37.651375 945.03333 815.55298 4278190080
39.220184 945.03333 815.55298 4283054649
7.0266056 949.39124 813.99536 4288647000
10.149542 949.39124 813.99536 4287995208
3.8963304 952.7337 814.85162 4285557063
6.7504592 952.854 814.29901 4284254029
10.125689 953.05249 814.46637 4282604345
12.462385 952.45703 813.96423 4287139391
43.618347 953.05249 814.46637 4281283196
45.695415 952.854 814.29901 4278190149
1.5577981 954.83893 815.97266 4289109433
3.8889909 955.47375 815.19989 4288516054
7.2525992 955.7124 814.0932 4285238706
10.101835 956.10852 814.42712 4282076576
13.210092 955.5144 813.92627 4282400093
16.318348 955.5144 813.92621 4289965366
18.649542 954.92035 813.42529 4294963149
38.85321 956.10852 814.42712 4278190120
41.184402 955.51447 813.92621 4278717534
43.618347 954.83893 815.97266 4278190392
45.176147 954.83893 815.97266 4278191934
-3.8853211 957.29663 815.42896 4281480830
-1.5541284 957.29663 815.42896 4278190143
0 957.29663 815.42896 4278190106
3.8853211 957.29663 815.42896 4278584157
7.2464828 958.11401 815.24609 4284963174
9.835475 958.11401 815.24609 4286481073
13.210092 957.29663 815.42896 4291411434
16.299082 958.52271 815.15466 4289117110
19.380733 959.15613 814.38068 4288581062
21.706423 959.74878 814.88037 4289504870
32.559631 959.74878 814.88037 4294967295
34.626911 958.95856 814.21411 4294967039
37.727829 958.95856 814.21411 4287267009
41.184402 957.29663 815.42896 4279374921
43.515594 957.29663 815.42896 4280494411
45.79174 957.93005 814.65497 4279969351
48.06422 958.56348 813.88098 4278192684
19.380733 960.93414 815.87988 4292589537
22.721712 960.96039 815.02997 4286614177
25.522018 961.604 813.82861 4287540091
28.649542 960.97345 814.60498 4292856535
31.501528 960.96039 815.02997 4294702584
46.847706 749.1897 816.54248 4294967295
-16.216515 751.94476 818.86548 4285471307
49.550461 751.25598 818.28473 4294967295
-16.166973 755.58435 818.01025 4285143623
-14.370643 754.21106 816.85229 4285144902
49.399082 754.89771 817.43127 4294967295
-16.714373 760.12836 817.91748 4284683587
-14.326606 759.21558 817.14783 4284162104
50.14312 760.58466 818.30225 4294967295
52.829357 760.58466 818.30225 4294967295
-16.977982 763.45343 818.1051 4284684617
-13.70153 762.54254 817.3371 4284294716
48.253212 762.0871 816.95312 4294967295
-16.034863 767.06494 817.2262 4285410641
-13.362385 766.38391 816.65198 4284693068
46.322937 765.70288 816.07776 4294967295
-16.034863 768.42706 818.37463 4283970133
-13.343119 769.54761 817.35736 4284501331
-15.985321 773.38385 818.63 4281083471
-13.608562 772.97565 817.41376 4280557878
-15.952293 776.22729 818.4115 4280622666
-13.293577 775.5498 817.84021 4279900720
-13.252294 779.13116 816.93585 4280426814
-15.902752 781.15747 818.64441 4283716218
-14.135779 781.15747 818.64441 4284175726
-12.330276 784.05078 817.15991 4283584622
-15.853211 786.0708 818.86304 4284246672
-13.191744 787.17657 817.83337 4283786378
-12.291743 789.62482 817.93567 4286020258
-10.513762 791.09644 816.56042 4284114348
52.568806 791.09644 816.56042 4294967295
54.321102 791.09644 816.56042 4294967295
-10.513762 793.10583 818.2547 4286218654
49.06422 792.43604 817.68994 4294967295
-10.480734 797.31006 817.87549 4279911262
48.910091 796.64233 817.3125 4294967295
-10.458715 800.1059 817.61682 4281879928
-8.7155962 798.77325 816.49316 4282280067
47.06422 798.77325 816.49316 4294967295
48.807339 800.1059 817.61682 4294967295
-10.425688 803.62488 816.65979 4285888670
46.915596 803.62488 816.65979 4294967295
48.807339 801.43854 818.74048 4294967295
-16.507339 806.28174 818.90002 4288569445
-12.742508 805.83893 818.52667 4288768398
49.522018 805.61755 818.33997 4294967295
50.231194 809.78381 817.92883 4294967295
-12.675229 812.11395 817.2774 4288434287
-10.370643 811.23303 816.53467 4288960632
50.124771 812.55444 817.6488 4294967295
-12.963303 813.87585 818.76294 4288036941
52.71743 813.87585 818.76294 4294967295
-12.060551 818.01697 818.33057 4289484619
-10.337615 817.35834 817.77521 4288964467
-8.5963306 818.79907 816.37402 4291200652
49.911926 817.4201 816.51935 4294967295
51.688072 818.01697 818.33057 4294967295
-10.315597 821.42786 818.59058 4290024069
-8.5963306 820.11346 817.4823 4291995303
49.858715 820.77063 818.03644 4294967295
-10.282569 824.89069 817.58618 4289827191
-7.9975533 824.01727 816.84967 4290682766
47.985321 824.2356 817.03381 4294967295
49.699081 824.89069 817.58618 4294967295
-10.282569 826.20087 818.69092 4288839277
-7.6954126 826.97668 816.729 4290155651
44.462387 826.97668 816.729 4294967295
46.77676 826.71808 817.383 4294967295
49.699081 826.20087 818.69092 4294967295
51.412846 826.20087 818.69092 4294967295
-10.26055 828.93774 818.38257 4289167730
47.027523 828.93774 818.38257 4294967295
-10.227523 833.03253 817.91107 4288837741
-7.95474 831.51221 816.62921 4289298544
43.751068 831.51215 816.62921 4294967295
46.592045 833.24976 818.09424 4294967295
-8.5045872 835.75537 817.59094 4288376678
44.223854 835.10522 817.04272 4294967295
47.625687 836.40558 818.13916 4294967295
49.326607 836.40558 818.13916 4294967295
-7.6293578 839.18109 816.55524 4288571463
46.623856 839.18109 816.55524 4294967295
49.166973 839.82916 817.10168 4294967295
-7.6220183 841.83167 817.48212 4288703558
46.522934 842.53802 816.76965 4294967295
49.961468 841.83167 817.48212 4294967295
52.557796 841.12531 818.19458 4294967295
-7.612844 844.47803 818.4054 4288901710
50.752293 844.47803 818.4054 4294967295
52.444038 845.12469 818.95068 4294967295
54.13578 845.12469 818.95068 4294967295
-6.7449541 847.87988 817.34967 4289627468
47.21468 847.23529 816.80615 4294967295
49.462997 848.09473 817.53082 4294967295
-6.7302752 851.21509 817.54565 4291276725
-5.0477066 849.92871 816.46106 4289957453
47.111927 850.5719 817.00336 4294967295
49.690826 850.51434 818.26288 4294967295
52.273396 849.8136 818.9801 4294967295
-6.7302752 852.5014 818.63025 4292521677
46.957798 854.59937 816.47522 4294967295
49.555962 853.55042 817.55273 4294967295
-7.5394492 857.22046 817.3772 4288561004
46.018349 857.27728 816.11707 4294967295
49.473396 856.52258 818.0968 4294967295
46.855045 858.55658 817.1958 4294967295
48.528439 859.19629 817.73517 4294967295
-6.6715598 862.55884 816.6463 4288688988
-5.0036697 861.92126 816.10876 4289869415
46.144955 862.34637 816.4671 4294967295
48.368809 863.19641 817.18384 4294967295
-6.6715598 864.4715 818.25903 4284222506
-4.9926605 865.85614 816.81042 4284946228
46.598164 865.85614 816.81042 4294967295
49.202751 864.4715 818.25903 4294967295
-6.6568809 868.40076 818.95593 4287324241
-4.4318042 868.47284 817.27271 4285807167
46.495415 868.51025 816.43225 4294967295
48.781651 868.43634 818.11395 4294967295
-4.9816513 871.04926 818.57312 4287328336
49.816513 871.04926 818.57312 4294967295
-4.1376147 873.74622 816.92297 4286336851
47.99633 873.11359 816.38953 4294967295
49.651375 874.37891 817.45642 4294967295
51.306423 875.64417 818.52332 4294967295
-6.6055045 878.27722 818.12732 4289303141
-4.1284404 877.01471 817.06287 4288118558
47.889908 877.01471 817.06287 4294967295
49.541283 877.646 817.59509 4294967295
-4.3938837 880.06494 817.01855 4289436491
47.783485 879.64502 816.66455 4294967295
-6.5908256 882.16437 818.78882 4286076958
-4.9266057 884.20764 816.58752 4285287443
50.087158 884.20764 816.58752 4294967295
52.550457 884.20764 816.58752 4294967295
-4.1018353 886.14282 816.91119 4284030511
47.517429 886.82251 816.17627 4294967295
49.975227 886.82251 816.17627 4294967295
52.433029 886.82251 816.17627 4294967295
-4.3669724 889.36157 817.44513 4286589773
-1.6348624 890.68164 816.81409 4287120243
47.411011 890.68164 816.81409 4294967295
49.919266 889.37842 817.02332 4294967295
52.433029 888.70148 817.76062 4294967295
54.07156 889.32782 818.2887 4294967295
-4.0871563 892.5564 818.3949 4283105306
49.863304 891.93146 817.86792 4294967295
53.133026 892.5564 818.3949 4294967295
-3.2587156 895.82642 817.22797 4286213531
-1.6293578 895.82642 817.22797 4286279068
0.81467891 895.20355 816.70276 4282193737
49.695412 895.20355 816.70276 4294967295
52.954128 896.44922 817.75317 4294967295
55.398167 896.44922 817.75317 4294967295
-3.2587156 897.69489 818.80347 4292467199
-1.6256881 899.03735 817.31934 4292269567
0.81284404 897.79449 816.27148 4291020020
49.583488 898.41589 816.79541 4294967295
52.954128 897.69489 818.80347 4294967295
55.398167 897.69489 818.80347 4294967295
-3.2513762 900.28021 818.36731 4285757111
-1.6220183 902.23999 817.40363 4284176793
1.6220183 901.61993 816.88086 4286809281
43.794495 901.61993 816.88086 4294967295
47.038532 901.61993 816.88086 4294967295
49.275837 901.14014 818.2204 4294967295
-3.2440367 904.10004 818.97205 4281468982
48.660549 904.10004 818.97205 4294967295
-3.2330275 907.95496 818.29828 4283506472
-1.6146789 907.38477 816.50952 4283771470
1.0764526 907.81268 816.43427 4284495175
46.825687 907.38477 816.50952 4294967295
48.495415 907.95496 818.29828 4294967295
56.57798 908.57288 818.81934 4294967295
58.194496 908.57288 818.81934 4294967295
-1.612844 910.51794 817.84326 4284230938
0.806422 909.90143 817.32349 4287252538
48.385323 911.13446 818.36304 4294967295
53.223854 911.13446 818.36304 4294967295
54.836697 911.13446 818.36304 4294967295
0.64366972 913.69043 817.90204 4287329678
46.022381 913.44434 817.69458 4294967295
56.321102 913.69043 817.90204 4294967295
57.930275 913.07526 817.38342 4294967295
1.0703365 916.64984 817.78143 4290361042
3.2110093 915.01324 816.40149 4285214464
44.418961 916.24066 817.43634 4294967295
46.559631 917.46808 818.47131 4294967295
48.165138 917.46808 818.47131 4294967295
57.798164 917.46808 818.47131 4294967295
0.80000001 920.66724 817.24475 4294373119
3.7333333 919.85181 816.55713 4292464624
41.599998 919.44403 816.21326 4294967295
43.200001 920.05566 816.729 4294967295
-1.6 921.89044 818.27612 4292202239
0.79816514 922.54626 817.52106 4293127423
3.1926606 923.20215 816.76599 4288589311
43.200001 921.89044 818.27612 4294967295
-1.5963303 925.03271 818.30945 4283518598
0.79633027 926.013 817.17395 4288185265
43.001835 926.94904 817.3092 4292530655
-1.5926605 928.16663 818.33582 4278190094
0.7944954 929.46985 816.8186 4279111186
-1.5889908 931.89941 818.86719 4283183198
0.79266053 931.98511 816.32336 4278190137
3.9633026 931.98511 816.32336 4278190080
6.3412843 931.98511 816.32336 4278190116
43.647705 931.33484 817.08313 4278190161
46.080734 931.89941 818.86719 4278190124
0.79266053 933.8031 817.85626 4284834206
3.9605503 934.12677 817.47522 4284176498
6.8587155 934.86835 817.01044 4286219419
10.280734 935.70392 816.8429 4285633679
12.653211 935.70392 816.8429 4278190121
44.388992 933.8031 817.85626 4286545812
0 937.5177 818.37231 4288124352
3.9541283 937.5177 818.37231 4290622694
3.1522937 941.26111 817.60449 4287331709
6.3045874 940.05615 816.5885 4291349247
3.6715596 943.32184 817.59796 4288514684
6.2899084 942.54755 816.07312 4290558424
33.022018 942.54755 816.07312 4281541217
40.884403 943.14868 816.57996 4284703315
43.243118 943.14862 816.57996 4282803580
45.601833 943.74976 817.08673 4288861678
3.9220183 946.8324 817.06995 4286471977
43.142204 946.83234 817.06995 4289633987
-1.5688074 948.63141 818.58691 4281538048
0.78440368 948.63141 818.58691 4283046400
4.6954126 948.71008 816.03711 4287456020
-1.5614679 953.56934 817.51819 4285232813
0.52048928 952.7735 816.84717 4287725197
46.899082 952.3363 817.78656 4278191135
1.5577981 956.02985 816.97681 4278190112
-3.1155963 957.81628 818.48309 4284703685
-1.5559633 958.4469 817.70673 4283782318
0.77798164 958.76282 817.31921 4282207599
3.8853211 959.07886 816.93164 4284439408
6.7345567 959.27686 817.09857 4281612106
10.360856 959.27686 817.09857 4280823440
13.210093 959.07886 816.93164 4284506549
16.318348 959.67297 817.4325 4282009510
35.22691 959.27686 817.09857 4291745504
38.335171 959.27686 817.09857 4278190203
41.184402 959.07892 816.93158 4278585158
43.515594 959.07886 816.93158 4278652978
45.874313 958.76355 817.31982 4279436848
48.234863 958.44824 817.70795 4285681283
-1.5541284 960.86108 818.43433 4291742719
0.7770642 960.86108 818.43433 4290625779
3.8853211 960.86108 818.43433 4294967039
6.993578 960.86108 818.43433 4288717770
10.101835 960.86108 818.43433 4278198938
13.210092 960.86108 818.43433 4279309699
16.318348 960.86108 818.43433 4284701332
19.426605 960.86108 818.43433 4290297539
22.507339 961.4903 817.6568 4288323033
25.582569 962.11951 816.87927 4288066339
28.718349 961.4903 817.6568 4293716988
31.859632 960.86108 818.43433 4294967295
34.967888 960.86108 818.43433 4285953182
38.076149 960.86108 818.43433 4278389253
41.184402 960.86108 818.43433 4280237454
43.515594 960.86108 818.43433 4278202963
45.069725 960.86108 818.43433 4278190628
50.605503 748.29675 819.71362 4294967295
52.412846 749.67847 820.87866 4294967295
-18.919266 754.01099 820.60773 4283439426
52.253212 753.32227 820.02698 4294967295
-17.963303 756.95764 819.16821 4284024374
50.297249 756.95764 819.16821 4294967295
52.991745 756.95764 819.16821 4294967295
-19.759632 759.70428 821.48401 4283508276
51.933945 761.95374 819.45667 4294967295
-17.871559 764.8197 819.25708 4285015883
-17.871559 766.18604 820.40918 4283773011
-19.598166 769.78912 819.52319 4282652727
-16.925688 769.78912 819.52319 4281082183
-19.598166 771.15125 820.67163 4282062407
-17.816513 771.15125 820.67163 4281149264
-19.537615 774.7417 819.7749 4281212227
-17.761467 774.7417 819.7749 4280820044
-21.269724 778.93744 820.69666 4281079594
-19.497248 778.25989 820.12537 4282461771
-17.133945 778.034 819.93488 4281741656
-21.269724 780.29254 821.83923 4281478447
-19.497248 780.29254 821.83923 4284044630
-16.813763 781.40039 820.81134 4283848072
-14.135779 782.5083 819.78345 4283388533
-19.436697 783.85919 820.92236 4284638548
-17.669725 783.85919 820.92236 4284575894
-15.853211 788.09076 820.56628 4285296534
-14.091743 788.09076 820.56628 4285625244
-12.291743 790.96729 819.06763 4286086053
50.922935 790.96729 819.06763 4294967295
54.434864 790.96729 819.06763 4294967295
-12.877065 793.20465 820.9541 4282731381
50.922935 792.30969 820.19946 4294967295
52.678898 793.65216 821.33142 4294967295
-12.266055 796.45496 821.07861 4283516789
50.816513 795.11536 819.9491 4294967295
-12.227523 799.98096 820.12756 4286739600
50.656879 799.31323 819.56451 4294967295
-16.559633 802.77118 819.86414 4287388249
-13.944954 802.77118 819.86414 4287850376
50.550457 802.77118 819.86414 4294967295
-19.113762 807.61011 820.02014 4288694378
-16.507339 807.61011 820.02014 4288895578
-13.900917 807.61011 820.02014 4289160074
-19.053211 811.10803 819.04541 4287506257
-16.455046 811.77014 819.6037 4288230237
52.829357 811.10803 819.04541 4294967295
-16.455046 813.75647 821.27844 4287702357
-13.827523 815.19727 819.8772 4287177757
53.58165 815.19727 819.8772 4294967295
-13.827523 816.51862 820.99133 4287712058
53.58165 816.51862 820.99133 4294967295
-13.209174 820.43182 820.3667 4288771697
52.8367 820.43182 820.3667 4294967295
-12.607951 823.61847 820.43768 4289168253
52.437614 823.39941 820.25293 4294967295
-13.754128 825.37103 821.91528 4288445286
-11.99633 827.51111 819.79565 4289037423
49.699081 827.51111 819.79565 4294967295
52.269726 827.51111 819.79565 4294967295
-13.710092 828.82129 820.90027 4288313700
-11.970642 830.24512 819.48486 4288576872
47.882568 830.24512 819.48486 4294967295
49.592659 830.24512 819.48486 4294967295
52.157799 830.24512 819.48486 4294967295
-11.970642 832.20618 821.13843 4288313700
49.592659 831.55249 820.58728 4294967295
51.302753 831.55249 820.58728 4294967295
-11.079817 835.63892 820.1087 4288706669
51.137615 834.9873 819.55933 4294967295
-10.781039 838.10199 820.44147 4288640361
51.027523 837.70593 819.2356 4294967295
-10.205504 840.3067 821.42847 4288244809
-8.4770641 842.42151 819.28735 4288376652
52.557796 842.42151 819.28735 4294967295
-10.172477 844.36572 820.9267 4288969065
-8.4587154 847.06476 820.58643 4290219658
52.444038 846.41809 820.04114 4294967295
54.699696 847.28027 820.76825 4294967295
-8.4311924 851.10272 820.06714 4292255650
53.116516 851.10272 820.06714 4294967295
-8.4128437 853.78772 819.71484 4289087330
50.477066 853.78772 819.71484 4294967295
53.059631 853.08978 820.43445 4294967295
55.64587 852.39185 821.15405 4294967295
57.332111 852.39185 821.15405 4294967295
-10.095413 856.36041 821.88416 4288159562
52.72049 855.93164 821.52264 4294967295
-8.3853207 858.44574 819.71838 4289475422
50.311928 858.44574 819.71838 4294967295
51.988991 859.72791 820.79944 4294967295
-8.3669729 862.39453 820.43188 4284950865
50.201836 861.11523 819.35315 4294967295
52.741283 862.68805 821.33337 4294967295
55.222019 863.67389 821.51062 4294967295
-6.6715598 865.74664 819.33411 4284753951
50.036697 865.74664 819.33411 4294967295
-7.7785935 868.33057 820.64081 4285484095
51.647705 868.34741 820.21899 4294967295
-6.6568809 870.94537 821.10156 4287327834
51.477066 872.31879 819.64343 4294967295
-7.472477 874.22302 821.24908 4287791933
-8.2752295 878.17474 820.65698 4288384316
51.306423 876.90948 819.59009 4294967295
-7.4403667 879.48987 820.45782 4287856714
-7.1461773 883.39087 820.69501 4286266156
-7.4036694 886.95874 820.86926 4286722400
-7.3899078 889.8573 821.3512 4284483902
-4.9155965 890.58051 819.34497 4284153895
-6.5541286 892.45953 820.92932 4285874789
-6.5394497 895.68109 821.02954 4290094304
-4.9045873 895.05615 820.50262 4292593909
-4.8880734 898.94055 819.85376 4287004336
52.13945 898.94055 819.85376 4294967295
55.398167 898.94055 819.85376 4294967295
-7.0605507 901.0166 821.60425 4282070643
-4.3388381 901.4917 820.26093 4282135159
50.396332 902.14453 819.93927 4294967295
52.954124 900.80896 821.4292 4294967295
55.898472 901.46136 821.10724 4294967295
-6.5027523 904.00879 821.51111 4278190084
-4.866055 905.34009 820.01758 4280560175
50.28257 905.34009 820.01758 4294967295
56.086239 904.00879 821.51111 4294967295
-6.4880733 906.58014 821.06311 4279369728
-4.866055 906.58014 821.06311 4280947474
50.28257 906.58014 821.06311 4294967295
53.526604 906.58014 821.06311 4294967295
55.148624 906.58014 821.06311 4294967295
-4.0412846 910.42664 820.38232 4286805628
50.111927 909.80872 819.86133 4294967295
51.728439 910.42664 820.38232 4294967295
-6.4660549 912.2804 821.94543 4288976076
-4.3045869 913.57147 821.28998 4292397303
-1.612844 912.98401 819.92255 4291478759
49.191742 912.98401 819.92261 4294967295
52.602203 913.58313 820.95087 4294967295
54.836697 913.60052 820.44238 4294967295
58.062386 913.60052 820.44238 4294967295
-3.2183487 916.76599 820.49536 4289702362
-1.6091744 916.15088 819.97668 4293125119
49.348011 916.97101 820.66827 4294967295
52.298164 917.3811 821.01404 4294967295
55.516514 916.76599 820.49536 4294967295
-3.2110093 919.92291 820.54126 4282464881
-1.6055046 918.6955 819.50623 4293714175
44.954128 919.3092 820.02374 4294967295
46.559631 919.3092 820.02374 4294967295
48.967888 919.92291 820.54126 4294967295
56.192661 919.3092 820.02374 4294967295
58.333332 919.10468 819.85126 4294967295
-3.2 923.11365 819.3075 4280165219
44 923.11365 819.3075 4294967295
46.559631 921.15033 821.57617 4294967295
48.967888 921.15033 821.57617 4294967295
52.178902 921.15033 821.57617 4294967295
54.587154 921.15033 821.57617 4294967295
-3.7308867 925.58673 820.52069 4280688189
44.799999 924.33685 820.33887 4294965759
46.400002 924.94849 820.85455 4294638065
48.800003 924.94849 820.85449 4294967295
51.200001 925.56006 821.37024 4294967295
-6.3853211 929.3042 821.91101 4283843401
-4.2544341 928.92407 820.71844 4280886317
-1.5926605 929.38422 819.36243 4279112225
47.038532 928.73401 820.12219 4278190152
49.48624 928.08374 820.88196 4281874588
51.880733 928.69397 821.39648 4286216568
-3.1853211 931.21063 820.90247 4283051335
47.779816 931.21063 820.90247 4284180863
49.903366 931.00763 820.73138 4281812563
-3.972477 934.9364 821.42786 4283458893
-1.5871559 934.36768 819.64032 4289436556
1.5853211 935.62109 819.38916 4292728048
3.1706421 935.62109 819.38916 4292530943
47.14006 934.32904 820.91577 4294704127
50.212109 934.57196 821.12061 4284117926
52.436699 934.9364 821.42792 4278190161
-3.1706421 938.04504 821.43298 4279647232
-1.5853211 937.43909 820.922 4282938143
1.5853211 937.43909 820.922 4285820858
47.559631 938.04504 821.43298 4292400127
50.730274 938.04504 821.43298 4278260793
-1.5816513 941.74988 821.94067 4285160261
0.63266051 940.78253 821.125 4286999163
0.78807342 944.87604 820.65259 4283903232
-3.940367 946.08105 821.66858 4280158464
45.601833 946.15411 819.11401 4285491584
-1.5688074 949.83081 819.59814 4285360516
48.633026 949.83081 819.59814 4278190080
49.601837 952.27539 819.91534 4278190388
51.64954 953.49634 820.07275 4278192187
-6.2605505 954.69287 821.08167 4292462079
-4.6844039 955.95685 819.53137 4287922372
49.966972 955.95685 819.53137 4278911024
52.309174 955.95685 819.53137 4278190128
54.651375 955.95685 819.53137 4278191687
-4.161468 958.36591 820.69061 4292727806
46.733944 959.60272 819.98938 4283170966
49.408566 958.36591 820.69061 4293181431
52.048931 957.94647 821.20892 4291344358
-7.0100918 961.98462 821.99768 4290821355
-3.6324158 961.60919 820.80908 4291874555
-1.5541284 962.04926 819.43616 4292665343
1.0373088 962.02777 820.29004 4293256447
3.628746 962.02765 820.29004 4294769663
6.993578 962.04926 819.43616 4294967295
10.120184 961.70306 821.1062 4294967295
13.241284 960.79364 820.99353 4294967295
16.35688 960.79364 820.99353 4293585642
19.182264 962.02765 820.29004 4280372914
22.534863 962.04926 819.43616 4282929625
25.403671 962.02777 820.29004 4290162906
28.784405 961.42145 820.21484 4285695919
32.194492 961.19061 821.32831 4281810808
35.050461 961.3891 821.49561 4278979913
38.144035 961.70306 821.10632 4285558427
40.50275 961.38916 821.49561 4293326335
42.839447 961.3891 821.49561 4293127423
46.21468 961.19067 821.32831 4287857831
48.291744 960.79364 820.99353 4293837285
-1.5541284 963.23737 820.43799 4292729599
0 963.23737 820.43799 4293255679
4.6623855 963.23737 820.43799 4294967295
6.993578 963.23737 820.43799 4294967295
-19.820183 756.07733 822.34998 4281935195
-21.269724 781.64758 822.98169 4282927930
-21.269724 783.00269 824.12427 4283258458
-19.436697 785.21008 822.0614 4284442475
-17.669725 785.21008 822.0614 4284770959
-19.436697 787.23633 823.76996 4284246138
-17.669725 786.56091 823.20044 4284637835
53.009174 787.23633 823.76996 4294967295
-16.440367 790.55957 822.64795 4283258235
-14.091743 790.11072 822.26953 4285625234
54.605503 790.78406 822.83722 4294967295
-19.376146 792.80408 824.54041 4286014357
-16.709175 793.89935 823.50189 4283383924
-14.047707 794.99463 822.46338 4282200930
52.678898 794.99463 822.46338 4294967295
-16.64679 797.79462 822.20813 4286404216
-14.018349 797.79462 822.20813 4285818498
52.678898 796.33704 823.59521 4294967295
52.568806 799.13428 823.33765 4294967295
-19.692966 811.5954 823.38037 4287308879
-19.053211 815.08069 822.39502 4287768665
-16.455046 815.08069 822.39502 4287440214
-19.053211 816.40491 823.5116 4287307599
-15.555964 817.84003 822.10547 4289612137
-16.420183 819.16144 823.21973 4288237409
-15.506422 823.28577 822.77307 4288705383
-16.046484 827.56171 823.76239 4288182619
-13.710092 830.13147 822.005 4288182115
-20.565138 832.75183 824.21448 4287255908
-16.566362 831.87842 823.47803 4287986271
-13.710092 831.44165 823.10974 4288379493
-16.074863 835.73615 824.11462 4288117360
-13.680734 834.82092 823.34308 4288444526
-13.636697 838.89679 822.85571 4288510841
-11.93211 838.89679 822.85571 4287787118
-15.341285 840.19995 823.95447 4288316054
-13.622019 841.55371 823.7879 4288971398
-11.906422 842.2572 823.07312 4288510846
-13.60734 844.20776 824.71777 4287977571
-11.906422 844.20776 824.71777 4289622397
-11.020184 847.60608 823.65894 4289489531
-10.99633 850.94482 823.85803 4287640678
55.827522 849.00476 822.22217 4294967295
-10.96055 854.32556 822.78455 4286719560
53.959633 853.68103 822.24109 4294967295
55.64587 853.68103 822.24109 4294967295
57.332111 853.68103 822.24109 4294967295
-10.949541 856.953 823.69183 4285870655
53.842201 857.64673 822.96875 4294967295
55.64587 856.25928 824.41492 4294967295
57.332111 856.25928 824.41492 4294967295
-10.095413 858.93311 824.05334 4284887379
55.524769 858.93311 824.05334 4294967295
-10.062386 863.57428 824.0426 4282253585
53.548622 864.95325 822.58923 4294967295
-10.040367 867.5119 824.7467 4286675542
-8.3394499 869.57196 822.55957 4284109358
-10.007339 872.12219 824.70984 4285228062
-8.3211012 872.21771 822.17432 4284109097
-14.944954 877.39679 823.92517 4287517790
-10.793578 876.76208 823.38995 4286803504
-14.06789 881.33801 823.32422 4286267947
-10.757798 881.33801 823.32422 4286929462
-14.036697 884.58966 823.44983 4287385456
-10.733945 884.58966 823.44983 4286660717
-8.2568808 883.32715 822.38538 4285412939
-14.036697 885.85217 824.51428 4287516530
-10.722936 886.52765 823.77582 4287185265
-8.2385321 887.20312 823.03735 4286196572
-9.8862381 888.46283 824.09949 4285012314
-9.8532114 892.99597 823.99768 4286077697
-8.211009 891.74048 822.93909 4287913561
-13.108257 896.84387 824.6261 4280615749
-10.650459 896.84387 824.6261 4289434829
-7.6415901 895.62018 822.72235 4289961879
53.950459 896.93091 822.08337 4294967295
-9.8091745 899.43066 824.19104 4287732159
-8.1743116 898.18079 823.13721 4288648130
-8.1467886 902.67749 823.00464 4278583823
52.954128 902.67749 823.00464 4294967295
-9.7761469 903.92316 824.05493 4287266739
-8.1284399 905.25165 822.55908 4278976821
52.022018 905.25165 822.55908 4294967295
-7.5816512 907.35065 823.45685 4280822077
-6.4880733 909.06024 823.1543 4286741398
-7.0048928 914.34015 823.68213 4288642191
-6.451376 917.29962 823.5614 4278845497
-4.838532 916.06659 822.52173 4288648071
-6.451376 918.53265 824.60107 4278847513
-4.8275228 919.22644 822.56995 4278190105
52.298164 918.61133 822.05127 4294967295
54.711926 918.61133 822.05127 4294967295
-6.429358 922.3385 823.88593 4282466374
-4.8165135 922.37781 822.61108 4281282099
52.446484 922.78693 822.95605 4294967295
54.587154 922.99152 823.12854 4294967295
-7.2137613 925.80798 823.54126 4282860883
52.799999 926.78326 822.40161 4290356656
54.400002 926.78326 822.40161 4291937251
-8 928.61816 823.94867 4285683085
54.400002 928.00653 823.43298 4289572787
-7.183486 931.13477 823.45459 4286477196
-4.788991 930.5246 822.94006 4285555302
52.678898 930.5246 822.94006 4278193725
54.27523 930.5246 822.94006 4278190136
-6.3706422 933.64587 822.95575 4285036929
54.681347 933.84882 823.12689 4278255906
-6.8856263 937.56842 823.64722 4285884006
-4.237309 937.56842 823.64722 4283058743
49.258717 936.75861 822.96436 4286412976
52.436699 937.36597 823.4765 4285427076
54.820183 937.36603 823.47656 4280829039
-6.8697248 941.27704 824.15814 4286736699
-3.9633026 941.07507 823.98779 4283906323
-1.5853211 939.25708 822.45483 4283850758
47.559631 939.86304 822.96582 4293584895
50.096149 940.22668 823.27246 4294306559
52.315598 940.46906 823.47681 4294965503
55.48624 941.68103 824.49878 4294967295
57.07156 941.68103 824.49878 4294967295
-6.3266053 944.16821 823.97986 4285358621
-1.5816513 942.95905 822.96021 4284950784
47.449543 942.95905 822.96021 4286216647
49.558411 943.76514 823.63995 4288978894
-3.940367 947.28601 822.68457 4284308594
50.436699 947.28601 822.68457 4278190136
52.194496 945.37744 824.99939 4278190137
52.981647 949.7381 823.008 4278388272
-6.2605505 955.88947 822.09058 4292792319
53.21468 955.88947 822.09058 4281559478
55.628441 955.25885 822.86688 4278393176
58.692661 955.88947 822.09058 4278190100
-6.2458715 959.53815 822.55103 4290886887
49.966972 959.53815 822.55103 4294426367
52.309174 959.53815 822.55103 4292784887
55.562386 957.68427 823.60394 4278583333
58.692661 957.68427 823.604 4283119926
-9.3688078 961.92566 824.56409 4293059071
-7.0266056 961.92566 824.56409 4293387775
-4.6844039 961.32874 824.06079 4292664063
13.272477 960.73187 823.5575 4294967295
16.395412 960.73187 823.5575 4294967295
20.299082 960.73187 823.5575 4281808868
22.641285 960.73187 823.5575 4282878751
26.544954 960.73187 823.5575 4288521471
28.887157 960.73187 823.5575 4282666085
32.010094 961.32874 824.06079 4278782499
35.133026 961.92566 824.56409 4278190158
37.475231 961.92566 824.56409 4278190099
39.817429 961.92566 824.56409 4284303759
42.940369 961.92566 824.56409 4287790317
45.803059 961.52765 824.22852 4281611109
49.186241 961.32874 824.06079 4285095323
52.048931 961.12982 823.89307 4286147235
-3.1155963 963.17554 823.00183 4293716735
-1.5577981 963.771 823.50397 4294243071
0.51926607 963.57251 823.33661 4294045951
3.8944955 963.17554 823.00183 4294375423
7.0100918 963.17554 823.00183 4294967295
-21.269724 785.03528 825.83813 4284377725
-21.203671 789.26263 825.47852 4285430169
-19.436697 789.26263 825.47852 4284377225
-17.669725 789.26263 825.47852 4282535803
-19.376146 794.1507 825.6759 4285876863
-19.422628 834.93549 826.05566 4288438660
-19.666054 838.7431 826.65015 4288038255
-17.100918 838.08942 826.099 4288184467
-18.750458 842.80634 826.1521 4287903329
-16.193579 842.15479 825.60266 4288372608
-18.750458 844.1095 827.25085 4287509087
-16.193579 844.1095 827.25085 4287314265
-13.60734 845.50818 825.81421 4287449176
-13.60734 846.80853 826.91064 4287441236
-15.258716 851.49457 826.93762 4282917711
-13.563303 850.19843 825.84473 4286260332
-13.533945 853.53149 826.03906 4284490282
55.827522 852.88483 825.49377 4294967295
57.519264 852.88483 825.49377 4294967295
-11.842202 855.47156 827.6748 4284104227
-13.489908 860.12671 827.6759 4286667040
-10.949541 859.5285 825.8634 4283508264
-15.143119 862.79211 827.30713 4288708472
-11.777982 862.14893 826.76483 4282917632
-10.900917 865.49744 825.66418 4285749809
-10.877064 868.7912 825.82532 4286738743
-15.060551 871.34985 827.98279 4288968871
-13.387156 871.34985 827.98279 4286342180
-16.642202 876.03461 825.39258 4283109403
-13.313762 876.03461 825.39258 4286473772
-16.513762 887.11462 825.57886 4287516768
-14.036697 887.11462 825.57886 4287254123
-11.559633 887.11462 825.57886 4285610336
-14.021101 889.67969 826.43347 4285347416
-10.98471 890.1424 825.51562 4281926946
-14.829358 892.24188 827.28589 4281471267
-14.232415 895.5069 826.11493 4280877327
-10.674313 894.25146 825.05627 4289034636
-13.108257 898.7229 826.21039 4284633954
-11.469725 898.7229 826.21039 4289502636
-13.108257 900.60187 827.79468 4285945468
-10.626606 901.30548 825.77191 4289370033
-10.610092 904.17456 826.22894 4289759945
-9.7761469 907.03735 826.68073 4287992234
-8.1284399 908.98016 825.70288 4289039511
-9.7541285 910.22302 826.75085 4284030033
-8.1100922 911.54034 825.24548 4289425058
-9.73211 913.40039 826.81378 4283631653
-9.6990824 917.22375 826.11353 4283179586
-8.0825691 916.60583 825.59247 4282254116
-8.0825691 918.45959 827.15552 4281873984
-9.5339451 941.01038 826.54932 4284762687
-7.9449539 939.18823 825.01294 4287788081
52.436699 940.40302 826.03723 4294962943
54.422935 940.09937 825.78113 4293123832
-7.9266057 942.89301 825.52063 4286276961
53.108257 943.49902 826.03162 4285754245
10.197248 959.42572 827.68835 4294967295
55.562386 959.47913 825.11731 4278583296
58.692661 959.47913 825.11731 4291145663
-6.2605505 961.87225 827.13501 4294768383
-4.6954126 961.87225 827.13501 4294768383
4.6954126 961.87225 827.13501 4294704639
13.30367 960.67566 826.12622 4294967295
16.433945 960.67566 826.12622 4294967295
19.56422 960.67566 826.12622 4294967295
22.694496 960.67566 826.12622 4292533210
25.824772 960.67566 826.12622 4284580595
29.215904 961.07452 826.46246 4290754786
31.824463 961.47339 826.79877 4288124392
35.215599 961.87225 827.13501 4278190295
37.563301 961.87225 827.13501 4278190127
39.911011 961.87225 827.13501 4278190102
43.041283 961.87225 827.13501 4278785339
46.171562 961.87225 827.13501 4278190135
49.301834 961.87225 827.13501 4278190641
52.692966 961.47339 826.79877 4278190120
55.562386 961.27399 826.63062 4284963421
58.692661 961.27399 826.63062 4294965470
-9.3688078 963.11938 825.57056 4294505215
-7.8073397 963.11938 825.57056 4294768127
-3.1229358 963.11938 825.57056 4294571775
0.78073394 963.71631 826.07385 4294375423
3.1229358 963.11938 825.57056 4294112767
7.0266056 963.11938 825.57056 4294901503
-20.521101 841.35785 828.85486 4287114327
-19.63578 844.36578 829.42908 4287248988
-16.193579 845.41266 828.34973 4286982234
-18.750458 847.36743 829.99786 4285214539
-16.177065 847.41235 828.72778 4285146980
-17.009174 850.05945 829.65167 4283445335
-15.258716 853.43884 828.57697 4284104787
-13.563303 854.08691 829.12341 4284236070
-13.563303 855.38306 830.21631 4286076434
-13.489908 861.41589 828.76282 4287326720
-15.703976 864.50714 828.75323 4287655026
-13.46055 864.72156 828.93402 4287656751
-15.93211 868.70276 828.36682 4286797172
-13.416513 868.70276 828.36682 4285164317
-11.73945 868.70276 828.36682 4283519749
-14.829358 896.02094 830.47229 4282125629
-16.422018 899.27338 829.29065 4284095044
-14.779817 899.27338 829.29065 4282779184
-16.422018 900.52881 830.34924 4284287058
-13.944036 901.19165 829.6001 4283371102
-16.385321 904.35992 830.96338 4285469511
-13.920183 904.0636 830.05957 4283236396
-11.444036 905.05505 828.93341 4290077593
-13.89633 906.92987 830.51416 4284350761
-11.405504 908.90576 828.25623 4284876588
-13.034863 911.39709 830.35681 4285729596
-11.405504 910.15143 829.30652 4284088364
-11.379816 912.70874 828.84668 4285729596
-10.543119 915.88049 828.90497 4283708488
-9.6990824 919.69543 828.19751 4283388231
-8.0825691 919.69543 828.19751 4281546027
1.5688074 961.82446 829.71094 4294112767
3.9220183 961.82446 829.71094 4294046975
7.0596333 961.82446 829.71094 4293585919
10.197248 960.62506 828.69958 4294967295
13.334863 960.62506 828.69958 4294967295
16.472477 960.62506 828.69958 4294967295
19.610092 960.62506 828.69958 4294967295
22.747707 960.62506 828.69958 4294111986
26.14679 961.0249 829.03668 4288654581
28.761469 961.42462 829.37384 4290825721
32.160549 961.82446 829.71094 4294967295
34.51376 961.82446 829.71094 4294967295
36.866974 961.82446 829.71094 4292468991
40.004585 961.82446 829.71094 4287017688
43.142204 961.82446 829.71094 4278726519
46.279816 961.82446 829.71094 4278190140
49.417431 961.82446 829.71094 4278190089
52.555046 961.82446 829.71094 4281670656
55.692661 961.82446 829.71094 4294961350
-10.185321 963.04626 829.43304 4294111487
-7.0513763 963.04633 829.43311 4294440447
-3.9174311 963.04633 829.43311 4294440191
-1.5669725 963.04626 829.43304 4294374399
0 964.26538 829.15283 4294243327
34.51376 963.0238 830.72217 4294967295
36.866974 963.0238 830.72217 4294967295
40.004585 963.0238 830.72217 4290495479
52.555046 963.0238 830.72217 4284898697
55.692661 963.0238 830.72217 4294967295
58.761471 963.04633 829.43311 4294967295
61.609787 963.45264 829.33966 4294967295
-20.521101 844.62628 831.61072 4286726491
-18.750458 849.97375 832.1955 4284755273
-16.442202 852.87689 832.02716 4285617735
-16.422018 901.7843 831.40784 4284944963
-16.385321 905.61255 832.01965 4285929287
-16.385321 906.86523 833.07581 4285731646
-13.89633 908.17975 831.56812 4285271099
-14.713761 910.05457 833.14886 4285208129
-13.034863 913.26562 831.93225 4283771460
-11.405504 913.88843 832.4574 4283710546
-16.293577 915.13409 833.50769 4283185998
-13.834862 915.78571 832.74915 4282330950
-11.379816 916.43732 831.9906 4283581277
-11.007339 962.9845 833.30505 4294111743
-7.0761471 962.9845 833.30505 4293980159
-4.7174311 962.9845 833.30505 4294045183
-1.5724771 962.9845 833.30505 4294045183
0.78623855 962.38342 832.79822 4294111231
3.9311926 961.78235 832.29138 4294177791
7.0761471 961.78235 832.29138 4293782783
10.233027 960.56042 832.56921 4293585150
13.381651 960.56042 832.56921 4294440703
16.530275 960.56049 832.56915 4294967295
19.666971 960.87085 832.17688 4294967295
22.813763 960.87085 832.17688 4294967295
25.683792 961.38165 831.95343 4294967295
29.352905 962.18311 832.62921 4294638591
31.449541 962.38342 832.79822 4294507263
33.546177 962.5838 832.9671 4294441727
36.953209 962.9845 833.30505 4294638591
40.098167 962.9845 833.30505 4294901503
43.243118 962.38342 832.79822 4288850424
46.388073 962.38342 832.79822 4285231030
49.533028 962.38342 832.79822 4282797932
52.677982 962.9845 833.30505 4292534757
55.822937 962.9845 833.30505 4294967295
59.754128 962.9845 833.30505 4294967295
-3.1376147 964.22321 831.7334 4293913599
58.045872 964.22321 831.7334 4294967295
61.967888 964.82288 832.23901 4294967295
-16.348623 911.92932 834.72961 4283112776
-14.713761 911.92932 834.72961 4283244618
-13.134557 962.54907 835.55402 4294309887
-9.9822626 962.54907 835.55402 4293980671
-7.0926609 962.95074 835.8927 4294111487
-3.940367 962.95074 835.8927 4293979647
-1.5761468 962.95074 835.8927 4294110975
0 962.95074 835.8927 4294242815
20.489908 961.74573 834.87659 4294967295
22.85413 961.74573 834.87659 4294967295
26.006422 961.74573 834.87659 4294967295
29.158714 962.34827 835.38464 4294967295
31.522936 962.95074 835.8927 4294967295
33.887154 962.95074 835.8927 4294440956
37.039452 962.95074 835.8927 4294572543
40.191742 962.95074 835.8927 4294835711
50.436699 962.95074 835.8927 4292203226
52.800919 962.95074 835.8927 4294703613
55.888077 964.1712 835.61365 4294901759
58.967892 964.78778 834.82544 4294901759
62.112846 965.38885 835.33228 4294967295
62.112846 966.591 836.34595 4294967295
64.471558 966.591 836.34595 4294967295
1.5816513 959.88763 837.23401 4294045183
3.9587154 959.87427 838.53076 4294045951
7.1256881 959.87427 838.53076 4293980415
10.292661 959.87427 838.53076 4293651455
13.718655 959.87872 838.09845 4293190653
16.626606 959.87427 838.53076 4292599545
18.979816 959.88763 837.23401 4294374654
-13.444036 962.30603 839.27307 4294310143
-10.280734 962.30603 839.27307 4294177791
-7.1174312 962.30603 839.27307 4294243071
-3.9541283 962.30603 839.27307 4294111231
-1.5816513 962.30603 839.27307 4294242815
0.79082566 961.70142 838.76331 4294308351
12.653211 961.09686 838.25354 4293453567
19.770641 961.09686 838.25354 4294440447
22.933945 961.09686 838.25354 4294967295
26.360855 961.49994 838.59344 4294967295
28.469725 961.70142 838.76331 4294967295
30.842201 962.30603 839.27307 4294967295
34.005505 962.30603 839.27307 4294572542
36.377983 962.30603 839.27307 4294375167
43.495415 961.09686 838.25354 4294967039
46.658714 961.09686 838.25354 4294769663
49.822018 961.70142 838.76331 4292992498
52.985321 962.30603 839.27307 4294967039
59.105507 965.36066 837.92468 4294901759
61.469727 966.56567 838.94067 4294967295
63.758713 967.17944 838.15015 4294967295
-15.889908 959.23236 841.91364 4294770687
-13.475229 962.28491 841.87134 4294310143
-10.304587 962.28491 841.87134 4294243839
-7.9266057 962.28491 841.87134 4294506495
-4.7559633 962.28491 841.87134 4294374143
-1.5853211 962.28491 841.87134 4294242815
0.79266053 961.67889 841.36041 4294374399
3.9633026 961.07288 840.84949 4293782783
7.133945 961.07288 840.84949 4293849087
10.304587 961.07288 840.84949 4293387775
13.475229 961.07288 840.84949 4293584383
16.645872 961.07288 840.84949 4293519359
19.816513 961.07288 840.84949 4292861692
22.987156 961.07288 840.84949 4293059574
25.365137 961.07288 840.84949 4294967295
28.53578 962.28491 841.87134 4294967295
31.706423 962.28491 841.87134 4294967295
37.519268 961.88086 841.53076 4294309631
40.42569 961.07288 840.84949 4294046207
43.596329 961.67889 841.36041 4293914111
46.766972 961.67889 841.36041 4294110719
49.673397 961.88086 841.53076 4294703103
53.108257 962.28491 841.87134 4294967295
55.48624 962.28491 841.87134 4294967295
-12.682569 963.49689 842.89331 4294441727
-9.5119267 963.49689 842.89331 4293915135
-6.8648319 963.50299 842.02643 4294177791
-3.6966362 963.50299 842.02643 4294045695
