# .PCD v0.7 - Point Cloud Data file format
VERSION 0.7
FIELDS x y z rgb
SIZE 4 4 4 4
TYPE F F F U
COUNT 1 1 1 1
WIDTH 1170
HEIGHT 1
VIEWPOINT 0 0 0 1 0 0 0
POINTS 1170
DATA ascii
28.530886 787.51691 809.61816 4294967295
0 790.77753 809.75134 4294965247
4.3577981 790.77753 809.75134 4294967295
7.8440366 790.77753 809.75134 4293190884
10.458715 789.44489 808.62769 4287260052
12.201835 789.44489 808.62769 4286996623
15.688073 789.44489 808.62769 4293578364
20.917431 789.44489 808.62769 4294967295
22.660551 790.11121 809.18951 4294967295
24.984711 790.33331 809.37677 4294967295
10.425688 793.66174 808.25916 4290221997
12.163302 792.9975 807.6991 4286466643
16.507339 792.9975 807.6991 4294108885
20.851376 792.9975 807.6991 4294967295
22.588991 794.32593 808.81921 4294967295
0 795.65436 809.93933 4291546086
7.8192658 795.65436 809.93933 4294046193
10.39266 797.86597 807.88 4290886596
12.124771 797.86597 807.88 4287004808
22.517431 797.86597 807.88 4294967295
24.326605 795.65436 809.93933 4294967295
0 799.19012 808.99646 4290230492
7.7944956 799.19012 808.99646 4294111986
10.39266 799.19012 808.99646 4290099410
12.963303 800.66174 807.62122 4287663790
16.420183 800.66174 807.62122 4293584889
20.741285 800.66174 807.62122 4294967295
22.469725 800.66174 807.62122 4294967295
24.249542 799.19012 808.99646 4294967295
-4.3211012 803.30457 809.84961 4288317330
-1.7284404 801.98315 808.73535 4291147719
0.8642202 802.64386 809.29248 4292730346
4.3211012 803.30457 809.84961 4294834939
7.7779818 801.98315 808.73535 4294769151
10.370643 801.98315 808.73535 4291611096
12.099083 801.98315 808.73535 4290689994
22.469725 801.98315 808.73535 4294967295
24.198166 802.64386 809.29248 4294967295
-3.4458716 806.82074 808.89026 4281674837
-1.7229358 806.16211 808.33496 4286872217
0 805.50354 807.77966 4290819797
4.3073397 806.82074 808.89026 4294967295
7.753211 806.16211 808.33496 4294967295
10.337615 806.16211 808.33496 4292469477
12.922018 805.50354 807.77966 4291217629
17.229359 805.50354 807.77966 4294966783
20.67523 805.50354 807.77966 4294967295
22.398165 806.16211 808.33496 4294967295
25.844036 806.82074 808.89026 4294967295
27.566973 806.82074 808.89026 4294967295
-1.7192661 809.59833 808.61621 4281935184
0 808.94116 808.06207 4287984806
6.8770642 809.59833 808.61621 4294967295
10.315597 809.59833 808.61621 4294967295
12.894495 808.28394 807.50793 4290362831
17.192661 808.28394 807.50793 4294967295
24.929358 809.59833 808.61621 4294967295
27.508257 809.59833 808.61621 4294967295
-3.4385321 810.91272 809.72449 4281537566
-1.7192661 810.91272 809.72449 4282261033
1.7192661 810.91272 809.72449 4285091458
4.2981653 810.91272 809.72449 4285031296
8.5963306 810.91272 809.72449 4294967295
29.227524 810.91272 809.72449 4294966783
30.946789 810.91272 809.72449 4294966783
-4.2844038 815.71942 809.85315 4281739320
-1.7137614 815.06433 809.30078 4281475378
0 813.75415 808.19611 4282195781
4.2844038 814.40924 808.74841 4285814891
7.4262996 813.97247 808.38019 4292660187
10.27156 814.48151 807.5014 4294967295
25.651377 815.86395 807.35901 4294967039
28.262386 814.77295 808.40112 4294966783
31.418961 815.28271 809.48486 4294967039
1.1400611 817.60712 808.82886 4285021009
4.2752295 817.17133 808.46143 4286602067
7.6954126 817.17133 808.46143 4287855252
25.651377 817.17133 808.46143 4294967295
27.931498 818.04291 809.19629 4294966783
0.5681957 821.52118 808.20508 4284559685
3.97737 821.08673 807.83881 4287324221
7.95474 821.08673 807.83881 4288637813
23.86422 820.6524 807.47253 4294967295
25.568808 821.30396 808.02191 4294967039
-4.2577982 823.98047 808.97064 4284225323
-1.7009175 824.70227 808.27124 4283175196
5.1027522 823.40192 807.1748 4287521886
6.8036699 823.40192 807.1748 4287251030
10.205504 823.40192 807.1748 4287321220
22.962385 823.40192 807.1748 4294966783
25.513762 824.70227 808.27124 4294966783
27.273394 823.25873 809.67004 4294966015
-3.401835 826.00269 809.36768 4286724420
27.21468 826.00269 809.36768 4294965247
25.431192 828.16376 807.26562 4294966783
32.212845 830.75604 809.45142 4294965247
1.6917431 832.19122 808.04541 4287650644
30.451376 832.19122 808.04541 4294964990
34.680733 833.48456 809.13599 4294833147
-4.2155962 835.633 807.02344 4285807152
-1.6862385 835.633 807.02344 4284360992
1.6862385 836.27759 807.56689 4286798938
3.9345562 836.06274 807.38574 4287129234
32.038532 835.633 807.02344 4294965246
35.411011 836.92218 808.11035 4294964733
37.940369 836.92218 808.11035 4294898940
1.6825688 839.638 807.78418 4286272345
4.2064219 839.638 807.78418 4287326858
10.936697 839.638 807.78418 4286676375
31.127522 839.638 807.78418 4294767867
34.56789 838.2113 809.19739 4294899965
37.940369 838.2113 809.19739 4294898940
40.469727 838.2113 809.19739 4294833660
-10.936697 842.21069 809.95349 4280623137
-7.2911315 841.78192 809.59198 4280951851
-3.9259939 841.78192 809.59198 4281280048
-1.6825688 841.5675 809.41113 4281082413
0 841.5675 809.41113 4282456612
4.2064219 840.92438 808.86877 4287590275
7.571559 841.5675 809.41113 4286939283
10.656269 841.35321 809.23029 4285228931
13.46055 841.5675 809.41113 4284242040
15.703976 841.78192 809.59198 4282794587
19.349541 842.21069 809.95349 4288912559
22.71468 842.21069 809.95349 4294967295
26.360245 841.78192 809.59198 4294834685
28.60367 841.5675 809.41113 4294966014
31.127522 840.92438 808.86877 4294504697
8.0834866 748.71783 812.22058 4294967295
22.454128 748.71783 812.22058 4294768637
14.326606 751.68549 810.79877 4291282121
16.714373 751.45728 810.60638 4293452779
19.699083 752.37006 811.37598 4294965247
21.489908 752.37006 811.37598 4294965759
-1.787156 755.25562 811.19299 4280499051
0.89541286 753.73914 812.53027 4282604934
4.4715595 754.49738 811.86163 4284109440
8.042202 755.25562 811.19299 4283123576
10.722936 755.25562 811.19299 4283123576
13.403669 755.25562 811.19299 4280031829
17.275841 754.80023 810.8089 4291872749
19.658716 755.25562 811.19299 4294967039
22.339451 755.25562 811.19299 4294834429
25.966972 753.73914 812.53027 4294965503
-3.574312 756.62195 812.34497 4280114081
-1.7816514 758.89246 810.33533 4278204799
0.89357799 757.7572 811.34015 4278190120
4.4678898 756.62195 812.34497 4278190094
8.042202 756.62195 812.34497 4278190108
10.689908 758.89246 810.33533 4278190104
13.403669 756.62195 812.34497 4278190090
16.925688 758.89246 810.33533 4290954184
19.598166 758.89246 810.33533 4294967295
22.306423 757.7572 811.34015 4294900223
25.913761 756.62195 812.34497 4294966015
-4.4541283 761.61658 812.63232 4294933935
1.7816514 760.25452 811.48376 4280680512
4.4541283 760.25452 811.48376 4278190080
8.0174313 760.25452 811.48376 4278190344
13.362385 760.25452 811.48376 4278190080
16.925688 760.93555 812.05811 4291675858
19.598166 760.93555 812.05804 4294967295
21.9737 761.1626 812.24951 4294966783
25.833946 761.61658 812.63232 4294966783
28.506422 761.61658 812.63232 4294966527
-1.7761468 763.87872 810.61548 4294945225
0.88807338 763.87872 810.61548 4294821316
4.4403667 763.87872 810.61548 4283519332
7.9926605 763.87872 810.61548 4278190080
13.3211 763.87872 810.61548 4278190080
-7.1045871 766.59448 812.90527 4283367424
-4.1443424 766.14185 812.52362 4294026358
-1.772477 766.74182 810.41357 4294948678
0.88807338 765.9892 811.08698 4294957256
4.4311924 766.74182 810.41357 4290743720
7.9761467 766.74182 810.41357 4281270272
13.293577 766.74182 810.41357 4278190080
16.873394 765.23657 811.76038 4292136660
19.537615 765.23657 811.76038 4294967295
22.201836 765.91553 812.33282 4294967039
25.754128 766.59448 812.90527 4294900735
28.418348 766.59448 812.90527 4294966783
-1.772477 768.77441 812.12744 4294966233
0.88623852 768.77441 812.12744 4294967039
3.5449541 768.09686 811.55615 4294956781
7.0899081 768.09686 811.55615 4294825449
26.587156 769.4519 812.69873 4294967039
28.359632 769.4519 812.69873 4294967039
-1.7669724 773.05225 811.8103 4285428046
0.88348621 773.05225 811.8103 4293246412
4.1229358 772.15167 811.05096 4294962918
7.951376 771.70142 810.67126 4292782295
28.271559 773.05225 811.8103 4294967295
-4.4174314 774.40314 812.94934 4283901229
-1.7614679 776.64417 810.91479 4288630384
0.88348621 775.52368 811.93207 4291733385
4.4036698 776.64417 810.91479 4294967295
7.9266057 776.64417 810.91479 4294953203
30.038532 774.40314 812.94934 4294967295
-4.4036698 777.99084 812.05029 4289298825
-1.7614679 777.99084 812.05029 4294967291
1.7614679 777.99084 812.05029 4293322984
3.5229359 777.99084 812.05029 4289245160
29.944954 777.99084 812.05029 4294967039
-4.0972476 782.46509 811.89874 4281345337
-1.7559633 781.57013 811.14417 4294967295
0.87798166 781.57013 811.14417 4294967295
4.3899083 780.89893 810.57819 4291149819
7.901835 780.89886 810.57812 4290485912
10.53578 780.22766 810.01221 4292247984
26.339449 780.22766 810.01221 4294966271
29.851376 781.57013 811.14417 4294966783
31.60734 782.91254 812.27612 4294967039
34.241287 782.91254 812.27612 4294966783
-4.380734 785.73785 812.04211 4278587136
-1.7522936 784.39819 810.9126 4292933359
0 784.39819 810.9126 4294967295
4.380734 784.39819 810.9126 4294967295
7.8853211 784.39819 810.9126 4291413959
29.78899 784.39819 810.9126 4294967295
31.541285 785.73785 812.04211 4294967295
33.293579 785.73785 812.04211 4294967295
-4.075841 790.18781 811.87012 4285289818
-1.746789 789.96521 811.6825 4292725202
1.746789 789.96521 811.6825 4294899967
28.822018 789.96521 811.6825 4294967295
31.442202 789.96521 811.6825 4294967295
33.771255 790.18781 811.87012 4294967295
38.429359 789.29749 811.11951 4294966527
40.176147 789.29749 811.11951 4294967039
-3.4862385 793.44275 811.99866 4285755505
-1.7431192 793.44275 811.99866 4290558394
0.87155962 792.77643 811.43683 4294111484
4.3577981 792.77643 811.43683 4294967295
7.8440366 792.11011 810.875 4294243572
25.56575 792.55438 811.24951 4294967295
28.761467 793.44275 811.99866 4294967295
-3.4752293 796.98279 811.05945 4286677100
-1.7376146 796.98279 811.05945 4290427301
1.7376146 796.98279 811.05945 4292796415
4.3440366 796.98279 811.05945 4294835196
26.06422 796.98279 811.05945 4294967295
-6.9504585 798.31122 812.17944 4282128670
-4.338532 799.41278 811.14624 4288316044
1.7321101 800.51434 810.11304 4293059579
4.3302751 800.51434 810.11304 4293717489
26.06422 798.31122 812.17944 4294967295
28.670643 798.31122 812.17944 4294967295
-6.9284406 802.50067 811.7879 4282064420
25.981651 801.83856 811.22961 4294967295
27.713762 801.83856 811.22961 4294967295
-6.9137616 805.94739 812.07788 4281475896
-5.1853213 804.62598 810.96375 4282853170
1.7284404 804.62598 810.96375 4294967295
29.383486 804.62598 810.96375 4294967295
31.976147 805.28668 811.52081 4294967295
34.568806 805.94739 812.07788 4294966527
37.161469 805.94739 812.07788 4294966015
-8.6146793 809.45514 811.11145 4281214255
-4.5944958 808.57697 810.37109 4279832870
1.7229358 808.13794 810.00085 4293973503
4.3073397 808.13794 810.00085 4294967295
8.6146793 808.13794 810.00085 4294967295
29.289907 808.13794 810.00085 4294967295
31.874311 808.79651 810.55615 4294967039
34.458717 809.45514 811.11145 4294964991
37.043121 809.45514 811.11145 4294964990
-7.753211 810.77234 812.22217 4281148977
-4.2981653 812.22711 810.83264 4281344819
1.7192661 812.22711 810.83264 4287129469
32.666054 812.22711 810.83264 4294967039
34.385323 812.22711 810.83264 4294965247
36.964218 812.22711 810.83264 4294965247
40.402752 812.22711 810.83264 4294965247
-7.7366972 813.5415 811.94092 4281411378
34.385323 813.5415 811.94092 4294965503
36.964218 813.5415 811.94092 4294966271
39.543118 813.5415 811.94092 4294965759
-7.7119265 818.33978 812.06262 4281406761
-4.2844038 817.0296 810.95789 4281673524
-1.7137614 817.0296 810.95789 4281410605
31.990213 817.46631 811.32617 4294966783
35.132111 817.68469 811.51025 4294900477
37.702751 817.68469 811.51025 4294966527
40.273396 817.68469 811.51025 4294899454
-7.6954126 821.09344 811.76843 4284551472
-4.2752295 819.78607 810.66614 4281211684
-1.7100917 819.78607 810.66614 4281606440
28.501532 820.22186 811.03351 4294966015
30.781651 820.43976 811.21729 4294966271
34.201836 821.09344 811.76843 4294967039
-10.26055 822.40082 812.87085 4287177016
-7.6844034 823.48132 811.81989 4287967809
-5.1137614 824.56189 810.76892 4288232001
28.977982 824.56189 810.76892 4294965247
31.587158 823.48132 811.81989 4294965759
35.056881 822.40082 812.87085 4294966271
40.187157 822.40082 812.87085 4294768125
-7.6706419 826.51672 812.41705 4287508778
-4.2522936 827.30304 810.46411 4287640628
28.915596 827.30304 810.46411 4294833406
31.534863 825.86511 811.86768 4294965502
35.796329 827.16827 812.96643 4294964990
34.018349 828.60339 811.56055 4294964733
38.14679 832.05225 810.54431 4294898942
40.601833 834.77789 810.22644 4294899453
42.293579 836.07123 811.31702 4294899453
45.677063 834.77789 810.22644 4294636795
1.6862385 839.50043 810.2843 4285875791
34.56789 839.50043 810.2843 4294701820
37.940369 839.50043 810.2843 4294504698
40.469727 839.50043 810.2843 4294306803
43.070641 838.4325 811.34595 4294635766
46.522934 837.36462 812.40759 4294767353
49.060551 837.36462 812.40759 4294833147
-15.176147 842.07874 812.45825 4281277988
-13.489908 842.07874 812.45825 4281081892
1.6862385 841.4342 811.91479 4282329909
4.2155962 841.4342 811.91479 4286212988
7.5880733 842.07874 812.45825 4287334292
11.24159 841.64899 812.09595 4286610069
13.489908 842.07874 812.45825 4287135893
16.019266 842.07874 812.45825 4286281342
19.391743 842.07874 812.45825 4288320159
22.764221 842.07874 812.45825 4294966527
26.136696 842.07874 812.45825 4294834173
28.666056 842.07874 812.45825 4294768635
31.195412 841.4342 811.91479 4294504443
34.56789 841.4342 811.91479 4294767100
37.940365 841.4342 811.91479 4294569977
40.469727 841.4342 811.91479 4294504697
42.999084 841.4342 811.91479 4294768380
45.528439 841.4342 811.91479 4294834428
49.744034 842.07874 812.45825 4294965502
-10.936697 843.49701 811.03809 4281017125
-7.571559 844.1402 811.58038 4281082408
-4.4868503 843.92578 811.3996 4281541677
-1.6825688 844.1402 811.58038 4281541164
0 844.1402 811.58038 4281536289
-4.4908257 751.46442 814.53638 4285951892
-1.7963303 750.09113 813.37854 4289371849
0 750.09113 813.37854 4289307328
5.3889909 750.09113 813.37854 4289175993
8.0834866 750.09113 813.37854 4288454070
10.777982 750.09113 813.37854 4288584634
12.574312 750.09113 813.37854 4287729325
23.352293 750.09113 813.37854 4294899453
26.046789 750.09113 813.37854 4294899453
28.741285 751.46442 814.53638 4294834175
30.537615 752.83777 815.69434 4294966015
34.130276 752.83777 815.69434 4294966271
28.653212 755.10828 813.68469 4294966527
-4.4733944 757.23279 814.16803 4292842469
23.233028 757.98822 813.49695 4294965503
25.913761 757.98822 813.49695 4294966527
28.594496 757.98822 813.49695 4294966527
31.339451 756.47736 814.83911 4294966015
34.622631 757.39008 815.6087 4294900222
37.607338 757.84644 815.99353 4294965759
-8.042202 760.03772 815.22504 4287369788
31.57309 759.81 815.03302 4294966527
33.955963 760.72083 815.80103 4294966783
-8.0174313 763.65979 814.35498 4282580992
-5.344954 762.9787 813.78076 4294401631
23.161469 762.9787 813.78076 4294966527
25.833946 762.9787 813.78076 4294966527
28.506422 762.9787 813.78076 4294966783
30.881958 763.88678 814.54639 4294966783
-7.1045871 767.95233 814.05029 4283437132
-4.4403667 767.95233 814.05029 4291796125
30.194496 767.95233 814.05029 4294966783
-7.1045871 769.31024 815.19519 4285947746
-4.4311924 770.80701 813.84119 4280951066
30.194496 769.31024 815.19519 4294967295
-7.0899081 772.16211 814.98376 4288712058
31.904587 772.16211 814.98376 4294967039
-7.0678897 775.75397 814.08838 4290620607
31.805504 775.75397 814.08838 4294966783
33.572475 775.75397 814.08838 4294967295
-7.0678897 777.10486 815.22729 4287790502
-5.2844038 779.33746 813.18579 4284500852
31.706423 779.33746 813.18579 4294966783
34.348625 779.33746 813.18579 4294966783
-19.376146 782.03082 815.45667 4279173120
-10.568808 782.03082 815.45667 4281148980
-7.9266057 781.35748 814.88892 4279374388
36.990826 782.03082 815.45667 4294967295
-7.6091743 785.14996 814.1626 4280818208
35.119267 784.255 813.40796 4294967295
-21.07156 786.93988 815.67188 4289894824
-19.315596 786.93988 815.67188 4287263104
-10.53578 786.93988 815.67188 4281280822
-7.8944955 787.67847 814.98657 4281541158
-5.2568808 787.07751 813.17175 4280683021
35.045872 787.07751 813.17175 4294967295
37.382259 787.97052 813.9248 4294967039
40.387157 786.93988 815.67188 4294966783
42.14312 786.93988 815.67188 4294967039
-7.8743119 790.86255 814.40112 4281803561
-5.2403669 791.96838 813.37146 4285749081
31.442202 791.96838 813.37146 4294966783
34.062386 791.96838 813.37146 4294966527
37.555962 791.96838 813.37146 4294966015
40.302753 789.75677 815.43079 4294966527
42.93119 789.75677 815.43079 4294967039
-7.8532109 794.03955 813.80994 4281736998
-5.2293577 794.77539 813.12231 4286538854
28.761467 794.77539 813.12231 4294967295
31.442202 793.30377 814.49756 4294967039
34.062386 793.30377 814.49756 4294966527
37.555962 793.30377 814.49756 4294966015
41.340672 793.74896 814.87286 4294967039
43.669724 793.9715 815.06055 4294966271
45.416515 794.63922 815.62354 4294834430
-10.458715 797.44067 815.36951 4281208081
-8.7155962 796.10803 814.24597 4281932574
31.376146 796.10803 814.24597 4294966783
33.990826 796.77435 814.80774 4294966783
37.186543 796.55225 814.62042 4294966783
40.091743 796.77435 814.80774 4294966271
-8.6880732 800.30383 813.85962 4282787114
29.53945 799.63959 813.29956 4294967295
31.277063 799.63959 813.29956 4294966783
33.883484 800.96802 814.41968 4294966527
37.648319 800.52521 814.04633 4294966527
39.965137 800.96802 814.41968 4294966783
-10.425688 802.29645 815.53979 4280488992
-8.6605501 804.487 813.46265 4281870645
39.838531 804.487 813.46265 4294966527
-12.099083 809.91162 815.42041 4282124041
-10.370643 808.59021 814.30627 4280622886
-6.9137616 807.2688 813.19214 4280887091
39.754128 807.2688 813.19214 4294965759
-10.337615 812.08954 813.33276 4280951850
41.35046 812.08954 813.33276 4294636799
-15.506422 814.72394 815.55396 4290666608
-13.209175 813.84576 814.81354 4285405737
-10.315597 814.8559 813.04919 4281606451
-7.7366972 814.8559 813.04919 4281673014
43.073395 814.72394 815.55396 4294965759
-12.894495 816.82751 814.71161 4285275657
-10.315597 816.17029 814.15747 4281733676
42.981651 817.48468 815.26575 4294966271
-11.425076 820.08667 813.53564 4285010202
32.561466 819.64996 813.16736 4294967295
35.988991 819.64996 813.16736 4294967295
37.702751 820.30505 813.71973 4294966783
40.273396 819.64996 813.16736 4294768380
42.844036 820.96014 814.27209 4294965759
-13.710092 822.27032 815.37671 4286521638
-10.26055 823.70819 813.97314 4286717734
-8.5504589 823.70819 813.97314 4287836214
35.056881 823.70819 813.97314 4294966015
37.622017 823.70819 813.97314 4294966015
40.187157 823.70819 813.97314 4294833659
-11.115597 825.01556 815.07544 4286457381
-6.8403668 825.01556 815.07544 4287968817
-5.1302752 825.01556 815.07544 4288626748
37.622017 825.01556 815.07544 4294965247
39.332111 825.01556 815.07544 4294833406
-8.5229359 828.47144 814.06531 4284756009
44.223854 832.50452 814.84985 4294702844
47.368809 839.30463 814.04333 4294702075
49.060551 838.65796 813.49805 4294965246
-16.917431 841.24463 815.67908 4280093713
11.842202 841.24463 815.67908 4287333788
13.533945 841.24463 815.67908 4287464606
16.07156 841.24463 815.67908 4286872977
19.455046 841.24463 815.67908 4287793308
22.838531 841.24463 815.67908 4294899455
25.376146 841.24463 815.67908 4294966271
27.913761 841.24463 815.67908 4294833660
31.297249 841.24463 815.67908 4294767102
33.834862 841.24463 815.67908 4294635513
43.13945 841.24463 815.67908 4294636280
46.522934 841.24463 815.67908 4294768635
49.906422 841.24463 815.67908 4294965502
52.444038 841.24463 815.67908 4294833147
-15.176147 844.01245 814.08875 4279635473
-13.489908 844.01245 814.08875 4279504400
-10.96055 844.01245 814.08875 4279570194
-7.5880733 844.65704 814.6322 4278190080
-3.9345562 844.22729 814.26984 4279372815
-1.6862385 844.65704 814.6322 4278190080
0.84311926 844.01245 814.08875 4283829530
4.2155962 843.36786 813.54529 4288637033
7.5880733 843.36786 813.54529 4288315788
10.117432 843.36786 813.54529 4287794338
35.411011 843.36786 813.54529 4294635513
37.940369 843.36786 813.54529 4294635511
40.469727 843.36786 813.54529 4294635511
-7.2073393 749.1897 816.54248 4285683586
30.631193 749.1897 816.54248 4294768383
-9.0091743 751.25598 818.28473 4292059565
-7.2073393 751.25598 818.28473 4291733696
32.433029 750.56726 817.70398 4294965759
36.937614 751.25598 818.28473 4294966271
-10.777982 755.58435 818.01025 4288484148
-8.9816513 755.58435 818.01025 4288484148
35.926605 754.21106 816.85229 4294965759
-12.53578 760.58466 818.30225 4280556831
-10.744954 759.21558 817.14783 4283957270
35.816513 759.90015 817.72504 4294966527
37.607338 759.21558 817.14783 4294966271
-12.510092 763.45343 818.1051 4280754724
-10.722936 762.77026 817.52911 4280424481
33.955963 762.77026 817.52911 4294966783
-10.689908 767.06494 817.2262 4283180588
-8.9082565 766.38391 816.65198 4283906630
32.069725 766.38391 816.65198 4294966783
-16.034863 768.42706 818.37463 4281216031
-13.362385 768.42706 818.37463 4280754974
-10.689908 768.42706 818.37463 4283972419
-8.8807335 770.66809 816.34009 4289564824
33.851376 768.42706 818.37463 4294967039
-15.985321 772.026 817.48499 4281411107
-13.3211 772.026 817.48499 4280755230
-10.65688 772.70496 818.0575 4284171570
-8.8623857 773.51715 816.12634 4289632406
37.299084 773.38385 818.63 4294967039
-16.838531 775.5498 817.84021 4280886055
-13.293577 775.5498 817.84021 4281082921
-8.8623857 774.87225 817.26892 4288119133
-16.78624 779.80658 817.50537 4280293153
-13.252294 779.80658 817.50537 4281281067
-10.601835 778.45575 816.36633 4280557093
-8.8348627 778.45575 816.36633 4280557093
37.106422 778.45575 816.36633 4294966271
-17.669725 781.15747 818.64441 4280099372
-21.137615 783.37744 816.59216 4289566111
-19.376146 783.37744 816.59216 4284697173
-16.440367 784.27521 817.34912 4281212969
-13.21101 784.05078 817.15991 4281081635
-10.568808 783.37744 816.59216 4281477945
-21.137615 786.0708 818.86304 4288380050
-19.376146 786.0708 818.86304 4291406528
-16.733946 786.0708 818.86304 4287132802
-13.191744 787.17657 817.83337 4281928197
-10.53578 788.28235 816.80371 4281542191
-19.315596 789.62482 817.93567 4290620328
-16.681652 789.62482 817.93567 4288776589
-13.169725 789.62482 817.93567 4282656279
-10.513762 791.09644 816.56042 4281540908
-19.275229 793.7757 818.81946 4287986532
-16.64679 793.7757 818.81946 4289894043
-13.142202 793.10583 818.2547 4284631120
-10.513762 792.43604 817.68994 4281866781
-15.721101 797.31006 817.87549 4289495689
-12.227523 796.64233 817.3125 4280551704
41.922935 795.97467 816.74951 4294966783
43.669724 796.64233 817.3125 4294900735
45.416515 796.64233 817.3125 4294768125
-15.688073 800.1059 817.61682 4289037142
-12.201835 800.1059 817.61682 4280488197
-10.458715 798.77325 816.49316 4281273874
41.834862 799.43958 817.05499 4294966783
-19.174313 801.43854 818.74048 4287383092
-16.559633 801.43854 818.74048 4287389278
-13.073395 801.43854 818.74048 4282723901
-10.425688 803.62488 816.65979 4280358946
41.702751 803.62488 816.65979 4294965759
43.440369 803.62488 816.65979 4294834175
-19.113762 806.28174 818.90002 4291847763
-16.507339 805.61755 818.33997 4288174696
-13.03211 804.95331 817.77991 4282655018
-16.455046 809.78381 817.92883 4288892484
-13.856881 808.45966 816.81226 4283176985
-17.284403 812.55444 817.6488 4292048261
-19.012844 813.87585 818.76294 4291783796
-16.195597 817.09485 817.5531 4288232005
-13.754128 818.79907 816.37402 4286586397
-15.473394 821.42786 818.59058 4286980390
-10.26055 826.323 816.17786 4284427300
-6.8403668 826.323 816.17786 4285542951
-19.455046 842.53802 816.76965 4279304234
-16.917431 842.53802 816.76965 4278190080
1.6917431 842.53802 816.76965 4285599243
4.2293577 842.53802 816.76965 4291257189
7.612844 842.53802 816.76965 4288179843
10.99633 842.53802 816.76965 4287267994
13.533945 842.53802 816.76965 4287596442
16.07156 842.53802 816.76965 4286873227
19.497248 841.12531 818.19458 4287200909
22.888073 841.12531 818.19458 4294438140
25.431192 841.12531 818.19458 4294967039
27.974312 841.12531 818.19458 4294701561
31.330276 841.83167 817.48212 4294898942
34.680733 842.53802 816.76965 4294897656
38.06422 842.53802 816.76965 4294897911
40.601833 842.53802 816.76965 4294964215
43.13945 842.53802 816.76965 4294833143
46.522934 842.53802 816.76965 4294767865
49.906422 842.53802 816.76965 4294767865
52.444038 842.53802 816.76965 4294833658
-16.07156 843.83136 817.86011 4282515456
-13.533945 843.83136 817.86011 4282777600
-10.99633 843.83136 817.86011 4282843136
-7.612844 843.83136 817.86011 4282843136
-4.2293577 843.83136 817.86011 4282777600
-1.6917431 843.83136 817.86011 4282384384
0 843.83136 817.86011 4284678144
45.677063 843.83136 817.86011 4294767865
40.665138 749.67847 820.87866 4294965759
-14.414679 754.69977 821.18848 4283564046
40.541283 753.32227 820.02698 4294966015
-16.166973 758.33099 820.32617 4280622638
-13.472477 757.64429 819.74719 4281732114
37.722935 758.33099 820.32617 4294966783
40.417431 757.64429 819.74719 4294900222
43.111927 758.33099 820.32617 4294966015
-16.166973 759.70428 821.48401 4281083952
-14.370643 759.70428 821.48401 4280820773
35.816513 761.95374 819.45667 4294966271
37.607338 761.95374 819.45667 4294966271
40.417431 759.70428 821.48401 4294899964
43.111927 759.70428 821.48401 4294966271
-12.510092 764.8197 819.25708 4280360472
34.849541 764.8197 819.25708 4294834942
37.530273 764.8197 819.25708 4294966271
40.293579 764.00745 821.18835 4294966783
42.979816 763.32288 820.61108 4294966271
35.743118 766.18604 820.40918 4294967039
37.530273 766.18604 820.40918 4294966783
40.21101 767.55231 821.56116 4294966783
35.633026 769.78912 819.52319 4294967039
37.41468 769.78912 819.52319 4294967039
39.196331 771.15125 820.67163 4294966527
40.259327 775.19434 820.15656 4294966271
42.627522 776.09961 820.9198 4294966783
38.994495 777.5824 819.55408 4294966527
-21.137615 788.09076 820.56628 4286346088
-19.315596 790.96729 819.06763 4286743152
-16.681652 790.96729 819.06763 4288842668
-14.047707 790.96729 819.06763 4287724155
-21.07156 792.30969 820.19946 4286275914
-21.027523 795.11536 819.9491 4286138686
-19.275229 795.11536 819.9491 4287520339
-17.522936 795.11536 819.9491 4288706173
-14.018349 795.11536 819.9491 4288052107
-19.21468 798.64551 819.00146 4286596166
-17.46789 798.64551 819.00146 4287984454
-13.974312 798.64551 819.00146 4287659377
43.669724 798.64551 819.00146 4294966527
45.416515 798.64551 819.00146 4294768637
-22.708258 801.31641 821.25354 4287183438
-20.06789 802.04382 820.55884 4288365107
-20.917431 804.10382 820.98779 4288623906
-24.326605 808.93854 821.14026 4287636007
-22.588991 808.93854 821.14026 4289017660
-19.982569 808.27429 820.5802 4290728530
-22.517431 812.43225 820.16199 4287251509
-19.919266 811.77014 819.6037 4290532442
-19.899082 814.47687 820.57782 4286653474
-19.012844 816.51862 820.99133 4287243298
-17.284403 816.51862 820.99133 4286781464
-17.229359 820.65137 820.55182 4285932835
-22.926605 841.36414 820.35791 4282515456
-19.497248 842.42151 819.28735 4281663488
1.6954129 842.42151 819.28735 4285596416
4.2385321 842.42151 819.28735 4290864716
7.6293578 842.42151 819.28735 4290871698
11.020184 842.42151 819.28735 4290215315
13.563303 842.42151 819.28735 4289168273
16.158716 840.3067 821.42847 4288578446
19.560551 840.3067 821.42847 4287002494
22.962385 840.3067 821.42847 4293121508
25.513762 840.3067 821.42847 4294967295
28.065138 840.3067 821.42847 4294833400
31.41468 841.36414 820.35791 4294965244
34.755962 842.42151 819.28735 4294898940
38.14679 842.42151 819.28735 4294964985
40.689907 842.42151 819.28735 4294701556
43.233028 842.42151 819.28735 4294767607
47.471561 842.42151 819.28735 4294767865
50.014679 842.42151 819.28735 4294833657
52.728439 840.3067 821.42847 4294966013
54.429359 840.3067 821.42847 4294966013
-15.823853 844.14972 820.74457 4291535252
-13.563303 843.71765 820.38025 4292190116
-11.020184 844.36572 820.9267 4292522162
-7.6293578 843.71765 820.38025 4292321954
-5.0862384 843.71765 820.38025 4292650919
0 843.71765 820.38025 4291400593
35.603668 843.71765 820.38025 4294636282
38.994495 843.71765 820.38025 4294768635
43.233028 843.71765 820.38025 4294702072
45.776146 843.71765 820.38025 4294833658
-16.166973 761.07764 822.64197 4280952884
-14.370643 761.07764 822.64197 4281149732
41.104588 768.91858 822.71313 4294966527
42.627522 777.45752 822.0647 4294967039
-24.455046 802.65186 822.37952 4285407270
-22.708258 802.65186 822.37952 4287512389
-24.403669 805.4364 822.11133 4286586929
-22.660551 805.4364 822.11133 4287968582
-20.917431 805.4364 822.11133 4288754222
-22.588991 811.5954 823.38037 4284361244
-22.517431 815.08069 822.39502 4284813611
-20.78532 815.08069 822.39502 4286848540
-22.517431 816.40491 823.5116 4287308851
-19.012844 817.84003 822.10547 4288359478
-19.012844 819.16144 823.21973 4285670435
-25.568808 840.19995 823.95447 4285082880
-22.6789 842.04053 822.89038 4289687143
-19.560551 842.25726 823.07312 4291073657
-17.009174 842.90741 823.62134 4292591529
-13.60734 842.90741 823.62134 4292920006
-7.6541286 842.90741 823.62134 4293313731
-3.9688072 842.47394 823.25586 4292917688
-1.7009175 842.2572 823.07312 4291930022
0.85045874 842.2572 823.07312 4291073429
4.2522936 841.60706 822.5249 4288301921
7.6541286 841.60706 822.5249 4291454829
11.055964 841.60706 822.5249 4293099918
13.60734 841.60706 822.5249 4291135145
16.193579 840.19995 823.95447 4289034384
19.602753 840.19995 823.95447 4287329405
23.011927 840.19995 823.95447 4292332249
25.568808 840.19995 823.95447 4294966783
28.094494 840.9035 823.23969 4294899966
31.466972 841.60706 822.5249 4294965246
34.585323 842.47394 823.25586 4294570489
37.420185 841.60706 822.5249 4294702842
40.255047 842.47394 823.25586 4294702330
43.373394 842.90741 823.62134 4294702074
47.058716 842.47394 823.25586 4294636282
49.326607 842.2572 823.07312 4294504696
51.632416 841.57147 823.36688 4294570745
54.546787 840.19995 823.95447 4294833147
-15.308257 844.20776 824.71777 4292859343
-13.60734 844.20776 824.71777 4293055453
-11.055964 844.20776 824.71777 4291870143
-8.5045872 844.20776 824.71777 4292658882
-22.588991 815.58069 826.74072 4285211703
-20.851376 814.9165 826.18066 4286981932
-20.851376 816.90906 827.86072 4281010187
-28.125687 841.50317 825.05322 4287646559
-25.568808 842.15479 825.60266 4291403937
-23.296026 842.37201 825.78583 4291998892
-19.602753 842.80634 826.1521 4292661195
-17.045872 842.80634 826.1521 4292727757
-6.8183484 842.80634 826.1521 4292658378
-4.2614679 842.80634 826.1521 4291671739
-1.7045871 842.80634 826.1521 4292527560
0.85229355 842.15479 825.60266 4292525761
4.2614679 841.50317 825.05322 4288110763
7.3865447 841.93756 825.41949 4290350187
11.079817 841.50317 825.05322 4291134325
13.636697 841.50317 825.05322 4291589806
16.193579 841.50317 825.05322 4290344088
19.602753 841.50317 825.05322 4288183686
23.011927 841.50317 825.05322 4290886094
25.568808 842.15479 825.60266 4294966271
28.125687 842.15479 825.60266 4294965246
31.534863 842.15479 825.60266 4294899453
34.944038 842.80634 826.1521 4294899453
37.500916 842.15479 825.60266 4294833917
40.0578 842.80634 826.1521 4294833661
43.466972 842.80634 826.1521 4294767612
46.876144 842.80634 826.1521 4294570488
49.433029 842.80634 826.1521 4294504695
51.989906 842.15479 825.60266 4294570489
55.114986 841.93756 825.41949 4294702074
-22.159634 844.1095 827.25085 4293252564
-19.602753 844.1095 827.25085 4292529876
-16.193579 844.1095 827.25085 4293121496
-13.636697 844.1095 827.25085 4293251551
-11.079817 844.1095 827.25085 4291146422
-7.6706419 844.1095 827.25085 4292856783
-3.4091742 844.1095 827.25085 4291474869
-1.7045871 844.1095 827.25085 4292659400
0 844.1095 827.25085 4292791250
47.728439 844.1095 827.25085 4294768635
51.137615 844.1095 827.25085 4294768635
-30.781651 842.01154 829.40601 4293183186
-28.216515 841.35785 828.85486 4293184202
-25.651377 842.01154 829.40601 4293580761
-23.941284 842.01154 829.40601 4293252564
-5.1302752 842.01154 829.40601 4291145405
1.7119266 840.65857 829.57324 4292791760
4.2752295 841.35785 828.85486 4293187544
7.9914374 840.64337 829.9964 4293714149
11.127523 840.65857 829.57324 4292001990
13.680734 841.35785 828.85486 4291327160
16.245872 841.35785 828.85486 4290736281
19.666054 841.35785 828.85486 4286536053
23.086239 841.35785 828.85486 4289635786
25.651377 842.01154 829.40601 4294967295
28.216515 842.01154 829.40601 4294966527
31.636698 842.01154 829.40601 4294965246
35.056881 842.01154 829.40601 4294834430
37.622017 842.01154 829.40601 4294768637
40.187157 842.01154 829.40601 4294833662
43.607338 842.01154 829.40601 4294767101
46.172478 842.01154 829.40601 4294898942
49.592659 842.01154 829.40601 4294965757
53.012844 841.35785 828.85486 4294636537
55.862995 841.57574 829.03857 4294833147
-28.216515 843.31891 830.50842 4291805382
-25.651377 843.31891 830.50842 4292727768
-23.050459 844.36578 829.42908 4292792792
-19.63578 844.36578 829.42908 4291280573
-17.100918 843.31891 830.50842 4292198077
-13.680734 843.31891 830.50842 4292263622
-11.115597 843.31891 830.50842 4290027937
-7.6954126 843.31891 830.50842 4292265416
-4.2752295 843.31891 830.50842 4290882741
-1.7100917 843.31891 830.50842 4289369496
0 843.31891 830.50842 4289695378
31.636698 843.31891 830.50842 4294965503
35.056881 843.31891 830.50842 4294900222
37.622017 843.31891 830.50842 4294767865
47.882568 843.31891 830.50842 4294965246
49.592659 843.31891 830.50842 4294965759
52.157799 843.31891 830.50842 4294702588
55.57798 843.31891 830.50842 4294701304
-30.847706 841.9231 831.94751 4291146168
-15.423853 841.9231 831.94751 4293382607
1.7137614 841.9231 831.94751 4290353565
4.2844038 841.9231 831.94751 4290159777
16.280735 841.9231 831.94751 4293579495
19.708256 841.9231 831.94751 4286074217
23.13578 841.9231 831.94751 4288048521
25.706423 841.9231 831.94751 4294967295
28.277065 841.9231 831.94751 4294967039
40.273396 841.9231 831.94751 4294767354
43.700916 841.9231 831.94751 4294832892
46.271561 841.9231 831.94751 4294898940
-28.277065 843.23328 833.05212 4290553777
-25.706423 843.23328 833.05212 4292922347
-23.13578 843.23328 833.05212 4292727005
-19.708256 843.23328 833.05212 4291543478
-16.280735 843.23328 833.05212 4292725704
-13.710092 843.23328 833.05212 4291407783
-11.13945 843.23328 833.05212 4290815913
-7.704587 843.92981 832.33142 4292264139
-4.2807341 843.92981 832.33142 4289764021
-1.7100917 844.62628 831.61072 4287460510
0 843.23328 833.05212 4288512635
23.992661 843.23328 833.05212 4287335556
25.706423 843.23328 833.05212 4294967295
28.277065 843.23328 833.05212 4294967295
31.669725 843.92981 832.33142 4294967295
35.132111 843.23328 833.05212 4294967039
37.702751 843.23328 833.05212 4294702840
49.699081 843.23328 833.05212 4294967295
52.269726 843.23328 833.05212 4294899710
55.697247 843.23328 833.05212 4294899451
-32.666054 839.82935 834.1062 4293110152
7.7449541 839.79004 835.38104 4291674309
10.326606 839.79004 835.38104 4292463824
12.616513 839.80316 834.95605 4292857559
15.506422 839.75073 836.65588 4294963967
-31.519876 841.58185 835.58392 4291209854
-28.367889 842.45813 836.32275 4290553262
-24.929358 842.45813 836.32275 4293120990
-20.631193 842.45813 836.32275 4292266700
-16.333027 842.45813 836.32275 4293254113
-12.894495 842.45813 836.32275 4291014057
-10.315597 842.45813 836.32275 4290881183
-8.5963306 842.45813 836.32275 4292131507
-5.1577983 842.45813 836.32275 4290027705
0.85963303 841.8009 835.76862 4289696645
4.2981653 841.14374 835.21448 4290553504
13.754128 841.14374 835.21448 4293054949
17.192661 841.14374 835.21448 4294105343
19.771561 841.14374 835.21448 4288512179
22.350458 841.8009 835.76862 4286541192
24.929358 842.45813 836.32275 4290887850
28.367889 842.45813 836.32275 4294967039
30.946789 842.45813 836.32275 4294966271
34.385323 842.45813 836.32275 4294965246
36.964218 842.45813 836.32275 4294966527
40.116207 841.58185 835.58392 4294702585
44.127827 841.58185 835.58392 4294966271
46.420185 841.14374 835.21448 4294965757
48.71254 842.02002 835.95331 4294966527
52.437614 842.45813 836.32275 4294965246
55.876144 842.45813 836.32275 4294833656
58.455048 842.45813 836.32275 4294965757
-22.278898 844.54346 834.15686 4292464347
-18.851376 844.54346 834.15686 4293319644
-6.8550458 844.54346 834.15686 4291540944
-3.4275229 844.54346 834.15686 4288710534
-1.7137614 844.54346 834.15686 4288447362
32.561466 844.54346 834.15686 4294966527
-32.161469 841.94598 838.50702 4291804607
-15.506422 842.38507 838.8772 4292858841
-13.783486 842.38507 838.8772 4291934157
1.7229358 841.72644 838.3219 4291011472
4.3073397 841.72644 838.3219 4291933882
7.753211 841.72644 838.3219 4292858843
10.337615 841.72644 838.3219 4291610056
12.922018 841.72644 838.3219 4291082690
16.367889 841.72644 838.3219 4291541189
19.813763 841.72644 838.3219 4294436850
22.398165 842.38507 838.8772 4293187052
27.566973 842.38507 838.8772 4294966783
37.043121 842.38507 838.8772 4294966527
40.77615 841.94598 838.50702 4294900478
43.647705 841.94598 838.50702 4294966271
46.519264 841.72644 838.3219 4294966527
48.242203 842.38507 838.8772 4294966527
-31.874311 843.70227 839.98779 4290091432
-28.398165 843.73743 838.70947 4291540672
-24.943119 844.08356 838.34729 4293188063
-22.350458 844.42969 837.98517 4292925662
-19.792662 843.73737 838.70947 4292991968
-16.642815 843.72577 839.13556 4292924900
-12.6263 843.72577 839.13556 4292528337
-10.326606 843.73743 838.70941 4292265159
-7.7449541 843.73737 838.70947 4291868352
-4.3027525 843.73737 838.70947 4289693317
-1.7211009 843.73743 838.70941 4290743675
0 843.73743 838.70941 4290945429
12.060551 843.70227 839.98779 4292001477
17.229359 843.70227 839.98779 4289112495
19.813763 843.70227 839.98779 4290359744
22.398165 843.70227 839.98779 4292856804
24.955963 843.73743 838.70947 4293911771
28.694801 843.72577 839.13556 4294967039
31.840366 843.73737 838.70947 4294966783
34.42202 843.73743 838.70941 4294966783
37.043121 843.70227 839.98779 4294967295
40.488991 843.70227 839.98779 4294967295
43.93486 843.70227 839.98779 4294966015
46.519264 843.70227 839.98779 4294965759
49.35535 843.72577 839.13556 4294966014
52.493576 843.73743 838.70947 4294966015
55.935776 843.73743 838.70941 4294965755
58.517433 843.73743 838.70941 4294966527
60.238533 843.73743 838.70941 4294967039
1.7284404 841.62537 842.16064 4291471778
4.3211012 841.62537 842.16064 4291014057
7.7779818 841.62537 842.16064 4291673547
10.370643 841.62537 842.16064 4291870148
13.827523 841.62537 842.16064 4292989659
15.555964 841.62537 842.16064 4292265937
-31.012844 845.01947 841.09851 4290683793
-28.42844 845.01947 841.09851 4292725188
-24.982569 845.01947 841.09851 4292135386
-22.398165 845.01947 841.09851 4291017684
-19.813763 845.01947 841.09851 4290953154
-16.367889 845.01947 841.09851 4291609290
-12.922018 845.01947 841.09851 4292989905
-10.337615 845.01947 841.09851 4293711077
-7.753211 845.01947 841.09851 4291141810
-4.3073397 845.01947 841.09851 4289888119
28.42844 845.01947 841.09851 4294967295
31.874311 845.01947 841.09851 4294967295
34.458717 845.01947 841.09851 4294967295
36.181652 845.01947 841.09851 4294967295
53.411011 845.01947 841.09851 4294967295
56.85688 845.01947 841.09851 4294967295
60.302753 845.01947 841.09851 4294967039
-24.982569 846.33667 842.20911 4291741390
-22.398165 846.33667 842.20911 4290294977
-19.813763 846.33667 842.20911 4290161851
29.289907 846.33667 842.20911 4294967295
31.874311 846.33667 842.20911 4294967295
34.458717 846.33667 842.20911 4294967295
-32.875229 842.91797 844.55865 4289892515
-7.7944956 842.88916 845.84241 4290481823
-5.1963301 842.88916 845.84241 4291068298
-1.7302753 842.91797 844.55865 4292849040
0.86605507 842.57251 844.92139 4291673533
4.3284402 842.57251 844.92139 4291146415
7.7862387 842.91797 844.55865 4291737786
10.381651 842.91797 844.55865 4291738558
13.261162 842.92755 844.13068 4292265677
16.14312 842.92755 844.13068 4291740108
19.877064 842.94678 843.2749 4288384413
22.469725 842.94678 843.2749 4292068053
25.062386 842.94678 843.2749 4294044404
38.025688 842.94678 843.2749 4294967295
40.618347 842.94678 843.2749 4294967039
44.07523 842.94678 843.2749 4294967039
46.667889 842.94678 843.2749 4294967039
49.260551 842.94678 843.2749 4294967039
51.85321 842.94678 843.2749 4294967295
55.310093 842.94678 843.2749 4294967295
58.766972 842.94678 843.2749 4294967039
-31.111927 844.26819 844.38904 4293310902
-28.231194 844.70868 844.76044 4293908698
-25.062386 845.5896 845.50317 4292003282
-22.469725 845.5896 845.50317 4291016651
-19.877064 845.5896 845.50317 4290293444
-16.420183 844.26819 844.38904 4289172621
-12.963303 844.26819 844.38904 4291735200
-10.370643 844.26819 844.38904 4293580011
-3.4568808 844.26819 844.38904 4290151793
12.099083 844.26819 844.38904 4292001731
17.284403 844.26819 844.38904 4291148221
19.877064 844.26819 844.38904 4288056194
22.469725 844.26819 844.38904 4288056439
25.350458 844.70868 844.76044 4292725477
28.231194 845.14911 845.13184 4294438397
31.976147 845.5896 845.50317 4294967295
34.568806 845.5896 845.50317 4294967039
37.161469 844.92883 844.94617 4294967039
40.618351 844.92889 844.94611 4294967039
44.07523 844.26819 844.38904 4294967039
46.667889 844.26819 844.38904 4294967295
49.260551 844.26819 844.38904 4294967295
52.71743 844.26819 844.38904 4294967295
55.310093 844.26819 844.38904 4294967295
57.902752 844.26819 844.38904 4294967039
61.359634 844.26819 844.38904 4294965758
-31.177982 844.21338 846.95898 4292526806
-28.868502 845.09619 847.70331 4293384675
-25.115597 845.5376 848.07544 4292530906
-22.517431 845.5376 848.07544 4292267734
-19.919266 845.5376 848.07544 4292135636
-16.455046 844.21338 846.95898 4289832331
-12.990826 844.21338 846.95898 4291342229
-10.39266 844.21338 846.95898 4293378535
-8.6605501 844.21338 846.95898 4290549435
-4.3302751 844.21338 846.95898 4290541964
-1.7321101 844.21338 846.95898 4294030541
0 844.21338 846.95898 4292527312
7.7944956 844.21338 846.95898 4291673018
10.39266 844.21338 846.95898 4291345600
12.990826 844.21338 846.95898 4291477186
16.455046 844.21338 846.95898 4291279552
19.919266 844.21338 846.95898 4288583312
22.517431 844.21338 846.95898 4287071088
24.826912 845.09619 847.70331 4289632165
27.713762 845.5376 848.07544 4292068305
40.704586 845.5376 848.07544 4294967295
43.302753 844.21338 846.95898 4294967295
45.612232 844.65479 847.33112 4294967295
49.365139 844.21338 846.95898 4294967039
52.829357 844.21338 846.95898 4294966783
55.427525 844.21338 846.95898 4294967295
58.025688 844.21338 846.95898 4294967039
61.489906 844.21338 846.95898 4294966527
29.383486 846.91101 846.61743 4294966783
31.976147 846.91101 846.61743 4294967295
34.568806 846.91101 846.61743 4294966783
36.873394 847.3515 846.98877 4294966783
-33.93853 841.11694 850.23419 4291145139
-6.9504585 842.14911 849.14246 4290211708
1.7376146 842.14911 849.14246 4292000712
4.3440366 842.14911 849.14246 4291804870
-31.277063 844.14172 850.82263 4293122527
-28.670643 844.80591 851.38269 4293122527
-25.195412 844.80591 851.38269 4292727770
-22.588991 844.80591 851.38269 4292464599
-19.982569 844.80591 851.38269 4292989909
-16.507339 844.14172 850.82263 4292463822
-13.03211 844.14172 850.82263 4292462530
-10.425688 843.47754 850.26257 4293574631
-7.8192658 843.47754 850.26257 4290675351
-4.0544343 843.92035 850.63593 4290804856
-1.7376146 844.14172 850.82263 4292845721
0 844.14172 850.82263 4291868084
4.3440366 843.47754 850.26257 4291739845
7.8192658 843.47754 850.26257 4291674563
10.425688 843.47754 850.26257 4291806666
12.742508 843.92035 850.63593 4291148224
16.507339 844.14172 850.82263 4292069068
19.982569 844.14172 850.82263 4290818477
22.588991 844.14172 850.82263 4287857778
25.195412 844.80591 851.38269 4289174683
41.702751 844.80591 851.38269 4294967295
43.440369 843.47754 850.26257 4294967295
46.915596 843.47754 850.26257 4294967295
48.65321 843.47754 850.26257 4294967295
53.866055 843.47754 850.26257 4294966527
55.603668 843.47754 850.26257 4294966527
58.210091 843.47754 850.26257 4294966783
61.685318 844.14172 850.82263 4294899965
28.579817 846.86182 849.19202 4292466643
32.044037 846.86182 849.19202 4294967295
34.6422 847.52393 849.75031 4294967295
37.240368 847.52393 849.75031 4294967295
39.838531 846.86182 849.19202 4294967295
-33.119267 842.08374 853.01141 4293319389
-10.458715 842.75006 853.57324 4292984517
-7.8440366 842.75006 853.57324 4290478984
-5.2293577 842.75006 853.57324 4291789188
1.7431192 842.08374 853.01141 4292459964
4.3577981 842.75006 853.57324 4292068806
7.8440366 842.75006 853.57324 4292200907
10.458715 842.75006 853.57324 4292200657
13.944954 842.75006 853.57324 4291279805
43.57798 842.75006 853.57324 4294967295
46.192661 842.75006 853.57324 4294967295
50.550457 841.41742 852.44958 4294967039
52.293579 841.41742 852.44958 4294966527
54.908257 842.75006 853.57324 4294966783
58.394493 842.75006 853.57324 4294966783
-33.119267 844.0827 854.6969 4289238412
-16.559633 844.0827 854.6969 4291868846
-13.073395 844.0827 854.6969 4292660440
-10.458715 844.0827 854.6969 4291273393
-7.8440366 844.0827 854.6969 4290214277
-4.3577981 844.0827 854.6969 4291195767
-1.7431192 844.0827 854.6969 4293697437
0 844.0827 854.6969 4292460231
7.8440366 844.0827 854.6969 4292594897
10.458715 844.0827 854.6969 4292594648
13.073395 844.0827 854.6969 4291608004
16.559633 844.0827 854.6969 4291937227
20.045872 844.0827 854.6969 4291870663
22.660551 844.0827 854.6969 4291409849
25.27523 844.0827 854.6969 4288059784
41.834862 844.0827 854.6969 4294967295
55.779816 844.0827 854.6969 4294966783
58.394493 844.0827 854.6969 4294967039
61.009174 844.0827 854.6969 4294966271
-31.277063 847.46283 853.6228 4290684829
-29.105045 847.13062 853.34277 4291869880
-25.195412 846.13434 852.50269 4291476677
-22.588991 846.13434 852.50269 4291740358
-19.982569 846.13434 852.50269 4291870926
28.670643 846.13434 852.50269 4289051583
31.277063 846.13434 852.50269 4293586172
33.014679 846.13434 852.50269 4294967295
38.227524 846.13434 852.50269 4294967295
39.965137 846.13434 852.50269 4294967295
62.554127 846.13434 852.50269 4294966270
1.746789 842.7149 856.15967 4292789453
4.3669724 842.7149 856.15967 4292003015
43.669724 842.7149 856.15967 4294967295
46.289909 842.7149 856.15967 4294967295
49.783485 842.04718 855.59668 4294967295
52.403671 842.04718 855.59668 4294967039
54.150459 842.7149 856.15967 4294966783
-33.119267 845.41528 855.82056 4287329885
-27.889908 845.41528 855.82056 4291409608
-25.27523 845.41528 855.82056 4290686908
-22.660551 845.41528 855.82056 4291477190
-20.045872 845.41528 855.82056 4291013317
-16.577982 844.73279 856.5531 4291339144
-13.100918 844.05029 857.28564 4292589770
-10.480734 844.05029 857.28564 4291598485
-7.8605504 844.05029 857.28564 4290607489
-4.3669724 844.05029 857.28564 4290670718
-1.746789 844.05029 857.28564 4293501867
0.87339449 844.73279 856.5531 4292854741
4.3669724 844.05029 857.28564 4292527812
7.8605504 844.05029 857.28564 4292266189
10.480734 844.05029 857.28564 4291937749
13.100918 844.05029 857.28564 4291345863
16.594496 844.05029 857.28564 4291477705
20.088074 844.05029 857.28564 4292332499
22.708258 844.05029 857.28564 4291872198
25.328442 844.05029 857.28564 4287991436
28.822018 844.05029 857.28564 4289244603
31.376146 845.41528 855.82056 4292596726
33.990826 845.41528 855.82056 4294967295
37.517433 844.73279 856.5531 4294967295
40.176147 844.05029 857.28564 4294967295
52.403671 844.05029 857.28564 4294967039
55.023853 844.05029 857.28564 4294966527
58.394493 845.41528 855.82056 4294967039
61.009174 845.41528 855.82056 4294966271
-33.119267 846.74792 856.94421 4288976259
-27.889908 846.74792 856.94421 4292066507
-25.27523 846.74792 856.94421 4290752181
-22.660551 846.74792 856.94421 4290950324
58.394493 846.74792 856.94421 4294967039
61.009174 846.74792 856.94421 4294965759
-31.277063 850.11963 855.86304 4292067776
42.93119 842.00287 859.4834 4294967295
46.43578 842.00287 859.4834 4294967295
49.940369 842.00287 859.4834 4294967295
-20.088074 845.38574 858.41162 4290749881
-16.594496 845.38574 858.41162 4291665014
