# .PCD v0.7 - Point Cloud Data file format
VERSION 0.7
FIELDS x y z rgb
SIZE 4 4 4 4
TYPE F F F U
COUNT 1 1 1 1
WIDTH 1158
HEIGHT 1
VIEWPOINT 0 0 0 1 0 0 0
POINTS 1158
DATA ascii
-21.649542 790.2959 1281.5442 4281296041
-19.244038 790.2959 1281.5442 4281489029
-16.838531 790.2959 1281.5442 4283002268
-13.230275 790.2959 1281.5442 4287675627
-9.6220188 790.2959 1281.5442 4294836223
-7.2165136 790.2959 1281.5442 4294967295
-4.8110094 790.2959 1281.5442 4294574079
-24.055046 792.13495 1283.0947 4281681791
-21.649542 792.13495 1283.0947 4283195286
-19.244038 792.13495 1283.0947 4283063698
-16.838531 792.13495 1283.0947 4283392406
-13.230275 792.13495 1283.0947 4287540964
-9.6220188 792.13495 1283.0947 4294179839
-10.783485 799.39099 1282.6726 4291945727
0 799.39099 1282.6726 4294047487
-10.742202 806.61194 1282.2211 4289908991
-4.774312 806.61194 1282.2211 4294770687
-2.387156 806.61194 1282.2211 4294770687
0 806.61194 1282.2211 4294443007
-14.322936 808.43701 1283.7599 4281949087
-11.93578 808.43701 1283.7599 4288067836
2.387156 808.43701 1283.7599 4294377471
-10.709174 812.36346 1281.8385 4288593914
-4.7596331 812.36346 1281.8385 4294377471
-2.3798165 812.36346 1281.8385 4294048511
0 812.36346 1281.8385 4294114559
-19.038532 814.18286 1283.3726 4283651467
-14.278899 814.18286 1283.3726 4281555100
-10.709174 814.18286 1283.3726 4287935219
-7.1394496 814.18286 1283.3726 4293065215
-4.7596331 814.18286 1283.3726 4294048255
-2.3798165 814.18286 1283.3726 4293916671
1.1899083 814.18286 1283.3726 4293982719
4.7596331 814.18286 1283.3726 4294311167
-9.4825687 820.42749 1282.0977 4288457200
-7.1119266 820.42749 1282.0977 4293062655
-4.7412844 820.42749 1282.0977 4293653247
0 820.42749 1282.0977 4293719551
-18.965137 822.23987 1283.6259 4287985556
-16.594496 822.23987 1283.6259 4286077559
-14.223853 822.23987 1283.6259 4283588002
-10.667891 822.23987 1283.6259 4286550484
-7.1119266 822.23987 1283.6259 4292275711
-4.7412844 822.23987 1283.6259 4293390591
-2.3706422 822.23987 1283.6259 4293851135
0 822.23987 1283.6259 4293982719
-16.530275 830.25482 1283.8436 4284638105
-4.7229357 830.25482 1283.8436 4292666879
-29.438532 755.71381 1286.3942 4280300392
-31.772476 764.07947 1286.9076 4281813365
-29.32844 762.21094 1285.3322 4282862206
-25.662384 762.21094 1285.3322 4282141834
-21.99633 763.1452 1286.1199 4282073744
-2.4440367 763.1452 1286.1199 4288538367
1.2220184 762.21094 1285.3322 4292473599
4.8880734 764.07947 1286.9076 4294639615
7.3321099 764.07947 1286.9076 4294639615
-29.218349 769.61078 1285.0314 4283188859
-25.566053 769.61084 1285.0314 4290952947
-21.913761 770.5415 1285.8162 4290953975
-2.4348624 768.68005 1284.2466 4294967295
0 769.61078 1285.0314 4294574079
4.8697248 768.68005 1284.2466 4293851135
7.3045874 768.68005 1284.2466 4294114303
9.7394495 768.68005 1284.2466 4294179583
-29.086239 779.37079 1285.4126 4281346886
-26.662386 779.37079 1285.4126 4285623687
2.4238532 779.37079 1285.4126 4294180351
4.8477063 779.37079 1285.4126 4293850623
7.2715597 779.37079 1285.4126 4294179327
-29.086239 781.22388 1286.9751 4282999701
2.4238532 781.22388 1286.9751 4294180351
4.8477063 781.22388 1286.9751 4293916415
7.2715597 781.22388 1286.9751 4294245119
-25.35413 785.76697 1284.2655 4281090950
-25.35413 787.61298 1285.822 4280302729
-2.4146788 787.61298 1285.822 4294574079
0 787.61298 1285.822 4294443007
-24.055046 793.974 1284.6454 4282076037
-21.649542 793.974 1284.6454 4283325848
-19.244038 793.974 1284.6454 4282997402
-16.838531 793.974 1284.6454 4283391904
-14.433027 793.974 1284.6454 4283396802
-7.2165136 793.974 1284.6454 4294508543
-4.8110094 793.974 1284.6454 4294508031
0 793.974 1284.6454 4294377215
-25.257797 795.81299 1286.196 4283124111
-21.649542 795.81299 1286.196 4283719061
-19.244038 795.81299 1286.196 4282799504
-16.838531 795.81299 1286.196 4282865297
-14.433027 795.81299 1286.196 4283788470
-7.2165136 795.81299 1286.196 4294442751
-4.8110094 795.81299 1286.196 4294443007
-2.4055047 795.81299 1286.196 4294245375
-26.359632 803.97107 1286.5344 4286071398
-22.365747 803.36035 1286.0195 4284112274
-19.170643 803.05505 1285.7621 4283523736
-16.774311 803.97107 1286.5344 4283326354
-14.377981 803.05505 1285.7621 4282016930
-11.981651 802.13904 1284.9897 4289319423
-4.7926607 802.13904 1284.9897 4294377471
-2.3963304 802.13904 1284.9897 4294311679
2.3963304 803.05505 1285.7621 4294180095
4.7926607 803.05505 1285.7621 4294245631
7.1889906 802.13904 1284.9897 4294245375
-28.645872 812.08698 1286.8374 4288043937
-26.258715 812.08698 1286.8374 4286530441
-22.280123 811.47858 1286.3246 4284109703
-19.097248 810.26196 1285.2987 4284113558
-16.710093 811.17444 1286.0681 4283783823
-14.322936 810.26196 1285.2987 4281162654
2.387156 810.26196 1285.2987 4294508543
4.774312 810.26196 1285.2987 4294443007
7.161468 812.08698 1286.8374 4294245375
-21.418348 816.91199 1285.6736 4290537374
-19.038532 816.91199 1285.6736 4288113564
-16.658716 816.91199 1285.6736 4286205567
-14.278899 816.91199 1285.6736 4282538907
-11.105809 816.6087 1285.418 4287143907
-2.3798165 816.91199 1285.6736 4293916415
1.5865444 816.6087 1285.418 4293982719
4.7596331 816.91199 1285.6736 4294180095
7.1394496 817.82166 1286.4407 4294048511
-21.335779 824.05225 1285.1539 4284833177
-18.965137 824.05225 1285.1539 4285096855
-16.594496 824.05225 1285.1539 4284899476
-14.223853 824.05225 1285.1539 4283654290
-10.667891 824.05225 1285.1539 4286155979
-7.1119266 824.05225 1285.1539 4291553023
-4.7412844 824.05225 1285.1539 4293521919
-2.3706422 824.05225 1285.1539 4293785343
0 824.05225 1285.1539 4293719551
-21.335779 825.86462 1286.6821 4284834726
-18.965137 825.86462 1286.6821 4285097632
-16.594496 825.86462 1286.6821 4284900509
-14.223853 825.86462 1286.6821 4283786651
-10.667891 825.86462 1286.6821 4285827533
-7.1119266 825.86462 1286.6821 4291092223
-4.7412844 825.86462 1286.6821 4293587711
-2.3706422 825.86462 1286.6821 4293587711
0 825.86462 1286.6821 4293653503
-18.891743 832.96289 1286.1271 4284705693
-16.530275 832.96289 1286.1271 4284508314
-14.168807 832.96289 1286.1271 4283918489
-10.626606 832.96283 1286.1271 4284840371
-7.0844035 832.96289 1286.1271 4289841663
-4.7229357 832.96289 1286.1271 4291614719
-2.3614678 832.96289 1286.1271 4293391103
0 832.96289 1286.1271 4293653503
-14.113762 840.026 1285.5424 4285034656
-29.438532 757.58936 1287.9755 4281156995
-26.985321 757.58936 1287.9755 4281683339
-19.625689 757.58936 1287.9755 4285025445
-17.172478 757.58936 1287.9755 4291933695
-31.891743 759.46484 1289.5569 4282730910
-4.9064221 759.46484 1289.5569 4278213022
-31.772476 765.94794 1288.4832 4281155437
-29.218349 772.40302 1287.3857 4278205291
-26.783485 772.40302 1287.3857 4285250282
-31.653212 774.26447 1288.9552 4279905322
-29.218349 774.26447 1288.9552 4278202469
-29.086239 783.0769 1288.5375 4288128991
2.4238532 783.0769 1288.5375 4294048511
4.8477063 783.0769 1288.5375 4293916415
7.2715597 783.0769 1288.5375 4293982207
-28.976147 789.45898 1287.3785 4291216639
-26.561468 790.38202 1288.1567 4282991222
-7.2440367 789.45898 1287.3785 4294508543
-4.8293576 789.45898 1287.3785 4293851135
-2.4146788 790.38202 1288.1567 4294376959
0 789.45898 1287.3785 4294377471
-25.257797 797.65204 1287.7466 4283583626
-21.649542 797.65204 1287.7466 4283916956
-19.244038 797.65204 1287.7466 4283261079
-16.838531 797.65204 1287.7466 4282800528
-14.433027 797.65204 1287.7466 4282607785
-7.2165136 797.65204 1287.7466 4294443007
-4.8110094 797.65204 1287.7466 4294639615
-2.4055047 797.65204 1287.7466 4294377215
2.4055047 797.65204 1287.7466 4294245375
4.8110094 797.65204 1287.7466 4294245375
-31.271559 799.49109 1289.2972 4292515787
-28.866055 799.49109 1289.2972 4288383185
-25.257797 799.49109 1289.2972 4283255947
-16.838531 799.49109 1289.2972 4282997650
-31.152294 805.80304 1288.0791 4294940910
-28.755962 805.80304 1288.0791 4291858116
-26.359632 805.80304 1288.0791 4287449985
-22.765137 805.80304 1288.0791 4285290638
-19.170643 805.80304 1288.0791 4284245146
-16.774311 805.80304 1288.0791 4283652753
4.7926607 805.80304 1288.0791 4294443007
-33.548622 807.63507 1289.6239 4292774621
-31.152294 807.63507 1289.6239 4294748411
-28.755962 807.63507 1289.6239 4291464632
-26.359632 807.63507 1289.6239 4287516796
-23.963303 807.63507 1289.6239 4284700044
7.1889906 807.63507 1289.6239 4294311935
-33.420185 815.73694 1289.915 4289879431
-31.033028 815.73694 1289.915 4290011274
-28.645872 814.82446 1289.1456 4289811848
-26.258715 814.82446 1289.1456 4289943433
-23.871559 814.82446 1289.1456 4290208409
7.161468 813.91199 1288.3762 4294639615
14.322936 815.73694 1289.915 4293851135
16.710093 814.82446 1289.1456 4294114047
19.097248 813.91199 1288.3762 4294114559
-28.557798 821.46045 1289.5088 4283387527
-26.177982 820.55072 1288.7417 4286011789
-23.004892 820.2475 1288.486 4287785877
2.3798165 820.55072 1288.7417 4293851135
4.7596331 820.55072 1288.7417 4293719551
7.1394496 820.55072 1288.7417 4293785599
-26.077065 827.677 1288.2102 4283783060
-22.521101 827.677 1288.2102 4284309402
-18.965137 827.677 1288.2102 4284835227
-14.223853 827.677 1288.2102 4284114587
-10.667891 827.677 1288.2102 4285365693
-7.1119266 827.677 1288.2102 4290761471
-2.3706422 827.677 1288.2102 4293522175
0 827.677 1288.2102 4293521919
-26.077065 829.48938 1289.7384 4283455890
-22.521101 829.48938 1289.7384 4284308634
4.7412844 829.48938 1289.7384 4293719551
-28.337614 835.6709 1288.4104 4284698247
-25.976147 835.6709 1288.4104 4284895883
-21.25321 835.6709 1288.4104 4285754281
-18.891743 835.6709 1288.4104 4285427619
-16.530275 835.6709 1288.4104 4285756327
-14.168807 835.6709 1288.4104 4284838562
-10.626606 835.6709 1288.4104 4284773805
-7.0844035 835.6709 1288.4104 4289051388
-4.7229357 835.6709 1288.4104 4290891007
-2.3614678 835.6709 1288.4104 4293457151
0 835.6709 1288.4104 4293719295
-28.337614 837.47626 1289.9326 4286335881
-25.976147 837.47626 1289.9326 4285151863
-22.433945 837.47626 1289.9326 4284105097
-18.891743 837.47626 1289.9326 4283388300
-16.530275 837.47626 1289.9326 4284506780
-10.626606 837.47626 1289.9326 4284838827
-7.0844035 837.47626 1289.9326 4289182458
-4.7229357 837.47626 1289.9326 4290694655
-2.3614678 837.47626 1289.9326 4293195007
0 837.47626 1289.9326 4293325055
-39.398167 754.83624 1292.1943 4285166268
-36.93578 754.83624 1292.1943 4285758406
-34.473396 754.83624 1292.1943 4285299142
-32.011009 754.83624 1292.1943 4282470043
-24.623854 754.83624 1292.1943 4282467452
-22.161469 754.83624 1292.1943 4283256711
4.9247708 754.83624 1292.1943 4294180351
7.387156 754.83624 1292.1943 4294114559
-36.798164 761.34033 1291.1383 4280369278
-34.344955 761.34033 1291.1383 4281550193
-36.798164 763.21582 1292.7196 4278273937
-34.344955 763.21582 1292.7196 4281418353
-34.216515 767.81641 1290.0586 4280107372
-31.772476 767.81641 1290.0586 4280239214
-34.216515 769.68494 1291.634 4283268266
-31.772476 769.68494 1291.634 4278794598
-31.653212 776.12592 1290.5248 4283326341
-34.088074 777.98743 1292.0944 4292076287
-31.653212 777.98743 1292.0944 4287339198
-31.510092 784.92993 1290.1 4292991486
-29.086239 784.92993 1290.1 4290493951
2.4238532 784.92993 1290.1 4294508543
-31.510092 786.78302 1291.6624 4293054463
2.4238532 786.78302 1291.6624 4294574079
-33.805504 794.99713 1292.0481 4290147217
-31.390825 794.99713 1292.0481 4293239744
-28.976147 794.0741 1291.2698 4290028013
2.4146788 793.15112 1290.4916 4294178815
4.8293576 793.15112 1290.4916 4294113791
-36.082569 803.16913 1292.3984 4292837795
-33.677063 802.24963 1291.6232 4293033935
-31.271559 801.33008 1290.8479 4293693915
-28.866055 801.33008 1290.8479 4290413737
7.2165136 802.24963 1291.6232 4294377471
14.433027 802.24963 1291.6232 4294048255
16.838531 802.24963 1291.6232 4294114047
19.244038 803.16913 1292.3984 4293982207
-34.746788 809.46704 1291.1686 4287843981
-31.152294 809.46704 1291.1686 4289617068
9.5853214 809.46704 1291.1686 4293652991
14.377981 809.46704 1291.1686 4294377215
16.774311 809.46704 1291.1686 4294245375
-34.746788 811.29907 1292.7133 4288171135
-31.152294 811.29907 1292.7133 4289155461
9.5853214 811.29907 1292.7133 4293982207
14.377981 811.29907 1292.7133 4294245375
-31.033028 817.56201 1291.4539 4287718023
-28.645872 817.56201 1291.4539 4288306830
10.742202 817.56201 1291.4539 4293916415
14.322936 817.56201 1291.4539 4293916927
16.710093 817.56201 1291.4539 4294180095
-33.420185 819.38696 1292.9927 4281551225
-31.033028 819.38696 1292.9927 4282209154
10.742202 819.38696 1292.9927 4293916415
14.322936 819.38696 1292.9927 4293982719
-28.557798 823.27979 1291.0428 4283716247
-26.177982 823.27979 1291.0428 4283913626
-23.798164 823.27979 1291.0428 4283979417
2.3798165 823.27979 1291.0428 4293916671
4.7596331 823.27979 1291.0428 4293653759
7.1394496 823.27979 1291.0428 4293916671
10.709174 823.27979 1291.0428 4293653759
-30.937614 825.09918 1292.5769 4284832136
-28.557798 825.09918 1292.5769 4283322509
2.3798165 825.09918 1292.5769 4293719295
4.7596331 825.09918 1292.5769 4293456127
7.1394496 825.09918 1292.5769 4293719295
9.5192661 825.09918 1292.5769 4293653759
-22.916208 831.90594 1291.776 4284506008
2.3706422 832.20795 1292.0306 4293455871
4.7412844 832.20795 1292.0306 4293390335
7.1119266 833.11414 1292.7947 4293587711
-54.313763 839.28162 1291.4548 4285685396
-49.590824 839.28162 1291.4548 4286474906
-47.229359 839.28162 1291.4548 4287000741
-44.867889 839.28162 1291.4548 4287395499
-28.337614 839.28162 1291.4548 4286535313
-25.976147 839.28162 1291.4548 4286074762
-22.433945 839.28162 1291.4548 4285878680
-18.891743 839.28162 1291.4548 4283720856
-16.530275 839.28162 1291.4548 4282865803
-14.168807 839.28162 1291.4548 4282477467
-10.626606 839.28162 1291.4548 4283529134
-7.0844035 839.28162 1291.4548 4288528124
-4.7229357 839.28162 1291.4548 4290497279
-2.3614678 839.28162 1291.4548 4293326335
0 839.28162 1291.4548 4293916671
-51.952293 841.08698 1292.9771 4291149543
-49.590824 841.08698 1292.9771 4291412972
-47.229359 841.08698 1292.9771 4291414766
-43.687157 841.08698 1292.9771 4291743730
-40.144955 841.08698 1292.9771 4291875571
-37.783485 841.08698 1292.9771 4291940860
-34.241287 841.08698 1292.9771 4292269054
-30.699083 841.08698 1292.9771 4292005372
-28.337614 841.08698 1292.9771 4292395514
-25.976147 841.08698 1292.9771 4292987647
-22.433945 841.08698 1292.9771 4293973503
-18.891743 841.08698 1292.9771 4293784063
-16.530275 841.08698 1292.9771 4291678960
-14.168807 841.08698 1292.9771 4282884592
-10.626606 841.08698 1292.9771 4281429682
-7.0844035 841.08698 1292.9771 4287804139
-4.7229357 841.08698 1292.9771 4289774847
-2.3614678 841.08698 1292.9771 4292867327
0 841.08698 1292.9771 4293587455
-47.045872 845.42102 1290.0913 4292139511
-47.045872 847.21942 1291.6075 4291548415
-43.517433 847.21942 1291.6075 4291416575
-39.988991 847.21942 1291.6075 4291219199
-37.636696 847.21942 1291.6075 4291284223
-44.322937 758.60126 1295.3689 4278201714
-40.629356 757.66003 1294.5752 4279709818
-36.93578 756.71875 1293.7816 4282007955
-34.473396 756.71875 1293.7816 4282401945
4.9247708 756.71875 1293.7816 4294311679
7.387156 756.71875 1293.7816 4294443007
-36.798164 766.02905 1295.0917 4284641989
-34.216515 772.48767 1293.9972 4290695392
-34.088074 779.84888 1293.6639 4291945471
-31.653212 779.84888 1293.6639 4290366457
-34.088074 781.71033 1295.2334 4292201970
4.8697248 781.71033 1295.2334 4294377215
7.3045874 781.71033 1295.2334 4294377215
9.7394495 781.71033 1295.2334 4294311167
-33.933945 788.63611 1293.2249 4289299910
-31.510092 788.63611 1293.2249 4293642495
-29.086239 788.63611 1293.2249 4291542752
2.4238532 788.63611 1293.2249 4294770687
-33.933945 790.48914 1294.7874 4289031845
-31.510092 790.48914 1294.7874 4292716253
-33.805504 796.8432 1293.6047 4290936499
9.6587152 796.8432 1293.6047 4293720063
13.280734 796.8432 1293.6047 4294049023
-36.220184 798.68921 1295.1613 4291587476
9.6587152 798.68921 1295.1613 4294114559
12.073395 798.68921 1295.1613 4294377471
-37.285324 805.92767 1294.7244 4289095310
9.6220188 805.00818 1293.9491 4294179583
13.230275 805.92767 1294.7244 4294376703
16.838531 805.00818 1293.9491 4294508031
-35.146175 814.35248 1295.2877 4287914112
10.783486 813.1311 1294.2579 4294113023
19.170643 814.04712 1295.0303 4294376959
-33.420185 821.21198 1294.5314 4284701331
-31.033028 821.21198 1294.5314 4284108938
14.322936 821.21198 1294.5314 4294048511
-30.937614 826.91858 1294.111 4284897679
-28.557798 826.91858 1294.111 4282797959
2.3798165 826.91858 1294.111 4293850879
7.1394496 826.91858 1294.111 4293916671
10.709174 826.91858 1294.111 4293982207
14.278899 826.91858 1294.111 4293982207
-30.937614 828.73798 1295.645 4284044180
-28.557798 828.73798 1295.645 4282403714
-26.177982 828.73798 1295.645 4283193487
7.1394496 828.73798 1295.645 4293521919
10.709174 828.73798 1295.645 4293456127
14.278899 828.73798 1295.645 4293652735
-49.783485 834.92651 1294.3229 4286009469
-46.227524 834.92651 1294.3229 4286468998
-42.671558 835.8327 1295.0869 4287194011
-40.300919 835.8327 1295.0869 4287194268
-37.930275 835.8327 1295.0869 4287193245
-34.374313 835.83264 1295.0869 4287324069
-30.818348 836.73889 1295.851 4287064237
2.3706422 835.8327 1295.0869 4293456383
4.7412844 835.8327 1295.0869 4293522175
7.1119266 836.73889 1295.851 4293982463
-49.590824 842.89233 1294.4993 4291941375
-43.687157 842.89233 1294.4993 4292205307
-40.144955 842.89233 1294.4993 4291678967
-37.783485 842.89233 1294.4993 4291941119
-34.241287 842.89233 1294.4993 4292138239
-30.699083 842.89233 1294.4993 4293058815
-28.337614 842.89233 1294.4993 4293452031
-25.976147 842.89233 1294.4993 4293649663
-22.433945 842.89233 1294.4993 4293846527
-18.891743 842.89233 1294.4993 4293783295
-16.530275 842.89233 1294.4993 4293585663
-14.168807 842.89233 1294.4993 4290297599
-10.626606 842.89233 1294.4993 4285301191
-7.0844035 842.89233 1294.4993 4286225621
-4.7229357 842.89233 1294.4993 4288656639
-2.3614678 842.89233 1294.4993 4292801535
0 842.89233 1294.4993 4293850623
-47.045872 849.01776 1293.1239 4291482367
-43.517433 849.01776 1293.1239 4291679999
-39.988991 849.01776 1293.1239 4291219711
-37.636696 849.91693 1293.8821 4291351039
-35.284405 849.01776 1293.1239 4291482111
-40.629356 760.48376 1296.9562 4282478262
-40.629356 762.36627 1298.5435 4286681065
-36.798164 768.84229 1297.4637 4291220479
-36.660549 775.29034 1296.3604 4291486975
-36.660549 777.15887 1297.9358 4290108159
-36.522934 784.50256 1297.5878 4288578201
-34.088074 783.57184 1296.803 4288580833
4.8697248 784.50256 1297.5878 4294443007
7.3045874 783.57184 1296.803 4294443007
-36.3578 793.26868 1297.131 4290475162
-38.634861 800.53528 1296.7178 4291258506
9.6587152 800.53528 1296.7178 4294245375
12.073395 800.53528 1296.7178 4294443007
-41.049541 802.38135 1298.2743 4290872741
-38.634861 802.38135 1298.2743 4290870428
12.073395 802.38135 1298.2743 4294574079
19.31743 802.38135 1298.2743 4294048767
-40.893578 808.68622 1297.0503 4288307080
-38.488075 808.68622 1297.0503 4287844482
12.027523 808.68622 1297.0503 4294245375
-40.893578 810.52527 1298.601 4288832908
-38.488075 810.52527 1298.601 4289223807
-40.737614 818.62714 1298.8921 4284312967
-38.341286 817.71118 1298.1198 4283652736
-35.944954 817.71118 1298.1198 4283652480
16.774311 817.71118 1298.1198 4294377215
19.170643 816.79517 1297.3474 4294245375
-50.130276 824.862 1297.609 4286339224
-42.968807 824.862 1297.609 4288258024
-40.58165 824.862 1297.609 4287139800
-38.194496 824.862 1297.609 4287004629
-34.613762 823.94946 1296.8396 4289240540
11.93578 823.03699 1296.0702 4293850879
14.322936 823.03699 1296.0702 4293982207
16.710093 824.862 1297.609 4293784575
-46.406422 830.55737 1297.1791 4287326862
-42.836697 830.55737 1297.1791 4287069868
-40.456882 830.55737 1297.1791 4286345889
-38.077065 830.55737 1297.1791 4286211990
-34.507339 830.55737 1297.1791 4288316336
-30.937614 830.55737 1297.1791 4285288571
10.709174 830.55737 1297.1791 4293390335
14.278899 830.55737 1297.1791 4293718527
16.658716 830.55737 1297.1791 4293784575
7.1394496 832.37677 1298.7131 4293653503
10.709174 832.37677 1298.7131 4293390335
14.278899 832.37677 1298.7131 4293653759
16.658716 832.37677 1298.7131 4293719551
-55.710091 838.55127 1297.3792 4290752738
2.3706422 838.55127 1297.3792 4293390079
4.7412844 838.55127 1297.3792 4293390079
7.1119266 838.55127 1297.3792 4293521919
10.667891 838.55127 1297.3792 4293521919
16.594496 838.55127 1297.3792 4293456127
-59.266056 840.36365 1298.9072 4291347692
-55.710091 840.36365 1298.9072 4291742968
-52.154129 840.36365 1298.9072 4291546618
2.3706422 840.36365 1298.9072 4293455871
4.7412844 840.36365 1298.9072 4293455615
7.1119266 840.36365 1298.9072 4293718527
10.667891 840.36365 1298.9072 4293587967
14.223853 840.36365 1298.9072 4293391103
16.594496 840.36365 1298.9072 4293259263
-54.313763 844.69769 1296.0215 4290430463
-51.952293 844.69769 1296.0215 4290495474
-49.590824 844.69769 1296.0215 4291153405
-34.241287 844.69769 1296.0215 4291087357
-30.699083 844.69769 1296.0215 4291219199
-28.337614 844.69769 1296.0215 4290627071
-25.976147 844.69769 1296.0215 4290495487
-22.433945 844.69769 1296.0215 4290429434
-18.891743 844.69769 1296.0215 4292071423
-16.530275 844.69769 1296.0215 4293584639
-14.168807 844.69769 1296.0215 4294110207
-10.626606 844.69769 1296.0215 4292401663
-7.0844035 844.69769 1296.0215 4288060618
-4.7229357 844.69769 1296.0215 4287013088
-2.3614678 844.69769 1296.0215 4292473855
0 844.69769 1296.0215 4293916415
-54.313763 846.50305 1297.5438 4290298367
-51.952293 846.50305 1297.5438 4290560236
-49.590824 846.50305 1297.5438 4291481338
-33.060551 846.50305 1297.5438 4291482619
-30.699083 846.50305 1297.5438 4291351033
-28.337614 846.50305 1297.5438 4290888702
-25.976147 846.50305 1297.5438 4290822909
-22.433945 846.50305 1297.5438 4290756332
-18.891743 846.50305 1297.5438 4291282669
-16.530275 846.50305 1297.5438 4292861439
-14.168807 846.50305 1297.5438 4293190399
-10.626606 846.50305 1297.5438 4292862463
-7.0844035 846.50305 1297.5438 4289047526
-4.7229357 846.50305 1297.5438 4287932657
-2.3614678 846.50305 1297.5438 4292274943
0 846.50305 1297.5438 4293719295
-46.959633 757.75165 1301.1926 4289244378
-44.488075 757.75165 1301.1926 4288261874
-40.629356 764.24878 1300.1307 4290693375
-40.629356 766.13135 1301.718 4290758635
-36.798164 770.71783 1299.0452 4291682047
-39.251377 772.59332 1300.6265 4287868415
-36.660549 779.02734 1299.5114 4290885119
-39.104588 780.89581 1301.0868 4288513201
-56.001835 787.2948 1299.942 4285156468
-37.740364 787.2948 1299.942 4288966015
-56.001835 789.15625 1301.5116 4285615992
-41.392662 789.15625 1301.5116 4286470522
-38.957798 789.15625 1301.5116 4288239238
-43.629356 797.90137 1301.0371 4289487747
-41.205505 796.97485 1300.2559 4289291909
-38.781651 796.04828 1299.4746 4289482099
-43.464222 806.07336 1301.3873 4288570251
-41.049541 804.22736 1299.8308 4287784070
-43.299084 812.36426 1300.1516 4286867597
-40.893578 812.36426 1300.1516 4286538375
-38.488075 812.36426 1300.1516 4286734460
-43.299084 814.20331 1301.7021 4284377997
-40.893578 814.20331 1301.7021 4284180362
-43.133945 820.45917 1300.4368 4287406286
-40.737614 820.45917 1300.4368 4286155962
-38.341286 820.45917 1300.4368 4286214319
16.774311 820.45917 1300.4368 4294245119
-46.728439 822.2912 1301.9814 4287657376
-46.549541 826.68701 1299.1478 4287985053
-42.968807 826.68701 1299.1478 4287011026
-40.58165 826.68701 1299.1478 4285431994
-38.194496 826.68701 1299.1478 4284970661
-34.613762 826.68701 1299.1478 4288125908
16.710093 826.68701 1299.1478 4293784575
19.097248 828.51196 1300.6866 4293653759
10.709174 834.19617 1300.2472 4293456127
14.278899 835.10583 1301.0142 4293587711
16.658716 834.19617 1300.2472 4293850879
19.038532 835.10583 1301.0142 4293521919
21.418348 835.10583 1301.0142 4293587711
-59.266056 842.17603 1300.4354 4291483647
-56.895412 842.17603 1300.4354 4291022591
2.3706422 842.17603 1300.4354 4293455871
4.7412844 842.17603 1300.4354 4293323775
7.1119266 842.17603 1300.4354 4293652735
10.667891 842.17603 1300.4354 4293455615
14.223853 842.17603 1300.4354 4293522431
16.594496 842.17603 1300.4354 4293325311
18.965137 842.17603 1300.4354 4293522431
21.335779 842.17603 1300.4354 4293588223
-59.266056 843.9884 1301.9636 4291812095
-56.895412 843.9884 1301.9636 4291022335
2.3706422 843.9884 1301.9636 4293521919
4.7412844 843.9884 1301.9636 4293718015
7.1119266 843.9884 1301.9636 4293784063
10.667891 843.9884 1301.9636 4293389823
14.223853 843.9884 1301.9636 4293521919
16.594496 843.9884 1301.9636 4293521919
18.965137 843.9884 1301.9636 4293718527
21.335779 843.9884 1301.9636 4293981951
-49.590824 848.30841 1299.066 4288387019
-47.229359 848.30841 1299.066 4289113317
-43.687157 848.30841 1299.066 4291613951
-40.144955 848.30841 1299.066 4291351295
-34.241287 848.30841 1299.066 4291745791
-30.699083 848.30841 1299.066 4291416063
-28.337614 848.30841 1299.066 4290625275
-25.976147 848.30841 1299.066 4289704173
-22.433945 848.30841 1299.066 4290292185
-14.168807 848.30841 1299.066 4290955007
-49.590824 850.11377 1300.5883 4285631935
-47.229359 850.11377 1300.5883 4287604444
-43.687157 850.11377 1300.5883 4291549951
-40.144955 850.11377 1300.5883 4292206079
-37.783485 850.11377 1300.5883 4292008447
-34.241287 850.11377 1300.5883 4292139775
-30.699083 850.11377 1300.5883 4291283964
-44.488075 760.58594 1303.5825 4290429439
-44.322937 768.95508 1304.0989 4287272665
-41.039753 768.6413 1303.8344 4288391398
-44.157799 775.40662 1302.9985 4287666655
-40.477982 775.40656 1302.9987 4286482902
-43.992661 782.76428 1302.6622 4286406021
-40.326607 782.76428 1302.6622 4288117133
7.3321099 782.76428 1302.6622 4294443007
9.7761469 782.76428 1302.6622 4294377215
-46.436699 784.63281 1304.2377 4286932354
-43.992661 784.63281 1304.2377 4286800255
-41.548622 784.63281 1304.2377 4286668668
7.3321099 784.63281 1304.2377 4294311167
9.7761469 784.63281 1304.2377 4294048511
-56.001835 791.0177 1303.0812 4286403961
-43.827522 791.0177 1303.0812 4287454848
-41.392662 791.0177 1303.0812 4286862968
-38.957798 791.0177 1303.0812 4288368748
-58.436699 792.87921 1304.6508 4286602108
-56.001835 792.87921 1304.6508 4286536315
-53.566971 792.87921 1304.6508 4286668668
-46.262386 792.87921 1304.6508 4287191932
-43.827522 792.87921 1304.6508 4288438400
-43.629356 799.75439 1302.5996 4288767364
-43.629356 801.60742 1304.162 4288046985
-45.878899 809.7655 1304.5005 4286539408
-43.464222 807.91943 1302.9438 4288964494
-49.312843 817.88135 1304.8035 4285880206
-45.704586 816.96185 1304.0281 4287329965
-43.299084 816.04236 1303.2528 4284839311
19.170643 824.12317 1303.5262 4293653503
19.097248 830.33698 1302.2253 4293587711
19.038532 837.8349 1303.3153 4293259263
21.418348 837.8349 1303.3153 4293391103
-55.710091 845.80078 1303.4917 4288391925
-52.154129 845.80078 1303.4917 4288321225
-18.965137 845.80078 1303.4917 4289504984
-16.594496 845.80078 1303.4917 4290820844
-10.667891 845.80078 1303.4917 4291416063
-7.1119266 845.80078 1303.4917 4291087359
-4.7412844 845.80078 1303.4917 4291746552
-2.3706422 845.80078 1303.4917 4293391103
0 845.80078 1303.4917 4293850623
4.7412844 845.80078 1303.4917 4293521919
7.1119266 845.80078 1303.4917 4293521919
10.667891 845.80078 1303.4917 4293455615
14.223853 845.80078 1303.4917 4293652735
16.594496 845.80078 1303.4917 4293652735
18.965137 845.80078 1303.4917 4293652223
21.335779 845.80078 1303.4917 4293718015
-40.144955 851.91919 1302.1105 4292074751
-37.783485 851.91919 1302.1105 4292074495
-49.651375 756.37109 1307.8767 4288259016
-47.168808 756.37109 1307.8767 4290759151
-44.488075 763.42023 1305.9723 4289178310
-46.959633 765.30975 1307.5654 4288323013
-46.78532 771.77887 1306.4799 4289113571
-46.611008 778.21985 1305.3706 4286474658
-44.157799 778.21985 1305.3706 4287592110
-41.704586 778.21985 1305.3706 4288250040
-56.423855 780.09534 1306.952 4284764290
-52.744034 780.09534 1306.952 4285092478
-49.06422 780.09534 1306.952 4285616506
-46.611008 780.09534 1306.952 4286077057
-52.546787 787.43549 1306.6008 4286602117
-48.880733 787.43555 1306.6008 4287192703
-46.436699 787.43555 1306.6008 4287784840
-43.992661 786.50128 1305.8131 4287128452
-58.436699 794.74066 1306.2202 4286602108
-56.001835 794.74066 1306.2202 4286602108
-53.566971 794.74066 1306.2202 4286406010
-46.262386 794.74066 1306.2202 4287454846
-48.697247 796.60217 1307.7898 4287585923
-46.262386 796.60217 1307.7898 4288046474
-46.053211 805.3136 1307.2869 4288373903
-45.878899 811.61151 1306.057 4284508565
-49.500916 813.45758 1307.6135 4285489817
2.3798165 843.29309 1307.9175 4293653503
-55.710091 847.61316 1305.0199 4286814703
-52.154129 847.61316 1305.0199 4285960900
-28.447706 847.61316 1305.0199 4290360572
-26.077065 847.61316 1305.0199 4289505263
-22.521101 847.61316 1305.0199 4289505236
-18.965137 847.61316 1305.0199 4289111521
-16.594496 847.61316 1305.0199 4290164465
-14.223853 847.61316 1305.0199 4290626547
-10.667891 847.61316 1305.0199 4291350519
-7.1119266 847.61316 1305.0199 4291350770
-4.7412844 847.61316 1305.0199 4291285503
-2.3706422 847.61316 1305.0199 4293391103
0 847.61316 1305.0199 4293982207
10.667891 847.61316 1305.0199 4293587199
14.223853 847.61316 1305.0199 4293718527
16.594496 847.61316 1305.0199 4293718527
18.965137 847.61316 1305.0199 4293652223
-52.154129 849.42554 1306.5481 4286095820
-49.783485 849.42554 1306.5481 4285701062
-46.227524 849.42554 1306.5481 4289052143
-42.671558 849.42554 1306.5481 4291811839
-34.374313 849.42554 1306.5481 4291547903
-30.818348 849.42554 1306.5481 4290889980
-28.447706 849.42554 1306.5481 4290295281
-26.077065 849.42554 1306.5481 4290492660
-22.521101 849.42554 1306.5481 4290953963
-18.965137 849.42554 1306.5481 4291087100
-16.594496 849.42554 1306.5481 4290955514
-14.223853 849.42554 1306.5481 4290625525
-10.667891 849.42554 1306.5481 4290165483
-7.1119266 849.42554 1306.5481 4290297064
-4.7412844 849.42554 1306.5481 4289642484
-2.3706422 849.42554 1306.5481 4292076543
0 849.42554 1306.5481 4293127167
9.4825687 849.42554 1306.5481 4293455615
14.223853 849.42554 1306.5481 4293587711
16.594496 849.42554 1306.5481 4293456127
-47.168808 758.26904 1309.4771 4288722148
-46.959633 767.19928 1309.1587 4290428401
-49.431194 769.08881 1310.7518 4289377000
-46.78532 773.66138 1308.0671 4289439191
-49.247707 775.54388 1309.6545 4286079900
-52.744034 781.97083 1308.5333 4285748861
-49.06422 781.97083 1308.5333 4286669182
-51.324772 790.23828 1308.9641 4287589770
-48.880733 790.23828 1308.9641 4287454848
-51.324772 792.10675 1310.5396 4286669182
-48.880733 792.10675 1310.5396 4287257724
-56.001835 799.39435 1310.144 4286933376
-51.943729 799.70459 1310.4056 4288642214
-48.697247 799.39435 1310.144 4288903053
-46.262386 799.39435 1310.144 4288508551
-48.477066 807.16663 1308.8494 4286473615
2.3798165 845.11249 1309.4515 4293850623
4.7596331 845.11249 1309.4515 4293586431
7.1394496 845.11249 1309.4515 4293586431
22.608257 845.11249 1309.4515 4293455359
-57.115597 846.93188 1310.9856 4286882531
-54.735779 846.93188 1310.9856 4286488029
2.3798165 846.93188 1310.9856 4293653503
4.7596331 846.93188 1310.9856 4293126911
7.1394496 846.93188 1310.9856 4293455871
11.899082 846.93188 1310.9856 4293850111
19.038532 846.93188 1310.9856 4293455615
22.608257 846.93188 1310.9856 4293455615
-42.671558 851.23792 1308.0762 4292007679
-40.300919 851.23792 1308.0762 4292402175
-37.930275 851.23792 1308.0762 4292072959
-18.965137 851.23792 1308.0762 4291481087
-14.223853 851.23792 1308.0762 4290297598
-10.667891 851.23792 1308.0762 4290034675
-7.1119266 851.23792 1308.0762 4290298098
-4.7412844 851.23792 1308.0762 4289511144
-2.3706422 851.23792 1308.0762 4291353343
-16.594496 853.05029 1309.6044 4290693375
-7.1119266 853.05029 1309.6044 4290100718
-49.834862 755.5509 1313.7253 4283524244
-49.651375 760.16699 1311.0774 4283587741
-47.168808 760.16699 1311.0774 4287403735
-49.651375 762.06494 1312.6776 4287138482
-49.431194 770.97833 1312.3451 4289570777
-54.374313 772.86786 1313.9382 4286015127
-51.902752 772.86786 1313.9382 4286015127
-58.656879 793.97522 1312.115 4286273659
-56.212845 793.97522 1312.115 4286076023
-52.546791 793.97522 1312.115 4286536315
-53.768806 795.84375 1313.6904 4286798728
-56.001835 802.18652 1312.4984 4287001743
-52.349541 802.18652 1312.4984 4287522971
-48.697247 802.18652 1312.4984 4288110732
-62.066055 841.28699 1311.4581 4290694143
-59.678898 841.28699 1311.4581 4289838842
-62.066055 843.112 1312.9969 4290168310
-59.678898 843.112 1312.9969 4289313001
-46.406422 848.75128 1312.5198 4289903359
-34.507339 848.75128 1312.5198 4290888687
-30.937614 848.75128 1312.5198 4290428132
-28.557798 848.75128 1312.5198 4290821362
-26.177982 848.75128 1312.5198 4290821362
-22.608257 848.75128 1312.5198 4290954481
-16.658716 848.75128 1312.5198 4291349503
1.1899083 848.75128 1312.5198 4293061631
4.7596331 848.75128 1312.5198 4293982207
7.1394496 848.75128 1312.5198 4293718783
10.709174 848.75128 1312.5198 4293784575
14.278899 848.75128 1312.5198 4293390079
16.658716 848.75128 1312.5198 4293258751
19.038532 848.75128 1312.5198 4293390079
22.608257 848.75128 1312.5198 4293456127
-52.326607 759.36084 1316.9377 4286809009
-52.133945 763.96289 1314.278 4288585930
-49.651375 763.96289 1314.278 4289375712
-54.616512 765.86084 1315.8783 4287663034
-52.133945 765.86084 1315.8783 4289439189
-56.001835 804.97876 1314.8528 4284439933
-52.349541 804.97882 1314.8528 4285160839
-48.697247 805.90955 1315.6376 4284376723
-64.453209 844.93701 1314.5358 4288918759
-62.066055 844.93701 1314.5358 4288459241
-59.678898 844.93701 1314.5358 4288525035
-54.904587 846.76196 1316.0745 4288193514
-52.517429 846.76196 1316.0745 4287996890
-50.130276 846.76196 1316.0745 4288391648
26.258715 846.76196 1316.0745 4293587711
-28.557798 850.57068 1314.0537 4291809274
-26.177982 850.57068 1314.0537 4290888172
-22.608257 850.57068 1314.0537 4290624748
-19.038532 850.57068 1314.0537 4290693375
-14.278899 850.57068 1314.0537 4290234111
-10.709174 850.57068 1314.0537 4291154431
-4.7596331 850.57068 1314.0537 4289115105
-2.3798165 850.57068 1314.0537 4290957309
0 850.57068 1314.0537 4291353087
10.709174 850.57068 1314.0537 4293455871
14.278899 850.57068 1314.0537 4292930303
16.658716 850.57068 1314.0537 4293127423
19.038532 850.57068 1314.0537 4293390079
22.608257 850.57068 1314.0537 4293390591
-16.658716 852.39001 1315.5879 4291218687
-14.278899 852.39001 1315.5879 4290956543
-11.899082 852.39001 1315.5879 4291285503
-7.1394496 852.39001 1315.5879 4288982513
-54.616512 767.75873 1317.4785 4288123333
-52.133945 767.75873 1317.4785 4289504986
-52.517429 848.58698 1317.6133 4290557144
-50.130276 848.58698 1317.6133 4291017695
-46.549541 848.58698 1317.6133 4291151608
-42.968807 848.58698 1317.6133 4291217405
-40.58165 848.58698 1317.6133 4291019770
-38.194496 848.58698 1317.6133 4290820862
-34.613762 848.58698 1317.6133 4290952952
-31.033028 848.58698 1317.6133 4291611389
2.387156 848.58698 1317.6133 4292997631
4.774312 848.58698 1317.6133 4293455871
7.161468 848.58698 1317.6133 4293455871
26.258715 848.58698 1317.6133 4293259263
-28.645872 850.41199 1319.1521 4291743729
-26.258715 850.41199 1319.1521 4290954469
-22.677982 850.41199 1319.1521 4290823406
-19.097248 850.41199 1319.1521 4291021311
-9.548624 850.41199 1319.1521 4291285247
-4.774312 850.41199 1319.1521 4288590828
-2.387156 850.41199 1319.1521 4290103807
0 850.41199 1319.1521 4290497023
14.322936 850.41199 1319.1521 4293390079
16.710093 850.41199 1319.1521 4293456127
19.097248 850.41199 1319.1521 4293521919
22.677982 850.41199 1319.1521 4293587967
26.258715 850.41199 1319.1521 4293390079
-57.511925 844.27539 1320.5181 4288259307
-58.710091 846.10736 1322.0627 4290625774
-55.115597 846.10736 1322.0627 4290164965
-14.322936 852.237 1320.6909 4291088127
-11.93578 852.237 1320.6909 4291153919
-7.161468 852.237 1320.6909 4289708287
26.258715 852.237 1320.6909 4293456127
-61.340366 841.78876 1324.9615 4288851947
-55.115597 847.93939 1323.6074 4290031830
-52.719265 847.93939 1323.6074 4290162900
-50.322937 847.93939 1323.6074 4290886623
-46.728439 847.93939 1323.6074 4291085803
-43.133945 847.93939 1323.6074 4291151860
-40.737614 847.93939 1323.6074 4290559723
-38.341286 847.93939 1323.6074 4290755830
-34.746788 847.93939 1323.6074 4290953976
-31.152294 847.93939 1323.6074 4292072703
4.7926607 847.93939 1323.6074 4293390847
7.1889906 847.93939 1323.6074 4293390847
10.783486 847.93939 1323.6074 4293521663
-40.737614 849.77142 1325.1521 4290887922
-38.341286 849.77142 1325.1521 4290888183
-31.152294 849.77142 1325.1521 4291019772
-28.755962 849.77142 1325.1521 4290823413
-26.359632 849.77142 1325.1521 4290823413
-22.765137 849.77142 1325.1521 4290693106
-19.170643 849.77142 1325.1521 4290889727
-16.774311 849.77142 1325.1521 4291021311
-9.5853214 849.77142 1325.1521 4290497535
-4.7926607 849.77142 1325.1521 4289709041
-2.3963304 849.77142 1325.1521 4290169592
0 849.77142 1325.1521 4290036990
14.377981 849.77142 1325.1521 4293521919
16.774311 849.77142 1325.1521 4293653503
19.170643 849.77142 1325.1521 4293784575
22.765137 849.77142 1325.1521 4293521663
-67.354126 845.4668 1328.0627 4291810559
-64.948624 844.54724 1327.2875 4290956024
-61.741283 844.85376 1327.5459 4291086070
-57.732109 845.4668 1328.0627 4290821345
2.4055047 845.4668 1328.0627 4292799743
-14.377981 851.60339 1326.6968 4290955512
-10.783486 851.60339 1326.6968 4290758394
-7.1889906 851.60339 1326.6968 4290627326
-4.7926607 851.60339 1326.6968 4290102271
-2.3963304 851.60339 1326.6968 4290233855
22.765137 851.60339 1326.6968 4293128191
26.359632 851.60339 1326.6968 4293259775
23.963303 853.43542 1328.2416 4293325567
-67.611008 839.30219 1329.405 4289050095
-65.196327 839.30219 1329.405 4289247218
-64.948624 847.30579 1329.6134 4290558956
-61.340366 847.30579 1329.6134 4290621936
-57.732109 847.30579 1329.6134 4290752741
-55.326607 847.30579 1329.6134 4290752741
-52.921101 847.30579 1329.6134 4290951396
-49.312843 847.30579 1329.6134 4290228704
-45.704586 847.30579 1329.6134 4290623978
-43.299084 847.30579 1329.6134 4290822129
-36.082569 847.30579 1329.6134 4290691061
-33.677063 847.30579 1329.6134 4290559221
2.4055047 847.30579 1329.6134 4292668415
4.8110094 847.30579 1329.6134 4293522175
7.2165136 847.30579 1329.6134 4293390847
9.6220188 847.30579 1329.6134 4292864767
12.027523 847.30579 1329.6134 4293259519
-62.543118 849.14484 1331.1641 4290427119
-49.312843 849.14484 1331.1641 4290625263
-45.704586 849.14484 1331.1641 4290099422
-43.299084 849.14484 1331.1641 4290165476
-40.893578 849.14484 1331.1641 4291152627
-37.285324 849.14484 1331.1641 4290691323
-33.677063 849.14484 1331.1641 4290821625
-31.271559 849.14484 1331.1641 4291282175
-28.866055 849.14484 1331.1641 4291086582
-25.257797 849.14484 1331.1641 4290692340
-21.649542 849.14484 1331.1641 4290692856
-19.244038 849.14484 1331.1641 4291086078
-16.838531 849.14484 1331.1641 4290888956
0 849.14484 1331.1641 4290102527
9.6220188 849.14484 1331.1641 4293456127
13.230275 849.14484 1331.1641 4293521919
16.838531 849.14484 1331.1641 4293719551
19.244038 849.14484 1331.1641 4293325055
-67.611008 844.84027 1334.0746 4291874815
-19.244038 850.98389 1332.7146 4291874047
-16.838531 850.98389 1332.7146 4292005631
-13.230275 850.98389 1332.7146 4291415293
-9.6220188 850.98389 1332.7146 4290561019
-7.2165136 850.98389 1332.7146 4290692606
-4.8110094 850.98389 1332.7146 4290561017
-2.4055047 850.98389 1332.7146 4291416319
0 850.98389 1332.7146 4291615231
14.433027 850.98389 1332.7146 4293258751
16.838531 850.98389 1332.7146 4293587711
19.244038 850.98389 1332.7146 4292931327
21.649542 850.98389 1332.7146 4293062911
21.649542 852.82288 1334.2653 4293653503
24.055046 852.82288 1334.2653 4293456127
-70.025688 846.68634 1335.6311 4292139263
-67.611008 847.60938 1336.4094 4291743740
-65.196327 847.60938 1336.4094 4290888688
-61.171864 847.91699 1336.6688 4291085048
-57.952293 847.60938 1336.4094 4290295531
-55.537613 846.68634 1335.6311 4291479291
-53.122936 847.60938 1336.4094 4290953981
-49.500916 848.53235 1337.1876 4290758135
-45.878899 848.53235 1337.1876 4290627311
-41.049541 848.53235 1337.1876 4290035444
-37.427521 848.53235 1337.1876 4290231023
-33.805504 848.53235 1337.1876 4290953463
-31.390825 848.53235 1337.1876 4291874559
-28.976147 848.53235 1337.1876 4291350522
-25.35413 848.53235 1337.1876 4289902061
-21.732111 848.53235 1337.1876 4290756607
2.4146788 847.60938 1336.4094 4292733951
4.8293576 847.60938 1336.4094 4293259007
7.2440367 847.60938 1336.4094 4293521919
9.6587152 848.53235 1337.1876 4293258751
12.073395 848.53235 1337.1876 4293258751
21.649542 854.66193 1335.8159 4293258495
24.055046 854.66193 1335.8159 4293192959
-67.354126 856.50098 1337.3665 4289773302
-64.948624 856.50098 1337.3665 4289773302
-62.543118 856.50098 1337.3665 4290101500
24.055046 856.50098 1337.3665 4293258751
-67.611008 850.37842 1338.7441 4291284475
-65.196327 850.37842 1338.7441 4291416061
-62.781651 850.37842 1338.7441 4291546623
-19.31743 850.37842 1338.7441 4291350527
-16.902752 850.37842 1338.7441 4291942655
-7.2440367 850.37842 1338.7441 4290955007
-2.4146788 850.37842 1338.7441 4291549951
1.2073394 850.37842 1338.7441 4292471039
4.8293576 850.37842 1338.7441 4293587711
7.2440367 850.37842 1338.7441 4293456127
9.6587152 850.37842 1338.7441 4293192959
13.280734 850.37842 1338.7441 4293324543
16.902752 850.37842 1338.7441 4293850623
19.31743 850.37842 1338.7441 4293521919
-67.611008 852.22449 1340.3008 4290166512
-65.196327 852.22449 1340.3008 4290298098
-62.781651 852.22449 1340.3008 4290429177
-2.4146788 852.22449 1340.3008 4290565375
14.488073 852.22449 1340.3008 4293587711
16.902752 852.22449 1340.3008 4293127167
19.31743 852.22449 1340.3008 4292995327
-70.29174 846.08081 1341.6608 4291679487
-60.596329 847.93384 1343.2231 4291217918
-58.172478 847.93384 1343.2231 4290823159
-55.748623 847.00732 1342.4419 4290822645
-53.324772 847.93384 1343.2231 4290692858
-49.688992 847.93384 1343.2231 4290758650
-46.053211 847.93384 1343.2231 4291219199
-43.629356 846.08081 1341.6608 4289969650
-41.205505 847.93384 1343.2231 4290099963
-36.3578 847.93384 1343.2231 4289640417
-33.933945 847.93384 1343.2231 4289968376
-31.510092 847.93384 1343.2231 4291415807
-29.086239 847.93384 1343.2231 4291350005
-25.450459 847.93384 1343.2231 4289770735
-21.814678 847.93384 1343.2231 4290494207
-13.331193 847.93384 1343.2231 4291679230
-9.6954126 847.93384 1343.2231 4290955007
-4.8477063 847.93384 1343.2231 4290102261
19.31743 854.0705 1341.8573 4292929279
21.732111 854.0705 1341.8573 4293258495
-60.596329 850.7135 1345.5669 4291022079
-58.172478 849.78693 1344.7856 4291614463
-55.748623 849.78693 1344.7856 4291614463
-19.390825 849.78693 1344.7856 4291153407
-16.966972 849.78693 1344.7856 4291745535
-7.2715597 849.78693 1344.7856 4290429947
-4.8477063 849.78693 1344.7856 4288986095
-2.4238532 851.64001 1346.3481 4291023354
0.80795103 850.4046 1345.3065 4291616255
4.8477063 849.78693 1344.7856 4292667903
7.2715597 850.7135 1345.5669 4293391359
9.6954126 850.7135 1345.5669 4293390335
12.927218 851.02228 1345.8273 4293456127
16.966972 851.64001 1346.3481 4292732414
-43.827522 845.00043 1348.598 4290428927
-38.957798 845.00043 1348.598 4289706211
14.543119 853.49304 1347.9105 4293061119
16.966972 853.49304 1347.9105 4293061119
19.390825 853.49304 1347.9105 4293192703
21.814678 853.49304 1347.9105 4293192703
-58.436699 848.72339 1351.7371 4291679999
-56.001835 848.72339 1351.7371 4292140543
-52.349541 847.79266 1350.9523 4291088127
-48.697247 847.79266 1350.9523 4290364405
-46.262386 846.86194 1350.1675 4290298613
-43.827522 847.79266 1350.9523 4289969663
-41.392662 846.86194 1350.1675 4290297599
-37.740364 846.86194 1350.1675 4289706728
-34.088074 846.86194 1350.1675 4288852201
-31.653212 846.86194 1350.1675 4290233853
-29.218349 846.86194 1350.1675 4290757631
-25.566055 847.79266 1350.9523 4290033912
-21.913761 847.79266 1350.9523 4290757375
-19.478899 848.72339 1351.7371 4291021818
-17.044037 848.72339 1351.7371 4291745791
-13.391744 847.7926 1350.9523 4291482620
-9.7394495 847.79266 1350.9523 4290955775
-7.3045874 848.72339 1351.7371 4291021307
-4.8697248 848.72339 1351.7371 4290168045
2.4348624 848.72339 1351.7371 4292865535
4.8697248 848.72339 1351.7371 4293259263
9.6954126 859.05219 1352.5979 4293192703
-63.306423 850.58484 1353.3066 4290760447
-60.871559 850.58484 1353.3066 4290760447
-58.436699 850.58484 1353.3066 4290626559
-56.001835 850.58484 1353.3066 4290889471
-21.913761 850.58484 1353.3066 4290889465
-19.478899 850.58484 1353.3066 4290889465
-17.044037 850.58484 1353.3066 4291416063
-13.391743 850.58484 1353.3066 4291153661
-9.7394495 850.58484 1353.3066 4291218166
-7.3045874 850.58484 1353.3066 4291152373
-4.8697248 850.58484 1353.3066 4290627061
-2.4348624 850.58484 1353.3066 4291613951
0 850.58484 1353.3066 4292666367
4.8697248 850.58484 1353.3066 4293193215
7.3045874 850.58484 1353.3066 4293127423
9.7394495 850.58484 1353.3066 4293126911
12.174312 850.58484 1353.3066 4293126911
-60.871559 852.44635 1354.8762 4291022591
-58.436699 852.44635 1354.8762 4290496255
-56.001835 852.44635 1354.8762 4289904118
-53.566971 852.44635 1354.8762 4290561535
-21.913761 852.44635 1354.8762 4290956023
-19.478899 852.44635 1354.8762 4291021820
-17.044037 852.44635 1354.8762 4291350527
-14.609175 852.44635 1354.8762 4291350522
-2.4348624 852.44635 1354.8762 4292402687
0 852.44635 1354.8762 4292535551
7.3045874 852.44635 1354.8762 4293127423
9.7394495 852.44635 1354.8762 4293127167
13.391743 852.44635 1354.8762 4293061375
17.044037 852.44635 1354.8762 4293193215
-52.546791 848.16138 1357.8033 4291152639
-48.880733 848.16138 1357.8033 4290299903
-46.436699 847.22711 1357.0156 4289246699
-43.992661 848.16138 1357.8033 4289181945
-40.733944 846.91571 1356.7529 4290365691
-36.660549 847.22711 1357.0156 4290365430
-34.216515 847.22711 1357.0156 4290561522
-31.772476 847.22711 1357.0156 4290693364
-29.32844 847.22711 1357.0156 4290823935
-25.662384 848.16138 1357.8033 4290889467
2.4440367 848.16138 1357.8033 4293126911
-17.044037 854.3078 1356.4457 4291481336
0 854.3078 1356.4457 4293390079
7.3045874 854.3078 1356.4457 4293258495
9.7394495 854.3078 1356.4457 4293258751
13.391743 854.3078 1356.4457 4293192959
-17.044037 856.16931 1358.0153 4292206069
-2.4348624 856.16931 1358.0153 4293390079
0 856.16931 1358.0153 4293390079
7.3045874 856.16931 1358.0153 4293126911
12.174312 856.16931 1358.0153 4293192703
-52.13945 851.27557 1360.4291 4290891519
-48.880733 850.02985 1359.3788 4290891775
-46.436699 850.02985 1359.3788 4290036479
-29.32844 850.02985 1359.3788 4290758397
-26.069725 850.65265 1359.9039 4291087868
-21.99633 851.89832 1360.9542 4291087864
-19.552294 851.89832 1360.9542 4291020785
-13.034863 851.27557 1360.4291 4291416061
-9.7761469 850.96411 1360.1665 4291810297
-7.3321099 850.96411 1360.1665 4292336635
-4.8880734 850.96411 1360.1665 4292402687
-2.4440367 851.89832 1360.9542 4293126655
2.4440367 850.96411 1360.1665 4292995583
4.8880734 850.96411 1360.1665 4292929791
7.3045874 858.03076 1359.5848 4292930559
-39.251377 845.73785 1362.3 4290562812
-44.157799 847.61334 1363.8815 4290037242
-40.477982 847.61334 1363.8815 4290957055
-36.798164 847.61334 1363.8815 4291416319
-34.344955 847.61334 1363.8815 4290824703
-31.891743 847.61334 1363.8815 4290693119
-21.99633 853.76685 1362.5297 4291417343
-19.552294 853.76685 1362.5297 4291745518
-14.66422 853.76685 1362.5297 4292534015
-4.8880734 853.76685 1362.5297 4293258495
2.4440367 853.76685 1362.5297 4293521663
4.8880734 853.76685 1362.5297 4293061119
-21.99633 855.63531 1364.1051 4292074751
-19.552294 855.63531 1364.1051 4292600319
-49.06422 849.48883 1365.4628 4291417599
-46.611008 849.48883 1365.4628 4290891263
-44.157799 849.48883 1365.4628 4291218428
-41.704586 849.48883 1365.4628 4291218428
-34.344955 849.48883 1365.4628 4290891007
-29.438532 849.48883 1365.4628 4291088639
-24.53211 850.42664 1366.2534 4291614207
-39.398167 847.07941 1369.9714 4291087359
-36.93578 847.07941 1369.9714 4291153151
-32.011009 847.07941 1369.9714 4290957055
-40.629356 848.96191 1371.5587 4292007935
-36.93578 848.96191 1371.5587 4292271103
-34.473396 848.96191 1371.5587 4292205055
