# .PCD v0.7 - Point Cloud Data file format
VERSION 0.7
FIELDS x y z rgb
SIZE 4 4 4 4
TYPE F F F U
COUNT 1 1 1 1
WIDTH 1170
HEIGHT 1
VIEWPOINT 0 0 0 1 0 0 0
POINTS 1170
DATA ascii
15.390825 814.55658 806.25671 4293181439
19.666054 814.55658 806.25671 4292797685
23.086239 814.55658 806.25671 4292534252
25.651377 813.90283 805.70551 4294571519
27.931498 814.12079 805.88922 4294636027
-3.4091742 818.04608 805.2749 4288236087
-1.7045871 818.04608 805.2749 4287841329
1.1363914 817.61163 804.90863 4289484873
3.97737 817.61176 804.90863 4289949779
17.045872 816.74292 804.17603 4292664047
22.159634 818.04608 805.2749 4292860136
28.125687 818.04608 805.2749 4294834430
1.7045871 819.34924 806.37366 4290468938
4.2614679 819.34924 806.37366 4290538581
7.6706419 819.34924 806.37366 4291253827
10.227523 819.34924 806.37366 4291716677
28.065138 820.80121 804.98193 4294899710
31.501835 820.0752 805.6778 4294966015
34.944038 819.34924 806.37366 4294966271
37.500916 819.34924 806.37366 4294966527
39.205505 819.34924 806.37366 4294966271
7.6541286 822.10156 806.07837 4291322684
32.317432 822.10156 806.07837 4294966783
34.868805 822.10156 806.07837 4294966271
1.6954129 826.86761 806.17273 4287117824
3.3908257 826.86761 806.17273 4288885809
7.6293578 825.57141 805.07983 4290469958
10.172477 825.57141 805.07983 4290789683
22.888073 825.57141 805.07983 4294964223
25.431192 825.57141 805.07983 4294638078
27.974312 825.57141 805.07983 4294768637
31.365139 826.21948 805.62628 4294966783
33.908257 826.86761 806.17273 4294966783
1.6917431 830.25116 806.40967 4291467428
4.3985319 829.86316 806.08252 4291791242
7.3308868 828.74225 805.13739 4290467919
20.300917 828.31116 804.77393 4291791753
22.838531 828.31116 804.77393 4294964724
25.376146 828.31116 804.77393 4294966271
27.913761 828.31116 804.77393 4294966527
30.451376 828.31116 804.77393 4294966527
35.526604 828.31116 804.77393 4294966783
37.218349 828.31116 804.77393 4294900479
7.5880733 833.05475 804.84949 4289157230
10.117432 833.05475 804.84949 4289352203
4.2155962 834.34387 805.9364 4288573027
7.5880733 834.34387 805.9364 4292127396
10.936697 835.77899 804.5304 4293903553
13.46055 835.77899 804.5304 4294951853
15.143119 835.77899 804.5304 4294949797
23.555964 835.77899 804.5304 4294236129
7.8519874 837.92285 806.33807 4283582772
10.936697 837.06531 805.61499 4294690781
13.46055 837.06531 805.61499 4294952634
40.381653 837.7085 806.15729 4294966015
42.905506 837.7085 806.15735 4294900991
48.794495 838.35168 806.69958 4294967039
52.159634 838.35168 806.69958 4294703103
11.180428 840.92328 804.94385 4290064964
13.416513 841.13696 805.12402 4292365920
15.93211 840.49591 804.5835 4294937982
20.124771 840.49591 804.5835 4294936677
22.640366 841.13696 805.12402 4294949294
25.714987 841.35065 805.3042 4294694628
28.510092 841.13696 805.12402 4294965503
31.025688 841.13702 805.12402 4294966783
34.659328 841.35065 805.3042 4294966527
37.733944 841.13696 805.12402 4294966015
11.73945 843.06018 806.74561 4286472779
13.416513 843.06018 806.74561 4287780174
15.914679 843.13245 805.49854 4291848532
19.265139 843.13245 805.49854 4294941035
22.640366 843.06018 806.74561 4293823109
25.994495 843.06018 806.74561 4294957030
36.895412 843.06018 806.74561 4294768383
17.012844 749.63184 809.06714 4294964991
19.699083 749.63184 809.06714 4294964991
22.385321 749.63184 809.06714 4294176764
25.966972 749.63184 809.06714 4293847796
28.653212 749.63184 809.06714 4294768383
17.871559 752.52307 808.88892 4294440191
19.658716 752.52307 808.88892 4294374399
22.339451 752.52307 808.88892 4294243071
26.807339 752.52307 808.88892 4293913590
28.594496 752.52307 808.88892 4294504957
23.161469 757.53033 809.18689 4294967295
25.833946 757.53033 809.18689 4294834943
28.506422 756.16827 808.03833 4294241787
31.178898 756.8493 808.61261 4294966783
33.851376 757.53033 809.18689 4294967039
28.418348 759.80505 807.18066 4294505981
31.970642 761.16296 808.32556 4294967295
34.634861 762.52081 809.47058 4294702591
13.252294 767.6488 807.25427 4278910993
16.78624 767.6488 807.25427 4278387971
19.436697 767.6488 807.25427 4281742146
21.203671 767.6488 807.25427 4289764787
31.805504 767.6488 807.25427 4294966527
34.563301 765.38672 809.271 4294702847
8.8348627 770.35052 809.53223 4290863265
10.601835 768.99963 808.39319 4294223348
12.368808 768.99963 808.39319 4286591360
28.271559 768.99963 808.39319 4294768127
31.216513 769.44989 808.77289 4294965759
34.455963 770.35052 809.53223 4294636799
10.568808 773.27753 808.07617 4292174453
13.21101 773.27753 808.07617 4293759936
15.853211 773.27753 808.07617 4281926194
26.422018 772.60419 807.50842 4294899199
29.357798 773.05304 807.8869 4294768383
31.706423 773.95087 808.64392 4294966015
33.467892 773.95087 808.64392 4294571002
47.559631 773.95087 808.64392 4294505727
10.568808 775.29749 809.7793 4293646316
12.330276 775.29749 809.7793 4291146438
29.944954 775.29749 809.7793 4294965759
31.706423 775.29749 809.7793 4294965503
33.467892 775.29749 809.7793 4294307834
47.559631 775.29749 809.7793 4294703103
14.047707 777.54279 807.74841 4290541752
16.38899 778.43774 808.50311 4288175467
19.315596 778.21399 808.31439 4287317776
26.339449 778.21399 808.31439 4294702078
28.680735 778.43774 808.50311 4294767871
31.60734 778.88519 808.88037 4294965247
33.363304 778.88519 808.88037 4294570239
17.522936 781.71893 808.65356 4286927684
19.275229 781.71893 808.65356 4286598719
21.61162 780.82587 807.90045 4292594136
25.408257 781.04907 808.08875 4294768638
28.912844 781.71893 808.65356 4294833919
31.541285 781.71893 808.65356 4294768127
33.293579 781.71893 808.65356 4294570751
14.018349 783.05853 809.78308 4292527871
16.619267 784.17487 808.76227 4290289874
20.088074 785.2912 807.74146 4289696692
22.708258 785.2912 807.74146 4294967295
25.328442 785.2912 807.74146 4294834429
28.822018 785.2912 807.74146 4294899711
31.541285 783.05853 809.78308 4294964991
34.117432 784.17487 808.76227 4294767615
10.480734 787.96204 809.99353 4290100735
13.974312 786.62659 808.86743 4282732207
16.576147 787.36938 808.18573 4290295776
20.088074 786.62659 808.86743 4290949569
22.660551 788.11224 807.50403 4294967295
25.302753 787.36938 808.18573 4294899966
28.822018 786.62659 808.86743 4294898687
31.442202 786.62659 808.86743 4294570237
34.353516 787.07178 809.24286 4294702333
36.682568 787.96204 809.99353 4294636795
12.201835 789.44489 808.62769 4284310708
20.045872 789.44489 808.62769 4291345368
22.660551 789.44489 808.62769 4294967295
25.27523 789.44489 808.62769 4294900222
29.051987 789.8891 809.00226 4294899199
31.376146 790.11121 809.18951 4294636799
33.700306 790.33331 809.37677 4294571006
36.605503 790.77753 809.75134 4294637310
22.588991 792.9975 807.6991 4294967295
25.195412 792.9975 807.6991 4294966015
27.801834 793.66174 808.25916 4294833407
33.883484 794.32593 808.81921 4294636799
28.626606 796.76013 808.90967 4294702591
31.277063 795.65436 809.93933 4294833660
33.883484 795.65436 809.93933 4294768125
37.358719 795.65436 809.93933 4294834174
40.833946 795.65436 809.93933 4294900479
5.1853213 800.66174 807.62122 4293972385
7.7779818 800.66174 807.62122 4289961637
10.370643 800.66174 807.62122 4291868894
12.963303 800.66174 807.62122 4294966271
15.555964 800.66174 807.62122 4294832893
22.469725 800.66174 807.62122 4294967295
25.062386 800.66174 807.62122 4294966271
28.550459 799.9259 808.30884 4294833407
32.044037 799.19012 808.99646 4294767867
34.6422 799.19012 808.99646 4294899455
37.161469 800.66174 807.62122 4294834686
40.660553 799.9259 808.30884 4294834686
43.21101 800.66174 807.62122 4294834687
22.469725 801.98315 808.73535 4294967039
24.198166 801.98315 808.73535 4294967295
28.519266 801.98315 808.73535 4294504700
31.688074 802.42365 809.10675 4294570747
34.568806 801.98315 808.73535 4294833407
37.161469 801.98315 808.73535 4294834175
40.618347 802.64386 809.29248 4294768126
43.21101 802.64386 809.29248 4294966527
7.753211 806.16211 808.33496 4292592856
10.337615 806.16211 808.33496 4294699769
12.634862 805.94257 808.1499 4294967295
16.080734 805.94257 808.1499 4293124588
19.813763 805.50354 807.77966 4289043651
22.398165 805.50354 807.77966 4294965247
24.982569 805.50354 807.77966 4294768894
28.42844 805.50354 807.77966 4294570750
32.161469 806.38165 808.52002 4294636542
34.458717 806.16211 808.33496 4294833663
37.043121 805.50354 807.77966 4294768895
40.488991 806.82074 808.89026 4294834431
43.073395 806.82074 808.89026 4294967295
5.1577983 808.28394 807.50793 4287385439
6.8770642 809.59833 808.61621 4286853182
13.754128 808.94116 808.06207 4294967295
16.333027 808.94116 808.06207 4292924893
19.771561 808.28394 807.50793 4294173417
22.350458 808.28394 807.50793 4294831598
24.929358 808.28394 807.50793 4294638079
28.367889 808.28394 807.50793 4294505211
30.946789 809.59833 808.61621 4294636797
36.964218 808.28394 807.50793 4294768383
39.543118 809.59833 808.61621 4294966271
10.315597 810.91272 809.72449 4289483101
39.543118 810.91272 809.72449 4294965503
7.7036695 814.48151 807.5014 4290138693
11.128441 814.48151 807.5014 4291061075
31.670643 814.48151 807.5014 4294834430
35.094498 814.48151 807.5014 4294965503
37.662384 814.48151 807.5014 4294965247
-3.4201834 817.82501 809.01257 4288037429
-1.7100917 817.17133 808.46143 4287446572
0 817.82501 809.01257 4288363563
-3.4091742 821.95557 808.57129 4288029952
-1.7045871 821.30396 808.02191 4290269751
0.85229355 821.30396 808.02191 4289943362
4.2614679 820.6524 807.47253 4290401110
37.500916 821.30396 808.02191 4294966783
39.205505 821.30396 808.02191 4294900991
-3.401835 824.70227 808.27124 4289356045
-1.7009175 824.70227 808.27124 4291066662
0.85045874 824.05212 807.72302 4289024546
4.2522936 823.40192 807.1748 4290727969
32.317432 823.40192 807.1748 4294966783
34.868805 823.40192 807.1748 4294834431
39.205505 823.25873 809.67004 4294900479
-3.401835 826.00269 809.36768 4291005051
-1.7009175 826.00269 809.36768 4291992203
0 826.00269 809.36768 4291925915
-1.6954129 830.75604 809.45142 4282647318
0 830.75604 809.45142 4281140519
-1.6917431 833.48456 809.13599 4280942600
1.1278287 833.05347 808.77246 4279895054
45.677063 833.48456 809.13599 4294900735
-3.3724771 836.92218 808.11035 4283451707
-1.6862385 836.92218 808.11035 4284109638
0.84311926 836.92218 808.11035 4284768360
4.2155962 836.27759 807.56689 4282535459
6.7449541 835.633 807.02344 4290226033
46.652599 836.49243 807.74805 4294900735
-4.2155962 838.2113 809.19739 4284105785
-1.6862385 838.2113 809.19739 4285419585
0.84311926 838.2113 809.19739 4286277504
4.2155962 838.2113 809.19739 4284504453
7.5715594 839.638 807.78418 4278783254
10.095413 839.638 807.78418 4285530624
40.381653 839.638 807.78418 4294965759
42.905502 839.638 807.78418 4294900735
46.371559 838.2113 809.19739 4294900735
48.794495 839.638 807.78418 4294967295
8.4128437 840.92438 808.86877 4281939518
10.936697 841.5675 809.41113 4286606444
13.46055 842.21069 809.95349 4287847798
15.984404 842.21069 809.95349 4288831843
19.349541 842.21069 809.95349 4291921509
22.71468 842.21069 809.95349 4292313200
26.079817 842.21069 809.95349 4294690784
28.60367 841.5675 809.41113 4294964735
31.127522 841.5675 809.41113 4294966527
34.492661 841.5675 809.41113 4294965759
38.138226 841.78192 809.59198 4294899711
40.381653 840.92438 808.86877 4294964991
42.06422 840.92438 808.86877 4294965247
34.130276 748.71783 812.22058 4294965759
16.117432 751.00092 810.22156 4294636287
25.07156 751.00092 810.22156 4294045176
16.977982 753.88934 810.04089 4279448415
19.658716 754.57251 810.61694 4278194989
22.04159 754.34473 810.42499 4290358720
25.913761 753.88934 810.04089 4294439164
32.168808 753.88934 810.04089 4294966783
35.743118 755.25562 811.19299 4294702847
37.530273 755.25562 811.19299 4294439935
23.161469 758.89246 810.33533 4294967295
24.943119 758.89246 810.33533 4294900991
34.742203 758.89246 810.33533 4294768639
37.530273 756.62195 812.34497 4294636543
39.317432 756.62195 812.34497 4294636799
8.9082565 761.61658 812.63232 4294813897
21.379816 760.25452 811.48376 4289107886
37.41468 760.25452 811.48376 4294636543
37.299084 763.87872 810.61548 4294702591
-1.7761468 765.23657 811.76038 4286933106
1.7761468 766.59448 812.90527 4289959863
3.5522935 766.59448 812.90527 4290154416
7.9834862 765.9892 811.08698 4293965263
34.563301 766.74182 810.41357 4294768127
37.299084 765.23657 811.76038 4294965503
39.963303 766.59448 812.90527 4294571004
43.515594 766.59448 812.90527 4294374142
46.179817 766.59448 812.90527 4294308347
4.4311924 768.77441 812.12744 4289300667
7.0899081 768.09686 811.55615 4290336921
38.108257 768.77441 812.12744 4294570747
40.766972 769.4519 812.69873 4294504695
44.311928 769.4519 812.69873 4294637311
46.084404 769.4519 812.69873 4294505727
4.7119269 772.60199 811.43066 4290423763
7.951376 772.37683 811.24078 4291802319
35.339451 772.37683 811.24078 4294504701
37.695415 772.60199 811.43066 4294373116
40.640366 773.05225 811.8103 4294570239
5.3009176 774.40314 812.94934 4289901016
7.951376 774.40314 812.94934 4293323474
10.601835 774.40314 812.94934 4293844223
13.21101 776.64417 810.91479 4291207881
35.229359 776.64417 810.91479 4294504703
37.871559 776.64417 810.91479 4294438909
40.51376 776.64417 810.91479 4294636031
43.290825 774.40314 812.94934 4294702590
46.824768 774.40314 812.94934 4294636798
10.568808 777.99084 812.05029 4283522702
12.330276 777.99084 812.05029 4289970416
37.871559 777.99084 812.05029 4294504446
40.51376 777.99084 812.05029 4294833407
10.53578 782.91254 812.27612 4284524215
13.169725 780.89893 810.57819 4291153102
15.80367 780.22766 810.01221 4290617296
35.119267 780.22766 810.01221 4294636031
37.753212 782.24133 811.71014 4294504443
40.387157 782.91254 812.27612 4294767615
12.266055 784.39819 810.9126 4280181878
37.674309 785.06799 811.47736 4294571004
40.302753 785.73785 812.04211 4294768383
7.8605504 790.63293 812.24548 4290096597
38.429359 789.29749 811.11951 4294637308
40.758411 790.18781 811.87012 4294834942
29.633028 792.11011 810.875 4294833407
31.376146 792.11011 810.875 4294702591
37.477066 792.11011 810.875 4294768383
43.57798 793.44275 811.99866 4294900735
45.177982 796.98279 811.05945 4294966271
45.177982 798.31122 812.17944 4294966271
44.939449 805.28668 811.52081 4294967295
8.6146793 808.13794 810.00085 4293300640
10.337615 808.13794 810.00085 4294301131
12.060551 808.13794 810.00085 4294967295
41.35046 808.79651 810.55615 4294834431
43.647705 809.01611 810.74121 4294967039
40.488991 810.77234 812.22217 4294899967
43.93486 810.77234 812.22217 4294967295
46.519264 810.77234 812.22217 4294966783
41.262386 813.5415 811.94092 4294966527
42.981651 813.5415 811.94092 4294967295
-5.1412845 818.33978 812.06262 4285020745
41.130276 818.33978 812.06262 4294768895
42.844036 818.33978 812.06262 4294966783
-5.1302752 821.09344 811.76843 4286925427
-6.8403668 822.40082 812.87085 4288834159
-5.1137614 824.56189 810.76892 4288768366
-6.8183484 826.51672 812.41705 4285084928
-4.2577982 826.58411 811.16589 4289233221
-1.7009175 827.30304 810.46411 4291338384
0 827.30304 810.46411 4291206321
-6.8036699 829.90375 812.65698 4282192146
-4.2522936 828.60339 811.56055 4283305232
-8.4770641 833.34839 811.63721 4284237112
-4.2385321 832.05225 810.54431 4281994772
-10.172477 834.64453 812.7301 4282402097
-7.3308868 835.64014 810.95343 4283386431
-5.0752292 834.77789 810.22644 4283583557
50.752293 836.07123 811.31702 4294966783
52.444038 836.07123 811.31702 4294900735
-10.150458 837.36462 812.40759 4281877829
-7.6018348 838.4325 811.34595 4284967027
-4.2155962 839.50043 810.2843 4286802282
-1.6862385 839.50043 810.2843 4289627761
0.84311926 839.50043 810.2843 4288582067
4.2155962 839.50043 810.2843 4286807430
6.7449541 839.50043 810.2843 4282991949
43.842201 839.50043 810.2843 4294768383
46.371559 839.50043 810.2843 4294966271
49.826607 838.4325 811.34595 4294900479
52.444038 837.36462 812.40759 4294768895
54.13578 837.36462 812.40759 4294374906
-7.5880733 840.78961 811.37134 4287132317
-4.2155962 841.4342 811.91479 4284701545
-1.6862385 841.4342 811.91479 4288059787
0.84311926 840.78961 811.37134 4287923885
4.2155962 840.78961 811.37134 4287266673
7.5880733 841.43414 811.91479 4288057266
10.679511 841.64899 812.09595 4287728541
13.489908 842.07874 812.45825 4285282846
16.862385 842.07874 812.45825 4287128145
19.391743 842.07874 812.45825 4288443241
22.764221 842.07874 812.45825 4290210404
26.136696 842.07874 812.45825 4293827748
28.666056 842.07874 812.45825 4294962687
31.195412 842.07874 812.45825 4294967295
34.56789 842.07874 812.45825 4294899199
37.940369 842.07874 812.45825 4294965503
40.469727 840.78961 811.37134 4294964991
42.155964 840.78961 811.37134 4294965247
48.900917 840.78961 811.37134 4294966271
15.143119 843.49701 811.03809 4288572496
58.889908 844.78339 812.12268 4294966527
-4.4908257 752.83777 815.69434 4293430669
1.7963303 751.46442 814.53638 4279435264
34.130276 750.09113 813.37854 4294966527
-1.7908257 755.10828 813.68469 4293696674
-7.1633029 757.84644 815.99353 4284896071
-4.4770641 757.84644 815.99353 4285222736
-1.7908257 757.16187 815.41632 4288639600
0.89541286 757.16187 815.41632 4290341514
4.1785932 756.93365 815.22394 4291397022
19.658716 757.98822 813.49695 4280953429
40.293579 756.47736 814.83911 4294636543
0.89357799 760.03772 815.22504 4289090931
5.3614678 759.35455 814.64905 4293819029
7.1486239 759.35455 814.64905 4294484932
40.21101 759.35455 814.64905 4294570237
42.891743 759.35455 814.64905 4294702335
-7.1266055 763.65979 814.35498 4289039252
-4.4541283 763.65979 814.35498 4289367448
-1.7816514 764.34082 814.9292 4290484392
0.89082569 763.65979 814.35498 4289298326
4.4541283 762.9787 813.78076 4289222230
40.087158 762.9787 813.78076 4294833919
43.650459 762.9787 813.78076 4294439421
-3.5522935 767.95233 814.05029 4288908456
-1.7761468 767.95233 814.05029 4289895351
1.7761468 767.95233 814.05029 4288448450
42.627522 767.95233 814.05029 4294637311
-4.4403667 769.31024 815.19519 4278321189
-1.7761468 769.31024 815.19519 4280425032
0.88623852 770.05859 814.51819 4278522192
43.42569 770.80701 813.84119 4294702591
46.084404 770.80701 813.84119 4294637311
1.772477 772.16211 814.98376 4279111936
3.5449541 772.16211 814.98376 4284176769
5.3009176 775.75397 814.08838 4284120942
7.951376 775.75397 814.08838 4278858067
43.290825 775.75397 814.08838 4294768383
46.824768 775.75397 814.08838 4294439164
1.7669724 777.10486 815.22729 4290622686
4.4091744 778.22119 814.20654 4288978587
7.9266057 779.33746 813.18579 4284442981
10.568808 779.33746 813.18579 4281688384
38.752293 779.33746 813.18579 4294504959
40.51376 779.33746 813.18579 4294834175
43.290825 777.10486 815.22729 4294900222
46.824768 777.10486 815.22729 4294768383
-3.5229359 782.03082 815.45667 4290492603
-1.7614679 782.03082 815.45667 4290097845
0.88073397 782.03082 815.45667 4287598243
4.1100917 781.13306 814.69971 4292065703
7.9266057 780.68414 814.32117 4293847023
42.862385 781.58197 815.07812 4294702590
-3.5119267 785.59747 814.53992 4292135643
-1.7559633 785.59747 814.53992 4289504180
5.26789 784.92627 813.97394 4294967283
7.901835 784.92627 813.97394 4293256694
42.14312 785.59747 814.53992 4294834943
-4.3899083 786.93988 815.67188 4290491272
-1.7559633 786.93988 815.67188 4286281599
0.87798166 786.93988 815.67188 4287596471
4.3844037 787.67847 814.98657 4293122532
43.899082 786.93988 815.67188 4294900735
5.2568808 789.75677 815.43079 4292856011
47.163303 794.63922 815.62354 4294966527
47.06422 797.44067 815.36951 4294966015
46.046791 800.30383 813.85962 4294966527
48.65321 802.29645 815.53979 4294966783
46.766972 805.14911 814.02094 4294966527
46.667889 809.91162 815.42041 4294966783
44.796329 812.08954 813.33276 4294967295
-6.8917432 814.72394 815.55396 4286862949
-5.1577983 814.8559 813.04919 4287052609
41.262386 814.8559 813.04919 4294966783
43.841286 814.8559 813.04919 4294967295
-6.8770642 817.48468 815.26575 4288701838
44.700916 816.17029 814.15747 4294967039
41.130276 819.64996 813.16736 4294703103
43.700916 819.64996 813.16736 4294966783
-8.5688076 822.27032 815.37671 4285871655
-8.5504589 825.01556 815.07544 4281535234
-8.5229359 828.47144 814.06531 4281801238
-10.150458 839.30463 814.04333 4285156698
-7.612844 839.95129 814.58862 4287328637
0.84587157 839.95129 814.58862 4285492129
4.2293577 839.95129 814.58862 4288315999
40.601833 839.95129 814.58862 4294964991
43.421406 839.5202 814.2251 4294965503
46.522934 839.30463 814.04333 4294966783
50.188381 839.5202 814.2251 4294966527
52.444038 839.30463 814.04333 4294834175
54.981651 839.30463 814.04333 4294504953
-16.917431 841.24463 815.67908 4285616476
-10.150458 841.24463 815.67908 4284492341
-7.612844 841.24463 815.67908 4287455348
-5.0752292 841.24463 815.67908 4285747051
0.84587157 841.24463 815.67908 4285748123
4.2293577 841.24463 815.67908 4289100118
7.612844 841.24463 815.67908 4292067538
34.680733 841.24463 815.67908 4294899199
38.06422 841.24463 815.67908 4294834175
40.601833 841.24463 815.67908 4294964991
49.906422 841.24463 815.67908 4294966015
52.444038 841.24463 815.67908 4294899455
54.981651 841.24463 815.67908 4294702334
57.519264 841.24463 815.67908 4294965759
-15.176147 843.36786 813.54529 4287524729
-3.3724771 843.36786 813.54529 4283507050
-1.6862385 843.36786 813.54529 4289823178
10.96055 843.36786 813.54529 4288977066
13.489908 843.36786 813.54529 4287444005
16.019266 843.36786 813.54529 4290997860
19.391743 843.36786 813.54529 4289949816
22.764221 843.36786 813.54529 4288172885
25.855658 843.79761 813.90753 4290936190
28.666056 843.36786 813.54529 4294963711
31.195412 843.36786 813.54529 4294967295
59.018349 844.65704 814.6322 4294967039
-3.6036696 749.1897 816.54248 4284809262
-1.8018348 749.1897 816.54248 4282646541
0 749.1897 816.54248 4279959552
0.90091741 750.56726 817.70398 4292651689
-4.4908257 754.21106 816.85229 4290936941
0 754.21106 816.85229 4292717245
-7.1266055 765.70288 816.07776 4288843167
-5.344954 765.70288 816.07776 4289040547
0 765.70288 816.07776 4289632725
-7.1266055 768.42706 818.37463 4280418304
-4.4486237 769.54761 817.35736 4280221696
-1.7761468 770.66809 816.34009 4279697408
0 770.66809 816.34009 4278585600
-4.4403667 772.70496 818.0575 4292263388
-1.772477 773.51715 816.12634 4290355891
0.88623852 772.77161 816.80566 4289963711
3.5449541 773.51715 816.12634 4287410592
-3.5449541 775.5498 817.84021 4291280846
-1.772477 774.87225 817.26892 4292332245
0 774.87225 817.26892 4291214823
47.85688 776.22729 818.4115 4294768383
49.629356 776.22729 818.4115 4294768383
-5.3009176 779.80658 817.50537 4287793557
-1.7669724 778.45575 816.36633 4290032069
0.88348621 778.45575 816.36633 4287797436
44.174313 778.45575 816.36633 4294768383
46.530273 779.35626 817.12567 4294768383
49.475231 779.80658 817.50537 4294834175
46.824768 781.15747 818.64441 4294636542
49.475231 781.15747 818.64441 4294964991
51.242203 781.15747 818.64441 4294964991
-5.2844038 783.37744 816.59216 4289764422
0.88073397 783.37744 816.59216 4288321198
3.5229359 783.37744 816.59216 4291675587
44.036697 783.37744 816.59216 4294703357
-4.3899083 788.28235 816.80371 4290888642
-1.7559633 788.28235 816.80371 4287798452
46.607338 787.17657 817.83337 4294966783
49.321102 786.0708 818.86304 4294966783
51.082569 786.0708 818.86304 4294966015
47.411011 789.62482 817.93567 4294967295
50.044952 789.62482 817.93567 4294966527
52.678898 789.62482 817.93567 4294834175
49.940369 792.43604 817.68994 4294966271
52.568806 793.7757 818.81946 4294768895
50.074615 796.41974 817.12482 4294965759
52.403671 797.31006 817.87549 4294637055
-10.458715 800.1059 817.61682 4286859824
-8.7155962 800.1059 817.61682 4287386168
49.678898 799.43958 817.05499 4294966783
-12.201835 801.43854 818.74048 4286000926
-10.458715 801.43854 818.74048 4286394396
-8.7155962 801.43854 818.74048 4288433980
49.601833 802.53174 817.70013 4294966783
-13.321712 805.83893 818.52667 4285083931
-10.425688 806.28174 818.90002 4284886552
-7.8192658 806.28174 818.90002 4285081357
-5.2128439 806.28174 818.90002 4288104749
49.811619 805.39618 818.15332 4294966527
-15.588991 808.45966 816.81226 4286533721
-6.9284406 809.78381 817.92883 4285539369
48.499084 809.1217 817.37054 4294966271
-8.6422014 812.55444 817.6488 4288377976
46.667889 811.23303 816.53467 4294966527
-19.012844 813.87585 818.76294 4284033335
-17.284403 813.87585 818.76294 4285081401
-10.370643 813.87585 818.76294 4289231736
-12.060551 818.67554 818.88586 4284489748
-10.337615 817.35834 817.77527 4286983247
-8.605505 817.4201 816.51935 4289620859
-10.315597 820.77063 818.03644 4283045387
-11.86789 839.18109 816.55524 4284562754
43.233028 839.82916 817.10168 4294965247
46.623856 839.82916 817.10168 4294966783
-18.609175 842.53802 816.76965 4278190080
-16.917431 842.53802 816.76965 4280680451
-11.020184 841.12531 818.19458 4283432960
-7.612844 842.53802 816.76965 4285268246
-4.2293577 842.53802 816.76965 4284940306
-1.6917431 842.53802 816.76965 4286912780
0.84770644 841.12531 818.19458 4285726836
4.2293577 842.53802 816.76965 4283237636
7.612844 842.53802 816.76965 4283572034
10.99633 842.53802 816.76965 4286932356
13.533945 842.53802 816.76965 4289280000
16.07156 842.53802 816.76965 4293226576
19.455046 842.53802 816.76965 4291853713
22.838531 842.53802 816.76965 4288110450
27.913761 842.53802 816.76965 4292324032
31.297249 842.53802 816.76965 4294967295
34.680733 842.53802 816.76965 4294769150
38.14679 841.12531 818.19458 4294899967
40.689907 841.12531 818.19458 4294834175
42.385323 841.12531 818.19458 4294834175
46.623856 841.12531 818.19458 4294965759
49.959633 841.83167 817.48212 4294965759
52.444038 842.53802 816.76965 4294768383
54.981651 842.53802 816.76965 4294833919
57.519264 842.53802 816.76965 4294966015
60.902752 842.53802 816.76965 4294967295
10.99633 843.83136 817.86011 4287587160
13.533945 843.83136 817.86011 4287904296
16.07156 843.83136 817.86011 4289349960
19.455046 843.83136 817.86011 4291855777
22.838531 843.83136 817.86011 4290023593
25.376146 843.83136 817.86011 4285880933
28.195719 844.26245 818.22363 4291541416
31.297249 843.83136 817.86011 4294967295
57.519264 843.83136 817.86011 4294965247
-10.722936 764.8197 819.25708 4278255662
-8.042202 764.8197 819.25708 4278321190
-12.510092 766.18604 820.40918 4278255625
-10.722936 766.18604 820.40918 4279894016
-8.042202 766.86914 820.98517 4284959577
-5.344954 769.78912 819.52319 4291604170
-13.362385 771.15125 820.67163 4285156379
-7.1266055 771.83228 821.24585 4287462573
-7.1045871 776.09961 820.9198 4284833129
-5.3284402 774.7417 819.7749 4288649666
46.824768 782.5083 819.78345 4294966527
49.475231 782.5083 819.78345 4294966783
52.125687 782.5083 819.78345 4294768638
52.678898 790.96729 819.06763 4294965503
-8.7798166 792.30969 820.19946 4286268709
-10.513762 795.11536 819.9491 4286664498
-8.7614679 795.11536 819.9491 4287190843
52.403671 799.31323 819.56451 4294966015
-12.201835 802.77118 819.86414 4285345320
-10.458715 802.77118 819.86414 4286001437
-7.8440366 802.77118 819.86414 4287383596
-5.2293577 802.77118 819.86414 4287844395
52.293579 802.77118 819.86414 4294966271
52.293579 804.10382 820.98779 4294966783
-16.507339 807.61011 820.02014 4288110200
-13.03211 807.61011 820.02014 4285478189
-10.425688 807.61011 820.02014 4285084451
-8.6880732 807.61011 820.02014 4284426264
50.390827 807.61011 820.02014 4294966527
-19.053211 811.10803 819.04541 4286199864
-16.166361 811.5495 819.41766 4286856028
-12.990826 811.77014 819.60376 4287651129
-10.39266 811.10803 819.04541 4288706685
-19.053211 813.75647 821.27844 4281537566
-16.436697 814.47687 820.57782 4283702571
-12.963303 815.19727 819.8772 4286586899
-15.308257 839.00635 820.33203 4281335822
-13.60734 838.35614 819.78381 4284886057
44.223854 839.00635 820.33203 4294965503
-18.710093 840.3067 821.42847 4282384384
-16.158716 840.3067 821.42847 4283171075
-13.60734 840.3067 821.42847 4284165120
-11.03945 841.36414 820.35791 4286402347
-7.6293578 842.42151 819.28735 4287851097
-4.2385321 842.42151 819.28735 4288443498
-1.6954129 842.42151 819.28735 4288706155
0.85045874 840.3067 821.42847 4287191147
4.2385321 842.42151 819.28735 4283830274
7.6293578 842.42151 819.28735 4284285443
34.755962 842.42151 819.28735 4294966783
37.420185 840.3067 821.42847 4294900735
39.971558 840.3067 821.42847 4294835454
43.373394 840.3067 821.42847 4294769150
46.77523 840.3067 821.42847 4294900735
50.094498 841.36414 820.35791 4294966271
52.557796 842.42151 819.28735 4294768383
55.100918 842.42151 819.28735 4294965759
59.339451 842.42151 819.28735 4294965759
61.882568 842.42151 819.28735 4294966783
8.4770641 843.71765 820.38025 4294627543
11.302752 844.14972 820.74457 4294430433
13.563303 844.36572 820.9267 4289760962
16.106422 844.36572 820.92676 4285151050
19.497248 844.36572 820.9267 4289691000
22.888073 844.36572 820.9267 4292528599
25.431192 844.36572 820.9267 4286345610
27.691742 844.58173 821.10889 4287006779
31.365139 844.36572 820.92676 4294440445
33.908257 843.71765 820.38025 4294967295
-12.53578 766.06104 822.9198 4282595867
-10.744954 766.74561 823.49701 4286605687
-8.9541283 766.06104 822.9198 4288182410
-12.510092 770.28491 823.86523 4288315009
-8.9357796 769.60175 823.28918 4286872969
-12.47156 773.87537 822.96851 4286671256
-10.689908 773.87537 822.96851 4286873990
-8.9082565 773.87537 822.96851 4285623924
-7.9926605 777.45752 822.0647 4284700728
-10.568808 790.11072 822.26953 4285939744
52.293579 805.4364 822.11133 4294966271
-19.582569 840.9035 823.23969 4291927452
-16.193579 840.19995 823.95447 4291934139
-13.60734 841.60706 822.5249 4292724421
-11.055964 842.25726 823.07312 4293252313
-7.6541281 842.2572 823.07312 4292924378
-3.9688072 842.04053 822.89038 4292925140
-1.7009175 841.60706 822.5249 4293319640
0.85229355 840.19995 823.95447 4293646820
4.2522936 841.60706 822.5249 4294302428
7.6541286 842.2572 823.07312 4294564572
10.205504 842.90741 823.62134 4294630635
35.152294 842.47394 823.25586 4294967039
37.420185 841.60706 822.5249 4294440188
39.971558 841.60706 822.5249 4294637565
43.466972 840.19995 823.95447 4294900735
46.826607 840.9035 823.23969 4294900735
49.433029 840.19995 823.95447 4294834687
52.161469 842.04053 822.89038 4294768639
55.279816 842.25726 823.07312 4294900479
58.681648 842.25726 823.07312 4294966271
62.083488 842.25726 823.07312 4294966783
11.906422 844.20776 824.71777 4293119962
13.60734 844.20776 824.71777 4294238957
16.158716 844.20776 824.71777 4294765809
19.560551 844.20776 824.71777 4292467686
22.962385 844.20776 824.71777 4286740598
25.513762 844.20776 824.71777 4293180063
28.065138 844.20776 824.71777 4292130223
30.616514 844.20776 824.71777 4289380058
-10.744954 768.79926 825.22864 4287795102
-20.521101 839.39679 827.20129 4292656818
0.85504586 839.39679 827.20129 4293187302
-18.750458 841.50317 825.05322 4292985782
-15.909481 841.93756 825.41949 4292463311
-13.636697 842.15479 825.60266 4292727512
-11.079817 842.80634 826.1521 4291412424
-7.6706419 842.80634 826.1521 4289963951
-4.5455661 842.37201 825.78583 4290358707
-1.7045871 842.15479 825.60266 4292661967
4.2614679 841.50317 825.05322 4294239724
7.3865438 842.37189 825.78583 4292397775
10.227523 842.80634 826.1521 4292001225
32.387157 842.80634 826.1521 4294508543
34.944038 842.80634 826.1521 4294967039
37.500916 841.50317 825.05322 4294637311
40.0578 841.50317 825.05322 4294505469
43.466972 841.50317 825.05322 4294900479
46.876144 841.50317 825.05322 4294900479
49.433029 842.15479 825.60266 4294703358
51.705811 842.37201 825.78583 4294965759
55.399082 842.80634 826.1521 4294966015
58.808258 842.80634 826.1521 4294966527
61.365139 842.80634 826.1521 4294966783
63.92202 842.80634 826.1521 4294967039
-11.079817 844.1095 827.25085 4290819255
-8.5229359 844.1095 827.25085 4289569443
16.193579 844.1095 827.25085 4294634986
19.602753 844.1095 827.25085 4293976063
23.011927 844.1095 827.25085 4290225521
25.568808 844.1095 827.25085 4294967145
52.842201 844.1095 827.25085 4294834175
55.399082 844.1095 827.25085 4294965759
58.808258 844.1095 827.25085 4294966527
61.365139 844.1095 827.25085 4294966271
63.92202 844.1095 827.25085 4294966783
-20.565138 839.30273 829.73804 4292726742
-19.409174 840.64331 829.9964 4291871178
-16.530886 841.57574 829.03857 4291083200
-13.680734 842.01154 829.40601 4291806151
-6.8403668 842.01154 829.40601 4289897643
-4.2752295 842.01154 829.40601 4289963432
-1.7100917 842.01154 829.40601 4291937217
0.85596329 840.65857 829.57324 4291938768
4.2752295 841.35785 828.85486 4291214795
7.6954126 842.01154 829.40601 4291147199
11.115597 842.01154 829.40601 4291674047
13.680734 842.01154 829.40601 4293319109
28.216515 842.01154 829.40601 4288845526
31.636698 842.01154 829.40601 4292008161
35.056881 842.01154 829.40601 4294966783
37.622017 841.35785 828.85486 4294966271
40.187157 841.35785 828.85486 4294702845
43.607338 841.35785 828.85486 4294768126
47.027527 841.35785 828.85486 4294834942
49.592659 842.01154 829.40601 4294703357
51.302753 842.01154 829.40601 4294834175
66.693581 842.01154 829.40601 4294967295
-13.680734 843.31891 830.50842 4292068809
-11.115597 843.31891 830.50842 4291344829
-7.6954126 843.31891 830.50842 4290949557
-4.2752295 843.31891 830.50842 4292528842
-1.7100917 843.31891 830.50842 4293319124
11.970642 843.31891 830.50842 4290163379
13.680734 843.31891 830.50842 4289962666
16.245872 843.31891 830.50842 4289830317
19.666054 843.31891 830.50842 4292986078
23.086239 843.31891 830.50842 4294765805
25.651377 843.31891 830.50842 4294637787
28.216515 843.31891 830.50842 4287074740
31.636698 843.31891 830.50842 4292596704
35.911926 843.31891 830.50842 4294967039
37.622017 843.31891 830.50842 4294767613
49.592659 843.31891 830.50842 4294834943
52.157799 843.31891 830.50842 4294834687
55.57798 843.31891 830.50842 4294899967
58.904587 844.36578 829.42908 4294966783
61.563301 843.31891 830.50842 4294966271
64.128441 843.31891 830.50842 4294967295
-22.350458 837.85779 832.44379 4293712092
-22.278898 841.9231 831.94751 4293318368
-19.708256 841.9231 831.94751 4291805134
-16.280735 841.9231 831.94751 4291213496
0 841.9231 831.94751 4293253860
4.2844038 841.9231 831.94751 4293516515
7.7119265 841.9231 831.94751 4292463831
10.282569 841.9231 831.94751 4291018432
34.27523 841.9231 831.94751 4294967295
40.273396 841.9231 831.94751 4294899455
43.700916 841.9231 831.94751 4294965503
47.128441 841.9231 831.94751 4294900223
66.8367 841.9231 831.94751 4294967295
-16.280735 843.23328 833.05212 4291345087
-13.710092 843.23328 833.05212 4292003264
-11.13945 843.23328 833.05212 4291213498
-7.7119265 843.23328 833.05212 4291212987
-4.2844038 843.23328 833.05212 4292595152
13.710092 843.23328 833.05212 4290161088
16.280735 843.23328 833.05212 4289437353
19.708256 843.23328 833.05212 4291542711
23.13578 843.23328 833.05212 4294635245
25.706423 843.23328 833.05212 4294964991
28.277065 843.23328 833.05212 4288453277
31.704586 843.23328 833.05212 4292072414
35.132111 843.23328 833.05212 4294967295
37.702751 843.23328 833.05212 4294965759
49.699081 843.23328 833.05212 4294967295
52.212845 843.92981 832.33142 4294967295
55.57798 844.62628 831.61072 4294900991
58.998165 844.62628 831.61072 4294967039
61.563301 844.62628 831.61072 4294967295
64.266052 843.23328 833.05212 4294967295
-27.508257 839.82935 834.1062 4291939014
-24.069725 839.82935 834.1062 4292529108
1.7192661 839.82935 834.1062 4293253860
-24.642813 841.58185 835.58392 4292463566
-22.350458 841.8009 835.76862 4292923864
-19.771561 841.8009 835.76862 4291673292
-16.333027 842.45813 836.32275 4290488490
-12.894495 842.45813 836.32275 4289895853
-10.315597 842.45813 836.32275 4289434269
-7.7366972 842.45813 836.32275 4291014587
-4.2981653 842.45813 836.32275 4289963175
-1.7192661 841.8009 835.76862 4292003266
0.85963303 841.14374 835.21448 4293385195
4.2981653 841.14374 835.21448 4293320419
7.7366972 841.14374 835.21448 4292333270
10.315597 841.14374 835.21448 4291149504
12.607951 842.02002 835.95331 4291280581
16.333027 842.45813 836.32275 4291215302
19.771561 842.45813 836.32275 4289307042
27.508257 842.45813 836.32275 4294637049
30.946789 842.45813 836.32275 4290818752
34.385323 842.45813 836.32275 4294572031
36.964218 842.45813 836.32275 4294966271
40.116207 841.58185 835.58392 4294833919
44.127827 841.58185 835.58392 4294965759
46.420185 841.14374 835.21448 4294834175
48.71254 842.02002 835.95331 4294900735
51.57798 842.45813 836.32275 4294834687
65.332108 842.45813 836.32275 4294967295
67.624466 841.58185 835.58392 4294967295
23.13578 844.54346 834.15686 4289897655
25.706423 844.54346 834.15686 4294568703
29.133945 844.54346 834.15686 4292136658
32.561466 844.54346 834.15686 4294240244
53.126606 844.54346 834.15686 4294967295
55.982876 844.98016 834.52509 4294966527
58.839142 844.98016 834.52509 4294967039
61.695412 845.19855 834.70923 4294967295
63.409176 844.54346 834.15686 4294967295
-25.269724 841.94598 838.50702 4291214786
-22.398165 842.38507 838.8772 4291609036
-20.67523 842.38507 838.8772 4291673559
-13.783486 842.38507 838.8772 4289238956
-5.1688075 842.38507 838.8772 4288647097
-1.7229358 842.38507 838.8772 4289700480
0.8614679 841.06787 837.7666 4292990691
4.3073397 841.72644 838.3219 4292334302
7.753211 841.72644 838.3219 4290491842
10.337615 841.72644 838.3219 4291477696
12.922018 842.38507 838.8772 4292661719
16.367889 842.38507 838.8772 4291740620
19.813763 842.38507 838.8772 4289700524
34.458717 842.38507 838.8772 4294834175
37.043121 842.38507 838.8772 4294899455
40.77615 841.94598 838.50702 4294899198
43.647705 841.94598 838.50702 4294965759
46.519264 841.72644 838.3219 4294966015
48.242203 842.38507 838.8772 4294966015
68.055969 841.72644 838.3219 4294967295
-27.566973 843.70227 839.98779 4294636284
-24.982569 843.70227 839.98779 4291543498
-22.398165 843.70227 839.98779 4291017153
-19.513151 843.72577 839.13556 4290884550
-16.350458 843.73743 838.70941 4289634728
-12.6263 843.72577 839.13556 4288581280
-10.326606 843.73743 838.70941 4288515474
-7.7449541 843.73737 838.70947 4289503409
-4.0177369 843.72577 839.13556 4287594609
-1.7229358 843.70227 839.98779 4287985496
12.060551 843.70227 839.98779 4293910244
16.367889 843.70227 839.98779 4292794082
19.813763 843.70227 839.98779 4290885299
22.374311 843.73743 838.70941 4288976021
24.955963 843.73743 838.70947 4290751662
28.398165 843.73743 838.70941 4293253348
31.840366 843.73743 838.70947 4293848043
34.458717 843.70227 839.98779 4294967295
37.043121 843.70227 839.98779 4294505980
40.488991 843.70227 839.98779 4294834687
43.93486 843.70227 839.98779 4294768383
46.519264 843.70227 839.98779 4294965759
49.35535 843.72565 839.13556 4294965758
52.465134 844.08356 838.34729 4294966271
55.5896 844.64874 838.16992 4294966527
58.455048 845.08691 838.53931 4294967295
60.747402 844.64874 838.16992 4294967295
64.541283 843.73743 838.70941 4294967295
67.194496 843.70227 839.98779 4294967295
0.8642202 840.96466 841.60352 4289898142
4.3211012 841.62537 842.16064 4291670479
7.7779818 841.62537 842.16064 4290751662
10.370643 841.62537 842.16064 4292002247
13.827523 841.62537 842.16064 4293583343
69.137611 840.96466 841.60358 4294967295
-24.121101 845.01947 841.09851 4291281090
-22.398165 845.01947 841.09851 4290820539
-19.813763 845.01947 841.09851 4290753979
-16.367889 845.01947 841.09851 4290225584
-12.922018 845.01947 841.09851 4288186016
-10.337615 845.01947 841.09851 4287727235
-7.753211 845.01947 841.09851 4288846235
-3.4458716 845.01947 841.09851 4285099085
22.398165 845.01947 841.09851 4290753202
24.982569 845.01947 841.09851 4289962153
28.42844 845.01947 841.09851 4290291109
31.874311 845.01947 841.09851 4293979376
34.458717 845.01947 841.09851 4294967295
37.043121 845.01947 841.09851 4294966271
53.411011 845.01947 841.09851 4294967295
55.995415 845.01947 841.09851 4294967295
58.579815 845.01947 841.09851 4294967295
61.164223 845.01947 841.09851 4294967295
64.610092 845.01947 841.09851 4294967295
67.194496 845.01947 841.09851 4294967295
-24.121101 846.33667 842.20911 4291543493
-22.398165 846.33667 842.20911 4290688440
-19.813763 846.33667 842.20911 4290687416
28.42844 846.33667 842.20911 4288451991
31.874311 846.33667 842.20911 4291806415
-27.655046 842.94678 843.2749 4294570742
-25.926605 842.94678 843.2749 4292530903
-4.6152902 842.90839 844.98657 4283784796
-1.7302753 842.91797 844.55865 4281875498
0.86605507 841.56494 844.72583 4285951846
4.3302751 841.56494 844.72583 4288320978
8.0770636 842.46698 844.61444 4291347131
10.381651 842.91797 844.55865 4293647840
12.977064 842.91797 844.55859 4293713895
16.437614 842.91797 844.55859 4293385192
19.877064 842.94678 843.2749 4291411136
40.618347 842.94678 843.2749 4294966015
44.07523 842.94678 843.2749 4294899711
46.667889 842.94678 843.2749 4294966527
49.260551 842.94678 843.2749 4294965759
51.85321 842.94678 843.2749 4294966015
70.076141 842.91797 844.55859 4294967295
-27.655046 844.26819 844.38904 4293583859
-25.062386 844.92889 844.94611 4291675343
-22.469725 845.5896 845.50317 4290885051
-19.877064 845.5896 845.50317 4291015356
-16.420183 844.26819 844.38904 4291343806
-12.675229 844.70868 844.76044 4289896630
-10.370643 844.26819 844.38904 4288318604
-7.7779818 844.26819 844.38904 4288714397
19.877064 844.26819 844.38904 4292397524
22.469725 844.92889 844.94611 4292002511
25.062386 844.92883 844.94617 4291542461
28.519266 845.5896 845.50317 4288779172
31.976147 845.5896 845.50317 4291081145
34.568806 844.92889 844.94611 4294570239
37.161469 844.92883 844.94617 4294967039
40.618347 844.26819 844.38904 4294966015
44.07523 844.26819 844.38904 4294966015
46.667889 844.26819 844.38904 4294966527
49.260551 844.26819 844.38904 4294966015
52.71743 844.26819 844.38904 4294966783
55.310093 844.26819 844.38904 4294967039
57.902752 844.26819 844.38904 4294967295
61.359634 844.26819 844.38904 4294967295
65.104584 844.70868 844.76044 4294967295
67.409172 844.92889 844.94611 4294967295
0.86880732 840.82068 848.02234 4278190080
4.3440366 840.82068 848.02234 4282406464
6.9504585 840.82068 848.02234 4290163888
-22.517431 845.5376 848.07544 4290226363
-19.919266 845.5376 848.07544 4290946719
-16.455046 844.21338 846.95898 4291474874
-12.990826 844.87549 847.51721 4290815421
-10.39266 844.21338 846.95898 4289367974
-7.7944956 844.21338 846.95898 4289434277
17.3211 844.21338 846.95898 4292990952
19.919266 844.21338 846.95898 4292529632
25.981651 845.5376 848.07544 4291607754
28.579817 845.5376 848.07544 4289962914
31.177982 845.5376 848.07544 4289764767
34.6422 845.5376 848.07544 4291806179
37.240368 845.5376 848.07544 4294966271
40.704586 844.87549 847.51721 4294966527
43.302753 844.21338 846.95898 4294966271
45.900917 844.21338 846.95898 4294967039
48.499084 844.21338 846.95898 4294966527
53.695412 844.21338 846.95898 4294967039
55.427525 844.21338 846.95898 4294967039
58.025688 844.21338 846.95898 4294967295
61.489906 844.21338 846.95898 4294967295
64.088074 844.21338 846.95898 4294967295
67.552292 845.5376 848.07544 4294967295
69.284401 844.21338 846.95898 4294967295
32.840366 846.91101 846.61743 4292001729
-26.06422 842.14911 849.14246 4292004309
-4.3440366 842.14911 849.14246 4284239222
-1.7376146 842.14911 849.14246 4278190126
0.87155962 840.08478 851.32593 4278190080
4.3577981 840.08478 851.32593 4283779657
7.8192658 842.14911 849.14246 4293845216
10.425688 842.14911 849.14246 4294437885
13.03211 842.14911 849.14246 4293648878
15.638532 842.14911 849.14246 4293583593
50.390827 842.14911 849.14246 4294966271
52.128441 842.14911 849.14246 4294966527
71.242203 842.14911 849.14246 4294967295
-24.326605 843.47754 850.26257 4291739602
-22.588991 844.80591 851.38269 4291010988
-19.982569 844.80591 851.38269 4290746494
-16.507339 844.14172 850.82263 4291408047
-13.321712 844.3631 851.00928 4290944684
-10.425688 844.14172 850.82263 4291009703
-8.1088686 843.92035 850.63593 4291076267
-4.3440366 843.47754 850.26257 4290290348
-1.7376146 843.47754 850.26257 4285818736
16.507339 843.47754 850.26257 4292794853
19.982569 843.47754 850.26257 4292266970
22.588991 844.14172 850.82263 4292332499
24.905809 844.3631 851.00928 4292198617
27.801834 844.80591 851.38269 4290553767
40.833946 844.80591 851.38269 4294967295
43.440369 843.47754 850.26257 4294967039
46.046791 843.47754 850.26257 4294967039
53.866055 843.47754 850.26257 4294967039
55.603668 843.47754 850.26257 4294967295
58.210091 843.47754 850.26257 4294967295
61.685318 843.47754 850.26257 4294967295
64.29174 843.47754 850.26257 4294967295
66.029358 843.47754 850.26257 4294967295
29.445871 846.86182 849.19202 4290225059
32.044037 846.86182 849.19202 4290686639
34.6422 846.86182 849.19202 4291609049
37.240368 846.86182 849.19202 4294966271
-25.56575 842.30585 853.19873 4292856024
-6.972477 842.75006 853.57324 4291340973
-4.3577981 842.75006 853.57324 4291013054
-1.7431192 842.75006 853.57324 4287658657
0.87339449 840.73071 853.17859 4287264078
4.3577981 841.41742 852.44958 4293377948
7.8440366 841.41742 852.44958 4294963708
10.458715 842.08374 853.01141 4294505726
13.073395 842.08374 853.01141 4293519086
16.559633 842.75006 853.57324 4292729058
20.045872 842.75006 853.57324 4292399322
43.57798 842.75006 853.57324 4294967295
46.192661 842.75006 853.57324 4294967295
49.969418 841.86163 852.82416 4294966271
52.293579 842.08374 853.01141 4294966783
54.908257 842.75006 853.57324 4294967295
58.394493 842.75006 853.57324 4294967295
61.880733 842.75006 853.57324 4294967295
64.495415 842.75006 853.57324 4294967295
67.110092 842.75006 853.57324 4294967295
69.72477 841.41742 852.44958 4294967295
-24.403669 844.0827 854.6969 4291725971
-19.174313 844.0827 854.6969 4290211928
-17.431192 844.0827 854.6969 4288897628
-13.073395 844.0827 854.6969 4290347641
-10.458715 844.0827 854.6969 4290545810
-7.8440366 844.0827 854.6969 4291469483
-1.7431192 844.0827 854.6969 4291608266
20.045872 844.0827 854.6969 4292859876
22.660551 844.0827 854.6969 4292004055
25.27523 844.0827 854.6969 4291079878
27.889908 844.0827 854.6969 4290091685
40.963303 844.0827 854.6969 4294967295
59.266056 844.0827 854.6969 4294967295
61.880733 844.0827 854.6969 4294967295
64.495415 844.0827 854.6969 4294967295
67.110092 844.0827 854.6969 4294967295
-22.588991 846.13434 852.50269 4290081403
-20.851376 846.13434 852.50269 4290080086
-15.638532 846.13434 852.50269 4290673783
29.53945 846.13434 852.50269 4289631134
31.277063 846.13434 852.50269 4289239708
33.883484 846.13434 852.50269 4291015867
37.358719 846.13434 852.50269 4294109173
-28.036697 839.32355 857.22424 4293446876
-26.201836 842.7149 856.15967 4291919239
-4.3669724 842.7149 856.15967 4292198346
0.87339449 841.37946 855.03369 4289834103
4.3669724 841.37946 855.03369 4293580268
7.8605504 842.04718 855.59668 4294701822
10.480734 842.7149 856.15967 4294768895
13.100918 842.7149 856.15967 4294111226
16.594496 842.7149 856.15967 4292992231
43.669724 842.7149 856.15967 4294967295
46.289909 842.7149 856.15967 4294967039
49.492355 842.26978 855.78436 4294900734
52.403671 842.7149 856.15967 4294967039
55.023853 842.7149 856.15967 4294966527
57.644035 842.7149 856.15967 4294967295
69.871559 841.37946 855.03369 4294967295
-25.328442 844.05029 857.28564 4290479192
-22.708258 844.05029 857.28564 4289229117
-20.088074 844.05029 857.28564 4289492580
-16.559633 845.41528 855.82056 4289363549
-13.100918 844.05029 857.28564 4289887058
-10.480734 844.05029 857.28564 4290217861
-8.7155962 845.41528 855.82056 4291665307
-1.746789 844.05029 857.28564 4292330699
20.088074 844.05029 857.28564 4293580257
22.708258 844.05029 857.28564 4292592335
25.328442 844.05029 857.28564 4292063411
28.761467 845.41528 855.82056 4290153896
31.376146 845.41528 855.82056 4289764004
33.990826 845.41528 855.82056 4290424241
37.477066 845.41528 855.82056 4294044657
41.049541 844.05029 857.28564 4294967295
43.669724 844.05029 857.28564 4294967295
45.416515 844.05029 857.28564 4294966783
52.403671 844.05029 857.28564 4294966783
55.023853 844.05029 857.28564 4294967039
58.517433 844.05029 857.28564 4294967295
62.011009 844.05029 857.28564 4294967295
64.495415 845.41528 855.82056 4294967295
67.110092 845.41528 855.82056 4294967295
-28.036697 841.33301 858.91864 4290409576
-7.0091743 842.00287 859.4834 4291868334
-4.380734 842.00287 859.4834 4292329664
0.87614679 841.33301 858.91864 4292661193
4.380734 841.33301 858.9187 4293779441
