# .PCD v0.7 - Point Cloud Data file format
VERSION 0.7
FIELDS x y z rgb
SIZE 4 4 4 4
TYPE F F F U
COUNT 1 1 1 1
WIDTH 1169
HEIGHT 1
VIEWPOINT 0 0 0 1 0 0 0
POINTS 1169
DATA ascii
42.155964 831.76556 803.76245 4294966527
-7.5605502 835.57111 802.39307 4280950829
-5.0311928 836.64954 801.34033 4281477693
-7.5394492 839.29028 802.25891 4281081894
-4.4697247 838.8374 802.31305 4281608499
1.6733944 839.36676 801.01538 4287073178
5.0201836 839.36676 801.01538 4286741148
7.5302753 839.36676 801.01538 4284966257
31.794495 839.36676 801.01538 4294967295
38.488075 839.36676 801.01538 4294966271
41.044037 838.64917 801.71838 4294966271
43.603668 838.57275 802.96191 4294966783
45.280735 839.21381 803.50244 4294966527
-6.6935778 840.64606 802.09412 4281410605
-3.3467889 840.64606 802.09412 4282004539
-1.6733944 841.28577 802.63348 4280622116
0.55779815 841.07251 802.45367 4282924107
4.183486 840.64606 802.09412 4287922579
7.5302753 840.64606 802.09412 4285620342
10.877064 840.64606 802.09412 4285883530
13.387156 840.64606 802.09412 4284834155
15.897248 841.92542 803.17285 4285558406
19.244038 841.92542 803.17285 4283058792
22.590824 841.92542 803.17285 4289111481
25.937614 841.92542 803.17285 4294704127
28.447706 841.92542 803.17285 4294967295
31.236696 841.49896 802.81329 4294966783
33.467892 841.28577 802.63348 4294967295
37.651375 841.92542 803.17285 4294965503
40.998165 841.28577 802.63348 4294966527
43.508255 841.92542 803.17285 4294966527
35.025688 844.06964 801.05664 4294967039
1.787156 749.79047 806.58484 4294768127
3.574312 749.79047 806.58484 4294964735
30.977371 749.33502 806.20087 4294570492
33.955963 749.79047 806.58484 4294438650
5.344954 752.08203 804.5929 4294965247
8.0174313 752.08203 804.5929 4294767359
10.689908 752.08203 804.5929 4294702079
12.47156 752.08203 804.5929 4294570239
25.833946 752.08203 804.5929 4294307834
28.506422 752.08203 804.5929 4294307834
-1.7816514 754.80615 806.88989 4282515460
1.7816514 754.80615 806.88989 4279894016
4.75107 754.35211 806.50708 4278190868
7.7204895 753.89813 806.12427 4278255664
28.506422 753.44409 805.74146 4294373627
31.178898 754.12512 806.31567 4294373370
33.851376 754.80615 806.88989 4294570237
8.8807335 757.76819 805.46332 4278910981
10.65688 757.76819 805.46332 4278190114
12.433027 757.76819 805.46332 4278190115
17.761467 757.08929 804.89087 4278190080
21.313761 757.08929 804.89087 4291281102
26.642202 757.08929 804.89087 4294833407
28.418348 757.08929 804.89087 4294373627
31.082569 758.44714 806.03577 4294438650
10.634862 761.32147 805.84326 4290350492
13.293577 760.64392 805.27197 4279566614
16.838531 759.96643 804.70068 4278190087
19.497248 759.96643 804.70068 4288782753
21.269724 759.96643 804.70068 4292595161
25.700916 759.96643 804.70068 4294701821
28.359632 759.96643 804.70068 4294307064
31.018349 761.32147 805.84326 4294636286
25.621101 764.94708 804.9762 4294900735
28.271559 764.94708 804.9762 4294767615
30.97156 763.81183 805.98102 4294701823
26.504587 766.29791 806.11523 4294965759
28.271559 766.29791 806.11523 4294965503
30.038532 766.29791 806.11523 4294899199
45.941284 766.29791 806.11523 4294571004
22.899082 768.56421 804.10205 4294967295
25.247705 769.46198 804.85895 4294966527
29.06422 769.91089 805.23743 4294965247
-3.5119267 773.51544 804.35266 4285947510
25.461468 773.51544 804.35266 4294966527
29.020184 772.38647 805.36279 4294965759
31.706423 771.25757 806.37292 4294964991
-4.3899083 775.52905 806.05054 4282006095
25.408257 776.36035 804.13525 4294966527
28.944036 775.60913 804.80994 4294965503
31.60734 774.85785 805.48462 4294965247
34.241287 776.20032 806.61646 4294966271
36.875229 776.20032 806.61646 4294966527
-4.380734 778.36975 805.82965 4281414472
31.541285 778.36975 805.82965 4294966527
33.293579 779.03961 806.39441 4294966527
36.798164 779.03961 806.39441 4294966527
-4.3669724 781.95258 804.92651 4280822847
1.746789 781.28485 804.36353 4286480016
4.3669724 781.28485 804.36353 4287136942
7.8605504 781.28485 804.36353 4287270304
10.480734 781.28485 804.36353 4288253332
13.392049 781.72998 804.73883 4290814142
15.721101 781.95258 804.92651 4289561517
24.455046 781.28485 804.36353 4294967295
29.695414 781.28485 804.36353 4294966783
33.188992 782.6203 805.4895 4294966271
-4.0709481 784.50568 805.33514 4280756541
-1.7431192 784.11438 804.13318 4288649914
1.7431192 784.7807 804.69501 4286676900
4.3577981 784.11438 804.13318 4286611114
7.8440366 784.7807 804.69501 4287859872
10.458715 784.7807 804.69501 4289504159
12.792661 784.50568 805.33514 4290621369
16.850153 785.00275 804.88232 4287719260
19.174313 784.11438 804.13318 4292980138
24.984711 784.55859 804.50775 4294967295
29.633028 784.7807 804.69501 4294966527
31.376146 784.7807 804.69501 4294966783
34.062386 783.95575 806.61548 4294966271
37.555962 783.95575 806.61548 4294966527
-4.3577981 786.7796 806.38049 4280691004
13.944954 786.7796 806.38049 4291278292
15.688073 786.7796 806.38049 4289896639
29.633028 786.7796 806.38049 4294966271
31.376146 786.7796 806.38049 4294966527
33.119267 786.7796 806.38049 4294967295
-6.9504585 791.66907 806.57898 4280821298
-4.6336389 790.78351 805.83234 4280690995
-1.7376146 789.67651 804.89893 4285693057
0.86880732 789.01227 804.33887 4288320171
4.3440366 789.01227 804.33887 4288253606
7.8192658 789.67651 804.89893 4287923605
10.425688 789.01227 804.33887 4288319651
12.163302 789.01227 804.33887 4290425028
17.376146 789.01227 804.33887 4288248393
22.588991 789.01227 804.33887 4294967295
25.195412 789.01227 804.33887 4294967295
28.960245 790.34064 805.45898 4294966527
-3.4642203 793.89331 804.5304 4280428838
-1.7321101 793.89331 804.5304 4284442468
1.7321101 793.89331 804.5304 4287332504
27.713762 793.89331 804.5304 4294967039
-4.6189599 795.65894 806.01904 4280886320
-1.7284404 796.69751 804.27869 4285426031
0.8642202 796.69751 804.27869 4286937998
3.4568808 796.69751 804.27869 4287924643
28.550459 795.95752 804.96277 4294966783
-4.0330276 798.8999 806.13568 4280624171
-1.7284404 798.01892 805.39282 4285492851
1.7284404 798.01892 805.39282 4287926692
28.519266 798.01892 805.39282 4294966527
32.840366 799.34033 806.50708 4294966015
34.568806 799.34033 806.50708 4294965503
-3.4458716 802.86914 805.55835 4280887341
-1.7229358 802.21057 805.00305 4284572775
1.1486238 801.99103 804.81793 4286414225
3.4458716 801.55194 804.44775 4287860915
29.289907 802.21057 805.00305 4294966527
31.587156 802.43011 805.18817 4294966015
37.043121 802.86914 805.55835 4294967295
39.627522 802.86914 805.55835 4294967295
-4.0177369 805.11407 806.57916 4281148464
-1.7192661 805.65515 805.29138 4284175707
0.57308871 805.21698 804.92194 4285361020
3.4385321 804.99792 804.73724 4288448427
34.385323 804.34076 804.18311 4294966271
41.262386 805.65515 805.29138 4294967295
-1.7137614 809.16846 804.32959 4283254355
41.130276 809.16846 804.32959 4294967295
42.844036 809.16846 804.32959 4294967295
-3.4275229 811.78882 806.53906 4280491299
-1.7137614 811.13373 805.98669 4281807416
41.042202 811.94177 804.052 4294967295
43.607338 811.94177 804.052 4294967295
-3.4091742 817.39453 804.72546 4280557347
-1.7045871 818.04608 805.2749 4282004791
42.614677 816.74292 804.17603 4294966783
42.293579 828.31116 804.77393 4294966783
42.999084 833.05475 804.84949 4294966527
47.21468 833.05475 804.84949 4294966015
48.900917 833.05475 804.84949 4294967039
46.270645 835.77899 804.5304 4294966271
47.111927 837.06531 805.61499 4294966527
48.794495 837.06531 805.61499 4294966271
-10.062386 841.13696 805.12402 4282004286
-7.5467882 841.13696 805.12402 4282201404
-4.1926603 841.13702 805.12402 4282398526
-1.6770642 841.77808 805.66455 4280162085
1.1180428 841.35065 805.3042 4284701289
4.1926603 841.13702 805.12402 4287069586
7.8262992 840.92328 804.94385 4287394964
10.621407 840.92328 804.94385 4287856012
13.416513 840.49591 804.5835 4287005308
15.93211 841.77808 805.66455 4285426808
21.801834 841.77808 805.66455 4287991720
31.025688 841.77808 805.66455 4294966527
33.541283 841.77808 805.66455 4294966527
41.926605 841.77808 805.66455 4294966527
43.603668 841.77808 805.66455 4294966527
46.119267 840.49591 804.5835 4294966527
-7.5467887 843.06018 806.74561 4278452233
-3.3541284 843.06018 806.74561 4278715670
-1.6770642 843.06018 806.74561 4278190080
0 843.06018 806.74561 4278190080
19.244038 843.20471 804.25146 4284110450
23.427523 843.20471 804.25146 4289439693
25.677063 843.15656 805.08282 4294505983
28.447706 843.20471 804.25146 4294967295
35.179817 843.13245 805.49854 4294966783
37.692661 843.13245 805.49854 4294966271
40.205505 843.13245 805.49854 4294966527
37.607338 749.63184 809.06714 4294308347
0.59571868 751.61212 808.12085 4279177510
3.574312 751.15674 807.73682 4278190126
35.1474 751.61212 808.12085 4294373884
37.530273 752.52307 808.88892 4294570750
34.742203 756.16827 808.03833 4294570750
37.41468 757.53033 809.18689 4294636799
40.087158 757.53033 809.18689 4294768383
42.759632 757.53033 809.18689 4294768383
8.8807335 759.80505 807.18066 4292383365
34.634861 760.48401 807.75311 4294636030
37.299084 761.16296 808.32556 4294833407
39.963303 761.16296 808.32556 4294702591
42.627522 761.16296 808.32556 4294702335
31.904587 764.03162 808.12842 4294636031
34.563301 764.03162 808.12842 4294767871
38.108257 764.03162 808.12842 4294767871
40.851376 762.52081 809.47058 4294636286
43.515594 762.52081 809.47058 4294636543
-3.5449541 765.38672 809.271 4287656315
31.805504 767.6488 807.25427 4294373629
34.455963 767.6488 807.25427 4294571007
37.989906 767.6488 807.25427 4294768127
40.766972 765.38672 809.271 4294767615
43.42569 765.38672 809.271 4294570750
46.084404 765.38672 809.271 4294636797
-7.951376 770.35052 809.53223 4279768370
-5.3009176 768.99963 808.39319 4281871939
34.455963 768.99963 808.39319 4294899199
38.284405 769.44989 808.77289 4294965503
40.640366 769.67505 808.96271 4294965759
42.407341 770.35052 809.53223 4294702590
49.475231 770.35052 809.53223 4294768895
51.242203 770.35052 809.53223 4294703103
-7.0458717 773.95087 808.64392 4279178535
-5.2844038 772.60419 807.50842 4280689465
34.348625 772.60419 807.50842 4294833919
37.871559 773.27753 808.07617 4294900223
40.51376 773.95087 808.64392 4294965759
51.082569 773.95087 808.64392 4294768895
-8.8073397 775.29749 809.7793 4278586927
42.27523 775.29749 809.7793 4294965759
49.321102 775.29749 809.7793 4294966271
51.082569 775.29749 809.7793 4294966271
-7.901835 778.21399 808.31439 4279243030
35.119267 777.54279 807.74841 4294966527
38.631191 777.54279 807.74841 4294966271
40.387157 778.21399 808.31439 4294966271
42.14312 778.88519 808.88037 4294966015
49.166973 778.88519 808.88037 4294966271
-7.0091743 781.04907 808.08875 4279639080
35.045872 780.37927 807.52393 4294966271
37.674309 780.37927 807.52393 4294966783
40.302753 781.71893 808.65356 4294966527
-7.8743119 784.17487 808.76227 4280623906
34.93578 785.2912 807.74146 4294967295
37.555962 785.2912 807.74146 4294967039
40.302753 783.05853 809.78308 4294967295
42.055046 783.05853 809.78308 4294967295
-10.480734 787.29431 809.43048 4280425522
-7.8532109 787.36938 808.18573 4280623406
10.458715 788.11224 807.50403 4287595929
13.073395 788.11224 807.50403 4290489799
15.688073 788.11224 807.50403 4290159554
31.376146 788.11224 807.50403 4294966527
33.990826 788.11224 807.50403 4294967295
37.847095 787.07178 809.24286 4294966783
41.049541 787.29431 809.43048 4294967295
43.669724 787.96204 809.99353 4294967295
46.289909 787.96204 809.99353 4294967295
49.783485 787.96204 809.99353 4294967295
-8.7155962 790.11121 809.18951 4280491828
31.376146 789.44489 808.62769 4294966783
33.990826 790.11121 809.18951 4294967039
37.186543 790.33331 809.37677 4294967295
41.834862 790.77753 809.75134 4294967295
43.57798 790.77753 809.75134 4294967295
45.321102 790.77753 809.75134 4294967295
49.678898 790.77753 809.75134 4294966783
-6.9504585 793.66174 808.25916 4280886323
31.277063 793.66174 808.25916 4294966783
33.883484 794.32593 808.81921 4294967039
-7.8082571 796.76013 808.90967 4280885291
37.240368 797.86597 807.88 4294967295
41.702751 795.65436 809.93933 4294967295
50.390827 795.65436 809.93933 4294967295
-6.9284406 799.19012 808.99646 4281083187
-5.1853213 800.66174 807.62122 4281609531
41.570641 799.19012 808.99646 4294967295
-6.9137616 802.64386 809.29248 4281410355
43.21101 801.98315 808.73535 4294967295
-5.1688075 806.16211 808.33496 4281936186
-3.4385321 808.28394 807.50793 4280820521
-5.1412845 813.09906 807.6438 4281870906
-1.7045871 820.6524 807.47253 4281150765
0 820.6524 807.47253 4285288842
48.900917 836.92218 808.11035 4294966527
-11.777982 839.638 807.78418 4282136381
6.7302752 839.638 807.78418 4286082439
11.777982 839.638 807.78418 4288449159
13.46055 839.638 807.78418 4287334530
46.270645 839.638 807.78418 4294966527
48.900917 838.2113 809.19739 4294967295
55.64587 838.2113 809.19739 4294967295
-10.936697 841.5675 809.41113 4279173638
-7.5715594 842.21069 809.95349 4279369730
-4.4868503 841.78192 809.59198 4280353033
-1.6825688 842.21069 809.95349 4282056713
0.84128439 841.5675 809.41113 4284564025
4.2064219 840.92438 808.86877 4285689492
7.5715594 840.92438 808.86877 4285229958
10.095413 840.92438 808.86877 4286478197
13.46055 840.92438 808.86877 4288122536
15.984404 840.92438 808.86877 4286741904
19.349541 840.92438 808.86877 4286610059
22.995108 841.35309 809.23029 4288386476
26.360245 841.78192 809.59198 4294439421
28.60367 841.5675 809.41113 4294967295
31.127522 841.5675 809.41113 4294966783
34.212231 841.78192 809.59198 4294966015
38.699081 842.21069 809.95349 4294966783
40.381653 842.21069 809.95349 4294966783
42.905502 840.92438 808.86877 4294966271
47.111927 840.92438 808.86877 4294966527
36.895412 844.34229 807.82666 4294967295
40.293579 751.00092 810.22156 4294636799
42.979816 751.00092 810.22156 4294504959
37.530273 753.88934 810.04089 4294636799
40.21101 753.88934 810.04089 4294505727
44.083179 754.34473 810.42499 4294505471
-3.5633028 758.89246 810.33533 4284680199
-1.7816514 758.89246 810.33533 4286127645
44.541283 758.89246 810.33533 4294702335
46.322937 758.89246 810.33533 4294702590
-3.5633028 760.25452 811.48376 4285015131
-1.7816514 760.25452 811.48376 4286199405
3.5633028 760.25452 811.48376 4290986752
-7.1045871 763.87872 810.61548 4280752931
-5.3284402 763.87872 810.61548 4282134584
-13.3211 766.59448 812.90527 4287197565
-10.65688 766.59448 812.90527 4283848056
-7.0899081 766.74182 810.41357 4280490286
43.42569 766.74182 810.41357 4294834175
46.970642 766.74182 810.41357 4294965759
-13.293577 769.4519 812.69873 4287789977
44.311928 768.09686 811.55615 4294965759
46.970642 768.09686 811.55615 4294834943
-10.601835 772.37683 811.24078 4281875048
-8.8348627 771.70142 810.67126 4279899471
43.585323 772.15167 811.05096 4294834175
46.824768 772.37683 811.24078 4294966015
49.475231 771.70142 810.67126 4294900479
-12.368808 774.40314 812.94934 4284500841
-10.568808 776.64417 810.91479 4280820773
44.036697 776.64417 810.91479 4294965759
46.750458 775.52368 811.93207 4294966015
51.082569 776.64417 810.91479 4294966271
-12.330276 777.99084 812.05029 4285293691
-10.568808 777.99084 812.05029 4284632650
44.036697 777.99084 812.05029 4294966271
46.678898 777.99084 812.05029 4294966271
49.321102 777.99084 812.05029 4294966783
-13.169725 782.91254 812.27612 4280491300
-10.53578 781.57013 811.14417 4283912749
-8.7798166 780.22766 810.01221 4281211413
43.021103 780.89893 810.57819 4294966783
46.533028 782.24133 811.71014 4294967295
49.166973 782.91254 812.27612 4294967295
-12.266055 785.73785 812.04211 4280557093
43.807339 784.39819 810.9126 4294967295
45.559631 784.39819 810.9126 4294967295
-10.480734 789.96521 811.6825 4280689198
40.176147 789.96521 811.6825 4294967295
46.581039 790.18781 811.87012 4294967295
-10.458715 793.44275 811.99866 4281147433
-8.7155962 792.11011 810.875 4280754478
37.477066 792.11011 810.875 4294967295
40.963303 792.77643 811.43683 4294967295
43.57798 792.77643 811.43683 4294967295
46.192661 793.44275 811.99866 4294967295
49.388378 792.55438 811.24951 4294966783
-8.6880732 796.98279 811.05945 4281344037
43.440369 796.98279 811.05945 4294967295
-10.425688 798.31122 812.17944 4281541160
-8.6605501 800.51434 810.11304 4281475366
45.177982 798.31122 812.17944 4294967295
50.390827 798.31122 812.17944 4294967039
-7.7944956 802.50067 811.7879 4281212716
50.231194 802.50067 811.7879 4294967039
-5.1688075 808.13794 810.00085 4281870906
46.519264 808.13794 810.00085 4294967295
48.242203 808.13794 810.00085 4294967295
49.433029 827.16827 812.96643 4294966527
51.989906 827.16827 812.96643 4294966527
54.546787 827.16827 812.96643 4294834175
52.728439 829.90375 812.65698 4294966527
54.429359 829.90375 812.65698 4294966271
50.862385 832.05225 810.54431 4294966527
52.557796 833.34839 811.63721 4294966527
55.948624 833.34839 811.63721 4294967039
50.752293 835.42456 810.77173 4294966783
52.444038 836.07123 811.31702 4294967039
54.13578 835.42456 810.77173 4294967039
11.80367 839.50043 810.2843 4288452243
45.528439 839.50043 810.2843 4294966527
49.744034 839.50043 810.2843 4294966271
53.201836 838.4325 811.34595 4294967039
55.64587 839.50043 810.2843 4294967295
57.332111 839.50043 810.2843 4294966527
-15.176147 842.07874 812.45825 4286599209
-13.489908 841.4342 811.91479 4283313193
-10.96055 842.07874 812.45825 4287522912
-8.4311924 842.07874 812.45825 4288050540
-4.2155962 842.07874 812.45825 4289100669
-1.6862385 842.07874 812.45825 4289030509
0.84311926 841.4342 811.91479 4289747542
3.9345562 841.2193 811.73364 4284825996
7.5880733 840.78961 811.37134 4285361546
10.96055 840.78961 811.37134 4287663477
13.489908 841.4342 811.91479 4286741656
16.019266 841.4342 811.91479 4286675597
19.391743 841.4342 811.91479 4287004302
22.483179 841.64911 812.09595 4288123300
26.136696 842.07874 812.45825 4293651195
28.666056 842.07874 812.45825 4294967295
31.195412 842.07874 812.45825 4294967039
33.72477 842.07874 812.45825 4294966015
40.469727 842.07874 812.45825 4294967295
42.999084 841.4342 811.91479 4294967039
46.371559 841.4342 811.91479 4294966783
49.462994 841.2193 811.73364 4294966271
53.959633 841.4342 811.91479 4294967295
55.64587 841.4342 811.91479 4294967295
58.175228 841.4342 811.91479 4294966783
60.704586 842.07874 812.45825 4294965759
-6.7302752 843.49701 811.03809 4288315263
35.333946 843.49701 811.03809 4294967039
37.857796 843.49701 811.03809 4294967039
-7.1853213 752.83777 815.69434 4281734144
-4.7902141 751.92218 814.92236 4288374326
-1.7963303 751.46442 814.53638 4294029941
-10.744954 757.84644 815.99353 4280884011
-7.1486239 757.98822 813.49695 4280684067
-5.3614678 757.98822 813.49695 4281473584
-12.510092 760.72083 815.80103 4281402373
-10.722936 760.72083 815.80103 4280488486
-8.9357796 759.35455 814.64905 4281015597
-8.9082565 762.9787 813.78076 4280751657
-15.952293 770.80701 813.84119 4287201927
-13.293577 770.80701 813.84119 4285820299
-15.952293 772.16211 814.98376 4288124516
-14.179816 772.16211 814.98376 4288514214
-15.902752 775.75397 814.08838 4287925617
-14.135779 775.75397 814.08838 4288254376
-15.853211 779.33746 813.18579 4284830517
-13.21101 779.33746 813.18579 4285881170
47.559631 779.33746 813.18579 4294967295
49.321102 779.33746 813.18579 4294967295
-15.853211 782.03082 815.45667 4280490286
-14.091743 782.03082 815.45667 4280294177
-12.266055 787.74731 813.73651 4280820519
-15.770642 789.75677 815.43079 4280820521
-13.122936 790.86255 814.40112 4280886309
-16.594496 793.30377 814.49756 4280688935
-13.100918 793.30377 814.49756 4280821023
-10.458715 794.77539 813.12231 4281475366
46.192661 794.77539 813.12231 4294967295
49.678898 794.77539 813.12231 4294967295
52.293579 794.77539 813.12231 4294966527
-16.269114 796.9964 814.99493 4280688683
-13.073395 796.77435 814.80774 4281082664
47.06422 796.10803 814.24597 4294967295
48.807339 796.10803 814.24597 4294967295
52.293579 796.10803 814.24597 4294966271
-10.425688 799.63959 813.29956 4281410605
-8.6880732 800.96802 814.41968 4281147433
46.336395 800.08234 813.67291 4294967295
48.65321 800.30383 813.85962 4294967039
-8.6880732 802.29645 815.53979 4280820521
-6.9284406 804.487 813.46265 4281344562
-18.609175 839.95129 814.58862 4287970099
-16.917431 839.95129 814.58862 4286533160
1.6917431 839.95129 814.58862 4289878346
5.0752292 839.95129 814.58862 4282781526
7.612844 839.95129 814.58862 4283514963
10.99633 839.95129 814.58862 4284111436
50.752293 839.95129 814.58862 4294967039
52.444038 839.30463 814.04333 4294967039
-15.225688 841.24463 815.67908 4289499242
-13.533945 841.24463 815.67908 4289828236
-11.842202 841.24463 815.67908 4290091409
1.6917431 841.24463 815.67908 4290218894
4.2293577 841.24463 815.67908 4285809805
7.612844 841.24463 815.67908 4283445829
10.99633 841.24463 815.67908 4284697915
13.533945 841.24463 815.67908 4283981143
16.07156 841.24463 815.67908 4286283398
19.455046 841.24463 815.67908 4287597726
22.838531 841.24463 815.67908 4288189090
27.06789 841.24463 815.67908 4293187327
30.451376 841.24463 815.67908 4294967295
43.13945 841.24463 815.67908 4294967039
46.522934 841.24463 815.67908 4294967295
49.906422 841.24463 815.67908 4294967039
52.444038 841.24463 815.67908 4294966783
54.981651 841.24463 815.67908 4294967295
57.519264 841.24463 815.67908 4294967295
60.902752 841.24463 815.67908 4294967295
-10.117432 843.36786 813.54529 4290354317
-7.5880733 843.36786 813.54529 4290683800
-4.2155962 843.36786 813.54529 4290814877
-1.6862385 843.36786 813.54529 4291274145
0 843.36786 813.54529 4291074203
25.293577 843.36786 813.54529 4292202724
28.666056 843.36786 813.54529 4294967039
32.038532 843.36786 813.54529 4294967295
34.56789 843.36786 813.54529 4294967039
37.940369 843.36786 813.54529 4294967039
40.469727 843.36786 813.54529 4294967295
59.018349 843.36786 813.54529 4294967295
-9.0091743 751.94476 818.86548 4280752430
-15.853211 784.72412 817.72766 4280820521
-14.091743 784.05078 817.15991 4280820518
-17.46789 797.31006 817.87549 4280754728
-15.688073 799.43958 817.05499 4280622889
-13.073395 799.43958 817.05493 4280885287
-10.458715 799.43958 817.05499 4281213996
-15.688073 801.43854 818.74048 4280621089
-13.054129 802.53174 817.70013 4280295460
-10.425688 803.62488 816.65979 4280820521
-15.638532 804.95331 817.77991 4282784297
-13.900917 804.95331 817.77991 4282457385
-18.649542 839.82916 817.10168 4289295242
-16.954128 839.82916 817.10168 4288841568
-18.649542 841.12531 818.19458 4292724421
-16.089909 841.83167 817.48212 4292660163
-13.563303 841.12531 818.19458 4292790727
-10.99633 842.53802 816.76965 4293250514
-7.612844 842.53802 816.76965 4293382615
-4.2293577 842.53802 816.76965 4292726221
-1.6917431 842.53802 816.76965 4292529610
0.84770644 841.83167 817.48212 4292726483
4.2348623 841.83167 817.48212 4293120214
7.6293578 841.12531 818.19458 4292789716
10.99633 842.53802 816.76965 4290552754
13.533945 842.53802 816.76965 4284707462
16.07156 842.53802 816.76965 4285166472
19.455046 842.53802 816.76965 4287334814
22.838531 842.53802 816.76965 4287661727
25.376146 842.53802 816.76965 4291608797
27.913761 842.53802 816.76965 4293781751
31.297249 842.53802 816.76965 4294967039
34.680733 842.53802 816.76965 4294966015
38.06422 842.53802 816.76965 4294966527
40.601833 842.53802 816.76965 4294966015
43.13945 842.53802 816.76965 4294967039
46.522934 842.53802 816.76965 4294967295
49.906422 842.53802 816.76965 4294967295
52.444038 842.53802 816.76965 4294967295
54.981651 842.53802 816.76965 4294967295
58.365135 842.53802 816.76965 4294967039
61.748623 842.53802 816.76965 4294967295
-3.3834863 843.83136 817.86011 4292200909
22.838531 843.83136 817.86011 4286874529
25.376146 843.83136 817.86011 4289703119
28.759632 843.83136 817.86011 4294967295
31.297249 843.83136 817.86011 4294967295
47.368809 843.83136 817.86011 4294967295
49.906422 843.83136 817.86011 4294967295
54.981651 843.83136 817.86011 4294967295
-12.612844 753.32227 820.02698 4279769112
-22.111927 838.35614 819.78381 4290936438
-20.411009 838.35614 819.78381 4290088601
-22.962385 840.3067 821.42847 4293709755
-19.560551 840.3067 821.42847 4293711572
-16.106422 842.42151 819.28735 4292922834
-13.563303 842.42151 819.28735 4292725704
-11.03945 841.36414 820.35791 4293514976
-7.6293578 842.42151 819.28735 4293449191
-5.0862384 842.42151 819.28735 4292397268
-1.6954129 842.42151 819.28735 4292069067
0.85045874 841.36414 820.35791 4292725457
4.246789 841.36414 820.35791 4292989144
7.640367 841.36414 820.35791 4293120996
11.020184 842.42151 819.28735 4292264399
13.563303 842.42151 819.28735 4288840657
16.106422 842.42151 819.28735 4287395753
19.497248 842.42151 819.28735 4287268251
27.126606 842.42151 819.28735 4291544538
34.755962 842.42151 819.28735 4294967039
38.14679 842.42151 819.28735 4294967039
40.689907 842.42151 819.28735 4294967039
43.233028 842.42151 819.28735 4294967295
45.776146 842.42151 819.28735 4294967295
52.557796 842.42151 819.28735 4294967295
58.491745 842.42151 819.28735 4294967295
62.083488 840.3067 821.42847 4294967295
-3.3908257 843.71765 820.38025 4290884797
13.563303 843.71765 820.38025 4293710564
16.106422 843.71765 820.38025 4293448672
19.214678 844.14972 820.74457 4291215307
22.888073 844.36572 820.92676 4286743709
25.431192 844.36572 820.9267 4287928484
27.974312 843.71765 820.38025 4292992746
31.365139 843.71765 820.38025 4294967295
34.755962 843.71765 820.38025 4294967295
38.994495 843.71765 820.38025 4294967295
40.689907 843.71765 820.38025 4294966015
43.233028 843.71765 820.38025 4294966527
46.623856 843.71765 820.38025 4294966527
50.014679 843.71765 820.38025 4294967295
52.557796 843.71765 820.38025 4294967295
-25.513762 841.60706 822.5249 4292792267
-22.988073 840.9035 823.23969 4293120464
-19.560551 841.60706 822.5249 4293445593
-16.158716 842.25726 823.07312 4292394184
-13.60734 842.2572 823.07312 4291999690
-11.055963 842.2572 823.07312 4291999428
-7.6541281 842.25726 823.07312 4291803071
-4.53578 842.47394 823.25586 4291014327
-1.7009175 842.2572 823.07312 4292462289
0.5681957 841.57147 823.36688 4293512669
4.2522936 841.60706 822.5249 4292134866
7.6541286 841.60706 822.5249 4290953418
11.33945 842.04053 822.89038 4292002004
13.60734 842.90741 823.62134 4293120203
16.158716 842.90741 823.62134 4293843931
20.411009 842.90741 823.62134 4291015654
28.065138 842.90741 823.62134 4292203237
31.466972 842.90741 823.62134 4294967295
34.868805 842.90741 823.62134 4294967295
37.420185 842.2572 823.07312 4294967039
39.971558 842.90741 823.62134 4294967039
43.373394 842.90741 823.62134 4294967295
46.77523 842.90741 823.62134 4294966783
49.326607 842.90741 823.62134 4294967295
51.877983 842.90741 823.62134 4294967295
55.279816 842.2572 823.07312 4294967295
58.681648 841.60706 822.5249 4294967295
61.365139 840.19995 823.95447 4294967295
63.852295 840.9035 823.23969 4294966783
13.60734 844.20776 824.71777 4290552232
16.158716 844.20776 824.71777 4291803070
19.560551 844.20776 824.71777 4293449439
22.962385 844.20776 824.71777 4293780459
25.513762 844.20776 824.71777 4289636013
-25.568808 841.50317 825.05322 4292726738
-22.727829 841.93756 825.41949 4292858579
-19.602753 842.15479 825.60266 4292131543
-16.193579 842.80634 826.1521 4291667121
-13.636697 842.80634 826.1521 4291467433
-11.079817 842.80634 826.1521 4289555574
-7.6706419 842.80634 826.1521 4290080881
-4.2614679 842.80634 826.1521 4291994023
-1.7045871 842.80634 826.1521 4292128188
0.85229355 842.15479 825.60266 4292649397
4.2614679 842.15479 825.60266 4291403686
7.6706419 842.15472 825.60266 4291409071
10.795718 842.37201 825.78583 4291475903
28.125687 842.80634 826.1521 4291411658
31.534863 842.80634 826.1521 4294967295
34.944038 842.80634 826.1521 4294967295
37.500916 842.80634 826.1521 4294967295
40.0578 842.80634 826.1521 4294967295
43.466972 842.80634 826.1521 4294967295
46.876144 842.80634 826.1521 4294966271
49.433029 842.80634 826.1521 4294966783
51.989906 842.80634 826.1521 4294967039
55.399082 842.80634 826.1521 4294967295
58.808258 842.15479 825.60266 4294967295
61.365139 842.15479 825.60266 4294967295
63.92202 842.15472 825.60266 4294967039
66.478897 842.80634 826.1521 4294967295
-18.750458 844.1095 827.25085 4290948798
-16.193579 844.1095 827.25085 4291472823
-13.636697 844.1095 827.25085 4290675613
-11.079817 844.1095 827.25085 4289884543
-7.6706419 844.1095 827.25085 4290872191
-4.2614679 844.1095 827.25085 4292325033
-1.7045871 844.1095 827.25085 4292656831
0 844.1095 827.25085 4290085539
11.93211 844.1095 827.25085 4290555025
13.636697 844.1095 827.25085 4290554017
16.193579 844.1095 827.25085 4291013552
19.602753 844.1095 827.25085 4293250003
23.011927 844.1095 827.25085 4294435057
25.568808 844.1095 827.25085 4292330210
28.125687 844.1095 827.25085 4292595919
31.534863 844.1095 827.25085 4294967295
34.944038 844.1095 827.25085 4294967295
52.842201 844.1095 827.25085 4294967295
55.399082 844.1095 827.25085 4294967295
58.808258 844.1095 827.25085 4294967295
61.365139 844.1095 827.25085 4294967295
63.069725 844.1095 827.25085 4294967295
-27.420183 839.30273 829.73804 4293055451
-27.420183 840.61292 830.84277 4292595933
-25.6789 840.65857 829.57324 4292200658
-23.371254 841.57574 829.03857 4292069836
-20.521101 842.01154 829.40601 4292067022
1.7100917 841.35785 828.85486 4290476691
4.2752295 842.01154 829.40601 4290088076
7.6954126 842.01154 829.40601 4291276223
10.26055 842.01154 829.40601 4291607714
37.622017 842.01154 829.40601 4294967295
40.187157 842.01154 829.40601 4294967295
43.607338 842.01154 829.40601 4294967295
47.027523 842.01154 829.40601 4294966783
49.592659 842.01154 829.40601 4294967295
51.302753 842.01154 829.40601 4294967295
64.98349 842.01154 829.40601 4294967295
66.693581 842.01154 829.40601 4294967295
-22.231194 843.31891 830.50842 4292069839
-19.63578 844.36578 829.42908 4292331984
-16.218349 844.36578 829.42908 4291409596
-13.680734 843.31891 830.50842 4290477696
-11.115597 843.31891 830.50842 4291068549
-7.6954126 843.31891 830.50842 4291529865
-4.2697248 844.36578 829.42908 4293970382
-1.7100917 843.31891 830.50842 4293317092
0 845.41266 828.34973 4292726738
4.2752295 843.31891 830.50842 4291213501
7.6954126 843.31891 830.50842 4291672255
11.115597 843.31891 830.50842 4292001981
13.680734 843.31891 830.50842 4291081397
16.221102 844.36578 829.42908 4288312713
19.63578 844.36578 829.42908 4290478240
23.011927 845.41266 828.34973 4289294718
25.651377 843.31891 830.50842 4294426818
28.216515 843.31891 830.50842 4294174435
31.636698 843.31891 830.50842 4294966271
35.056881 843.31891 830.50842 4294967039
37.622017 843.31891 830.50842 4294966783
47.027523 843.31891 830.50842 4294966783
49.592659 843.31891 830.50842 4294967295
52.157799 843.31891 830.50842 4294967295
55.57798 843.31891 830.50842 4294966527
58.998165 843.31891 830.50842 4294967295
61.563301 843.31891 830.50842 4294967295
64.128441 843.31891 830.50842 4294967295
66.693581 843.31891 830.50842 4294967295
-27.420183 841.9231 831.94751 4291545303
-25.706423 841.9231 831.94751 4291413973
-23.992661 841.9231 831.94751 4291806666
1.7137614 841.9231 831.94751 4291937221
40.273396 841.9231 831.94751 4294967295
43.700916 841.9231 831.94751 4294967295
-25.706423 843.23328 833.05212 4291938001
-23.13578 843.23328 833.05212 4291938001
-19.688072 843.92981 832.33142 4292331728
-16.262386 843.92981 832.33142 4291343549
-13.710092 843.23328 833.05212 4290149517
-11.13945 843.23328 833.05212 4290871697
-7.704587 843.92981 832.33142 4291464079
-4.2807341 843.92981 832.33142 4294166992
-1.7137614 843.23328 833.05212 4293841382
0 843.23328 833.05212 4292988642
3.4275229 843.23328 833.05212 4291872207
8.5688076 843.23328 833.05212 4290753209
11.13945 843.23328 833.05212 4292001981
13.680734 844.62628 831.61072 4291279553
16.245872 844.62628 831.61072 4287789971
19.666054 844.62628 831.61072 4288969633
23.086239 844.62628 831.61072 4286930547
25.651377 844.62628 831.61072 4293577170
28.277065 843.23328 833.05212 4294043637
31.669725 843.92981 832.33142 4294966527
35.132111 843.23328 833.05212 4294967295
37.702751 843.23328 833.05212 4294967295
47.128441 843.23328 833.05212 4294967295
49.699081 843.23328 833.05212 4294967295
52.212845 843.92981 832.33142 4294967295
55.57798 844.62628 831.61072 4294967039
59.062386 843.92981 832.33142 4294967295
61.563301 844.62628 831.61072 4294967295
64.266052 843.23328 833.05212 4294967039
66.8367 843.23328 833.05212 4294967039
-30.946789 842.45813 836.32275 4292200407
-28.367889 841.8009 835.76862 4292134356
-24.929358 842.45813 836.32275 4292134354
-16.333027 842.45813 836.32275 4292330447
-12.894495 842.45813 836.32275 4291533993
-10.315597 842.45813 836.32275 4291724425
-7.7366972 842.45813 836.32275 4291660940
-4.2981653 842.45813 836.32275 4292784570
-1.7192661 842.45813 836.32275 4290484913
0.85963303 841.8009 835.76862 4291605435
4.2981653 841.8009 835.76862 4290622399
7.7366972 841.8009 835.76862 4289702065
10.315597 842.45813 836.32275 4289766568
12.034863 842.45813 836.32275 4291411393
28.367889 842.45813 836.32275 4292793057
32.666054 842.45813 836.32275 4294967295
34.385323 842.45813 836.32275 4294967295
36.964218 842.45813 836.32275 4294967295
40.402752 841.14374 835.21448 4294967295
44.127827 841.58185 835.58392 4294966783
46.420185 842.45813 836.32275 4294966527
48.13945 842.45813 836.32275 4294967295
65.332108 842.45813 836.32275 4294965759
67.051376 842.45813 836.32275 4294966783
-22.278898 844.54346 834.15686 4292134610
-19.708256 844.54346 834.15686 4292266198
13.710092 844.54346 834.15686 4291148737
16.280735 844.54346 834.15686 4288447119
19.708256 844.54346 834.15686 4292854999
23.13578 844.54346 834.15686 4292925404
25.706423 844.54346 834.15686 4291676350
30.847706 844.54346 834.15686 4294966271
49.699081 844.54346 834.15686 4294967295
52.555355 844.98016 834.52509 4294966271
55.697247 845.19855 834.70923 4294966271
59.124771 844.54346 834.15686 4294967295
61.695412 844.54346 834.15686 4294966527
63.409176 844.54346 834.15686 4294966527
-31.012844 842.38507 838.8772 4292265685
-28.42844 842.38507 838.8772 4292134099
-16.367889 842.38507 838.8772 4292528591
-12.922018 842.38507 838.8772 4291668657
-10.337615 842.38507 838.8772 4291330432
-8.6146793 842.38507 838.8772 4291922825
-5.1688075 842.38507 838.8772 4293439919
1.7229358 841.72644 838.3219 4291802783
4.5944958 841.94598 838.50702 4290358966
7.4660549 841.94598 838.50702 4289372852
10.337615 842.38507 838.8772 4290225318
32.735779 842.38507 838.8772 4294967295
34.458717 842.38507 838.8772 4294967295
37.043121 842.38507 838.8772 4294967295
40.488991 841.72644 838.3219 4294967295
43.647705 841.94598 838.50702 4294966527
67.194496 842.38507 838.8772 4294967295
-28.42844 843.70227 839.98779 4292265683
-24.955963 843.73737 838.70947 4291937232
-22.350458 844.42969 837.98517 4292069331
-19.781652 844.08356 838.34729 4292200661
-16.367889 843.70227 839.98779 4292200144
-12.922018 843.70227 839.98779 4291537855
-10.337615 843.70227 839.98779 4291068550
-7.4611621 843.72577 839.13556 4291399566
-4.0177369 843.72577 839.13556 4291667120
-1.7211009 843.73743 838.70941 4288773779
0 843.73743 838.70941 4289631844
8.6146793 843.70227 839.98779 4290356918
10.337615 843.70227 839.98779 4291277749
12.908257 843.73737 838.70947 4292067269
16.350458 843.73743 838.70947 4291607739
19.792662 843.73743 838.70941 4291805124
22.374311 843.73743 838.70941 4293910515
24.955963 843.73743 838.70941 4292398060
28.398165 843.73743 838.70941 4291016636
31.565138 843.72577 839.13556 4293386474
34.458717 843.70227 839.98779 4294967295
44.796329 843.70227 839.98779 4294966015
46.469727 843.73743 838.70941 4294966783
49.024773 844.0835 838.34729 4294966527
52.187763 844.18726 838.65265 4294966783
55.876144 845.08691 838.53931 4294967039
58.455048 844.42969 837.98517 4294966783
61.099083 843.73737 838.70947 4294967295
64.541283 843.73737 838.70947 4294967039
68.055969 843.70227 839.98779 4294966527
-31.111927 841.62537 842.16064 4291476164
1.7284404 841.62537 842.16064 4291802233
4.3211012 841.62537 842.16064 4290685885
6.9137616 841.62537 842.16064 4290094002
37.161469 841.62537 842.16064 4294966271
40.618347 841.62537 842.16064 4294967039
43.21101 841.62537 842.16064 4294966015
-28.42844 845.01947 841.09851 4292397520
-24.982569 845.01947 841.09851 4292331985
-22.398165 845.01947 841.09851 4292069067
-19.813763 845.01947 841.09851 4292002510
18.952293 845.01947 841.09851 4290358423
22.398165 845.01947 841.09851 4293778399
49.103668 845.01947 841.09851 4294967039
52.549541 845.01947 841.09851 4294966783
55.995415 845.01947 841.09851 4294967295
58.579815 845.01947 841.09851 4294967295
61.164223 845.01947 841.09851 4294967295
64.610092 845.01947 841.09851 4294966783
68.055969 845.01947 841.09851 4294966271
-28.42844 846.33667 842.20911 4290882989
-24.982569 846.33667 842.20911 4292791507
-22.398165 846.33667 842.20911 4292134353
-20.67523 846.33667 842.20911 4291804364
-31.111927 842.94678 843.2749 4291279292
-16.14312 842.92755 844.13068 4292330960
-13.261162 842.92755 844.13068 4291931064
-10.381651 842.91797 844.55865 4290672763
-7.7862387 842.91797 844.55865 4291728013
-4.3256879 842.91797 844.55865 4292655031
-1.7302753 842.91797 844.55865 4290486447
0.57737005 842.46698 844.61444 4290751635
4.3302751 841.56494 844.72583 4291079098
8.0770645 842.46698 844.61444 4291933630
10.381651 842.91797 844.55865 4293120215
12.977064 842.91797 844.55859 4292923356
16.14312 842.92755 844.13068 4291542724
20.741285 842.94678 843.2749 4289896355
25.062386 842.94678 843.2749 4292529394
28.519266 842.94678 843.2749 4290358703
32.010094 842.91797 844.55859 4292200912
34.605503 842.91797 844.55865 4294373626
37.20092 842.91797 844.55859 4294967295
40.661469 842.91797 844.55859 4294966783
43.817738 842.92755 844.13068 4294966527
45.851376 842.91797 844.55865 4294967039
-25.062386 845.5896 845.50317 4292463307
-22.469725 845.5896 845.50317 4292528856
-19.877064 844.92889 844.94611 4292396756
-17.284403 844.26819 844.38904 4292396757
-12.099083 844.26819 844.38904 4290285219
17.284403 844.26819 844.38904 4291017401
19.877064 844.26819 844.38904 4290160541
22.469725 844.26819 844.38904 4293251519
25.062386 844.26819 844.38904 4292725746
28.519266 844.26819 844.38904 4291146397
46.667889 844.26819 844.38904 4294967295
49.260551 844.26819 844.38904 4294967295
52.71743 844.26819 844.38904 4294966271
55.310093 844.26819 844.38904 4294967295
57.902752 844.26819 844.38904 4294967295
61.359634 844.26819 844.38904 4294967295
65.104584 844.70868 844.76044 4294966527
67.409172 844.26819 844.38904 4294966527
69.137611 844.26819 844.38904 4294967039
-28.42844 847.65387 843.3197 4287794299
1.7376146 840.82068 848.02234 4291607221
4.3440366 840.82068 848.02234 4291078578
6.9504585 840.82068 848.02234 4291866286
-25.115597 845.5376 848.07544 4288121739
-22.517431 845.5376 848.07544 4292393410
-19.919266 844.87549 847.51721 4292264908
-16.455046 844.21338 846.95898 4292330714
-12.990826 844.21338 846.95898 4291074980
17.3211 844.21338 846.95898 4292136149
19.919266 844.21338 846.95898 4291806657
22.517431 844.21338 846.95898 4292792767
25.115597 844.21338 846.95898 4292659675
28.579817 844.21338 846.95898 4291476907
46.766972 844.21338 846.95898 4294967039
49.365139 844.21338 846.95898 4294967295
52.829357 844.21338 846.95898 4294966783
55.427525 844.21338 846.95898 4294967295
58.025688 844.21338 846.95898 4294967295
61.489906 844.21338 846.95898 4294967295
64.954132 844.87549 847.51721 4294967039
-10.425688 842.14911 849.14246 4290414951
-7.8192658 842.14911 849.14246 4291799187
-4.3440366 842.14911 849.14246 4293315791
-1.7376146 842.14911 849.14246 4292921816
0.87155962 841.11694 850.23419 4292067538
4.3440366 842.14911 849.14246 4291738809
7.8192658 842.14911 849.14246 4292922565
10.425688 842.14911 849.14246 4293647592
13.03211 842.14911 849.14246 4292858332
15.638532 842.14911 849.14246 4292068817
31.277063 842.14911 849.14246 4290557102
33.883484 842.14911 849.14246 4291740626
37.358719 842.14911 849.14246 4294967295
40.833946 842.14911 849.14246 4294966783
43.440369 842.14911 849.14246 4294966783
45.177982 842.14911 849.14246 4294966783
-27.801834 843.47754 850.26257 4278190080
-25.195412 844.80591 851.38269 4286872436
-22.588991 844.80591 851.38269 4291607727
-19.982569 844.14172 850.82263 4292068028
-16.217737 843.92035 850.63593 4291672011
-12.742508 843.92035 850.63593 4291273372
-10.425688 843.47754 850.26257 4292196267
-7.8192658 843.47754 850.26257 4292790467
-4.3440366 843.47754 850.26257 4292264896
-1.7376146 843.47754 850.26257 4293053122
0 843.47754 850.26257 4293383398
17.376146 843.47754 850.26257 4292990689
19.982569 843.47754 850.26257 4292266702
22.588991 843.47754 850.26257 4292266439
28.670643 843.47754 850.26257 4291609789
46.915596 843.47754 850.26257 4294966783
49.522018 843.47754 850.26257 4294966527
52.997246 843.47754 850.26257 4294966527
55.603668 843.47754 850.26257 4294966271
58.210091 843.47754 850.26257 4294967295
61.685318 843.47754 850.26257 4294967295
64.29174 843.47754 850.26257 4294967295
-19.174313 842.75006 853.57324 4292134069
-17.431192 842.75006 853.57324 4292527319
-13.944954 842.75006 853.57324 4290879375
-10.458715 842.75006 853.57324 4293053134
-7.8440366 842.75006 853.57324 4292987093
-4.3577981 842.75006 853.57324 4291144096
-1.7431192 842.75006 853.57324 4293183388
0.87155962 842.08374 853.01141 4292395989
4.3577981 841.41742 852.44958 4292004046
7.8440366 841.41742 852.44958 4292530894
10.458715 841.41742 852.44958 4293254631
13.073395 841.41742 852.44958 4293056740
16.559633 842.08374 853.01141 4292923358
20.045872 842.75006 853.57324 4292921815
22.660551 842.75006 853.57324 4292395469
25.27523 842.08374 853.01141 4292133329
28.761467 842.75006 853.57324 4292462800
31.376146 841.41742 852.44958 4289570454
33.990826 841.41742 852.44958 4290886329
37.477066 842.08374 853.01147 4294966783
40.672783 841.86163 852.82416 4294967039
43.57798 841.41742 852.44958 4294967295
45.902142 842.30585 853.19873 4294967039
49.678898 842.75006 853.57324 4294967039
52.293579 842.75006 853.57324 4294966527
54.908257 842.75006 853.57324 4294965759
58.394493 842.75006 853.57324 4294967295
61.880733 842.75006 853.57324 4294967295
64.495415 842.75006 853.57324 4294967295
-25.27523 844.0827 854.6969 4288578141
-22.660551 844.0827 854.6969 4292788419
-20.045872 844.0827 854.6969 4292331462
-16.559633 844.0827 854.6969 4292265435
-13.073395 844.0827 854.6969 4292264124
58.394493 844.0827 854.6969 4294966783
61.880733 844.0827 854.6969 4294967039
64.495415 844.0827 854.6969 4294967295
-10.480734 842.7149 856.15967 4293581026
-7.8605504 842.7149 856.15967 4292856277
-4.3669724 842.7149 856.15967 4291603107
-1.746789 842.7149 856.15967 4292720539
0.87339449 842.04718 855.59668 4291999942
4.3669724 842.04718 855.59668 4291344064
7.5694184 841.82465 855.409 4292004045
10.480734 841.37946 855.03369 4292794843
13.100918 841.37946 855.03369 4292004307
16.594496 842.04718 855.59668 4290683324
28.822018 842.7149 856.15967 4292921554
31.442202 842.04718 855.59668 4291936958
34.062386 842.04718 855.59668 4290951097
37.555962 842.7149 856.15967 4294702844
41.340672 842.26978 855.78436 4294966783
43.669724 841.37946 855.03369 4294967295
46.289909 842.7149 856.15967 4294967039
49.783485 842.7149 856.15967 4294967039
52.403671 842.7149 856.15967 4294966015
55.023853 842.7149 856.15967 4294965759
-22.708258 844.05029 857.28564 4293509617
-20.088074 844.05029 857.28564 4293184978
-16.594496 844.05029 857.28564 4293578213
-13.100918 844.05029 857.28564 4293314772
-10.480734 844.05029 857.28564 4293777122
50.656879 844.05029 857.28564 4294967295
52.403671 844.05029 857.28564 4294966527
55.023853 844.05029 857.28564 4294967039
58.517433 844.05029 857.28564 4294967039
62.011009 844.05029 857.28564 4294966527
-24.53211 842.00287 859.4834 4290680518
-7.8853211 842.00287 859.4834 4293316566
-4.380734 842.00287 859.4834 4291079077
-1.7522936 842.00287 859.4834 4291736229
1.1694189 841.10132 859.59528 4291670969
4.3899083 840.63788 860.94861 4291279024
8.1883793 840.6463 860.08368 4292331219
10.524771 840.65051 859.65125 4291544269
13.155964 840.65051 859.65125 4287791250
16.377981 840.6463 860.08368 4287588493
19.295412 840.65051 859.65125 4289098401
21.926605 840.65051 859.65125 4291993801
25.434862 840.65057 859.65125 4292462030
28.944036 841.32037 860.216 4292988629
31.541285 842.00287 859.4834 4292462561
34.169724 842.00287 859.4834 4290950344
37.674309 842.00287 859.4834 4294504697
40.302753 842.00287 859.4834 4294967295
43.22324 841.55634 859.10693 4294967295
46.43578 842.00287 859.4834 4294967039
49.06422 842.00287 859.4834 4294967295
-21.903669 843.34247 860.61292 4292983489
-19.275229 843.34247 860.61292 4292064442
-16.64679 843.34247 860.61292 4292848066
-13.142202 843.34247 860.61292 4292456111
-10.513762 843.34247 860.61292 4292920534
-1.7522936 843.34247 860.61292 4292396742
0 843.34247 860.61292 4291214784
46.43578 843.34247 860.61292 4294769149
49.940369 843.34247 860.61292 4294967039
52.403671 845.38574 858.41162 4294767615
55.023853 845.38574 858.41162 4294966015
58.517433 845.38574 858.41162 4294966015
62.011009 845.38574 858.41162 4294899711
55.897247 847.38892 860.10071 4294966783
58.517433 847.38892 860.10071 4294966527
61.137615 846.72119 859.53772 4294967295
-24.583487 841.98029 862.08044 4293047228
-7.901835 841.98029 862.08044 4293381849
-4.3899083 841.98029 862.08044 4292922831
28.973394 841.98029 862.08044 4292923099
31.60734 841.98029 862.08044 4291938003
34.241287 841.98029 862.08044 4290819264
37.753212 841.98029 862.08044 4294701562
40.387157 841.98029 862.08044 4294967295
43.021103 841.98029 862.08044 4294966783
-21.949541 843.32275 863.2124 4292193203
-19.315596 843.32275 863.2124 4291862198
-16.681652 843.32275 863.2124 4292779947
-13.169725 843.32275 863.2124 4292651425
-10.53578 843.32275 863.2124 4292856270
-7.901835 843.32275 863.2124 4292790220
-4.3899083 843.32275 863.2124 4292790225
-1.7559633 843.32275 863.2124 4292658900
0 843.32275 863.2124 4292134850
35.119267 843.32275 863.2124 4291148485
37.753212 843.32275 863.2124 4294636794
40.387157 843.32275 863.2124 4294967295
43.021103 843.32275 863.2124 4294966527
46.533028 843.32275 863.2124 4294966783
49.991745 844.00244 862.47742 4294967039
52.568806 844.68213 861.74243 4294964991
54.321102 844.68213 861.74243 4294964991
52.568806 846.02179 862.87207 4294966783
54.321102 846.02179 862.87207 4294966783
-26.422018 839.93707 864.28174 4291866788
1.7614679 839.93707 864.28174 4291411906
4.4036698 839.93707 864.28174 4291673788
7.9266057 839.93707 864.28174 4292660181
10.568808 839.93707 864.28174 4293054169
13.21101 839.93707 864.28174 4292789712
16.733946 839.93707 864.28174 4291472830
19.376146 839.93707 864.28174 4286669948
22.018349 839.93707 864.28174 4290680475
25.541285 839.93707 864.28174 4292790482
-24.660551 841.95703 865.98492 4292525242
-13.21101 842.63037 866.55261 4292977056
-10.568808 842.63037 866.55261 4292987863
-7.9266057 842.63037 866.55261 4290418335
-4.4036698 842.63037 866.55261 4290679964
1.7614679 841.95703 865.98492 4291673534
4.4036698 841.95703 865.98499 4292067523
7.9266057 841.28369 865.41724 4292331473
10.568808 841.28369 865.41724 4292267736
22.899082 841.28369 865.41724 4294035184
25.541285 841.28369 865.41724 4292594386
29.06422 841.95703 865.98492 4291345864
31.706423 841.95703 865.98492 4290226083
34.05505 842.18146 866.17413 4291015859
37.871559 842.63037 866.55261 4294702583
40.51376 842.63037 866.55261 4294967295
43.155964 842.63037 866.55261 4294967039
46.678898 842.63037 866.55261 4294967039
49.321102 842.63037 866.55261 4294967039
-21.949541 844.66522 864.34436 4292259768
-19.315596 844.66522 864.34436 4290677145
-16.681652 844.66522 864.34436 4292640664
-1.7559633 844.66522 864.34436 4291603126
0 844.66522 864.34436 4291212217
50.922935 844.66522 864.34436 4294967039
52.678898 846.00763 865.4762 4294966783
55.225689 847.69348 864.93555 4294966783
57.825687 848.03125 864.56635 4294966015
56.073395 850.04071 866.26074 4294967295
-26.587156 837.20563 869.82678 4292129733
13.252294 839.24469 867.62207 4292857305
16.78624 839.24469 867.62207 4292786386
19.436697 839.24469 867.62207 4288441491
21.203671 839.24469 867.62207 4289232038
1.7669724 841.94641 869.90002 4290686641
4.4174314 841.94641 869.90002 4291671746
7.951376 841.271 869.33044 4289239965
