# .PCD v0.7 - Point Cloud Data file format
VERSION 0.7
FIELDS x y z rgb
SIZE 4 4 4 4
TYPE F F F U
COUNT 1 1 1 1
WIDTH 1153
HEIGHT 1
VIEWPOINT 0 0 0 1 0 0 0
POINTS 1153
DATA ascii
-9.6220188 775.58368 1269.1392 4282409166
-7.2165136 775.58368 1269.1392 4291422719
-4.8110094 775.58368 1269.1392 4294967295
-2.4055047 775.58368 1269.1392 4294967295
-2.4055047 777.42273 1270.6898 4294967295
-9.6954126 764.54633 1272.913 4294967295
-7.2715597 764.54633 1272.913 4294967295
-4.8477063 764.54633 1272.913 4294901759
-12.027523 779.26178 1272.2404 4294967295
-12.119267 769.17896 1276.8191 4279450433
-7.0073395 842.82983 1276.1342 4293126911
-18.686239 844.61554 1277.6399 4284311984
-16.350458 844.61554 1277.6399 4285496001
-14.014679 844.61554 1277.6399 4287798241
-9.3431196 844.61554 1277.6399 4293521919
-7.0073395 844.61554 1277.6399 4293127167
-9.7761469 756.60547 1280.6058 4294967295
-7.3321099 756.60547 1280.6058 4294967295
-12.174312 763.09564 1279.538 4293127935
-14.543119 772.88513 1279.9441 4292070883
-9.6587152 778.38275 1278.0393 4294639615
-7.2440367 778.38275 1278.0393 4294573823
-4.8293576 778.38275 1278.0393 4294377215
-2.4146788 778.38275 1278.0393 4294705151
-9.6587152 780.22882 1279.5958 4294574079
-7.2440367 780.22882 1279.5958 4294443007
-18.744955 840.78436 1279.6416 4284115382
-16.401834 840.78436 1279.6416 4286220757
-14.058716 840.78436 1279.6416 4287998196
-9.3724775 840.78436 1279.6416 4293653247
-18.686239 846.40125 1279.1455 4284705967
-16.350458 846.40125 1279.1455 4285364154
-14.014679 846.40125 1279.1455 4286484947
-10.511009 846.40125 1279.1455 4293194495
-7.0073395 847.29413 1279.8983 4293390591
-13.442202 758.474 1282.1813 4293911798
-14.66422 760.34247 1283.7567 4287864520
-14.609175 764.95709 1281.1075 4278196799
-17.044037 766.8186 1282.6771 4284439916
-14.609175 766.8186 1282.6771 4281422650
-12.119267 775.66467 1282.2877 4294967295
-12.119267 777.5177 1283.8501 4294967295
-4.8477063 777.5177 1283.8501 4294377471
-2.4238532 777.5177 1283.8501 4294639615
1.2119266 777.5177 1283.8501 4294836223
-9.6587152 782.07483 1281.1523 4294311935
-4.8293576 782.07483 1281.1523 4294311935
-2.4146788 783.9209 1282.709 4294705151
-19.097248 808.43701 1283.7599 4283401192
-40.144955 830.25482 1283.8436 4285756066
-37.783485 830.25482 1283.8436 4285821080
-18.818348 836.42932 1282.5096 4283262374
-14.113762 836.42932 1282.5096 4288917755
-22.259632 842.57568 1281.1521 4283722920
-11.715596 842.57568 1281.1521 4293259007
-22.259632 844.36707 1282.6625 4283918503
-22.078899 755.71381 1286.3942 4283122813
-19.625689 755.71381 1286.3942 4280366741
-17.172478 755.71381 1286.3942 4285169630
-31.772476 764.07947 1286.9076 4285693155
-29.32844 763.1452 1286.1199 4284903876
-25.662384 764.07947 1286.9076 4286020559
-21.99633 763.1452 1286.1199 4287857885
-19.552294 763.1452 1286.1199 4285161579
-17.108257 762.21094 1285.3322 4284238418
-17.044037 769.61078 1285.0314 4288847020
-12.119267 779.37079 1285.4126 4294574079
-7.2715597 779.37079 1285.4126 4294180863
-2.4238532 779.37079 1285.4126 4294443007
1.2119266 779.37079 1285.4126 4294508543
-12.119267 781.22388 1286.9751 4294836223
-9.6954126 781.22388 1286.9751 4294836223
-7.2715597 781.22388 1286.9751 4294639615
-4.8477063 781.22388 1286.9751 4294705151
1.2119266 781.22388 1286.9751 4294639615
-4.8293576 787.61298 1285.822 4294770687
-31.271559 795.81299 1286.196 4292921343
-28.866055 795.81299 1286.196 4293650175
-26.46055 795.81299 1286.196 4291610612
-14.433027 795.81299 1286.196 4294180863
-31.152294 803.97107 1286.5344 4292187558
-28.755962 803.05505 1285.7621 4291272130
-26.359632 803.05505 1285.7621 4291732681
-22.765137 803.97107 1286.5344 4286940404
-19.170643 803.05505 1285.7621 4288129791
-16.774311 803.05505 1285.7621 4294049791
-14.377981 803.05505 1285.7621 4294836223
-21.484404 811.17444 1286.0681 4284233082
-19.097248 811.17444 1286.0681 4282607794
-16.710093 811.17444 1286.0681 4291490047
-14.322936 812.08698 1286.8374 4294048511
-42.671558 825.86462 1286.6821 4286603416
-40.300919 825.86462 1286.6821 4286866589
-37.930275 825.86462 1286.6821 4287719830
-30.818348 825.86462 1286.6821 4288835726
-28.447706 825.86462 1286.6821 4289953438
-26.077065 825.86462 1286.6821 4290085024
-16.594496 825.86462 1286.6821 4291867106
-14.223853 825.86462 1286.6821 4291809535
-40.144955 832.96289 1286.1271 4289689262
-37.783485 832.96289 1286.1271 4288447932
-30.699083 832.96289 1286.1271 4286680252
-28.337614 832.96289 1286.1271 4286616015
-25.976147 832.96289 1286.1271 4285300154
-22.433945 833.86554 1286.8882 4283459764
-16.530275 833.86554 1286.8882 4286025680
-14.168807 832.06018 1285.366 4290231551
-10.626606 832.96289 1286.1271 4293391103
-28.227524 838.22766 1284.026 4290690815
-25.875229 838.22766 1284.026 4287927512
-22.34679 838.22766 1284.026 4284378288
-11.761468 838.22766 1284.026 4292801279
-30.579817 840.026 1285.5424 4291409903
-28.227524 840.026 1285.5424 4290886143
-25.875229 840.026 1285.5424 4287070168
-21.869112 846.75555 1284.6764 4283785118
-18.744955 846.15839 1284.1729 4284246441
-16.401834 846.15839 1284.1729 4284706992
-14.058716 847.05408 1284.9281 4285498829
-10.544037 846.15839 1284.1729 4292997119
-29.438532 757.58936 1287.9755 4287784622
-25.758717 757.58936 1287.9755 4291472632
-22.078899 757.58936 1287.9755 4284633265
-19.625689 757.58936 1287.9755 4278335855
-17.172478 757.58936 1287.9755 4281954470
-34.344955 759.46484 1289.5569 4290227711
-31.891743 759.46484 1289.5569 4286938080
-25.758717 759.46484 1289.5569 4287596254
-29.32844 765.94794 1288.4832 4282930099
-26.884403 765.94794 1288.4832 4284048837
-21.99633 765.94794 1288.4832 4287136954
-19.552294 765.94794 1288.4832 4285425788
-14.609175 772.40302 1287.3857 4294967295
-17.044037 774.26447 1288.9552 4294967295
-14.609175 774.26447 1288.9552 4294967295
-13.331193 783.0769 1288.5375 4294639615
-9.6954126 783.0769 1288.5375 4294901759
-7.2715597 783.0769 1288.5375 4294770687
-4.8477063 783.0769 1288.5375 4294967295
-2.4238532 783.0769 1288.5375 4294639615
0 783.0769 1288.5375 4294507775
-31.390825 791.30505 1288.9351 4294374911
-14.488073 791.30505 1288.9351 4294574079
-4.8293576 790.38202 1288.1567 4294639615
-2.4146788 790.38202 1288.1567 4294639615
0 790.38202 1288.1567 4294639615
-33.677063 797.65204 1287.7466 4289497775
-31.271559 797.65204 1287.7466 4291932372
-28.866055 797.65204 1287.7466 4293450495
-25.257797 797.65204 1287.7466 4289966832
-21.649542 797.65204 1287.7466 4287930608
-19.244038 797.65204 1287.7466 4289971455
-16.838531 797.65204 1287.7466 4294049791
-13.230275 797.65204 1287.7466 4294574079
-36.082569 799.49109 1289.2972 4288968843
-33.677063 799.49109 1289.2972 4289493389
-31.271559 799.49109 1289.2972 4291927730
-24.055046 799.49109 1289.2972 4288913117
-21.649542 799.49109 1289.2972 4288254930
-12.027523 799.49109 1289.2972 4294114559
-9.6220188 799.49109 1289.2972 4293851135
-4.8110094 799.49109 1289.2972 4294114559
-31.152294 805.80304 1288.0791 4293367969
-28.755962 805.80304 1288.0791 4292585689
-26.359632 805.80304 1288.0791 4292256724
-22.765137 805.80304 1288.0791 4285626568
-16.774311 805.80304 1288.0791 4291493631
-14.377981 805.80304 1288.0791 4294836223
-11.981651 805.80304 1288.0791 4294376959
-33.548622 807.63507 1289.6239 4290865032
-31.152294 807.63507 1289.6239 4293496751
-28.755962 807.63507 1289.6239 4293764598
-26.359632 807.63507 1289.6239 4293369840
-23.963303 807.63507 1289.6239 4288183743
-14.377981 807.63507 1289.6239 4294967295
-10.783486 807.63507 1289.6239 4294443007
-31.033028 815.73694 1289.915 4288243617
-28.645872 815.73694 1289.915 4291258314
-26.258715 815.73694 1289.915 4293363689
-22.280121 815.1286 1289.4021 4287448720
-19.097248 814.82446 1289.1456 4281948322
-16.710093 814.82446 1289.1456 4290633215
-14.322936 814.82446 1289.1456 4293654015
-45.216515 821.46045 1289.5088 4286733721
-42.836697 821.46045 1289.5088 4287978630
-40.456882 820.55072 1288.7417 4290348192
-38.077065 821.46045 1289.5088 4289685904
-33.317432 821.46045 1289.5088 4291389333
-30.937614 820.55072 1288.7417 4290272925
-28.557798 820.55072 1288.7417 4291849635
-26.177982 821.46045 1289.5088 4292705452
-21.418348 821.46045 1289.5088 4289551002
-19.038532 820.55072 1288.7417 4285226908
-16.658716 820.55072 1288.7417 4291082481
-14.278899 821.46045 1289.5088 4291483135
-45.042202 827.677 1288.2102 4285688490
-42.671558 827.677 1288.2102 4285427102
-34.374313 827.677 1288.2102 4285888670
-30.818348 827.677 1288.2102 4284114056
-28.447706 827.677 1288.2102 4284570009
-26.077065 827.677 1288.2102 4285096354
-22.521101 827.677 1288.2102 4288441269
-18.965137 827.677 1288.2102 4289363117
-16.594496 827.677 1288.2102 4292784097
-14.223853 827.677 1288.2102 4291480319
-10.667891 827.677 1288.2102 4293586687
-46.227524 829.48938 1289.7384 4288315068
-42.671558 829.48938 1289.7384 4287719329
-34.374313 829.48938 1289.7384 4286545315
-22.521101 829.48938 1289.7384 4287065278
-18.965137 829.48938 1289.7384 4287003049
-16.594496 829.48938 1289.7384 4289832148
-11.853211 829.48938 1289.7384 4293586943
-43.687157 835.6709 1288.4104 4287654567
-40.144955 835.6709 1288.4104 4289428918
-37.783485 835.6709 1288.4104 4289368828
-34.241287 835.6709 1288.4104 4291213552
-30.699083 835.6709 1288.4104 4292005104
-49.590824 837.47626 1289.9326 4284439720
-47.229359 837.47626 1289.9326 4284699040
-43.687157 837.47626 1289.9326 4283976582
-40.144955 837.47626 1289.9326 4285162121
-37.783485 837.47626 1289.9326 4286871242
-34.241287 837.47626 1289.9326 4286607542
-30.579817 841.82434 1287.0586 4290551503
-28.227524 841.82434 1287.0586 4288780031
-25.875229 841.82434 1287.0586 4285687523
-28.227524 843.62268 1288.575 4286079460
-25.875229 843.62268 1288.575 4284632013
-21.088074 849.74103 1287.1937 4293518079
-36.93578 754.83624 1292.1943 4293190911
-34.473396 754.83624 1292.1943 4292070143
-32.011009 754.83624 1292.1943 4287990741
-36.798164 761.34033 1291.1383 4282412248
-34.344955 761.34033 1291.1383 4285430240
-46.611008 763.21582 1292.7196 4289250300
-44.157799 763.21582 1292.7196 4289118463
-41.704586 763.21582 1292.7196 4285039568
-34.344955 763.21582 1292.7196 4282337447
-31.891743 763.21582 1292.7196 4283390391
-24.53211 763.21582 1292.7196 4287268283
-29.32844 767.81641 1290.0586 4282667934
-21.99633 767.81641 1290.0586 4289177234
-19.552294 767.81641 1290.0586 4289965496
-41.548622 769.68494 1291.634 4292336383
-21.99633 769.68494 1291.634 4293781247
-19.552294 769.68494 1291.634 4293851903
-17.108257 769.68494 1291.634 4294901759
-14.609175 776.12592 1290.5248 4294508543
-52.349541 777.98743 1292.0944 4287469750
-48.697247 777.98743 1292.0944 4288062181
-46.262386 777.98743 1292.0944 4287864801
-43.827522 777.98743 1292.0944 4290168547
-41.392662 777.98743 1292.0944 4292273919
-38.957798 777.98743 1292.0944 4292207871
-21.913761 777.98743 1292.0944 4288872447
-19.478899 777.98743 1292.0944 4294967295
-17.044037 777.98743 1292.0944 4294967295
-14.609175 777.98743 1292.0944 4294901759
-13.331193 784.92993 1290.1 4294967295
-9.6954126 784.92993 1290.1 4294901759
-7.2715597 784.92993 1290.1 4294770687
-2.4238532 784.92993 1290.1 4294311167
0 784.92993 1290.1 4294442239
-36.3578 786.78302 1291.6624 4288457441
-31.510092 786.78302 1291.6624 4292669695
-29.086239 786.78302 1291.6624 4294244095
-24.238533 786.78302 1291.6624 4281482752
-13.331193 786.78302 1291.6624 4294443007
-9.6954126 786.78302 1291.6624 4294574079
-7.2715597 786.78302 1291.6624 4294639615
2.4238532 786.78302 1291.6624 4294770687
4.8477063 786.78302 1291.6624 4294443007
7.2715597 786.78302 1291.6624 4294377471
-37.025074 794.38177 1291.5292 4288905625
-33.805504 793.15112 1290.4916 4290618588
-24.14679 793.15112 1290.4916 4285566362
-21.732111 793.15112 1290.4916 4287803581
-19.31743 793.15112 1290.4916 4291877631
-16.902752 793.15112 1290.4916 4294377471
-12.073395 793.15112 1290.4916 4294115071
-9.6587152 794.0741 1291.2698 4294048511
-7.2440367 794.0741 1291.2698 4294443007
-4.8293576 794.0741 1291.2698 4294508543
-2.4146788 794.0741 1291.2698 4294574079
0 794.0741 1291.2698 4294311423
-36.082569 802.24963 1291.6232 4289293451
-33.677063 802.24963 1291.6232 4290343550
-12.027523 801.33008 1290.8479 4294179583
-9.6220188 802.24963 1291.6232 4294048511
-7.2165136 802.24963 1291.6232 4294442751
-4.8110094 802.24963 1291.6232 4293786111
-2.4055047 803.16913 1292.3984 4294180863
0 803.16913 1292.3984 4294377471
-34.746788 809.46704 1291.1686 4292842153
-31.152294 809.46704 1291.1686 4294749131
-28.755962 809.46704 1291.1686 4294879743
-26.359632 809.46704 1291.1686 4294550527
-23.963303 809.46704 1291.1686 4289887685
-10.783486 809.46704 1291.1686 4293917695
-45.530273 811.29907 1292.7133 4288838818
-43.133945 811.29907 1292.7133 4290544041
-34.746788 811.29907 1292.7133 4292319672
-31.152294 811.29907 1292.7133 4293372387
-28.755962 811.29907 1292.7133 4294813695
-26.359632 811.29907 1292.7133 4294879487
-23.963303 811.29907 1292.7133 4290543823
-10.783486 811.29907 1292.7133 4294508287
-7.1889906 811.29907 1292.7133 4294048767
-45.355965 817.56201 1291.4539 4290486221
-42.968807 817.56201 1291.4539 4291533737
-38.194496 817.56201 1291.4539 4291399841
-34.613762 817.56201 1291.4539 4290212513
-26.258715 817.56201 1291.4539 4293296829
-22.677982 817.56201 1291.4539 4288762265
-14.322936 817.56201 1291.4539 4292469503
-47.743118 819.38696 1292.9927 4285944205
-35.807339 819.38696 1292.9927 4289948820
-23.871559 819.38696 1292.9927 4290998449
-10.742202 819.38696 1292.9927 4293785343
-7.161468 819.38696 1292.9927 4294048511
-4.774312 819.38696 1292.9927 4293653759
-45.216515 823.27979 1291.0428 4285291924
-34.507339 823.27979 1291.0428 4288310675
-22.608257 823.27979 1291.0428 4290082223
-19.038532 823.27979 1291.0428 4287788197
-10.709174 823.27979 1291.0428 4294047231
-7.1394496 823.27979 1291.0428 4294179327
-4.7596331 823.27979 1291.0428 4294113535
-47.596329 825.09918 1292.5769 4286412213
-52.154129 833.11414 1292.7947 4288779743
-49.783485 833.11414 1292.7947 4288319192
-46.622631 831.90594 1291.776 4289692366
-42.671558 831.30176 1291.2666 4289487771
-34.374313 831.30176 1291.2666 4289240542
-49.590824 839.28162 1291.4548 4284569491
-47.229359 839.28162 1291.4548 4285418893
-43.687157 839.28162 1291.4548 4285353091
-40.144955 839.28162 1291.4548 4286076807
-37.783485 839.28162 1291.4548 4287131042
-34.241287 839.28162 1291.4548 4286604182
-47.229359 841.08698 1292.9771 4291539170
-43.687157 841.08698 1292.9771 4291735267
-40.144955 841.08698 1292.9771 4291602655
-37.783485 841.08698 1292.9771 4291471069
-34.241287 841.08698 1292.9771 4289760971
-30.699083 841.08698 1292.9771 4289169609
-23.522936 845.42102 1290.0913 4285032359
-18.818348 845.42102 1290.0913 4284244642
-16.466055 845.42102 1290.0913 4284244642
-10.585321 845.42102 1290.0913 4292603135
-7.056881 845.42102 1290.0913 4293455615
-4.704587 845.42102 1290.0913 4293456127
-23.522936 847.21942 1291.6075 4293846783
-18.818348 847.21942 1291.6075 4287341551
-16.466055 847.21942 1291.6075 4283393971
-14.113762 847.21942 1291.6075 4283659419
-10.585321 847.21942 1291.6075 4292011775
-44.322937 758.60126 1295.3689 4278993519
-40.21896 757.97382 1294.8398 4281093553
-36.93578 756.71875 1293.7816 4286743807
-49.06422 766.9668 1295.8823 4289516287
-46.611008 766.02905 1295.0917 4289448188
-44.157799 766.02905 1295.0917 4289638655
-40.477982 766.02905 1295.0917 4292336127
-36.798164 766.9668 1295.8823 4292204519
-34.344955 766.02905 1295.0917 4281100449
-31.891743 766.02905 1295.0917 4279916175
-29.438532 766.9668 1295.8823 4282731916
-25.758717 766.02905 1295.0917 4287533761
-51.324772 773.42188 1294.7849 4289772008
-48.880733 773.42188 1294.7849 4288852735
-46.436699 773.42188 1294.7849 4287076585
-43.992661 772.48767 1293.9972 4286684615
-40.326603 772.48767 1293.9972 4291221244
-36.660549 773.42188 1294.7849 4292469759
-34.216515 773.42188 1294.7849 4293390335
-31.772476 773.42188 1294.7849 4287929279
-29.32844 773.42188 1294.7849 4282280063
-25.255045 772.79907 1294.2598 4284710853
-21.99633 772.48767 1293.9972 4292735743
-19.552294 772.48767 1293.9972 4294967295
-17.108257 773.42188 1294.7849 4294967295
-52.349541 779.84888 1293.6639 4287338705
-48.697247 779.84888 1293.6639 4287340274
-46.262386 779.84888 1293.6639 4290629887
-43.827522 779.84888 1293.6639 4292995839
-41.392662 779.84888 1293.6639 4292930047
-37.740364 779.84888 1293.6639 4291552767
-24.348623 779.84888 1293.6639 4278205571
-17.044037 779.84888 1293.6639 4294574079
2.4348624 779.84888 1293.6639 4294836223
4.8697248 779.84888 1293.6639 4294114559
-48.697247 781.71033 1295.2334 4290822399
-46.262386 781.71033 1295.2334 4292993535
-43.827522 781.71033 1295.2334 4293782271
-41.392662 781.71033 1295.2334 4293387775
-37.740364 781.71033 1295.2334 4289117671
-34.088074 781.71033 1295.2334 4288722431
-31.653212 781.71033 1295.2334 4293130495
-29.218349 781.71033 1295.2334 4293258495
-25.566055 781.71033 1295.2334 4280107383
-21.913761 781.71033 1295.2334 4287357183
-19.478899 781.71033 1295.2334 4293391615
-17.044037 781.71033 1295.2334 4294967295
2.4348624 781.71033 1295.2334 4294967295
4.8697248 781.71033 1295.2334 4294574079
-37.569725 788.63611 1293.2249 4291348219
-33.933945 788.63611 1293.2249 4291348479
-29.086239 788.63611 1293.2249 4294769919
-25.450459 788.63611 1293.2249 4285501097
-21.814678 788.63611 1293.2249 4287943664
-19.390825 788.63611 1293.2249 4293259263
-16.966972 788.63611 1293.2249 4294770687
-12.119267 788.63611 1293.2249 4294508543
-9.6954126 788.63611 1293.2249 4294508543
-7.2715597 788.63611 1293.2249 4294770687
-41.205505 790.48914 1294.7874 4288770737
-38.781651 790.48914 1294.7874 4287919792
-41.049541 796.8432 1293.6047 4291265967
-38.634861 796.8432 1293.6047 4290021531
-7.2440367 796.8432 1293.6047 4294377471
-2.4146788 796.8432 1293.6047 4294377471
0 796.8432 1293.6047 4294574079
-43.464222 798.68921 1295.1613 4289624477
-41.049541 798.68921 1295.1613 4290479530
-38.634861 798.68921 1295.1613 4289821851
-2.4146788 798.68921 1295.1613 4294311679
0 798.68921 1295.1613 4294443007
-48.110092 806.84717 1295.4998 4286995580
-45.704586 805.92767 1294.7244 4289297828
-43.299084 805.92767 1294.7244 4290149275
-40.893578 805.92767 1294.7244 4290280605
-37.686241 805.62115 1294.4659 4291000217
-7.2165136 805.92767 1294.7244 4294114815
-4.8110094 805.92767 1294.7244 4294049023
-2.4055047 805.92767 1294.7244 4294311679
0 805.92767 1294.7244 4294114815
-50.322937 814.96313 1295.8027 4289043903
-47.127827 813.74176 1294.7728 4290223810
-43.133945 813.1311 1294.2579 4292190901
-40.737614 813.1311 1294.2579 4292190901
-38.341286 813.1311 1294.2579 4291137185
-34.746788 813.1311 1294.2579 4289887651
-10.783485 814.04712 1295.0303 4294311423
-7.1889906 814.04712 1295.0303 4294377215
-4.7926607 814.04712 1295.0303 4293720063
-2.3963304 814.96313 1295.8027 4294377471
-50.130276 821.21198 1294.5314 4283914375
-47.743118 821.21198 1294.5314 4284765324
-52.355965 826.91858 1294.111 4287203471
-49.976147 826.91858 1294.111 4287927194
-52.355965 828.73798 1295.645 4289176532
-49.976147 828.73798 1295.645 4288189637
-52.154129 835.8327 1295.0869 4284438685
-49.590824 842.89233 1294.4993 4291609340
-47.229359 842.89233 1294.4993 4291937782
-43.687157 842.89233 1294.4993 4292265722
-40.144955 842.89233 1294.4993 4291607280
-37.783485 842.89233 1294.4993 4291475955
-34.241287 842.89233 1294.4993 4291475196
-30.699083 842.89233 1294.4993 4290224126
-28.337614 842.89233 1294.4993 4286477018
-25.976147 842.89233 1294.4993 4285687502
-11.761468 849.01776 1293.1239 4291352575
-39.398167 760.48376 1296.9562 4278601912
-36.93578 760.48376 1296.9562 4278930877
-39.398167 762.36627 1298.5435 4283719677
-36.93578 762.36627 1298.5435 4280232648
-49.06422 768.84229 1297.4637 4290104319
-46.611008 768.84229 1297.4637 4286617045
-36.798164 768.84229 1297.4637 4293717503
-34.344955 768.84229 1297.4637 4290694641
-31.891743 768.84229 1297.4637 4281022813
-29.438532 768.84229 1297.4637 4279845524
-26.985321 768.84229 1297.4637 4286490617
-36.660549 775.29034 1296.3604 4292010495
-34.216515 775.29034 1296.3604 4293653503
-31.772476 775.29034 1296.3604 4291482356
-29.32844 775.29034 1296.3604 4287013049
-25.662384 775.29034 1296.3604 4278664297
-34.216515 777.15887 1297.9358 4293259007
-31.772476 777.15887 1297.9358 4293982975
-29.32844 777.15887 1297.9358 4291745535
-26.884403 777.15887 1297.9358 4281810812
-21.99633 777.15887 1297.9358 4288408575
-19.552294 777.15887 1297.9358 4293392383
-51.132111 785.43329 1298.3726 4286871438
-48.697247 784.50256 1297.5878 4289108920
-46.262386 784.50256 1297.5878 4290885073
-43.827522 784.50256 1297.5878 4291478249
-41.392662 784.50256 1297.5878 4291609834
-38.957798 783.57184 1296.803 4290694399
-34.088074 783.57184 1296.803 4288130303
-26.783485 783.57184 1296.803 4284835716
-21.913761 783.57184 1296.803 4291549068
-19.478899 783.57184 1296.803 4293587711
-17.044037 783.57184 1296.803 4294770687
2.4348624 785.43329 1298.3726 4294705151
4.8697248 785.43329 1298.3726 4294443007
7.3045874 785.43329 1298.3726 4294574079
-48.477066 794.19525 1297.9122 4288572035
-46.053211 794.19525 1297.9122 4288177533
-43.629356 793.26868 1297.131 4288635023
-41.205505 792.34216 1296.3497 4289754793
-48.293579 800.53528 1296.7178 4287520128
-45.878899 800.53528 1296.7178 4290086054
-43.464222 800.53528 1296.7178 4290088873
-41.049541 800.53528 1296.7178 4289430687
-38.634861 800.53528 1296.7178 4289357190
-49.500916 802.38135 1298.2743 4287651719
-49.312843 808.68622 1297.0503 4287327114
-40.893578 808.68622 1297.0503 4291399350
-38.488075 808.68622 1297.0503 4291398544
-4.8110094 808.68622 1297.0503 4293982719
-2.4055047 808.68622 1297.0503 4294377471
0 808.68622 1297.0503 4294443007
-55.326607 810.52527 1298.601 4287725982
-52.921101 810.52527 1298.601 4288055978
-50.515594 810.52527 1298.601 4288845493
-2.4055047 810.52527 1298.601 4294049791
0 810.52527 1298.601 4294311679
4.8110094 810.52527 1298.601 4294180351
-55.115597 818.62714 1298.8921 4283127694
-52.719265 817.71118 1298.1198 4283256447
-50.322937 816.79517 1297.3474 4284374928
-2.3963304 816.79517 1297.3474 4293982463
-54.904587 824.862 1297.609 4285888166
-52.517429 823.03699 1296.0702 4284309633
-50.130276 823.03699 1296.0702 4284967820
-54.735779 832.37677 1298.7131 4283786894
-52.154129 838.55127 1297.3792 4290555107
-49.783485 838.55127 1297.3792 4290752487
-52.154129 840.36365 1298.9072 4291741182
4.7412844 840.36365 1298.9072 4293127167
10.667891 840.36365 1298.9072 4293324287
-43.687157 844.69769 1296.0215 4290690797
-40.144955 844.69769 1296.0215 4290098405
-37.783485 844.69769 1296.0215 4290098405
-34.241287 844.69769 1296.0215 4292336127
-30.699083 844.69769 1296.0215 4292599807
-28.337614 844.69769 1296.0215 4293322239
-25.976147 844.69769 1296.0215 4293453823
-7.0844035 844.69769 1296.0215 4293192703
-4.7229357 844.69769 1296.0215 4293061119
-2.3614678 844.69769 1296.0215 4293126911
0 844.69769 1296.0215 4293257727
-47.229359 846.50305 1297.5438 4290362339
-43.687157 846.50305 1297.5438 4290428389
-40.144955 846.50305 1297.5438 4289704666
-37.783485 846.50305 1297.5438 4289968354
-34.241287 846.50305 1297.5438 4292204798
-22.433945 846.50305 1297.5438 4293585407
-18.891743 846.50305 1297.5438 4291280639
-16.530275 846.50305 1297.5438 4286938321
-14.168807 846.50305 1297.5438 4285036736
-9.4458714 846.50305 1297.5438 4292666367
-7.0844035 846.50305 1297.5438 4293324287
-4.7229357 846.50305 1297.5438 4293258751
-2.3614678 846.50305 1297.5438 4293192959
0 846.50305 1297.5438 4293323775
-58.656879 779.02734 1299.5114 4289437924
-56.212845 779.02734 1299.5114 4290687990
-52.546791 779.02734 1299.5114 4290362610
-52.546791 780.89581 1301.0868 4288321226
-51.132111 787.2948 1299.942 4286144637
-48.697247 787.2948 1299.942 4286995830
-46.262386 787.2948 1299.942 4287456381
-43.827522 787.2948 1299.942 4287454878
2.4348624 787.2948 1299.942 4294180351
4.8697248 787.2948 1299.942 4294114559
7.3045874 787.2948 1299.942 4294443007
-52.349541 789.15625 1301.5116 4286864790
-48.697247 789.15625 1301.5116 4287520128
-46.262386 789.15625 1301.5116 4287322748
2.4348624 789.15625 1301.5116 4294574079
4.8697248 789.15625 1301.5116 4294180351
7.3045874 789.15625 1301.5116 4294574079
-49.688992 796.97485 1300.2559 4287914874
-46.053211 796.04828 1299.4746 4288704390
2.4238532 797.90137 1301.0371 4294180607
4.8477063 797.90137 1301.0371 4294180351
-53.122936 805.15039 1300.6091 4287720329
-50.708256 804.22736 1299.8308 4287585921
2.4146788 805.15039 1300.6091 4294245887
4.8293576 805.15039 1300.6091 4294179583
-55.326607 812.36426 1300.1516 4286939545
-52.921101 812.36426 1300.1516 4287793837
0 812.36426 1300.1516 4294311935
4.8110094 812.36426 1300.1516 4294048767
-57.732109 814.20331 1301.7021 4282536320
-55.326607 814.20331 1301.7021 4282338942
-55.115597 820.45917 1300.4368 4284638353
-57.511925 822.2912 1301.9814 4286020008
-54.904587 826.68701 1299.1478 4287730108
-54.904587 828.51196 1300.6866 4287796667
-54.735779 835.10583 1301.0142 4286612411
-52.154129 842.17603 1300.4354 4291348471
-49.783485 842.17603 1300.4354 4290756334
-47.412846 842.17603 1300.4354 4290625516
2.3706422 842.17603 1300.4354 4293257727
4.7412844 842.17603 1300.4354 4293192959
7.1119266 842.17603 1300.4354 4293258751
10.667891 842.17603 1300.4354 4293061119
14.223853 842.17603 1300.4354 4293390079
-52.154129 843.9884 1301.9636 4290691561
-49.783485 843.9884 1301.9636 4289770459
-30.818348 843.9884 1301.9636 4292270588
-28.447706 843.9884 1301.9636 4292993023
-26.077065 843.9884 1301.9636 4294243071
2.3706422 843.9884 1301.9636 4293389567
4.7412844 843.9884 1301.9636 4293389567
7.1119266 843.9884 1301.9636 4293652735
10.667891 843.9884 1301.9636 4293257983
14.223853 843.9884 1301.9636 4293258751
-47.229359 848.30841 1299.066 4290298100
-43.687157 848.30841 1299.066 4290363377
-40.144955 848.30841 1299.066 4290428655
-37.783485 848.30841 1299.066 4290298098
-34.241287 848.30841 1299.066 4291022591
-10.626606 848.30841 1299.066 4292862714
-7.0844035 848.30841 1299.066 4293258495
-43.687157 850.11377 1300.5883 4290494971
-56.212845 782.76428 1302.6622 4286538893
-53.768806 782.76428 1302.6622 4285950336
-56.212845 784.63281 1304.2377 4286011517
-53.768806 784.63281 1304.2377 4285420914
-52.349541 791.0177 1303.0812 4288048007
2.4348624 791.0177 1303.0812 4294377215
4.8697248 791.0177 1303.0812 4294048767
7.3045874 791.0177 1303.0812 4294443007
-52.349541 792.87921 1304.6508 4288310395
2.4348624 792.87921 1304.6508 4294311423
4.8697248 792.87921 1304.6508 4294311167
7.3045874 792.87921 1304.6508 4294770687
-53.324772 799.75439 1302.5996 4288243337
2.4238532 799.75439 1302.5996 4294180607
4.8477063 799.75439 1302.5996 4294311167
7.2715597 799.75439 1302.5996 4294639615
2.4146788 808.84247 1303.7222 4294311679
-64.948624 817.88135 1304.8035 4284375697
-61.340366 817.88135 1304.8035 4284901272
-57.732109 816.96185 1304.0281 4284179092
-57.511925 824.12317 1303.5262 4285887905
-57.115597 838.74463 1304.0823 4291480573
-54.735779 838.74463 1304.0823 4291414780
-52.154129 845.80078 1303.4917 4290561267
-49.783485 845.80078 1303.4917 4290232303
-30.818348 845.80078 1303.4917 4289839346
-28.447706 845.80078 1303.4917 4289704677
-22.521101 845.80078 1303.4917 4291020788
-18.965137 845.80078 1303.4917 4293321471
-16.594496 845.80078 1303.4917 4292729599
-14.223853 845.80078 1303.4917 4292072167
-4.7412844 845.80078 1303.4917 4293258751
-2.3706422 845.80078 1303.4917 4293192959
0 845.80078 1303.4917 4293455359
4.7412844 845.80078 1303.4917 4293455615
7.1119266 845.80078 1303.4917 4293389567
9.4825687 845.80078 1303.4917 4293257983
14.223853 845.80078 1303.4917 4293127167
-56.423855 778.21985 1305.3706 4288251589
-61.330276 780.09534 1306.952 4286471315
-58.877064 780.09534 1306.952 4286078342
-58.656879 786.50128 1305.8131 4286734473
-56.212845 787.43555 1306.6008 4286931338
-53.566971 794.74066 1306.2202 4288572548
-56.001835 796.60217 1307.7898 4288046735
-61.57431 813.45758 1307.6135 4283321223
-67.354126 820.63989 1307.1294 4285692314
-64.948624 820.63989 1307.1294 4286350244
-61.340366 820.63989 1307.1294 4286022574
-62.304588 826.87122 1305.8433 4285169342
-58.710091 826.87122 1305.8433 4284115099
-57.291744 833.987 1305.303 4289900514
-59.678898 835.81201 1306.8418 4291481075
-57.115597 841.47369 1306.3834 4291676927
-54.735779 841.47369 1306.3834 4291348223
-57.115597 843.29309 1307.9175 4291150588
-54.735779 843.29309 1307.9175 4291216381
-26.177982 843.29309 1307.9175 4290165228
2.3798165 843.29309 1307.9175 4293455359
11.899082 843.29309 1307.9175 4293323775
-49.783485 847.61316 1305.0199 4291219454
-47.412846 847.61316 1305.0199 4290889471
-40.300919 847.61316 1305.0199 4290626811
-37.930275 847.61316 1305.0199 4290560252
-34.374313 847.61316 1305.0199 4291350526
-30.818348 847.61316 1305.0199 4290429681
-22.521101 847.61316 1305.0199 4290560488
-18.965137 847.61316 1305.0199 4292139759
-16.594496 847.61316 1305.0199 4292797688
-14.223853 847.61316 1305.0199 4292402175
-10.667891 847.61316 1305.0199 4293257983
-7.1119266 847.61316 1305.0199 4293455871
-4.7412844 847.61316 1305.0199 4293192959
-2.3706422 847.61316 1305.0199 4293127167
0 847.61316 1305.0199 4293323775
-46.227524 849.42554 1306.5481 4291351807
-42.671558 849.42554 1306.5481 4290824703
-40.300919 849.42554 1306.5481 4289837812
-37.930275 849.42554 1306.5481 4289440485
-35.559631 849.42554 1306.5481 4291348479
-61.559631 775.54388 1309.6545 4287328686
-59.097248 775.54388 1309.6545 4287396280
-61.330276 781.97083 1308.5333 4286734473
-58.877064 781.97083 1308.5333 4286603655
-56.212845 790.23828 1308.9641 4288179861
-58.656879 792.10675 1310.5396 4287387774
-56.212845 792.10675 1310.5396 4288637841
-67.354126 823.39844 1309.4553 4286877111
-64.948624 823.39844 1309.4553 4287008698
-62.304588 829.61926 1308.1604 4284772029
-58.710091 829.61926 1308.1604 4282929816
-59.908257 831.45123 1309.7051 4289507051
-59.678898 838.54944 1309.1499 4291744511
-54.735779 845.11249 1309.4515 4291548415
-52.355965 845.11249 1309.4515 4291679999
-28.557798 845.11249 1309.4515 4289836263
-26.177982 845.11249 1309.4515 4289836263
2.3798165 845.11249 1309.4515 4293389567
4.7596331 845.11249 1309.4515 4293389567
7.1394496 845.11249 1309.4515 4293323775
10.709174 845.11249 1309.4515 4293192191
14.278899 845.11249 1309.4515 4293257983
-52.355965 846.93188 1310.9856 4291483647
-49.976147 846.93188 1310.9856 4291483647
-33.317432 846.93188 1310.9856 4291349503
-30.937614 846.93188 1310.9856 4290823161
-28.557798 846.93188 1310.9856 4290559723
-26.177982 846.93188 1310.9856 4290362087
-22.608257 846.93188 1310.9856 4289967324
-19.038532 846.93188 1310.9856 4288718816
-16.658716 846.93188 1310.9856 4290034419
-14.278899 846.93188 1310.9856 4290364154
-10.709174 846.93188 1310.9856 4293127423
-7.1394496 846.93188 1310.9856 4293587711
-4.7596331 846.93188 1310.9856 4293258751
-2.3798165 846.93188 1310.9856 4293192959
1.1899083 846.93188 1310.9856 4293060863
4.7596331 846.93188 1310.9856 4292995071
7.1394496 846.93188 1310.9856 4293258495
9.5192661 846.93188 1310.9856 4293127167
14.278899 846.93188 1310.9856 4293257727
-45.042202 851.23792 1308.0762 4292335615
-58.877064 785.7218 1311.6962 4287062409
-58.877064 787.59735 1313.2775 4287126917
-67.354126 825.23749 1311.006 4285170091
-64.948624 825.23749 1311.006 4284972456
-59.678898 841.28699 1311.4581 4290098683
-58.485321 843.112 1312.9969 4289574908
-49.976147 848.75128 1312.5198 4292205567
-47.596329 848.75128 1312.5198 4292269823
-42.836697 848.75128 1312.5198 4291874559
-40.456882 848.75128 1312.5198 4290361326
-38.077065 848.75128 1312.5198 4290360545
-34.507339 848.75128 1312.5198 4291544822
-26.177982 848.75128 1312.5198 4290228973
-22.608257 848.75128 1312.5198 4289703896
-19.038532 848.75128 1312.5198 4288653800
-16.658716 848.75128 1312.5198 4289706744
-7.1394496 848.75128 1312.5198 4293785599
-2.3798165 848.75128 1312.5198 4293652735
0 848.75128 1312.5198 4293521407
14.278899 848.75128 1312.5198 4293061119
16.658716 848.75128 1312.5198 4292929535
-58.485321 844.93701 1314.5358 4290037246
-54.904587 844.93701 1314.5358 4291089919
11.93578 844.93701 1314.5358 4293127167
-57.291744 846.76196 1316.0745 4291154175
-54.904587 846.76196 1316.0745 4291351551
-52.517429 846.76196 1316.0745 4291679231
-31.033028 846.76196 1316.0745 4291084531
-28.645872 846.76196 1316.0745 4290360559
-14.322936 846.76196 1316.0745 4289971960
-10.742202 846.76196 1316.0745 4292602367
-4.774312 846.76196 1316.0745 4293784575
2.387156 846.76196 1316.0745 4293718527
4.774312 846.76196 1316.0745 4293390079
7.161468 846.76196 1316.0745 4293521919
10.742202 846.76196 1316.0745 4293127167
-67.097244 842.44336 1318.9733 4291152639
-64.70092 842.44336 1318.9733 4290955007
-62.304588 841.52734 1318.2009 4289575679
-57.291744 848.58698 1317.6133 4291154175
-54.904587 848.58698 1317.6133 4291088383
-52.517429 848.58698 1317.6133 4290691572
-50.130276 848.58698 1317.6133 4290757365
-46.549541 848.58698 1317.6133 4291676159
-33.420185 848.58698 1317.6133 4290293223
-28.645872 848.58698 1317.6133 4290556643
-26.258715 848.58698 1317.6133 4290622436
-22.677982 848.58698 1317.6133 4290164704
-19.097248 848.58698 1317.6133 4289772004
-16.710093 848.58698 1317.6133 4290627313
-14.322936 848.58698 1317.6133 4290694654
-10.742202 848.58698 1317.6133 4291155967
-7.161468 848.58698 1317.6133 4292538367
-4.774312 848.58698 1317.6133 4293192703
-2.387156 848.58698 1317.6133 4293258495
0 848.58698 1317.6133 4293126911
14.322936 848.58698 1317.6133 4292929279
16.710093 848.58698 1317.6133 4292929279
-47.743118 850.41199 1319.1521 4291150077
-22.677982 850.41199 1319.1521 4290428641
-19.097248 850.41199 1319.1521 4289969898
16.710093 850.41199 1319.1521 4293193215
-70.691742 844.27539 1320.5181 4289904638
-67.097244 844.27539 1320.5181 4290758143
-64.70092 844.27539 1320.5181 4291745023
-62.304588 844.27539 1320.5181 4291285247
-59.908257 844.27539 1320.5181 4291087871
-69.493576 846.10736 1322.0627 4290562047
-67.097244 846.10736 1322.0627 4290428927
-64.70092 846.10736 1322.0627 4290692351
-62.304588 846.10736 1322.0627 4290758143
-59.908257 846.10736 1322.0627 4291152895
-43.133945 846.10736 1322.0627 4292005375
-40.737614 846.10736 1322.0627 4290360813
-38.341286 846.10736 1322.0627 4290622424
-35.944954 846.10736 1322.0627 4290885340
-31.152294 846.10736 1322.0627 4290687725
2.3963304 846.10736 1322.0627 4293390079
4.7926607 846.10736 1322.0627 4293127423
7.1889906 846.10736 1322.0627 4293259007
10.783486 846.10736 1322.0627 4292930303
19.097248 852.237 1320.6909 4292930047
-62.304588 847.93939 1323.6074 4290757375
-58.710091 847.93939 1323.6074 4291283455
-55.115597 847.93939 1323.6074 4291546623
-52.719265 847.93939 1323.6074 4290953977
-50.322937 847.93939 1323.6074 4290098668
-45.530273 847.93939 1323.6074 4292071167
-38.341286 847.93939 1323.6074 4290031319
-34.746788 847.93939 1323.6074 4290492129
-31.152294 847.93939 1323.6074 4291545332
-28.755962 847.93939 1323.6074 4291415018
-26.359632 847.93939 1323.6074 4291020260
-16.774311 847.93939 1323.6074 4291154172
-14.377981 847.93939 1323.6074 4290892543
-10.783486 847.93939 1323.6074 4290498046
-7.1889906 847.93939 1323.6074 4292537855
-4.7926607 847.93939 1323.6074 4293390079
-2.3963304 847.93939 1323.6074 4293455871
0 847.93939 1323.6074 4293455615
9.5853214 847.93939 1323.6074 4292864511
14.377981 847.93939 1323.6074 4293061631
-47.926605 849.77142 1325.1521 4291281663
-34.746788 849.77142 1325.1521 4291808507
-31.152294 849.77142 1325.1521 4292139519
-28.755962 849.77142 1325.1521 4292008959
-26.359632 849.77142 1325.1521 4291219452
-22.765137 849.77142 1325.1521 4290102265
-19.170643 849.77142 1325.1521 4290035957
-16.774311 849.77142 1325.1521 4291022847
-14.377981 849.77142 1325.1521 4290892543
-10.783486 849.77142 1325.1521 4289840629
-7.1889906 849.77142 1325.1521 4292209663
-4.7926607 849.77142 1325.1521 4293455871
-2.3963304 849.77142 1325.1521 4293587455
0 849.77142 1325.1521 4293520383
-73.367889 844.54724 1327.2875 4291088127
-69.759636 845.4668 1328.0627 4291153407
-67.354126 845.4668 1328.0627 4290429947
-64.948624 845.4668 1328.0627 4290035446
-43.299084 845.4668 1328.0627 4291478778
-40.893578 845.4668 1328.0627 4290228711
2.4055047 845.4668 1328.0627 4293652735
4.8110094 845.4668 1328.0627 4293521919
7.2165136 845.4668 1328.0627 4293521919
12.027523 845.4668 1328.0627 4292864511
-47.926605 851.60339 1326.6968 4291217151
-33.548622 851.60339 1326.6968 4292796415
-31.152294 851.60339 1326.6968 4292730623
-28.755962 851.60339 1326.6968 4292205311
-26.359632 851.60339 1326.6968 4291547647
-22.765137 851.60339 1326.6968 4291021055
-19.170643 851.60339 1326.6968 4290955775
-16.774311 851.60339 1326.6968 4291021567
19.170643 851.60339 1326.6968 4293390079
-73.367889 847.30579 1329.6134 4290364158
-69.759636 847.30579 1329.6134 4290758655
-67.354126 847.30579 1329.6134 4290824955
-64.948624 847.30579 1329.6134 4290693369
-61.340366 847.30579 1329.6134 4290297598
-57.732109 847.30579 1329.6134 4289967100
-55.326607 847.30579 1329.6134 4291743487
-52.921101 847.30579 1329.6134 4291809535
-50.515594 847.30579 1329.6134 4291151608
-45.704586 847.30579 1329.6134 4290952443
-43.299084 847.30579 1329.6134 4290949100
-40.893578 847.30579 1329.6134 4291014893
-38.488075 847.30579 1329.6134 4290885353
4.8110094 847.30579 1329.6134 4293258751
7.2165136 847.30579 1329.6134 4293521663
9.6220188 847.30579 1329.6134 4293127423
13.230275 847.30579 1329.6134 4293192959
16.838531 847.30579 1329.6134 4293258751
-64.948624 849.14484 1331.1641 4291480571
-61.340366 849.14484 1331.1641 4290558971
-57.732109 849.14484 1331.1641 4290625016
-55.326607 849.14484 1331.1641 4292467199
-52.921101 849.14484 1331.1641 4291678463
-50.515594 849.14484 1331.1641 4291283964
-45.704586 849.14484 1331.1641 4290493176
-43.299084 849.14484 1331.1641 4290688733
-40.893578 849.14484 1331.1641 4291280870
-37.285324 849.14484 1331.1641 4291808764
-13.230275 849.14484 1331.1641 4289971447
-9.6220188 849.14484 1331.1641 4289709808
-7.2165136 849.14484 1331.1641 4292078335
-4.8110094 849.14484 1331.1641 4293455871
-2.4055047 849.14484 1331.1641 4293587455
0 849.14484 1331.1641 4293586175
9.6220188 849.14484 1331.1641 4293390079
14.433027 849.14484 1331.1641 4293390079
16.838531 849.14484 1331.1641 4293456127
2.4146788 844.84027 1334.0746 4293454591
-49.312843 850.98389 1332.7146 4291547135
-45.704586 850.98389 1332.7146 4291349503
-40.893578 850.98389 1332.7146 4291086317
-37.285324 850.98389 1332.7146 4291020285
-33.677063 850.98389 1332.7146 4290626559
-31.271559 850.98389 1332.7146 4291087103
-28.866055 850.98389 1332.7146 4290890495
-25.257797 850.98389 1332.7146 4291350527
-21.649542 850.98389 1332.7146 4291678719
-19.244038 850.98389 1332.7146 4291218943
-16.838531 850.98389 1332.7146 4289968628
-2.4055047 850.98389 1332.7146 4293389823
0 850.98389 1332.7146 4293389567
14.433027 850.98389 1332.7146 4293390079
16.838531 850.98389 1332.7146 4293390079
19.244038 850.98389 1332.7146 4293390079
-36.082569 852.82288 1334.2653 4290560765
-33.677063 852.82288 1334.2653 4290102004
19.244038 852.82288 1334.2653 4293258751
-73.647705 846.68634 1335.6311 4290429171
-70.025688 847.60938 1336.4094 4290757365
-67.611008 847.60938 1336.4094 4291018740
-65.196327 848.53235 1337.1876 4290754033
-61.57431 848.53235 1337.1876 4290492397
-57.952293 848.53235 1337.1876 4290625525
-53.122936 848.53235 1337.1876 4291218428
-43.464222 848.53235 1337.1876 4290954730
-13.280734 848.53235 1337.1876 4289181161
-9.6587152 848.53235 1337.1876 4290300660
-7.2440367 848.53235 1337.1876 4292406271
-4.8293576 848.53235 1337.1876 4293192703
2.4146788 847.60938 1336.4094 4293323519
4.8293576 847.60938 1336.4094 4292929791
7.2440367 847.60938 1336.4094 4293390335
9.6587152 848.53235 1337.1876 4293259263
12.073395 847.60938 1336.4094 4293193215
-48.293579 850.37842 1338.7441 4290957311
-41.049541 850.37842 1338.7441 4290298100
-38.634861 850.37842 1338.7441 4290494972
-31.390825 850.37842 1338.7441 4290628348
-28.976147 850.37842 1338.7441 4290890232
-25.35413 850.37842 1338.7441 4291547903
-21.732111 850.37842 1338.7441 4292336895
-19.31743 850.37842 1338.7441 4290955775
-14.488073 850.37842 1338.7441 4288393181
4.8293576 850.37842 1338.7441 4293258751
7.2440367 850.37842 1338.7441 4293521663
9.6587152 850.37842 1338.7441 4293258751
13.280734 850.37842 1338.7441 4293192959
16.902752 850.37842 1338.7441 4293390079
-33.805504 852.22449 1340.3008 4288722155
-26.561468 852.22449 1340.3008 4291614463
7.2440367 852.22449 1340.3008 4293390079
9.6587152 852.22449 1340.3008 4293390079
13.280734 852.22449 1340.3008 4293455615
16.902752 852.22449 1340.3008 4293521407
19.31743 852.22449 1340.3008 4293192959
-70.29174 847.93384 1343.2231 4290032623
-67.867889 847.93384 1343.2231 4290491118
-64.232109 847.93384 1343.2231 4290097125
-55.748623 846.08081 1341.6608 4291217918
-50.900917 847.93384 1343.2231 4291219450
-46.053211 847.93384 1343.2231 4290694399
-43.629356 847.93384 1343.2231 4290429429
-16.966972 847.93384 1343.2231 4289376759
-12.119267 847.93384 1343.2231 4289972212
-9.6954126 847.93384 1343.2231 4291088895
-7.2715597 847.93384 1343.2231 4292931071
-4.8477063 847.93384 1343.2231 4293521663
-2.4238532 847.93384 1343.2231 4293390079
1.2119266 847.93384 1343.2231 4293586943
9.6587152 854.0705 1341.8573 4293390079
13.280734 854.0705 1341.8573 4293455871
12.073395 855.91656 1343.4138 4293455871
-43.629356 849.78693 1344.7856 4286618593
-41.205505 849.78693 1344.7856 4286750180
-37.569725 849.78693 1344.7856 4287997923
-31.510092 849.78693 1344.7856 4290301439
-29.086239 849.78693 1344.7856 4291087871
-24.238533 849.78693 1344.7856 4292007935
-21.814678 849.78693 1344.7856 4291744511
-19.390825 849.78693 1344.7856 4289905663
-16.966972 849.78693 1344.7856 4289313783
-13.331193 850.7135 1345.5669 4290760696
-9.6954126 849.78693 1344.7856 4292602111
-4.8477063 849.78693 1344.7856 4293455871
-2.4238532 850.7135 1345.5669 4293455871
0.80795103 850.4046 1345.3065 4293258751
4.8477063 850.7135 1345.5669 4293127167
7.2715597 851.64001 1346.3481 4293521919
16.966972 851.64001 1346.3481 4293258751
-73.045868 843.13898 1347.0284 4290625264
-60.871559 845.00043 1348.598 4290756334
-58.436699 845.00043 1348.598 4290691570
-56.001835 845.00043 1348.598 4290823413
-53.566971 845.00043 1348.598 4290956277
-13.331193 853.49304 1347.9105 4289185522
-4.8477063 853.49304 1347.9105 4293521919
-2.4238532 853.49304 1347.9105 4293456127
0 853.49304 1347.9105 4293456127
9.6954126 853.49304 1347.9105 4293192959
14.543119 853.49304 1347.9105 4293258751
0 855.34607 1349.473 4293456127
9.6954126 855.34607 1349.473 4293456127
12.119267 855.34607 1349.473 4293521919
-70.611008 846.86194 1350.1675 4290491116
-64.523857 846.86194 1350.1675 4290821356
-58.436699 846.86194 1350.1675 4290757881
-51.943729 847.48242 1350.6907 4289838579
-48.697247 846.86194 1350.1675 4287212770
-46.262386 847.79266 1350.9523 4285632966
-43.827522 848.72339 1351.7371 4286419682
-41.392662 848.72339 1351.7371 4286419682
-37.740364 848.72339 1351.7371 4288324841
-34.088074 848.72339 1351.7371 4289378295
-31.653212 848.72339 1351.7371 4290825727
-29.218349 848.72339 1351.7371 4291218943
-25.566055 848.72339 1351.7371 4291876863
-21.913761 848.72339 1351.7371 4290758143
-19.478899 848.72339 1351.7371 4289642736
-17.044037 848.72339 1351.7371 4289510894
-9.7394495 848.72339 1351.7371 4293061119
-7.3045874 847.79266 1350.9523 4293390847
-4.8697248 848.72339 1351.7371 4293653503
2.4348624 848.72339 1351.7371 4293192959
9.6954126 857.19916 1351.0354 4293587711
-68.433029 844.42438 1354.6523 4290622699
-61.100918 844.42438 1354.6523 4290953963
-56.212845 844.42438 1354.6523 4290757881
-51.132111 850.58484 1353.3066 4290035455
-43.827522 850.58484 1353.3066 4289375724
-41.392662 850.58484 1353.3066 4289639152
-36.522934 850.58484 1353.3066 4290625264
-34.088074 850.58484 1353.3066 4291086328
-25.566055 850.58484 1353.3066 4291219455
-21.913761 850.58484 1353.3066 4289575679
-19.478899 850.58484 1353.3066 4288723179
-17.044037 850.58484 1353.3066 4288131042
-9.7394495 850.58484 1353.3066 4292601855
-7.3045874 850.58484 1353.3066 4293193983
7.3045874 850.58484 1353.3066 4293390079
-17.044037 852.44635 1354.8762 4288983266
-13.391743 852.44635 1354.8762 4290759935
-9.7394495 852.44635 1354.8762 4293061375
-7.3045874 852.44635 1354.8762 4293324543
-4.8697248 852.44635 1354.8762 4293258751
-2.4348624 852.44635 1354.8762 4293258751
4.8697248 852.44635 1354.8762 4293192959
7.3045874 852.44635 1354.8762 4293192959
-70.877068 846.29285 1356.2278 4290625525
-68.433029 846.29285 1356.2278 4290953965
-64.766968 846.29285 1356.2278 4291348725
-58.656879 847.22711 1357.0156 4291020797
-56.212845 847.22711 1357.0156 4291020540
-53.768806 847.22711 1357.0156 4290430205
-48.880733 847.22711 1357.0156 4288656358
-46.436699 848.16138 1357.8033 4289378024
-39.104588 848.16138 1357.8033 4290362091
-31.772476 848.16138 1357.8033 4291152121
-29.32844 848.16138 1357.8033 4291218175
2.4440367 848.16138 1357.8033 4293390079
4.8880734 848.16138 1357.8033 4293390079
-17.044037 854.3078 1356.4457 4293191423
-13.391743 854.3078 1356.4457 4293848831
-2.4348624 854.3078 1356.4457 4293259007
0 854.3078 1356.4457 4293456127
4.8697248 854.3078 1356.4457 4293456127
7.3045874 854.3078 1356.4457 4293521919
-12.174312 856.16931 1358.0153 4293718015
-61.330276 843.8623 1360.7188 4291151862
-61.100918 850.96411 1360.1665 4291219196
-58.656879 850.02985 1359.3788 4291153407
-56.212845 850.02985 1359.3788 4291416319
-52.13945 850.65265 1359.9039 4290495999
-48.880733 850.96411 1360.1665 4290035709
-46.436699 850.96411 1360.1665 4290035710
-43.992661 850.96411 1360.1665 4290167796
-40.326607 850.02985 1359.3788 4290232056
-36.660549 850.02985 1359.3788 4291218687
-34.216515 850.02985 1359.3788 4291087359
-31.772476 850.02985 1359.3788 4290955775
-29.32844 850.02985 1359.3788 4290890495
-25.662384 850.02985 1359.3788 4290956541
-21.99633 850.96411 1360.1665 4289050610
-19.552294 850.96411 1360.1665 4290363630
-9.7761469 851.89832 1360.9542 4293719551
-7.3321099 851.89832 1360.9542 4293521919
-4.8880734 851.89832 1360.9542 4293061631
2.4440367 850.96411 1360.1665 4293587711
-67.463303 845.73785 1362.3 4291153405
-61.330276 845.73785 1362.3 4291087098
-71.14312 847.61334 1363.8815 4292007935
-51.324772 853.76685 1362.5297 4290495999
-19.552294 853.76685 1362.5297 4293455871
-17.108257 853.76685 1362.5297 4293982207
-14.66422 853.76685 1362.5297 4293981183
-9.7761469 853.76685 1362.5297 4293521919
-19.552294 855.63531 1364.1051 4293325055
-53.970642 849.48883 1365.4628 4290825471
-49.06422 851.36438 1367.0442 4290692604
-46.611008 851.36438 1367.0442 4290889982
-44.157799 851.36438 1367.0442 4291087614
-40.886852 850.11401 1365.9899 4290693885
-34.344955 849.48883 1365.4628 4289773049
-31.891743 849.48883 1365.4628 4288391396
-29.438532 849.48883 1365.4628 4287865833
-25.758717 850.42657 1366.2535 4287932138
-22.078899 851.36438 1367.0442 4291681535
-67.715599 845.1969 1368.3842 4292270591
-64.022018 845.1969 1368.3842 4291482110
-66.484406 847.07941 1369.9714 4291679231
-64.022018 847.07941 1369.9714 4290956798
-36.93578 847.07941 1369.9714 4290496511
-44.157799 853.23987 1368.6256 4292797183
-22.078899 853.23987 1368.6256 4293521663
-17.172478 853.23987 1368.6256 4293127423
-14.719266 853.23987 1368.6256 4293061631
-19.625689 855.11536 1370.2069 4293521919
-39.398167 848.96191 1371.5587 4289971967
-36.93578 848.96191 1371.5587 4289511423
-34.473396 848.96191 1371.5587 4288262891
-32.011009 848.96191 1371.5587 4286289101
-29.548624 848.96191 1371.5587 4287273696
-46.78532 850.84448 1373.146 4292667647
-40.629356 850.84448 1373.146 4288195037
-36.93578 850.84448 1373.146 4285763786
-34.473396 850.84448 1373.146 4285701323
-32.011009 850.84448 1373.146 4287477734
-28.317432 850.84448 1373.146 4291744252
-24.623854 850.84448 1373.146 4293455615
-44.322937 852.72699 1374.7333 4291024895
-40.629356 853.66821 1375.5269 4286554577
-36.93578 853.66821 1375.5269 4287934423
-34.473396 853.66821 1375.5269 4290431468
-32.011009 852.72699 1374.7333 4290565887
