# .PCD v0.7 - Point Cloud Data file format
VERSION 0.7
FIELDS x y z rgb
SIZE 4 4 4 4
TYPE F F F U
COUNT 1 1 1 1
WIDTH 1157
HEIGHT 1
VIEWPOINT 0 0 0 1 0 0 0
POINTS 1157
DATA ascii
-14.168807 824.83875 1279.277 4288978406
-11.80734 824.83875 1279.277 4292925951
-7.0844035 824.83875 1279.277 4294442239
-30.699083 826.6441 1280.7992 4285827001
-28.337614 826.6441 1280.7992 4285432005
-25.976147 826.6441 1280.7992 4286418900
-23.614679 826.6441 1280.7992 4286813135
-7.0844035 826.6441 1280.7992 4294244095
-4.7229357 826.6441 1280.7992 4293390079
-25.875229 832.83264 1279.4771 4287273185
-22.34679 832.83264 1279.4771 4285954755
-18.818348 832.83264 1279.4771 4283457938
-7.056881 832.83264 1279.4771 4293457407
-25.875229 834.63098 1280.9934 4288192749
-22.34679 834.63098 1280.9934 4286086591
-7.056881 834.63098 1280.9934 4293326079
-4.704587 834.63098 1280.9934 4293850879
-18.744955 838.99304 1278.1312 4283985049
-16.401834 838.99304 1278.1312 4283985049
-14.058716 838.99304 1278.1312 4281164691
-10.544037 838.99304 1278.1312 4288134643
-22.259632 840.78436 1279.6416 4284970663
-18.744955 840.78436 1279.6416 4283590303
-16.401834 840.78436 1279.6416 4283919525
-14.058716 840.78436 1279.6416 4282476217
-10.544037 840.78436 1279.6416 4287934457
-4.6862388 840.78436 1279.6416 4294245119
-25.450459 777.5177 1283.8501 4290824959
-21.814678 777.5177 1283.8501 4281945494
-7.2715597 777.5177 1283.8501 4294967295
-4.8477063 777.5177 1283.8501 4294901759
-2.4238532 777.5177 1283.8501 4294967295
-24.14679 782.07483 1281.1523 4289051903
-21.732111 782.07483 1281.1523 4283459517
-19.31743 782.07483 1281.1523 4281633727
-16.902752 782.07483 1281.1523 4289986559
-24.14679 783.9209 1282.709 4288259296
-21.732111 783.9209 1282.709 4287601366
-19.31743 783.9209 1282.709 4290760703
-16.902752 783.9209 1282.709 4293721599
-7.2440367 783.9209 1282.709 4294639615
-4.8293576 783.9209 1282.709 4294574079
-2.4146788 783.9209 1282.709 4294770687
-19.244038 790.2959 1281.5442 4294967295
-16.838531 790.2959 1281.5442 4293850615
-13.230275 790.2959 1281.5442 4293851135
-9.6220188 790.2959 1281.5442 4294377215
-7.2165136 790.2959 1281.5442 4294639615
-4.8110094 790.2959 1281.5442 4294508031
-2.4055047 790.2959 1281.5442 4294705151
-24.055046 792.13495 1283.0947 4278347176
-21.649542 792.13495 1283.0947 4289658879
-19.244038 792.13495 1283.0947 4294967295
-16.838531 792.13495 1283.0947 4293918463
-13.230275 792.13495 1283.0947 4293653503
-9.6220188 792.13495 1283.0947 4294113023
-7.2165136 792.13495 1283.0947 4294113023
-4.8110094 792.13495 1283.0947 4294113023
7.2165136 792.13495 1283.0947 4294574079
-26.359632 800.30701 1283.4451 4282010001
-21.566973 800.30701 1283.4451 4289515519
-19.170643 800.30701 1283.4451 4292600060
-16.774311 799.39099 1282.6726 4293651711
-14.377981 799.39099 1282.6726 4293849599
-11.182874 799.69629 1282.9302 4294244863
-26.258715 806.61194 1282.2211 4282601609
-22.677982 806.61194 1282.2211 4286414800
-19.097248 806.61194 1282.2211 4291544049
-16.710093 806.61194 1282.2211 4291675635
-14.322936 806.61194 1282.2211 4291348223
-10.742202 806.61194 1282.2211 4294572799
-31.033028 808.43701 1283.7599 4288059864
-28.645872 808.43701 1283.7599 4286021832
-26.258715 808.43701 1283.7599 4282732182
-23.871559 808.43701 1283.7599 4284434828
-11.93578 808.43701 1283.7599 4294503935
-7.161468 808.43701 1283.7599 4293850367
-30.937614 812.36346 1281.8385 4288915695
-28.557798 812.36346 1281.8385 4286416090
-26.177982 812.36346 1281.8385 4282402461
-23.798164 812.36346 1281.8385 4282796692
-11.899082 812.36346 1281.8385 4294308095
-33.317432 814.18286 1283.3726 4287535839
-28.557798 814.18286 1283.3726 4285630931
-4.7596331 814.18286 1283.3726 4293719551
-40.300919 820.42749 1282.0977 4282602391
-37.930275 820.42749 1282.0977 4283983012
-34.374313 820.42749 1282.0977 4286943693
-30.818348 820.42749 1282.0977 4287798743
-28.447706 820.42749 1282.0977 4286746318
-26.077065 820.42749 1282.0977 4286746318
-4.7412844 820.42749 1282.0977 4293718783
-42.671558 822.23987 1283.6259 4284180648
-40.300919 822.23987 1283.6259 4284246441
-37.930275 822.23987 1283.6259 4284575915
-34.374313 822.23987 1283.6259 4286878660
-28.447706 822.23987 1283.6259 4286680262
-4.7412844 822.23987 1283.6259 4294113023
-42.50642 829.35217 1283.0825 4285495717
-40.144955 829.35217 1283.0825 4285364131
-37.783485 829.35217 1283.0825 4286021048
-34.241287 829.35217 1283.0825 4286943173
-30.699083 829.35217 1283.0825 4285693875
-28.337614 829.35217 1283.0825 4285891530
-7.0844035 828.44946 1282.3214 4294310143
-4.7229357 829.35217 1283.0825 4293784831
-2.3614678 830.25482 1283.8436 4293653503
-28.227524 836.42932 1282.5096 4286745805
-25.875229 836.42932 1282.5096 4286811598
-22.34679 836.42932 1282.5096 4285495486
-7.056881 836.42932 1282.5096 4292867327
-4.704587 836.42932 1282.5096 4293850623
-2.3522935 836.42932 1282.5096 4293653503
-22.259632 842.57568 1281.1521 4282405277
-18.744955 842.57568 1281.1521 4281554277
-7.0293579 842.57568 1281.1521 4293588735
-4.6862388 842.57568 1281.1521 4294245119
-2.3431194 842.57568 1281.1521 4293982207
-18.744955 844.36707 1282.6625 4282999719
-16.401834 844.36707 1282.6625 4290697215
-14.058716 844.36707 1282.6625 4292731903
-10.544037 844.36707 1282.6625 4290694655
-7.0293579 844.36707 1282.6625 4293064959
-4.6862388 844.36707 1282.6625 4294048511
-2.3431194 844.36707 1282.6625 4293982719
-29.32844 764.07947 1286.9076 4283921333
-25.662384 763.1452 1286.1199 4286548950
-21.99633 763.1452 1286.1199 4293255935
-19.552294 763.1452 1286.1199 4293518079
-29.086239 779.37079 1285.4126 4288121562
-26.662386 779.37079 1285.4126 4291213823
-7.2715597 779.37079 1285.4126 4294639615
-4.8477063 779.37079 1285.4126 4294574079
-2.4238532 779.37079 1285.4126 4294836223
1.2119266 779.37079 1285.4126 4294901759
-29.086239 781.22388 1286.9751 4286678183
-26.662386 781.22388 1286.9751 4288980938
1.2119266 781.22388 1286.9751 4294901759
-24.14679 785.76697 1284.2655 4284830889
-21.732111 785.76697 1284.2655 4294966015
-19.31743 785.76697 1284.2655 4294967295
-2.4146788 785.76697 1284.2655 4294443007
1.2073394 785.76697 1284.2655 4294508543
4.8293576 785.76697 1284.2655 4294048767
-25.35413 787.61298 1285.822 4280106385
-21.732111 787.61298 1285.822 4293918719
1.2073394 787.61298 1285.822 4294836223
4.8293576 787.61298 1285.822 4294443007
-25.257797 793.974 1284.6454 4280241039
-21.649542 793.974 1284.6454 4290641919
-19.244038 793.974 1284.6454 4294967295
-16.838531 793.974 1284.6454 4294967295
-12.027523 793.974 1284.6454 4294508031
-9.6220188 793.974 1284.6454 4294113023
-4.8110094 793.974 1284.6454 4294047231
9.6220188 793.974 1284.6454 4294377215
-25.257797 795.81299 1286.196 4282535575
-21.649542 795.81299 1286.196 4292009215
-19.244038 795.81299 1286.196 4293519359
-9.6220188 795.81299 1286.196 4293916415
-7.2165136 795.81299 1286.196 4293916415
-4.8110094 795.81299 1286.196 4293916415
9.6220188 795.81299 1286.196 4294114559
-31.152294 803.97107 1286.5344 4285233334
-28.755962 803.05505 1285.7621 4285036728
-26.359632 802.13904 1284.9897 4282471323
-22.765137 802.13904 1284.9897 4284516557
-10.783486 802.13904 1284.9897 4294310143
-7.1889906 803.97107 1286.5344 4294244863
-4.7926607 803.97107 1286.5344 4294114559
-2.3963304 803.97107 1286.5344 4293917183
-40.58165 812.08698 1286.8374 4283130274
-38.194496 812.08698 1286.8374 4283787938
-34.613762 811.17444 1286.0681 4287272662
-7.161468 810.26196 1285.2987 4293916159
-4.774312 810.26196 1285.2987 4293916927
-40.456882 816.00226 1284.9066 4282142103
-38.077065 816.00226 1284.9066 4283655846
-35.697247 816.00226 1284.9066 4287011289
-2.3798165 817.82166 1286.4407 4294113535
0 817.82166 1286.4407 4294244863
-45.042202 824.05225 1285.1539 4284705958
-42.671558 824.05225 1285.1539 4285886886
-40.300919 824.05225 1285.1539 4285820837
-37.930275 824.05225 1285.1539 4285364143
-34.374313 824.05225 1285.1539 4286483906
-2.3706422 824.05225 1285.1539 4293587711
0 824.05225 1285.1539 4293784575
-46.227524 825.86462 1286.6821 4284770979
-2.3706422 825.86462 1286.6821 4293718783
0 825.86462 1286.6821 4293784575
-42.50642 832.96289 1286.1271 4284641181
-40.144955 832.96289 1286.1271 4285628077
-37.783485 832.96289 1286.1271 4286153145
-34.241287 832.96289 1286.1271 4286022073
-30.699083 832.96289 1286.1271 4285890746
-28.337614 832.06018 1285.366 4286811096
-2.3614678 832.06018 1285.366 4293850879
0 833.86554 1286.8882 4293653759
-28.227524 838.22766 1284.026 4285627573
-25.875229 838.22766 1284.026 4285956539
-7.056881 838.22766 1284.026 4293129727
-2.3522935 838.22766 1284.026 4293916159
-31.755962 840.026 1285.5424 4284829599
-28.227524 840.026 1285.5424 4282207896
-25.875229 840.026 1285.5424 4282734496
-21.088074 846.15839 1284.1729 4291548415
-18.744955 846.15839 1284.1729 4291416315
-16.401834 846.15839 1284.1729 4294967295
-14.058716 846.15839 1284.1729 4294967295
-10.544037 846.15839 1284.1729 4294508543
-4.6862388 846.15839 1284.1729 4293128447
-29.438532 757.58936 1287.9755 4283329656
-25.758717 757.58936 1287.9755 4285361578
-22.078899 757.58936 1287.9755 4291209471
-19.625689 757.58936 1287.9755 4290621695
-31.891743 759.46484 1289.5569 4284050089
-29.438532 759.46484 1289.5569 4283921040
-17.172478 759.46484 1289.5569 4287662780
-31.772476 765.94794 1288.4832 4283461311
-29.32844 765.94794 1288.4832 4287928548
-25.662384 765.94794 1288.4832 4287007208
-21.99633 765.94794 1288.4832 4288783615
-19.552294 765.94794 1288.4832 4290493951
-29.218349 772.40302 1287.3857 4292008959
-25.566055 772.40302 1287.3857 4291944959
-21.913761 772.40302 1287.3857 4284117149
-19.478899 772.40302 1287.3857 4283523313
-17.044037 772.40302 1287.3857 4292405247
-13.391743 772.40302 1287.3857 4294967295
-9.7394495 772.40302 1287.3857 4294770687
-7.3045874 772.40302 1287.3857 4294967295
-4.8697248 772.40302 1287.3857 4294705151
-2.4348624 772.40302 1287.3857 4294901759
0 772.40302 1287.3857 4294705151
-31.653212 774.26447 1288.9552 4290888685
-29.218349 774.26447 1288.9552 4290954239
1.2174312 774.26447 1288.9552 4294901759
-29.086239 783.0769 1288.5375 4283394475
-26.662386 783.0769 1288.5375 4282209945
-31.390825 791.30505 1288.9351 4287667688
-28.976147 790.38202 1288.1567 4285302213
-26.561468 789.45898 1287.3785 4280697476
-7.2440367 791.30505 1288.9351 4293981439
-2.4146788 790.38202 1288.1567 4294441983
0 789.45898 1287.3785 4294442239
4.8293576 790.38202 1288.1567 4294508543
7.2440367 791.30505 1288.9351 4294574079
-31.271559 797.65204 1287.7466 4286946026
-28.866055 797.65204 1287.7466 4286154960
-24.055046 797.65204 1287.7466 4281423013
-7.2165136 797.65204 1287.7466 4294179583
-4.8110094 797.65204 1287.7466 4294245375
-2.4055047 797.65204 1287.7466 4294574079
-33.677063 799.49109 1289.2972 4282800539
-31.271559 799.49109 1289.2972 4285037501
-7.2165136 799.49109 1289.2972 4294245119
-4.8110094 799.49109 1289.2972 4294377215
-2.4055047 799.49109 1289.2972 4294245375
-34.746788 805.80304 1288.0791 4287534036
-4.7926607 805.80304 1288.0791 4293719551
-2.3963304 805.80304 1288.0791 4293653759
-38.341286 807.63507 1289.6239 4283984034
-35.944954 807.63507 1289.6239 4286615754
-2.3963304 807.63507 1289.6239 4293982719
-2.387156 813.91199 1288.3762 4294179071
1.193578 814.82446 1289.1456 4294179071
-46.406422 820.55072 1288.7417 4284574375
-2.3798165 819.64099 1287.9747 4294113023
0 819.64099 1287.9747 4294113023
-46.227524 827.677 1288.2102 4285297825
0 827.677 1288.2102 4293850623
-52.154129 829.48938 1289.7384 4285296280
-49.783485 829.48938 1289.7384 4285427867
-46.227524 829.48938 1289.7384 4285493662
0 829.48938 1289.7384 4293719551
-37.783485 835.6709 1288.4104 4286738600
-34.241287 835.6709 1288.4104 4286016423
-30.699083 835.6709 1288.4104 4285360038
0 835.6709 1288.4104 4293850623
-54.313763 837.47626 1289.9326 4286798749
-43.687157 837.47626 1289.9326 4288112813
-40.144955 837.47626 1289.9326 4288178087
-37.783485 837.47626 1289.9326 4287783857
-35.42202 837.47626 1289.9326 4287586477
0 837.47626 1289.9326 4293719551
-30.579817 841.82434 1287.0586 4284769201
-28.227524 841.82434 1287.0586 4282801823
-25.875229 841.82434 1287.0586 4282670236
-22.34679 841.82434 1287.0586 4281424294
0 841.82434 1287.0586 4293982207
-28.227524 843.62268 1288.575 4291614207
-25.875229 843.62268 1288.575 4292074751
-23.522936 843.62268 1288.575 4292272383
-7.056881 843.62268 1288.575 4293786623
-2.3522935 843.62268 1288.575 4293325567
0 843.62268 1288.575 4293456127
-34.344955 761.34033 1291.1383 4283855289
-31.891743 761.34033 1291.1383 4282868394
-17.172478 761.34033 1291.1383 4286872748
-40.477982 763.21582 1292.7196 4286878414
-36.798164 763.21582 1292.7196 4285695163
-34.344955 763.21582 1292.7196 4283198139
-17.172478 763.21582 1292.7196 4290033407
-13.492661 763.21582 1292.7196 4292009456
-36.660549 767.81641 1290.0586 4287996106
-31.772476 767.81641 1290.0586 4287273180
-29.32844 767.81641 1290.0586 4289707775
-25.662384 767.81641 1290.0586 4289838829
-21.99633 767.81641 1290.0586 4286219177
-19.552294 767.81641 1290.0586 4287267583
-17.108257 767.81641 1290.0586 4292531199
-13.442202 767.81641 1290.0586 4294967295
-9.7761469 767.81641 1290.0586 4294967295
-39.104588 769.68494 1291.634 4286481852
-36.660549 769.68494 1291.634 4288718814
-34.216515 769.68494 1291.634 4290953727
-31.772476 769.68494 1291.634 4291019519
-34.088074 776.12592 1290.5248 4287072460
-31.653212 776.12592 1290.5248 4287335375
-37.740364 777.98743 1292.0944 4285562049
-34.088074 777.98743 1292.0944 4285957306
-31.653212 777.98743 1292.0944 4285562548
-31.510092 784.92993 1290.1 4286943963
-29.086239 784.92993 1290.1 4283789263
-33.933945 786.78302 1291.6624 4288062448
-31.510092 786.78302 1291.6624 4287535848
2.4238532 786.78302 1291.6624 4294770687
-31.390825 793.15112 1290.4916 4287405286
-28.976147 793.15112 1290.4916 4286286285
-2.4146788 793.15112 1290.4916 4294311167
0 794.0741 1291.2698 4294310911
7.2440367 793.15112 1290.4916 4294180351
-37.285324 802.24963 1291.6232 4284903607
-33.677063 801.33008 1290.8479 4284904112
0 802.24963 1291.6232 4293785343
-2.3963304 809.46704 1291.1686 4293719551
0 809.46704 1291.1686 4293718783
-43.133945 811.29907 1292.7133 4283063205
2.3963304 811.29907 1292.7133 4294442239
4.7926607 811.29907 1292.7133 4294245375
7.1889906 811.29907 1292.7133 4294245375
9.5853214 811.29907 1292.7133 4293719551
2.387156 817.56201 1291.4539 4294047231
4.774312 817.56201 1291.4539 4293851135
14.322936 817.56201 1291.4539 4294639615
2.387156 819.38696 1292.9927 4293916159
4.774312 819.38696 1292.9927 4293851135
-49.976147 825.09918 1292.5769 4285296282
2.3798165 825.09918 1292.5769 4294179327
4.7596331 825.09918 1292.5769 4294048511
-54.524769 833.11414 1292.7947 4285226140
-52.154129 832.20795 1292.0306 4285031572
-49.783485 832.20795 1292.0306 4285228951
-46.227524 832.20795 1292.0306 4285556126
-42.671558 833.11414 1292.7947 4285815206
-40.300919 833.11414 1292.7947 4287065530
-55.494495 839.28162 1291.4548 4287399612
-51.952293 839.28162 1291.4548 4287925436
-49.590824 839.28162 1291.4548 4288780745
-47.229359 839.28162 1291.4548 4289633751
-43.687157 839.28162 1291.4548 4289896150
-40.144955 839.28162 1291.4548 4290158291
-37.783485 839.28162 1291.4548 4289697248
-34.241287 839.28162 1291.4548 4287989716
2.3614678 839.28162 1291.4548 4294245375
-49.590824 841.08698 1292.9771 4290560754
-47.229359 841.08698 1292.9771 4291084781
-43.687157 841.08698 1292.9771 4290688738
-40.144955 841.08698 1292.9771 4292924927
-37.783485 841.08698 1292.9771 4292533503
-34.241287 841.08698 1292.9771 4292599551
-30.699083 841.08698 1292.9771 4292468223
-22.34679 845.42102 1290.0913 4293456127
-18.818348 845.42102 1290.0913 4293850367
-16.466055 845.42102 1290.0913 4294967295
-14.113762 845.42102 1290.0913 4294967295
-10.585321 845.42102 1290.0913 4294901759
-7.056881 845.42102 1290.0913 4293850879
-4.704587 845.42102 1290.0913 4293258751
-2.3522935 845.42102 1290.0913 4293653503
0 845.42102 1290.0913 4293521407
-21.170643 847.21942 1291.6075 4291416575
-16.466055 847.21942 1291.6075 4293193983
-14.113762 847.21942 1291.6075 4293786367
-11.761468 847.21942 1291.6075 4294901759
-44.322937 758.60126 1295.3689 4286549446
-40.629356 758.60126 1295.3689 4286944206
-36.93578 757.66003 1294.5752 4286286537
-34.473396 756.71875 1293.7816 4285036984
-13.543119 757.66003 1294.5752 4281816671
-44.157799 766.02905 1295.0917 4286154953
-40.886852 765.71649 1294.8281 4286944204
-34.344955 765.09131 1294.301 4287404766
-7.359633 765.09131 1294.301 4294967295
-4.9064221 765.09131 1294.301 4294967295
-2.4532111 765.09131 1294.301 4294967295
0 765.09131 1294.301 4294967295
-43.992661 773.42188 1294.7849 4286350797
-39.919266 772.79907 1294.2598 4286351044
-36.660549 772.48767 1293.9972 4287074763
-34.216515 771.55341 1293.2095 4290559721
-37.740364 779.84888 1293.6639 4286549457
-34.088074 779.84888 1293.6639 4286945750
-31.653212 779.84888 1293.6639 4286024648
-37.740364 781.71033 1295.2334 4287666654
-34.088074 781.71033 1295.2334 4287930858
-36.3578 788.63611 1293.2249 4287273444
-33.933945 788.63611 1293.2249 4287864811
1.2119266 788.63611 1293.2249 4294508031
-37.569725 790.48914 1294.7874 4284842698
-33.933945 790.48914 1294.7874 4285497033
2.4238532 790.48914 1294.7874 4294245375
4.8477063 790.48914 1294.7874 4294048511
-36.220184 796.8432 1293.6047 4283326895
0 796.8432 1293.6047 4294113535
-38.634861 798.68921 1295.1613 4285430981
-43.299084 805.92767 1294.7244 4284182196
-40.893578 805.00818 1293.9491 4283720878
1.2027524 805.92767 1294.7244 4293785087
4.8110094 806.84717 1295.4998 4293851135
7.2165136 806.84717 1295.4998 4293719551
9.6220188 805.92767 1294.7244 4293587967
-55.115597 814.96313 1295.8027 4285099165
-50.322937 814.96313 1295.8027 4284770705
-46.728439 814.04712 1295.0303 4284113828
-43.133945 813.1311 1294.2579 4282602391
4.7926607 813.1311 1294.2579 4294114559
7.1889906 814.04712 1295.0303 4293851135
10.783485 814.04712 1295.0303 4294113791
-54.904587 821.21198 1294.5314 4284837024
-50.130276 821.21198 1294.5314 4284508311
2.387156 821.21198 1294.5314 4294179327
4.774312 821.21198 1294.5314 4294179583
-54.735779 826.91858 1294.111 4284903069
2.3798165 826.91858 1294.111 4293916927
4.7596331 826.91858 1294.111 4294048511
7.1394496 826.91858 1294.111 4294574079
11.899082 826.91858 1294.111 4291089649
-54.735779 828.73798 1295.645 4284311961
2.3798165 828.73798 1295.645 4294048511
4.7596331 828.73798 1295.645 4294048511
7.1394496 828.73798 1295.645 4294048511
10.709174 828.73798 1295.645 4294376703
16.658716 828.73798 1295.645 4294705151
19.038532 828.73798 1295.645 4291552511
-56.895412 834.92651 1294.3229 4286272405
-52.154129 834.92651 1294.3229 4287194522
-49.783485 834.92651 1294.3229 4287457695
-47.412846 834.92651 1294.3229 4287784624
4.7412844 836.73889 1295.851 4294179583
7.1119266 836.73889 1295.851 4294245375
10.667891 836.73889 1295.851 4293982719
16.594496 835.8327 1295.0869 4293588735
18.965137 835.8327 1295.0869 4293654271
-47.229359 842.89233 1294.4993 4290296031
-43.687157 842.89233 1294.4993 4290098642
-40.144955 842.89233 1294.4993 4292730096
-37.783485 842.89233 1294.4993 4292992255
-34.241287 842.89233 1294.4993 4292861695
-30.699083 842.89233 1294.4993 4293060095
-28.337614 842.89233 1294.4993 4293126655
-25.976147 842.89233 1294.4993 4293324287
-49.247707 760.48376 1296.9562 4285035952
-46.78532 760.48376 1296.9562 4286483398
-44.322937 760.48376 1296.9562 4286680012
-9.8495417 760.48376 1296.9562 4294967295
-7.387156 760.48376 1296.9562 4294967295
-4.9247708 760.48376 1296.9562 4294967295
-46.78532 762.36627 1298.5435 4286154949
-44.157799 768.84229 1297.4637 4286680264
-41.704586 768.84229 1297.4637 4286943436
-48.880733 775.29034 1296.3604 4284773037
-46.436699 775.29034 1296.3604 4285562296
-43.992661 775.29034 1296.3604 4285823697
-41.548622 775.29034 1296.3604 4286481883
-53.768806 777.15887 1297.9358 4284180394
-48.880733 777.15887 1297.9358 4285166516
-46.436699 777.15887 1297.9358 4285758910
-43.992661 777.15887 1297.9358 4285562058
-41.548622 777.15887 1297.9358 4286351831
-56.001835 785.43329 1298.3726 4284509597
-53.566971 785.43329 1298.3726 4284509345
-48.697247 785.43329 1298.3726 4284970428
-46.262386 785.43329 1298.3726 4286352081
-43.827522 784.50256 1297.5878 4286417875
-41.392662 785.43329 1298.3726 4286220240
-38.146175 784.19232 1297.3262 4286746842
-43.629356 794.19525 1297.9122 4285958340
-41.205505 794.19525 1297.9122 4285892547
-37.973698 792.9599 1296.8706 4284052165
-33.933945 792.34216 1296.3497 4283327667
2.4238532 793.26868 1297.131 4294179327
4.8477063 793.26868 1297.131 4294047999
7.2715597 793.26868 1297.131 4294311167
-43.464222 800.53528 1296.7178 4285562812
-41.049541 800.53528 1296.7178 4284773296
2.4146788 800.53528 1296.7178 4293916927
4.8293576 800.53528 1296.7178 4293850623
7.2440367 800.53528 1296.7178 4294113535
9.6587152 800.53528 1296.7178 4293982719
-57.952293 802.38135 1298.2743 4284440458
-55.537613 802.38135 1298.2743 4284243079
-45.878899 802.38135 1298.2743 4286351551
2.4146788 802.38135 1298.2743 4293982719
4.8293576 802.38135 1298.2743 4293982207
7.2440367 802.38135 1298.2743 4294179327
-60.137615 808.68622 1297.0503 4283651721
-57.732109 808.68622 1297.0503 4283454078
-55.326607 808.68622 1297.0503 4283190907
-45.704586 808.68622 1297.0503 4285496240
-55.326607 810.52527 1298.601 4283781763
-52.921101 810.52527 1298.601 4283323010
-49.312843 810.52527 1298.601 4283850135
-57.511925 818.62714 1298.8921 4284179351
-55.115597 816.79517 1297.3474 4284640413
-52.719265 817.71118 1298.1198 4284640667
-50.322937 816.79517 1297.3474 4284509595
7.1889906 817.71118 1298.1198 4294114047
10.384098 818.01642 1298.3772 4293061625
14.377981 818.62714 1298.8921 4285504767
16.774311 818.62714 1298.8921 4283925752
19.170643 818.62714 1298.8921 4279917761
-57.291744 823.03699 1296.0702 4284901271
-54.904587 823.03699 1296.0702 4285230235
-52.517429 823.03699 1296.0702 4285098904
7.161468 823.03699 1296.0702 4294377471
10.344342 823.64532 1296.5831 4291485942
14.322936 823.94946 1296.8396 4283996154
16.710093 823.94946 1296.8396 4281824995
19.097248 823.03699 1296.0702 4280638626
2.3798165 830.55737 1297.1791 4294442751
4.7596331 830.55737 1297.1791 4293982719
7.1394496 830.55737 1297.1791 4293916927
10.709174 830.55737 1297.1791 4294377215
16.658716 830.55737 1297.1791 4294836223
19.038532 830.55737 1297.1791 4294180351
2.3798165 832.37677 1298.7131 4294180095
4.7596331 832.37677 1298.7131 4294048511
7.1394496 832.37677 1298.7131 4294048511
10.709174 832.37677 1298.7131 4293983231
14.278899 832.37677 1298.7131 4293523455
-54.524769 838.55127 1297.3792 4291021305
-52.154129 838.55127 1297.3792 4290560754
2.3706422 838.55127 1297.3792 4293653503
4.7412844 838.55127 1297.3792 4293587711
7.1119266 838.55127 1297.3792 4293916671
10.667891 838.55127 1297.3792 4293785343
14.223853 838.55127 1297.3792 4293587711
16.594496 838.55127 1297.3792 4293587711
18.965137 838.55127 1297.3792 4293391103
-54.524769 840.36365 1298.9072 4291153663
-52.154129 840.36365 1298.9072 4290626047
-49.783485 840.36365 1298.9072 4290362621
2.3706422 840.36365 1298.9072 4293784575
4.7412844 840.36365 1298.9072 4293652735
7.1119266 840.36365 1298.9072 4293916159
10.667891 840.36365 1298.9072 4293850623
14.223853 840.36365 1298.9072 4293784575
16.594496 840.36365 1298.9072 4293521663
18.965137 840.36365 1298.9072 4293521919
-43.687157 844.69769 1296.0215 4290428655
-40.144955 844.69769 1296.0215 4291086069
-37.783485 844.69769 1296.0215 4290888191
-34.241287 844.69769 1296.0215 4292072959
-28.337614 844.69769 1296.0215 4290758399
-25.976147 844.69769 1296.0215 4290956031
-23.614679 844.69769 1296.0215 4291087615
-18.891743 844.69769 1296.0215 4291483391
-9.4458714 844.69769 1296.0215 4294967295
-7.0844035 844.69769 1296.0215 4293981693
-4.7229357 844.69769 1296.0215 4293127167
-2.3614678 844.69769 1296.0215 4293455871
0 844.69769 1296.0215 4293652223
-43.687157 846.50305 1297.5438 4291745791
-40.144955 846.50305 1297.5438 4290758911
-37.783485 846.50305 1297.5438 4290824447
-35.42202 846.50305 1297.5438 4291547903
-28.337614 846.50305 1297.5438 4290955519
-25.976147 846.50305 1297.5438 4290758143
-22.433945 846.50305 1297.5438 4290955518
-18.891743 846.50305 1297.5438 4291417855
-16.530275 846.50305 1297.5438 4291944191
-14.168807 846.50305 1297.5438 4293587711
-10.626606 846.50305 1297.5438 4294967295
-7.0844035 846.50305 1297.5438 4293916671
-4.7229357 846.50305 1297.5438 4293390079
-2.3614678 846.50305 1297.5438 4293258751
0 846.50305 1297.5438 4293455615
-49.431194 755.86212 1299.5995 4285364402
-46.959633 755.86212 1299.5995 4286811848
-9.8862381 755.86212 1299.5995 4282937849
-7.4146791 755.86212 1299.5995 4289517055
-4.943119 755.86212 1299.5995 4292405503
-2.4715595 755.86212 1299.5995 4294770687
-2.4715595 757.75165 1301.1926 4294967295
0 757.75165 1301.1926 4294901759
-46.78532 764.24878 1300.1307 4286089156
-46.78532 766.13135 1301.718 4286483914
-49.06422 770.71783 1299.0452 4284837293
-46.611008 770.71783 1299.0452 4286416324
-48.880733 779.02734 1299.5114 4284970680
-46.436699 779.02734 1299.5114 4286220746
-43.992661 779.02734 1299.5114 4286613715
-41.548622 779.02734 1299.5114 4287140059
-56.212845 780.89581 1301.0868 4284379040
-52.546791 780.89581 1301.0868 4284706988
-48.880733 780.89581 1301.0868 4284642230
-46.436699 780.89581 1301.0868 4286221005
-41.548622 780.89581 1301.0868 4286286287
-56.001835 787.2948 1299.942 4284575388
-53.566971 787.2948 1299.942 4284902817
-48.697247 787.2948 1299.942 4285363637
-46.262386 787.2948 1299.942 4286087359
-43.827522 787.2948 1299.942 4285693898
-41.392662 787.2948 1299.942 4286022607
-56.001835 789.15625 1301.5116 4284509597
-48.697247 789.15625 1301.5116 4284706990
-46.262386 789.15625 1301.5116 4285562299
-43.827522 789.15625 1301.5116 4285825738
-41.392662 789.15625 1301.5116 4285825738
-58.172478 797.90137 1301.0371 4284310158
-55.748623 797.90137 1301.0371 4284046729
-46.053211 796.97485 1300.2559 4286548161
-43.629356 796.04828 1299.4746 4286219709
-41.205505 796.04828 1299.4746 4286153915
2.4238532 796.04828 1299.4746 4294114303
4.8477063 796.04828 1299.4746 4293982207
7.2715597 796.04828 1299.4746 4294245375
-57.952293 804.22736 1299.8308 4283717764
-55.537613 804.22736 1299.8308 4283257213
-53.122936 806.07336 1301.3873 4282863752
-49.500916 806.07336 1301.3873 4285364142
-45.878899 804.22736 1299.8308 4285496501
-57.732109 812.36426 1300.1516 4284375699
-52.921101 812.36426 1300.1516 4284770705
-57.732109 814.20331 1301.7021 4283982740
13.230275 814.20331 1301.7021 4293191420
-59.908257 820.45917 1300.4368 4284769684
14.322936 828.51196 1300.6866 4294508543
14.278899 834.19617 1300.2472 4293719551
-54.524769 842.17603 1300.4354 4290035967
-52.154129 842.17603 1300.4354 4289706744
-49.783485 842.17603 1300.4354 4289443316
-47.412846 842.17603 1300.4354 4288981468
-30.818348 842.17603 1300.4354 4291546623
2.3706422 842.17603 1300.4354 4293981183
4.7412844 842.17603 1300.4354 4293456127
7.1119266 842.17603 1300.4354 4293587711
10.667891 842.17603 1300.4354 4293718015
14.223853 842.17603 1300.4354 4293718015
16.594496 842.17603 1300.4354 4293652223
18.965137 842.17603 1300.4354 4293521919
-54.524769 843.9884 1301.9636 4289771504
-52.154129 843.9884 1301.9636 4289509361
-49.783485 843.9884 1301.9636 4289114603
-47.412846 843.9884 1301.9636 4289574370
-33.188992 843.9884 1301.9636 4291547391
-30.818348 843.9884 1301.9636 4291218175
2.3706422 843.9884 1301.9636 4293981951
4.7412844 843.9884 1301.9636 4293718783
7.1119266 843.9884 1301.9636 4293784575
10.667891 843.9884 1301.9636 4293521919
14.223853 843.9884 1301.9636 4293456127
16.594496 843.9884 1301.9636 4293456127
18.965137 843.9884 1301.9636 4293587711
-37.783485 848.30841 1299.066 4291483135
-35.42202 848.30841 1299.066 4290693887
-25.976147 848.30841 1299.066 4290232557
-22.433945 848.30841 1299.066 4291613182
-16.530275 848.30841 1299.066 4290956796
-14.168807 848.30841 1299.066 4290496510
-11.80734 848.30841 1299.066 4291549183
-56.423855 776.34436 1303.7893 4284312736
-52.744034 776.34436 1303.7893 4284706737
-51.324772 782.76428 1302.6622 4284969896
-51.324772 784.63281 1304.2377 4285166246
-58.436699 791.0177 1303.0812 4283588243
-56.001835 791.0177 1303.0812 4283654036
-52.349541 791.0177 1303.0812 4284575138
-48.697247 791.0177 1303.0812 4284642478
-46.262386 791.0177 1303.0812 4285760958
-58.436699 792.87921 1304.6508 4283785106
-56.001835 792.87921 1304.6508 4283719313
-52.349541 792.87921 1304.6508 4284706722
-48.697247 792.87921 1304.6508 4285955769
-53.324772 799.75439 1302.5996 4282732938
-49.688992 799.75439 1302.5996 4285101229
-53.324772 801.60742 1304.162 4282142080
-49.688992 801.60742 1304.162 4285102254
-60.366974 808.84247 1303.7222 4283850122
-57.952293 807.91943 1302.9438 4283847556
-60.137615 816.04236 1303.2528 4284375699
14.377981 824.12317 1303.5262 4294901759
-57.115597 838.74463 1304.0823 4290825215
-49.783485 845.80078 1303.4917 4288655589
-46.227524 845.80078 1303.4917 4291022580
-42.671558 845.80078 1303.4917 4292535551
-40.300919 845.80078 1303.4917 4291614463
-33.188992 845.80078 1303.4917 4290166262
-30.818348 845.80078 1303.4917 4290166262
-28.447706 845.80078 1303.4917 4290100970
-18.965137 845.80078 1303.4917 4292206847
-9.4825687 845.80078 1303.4917 4292207103
-7.1119266 845.80078 1303.4917 4293457151
-4.7412844 845.80078 1303.4917 4293719295
-2.3706422 845.80078 1303.4917 4293456127
0 845.80078 1303.4917 4292995327
7.1119266 845.80078 1303.4917 4293258495
10.667891 845.80078 1303.4917 4293193471
14.223853 845.80078 1303.4917 4292930303
16.594496 845.80078 1303.4917 4293259007
18.965137 845.80078 1303.4917 4293259263
21.335779 845.80078 1303.4917 4293259263
-52.546791 786.50128 1305.8131 4284640679
-52.349541 794.74066 1306.2202 4284114326
-48.697247 794.74066 1306.2202 4286021816
-60.366974 811.61151 1306.057 4284113554
-57.115597 841.47369 1306.3834 4290297848
-57.115597 843.29309 1307.9175 4288324067
-54.735779 843.29309 1307.9175 4288718825
-52.355965 843.29309 1307.9175 4288195038
2.3798165 843.29309 1307.9175 4293061119
4.7596331 843.29309 1307.9175 4293061119
-49.783485 847.61316 1305.0199 4290296814
-46.227524 847.61316 1305.0199 4291548155
-42.671558 847.61316 1305.0199 4292468735
-40.300919 847.61316 1305.0199 4291876607
-37.930275 847.61316 1305.0199 4291548415
-34.374313 847.61316 1305.0199 4290035437
-30.818348 847.61316 1305.0199 4288785361
-28.447706 847.61316 1305.0199 4289640406
-26.077065 847.61316 1305.0199 4290035164
-22.521101 847.61316 1305.0199 4291744764
-18.965137 847.61316 1305.0199 4292600319
-16.594496 847.61316 1305.0199 4291284475
-14.223853 847.61316 1305.0199 4290496499
-10.667891 847.61316 1305.0199 4291022587
-7.1119266 847.61316 1305.0199 4293457151
-4.7412844 847.61316 1305.0199 4293982463
-2.3706422 847.61316 1305.0199 4293850623
0 847.61316 1305.0199 4293192959
14.223853 847.61316 1305.0199 4293390335
16.594496 847.61316 1305.0199 4293653503
18.965137 847.61316 1305.0199 4293390079
21.335779 847.61316 1305.0199 4293258751
-45.042202 849.42554 1306.5481 4291875832
-42.671558 849.42554 1306.5481 4290824959
-28.447706 849.42554 1306.5481 4291086830
-26.077065 849.42554 1306.5481 4290560486
-22.521101 849.42554 1306.5481 4291217915
-18.965137 849.42554 1306.5481 4291480319
-16.594496 849.42554 1306.5481 4291019775
-14.223853 849.42554 1306.5481 4290495476
-10.667891 849.42554 1306.5481 4289904114
-59.678898 838.54944 1309.1499 4291152121
-61.875229 845.11249 1309.4515 4290227708
-54.735779 845.11249 1309.4515 4289373914
-52.355965 845.11249 1309.4515 4289309919
2.3798165 845.11249 1309.4515 4292929535
4.7596331 845.11249 1309.4515 4292995327
7.1394496 845.11249 1309.4515 4293455871
10.709174 845.11249 1309.4515 4293456127
-52.355965 846.93188 1310.9856 4291480312
-49.976147 846.93188 1310.9856 4291414518
-47.596329 846.93188 1310.9856 4292007419
-40.456882 846.93188 1310.9856 4290562047
-38.077065 846.93188 1310.9856 4290758655
-34.507339 846.93188 1310.9856 4290692856
-30.937614 846.93188 1310.9856 4290693106
-7.1394496 846.93188 1310.9856 4291549439
-4.7596331 846.93188 1310.9856 4292929023
-2.3798165 846.93188 1310.9856 4293981695
0 846.93188 1310.9856 4293325567
4.7596331 846.93188 1310.9856 4292929279
7.1394496 846.93188 1310.9856 4293258495
10.709174 846.93188 1310.9856 4293192959
14.278899 846.93188 1310.9856 4293323775
16.658716 846.93188 1310.9856 4293389567
19.038532 846.93188 1310.9856 4293521407
21.418348 846.93188 1310.9856 4293718527
-59.678898 841.28699 1311.4581 4290557422
-58.485321 843.112 1312.9969 4289504742
-42.836697 848.75128 1312.5198 4290955510
-40.456882 848.75128 1312.5198 4290758131
-38.077065 848.75128 1312.5198 4290758399
-35.697247 848.75128 1312.5198 4291481855
-30.937614 848.75128 1312.5198 4291088377
-28.557798 848.75128 1312.5198 4291021820
-26.177982 848.75128 1312.5198 4290232305
-22.608257 848.75128 1312.5198 4290955770
-19.038532 848.75128 1312.5198 4291086847
-16.658716 848.75128 1312.5198 4290889215
-14.278899 848.75128 1312.5198 4290692607
-10.709174 848.75128 1312.5198 4289969913
-7.1394496 848.75128 1312.5198 4290694655
-4.7596331 848.75128 1312.5198 4291351551
-2.3798165 848.75128 1312.5198 4293785855
0 848.75128 1312.5198 4293653503
7.1394496 848.75128 1312.5198 4293127423
10.709174 848.75128 1312.5198 4293061375
14.278899 848.75128 1312.5198 4293323775
16.658716 848.75128 1312.5198 4293323775
19.038532 848.75128 1312.5198 4293521407
21.418348 848.75128 1312.5198 4293916159
-57.291744 844.93701 1314.5358 4289963738
-54.904587 844.93701 1314.5358 4291411184
2.387156 844.93701 1314.5358 4292930815
-52.517429 846.76196 1316.0745 4291742207
-50.130276 846.76196 1316.0745 4291412991
-46.549541 846.76196 1316.0745 4291086319
-33.420185 846.76196 1316.0745 4291417599
2.387156 846.76196 1316.0745 4293192959
4.774312 846.76196 1316.0745 4292732671
-26.177982 850.57068 1314.0537 4290628607
-22.608257 850.57068 1314.0537 4289839869
-19.038532 850.57068 1314.0537 4289705709
-16.658716 850.57068 1314.0537 4289771502
-14.278899 850.57068 1314.0537 4290429427
-10.709174 850.57068 1314.0537 4290233590
-7.1394496 850.57068 1314.0537 4290431998
9.5192661 850.57068 1314.0537 4292995071
14.278899 850.57068 1314.0537 4293192959
16.658716 850.57068 1314.0537 4293258751
19.038532 850.57068 1314.0537 4293456127
22.608257 850.57068 1314.0537 4293390335
-16.658716 852.39001 1315.5879 4289114842
-64.70092 841.52734 1318.2009 4290032348
-62.304588 842.44336 1318.9733 4289241324
-59.908257 842.44336 1318.9733 4289109737
-50.130276 848.58698 1317.6133 4291479551
-46.549541 848.58698 1317.6133 4291281663
-42.968807 848.58698 1317.6133 4291414266
-40.58165 848.58698 1317.6133 4291282680
-38.194496 848.58698 1317.6133 4290429947
-34.613762 848.58698 1317.6133 4291746559
-31.033028 848.58698 1317.6133 4290892287
-28.645872 848.58698 1317.6133 4290694399
-4.774312 848.58698 1317.6133 4290497279
-2.387156 848.58698 1317.6133 4292668415
0 848.58698 1317.6133 4293390079
4.774312 848.58698 1317.6133 4292798463
7.161468 848.58698 1317.6133 4293127423
11.93578 848.58698 1317.6133 4293126911
-45.355965 850.41199 1319.1521 4291873279
-38.194496 850.41199 1319.1521 4291479807
-35.807339 850.41199 1319.1521 4292729855
-28.645872 850.41199 1319.1521 4290760447
-26.258715 850.41199 1319.1521 4290957567
-22.677982 850.41199 1319.1521 4289904381
-19.097248 850.41199 1319.1521 4289114842
-14.322936 850.41199 1319.1521 4289247467
-10.742202 850.41199 1319.1521 4290037493
14.322936 850.41199 1319.1521 4293192959
16.710093 850.41199 1319.1521 4293390079
19.097248 850.41199 1319.1521 4293455615
23.871559 850.41199 1319.1521 4293456127
-62.304588 844.27539 1320.5181 4289241072
-58.710091 844.27539 1320.5181 4289241319
-55.115597 844.27539 1320.5181 4291412479
-58.710091 846.10736 1322.0627 4290361070
-55.115597 846.10736 1322.0627 4291545084
-52.719265 846.10736 1322.0627 4291742719
2.3963304 846.10736 1322.0627 4292929535
-19.097248 852.237 1320.6909 4288720349
-16.710093 852.237 1320.6909 4289180900
-14.322936 852.237 1320.6909 4289313783
19.097248 852.237 1320.6909 4293257983
-67.354126 841.78876 1324.9615 4290033658
-64.948624 841.78876 1324.9615 4289375472
-57.511925 847.93939 1323.6074 4291282426
-55.115597 847.93939 1323.6074 4292532479
-52.719265 847.93939 1323.6074 4292598271
-50.322937 847.93939 1323.6074 4292598271
-47.926605 847.93939 1323.6074 4292004863
-43.133945 847.93939 1323.6074 4291414264
-40.737614 847.93939 1323.6074 4291348471
-33.548622 847.93939 1323.6074 4292205055
-31.152294 847.93939 1323.6074 4291547391
-7.1889906 847.93939 1323.6074 4290563834
-4.7926607 847.93939 1323.6074 4290694654
-2.3963304 847.93939 1323.6074 4292536831
0 847.93939 1323.6074 4293455871
4.7926607 847.93939 1323.6074 4293192959
7.1889906 847.93939 1323.6074 4293587711
10.783486 847.93939 1323.6074 4293126911
21.566973 847.93939 1323.6074 4293916159
-46.728439 849.77142 1325.1521 4291411197
-43.133945 849.77142 1325.1521 4291610362
-40.737614 849.77142 1325.1521 4292268287
-38.341286 849.77142 1325.1521 4292203263
-34.746788 849.77142 1325.1521 4290623990
-31.152294 849.77142 1325.1521 4290558207
-28.755962 849.77142 1325.1521 4290298361
-26.359632 849.77142 1325.1521 4290166775
-22.765137 849.77142 1325.1521 4289574908
-10.783486 849.77142 1325.1521 4290103290
14.377981 849.77142 1325.1521 4293323775
16.774311 849.77142 1325.1521 4293521151
22.765137 849.77142 1325.1521 4293258239
-67.354126 843.62775 1326.5122 4290692604
-64.948624 843.62775 1326.5122 4290429431
-61.340366 844.54724 1327.2875 4290690295
2.4055047 845.4668 1328.0627 4293192703
-38.341286 851.60339 1326.6968 4292071676
-35.944954 851.60339 1326.6968 4290229473
-21.566973 851.60339 1326.6968 4289443834
-19.170643 851.60339 1326.6968 4289443565
-16.774311 851.60339 1326.6968 4289641201
16.774311 851.60339 1326.6968 4293653503
-70.025688 839.30219 1329.405 4290955263
-72.440369 841.14819 1330.9615 4290495743
-70.025688 841.14819 1330.9615 4290627071
-57.732109 847.30579 1329.6134 4291743999
-55.326607 847.30579 1329.6134 4291546623
-52.921101 847.30579 1329.6134 4291282678
-50.515594 847.30579 1329.6134 4290822127
-7.2165136 847.30579 1329.6134 4290498302
-4.8110094 847.30579 1329.6134 4291089151
-2.4055047 847.30579 1329.6134 4292733951
0 847.30579 1329.6134 4293521151
4.8110094 847.30579 1329.6134 4293258751
7.2165136 847.30579 1329.6134 4293258751
9.6220188 847.30579 1329.6134 4292864255
12.027523 847.30579 1329.6134 4292930047
-60.137615 849.14484 1331.1641 4291613183
-52.921101 849.14484 1331.1641 4290625766
-49.312843 849.14484 1331.1641 4290164708
-45.704586 849.14484 1331.1641 4291150840
-43.299084 849.14484 1331.1641 4291282678
-40.893578 849.14484 1331.1641 4292203775
-33.677063 849.14484 1331.1641 4289704425
-31.271559 849.14484 1331.1641 4290691320
-28.866055 849.14484 1331.1641 4290298111
-25.257797 849.14484 1331.1641 4289706490
-13.230275 849.14484 1331.1641 4290299391
-9.6220188 849.14484 1331.1641 4289904887
-7.2165136 849.14484 1331.1641 4290825983
-4.8110094 849.14484 1331.1641 4291746559
-2.4055047 849.14484 1331.1641 4293325823
0 849.14484 1331.1641 4293587711
9.6220188 849.14484 1331.1641 4293126911
13.230275 849.14484 1331.1641 4293126911
19.244038 849.14484 1331.1641 4293521407
21.649542 849.14484 1331.1641 4293455615
24.055046 849.14484 1331.1641 4293192959
-65.196327 842.99426 1332.5181 4291021566
-62.781651 842.99426 1332.5181 4290887931
-60.366974 844.84027 1334.0746 4291546367
2.4146788 844.84027 1334.0746 4293389567
-48.110092 850.98389 1332.7146 4290758133
-40.893578 850.98389 1332.7146 4290426615
-37.285324 850.98389 1332.7146 4290821627
-33.677063 850.98389 1332.7146 4290757367
-31.271559 850.98389 1332.7146 4290691574
-28.866055 850.98389 1332.7146 4290429177
-24.055046 850.98389 1332.7146 4289114855
14.433027 850.98389 1332.7146 4293127423
16.838531 850.98389 1332.7146 4293522175
21.649542 850.98389 1332.7146 4293259263
-67.867889 840.52161 1336.9734 4290627065
-57.952293 846.68634 1335.6311 4291809791
-55.537613 846.68634 1335.6311 4291217663
-53.122936 848.53235 1337.1876 4292008191
-50.708256 848.53235 1337.1876 4291481855
-45.878899 848.53235 1337.1876 4290823926
-43.464222 848.53235 1337.1876 4290097907
-26.561468 848.53235 1337.1876 4289771504
-21.732111 848.53235 1337.1876 4289706992
-19.31743 848.53235 1337.1876 4289969650
-16.902752 848.53235 1337.1876 4290035444
-13.280734 848.53235 1337.1876 4289574904
-9.6587152 848.53235 1337.1876 4288523740
-7.2440367 848.53235 1337.1876 4291549951
-4.8293576 848.53235 1337.1876 4292602111
-2.4146788 848.53235 1337.1876 4293260031
1.2073394 847.60938 1336.4094 4293324543
4.8293576 847.60938 1336.4094 4293127167
7.2440367 847.60938 1336.4094 4293192959
9.6587152 848.53235 1337.1876 4293126911
12.073395 848.53235 1337.1876 4293126911
19.31743 848.53235 1337.1876 4293325055
14.433027 854.66193 1335.8159 4293127423
16.838531 854.66193 1335.8159 4293193215
-64.232109 842.37469 1338.5359 4289575406
-64.232109 844.22778 1340.0984 4289247466
-48.293579 850.37842 1338.7441 4291151871
-45.878899 850.37842 1338.7441 4291151871
-41.049541 850.37842 1338.7441 4289768701
-37.427521 850.37842 1338.7441 4291348215
-33.805504 850.37842 1338.7441 4291677951
-31.390825 850.37842 1338.7441 4290625012
-24.14679 850.37842 1338.7441 4289049048
4.8293576 850.37842 1338.7441 4293323775
7.2440367 850.37842 1338.7441 4293323775
9.6587152 850.37842 1338.7441 4293127167
13.280734 850.37842 1338.7441 4293127167
16.902752 850.37842 1338.7441 4293653247
19.31743 850.37842 1338.7441 4293390079
21.732111 850.37842 1338.7441 4293390079
-36.220184 852.22449 1340.3008 4292137215
7.2440367 852.22449 1340.3008 4293455359
9.6587152 852.22449 1340.3008 4293389567
12.073395 852.22449 1340.3008 4293323775
19.31743 852.22449 1340.3008 4292798975
-75.480736 837.55457 1342.3198 4290102000
-73.045868 837.55457 1342.3198 4290429681
-70.611008 838.48529 1343.1046 4288456408
-68.176147 839.41602 1343.8894 4286354109
-63.020184 846.08081 1341.6608 4290034671
-60.596329 846.08081 1341.6608 4291416319
-58.172478 847.00732 1342.4419 4291810047
-55.748623 846.08081 1341.6608 4291876095
-53.324772 847.93384 1343.2231 4292533247
-50.900917 847.93384 1343.2231 4292335615
-43.629356 847.93384 1343.2231 4290360575
-29.086239 847.93384 1343.2231 4289575154
-26.662386 847.93384 1343.2231 4289114603
-21.814678 847.93384 1343.2231 4290035944
-19.390825 847.93384 1343.2231 4290430199
-16.966972 847.93384 1343.2231 4290693371
-13.331193 847.93384 1343.2231 4289575156
-9.6954126 847.93384 1343.2231 4290035696
-2.4238532 847.93384 1343.2231 4293850367
1.6159021 847.31616 1342.7023 4293390335
9.6587152 854.0705 1341.8573 4293456127
13.280734 854.0705 1341.8573 4293521919
16.902752 854.0705 1341.8573 4293456127
19.31743 854.0705 1341.8573 4293193471
14.488073 855.91656 1343.4138 4293127423
16.902752 855.91656 1343.4138 4293193215
-70.611008 841.27747 1345.4589 4284380839
-68.176147 841.27747 1345.4589 4285368234
-48.477066 849.78693 1344.7856 4291021055
-46.053211 849.78693 1344.7856 4291218175
-43.629356 849.78693 1344.7856 4291349757
-41.205505 849.78693 1344.7856 4290757619
-37.569725 850.7135 1345.5669 4291282681
-33.933945 850.7135 1345.5669 4291348991
-31.510092 849.78693 1344.7856 4290362358
-29.086239 849.78693 1344.7856 4289246441
-25.450459 849.78693 1344.7856 4289246437
-21.814678 849.78693 1344.7856 4289904107
0 849.78693 1344.7856 4293127423
7.2715597 851.64001 1346.3481 4293653503
-75.765137 836.95044 1348.3506 4287011280
-73.321098 836.95044 1348.3506 4286483135
-75.765137 838.81891 1349.926 4286288588
-73.321098 838.81891 1349.926 4285301941
-70.611008 843.13898 1347.0284 4287997655
-68.176147 843.13898 1347.0284 4287866318
-64.929665 844.37994 1348.0748 4289575919
-60.871559 845.00043 1348.598 4291417599
-56.001835 845.00043 1348.598 4292401919
-7.3045874 845.00043 1348.598 4292667135
-4.8697248 845.00043 1348.598 4293258495
9.6954126 853.49304 1347.9105 4292798463
12.119267 853.49304 1347.9105 4293127167
9.6954126 855.34607 1349.473 4293061631
12.119267 855.34607 1349.473 4293061631
-73.321098 840.68738 1351.5015 4288129241
-68.176147 847.79266 1350.9523 4291482111
-64.523857 847.79266 1350.9523 4291219455
-60.871559 847.79266 1350.9523 4291680511
-58.436699 847.79266 1350.9523 4291482367
-56.001835 846.86194 1350.1675 4291219455
-52.349541 847.79266 1350.9523 4291086335
-48.697247 848.72339 1351.7371 4291086847
-46.262386 848.72339 1351.7371 4291415551
-43.827522 848.72339 1351.7371 4291350268
-41.392662 848.72339 1351.7371 4291350268
-38.957798 848.72339 1351.7371 4291546879
-31.653212 848.72339 1351.7371 4290559230
-29.218349 848.72339 1351.7371 4289903853
-25.566055 848.72339 1351.7371 4289903600
-21.913761 848.72339 1351.7371 4290298361
-19.478899 847.79266 1350.9523 4290035958
-17.044037 847.79266 1350.9523 4290298873
-13.391743 847.7926 1350.9523 4291745786
-9.7394495 847.79266 1350.9523 4293323775
-7.3045874 846.86194 1350.1675 4293520895
-4.8697248 846.86194 1350.1675 4293784319
-2.4348624 847.79266 1350.9523 4293587455
1.2174312 847.79266 1350.9523 4293258751
4.8697248 846.86194 1350.1675 4293389567
-70.877068 842.55591 1353.0769 4289575415
-68.433029 842.55591 1353.0769 4289706751
-70.877068 844.42438 1354.6523 4291349759
-68.176147 850.58484 1353.3066 4290891007
-65.741287 850.58484 1353.3066 4291154431
-46.262386 850.58484 1353.3066 4290890495
-43.827522 850.58484 1353.3066 4290955775
-41.392662 850.58484 1353.3066 4291547903
-37.740364 850.58484 1353.3066 4291154686
-34.088074 850.58484 1353.3066 4289969407
-31.653212 850.58484 1353.3066 4289969407
-29.218349 850.58484 1353.3066 4290100466
-25.566055 850.58484 1353.3066 4290560499
-21.913761 850.58484 1353.3066 4291546620
-17.044037 850.58484 1353.3066 4292336127
-13.391743 850.58484 1353.3066 4292995583
-9.7394495 850.58484 1353.3066 4293062399
-2.4348624 850.58484 1353.3066 4293325567
0 850.58484 1353.3066 4293062399
7.3045874 850.58484 1353.3066 4293390079
-52.349541 852.44635 1354.8762 4291152621
-43.827522 852.44635 1354.8762 4290562559
-41.392662 852.44635 1354.8762 4291286527
-37.740364 852.44635 1354.8762 4291221247
-34.088074 852.44635 1354.8762 4290890495
-31.653212 852.44635 1354.8762 4290693119
-29.218349 852.44635 1354.8762 4290825215
-25.566055 852.44635 1354.8762 4291416831
-21.913761 852.44635 1354.8762 4292468991
-14.609175 852.44635 1354.8762 4293258495
0 852.44635 1354.8762 4293062399
7.3045874 852.44635 1354.8762 4293061631
-73.596329 840.11133 1357.5559 4289575415
-63.544952 848.16138 1357.8033 4290563071
-61.100918 848.16138 1357.8033 4290892031
-58.656879 848.16138 1357.8033 4291218431
-56.212845 847.22711 1357.0156 4290692351
-52.546791 848.16138 1357.8033 4289969913
-48.880733 848.16138 1357.8033 4290824447
-19.552294 848.16138 1357.8033 4291941374
-7.3321099 847.22711 1357.0156 4293390335
-4.8880734 847.22711 1357.0156 4293193471
2.4440367 847.22711 1357.0156 4293390591
4.8880734 847.22711 1357.0156 4293521919
-36.522934 854.3078 1356.4457 4291880191
-34.088074 854.3078 1356.4457 4292338431
-29.218349 854.3078 1356.4457 4292799487
-26.783485 854.3078 1356.4457 4292733695
7.3045874 854.3078 1356.4457 4293062399
-63.544952 850.02985 1359.3788 4291679487
-61.100918 850.96411 1360.1665 4290956286
-58.656879 850.02985 1359.3788 4291349503
-56.212845 850.02985 1359.3788 4290296828
-31.772476 851.89832 1360.9542 4292798975
-24.440367 851.89832 1360.9542 4293192703
-21.99633 851.89832 1360.9542 4293192703
-19.552294 850.96411 1360.1665 4292863231
-17.108257 850.96411 1360.1665 4293192191
-13.442202 850.96411 1360.1665 4293324287
-9.7761469 850.96411 1360.1665 4292930815
-7.3321099 850.02985 1359.3788 4292865023
-4.8880734 850.02985 1359.3788 4292996607
-2.4440367 850.02985 1359.3788 4293720063
2.4440367 850.02985 1359.3788 4293062399
4.8880734 850.02985 1359.3788 4293193471
-36.660549 853.76685 1362.5297 4292602367
-34.216515 853.76685 1362.5297 4292732915
-31.772476 853.76685 1362.5297 4293456382
-29.32844 853.76685 1362.5297 4293324799
-25.662384 853.76685 1362.5297 4293127167
-21.99633 853.76685 1362.5297 4293521407
-19.552294 853.76685 1362.5297 4293126911
