# .PCD v0.7 - Point Cloud Data file format
VERSION 0.7
FIELDS x y z rgb
SIZE 4 4 4 4
TYPE F F F U
COUNT 1 1 1 1
WIDTH 1163
HEIGHT 1
VIEWPOINT 0 0 0 1 0 0 0
POINTS 1163
DATA ascii
37.733944 841.13696 805.12402 4294967295
41.088074 841.13696 805.12402 4294967039
43.603668 841.13696 805.12402 4294967039
46.119267 841.77808 805.66455 4294967295
48.634861 841.77808 805.66455 4294967295
-7.5467887 843.06018 806.74561 4290489006
-3.9082568 843.58301 805.44238 4288909178
-1.6733944 843.84436 804.79083 4286145600
0.83761466 843.13245 805.49854 4288642182
3.9107034 843.1084 805.91425 4288252824
7.5385323 843.13245 805.49854 4282273888
10.900917 843.06018 806.74561 4284180307
13.401834 843.13245 805.49854 4291461055
15.897248 843.84436 804.79083 4294825162
19.244038 843.84436 804.79083 4294962634
22.590824 843.84436 804.79083 4294966527
25.966053 843.13245 805.49854 4294967039
28.510092 843.06018 806.74561 4294967295
31.025688 843.06018 806.74561 4294967295
34.379814 843.06018 806.74561 4294967295
36.895412 843.06018 806.74561 4294966527
-8.0587158 749.63184 809.06714 4288779955
0.89541286 749.63184 809.06714 4289108670
19.699083 748.94727 808.48993 4294966783
22.086851 749.17548 808.68231 4294966527
-10.722936 751.15674 807.73682 4288582326
-8.042202 752.52307 808.88892 4286276231
-4.4678898 751.15674 807.73682 4288713396
-1.787156 751.15674 807.73682 4289041087
0.89357799 752.52307 808.88892 4284706960
3.574312 751.8399 808.31287 4288385983
8.9357796 751.15674 807.73682 4289834450
13.403669 751.8399 808.31287 4286216613
16.680122 751.61212 808.12085 4292729593
19.658716 752.52307 808.88892 4294967295
22.339451 752.52307 808.88892 4294967295
25.020184 752.52307 808.88892 4294966783
-7.1266055 757.53033 809.18689 4293438404
-4.4541283 756.8493 808.61267 4288053952
0.59388381 757.07635 808.80402 4280745994
4.1571865 756.62231 808.4212 4278583328
8.0174313 756.16827 808.03833 4278190123
10.689908 756.16827 808.03833 4278190125
12.47156 756.16827 808.03833 4278190121
16.925688 756.8493 808.61261 4293059043
19.598166 756.16827 808.03833 4294967295
22.270641 756.16827 808.03833 4294966527
26.724771 756.16827 808.03833 4294965759
28.506422 756.16827 808.03833 4294767613
30.288073 756.8493 808.61261 4294966015
-4.4403667 761.16296 808.32556 4293743238
-1.7761468 759.80505 807.18066 4287245749
0 761.16296 808.32556 4294954718
5.3284402 759.80505 807.18066 4279500805
7.9926605 759.80505 807.18066 4278190080
26.642202 759.80505 807.18066 4294966527
28.418348 759.80505 807.18066 4294834175
31.082569 761.16296 808.32556 4294966271
-7.1045871 762.52081 809.47058 4285726729
-4.4348621 763.27625 808.7995 4287970051
-1.772477 764.03162 808.12842 4294357033
0.88623852 764.03162 808.12842 4294958577
15.952293 764.03162 808.12842 4293384150
26.587156 764.03162 808.12842 4294967039
28.359632 764.03162 808.12842 4294966271
31.018349 764.03162 808.12842 4294966271
-7.0899081 765.38672 809.271 4289640919
-4.4311924 765.38672 809.271 4287338412
-1.7669724 767.6488 807.25427 4285168004
0.88348621 766.51776 808.26263 4290869161
26.504587 767.6488 807.25427 4294967039
28.271559 767.6488 807.25427 4294967039
30.97156 766.51776 808.26263 4294966783
-7.0678897 770.35052 809.53223 4282464658
-4.4174314 768.99963 808.39319 4290492159
0 768.99963 808.39319 4288177292
26.504587 768.99963 808.39319 4294967295
28.271559 768.99963 808.39319 4294967295
31.216513 769.44995 808.77289 4294966783
-7.0458717 773.95087 808.64392 4282200400
-4.4036698 772.60419 807.50842 4290557177
29.06422 772.60419 807.50842 4294966783
31.706423 773.95087 808.64392 4294967295
-8.8073397 775.29749 809.7793 4279174679
33.467892 775.29749 809.7793 4294967039
-7.901835 778.21399 808.31439 4279369728
31.60734 777.54279 807.74841 4294967295
33.363304 778.88519 808.88037 4294967039
-7.8853211 781.04907 808.08875 4285083438
29.78899 780.37927 807.52393 4294967295
31.541285 780.37927 807.52393 4294967295
33.293579 781.71893 808.65356 4294966783
-7.8743119 784.17487 808.76227 4293771666
31.442202 785.2912 807.74146 4294966271
34.062386 785.2912 807.74146 4294967295
-10.480734 787.96204 809.99353 4294630905
-7.8532109 787.36938 808.18573 4292130733
7.8440366 788.11224 807.50403 4291677649
10.458715 788.11224 807.50403 4288254179
29.633028 788.11224 807.50403 4294967295
31.376146 788.11224 807.50403 4294966015
33.990826 788.11224 807.50403 4294967295
37.555962 787.96204 809.99353 4294967295
-10.458715 790.77753 809.75134 4285687193
-8.7155962 789.44489 808.62769 4291143619
8.7155962 789.44489 808.62769 4289898976
10.458715 789.44489 808.62769 4289238205
33.119267 789.44489 808.62769 4294967295
36.605503 790.77753 809.75134 4294967295
-8.1088686 793.44025 808.07245 4292137175
8.6880732 792.9975 807.6991 4294967295
34.752293 792.9975 807.6991 4294967295
36.48991 794.32593 808.81921 4294967295
-10.425688 795.65436 809.93933 4288182589
-7.7944956 797.86597 807.88 4291144607
32.910091 797.86597 807.88 4294967295
34.6422 797.86597 807.88 4294967295
37.300919 796.76013 808.90967 4294966783
-7.7871561 799.9259 808.30884 4290152054
1.7284404 800.66174 807.62122 4294962943
4.3211012 800.66174 807.62122 4288711091
31.976147 800.66174 807.62122 4294967039
34.568806 800.66174 807.62122 4294967295
37.201836 799.9259 808.30884 4294967039
-10.370643 803.30457 809.84961 4286066701
-8.6422014 801.98315 808.73535 4289752629
3.4568808 801.98315 808.73535 4294435809
34.568806 801.98315 808.73535 4294967295
37.161469 802.64386 809.29248 4294967295
-10.337615 806.82074 808.89026 4286785536
-8.0403671 805.94257 808.1499 4289815099
-5.1688075 805.50354 807.77966 4290803295
1.7229358 806.16211 808.33496 4293170039
31.874311 805.50354 807.77966 4294967295
34.458717 806.16211 808.33496 4294967295
36.181652 806.82074 808.89026 4294967295
-6.8770642 808.94116 808.06207 4288827722
-4.2981653 808.28394 807.50793 4289485639
-1.7192661 808.28394 807.50793 4291721052
0 808.28394 807.50793 4292313693
31.806421 808.28394 807.50793 4294967295
-8.5596333 814.48151 807.5014 4288568439
-18.811008 818.4787 809.56372 4281277988
-16.245872 818.4787 809.56372 4281343529
-13.680734 817.17133 808.46143 4284288271
-11.115597 817.17133 808.46143 4288430687
-13.636697 821.30396 808.02191 4282062632
-11.079817 821.30396 808.02197 4283964967
-8.5229359 820.6524 807.47253 4291655792
-15.341285 823.25873 809.67004 4280754724
-13.636697 823.25873 809.67004 4281474601
-11.068808 823.98047 808.97064 4282326064
-7.9376144 823.83539 807.54028 4286525775
-5.1027522 823.40192 807.1748 4291189640
-11.055964 826.00269 809.36768 4281213229
-15.258716 830.75604 809.45142 4280951600
-13.563303 830.75604 809.45142 4281147685
-11.020184 829.4599 808.35852 4281213229
-7.6293578 828.16376 807.26562 4281601302
-13.533945 833.48456 809.13599 4280754724
-11.842202 832.19122 808.04541 4281213478
-15.176147 836.92218 808.11035 4279900196
-13.489908 836.92218 808.11035 4279438350
-11.24159 836.06274 807.38574 4280293150
-16.019266 838.2113 809.19739 4279963943
-13.489908 838.2113 809.19739 4280877058
-10.936697 839.638 807.78418 4280549376
-13.46055 841.5675 809.41113 4287657829
-10.936697 841.5675 809.41113 4289895568
-8.4128437 842.21069 809.95349 4291410350
4.2064219 842.21069 809.95349 4291279287
7.5715594 842.21069 809.95349 4287204770
10.936697 842.21069 809.95349 4283980672
20.190826 842.21069 809.95349 4294959598
22.71468 842.21069 809.95349 4294965503
26.079817 842.21069 809.95349 4294967295
28.60367 842.21069 809.95349 4294967295
31.127522 842.21069 809.95349 4294967295
38.138226 841.78192 809.59198 4294966527
40.381653 841.5675 809.41113 4294966527
42.905506 841.56757 809.41113 4294967295
46.270645 841.5675 809.41113 4294967039
49.63578 840.92438 808.86877 4294967295
-6.7082567 844.34229 807.82666 4291804614
-4.1926603 844.34229 807.82666 4291343293
-1.6770642 844.34229 807.82666 4290092714
0.83853209 844.34229 807.82666 4294172316
13.416513 844.34229 807.82666 4285541918
15.93211 844.34229 807.82666 4294362544
18.447706 844.34229 807.82666 4294960845
34.379814 844.34229 807.82666 4294967295
49.473396 844.34229 807.82666 4294967295
-10.744954 751.68549 810.79877 4289167260
-10.744954 753.73914 812.53027 4291990445
-8.3400612 754.34479 810.42499 4291602104
1.787156 753.88934 810.04089 4278190101
14.297248 754.57251 810.61694 4278190080
25.020184 753.88934 810.04089 4294965759
32.168808 755.25562 811.19299 4294966271
-10.722936 756.62195 812.34497 4288151631
-8.0311928 757.7572 811.34015 4289726293
-10.689908 761.61658 812.63232 4289967320
-8.9082565 760.25452 811.48376 4284681282
34.742203 760.93555 812.05804 4294834431
37.41468 761.61658 812.63232 4294966783
40.977982 761.61658 812.63232 4294966783
42.759632 761.61658 812.63232 4294966271
-8.8807335 763.87872 810.61548 4289506769
33.746788 763.87872 810.61548 4294966783
-10.65688 766.59448 812.90527 4284306835
-7.985321 765.9892 811.08698 4290491379
34.599998 766.66815 811.65942 4294965759
37.299084 766.59448 812.90527 4294966783
39.963303 766.59448 812.90527 4294966527
42.627522 766.59448 812.90527 4294967039
-10.634862 769.4519 812.69873 4281279830
-8.8623857 768.09686 811.55615 4283122561
34.563301 768.77441 812.12744 4294966271
38.108257 769.4519 812.69873 4294966783
40.766972 769.4519 812.69873 4294966783
43.42569 769.4519 812.69873 4294967295
-10.601835 773.05225 811.8103 4279963938
-8.8348627 771.70142 810.67126 4282135139
34.455963 772.37683 811.24078 4294966527
37.989906 773.05225 811.8103 4294967295
40.640366 773.05225 811.8103 4294967295
43.290825 773.05225 811.8103 4294967295
-10.601835 774.40314 812.94934 4280549376
35.229359 776.64417 810.91479 4294966783
37.93211 775.52368 811.93207 4294967295
40.640366 774.40314 812.94934 4294967295
42.407341 774.40314 812.94934 4294967295
-12.330276 777.99084 812.05029 4278190080
-10.568808 777.99084 812.05029 4281401344
37.871559 777.99084 812.05029 4294967295
40.51376 777.99084 812.05029 4294967295
42.27523 777.99084 812.05029 4294967295
-12.291743 782.91254 812.27612 4294361484
-10.53578 781.57013 811.14417 4288901126
35.119267 780.22766 810.01221 4294966527
37.753212 782.24133 811.71014 4294967295
40.387157 782.91254 812.27612 4294967295
-12.266055 785.73785 812.04211 4294633383
-10.513762 784.39819 810.9126 4294960363
36.798164 784.39819 810.9126 4294967295
40.302753 785.73785 812.04211 4294967295
-12.227523 789.96521 811.6825 4289303985
38.429359 789.29749 811.11951 4294966783
40.758411 790.18781 811.87012 4294967039
-12.201835 793.44275 811.99866 4288315556
-10.458715 792.11011 810.875 4287004002
38.348625 792.11011 810.875 4294966527
40.963303 793.44275 811.99866 4294966783
-10.425688 796.98279 811.05945 4286796109
40.833946 796.98279 811.05945 4294967295
43.440369 796.98279 811.05945 4294967295
45.177982 796.98279 811.05945 4294967295
-12.163302 798.31122 812.17944 4283645505
-10.39266 800.51434 810.11304 4286791943
40.704586 800.51434 810.11304 4294967295
43.302753 800.51434 810.11304 4294967295
45.034863 800.51434 810.11304 4294967295
-12.990826 802.50067 811.7879 4285883506
40.415901 802.72137 811.97394 4294967039
43.302753 803.16278 812.34619 4294967039
-12.099083 805.28668 811.52081 4287131271
38.025688 804.62598 810.96375 4294967295
39.754128 805.94739 812.07788 4294967295
-12.922018 809.45514 811.11145 4288632980
-10.337615 808.79651 810.55615 4289358434
-8.6146793 808.13794 810.00085 4287383342
37.330276 808.57697 810.37109 4294967295
39.627522 809.45514 811.11145 4294967295
-12.894495 812.22711 810.83264 4288695882
-10.315597 812.22711 810.83264 4291462063
37.904587 810.77234 812.22217 4294967295
40.488991 810.77234 812.22217 4294967039
-18.851376 818.33978 812.06262 4280754478
-22.231194 821.09344 811.76843 4284109388
-20.521101 821.09344 811.76843 4282198588
-16.530886 820.22186 811.03351 4280820515
-23.086239 822.40082 812.87085 4284107591
-19.666054 822.40082 812.87085 4281476148
-16.221102 823.48132 811.81989 4280690218
-13.636697 824.56189 810.76892 4281410605
-19.318655 826.73389 812.60016 4280688689
-16.466667 826.77881 811.76611 4280885807
-13.60734 827.30304 810.46411 4280951850
-18.710093 829.90375 812.65698 4280951349
-17.009174 829.90375 812.65698 4280623919
-15.258716 832.05225 810.54431 4280492333
-18.609175 836.07123 811.31702 4280686380
-16.917431 834.77789 810.22644 4280426540
-18.609175 837.36462 812.40759 4278648846
-16.019266 839.50043 810.2843 4280360214
-18.548624 841.4342 811.91479 4281932562
-16.019266 841.4342 811.91479 4286993467
5.0587158 842.07874 812.45825 4292658907
20.234863 842.07874 812.45825 4294958317
22.764221 842.07874 812.45825 4294965759
26.136696 842.07874 812.45825 4294967295
28.666056 842.07874 812.45825 4294967295
31.195412 842.07874 812.45825 4294966783
33.72477 842.07874 812.45825 4294967039
37.940369 842.07874 812.45825 4294967295
40.469727 842.07874 812.45825 4294967295
42.999084 842.07874 812.45825 4294967295
46.371559 842.07874 812.45825 4294967295
-13.46055 843.49701 811.03809 4291342509
-10.936697 843.49701 811.03809 4290422950
-7.5715594 843.49701 811.03809 4290358706
-4.2064219 843.49701 811.03809 4290160813
-1.6825688 843.49701 811.03809 4291739324
0.84128439 843.49701 811.03809 4293909730
3.3651376 843.49701 811.03809 4292658907
7.5715594 843.49701 811.03809 4292203235
10.936697 843.49701 811.03809 4284315545
13.46055 843.49701 811.03809 4285807434
15.984404 843.49701 811.03809 4288697685
18.508257 843.49701 811.03809 4294951347
35.333946 843.49701 811.03809 4294967295
49.63578 843.49701 811.03809 4294967039
-13.292844 751.73914 814.76794 4289944956
34.130276 751.46442 814.53638 4294702591
37.722935 752.15112 815.11536 4294899711
40.417431 752.83777 815.69434 4294834175
34.921101 755.10828 813.68469 4294966271
-13.431192 757.16187 815.41632 4286464104
-10.722936 757.98822 813.49695 4286326364
35.743118 757.98822 813.49695 4294966271
37.530273 757.98822 813.49695 4294966271
40.293579 756.47736 814.83911 4294966527
-13.403669 760.03772 815.22504 4287919012
39.317432 759.35455 814.64905 4294967039
-13.065442 763.88678 814.54639 4285423251
-10.689908 762.9787 813.78076 4290884336
35.633026 762.9787 813.78076 4294965247
37.41468 762.9787 813.78076 4294967039
40.087158 762.9787 813.78076 4294967295
43.650459 762.9787 813.78076 4294967039
-12.433027 767.95233 814.05029 4281609531
-13.308256 770.05859 814.51819 4280360495
-12.407339 772.16211 814.98376 4279308062
-13.233027 778.22119 814.20654 4281270528
38.752293 779.33746 813.18579 4294967295
40.51376 779.33746 813.18579 4294967295
42.27523 779.33746 813.18579 4294967295
-14.091743 780.68414 814.32117 4285216258
43.155964 781.35748 814.88892 4294967295
-14.047707 784.255 813.40796 4288909392
43.021103 784.92627 813.97394 4294967295
-15.80367 786.93988 815.67188 4290875530
-14.018349 787.74731 813.73651 4291343568
42.93119 787.74731 813.73651 4294967295
45.559631 788.41711 814.30127 4294967295
-15.770642 789.75677 815.43079 4290025363
-13.974312 791.96838 813.37146 4290223553
43.669724 791.96838 813.37146 4294967295
45.416515 791.96838 813.37146 4294967295
-15.721101 793.9715 815.06055 4290682783
-13.073395 794.77539 813.12231 4287790718
-15.688073 797.44067 815.36951 4290615967
-13.944954 796.10803 814.24597 4289698461
-13.900917 799.63959 813.29956 4289764508
41.702751 799.63959 813.29956 4294967039
43.440369 799.63959 813.29956 4294966783
45.177982 800.30383 813.85962 4294967295
-15.638532 802.29645 815.53979 4289358194
-15.588991 805.81122 814.57922 4285409578
-13.856881 804.487 813.46265 4290088871
41.570641 804.487 813.46265 4294966527
43.302753 804.487 813.46265 4294967295
-15.555964 808.59021 814.30627 4282784272
41.482571 807.2688 813.19214 4294966527
-15.506422 812.08954 813.33276 4281339154
-18.851376 819.64996 813.16736 4281277486
-23.086239 823.70819 813.97314 4283387214
-20.521101 823.70819 813.97314 4281936699
-25.651377 825.01556 815.07544 4280820269
-23.086239 825.01556 815.07544 4283387214
-22.727829 828.90582 814.43158 4283321680
-20.455046 828.47144 814.06531 4281543486
-22.111927 833.80487 815.94629 4282331986
-19.844038 831.63751 814.1189 4281083192
-20.344954 835.94067 813.823 4280622636
-22.040367 837.23688 814.91589 4280032327
-20.322935 838.59412 814.75226 4281274128
-18.609175 841.24463 815.67908 4288960660
23.684404 841.24463 815.67908 4294967295
27.913761 841.24463 815.67908 4294967295
30.451376 841.24463 815.67908 4294967295
38.06422 841.24463 815.67908 4294967295
40.601833 841.24463 815.67908 4294967295
43.13945 841.24463 815.67908 4294967295
46.522934 841.24463 815.67908 4294967295
49.060551 841.24463 815.67908 4294967295
-15.738227 843.79761 813.90753 4290352298
-13.489908 844.01245 814.08875 4291079088
-10.96055 844.01245 814.08875 4290882222
-7.5880728 844.01245 814.08875 4290948531
-4.2155962 844.01245 814.08875 4290422698
-1.6862385 844.01245 814.08875 4292725705
0.84311926 843.36786 813.54529 4294634482
4.2155962 843.36786 813.54529 4292726222
7.5880733 843.36786 813.54529 4292466675
10.96055 844.01245 814.08875 4287206069
13.489908 844.01245 814.08875 4289044928
16.019266 844.01245 814.08875 4287924386
19.391743 843.36786 813.54529 4293377502
21.921101 843.36786 813.54529 4294967039
25.293577 843.36786 813.54529 4294967295
32.038532 843.36786 813.54529 4294967295
34.56789 843.36786 813.54529 4294967295
50.587154 843.36786 813.54529 4294967039
36.036697 749.1897 816.54248 4294899199
40.541283 749.1897 816.54248 4294899199
-16.216515 751.25598 818.28473 4284418594
-16.166973 755.58435 818.01025 4282002462
-14.370643 754.21106 816.85229 4284680760
-21.489908 760.58466 818.30225 4281545523
-19.699083 760.58466 818.30225 4281545523
-17.012844 759.90015 817.72504 4283056452
-21.445871 763.45343 818.1051 4283057449
-19.658716 763.45343 818.1051 4283518000
-16.977982 762.77026 817.52911 4282925637
-22.270641 767.06494 817.2262 4284767576
-19.598166 767.06494 817.2262 4285165673
-16.628746 766.6109 816.84344 4283058777
-14.253211 765.70288 816.07776 4281938496
-22.270641 768.42706 818.37463 4286801506
-19.598166 768.42706 818.37463 4287263606
-16.900917 769.54761 817.35736 4284898679
-14.209174 770.66809 816.34009 4279637026
-21.313761 773.38385 818.63 4289501849
-19.537615 772.70496 818.0575 4289896611
-17.158409 772.97565 817.41376 4287529376
-14.179816 773.51715 816.12634 4278190080
-15.952293 775.5498 817.84021 4280755008
-15.902752 779.80658 817.50537 4282395174
-16.733946 784.05078 817.15991 4285347638
-19.376146 786.0708 818.86304 4278846731
-17.559633 788.28235 816.80371 4282524961
-19.315596 789.62482 817.93567 4278846225
-17.522936 791.09644 816.56042 4283248430
-17.522936 792.43604 817.68994 4283642676
-17.46789 796.64233 817.3125 4280947993
-16.559633 799.43958 817.05499 4286075993
-17.431192 801.43854 818.74048 4285146662
-19.053211 808.45966 816.81226 4281277722
-17.3211 808.45966 816.81226 4282260256
-25.651377 826.97668 816.729 4280623398
-23.941284 827.63037 817.28015 4283189585
-25.651377 828.93774 818.38257 4280887089
-23.941284 828.93774 818.38257 4282663498
-22.159634 831.07776 816.26294 4283387477
-23.812843 835.75537 817.59094 4279177003
-22.605505 839.39716 816.73737 4280549387
-20.344954 839.82916 817.10168 4282777654
-22.040367 841.12531 818.19458 4290614686
-19.497248 841.12531 818.19458 4291537823
-16.917431 842.53802 816.76965 4291540403
0.84587157 842.53802 816.76965 4294174715
4.2293577 842.53802 816.76965 4292661726
7.612844 842.53802 816.76965 4291348194
19.455046 842.53802 816.76965 4289638076
22.838531 842.53802 816.76965 4294967039
25.376146 842.53802 816.76965 4294967295
27.913761 842.53802 816.76965 4294967039
31.297249 842.53802 816.76965 4294967295
34.680733 842.53802 816.76965 4294966527
38.06422 842.53802 816.76965 4294967039
40.601833 842.53802 816.76965 4294966783
43.13945 842.53802 816.76965 4294967295
46.522934 842.53802 816.76965 4294966783
49.906422 842.53802 816.76965 4294967039
52.444038 842.53802 816.76965 4294967295
54.13578 842.53802 816.76965 4294967295
-15.225688 843.83136 817.86011 4292461251
-13.533945 843.83136 817.86011 4292199110
-10.99633 843.83136 817.86011 4292133831
-7.612844 843.83136 817.86011 4292529357
-4.2293577 843.83136 817.86011 4292463565
-1.6917431 843.83136 817.86011 4293318620
3.3834863 843.83136 817.86011 4293911793
7.612844 843.83136 817.86011 4292202204
10.99633 843.83136 817.86011 4289306283
13.533945 843.83136 817.86011 4292793339
16.07156 843.83136 817.86011 4292924664
-18.919266 754.01099 820.60773 4280292886
-17.963303 756.95764 819.16821 4280358946
-22.270641 769.78912 819.52319 4290023815
-23.161469 771.15125 820.67163 4288709739
-24.866055 775.42065 820.34735 4283120945
-22.201834 775.42065 820.34741 4283844679
-19.537615 775.42065 820.34735 4284042069
-17.761467 774.7417 819.7749 4283518584
-24.814678 778.93744 820.69666 4280950556
-19.497248 778.93744 820.69666 4278780432
-17.724771 778.25989 820.12537 4282260249
-24.814678 780.29254 821.83923 4281148230
-22.155964 780.29254 821.83923 4279833640
-19.436697 782.5083 819.78345 4278190081
-24.737616 783.85919 820.92236 4282268742
-22.087156 783.85919 820.92236 4280557608
-19.315596 790.96729 819.06763 4278650129
-19.315596 792.98096 820.76544 4278518541
-21.027523 796.45496 821.07861 4281931822
-19.21468 799.31323 819.56451 4282653741
-19.21468 801.31641 821.25354 4283508526
-17.46789 801.31641 821.25354 4284034339
-20.917431 804.10382 820.98779 4280620048
-25.513762 838.35614 819.78381 4285939787
-23.812843 839.00635 820.33203 4289890963
-27.21468 840.3067 821.42847 4289564824
-25.513762 840.3067 821.42847 4290946477
-22.962385 840.3067 821.42847 4291932854
-19.530275 841.36414 820.35791 4292592569
-16.954128 842.42151 819.28735 4292461251
0.84770644 842.42151 819.28735 4294174449
5.0862384 842.42151 819.28735 4293977586
19.497248 842.42151 819.28735 4289171891
22.888073 842.42151 819.28735 4294966527
25.431192 842.42151 819.28735 4294967295
27.974312 842.42151 819.28735 4294967039
31.365139 842.42151 819.28735 4294967295
34.755962 842.42151 819.28735 4294966783
38.14679 842.42151 819.28735 4294967039
40.689907 842.42151 819.28735 4294967295
43.233028 842.42151 819.28735 4294967295
46.623856 842.42151 819.28735 4294966783
50.014679 842.42151 819.28735 4294966783
52.557796 842.42151 819.28735 4294967295
54.253212 842.42151 819.28735 4294967295
-13.563303 843.71765 820.38025 4293386214
-11.020184 843.71765 820.38025 4292202710
-7.6293578 843.71765 820.38025 4291478214
-4.2385321 843.71765 820.38025 4291937481
-1.6954129 843.71765 820.38025 4292134349
7.9119263 844.14972 820.74457 4293714925
11.020184 844.36572 820.9267 4293779422
13.563303 843.71765 820.38025 4292987135
16.106422 843.71765 820.38025 4292132066
50.862385 843.71765 820.38025 4294967039
-26.642202 777.45752 822.0647 4281740883
-22.201836 777.45752 822.0647 4280753700
-25.662386 784.10638 823.09283 4283056976
-22.087156 785.21008 822.0614 4280491816
-24.737616 787.23633 823.76996 4281942080
-22.381653 787.01123 823.58008 4279901729
-21.137615 790.78406 822.83722 4279900194
-24.660551 792.80408 824.54041 4282793530
-22.827522 794.99463 822.46338 4281082655
-21.927523 797.0658 822.90167 4282129958
-21.903669 799.13428 823.33765 4281735968
-30.68257 840.19995 823.95447 4291938752
-28.096331 840.9035 823.23969 4292530123
-25.513762 842.2572 823.07312 4293253082
-22.962385 842.25726 823.07312 4292857560
-19.277063 842.04053 822.89038 4292002241
-16.158716 842.2572 823.07312 4292659660
-13.60734 842.90741 823.62134 4293844714
-11.055964 842.90741 823.62134 4293187295
-7.6541286 842.90741 823.62134 4291543240
-4.2522936 842.90741 823.62134 4291543240
-1.7009175 842.90741 823.62134 4291871946
0.85229355 840.9035 823.23969 4292003544
4.53578 842.04053 822.89038 4293056479
6.8036699 842.90741 823.62134 4293780454
13.60734 842.90741 823.62134 4294959615
16.158716 842.90741 823.62134 4293839828
19.277063 842.04053 822.89038 4288839039
22.962383 842.25726 823.07312 4294962928
25.513762 842.2572 823.07312 4294967295
28.065138 841.60706 822.5249 4294967295
31.466972 841.60706 822.5249 4294967295
34.868805 841.60706 822.5249 4294966271
37.500916 840.19995 823.95447 4294966015
39.971558 841.60706 822.5249 4294967295
43.373394 841.60706 822.5249 4294967295
46.775227 842.25726 823.07312 4294966527
49.326607 842.2572 823.07312 4294966527
52.161469 842.47394 823.25586 4294967039
54.996326 842.47394 823.25586 4294967039
15.308257 844.20776 824.71777 4294962687
-28.359632 785.03528 825.83813 4284043347
-26.587156 785.03528 825.83813 4283253574
-28.359632 787.06787 827.552 4284566607
-26.587156 787.06787 827.552 4284040262
-24.737616 789.26263 825.47852 4283056196
-22.970642 789.26263 825.47852 4280687647
-31.250765 842.37189 825.78583 4293515483
-28.125687 842.15472 825.60266 4293121498
-25.568808 842.80634 826.1521 4292398292
-23.011927 842.80634 826.1521 4290752959
-19.88685 842.37201 825.78583 4291147966
-16.193579 842.80634 826.1521 4292069069
-13.636697 842.80634 826.1521 4294042098
-11.079817 842.80634 826.1521 4294634998
-7.6706419 842.80634 826.1521 4292728281
-4.2614679 842.80634 826.1521 4291806923
-1.7045871 842.80634 826.1521 4291411906
0.85229355 841.50317 825.05322 4291410878
3.97737 842.37189 825.78583 4291673532
7.6706419 842.80634 826.1521 4291673802
11.079817 842.80634 826.1521 4293317591
13.636697 842.80634 826.1521 4294961919
17.045872 842.80634 826.1521 4294960895
19.88685 842.37189 825.78583 4291003766
23.011927 842.80634 826.1521 4294760638
25.568808 842.80634 826.1521 4294967295
28.125687 841.50317 825.05322 4294967039
31.534863 841.50317 825.05322 4294966783
34.944038 841.50317 825.05322 4294966271
37.500916 841.50317 825.05322 4294966527
40.0578 841.50317 825.05322 4294967295
43.751068 841.93756 825.41949 4294967039
46.876144 842.80634 826.1521 4294966015
49.433029 842.80634 826.1521 4294966271
51.989906 842.80634 826.1521 4294967039
55.399082 842.80634 826.1521 4294967039
57.955963 842.80634 826.1521 4294967039
-25.568808 844.1095 827.25085 4292396746
-23.011927 844.1095 827.25085 4290621105
-19.602753 844.1095 827.25085 4291147455
-16.193579 844.1095 827.25085 4292134866
-13.636697 844.1095 827.25085 4294042861
-11.079817 844.1095 827.25085 4294702068
-7.6706419 844.1095 827.25085 4292990944
-4.2614679 844.1095 827.25085 4292332759
-1.7045871 844.1095 827.25085 4291214010
11.93211 844.1095 827.25085 4293186759
13.636697 844.1095 827.25085 4294699508
16.193579 844.1095 827.25085 4294964991
51.989906 844.1095 827.25085 4294967039
55.399082 844.1095 827.25085 4294967295
-30.781651 842.01154 829.40601 4293711068
-28.216515 842.01154 829.40601 4293909216
0.85504586 841.35785 828.85486 4291212212
4.2752295 842.01154 829.40601 4291344568
7.6954126 842.01154 829.40601 4291214268
10.26055 842.01154 829.40601 4291805106
19.666054 842.01154 829.40601 4291275425
23.086239 842.01154 829.40601 4293777604
25.651377 842.01154 829.40601 4294967295
28.216515 841.35785 828.85486 4294967039
31.636696 841.35785 828.85486 4294967039
35.076149 841.00818 829.21405 4294967039
37.662384 840.65857 829.57324 4294966783
40.230278 840.65857 829.57324 4294967295
43.322323 841.57574 829.03857 4294967039
47.027523 842.01154 829.40601 4294966015
49.592659 842.01154 829.40601 4294966783
58.14312 842.01154 829.40601 4294967039
-35.911926 843.31891 830.50842 4292990689
-31.636698 843.31891 830.50842 4291600054
-28.216515 843.31891 830.50842 4294824168
-25.568808 845.41266 828.34973 4292921302
-23.011927 845.41266 828.34973 4291278010
-19.63578 844.36578 829.42908 4291343288
-16.245872 843.31891 830.50842 4290885317
-13.680734 843.31891 830.50842 4291147444
-11.115597 843.31891 830.50842 4293977062
-7.6954126 843.31891 830.50842 4293649131
-4.2697248 844.36578 829.42908 4293714925
-1.7045871 845.41266 828.34973 4291938514
0.85504586 843.31891 830.50842 4291673280
4.2752295 843.31891 830.50842 4291672764
7.6954126 843.31891 830.50842 4291280311
11.115597 843.31891 830.50842 4290424496
13.680734 843.31891 830.50842 4290555587
16.245872 843.31891 830.50842 4292922854
19.666054 843.31891 830.50842 4294042338
23.086239 843.31891 830.50842 4294571497
25.651377 843.31891 830.50842 4294967295
49.592659 843.31891 830.50842 4294967039
52.157799 843.31891 830.50842 4294967039
55.57798 843.31891 830.50842 4294966783
58.14312 843.31891 830.50842 4294967039
28.277065 841.9231 831.94751 4294967295
31.704586 841.9231 831.94751 4294967039
35.132111 841.9231 831.94751 4294967039
37.702751 841.9231 831.94751 4294570488
43.700916 841.9231 831.94751 4294966783
47.128441 841.9231 831.94751 4294966783
-31.704586 843.23328 833.05212 4290351791
-28.277065 843.23328 833.05212 4293510626
-25.651377 844.62628 831.61072 4293251047
-23.086239 844.62628 831.61072 4291805381
-19.666054 844.62628 831.61072 4290424498
-16.280735 843.23328 833.05212 4288252855
-13.710092 843.23328 833.05212 4287395958
-11.13945 843.23328 833.05212 4293055186
-7.7119265 843.23328 833.05212 4294239978
-4.2807341 843.92981 832.33142 4293976045
-1.7100917 844.62628 831.61072 4292725988
0.85688072 843.23328 833.05212 4292001997
4.2844038 843.23328 833.05212 4291804604
7.7119265 843.23328 833.05212 4291805369
11.13945 843.23328 833.05212 4290950076
13.680734 844.62628 831.61072 4290621361
16.264221 843.92981 832.33142 4292200387
19.708256 843.23328 833.05212 4293977313
23.13578 843.23328 833.05212 4294966270
25.706423 843.23328 833.05212 4294967295
52.269726 843.23328 833.05212 4294967295
55.57798 844.62628 831.61072 4294966783
58.14312 844.62628 831.61072 4294966527
-39.627522 839.75073 836.65588 4292197327
-37.043121 839.75073 836.65588 4292595655
40.718655 839.80316 834.95605 4294966783
43.073395 839.75073 836.65588 4294967295
-36.104588 842.45813 836.32275 4294436070
-34.385323 842.45813 836.32275 4294169080
-31.806421 842.45813 836.32275 4289430940
-29.227524 842.45813 836.32275 4292258995
-19.771561 842.45813 836.32275 4289110686
-16.333027 842.45813 836.32275 4287527056
-12.894495 842.45813 836.32275 4289108874
-10.315597 842.45813 836.32275 4293054951
-8.5963306 842.45813 836.32275 4294436604
0.85963303 842.45813 836.32275 4292134097
4.2981653 842.45813 836.32275 4291738043
7.7366972 842.45813 836.32275 4291605946
10.315597 842.45813 836.32275 4291476416
12.034863 842.45813 836.32275 4291279294
20.631193 842.45813 836.32275 4291936715
24.929358 842.45813 836.32275 4294967295
28.367889 841.80096 835.76855 4294966783
31.806421 841.80096 835.76855 4294967039
34.385323 841.8009 835.76862 4294966783
36.964218 841.14374 835.21448 4294966526
39.543118 841.14374 835.21448 4294966783
44.700916 841.14374 835.21448 4294967295
46.420185 841.14374 835.21448 4294967295
49.285629 841.58185 835.58392 4294967295
52.437614 842.45813 836.32275 4294967295
-27.420183 844.54346 834.15686 4292989155
-25.706423 844.54346 834.15686 4293054949
-23.13578 844.54346 834.15686 4292528593
-6.8550458 844.54346 834.15686 4293776107
-3.9987767 844.98016 834.52509 4289822894
-1.7137614 845.19855 834.70923 4294096879
13.710092 844.54346 834.15686 4290556084
16.280735 844.54346 834.15686 4290489265
18.851376 844.54346 834.15686 4291540928
22.278898 844.54346 834.15686 4294965503
55.982876 844.98016 834.52509 4294900734
58.267891 845.19855 834.70923 4294966527
-37.330276 841.94598 838.50702 4292394452
-34.458717 842.38507 838.8772 4294104820
5.1688075 842.38507 838.8772 4290685617
7.753211 842.38507 838.8772 4290091701
10.337615 842.38507 838.8772 4290026669
20.67523 842.38507 838.8772 4292133319
25.844036 842.38507 838.8772 4294967295
28.42844 842.38507 838.8772 4294967295
31.874311 842.38507 838.8772 4294967295
34.458717 842.38507 838.8772 4294966015
37.043121 841.06787 837.7666 4294966783
40.488991 841.06787 837.7666 4294965759
44.222015 841.5069 838.13678 4294967295
46.519264 841.72644 838.3219 4294967295
48.816513 841.94598 838.50702 4294967295
51.688072 842.38507 838.8772 4294967295
-34.458717 843.70227 839.98779 4293186800
-31.840366 843.73743 838.70941 4292067536
-28.383486 844.08356 838.34729 4292595155
-24.929356 844.42969 837.98523 4293121758
-22.350458 844.42969 837.98517 4292134861
-19.792662 843.73743 838.70941 4288913571
-16.350458 843.73737 838.70947 4288712336
-12.908257 843.73743 838.70947 4292656865
-10.326606 843.73743 838.70941 4294111226
-7.7366972 844.42969 837.98517 4291408856
-4.5847096 844.64874 838.16992 4288705179
-1.7192661 845.08691 838.53931 4294623164
0.86055046 843.73737 838.70947 4292397524
4.0177369 843.72577 839.13556 4290687156
7.753211 843.70227 839.98779 4288444017
10.337615 843.70227 839.98779 4288576634
12.908257 843.73743 838.70941 4290618796
16.35046 843.73743 838.70941 4291079092
19.513151 843.72565 839.13556 4290680733
22.374311 843.73743 838.70941 4292786620
24.095413 843.73743 838.70941 4293777635
46.519264 843.70227 839.98779 4294967295
49.103668 843.70227 839.98779 4294967295
52.798779 843.72577 839.13556 4294967295
55.5896 844.64874 838.16992 4294965759
58.455048 845.08691 838.53931 4294967295
-4.2981653 846.40131 839.64758 4287458712
-1.7192661 846.40131 839.64758 4293773820
-39.838531 838.25439 841.93451 4289041308
-37.161469 841.62537 842.16064 4291802305
25.926605 841.62537 842.16064 4294965503
28.519266 841.62537 842.16064 4294967295
31.976147 841.62537 842.16064 4294966527
34.568806 841.62537 842.16064 4294899455
37.161469 840.96466 841.60352 4294965759
40.618347 840.96466 841.60352 4294966783
43.787155 841.18488 841.78925 4294966783
-31.012844 845.01947 841.09851 4294437115
-28.42844 845.01947 841.09851 4294239737
-24.982569 845.01947 841.09851 4293779695
-22.398165 845.01947 841.09851 4292727514
-19.813763 845.01947 841.09851 4290687695
-16.367889 845.01947 841.09851 4291410866
-12.060551 845.01947 841.09851 4294632950
-10.337615 845.01947 841.09851 4294372857
-7.753211 845.01947 841.09851 4289435823
0.8614679 845.01947 841.09851 4292793046
3.4458716 845.01947 841.09851 4292200127
53.411011 845.01947 841.09851 4294967295
55.995415 845.01947 841.09851 4294966271
58.579815 845.01947 841.09851 4294967039
-27.566973 846.33667 842.20911 4293581806
-24.121101 846.33667 842.20911 4293451755
-4.3073397 846.33667 842.20911 4292597468
-1.7229358 846.33667 842.20911 4292861149
56.85688 846.33667 842.20911 4294967295
58.579815 846.33667 842.20911 4294966527
61.033943 847.7157 840.75574 4294965759
-43.57798 830.75641 843.46057 4292517274
-40.091743 830.75641 843.46057 4292262353
-38.348625 830.75641 843.46057 4291477450
-41.834862 833.42163 845.70776 4288646293
-39.965137 838.16382 845.78223 4289892760
-36.925995 842.90839 844.98657 4290092962
-34.605503 842.91797 844.55865 4291802553
-32.875229 842.91797 844.55865 4293316049
-13.842202 842.91797 844.55865 4292133072
5.1908255 842.91797 844.55865 4290489773
7.7779818 842.94678 843.2749 4289238132
10.381651 842.91797 844.55865 4288513920
13.261162 842.92755 844.13068 4289962147
16.437614 842.91797 844.55865 4289632411
20.179815 842.92755 844.13068 4288775543
22.469725 842.94678 843.2749 4288840029
25.088991 842.91797 844.55865 4291212234
28.565138 842.57251 844.92139 4294637821
32.044037 842.22705 845.28406 4294900479
34.6422 842.22705 845.28412 4294899197
37.240368 842.22705 845.28406 4294966783
40.704586 842.22705 845.28412 4294967295
43.848316 842.46698 844.61444 4294967039
46.156574 842.90839 844.98657 4294967039
49.006729 842.92755 844.13068 4294967295
51.85321 842.94678 843.2749 4294967295
-31.111927 844.26819 844.38904 4292329949
-29.383486 844.26819 844.38904 4293251051
-25.926605 844.26819 844.38904 4293976564
-22.469725 844.26819 844.38904 4292135895
-19.877064 844.26819 844.38904 4290950858
-16.420183 844.26819 844.38904 4291869364
-12.099083 844.26819 844.38904 4294304754
-10.370643 844.26819 844.38904 4294963967
-7.7779818 844.26819 844.38904 4293911796
-3.4568808 845.5896 845.50317 4293254381
-1.7284404 845.5896 845.50317 4293056745
0.8642202 844.26819 844.38904 4292399321
3.4568808 844.26819 844.38904 4292529106
7.7779818 844.26819 844.38904 4290358176
12.099083 844.26819 844.38904 4289961871
19.012844 844.26819 844.38904 4288908163
22.469725 844.26819 844.38904 4288316530
50.124771 844.26819 844.38904 4294967295
52.71743 844.26819 844.38904 4294967295
55.310093 844.92889 844.94611 4294967295
57.902752 845.5896 845.50317 4294966527
60.302753 847.65387 843.3197 4294966527
-43.669724 830.69598 846.02563 4287984985
-41.834862 835.42059 847.39325 4289237144
-39.965137 839.49225 846.90234 4289173152
-38.227524 839.49225 846.90234 4289894561
-39.965137 840.82068 848.02234 4288187536
-31.177982 844.21338 846.95898 4291080654
-28.579817 844.21338 846.95898 4292792292
-25.115597 844.21338 846.95898 4293451755
-22.517431 844.21338 846.95898 4291609551
-19.919266 844.21338 846.95898 4290818752
-16.455046 844.21338 846.95898 4291476154
-12.990826 844.21338 846.95898 4293317339
-10.39266 844.21338 846.95898 4294963455
-7.7944956 844.21338 846.95898 4294240508
-4.3302751 844.87549 847.51721 4293648886
-1.7321101 845.5376 848.07544 4293188586
0.86605507 844.21338 846.95898 4292070104
4.3302751 844.21338 846.95898 4292069323
7.5058103 844.65479 847.33112 4290358449
10.39266 844.21338 846.95898 4289699728
12.702141 844.65479 847.33112 4290291618
16.455046 844.21338 846.95898 4288974724
19.053211 844.21338 846.95898 4291013776
22.517431 844.21338 846.95898 4289498269
50.231194 844.21338 846.95898 4294967295
52.829357 844.21338 846.95898 4294967295
55.427525 845.5376 848.07544 4294967039
57.159634 845.5376 848.07544 4294967295
58.766972 846.91101 846.61743 4294966015
60.495415 847.57172 847.1745 4294966783
-43.807339 829.94604 849.31738 4287465359
-45.559631 831.95557 851.01172 4291673045
-43.807339 831.95557 851.01172 4288843946
-37.358719 842.14911 849.14246 4289303693
-33.883484 842.14911 849.14246 4290223012
20.851376 842.14911 849.14246 4290485165
25.195412 842.14911 849.14246 4290685371
28.670643 842.14911 849.14246 4293781747
31.277063 842.14911 849.14246 4294967295
33.883484 842.14911 849.14246 4294898943
37.358719 842.14911 849.14246 4294966015
40.833946 842.14911 849.14246 4294967295
43.440369 842.14911 849.14246 4294967295
46.046791 842.14911 849.14246 4294967295
48.65321 842.14911 849.14246 4294967295
-38.227524 843.47754 850.26257 4290093972
-33.883484 843.47754 850.26257 4290156685
-31.277063 844.14172 850.82263 4290553009
-28.670643 843.47754 850.26257 4291804107
-24.905809 843.92035 850.63593 4293516525
-22.588991 844.14172 850.82263 4292792803
-19.982569 844.14172 850.82263 4292329685
-16.507339 843.47754 850.26257 4291278013
-12.742508 843.92035 850.63593 4292659662
-10.425688 843.47754 850.26257 4292726501
-7.8192658 844.14172 850.82263 4293317867
-4.6336389 844.3631 851.00928 4294569215
-1.7376146 844.80591 851.38269 4293254633
0.86880732 843.47754 850.26257 4291149770
4.3440366 843.47754 850.26257 4291213001
8.6880732 843.47754 850.26257 4289568937
10.425688 843.47754 850.26257 4289962652
13.03211 844.14172 850.82263 4290684333
16.507339 843.47754 850.26257 4290947497
19.113762 843.47754 850.26257 4292854714
22.588991 843.47754 850.26257 4292328132
45.177982 843.47754 850.26257 4294967295
50.390827 843.47754 850.26257 4294967295
52.997246 843.47754 850.26257 4294967295
55.603668 844.80591 851.38269 4294967295
57.341286 844.80591 851.38269 4294967295
58.891743 846.86182 849.19202 4294967295
-43.021103 832.58319 854.1571 4290160049
-33.119267 842.75006 853.57324 4290812830
-28.761467 842.75006 853.57324 4291738308
-26.14679 842.75006 853.57324 4293647590
-16.559633 842.75006 853.57324 4291802319
-13.944954 842.75006 853.57324 4292329928
-10.458715 842.75006 853.57324 4293381853
0.87155962 842.75006 853.57324 4291806665
4.3577981 842.75006 853.57324 4290552012
7.8440366 842.75006 853.57324 4290617766
10.458715 842.75006 853.57324 4290617766
13.944954 842.75006 853.57324 4290422701
16.559633 842.75006 853.57324 4290619569
20.336391 842.30585 853.19873 4292592077
22.660551 842.75006 853.57324 4292591821
25.27523 842.08374 853.01141 4291278010
28.470947 841.86163 852.82416 4292596961
31.376146 841.41742 852.44958 4294966527
34.281345 841.86163 852.82416 4294966527
37.477062 842.08374 853.01141 4294966783
40.963303 842.08374 853.01147 4294967295
43.57798 841.41742 852.44958 4294967295
46.483181 842.30585 853.19873 4294967295
49.388378 842.30585 853.19873 4294967295
52.293579 842.75006 853.57324 4294967295
54.036697 842.75006 853.57324 4294967295
-33.119267 844.0827 854.6969 4291337863
-31.376146 844.0827 854.6969 4291408315
-27.889908 844.0827 854.6969 4292330960
-25.27523 844.0827 854.6969 4294304497
-22.660551 844.0827 854.6969 4291804368
-20.045872 844.0827 854.6969 4292322247
-16.559633 844.0827 854.6969 4292983736
-13.073395 844.0827 854.6969 4292725456
-10.458715 844.0827 854.6969 4293176252
-7.8440366 844.0827 854.6969 4293178815
-4.3577981 844.0827 854.6969 4294965241
-1.7431192 844.0827 854.6969 4293846259
7.8440366 844.0827 854.6969 4291996071
10.458715 844.0827 854.6969 4292461517
13.073395 844.0827 854.6969 4290357678
16.559633 844.0827 854.6969 4289437345
19.174313 844.0827 854.6969 4290423217
54.908257 844.0827 854.6969 4294967295
58.210091 846.13434 852.50269 4294967295
60.816513 846.13434 852.50269 4294967295
-43.021103 833.9256 855.28894 4289634477
-29.695414 842.7149 856.15967 4292395210
0.87339449 842.7149 856.15967 4291608522
4.3669724 842.7149 856.15967 4290088344
20.961468 842.7149 856.15967 4290816692
22.708258 842.7149 856.15967 4290750899
25.328442 842.7149 856.15967 4289766039
29.11315 842.26978 855.78436 4293318117
31.442202 842.04718 855.59668 4293977839
33.771255 842.26978 855.78436 4294967295
37.555962 842.7149 856.15967 4294966015
41.049541 842.7149 856.15967 4294966271
43.669724 842.04718 855.59668 4294967295
46.289909 842.7149 856.15967 4294967295
49.783485 842.7149 856.15967 4294967295
52.403671 842.7149 856.15967 4294967295
-33.119267 845.41528 855.82056 4291469450
-31.442202 844.05029 857.28564 4292063665
-27.948624 844.05029 857.28564 4292593103
-25.328442 844.05029 857.28564 4293975017
-22.708258 844.05029 857.28564 4289501098
-20.088074 844.05029 857.28564 4290478778
-16.594496 844.05029 857.28564 4293182396
-13.100918 844.05029 857.28564 4292264915
-10.480734 844.05029 857.28564 4291666856
-7.8532109 844.73279 856.5531 4291272853
-4.3669724 844.05029 857.28564 4294965996
-1.7431192 845.41528 855.82056 4293912304
0 844.05029 857.28564 4293187302
4.3669724 844.05029 857.28564 4289956993
7.8605504 844.05029 857.28564 4292721068
10.480734 844.05029 857.28564 4293645275
13.100918 844.05029 857.28564 4291343020
16.594496 844.05029 857.28564 4290289563
19.21468 844.05029 857.28564 4291143088
46.289909 844.05029 857.28564 4294967295
49.783485 844.05029 857.28564 4294967295
52.403671 844.05029 857.28564 4294967295
54.965137 844.73279 856.5531 4294967295
58.394493 845.41528 855.82056 4294967295
57.522934 846.74792 856.94421 4294967295
-29.78899 842.00287 859.4834 4293116096
1.7522936 842.00287 859.4834 4289502894
21.903669 842.00287 859.4834 4291143842
25.408257 842.00287 859.4834 4289962144
28.912844 842.00287 859.4834 4292332758
31.541285 842.00287 859.4834 4293583595
34.169724 842.00287 859.4834 4294967295
37.674309 842.00287 859.4834 4294966271
40.302753 842.00287 859.4834 4294967295
42.93119 842.00287 859.4834 4294967295
-28.036697 843.34247 860.61292 4291601329
-25.408257 843.34247 860.61292 4294103783
-21.903669 843.34247 860.61292 4292193995
-19.275229 843.34247 860.61292 4294690017
-16.622019 844.36414 859.51227 4294303971
-13.122936 844.36414 859.51227 4293318891
-10.480734 845.38574 858.41162 4293842656
-7.8605504 845.38574 858.41162 4293317078
-4.3669724 845.38574 858.41162 4294965241
-1.746789 845.38574 858.41162 4293715193
0.87614679 843.34247 860.61292 4291214030
4.380734 843.34247 860.61292 4290480508
7.8853211 843.34247 860.61292 4292984004
10.513762 843.34247 860.61292 4293579750
13.142202 843.34247 860.61292 4291802301
16.64679 843.34247 860.61292 4289891212
19.275229 843.34247 860.61292 4290546833
21.027523 843.34247 860.61292 4290089094
36.798164 843.34247 860.61292 4294967039
40.302753 843.34247 860.61292 4294967295
43.807339 843.34247 860.61292 4294967295
46.361465 844.36414 859.51227 4294967295
49.783485 845.38574 858.41162 4294967295
52.403671 845.38574 858.41162 4294967295
55.023853 845.38574 858.41162 4294967039
59.390827 845.38574 858.41162 4294967295
55.314983 847.16632 859.91309 4294967295
57.644035 846.72119 859.53772 4294967295
-29.851376 841.98029 862.08044 4290479504
22.827522 841.98029 862.08044 4291141782
25.461468 841.98029 862.08044 4290291090
28.973394 841.98029 862.08044 4291281354
31.60734 841.98029 862.08044 4293124074
34.241287 841.98029 862.08044 4294967295
38.631191 841.98029 862.08044 4294967295
42.14312 841.98029 862.08044 4294967039
-28.973394 843.32275 863.2124 4290216082
-25.461468 843.32275 863.2124 4294430441
-21.949541 843.32275 863.2124 4294170855
-19.315596 843.32275 863.2124 4294961135
-16.665138 844.00244 862.47742 4294501877
-13.156881 844.00244 862.47742 4294568429
-10.513762 844.68213 861.74243 4294961919
-7.8853211 844.68213 861.74243 4294960889
-4.380734 844.68213 861.74243 4294964991
-1.7522936 844.68213 861.74243 4294698226
0.87798166 844.00244 862.47742 4292854728
4.3899083 843.32275 863.2124 4291994790
7.901835 843.32275 863.2124 4293246422
10.513762 844.68213 861.74243 4293381851
13.169725 843.32275 863.2124 4291868350
16.681652 843.32275 863.2124 4287456890
19.315596 843.32275 863.2124 4288506255
21.07156 843.32275 863.2124 4289760642
37.753212 843.32275 863.2124 4294967295
40.387157 843.32275 863.2124 4294967295
43.021103 843.32275 863.2124 4294967295
46.43578 844.68213 861.74243 4294967295
49.940369 844.68213 861.74243 4294967295
52.568806 844.68213 861.74243 4294967295
52.568806 846.02179 862.87207 4294967295
54.321102 846.02179 862.87207 4294967295
-29.944954 842.63037 866.55261 4290611340
-26.422018 842.63037 866.55261 4292320161
5.2844038 842.63037 866.55261 4292125597
14.091743 842.63037 866.55261 4292198862
16.733946 842.63037 866.55261 4289958306
19.376146 842.63037 866.55261 4290744485
22.311926 842.18146 866.17413 4291010970
25.541285 841.95703 865.98499 4290290332
29.06422 841.95703 865.98492 4291673541
31.706423 841.95703 865.98492 4293714667
34.348625 841.95703 865.98492 4294967295
37.871559 842.63037 866.55261 4294967295
40.51376 842.63037 866.55261 4294967295
43.155964 842.63037 866.55261 4294967295
-28.095413 844.66522 864.34436 4290609544
-24.583487 844.66522 864.34436 4292125888
-21.949541 844.66522 864.34436 4292918478
-19.315596 844.66522 864.34436 4294500330
-16.681652 844.66522 864.34436 4293516267
-13.169725 844.66522 864.34436 4292786120
-10.53578 844.66522 864.34436 4294029519
-7.901835 844.66522 864.34436 4294227147
-4.3899083 844.66522 864.34436 4294159819
-1.7559633 844.66522 864.34436 4293763535
0.87798166 844.66522 864.34436 4292713638
3.5119267 844.66522 864.34436 4291599253
7.901835 844.66522 864.34436 4292589253
10.53578 844.66522 864.34436 4292527071
12.291743 844.66522 864.34436 4292395742
46.533028 844.66522 864.34436 4294967295
50.044952 844.66522 864.34436 4294967295
-12.291743 846.00763 865.4762 4290480045
-10.53578 846.00763 865.4762 4292906400
-3.5119267 846.00763 865.4762 4292641685
-1.7559633 846.00763 865.4762 4291522948
47.411011 846.67883 866.04218 4294967295
49.752293 846.45508 865.85352 4294967295
52.623852 847.35577 865.30487 4294967295
54.321102 847.36145 864.00159 4294967295
25.621101 841.94641 869.90002 4290290082
28.271559 841.94641 869.90002 4291211965
30.038532 841.94641 869.90002 4293777893
33.572475 841.94641 869.90002 4294967295
-28.770643 844.42596 868.06659 4290813346
-25.541285 844.65039 868.25586 4291538096
-22.018349 844.65039 868.25586 4292987086
-19.376146 844.65039 868.25586 4294107365
-16.733946 844.65039 868.25586 4293514987
-13.504588 844.87482 868.44513 4292781248
-10.568808 845.32367 868.82361 4294352301
-7.9266057 844.65039 868.25586 4293496985
-4.697248 844.87482 868.44513 4293495953
-1.7614679 845.32367 868.82361 4293693340
0.88073397 843.97705 867.68811 4291197815
4.4036698 843.97705 867.68811 4290874762
7.9266057 843.97705 867.68811 4292390827
10.568808 844.65039 868.25586 4291732665
13.21101 843.97705 867.68811 4293248216
16.733946 843.97705 867.68811 4292062656
19.376146 843.97705 867.68811 4291667383
22.018349 843.97705 867.68811 4290616748
31.706423 843.97705 867.68811 4294174960
