# .PCD v0.7 - Point Cloud Data file format
VERSION 0.7
FIELDS x y z rgb
SIZE 4 4 4 4
TYPE F F F U
COUNT 1 1 1 1
WIDTH 1153
HEIGHT 1
VIEWPOINT 0 0 0 1 0 0 0
POINTS 1153
DATA ascii
-33.317432 817.82166 1286.4407 4286219197
-30.937614 816.91199 1285.6736 4283519888
-28.557798 816.91199 1285.6736 4284566151
-26.177982 817.82166 1286.4407 4286673071
-21.418348 817.82166 1286.4407 4292124393
-19.038532 816.91199 1285.6736 4290812851
-16.658716 816.91199 1285.6736 4290220713
-14.278899 817.82166 1286.4407 4288976298
-11.899082 817.82166 1286.4407 4293581808
-18.965137 824.05225 1285.1539 4291140056
-16.594496 824.05225 1285.1539 4293508604
-10.667891 824.05225 1285.1539 4292399090
-18.965137 825.86462 1286.6821 4288707524
-16.594496 825.86462 1286.6821 4293641983
-14.223853 825.86462 1286.6821 4292724479
-10.667891 825.86462 1286.6821 4292003835
-7.1119266 825.86462 1286.6821 4293520127
-4.7412844 825.86462 1286.6821 4293259007
-10.626606 832.96283 1286.1271 4290233849
-31.271559 799.49109 1289.2972 4289050608
-31.152294 805.80304 1288.0791 4288451267
-38.341286 807.63507 1289.6239 4283193219
-34.746788 807.63507 1289.6239 4283322239
-26.359632 807.63507 1289.6239 4292456959
-22.765137 807.63507 1289.6239 4290483908
-19.170643 807.63507 1289.6239 4289365412
-16.774311 807.63507 1289.6239 4291010236
-35.011623 814.52032 1288.8892 4285495460
-26.258715 813.91199 1288.3762 4290223062
-23.075842 814.52032 1288.8892 4290219989
-14.322936 813.91199 1288.3762 4288846527
-11.93578 813.91199 1288.3762 4293386239
-33.317432 821.46045 1289.5088 4285890246
-30.937614 820.55072 1288.7417 4283061140
-28.557798 820.55072 1288.7417 4282404229
-26.177982 820.55072 1288.7417 4283193745
-22.608257 820.55072 1288.7417 4288380839
-14.278899 820.55072 1288.7417 4290750668
-7.1394496 821.46045 1289.5088 4293651967
-4.7596331 821.46045 1289.5088 4293390079
-21.335779 827.677 1288.2102 4283651210
-18.965137 827.677 1288.2102 4284239482
-16.594496 827.677 1288.2102 4289239749
-14.223853 827.677 1288.2102 4290948587
-9.4825687 827.677 1288.2102 4292335615
-7.1119266 827.677 1288.2102 4293388287
-4.7412844 827.677 1288.2102 4293062399
-2.3706422 827.677 1288.2102 4292930559
-18.965137 829.48938 1289.7384 4283192463
-16.594496 829.48938 1289.7384 4285692853
-14.223853 829.48938 1289.7384 4287334873
-7.1119266 829.48938 1289.7384 4293061119
-4.7412844 829.48938 1289.7384 4293062399
-2.3706422 829.48938 1289.7384 4293391103
-10.626606 835.6709 1288.4104 4285634026
-7.0844035 835.6709 1288.4104 4292277503
-21.25321 837.47626 1289.9326 4290825215
-18.891743 837.47626 1289.9326 4290041599
-16.530275 837.47626 1289.9326 4288659966
-14.168807 837.47626 1289.9326 4286164709
-10.626606 837.47626 1289.9326 4285110735
-7.0844035 837.47626 1289.9326 4291491071
-10.585321 843.62268 1288.575 4290167027
-7.056881 843.62268 1288.575 4291485183
-27.086239 754.83624 1292.1943 4289494527
-22.161469 754.83624 1292.1943 4293512658
-19.699083 754.83624 1292.1943 4288780799
-31.891743 761.34033 1291.1383 4288590079
-29.438532 761.34033 1291.1383 4291810047
-25.758717 761.34033 1291.1383 4293124095
-22.078899 761.34033 1291.1383 4292530175
-19.625689 761.34033 1291.1383 4291216883
-36.798164 763.21582 1292.7196 4285625795
-31.891743 763.21582 1292.7196 4284966327
-29.438532 763.21582 1292.7196 4281621440
-25.758717 763.21582 1292.7196 4286285291
-22.078899 763.21582 1292.7196 4293054463
-19.625689 763.21582 1292.7196 4293715199
-17.172478 763.21582 1292.7196 4285030544
-26.884403 767.81641 1290.0586 4281952919
-31.772476 769.68494 1291.634 4287400407
-29.32844 769.68494 1291.634 4280307578
-25.662384 769.68494 1291.634 4279322507
-21.99633 769.68494 1291.634 4281429450
-19.552294 769.68494 1291.634 4285820408
-17.108257 769.68494 1291.634 4290294527
-24.348623 777.98743 1292.0944 4294967295
-21.913761 777.98743 1292.0944 4294967295
-19.478899 777.98743 1292.0944 4294311167
-17.044037 777.98743 1292.0944 4293192959
-7.2440367 794.99713 1292.0481 4293653503
-4.8293576 794.99713 1292.0481 4293653759
-37.285324 802.24963 1291.6232 4282863484
-33.677063 802.24963 1291.6232 4283517567
-28.866055 802.24963 1291.6232 4290749169
-25.257797 803.16913 1292.3984 4291009236
-21.649542 803.16913 1292.3984 4290152366
-19.244038 803.16913 1292.3984 4289693863
-16.838531 803.16913 1292.3984 4291470274
-7.2165136 803.16913 1292.3984 4293325055
-38.341286 809.46704 1291.1686 4283195013
-35.944954 809.46704 1291.1686 4283326856
-26.359632 809.46704 1291.1686 4290816746
-23.963303 809.46704 1291.1686 4291277297
-14.377981 809.46704 1291.1686 4288650179
-38.341286 811.29907 1292.7133 4283522952
-9.5853214 811.29907 1292.7133 4293258239
-7.1889906 811.29907 1292.7133 4293389567
-4.7926607 811.29907 1292.7133 4293456127
-34.613762 817.56201 1291.4539 4286219699
-38.194496 819.38696 1292.9927 4283786119
-35.807339 819.38696 1292.9927 4285957545
-2.387156 819.38696 1292.9927 4293061119
1.193578 819.38696 1292.9927 4293061631
-28.557798 823.27979 1291.0428 4282143361
-26.177982 823.27979 1291.0428 4282735498
-22.608257 823.27979 1291.0428 4285490843
-2.3798165 823.27979 1291.0428 4292864511
-34.507339 825.09918 1292.5769 4286220223
-30.937614 825.09918 1292.5769 4283389594
-28.557798 825.09918 1292.5769 4283388804
-26.177982 825.09918 1292.5769 4284178063
-23.798164 825.09918 1292.5769 4284374676
1.1899083 825.09918 1292.5769 4292865279
-26.077065 833.11414 1292.7947 4283653268
-22.125994 832.51001 1292.2853 4285759156
-18.965137 832.20795 1292.0306 4287472108
-16.594496 832.20795 1292.0306 4285761492
-14.223853 832.20795 1292.0306 4283792576
-7.1119266 831.30176 1291.2666 4292799999
-4.7412844 832.20795 1292.0306 4293391103
-2.3706422 832.20795 1292.0306 4292798975
-21.25321 839.28162 1291.4548 4291874559
-18.891743 839.28162 1291.4548 4291810559
-16.530275 839.28162 1291.4548 4291678975
-14.168807 839.28162 1291.4548 4290366205
-10.626606 839.28162 1291.4548 4286815695
-7.0844035 839.28162 1291.4548 4291028991
-4.7229357 839.28162 1291.4548 4293720063
-22.433945 841.08698 1292.9771 4285620394
-18.891743 841.08698 1292.9771 4288581320
-16.530275 841.08698 1292.9771 4292265727
-14.168807 841.08698 1292.9771 4292796415
-4.7229357 841.08698 1292.9771 4292603135
-2.3614678 841.08698 1292.9771 4292997887
-10.585321 845.42102 1290.0913 4290495223
-10.585321 847.21942 1291.6075 4287996378
-7.056881 847.21942 1291.6075 4291416319
-36.93578 758.60126 1295.3689 4282602654
-34.473396 758.60126 1295.3689 4282339750
-32.011009 756.71875 1293.7816 4288721653
-28.317432 756.71875 1293.7816 4291941631
-24.623854 756.71875 1293.7816 4292600319
-22.161469 756.71875 1293.7816 4291942655
-19.699083 756.71875 1293.7816 4287995901
-17.236698 758.60126 1295.3689 4283453565
-14.774312 758.60126 1295.3689 4278199166
-40.477982 766.02905 1295.0917 4285822658
-36.798164 766.02905 1295.0917 4289836279
-34.344955 766.02905 1295.0917 4290493182
-31.891743 765.09131 1294.301 4284309165
-29.438532 765.09131 1294.301 4279584371
-24.53211 765.09131 1294.301 4286021859
-22.078899 765.09131 1294.301 4291614207
-19.625689 765.09131 1294.301 4292860671
-17.172478 765.09131 1294.301 4285491876
-14.719266 766.9668 1295.8823 4293058559
-36.660549 773.42188 1294.7849 4289311999
-34.216515 773.42188 1294.7849 4291480063
-31.772476 772.48767 1293.9972 4287006910
-29.32844 772.48767 1293.9972 4280370300
-25.662384 772.48767 1293.9972 4285565629
-21.99633 772.48767 1293.9972 4286879684
-19.552294 772.48767 1293.9972 4287932387
-17.108257 772.48767 1293.9972 4291419135
-14.66422 772.48767 1293.9972 4293915135
-9.7761469 773.42188 1294.7849 4294441983
-24.348623 779.84888 1293.6639 4291876351
-21.913761 779.84888 1293.6639 4292731647
-19.478899 779.84888 1293.6639 4292864511
-17.044037 779.84888 1293.6639 4292667391
-13.391743 779.84888 1293.6639 4293194495
-9.7394495 779.84888 1293.6639 4293851135
-25.566055 781.71033 1295.2334 4292533752
-21.913761 781.71033 1295.2334 4291680757
-19.478899 781.71033 1295.2334 4291814143
-17.044037 781.71033 1295.2334 4292866815
-13.391743 781.71033 1295.2334 4293522431
-9.7394495 781.71033 1295.2334 4293916927
-7.3045874 781.71033 1295.2334 4294180095
-4.8697248 781.71033 1295.2334 4294048767
-7.2715597 788.63611 1293.2249 4294311679
-16.966972 790.48914 1294.7874 4293586431
-14.543119 790.48914 1294.7874 4291682303
-9.6954126 790.48914 1294.7874 4293719551
-7.2715597 790.48914 1294.7874 4293719551
-4.8477063 790.48914 1294.7874 4293719551
-38.634861 796.8432 1293.6047 4283127942
-33.805504 796.8432 1293.6047 4281747586
-28.976147 796.8432 1293.6047 4291018495
-16.902752 796.8432 1293.6047 4293120767
-14.488073 796.8432 1293.6047 4293258239
-9.6587152 796.8432 1293.6047 4292799743
-7.2440367 796.8432 1293.6047 4293128703
-4.8293576 796.8432 1293.6047 4293325055
-25.35413 798.68921 1295.1613 4289367497
-21.732111 798.68921 1295.1613 4290549683
-19.31743 798.68921 1295.1613 4289499312
-16.902752 798.68921 1295.1613 4292591583
-13.280734 798.68921 1295.1613 4293190911
-9.6587152 798.68921 1295.1613 4293850879
-7.2440367 798.68921 1295.1613 4293521919
-4.8293576 798.68921 1295.1613 4293391103
-40.893578 805.92767 1294.7244 4284571793
-13.230275 805.92767 1294.7244 4291150308
-9.6220188 806.84717 1295.4998 4292930815
-7.2165136 805.92767 1294.7244 4293325567
-4.8110094 805.92767 1294.7244 4293456639
-40.737614 814.04712 1295.0303 4282667394
-38.341286 814.04712 1295.0303 4282733426
-7.1889906 814.96313 1295.8027 4294178303
-4.7926607 814.04712 1295.0303 4293127423
-38.194496 821.21198 1294.5314 4284311954
-34.613762 821.21198 1294.5314 4286219703
-31.033028 821.21198 1294.5314 4282995341
-34.507339 826.91858 1294.111 4286876353
-30.937614 826.91858 1294.111 4283849364
-28.557798 826.91858 1294.111 4283258510
-26.177982 826.91858 1294.111 4283982490
-22.608257 826.91858 1294.111 4283850134
1.1899083 826.91858 1294.111 4293193215
4.7596331 826.91858 1294.111 4293062911
-28.557798 828.73798 1295.645 4283717262
-26.177982 828.73798 1295.645 4283914898
-23.798164 828.73798 1295.645 4283390096
0 828.73798 1295.645 4293061631
-37.930275 836.73889 1295.851 4284957558
-34.374313 836.73889 1295.851 4284759416
-30.818348 836.73889 1295.851 4285548425
-28.447706 835.8327 1295.0869 4283715203
-26.077065 835.8327 1295.0869 4283649667
-23.706423 835.8327 1295.0869 4284573341
-4.7412844 834.92651 1294.3229 4293785599
-2.3706422 835.8327 1295.0869 4293390847
-18.891743 842.89233 1294.4993 4287463872
-16.530275 842.89233 1294.4993 4290753522
-14.168807 842.89233 1294.4993 4290625768
-7.0844035 842.89233 1294.4993 4290891007
-4.7229357 842.89233 1294.4993 4292602111
-2.3614678 842.89233 1294.4993 4293194239
-40.629356 760.48376 1296.9562 4283849368
-34.473396 760.48376 1296.9562 4286611153
-14.774312 760.48376 1296.9562 4278193211
-46.78532 762.36627 1298.5435 4292600319
-44.322937 762.36627 1298.5435 4290101247
-39.398167 762.36627 1298.5435 4286351297
-14.774312 762.36627 1298.5435 4283390557
-40.477982 768.84229 1297.4637 4282406339
-36.798164 768.84229 1297.4637 4288261631
-34.344955 768.84229 1297.4637 4291218157
-12.266055 768.84229 1297.4637 4294967295
-9.8128443 768.84229 1297.4637 4294967295
-48.880733 775.29034 1296.3604 4288916710
-46.436699 775.29034 1296.3604 4291285247
-43.992661 775.29034 1296.3604 4288852982
-40.326607 775.29034 1296.3604 4280236931
-36.660549 775.29034 1296.3604 4287411455
-34.216515 775.29034 1296.3604 4289111525
-31.772476 775.29034 1296.3604 4284111257
-29.32844 775.29034 1296.3604 4289507734
-26.884403 775.29034 1296.3604 4294967283
-13.442202 775.29034 1296.3604 4293719295
-9.7761469 775.29034 1296.3604 4294245375
-7.3321099 775.29034 1296.3604 4293982463
-4.8880734 775.29034 1296.3604 4293982719
-2.4440367 775.29034 1296.3604 4294311679
-46.436699 777.15887 1297.9358 4290891519
-43.992661 777.15887 1297.9358 4289049852
-40.326607 777.15887 1297.9358 4279906411
-36.660549 777.15887 1297.9358 4282540172
-34.216515 777.15887 1297.9358 4283584702
-31.772476 777.15887 1297.9358 4289111295
-29.32844 777.15887 1297.9358 4293454079
-26.884403 777.15887 1297.9358 4293914623
-7.3321099 777.15887 1297.9358 4293982719
-4.8880734 777.15887 1297.9358 4293982719
-2.4440367 777.15887 1297.9358 4294311679
7.3321099 777.15887 1297.9358 4294114559
9.7761469 777.15887 1297.9358 4294180351
-36.522934 784.50256 1297.5878 4281286268
-34.088074 784.50256 1297.5878 4279974787
-31.653212 784.50256 1297.5878 4290106623
-29.218349 784.50256 1297.5878 4294177279
-25.566055 784.50256 1297.5878 4293980671
-21.913761 784.50256 1297.5878 4292797177
-19.478899 784.50256 1297.5878 4292471295
-17.044037 784.50256 1297.5878 4293523967
-13.391744 784.50256 1297.5878 4293456383
-9.7394495 784.50256 1297.5878 4293982719
-7.3045874 783.57184 1296.803 4294311679
-4.8697248 784.50256 1297.5878 4294048255
-2.4348624 784.50256 1297.5878 4294048255
-33.933945 792.34216 1296.3497 4281092483
-31.510092 792.34216 1296.3497 4288987643
-29.086239 792.34216 1296.3497 4290952191
-25.046484 793.57758 1297.3915 4287988653
-21.814678 793.26868 1297.131 4290947773
-19.390825 794.19525 1297.9122 4289370586
-16.966972 792.34216 1296.3497 4294046207
-12.927218 792.9599 1296.8706 4293587711
-9.6954126 792.34216 1296.3497 4293587711
-2.4238532 793.26868 1297.131 4293982975
-13.280734 800.53528 1296.7178 4292134903
-9.6587152 800.53528 1296.7178 4293587967
-4.8293576 800.53528 1296.7178 4292996607
-12.073395 802.38135 1298.2743 4293189887
-9.6587152 802.38135 1298.2743 4293457151
-43.299084 808.68622 1297.0503 4284904591
-40.893578 808.68622 1297.0503 4284312454
-2.4055047 808.68622 1297.0503 4293916671
-43.299084 810.52527 1298.601 4283456909
-9.6220188 810.52527 1298.601 4293192959
-7.2165136 810.52527 1298.601 4293390335
-2.4055047 810.52527 1298.601 4293127935
0 810.52527 1298.601 4293456127
-43.133945 818.62714 1298.8921 4285036452
-40.737614 817.71118 1298.1198 4284312731
1.1981652 818.62714 1298.8921 4292930559
-45.355965 824.862 1297.609 4285036193
-42.968807 823.94946 1296.8396 4284839595
-40.58165 823.94946 1296.8396 4284379301
-38.194496 823.94946 1296.8396 4283917460
-38.077065 830.55737 1297.1791 4284373132
-34.507339 830.55737 1297.1791 4285756568
-30.937614 830.55737 1297.1791 4283718768
-28.557798 830.55737 1297.1791 4283390096
1.1899083 830.55737 1297.1791 4293259007
-40.456882 832.37677 1298.7131 4285747064
-38.077065 832.37677 1298.7131 4284436347
-34.507339 832.37677 1298.7131 4283978118
-30.937614 832.37677 1298.7131 4283190668
1.1899083 832.37677 1298.7131 4293127423
-40.300919 838.55127 1297.3792 4288379562
-37.930275 838.55127 1297.3792 4289164980
-34.374313 838.55127 1297.3792 4289031350
-30.818348 838.55127 1297.3792 4288634804
-28.447706 838.55127 1297.3792 4287583636
-26.077065 838.55127 1297.3792 4286794120
1.1853211 838.55127 1297.3792 4293127935
4.7412844 838.55127 1297.3792 4293325567
-42.671558 840.36365 1298.9072 4290031069
-40.300919 840.36365 1298.9072 4290228191
-37.930275 840.36365 1298.9072 4290686189
-34.374313 840.36365 1298.9072 4290421746
-30.818348 840.36365 1298.9072 4289367531
-28.447706 840.36365 1298.9072 4288183734
-26.077065 840.36365 1298.9072 4286933410
-22.521101 840.36365 1298.9072 4286340522
1.1853211 840.36365 1298.9072 4293193215
4.7412844 840.36365 1298.9072 4293259263
-33.060551 844.69769 1296.0215 4291808767
-30.699083 844.69769 1296.0215 4291940607
-28.337614 844.69769 1296.0215 4292991486
-18.891743 844.69769 1296.0215 4292266745
-16.530275 844.69769 1296.0215 4290753250
-14.168807 844.69769 1296.0215 4285365435
-4.7229357 844.69769 1296.0215 4292338687
-2.3614678 844.69769 1296.0215 4293193983
-18.891743 846.50305 1297.5438 4292463615
-16.530275 846.50305 1297.5438 4291674367
-14.168807 846.50305 1297.5438 4290949600
-10.626606 846.50305 1297.5438 4289505227
-7.0844035 846.50305 1297.5438 4291613163
-4.7229357 846.50305 1297.5438 4292076031
-2.3614678 846.50305 1297.5438 4293128447
-39.544952 755.86212 1299.5995 4282866083
-12.357799 755.86212 1299.5995 4278196082
-9.8862381 755.86212 1299.5995 4279056710
-46.959633 757.75165 1301.1926 4291152639
-44.488075 757.75165 1301.1926 4290823411
-12.357799 757.75165 1301.1926 4278790230
-9.8862381 757.75165 1301.1926 4282865540
-7.4146791 757.75165 1301.1926 4287076292
-4.943119 757.75165 1301.1926 4290758901
-44.322937 764.24878 1300.1307 4288067577
-41.86055 764.24878 1300.1307 4282343330
-12.311927 764.24878 1300.1307 4294967295
-9.8495417 764.24878 1300.1307 4294901759
-7.387156 764.24878 1300.1307 4294639615
-4.9247708 764.24878 1300.1307 4294311167
-46.78532 766.13135 1301.718 4291745279
-44.322937 766.13135 1301.718 4288459253
-7.387156 766.13135 1301.718 4294967295
-4.9247708 766.13135 1301.718 4294639615
-2.4623854 766.13135 1301.718 4294770687
0 766.13135 1301.718 4294311679
-51.517429 770.71783 1299.0452 4288983003
-49.06422 770.71783 1299.0452 4289247220
-46.611008 770.71783 1299.0452 4291023871
-44.157799 770.71783 1299.0452 4288328181
-40.477982 770.71783 1299.0452 4281352605
-12.266055 770.71783 1299.0452 4294639359
-7.359633 770.71783 1299.0452 4294179071
-4.9064221 770.71783 1299.0452 4293982719
-2.4532111 770.71783 1299.0452 4294311679
-51.517429 772.59332 1300.6265 4287997142
0 772.59332 1300.6265 4294311679
4.9064221 772.59332 1300.6265 4293982719
7.359633 772.59332 1300.6265 4294180351
9.8128443 772.59332 1300.6265 4294180351
-46.436699 779.02734 1299.5114 4292598527
-43.992661 779.02734 1299.5114 4290033407
-40.326607 779.02734 1299.5114 4279380595
-36.660549 779.02734 1299.5114 4278335101
-34.216515 779.02734 1299.5114 4279317621
-31.772476 779.02734 1299.5114 4290436607
-29.32844 779.02734 1299.5114 4294703103
-2.4440367 779.02734 1299.5114 4294180351
0 779.02734 1299.5114 4294114559
4.8880734 779.02734 1299.5114 4294180351
7.3321099 779.02734 1299.5114 4294114559
-43.992661 780.89581 1301.0868 4290492671
-40.326607 780.89581 1301.0868 4281349500
1.2220184 780.89581 1301.0868 4294114303
4.8880734 780.89581 1301.0868 4294180863
7.3321099 780.89581 1301.0868 4294115071
9.7761469 780.89581 1301.0868 4293786623
12.220183 780.89581 1301.0868 4293918207
-36.522934 787.2948 1299.942 4282270068
-34.088074 787.2948 1299.942 4280961418
-31.653212 787.2948 1299.942 4289382911
-29.218349 787.2948 1299.942 4292465663
-25.566055 787.2948 1299.942 4289764844
-21.913761 787.2948 1299.942 4293248255
-19.478899 787.2948 1299.942 4294310143
-12.174312 787.2948 1299.942 4292998143
-2.4348624 787.2948 1299.942 4293916671
7.3045874 787.2948 1299.942 4294180351
9.7394495 787.2948 1299.942 4293720063
12.174312 787.2948 1299.942 4294114815
-26.783485 789.15625 1301.5116 4287662562
-19.478899 789.15625 1301.5116 4293322239
1.2174312 789.15625 1301.5116 4293916927
4.8697248 789.15625 1301.5116 4294048511
7.3045874 789.15625 1301.5116 4294508543
9.7394495 789.15625 1301.5116 4294114559
12.174312 789.15625 1301.5116 4294114559
-2.4238532 796.97485 1300.2559 4293654271
-57.952293 806.07336 1301.3873 4283651719
-55.537613 806.07336 1301.3873 4284704663
-43.464222 804.22736 1299.8308 4286546350
-2.4146788 804.22736 1299.8308 4293587967
14.488073 806.07336 1301.3873 4293653759
-43.299084 812.36426 1300.1516 4283654290
-2.4055047 812.36426 1300.1516 4293390079
0 812.36426 1300.1516 4293456127
-43.299084 814.20331 1301.7021 4284575905
-45.530273 820.45917 1300.4368 4284641696
-47.926605 822.2912 1301.9814 4284838558
-42.968807 826.68701 1299.1478 4285427619
-40.58165 826.68701 1299.1478 4284308881
-38.194496 826.68701 1299.1478 4284044680
-34.613762 826.68701 1299.1478 4286151602
-31.033028 826.68701 1299.1478 4283652501
2.387156 826.68701 1299.1478 4293390591
4.774312 826.68701 1299.1478 4293390847
-42.968807 828.51196 1300.6866 4286277784
-40.58165 828.51196 1300.6866 4284961924
4.774312 828.51196 1300.6866 4293325055
7.161468 828.51196 1300.6866 4293654015
-45.216515 836.0155 1301.7812 4288183204
-42.836697 835.10583 1301.0142 4287721374
-40.456882 834.19617 1300.2472 4285484154
1.1899083 834.19617 1300.2472 4293587711
4.7596331 834.19617 1300.2472 4293128447
7.1394496 835.10583 1301.0142 4293193983
9.5192661 836.0155 1301.7812 4292733951
-46.227524 842.17603 1300.4354 4291351542
-42.671558 842.17603 1300.4354 4291942911
-40.300919 842.17603 1300.4354 4291811069
-37.930275 842.17603 1300.4354 4291547903
-35.559631 842.17603 1300.4354 4291482110
-26.077065 842.17603 1300.4354 4292925693
-22.521101 842.17603 1300.4354 4293185023
1.1853211 842.17603 1300.4354 4293325055
4.7412844 842.17603 1300.4354 4293325055
14.223853 842.17603 1300.4354 4293259263
-46.227524 843.9884 1301.9636 4291483135
-42.671558 843.9884 1301.9636 4291877119
-40.300919 843.9884 1301.9636 4291745791
-37.930275 843.9884 1301.9636 4291350268
-34.374313 843.9884 1301.9636 4291481338
-30.818348 843.9884 1301.9636 4291678458
-28.447706 843.9884 1301.9636 4292533245
-26.077065 843.9884 1301.9636 4292993791
-22.521101 843.9884 1301.9636 4292992511
1.1853211 843.9884 1301.9636 4293522175
4.7412844 843.9884 1301.9636 4293325055
11.853211 843.9884 1301.9636 4292930047
14.223853 843.9884 1301.9636 4293193215
-51.952293 848.30841 1299.066 4290496760
-16.530275 848.30841 1299.066 4292267007
-14.168807 848.30841 1299.066 4293380607
-10.626606 848.30841 1299.066 4292659963
-7.0844035 848.30841 1299.066 4291281393
-4.7229357 848.30841 1299.066 4290432255
-2.3614678 848.30841 1299.066 4292603391
-51.902752 760.58594 1303.5825 4289113293
-49.431194 760.58594 1303.5825 4289442813
-46.959633 761.5307 1304.379 4291285759
-12.357799 759.64117 1302.7859 4286548621
-9.8862381 759.64117 1302.7859 4287732479
-7.4146791 759.64117 1302.7859 4291811327
-4.943119 759.64117 1302.7859 4292207103
-2.4715595 760.58594 1303.5825 4294048767
0 761.5307 1304.379 4293982719
1.6415902 768.6413 1303.8344 4294049023
4.9247708 768.01379 1303.3053 4293916927
7.387156 768.01379 1303.3053 4293982719
1.6354741 775.09399 1302.735 4294180351
4.9064221 774.46881 1302.2079 4293982719
9.8128443 776.34436 1303.7893 4294049023
-39.104588 782.76428 1302.6622 4281418105
1.2220184 782.76428 1302.6622 4294311423
4.8880734 782.76428 1302.6622 4294311679
7.3321099 782.76428 1302.6622 4294180351
9.7761469 782.76428 1302.6622 4293851903
12.220183 782.76428 1302.6622 4294049023
1.2220184 784.63281 1304.2377 4293851135
4.8880734 784.63281 1304.2377 4294114559
1.2174312 791.0177 1303.0812 4293588223
4.8697248 791.0177 1303.0812 4293587967
7.3045874 791.0177 1303.0812 4293916671
9.7394495 791.0177 1303.0812 4293786111
12.174312 791.0177 1303.0812 4293851903
1.2174312 792.87921 1304.6508 4293653759
4.8697248 792.87921 1304.6508 4293653759
7.3045874 792.87921 1304.6508 4293916671
-2.4238532 799.75439 1302.5996 4293588223
9.6954126 801.60742 1304.162 4293061631
14.543119 801.60742 1304.162 4293259263
-60.366974 807.91943 1302.9438 4283847808
-45.878899 808.84247 1303.7222 4283982985
9.6587152 809.7655 1304.5005 4293258751
13.683181 809.15015 1303.9816 4293258751
-48.110092 817.88135 1304.8035 4284575903
-45.704586 816.04236 1303.2528 4284706721
4.8110094 817.88135 1304.8035 4293062911
7.2165136 817.88135 1304.8035 4293062911
9.6220188 817.88135 1304.8035 4292996607
12.027523 817.88135 1304.8035 4293391103
-45.530273 824.12317 1303.5262 4284837274
7.1889906 824.12317 1303.5262 4293719807
9.5853214 824.12317 1303.5262 4292801791
-46.549541 830.33698 1302.2253 4288441493
-42.968807 830.33698 1302.2253 4287655062
7.161468 830.33698 1302.2253 4293128447
-46.549541 832.16199 1303.7642 4287522957
-49.976147 839.6543 1304.8494 4291481855
-46.406422 837.8349 1303.3153 4289702097
7.1394496 838.74463 1304.0823 4293390847
10.709173 838.74463 1304.0823 4293390591
14.278899 837.8349 1303.3153 4293259263
-49.783485 845.80078 1303.4917 4291154687
-46.227524 845.80078 1303.4917 4291089662
-42.671558 845.80078 1303.4917 4291154431
-40.300919 845.80078 1303.4917 4290628094
-37.930275 845.80078 1303.4917 4290035957
-34.374313 845.80078 1303.4917 4290561783
-30.818348 845.80078 1303.4917 4290429679
-28.447706 845.80078 1303.4917 4289837808
-26.077065 845.80078 1303.4917 4290627324
-22.521101 845.80078 1303.4917 4289708031
-18.965137 845.80078 1303.4917 4291609087
1.1853211 845.80078 1303.4917 4293259263
4.7412844 845.80078 1303.4917 4292864767
14.223853 845.80078 1303.4917 4293127423
-49.651375 754.47314 1306.2765 4290494719
0 756.37109 1307.8767 4294114559
-51.902752 763.42023 1305.9723 4289179614
-49.431194 763.42023 1305.9723 4289574139
2.4715595 763.42023 1305.9723 4294114559
1.2174312 794.74066 1306.2202 4293390847
4.8697248 794.74066 1306.2202 4293653759
7.3045874 794.74066 1306.2202 4293653759
9.7394495 794.74066 1306.2202 4293719551
14.609175 794.74066 1306.2202 4293457407
1.2174312 796.60217 1307.7898 4293653503
4.8697248 796.60217 1307.7898 4293719551
7.3045874 796.60217 1307.7898 4293653759
9.7394495 796.60217 1307.7898 4293653759
13.391743 796.60217 1307.7898 4293785343
-46.053211 803.46051 1305.7245 4285165962
1.2119266 803.46051 1305.7245 4293324287
9.6954126 803.46051 1305.7245 4293258751
12.119267 803.46051 1305.7245 4293719295
-58.172478 805.3136 1307.2869 4283585924
-55.748623 805.3136 1307.2869 4284507026
-48.477066 805.3136 1307.2869 4284575372
2.4238532 805.3136 1307.2869 4293456127
4.8477063 805.3136 1307.2869 4293390079
7.2715597 805.3136 1307.2869 4293455871
9.6954126 805.3136 1307.2869 4293192959
12.119267 805.3136 1307.2869 4293258751
-45.878899 811.61151 1306.057 4284312215
4.8293576 811.61151 1306.057 4293259263
7.2440367 811.61151 1306.057 4293259263
9.6587152 811.61151 1306.057 4293390079
12.073395 811.61151 1306.057 4293455871
4.8293576 813.45758 1307.6135 4293062399
7.2440367 813.45758 1307.6135 4293128447
9.6587152 813.45758 1307.6135 4293192959
12.073395 813.45758 1307.6135 4293521663
-49.312843 821.55945 1307.9047 4284640151
7.2165136 819.7204 1306.354 4293260543
9.6220188 819.7204 1306.354 4293128959
12.027523 820.63989 1307.1294 4291287794
-50.322937 827.78723 1306.6156 4287785616
-46.728439 825.9552 1305.0709 4286408341
9.5853214 825.9552 1305.0709 4293195007
-47.743118 833.987 1305.303 4287722653
-50.130276 835.81201 1306.8418 4289240040
-49.976147 841.47369 1306.3834 4291679487
7.1394496 841.47369 1306.3834 4293259263
9.5192661 841.47369 1306.3834 4292930047
7.1394496 843.29309 1307.9175 4292798975
10.709174 843.29309 1307.9175 4292733183
16.658716 843.29309 1307.9175 4293325055
19.038532 843.29309 1307.9175 4293325055
-54.524769 847.61316 1305.0199 4290298348
-52.154129 847.61316 1305.0199 4290692324
-45.042202 847.61316 1305.0199 4291481336
-33.188992 847.61316 1305.0199 4290168047
-30.818348 847.61316 1305.0199 4290036461
-28.447706 847.61316 1305.0199 4289903855
-21.335779 847.61316 1305.0199 4290232063
-18.965137 847.61316 1305.0199 4290691572
-16.594496 847.61316 1305.0199 4291152123
-14.223853 847.61316 1305.0199 4292135423
-10.667891 847.61316 1305.0199 4293254655
-7.1119266 847.61316 1305.0199 4291939327
-4.7412844 847.61316 1305.0199 4292074751
-2.3706422 847.61316 1305.0199 4292995839
14.223853 847.61316 1305.0199 4293127423
16.594496 847.61316 1305.0199 4293522175
-54.524769 849.42554 1306.5481 4290231019
-10.667891 849.42554 1306.5481 4290627583
-7.1119266 849.42554 1306.5481 4292665599
-4.7412844 849.42554 1306.5481 4293981951
-2.3706422 849.42554 1306.5481 4293455615
2.4825687 758.26904 1309.4771 4294114303
9.7761469 790.23828 1308.9641 4293916927
13.442202 790.23828 1308.9641 4293917183
-51.324772 792.10675 1310.5396 4284241019
-48.880733 792.10675 1310.5396 4284043386
12.220183 792.10675 1310.5396 4293916671
-56.001835 798.46362 1309.3594 4284377747
-52.349541 799.39441 1310.144 4284575632
-48.697247 799.39435 1310.144 4285100170
-46.262386 798.46362 1309.3594 4285692308
1.2174312 798.46362 1309.3594 4293259263
4.8697248 799.39435 1310.144 4293456127
7.3045874 799.39435 1310.144 4293456127
12.174312 798.46362 1309.3594 4293390847
-48.477066 807.16663 1308.8494 4283719563
4.8477063 807.16663 1308.8494 4293653503
7.2715597 807.16663 1308.8494 4293587711
-50.708256 815.30359 1309.17 4284575388
-50.708256 817.14966 1310.7266 4284837526
-50.515594 823.39844 1309.4553 4286146197
-52.719265 829.61926 1308.1604 4287061385
-50.322937 829.61926 1308.1604 4287324813
-50.322937 831.45123 1309.7051 4287457697
-47.596329 845.11249 1309.4515 4291678971
-42.836697 845.11249 1309.4515 4291350270
-40.456882 845.11249 1309.4515 4290494961
-38.077065 845.11249 1309.4515 4290232570
-35.697247 845.11249 1309.4515 4290429949
-26.177982 845.11249 1309.4515 4290824957
-23.798164 845.11249 1309.4515 4290363903
1.1899083 845.11249 1309.4515 4293193215
4.7596331 845.11249 1309.4515 4292864767
7.1394496 845.11249 1309.4515 4292798975
10.709174 845.11249 1309.4515 4292930815
19.038532 845.11249 1309.4515 4293325055
22.608257 845.11249 1309.4515 4293061631
-46.406422 846.93188 1310.9856 4289899490
-42.836697 846.93188 1310.9856 4290559721
-40.456882 846.93188 1310.9856 4290559721
-34.507339 846.93188 1310.9856 4289181937
-30.937614 846.93188 1310.9856 4288458987
-28.557798 846.93188 1310.9856 4288589013
-26.177982 846.93188 1310.9856 4289575908
-22.608257 846.93188 1310.9856 4290429436
-19.038532 846.93188 1310.9856 4290233849
-16.658716 846.93188 1310.9856 4290365692
-14.278899 846.93188 1310.9856 4290234111
1.1899083 846.93188 1310.9856 4292732415
4.7596331 846.93188 1310.9856 4292403967
7.1394496 846.93188 1310.9856 4292930303
10.709174 846.93188 1310.9856 4293193215
14.278899 846.93188 1310.9856 4293061631
16.658716 846.93188 1310.9856 4293127423
19.038532 846.93188 1310.9856 4293193215
22.608257 846.93188 1310.9856 4292930303
26.177982 846.93188 1310.9856 4292864767
4.9651375 760.16699 1311.0774 4293982719
-56.212845 793.97522 1312.115 4285229709
-51.324772 793.97522 1312.115 4285426072
-48.880733 793.97522 1312.115 4285164170
-52.349541 802.18652 1312.4984 4284378249
-48.477066 810.87274 1311.9742 4284509599
-53.122936 818.99573 1312.2831 4284640150
-53.122936 820.84174 1313.8396 4286014355
-52.921101 825.23749 1311.006 4287587981
-52.719265 833.28326 1311.2498 4288121816
-50.130276 843.112 1312.9969 4291745012
-7.1394496 848.75128 1312.5198 4292206591
-4.7596331 848.75128 1312.5198 4293587967
-2.3798165 848.75128 1312.5198 4293851135
10.709174 848.75128 1312.5198 4293127423
14.278899 848.75128 1312.5198 4293127423
16.658716 848.75128 1312.5198 4293061631
19.038532 848.75128 1312.5198 4292930559
22.608257 848.75128 1312.5198 4292930559
26.177982 848.75128 1312.5198 4293062399
7.4752293 757.45593 1315.3315 4293916927
-60.871559 805.90955 1315.6376 4283979139
-58.436699 804.97876 1314.8528 4283783560
-56.001835 804.97876 1314.8528 4284441489
-52.349541 804.97876 1314.8528 4284246161
-48.697247 805.90955 1315.6376 4283456907
-53.324772 814.57886 1315.0991 4284837526
-52.921101 828.91553 1314.1072 4286997146
-52.517429 844.93701 1314.5358 4289176273
-50.130276 844.93701 1314.5358 4289571031
-38.194496 844.93701 1314.5358 4289904887
-62.066055 846.76196 1316.0745 4290100466
-58.485321 846.76196 1316.0745 4290166261
-54.904587 846.76196 1316.0745 4290100468
-52.517429 846.76196 1316.0745 4289177557
-50.130276 846.76196 1316.0745 4288848335
-46.549541 846.76196 1316.0745 4289570009
-42.968807 846.76196 1316.0745 4290032847
-40.58165 846.76196 1316.0745 4290756571
-38.194496 846.76196 1316.0745 4290494961
-34.613762 846.76196 1316.0745 4289574385
-31.033028 846.76196 1316.0745 4288785651
-28.645872 846.76196 1316.0745 4288785359
-21.484404 846.76196 1316.0745 4290693887
-19.097248 846.76196 1316.0745 4290760700
-16.710093 846.76196 1316.0745 4291484159
-14.322936 846.76196 1316.0745 4291088127
-10.742202 846.76196 1316.0745 4290430197
1.193578 846.76196 1316.0745 4292930047
4.774312 846.76196 1316.0745 4292600575
7.161468 846.76196 1316.0745 4293324543
16.658716 850.57068 1314.0537 4293127423
19.038532 850.57068 1314.0537 4292931071
22.608257 850.57068 1314.0537 4292733695
26.177982 850.57068 1314.0537 4292470527
26.177982 852.39001 1315.5879 4292470015
-60.871559 807.771 1317.207 4283651469
-58.436699 807.771 1317.207 4283849607
-52.755352 808.39142 1317.7302 4284640411
-55.748623 818.28497 1318.224 4285882778
-62.066055 848.58698 1317.6133 4290035705
-58.485321 848.58698 1317.6133 4290100988
-54.904587 848.58698 1317.6133 4289969149
-52.517429 848.58698 1317.6133 4289902563
-50.130276 848.58698 1317.6133 4288849618
-46.549541 848.58698 1317.6133 4288977093
-42.968807 848.58698 1317.6133 4289372103
-16.710093 848.58698 1317.6133 4290497791
-14.322936 848.58698 1317.6133 4290890232
-10.742202 848.58698 1317.6133 4290233080
-7.161468 848.58698 1317.6133 4289576439
-4.774312 848.58698 1317.6133 4289774847
-2.387156 848.58698 1317.6133 4292340991
10.742202 848.58698 1317.6133 4292995071
14.322936 848.58698 1317.6133 4293193215
-57.291744 850.41199 1319.1521 4290297599
-52.517429 850.41199 1319.1521 4289966820
16.710093 850.41199 1319.1521 4292864767
19.097248 850.41199 1319.1521 4292864767
22.677982 850.41199 1319.1521 4292930559
-56.212845 805.18616 1321.5677 4285033624
-56.001835 811.4939 1320.3462 4285100203
-56.001835 813.35541 1321.9156 4284443552
-26.359632 844.27539 1320.5181 4289509081
-23.963303 844.27539 1320.5181 4289312246
-64.70092 846.10736 1322.0627 4290298876
-40.737614 846.10736 1322.0627 4290095826
-38.341286 846.10736 1322.0627 4289572060
-34.746788 846.10736 1322.0627 4289836010
-31.152294 846.10736 1322.0627 4287929048
-28.755962 846.10736 1322.0627 4287795372
-26.359632 846.10736 1322.0627 4287992494
-22.765137 846.10736 1322.0627 4287733701
-19.170643 846.10736 1322.0627 4289971447
1.1981652 846.10736 1322.0627 4292930559
4.7926607 846.10736 1322.0627 4292403967
7.1889906 846.10736 1322.0627 4292996095
23.871559 852.237 1320.6909 4292930047
26.258715 853.14954 1321.4603 4293127679
-63.544952 807.98889 1323.9309 4283060092
-61.100918 807.98889 1323.9309 4283849351
-58.656879 807.98889 1323.9309 4283915411
-56.212845 807.05463 1323.1432 4285099167
-64.70092 847.93939 1323.6074 4290627063
-62.304588 847.93939 1323.6074 4290363903
-59.908257 847.93939 1323.6074 4290495487
-55.115597 847.93939 1323.6074 4289705207
-50.322937 847.93939 1323.6074 4289111511
-46.728439 847.93939 1323.6074 4288846790
-43.133945 847.93939 1323.6074 4288913630
-40.737614 847.93939 1323.6074 4290032112
-38.341286 847.93939 1323.6074 4290100439
-35.944954 847.93939 1323.6074 4290560990
-23.963303 847.93939 1323.6074 4286419109
-19.170643 847.93939 1323.6074 4290430453
-16.774311 847.93939 1323.6074 4290496247
-14.377981 847.93939 1323.6074 4290496497
-10.783486 847.93939 1323.6074 4290299384
-7.1889906 847.93939 1323.6074 4288852462
-4.7926607 847.93939 1323.6074 4288854258
-2.3963304 847.93939 1323.6074 4292341503
10.783486 847.93939 1323.6074 4292798463
14.377981 847.93939 1323.6074 4292667391
-64.70092 849.77142 1325.1521 4290166773
-62.304588 849.77142 1325.1521 4288984311
-58.710091 849.77142 1325.1521 4288850929
-52.719265 849.77142 1325.1521 4289635037
-50.322937 849.77142 1325.1521 4290424552
-47.926605 849.77142 1325.1521 4290492644
-40.737614 849.77142 1325.1521 4290427884
-11.981651 849.77142 1325.1521 4290430965
-7.1889906 849.77142 1325.1521 4288983787
16.774311 849.77142 1325.1521 4292864511
19.170643 849.77142 1325.1521 4292667391
21.566973 849.77142 1325.1521 4292864767
-63.544952 811.72583 1327.0819 4283519363
-61.100918 811.72583 1327.0819 4284111500
-58.656879 811.72583 1327.0819 4284373392
-33.677063 845.4668 1328.0627 4290036209
-31.271559 845.4668 1328.0627 4287207110
-28.866055 845.4668 1328.0627 4286550947
-26.46055 845.4668 1328.0627 4286814119
-21.649542 845.4668 1328.0627 4288787657
1.2027524 845.4668 1328.0627 4293062143
4.8110094 845.4668 1328.0627 4292731903
7.2165136 845.4668 1328.0627 4293258239
22.765137 851.60339 1326.6968 4292863999
-61.100918 814.52856 1329.4451 4285883793
-58.656879 814.52856 1329.4451 4287192723
-56.212845 814.52856 1329.4451 4287587481
-61.100918 816.39709 1331.0205 4285815438
-67.354126 847.30579 1329.6134 4290693117
-55.326607 847.30579 1329.6134 4289112304
-45.704586 847.30579 1329.6134 4290163679
-43.299084 847.30579 1329.6134 4289967333
-37.285324 847.30579 1329.6134 4290495726
-33.677063 847.30579 1329.6134 4290498043
-31.271559 847.30579 1329.6134 4288195288
-28.866055 847.30579 1329.6134 4287997140
-25.257797 847.30579 1329.6134 4288391379
-21.649542 847.30579 1329.6134 4289969378
-19.244038 847.30579 1329.6134 4291480062
-16.838531 847.30579 1329.6134 4291414012
-14.433027 847.30579 1329.6134 4290891516
-9.6220188 847.30579 1329.6134 4290102011
-4.8110094 847.30579 1329.6134 4288130801
-2.4055047 847.30579 1329.6134 4291617791
4.8110094 847.30579 1329.6134 4292403967
7.2165136 847.30579 1329.6134 4292798719
9.6220188 847.30579 1329.6134 4292930047
13.230275 847.30579 1329.6134 4292667135
-67.354126 849.14484 1331.1641 4289772267
-64.948624 849.14484 1331.1641 4289245923
-61.340366 849.14484 1331.1641 4289048042
-57.732109 849.14484 1331.1641 4289047526
-55.326607 849.14484 1331.1641 4289113319
-52.921101 849.14484 1331.1641 4289901286
-49.312843 849.14484 1331.1641 4290624499
-45.704586 849.14484 1331.1641 4290491890
-43.299084 849.14484 1331.1641 4290427884
-40.893578 849.14484 1331.1641 4290625264
-37.285324 849.14484 1331.1641 4290823156
-33.677063 849.14484 1331.1641 4290759151
-31.271559 849.14484 1331.1641 4290298600
-28.866055 849.14484 1331.1641 4290494974
-25.257797 849.14484 1331.1641 4290626559
-21.649542 849.14484 1331.1641 4291218687
-19.244038 849.14484 1331.1641 4291218687
-16.838531 849.14484 1331.1641 4291547647
-13.230275 849.14484 1331.1641 4290890749
-9.6220188 849.14484 1331.1641 4289904639
-7.2165136 849.14484 1331.1641 4289180659
-4.8110094 849.14484 1331.1641 4288590324
-2.4055047 849.14484 1331.1641 4291748351
14.433027 849.14484 1331.1641 4292798975
16.838531 849.14484 1331.1641 4293127935
19.244038 849.14484 1331.1641 4293060863
1.2073394 844.84027 1334.0746 4292601343
-61.340366 850.98389 1332.7146 4290363639
-57.732109 850.98389 1332.7146 4290430461
-52.921101 850.98389 1332.7146 4290429166
-49.312843 850.98389 1332.7146 4289243868
-40.893578 850.98389 1332.7146 4290362860
-37.285324 850.98389 1332.7146 4290428402
-9.6220188 850.98389 1332.7146 4289903853
-7.2165136 850.98389 1332.7146 4289245923
-2.4055047 850.98389 1332.7146 4292142335
19.244038 850.98389 1332.7146 4292732415
21.649542 850.98389 1332.7146 4292798207
24.055046 850.98389 1332.7146 4292798975
24.055046 852.82288 1334.2653 4292930559
-65.196327 848.53235 1337.1876 4289314044
-55.537613 848.53235 1337.1876 4290035959
-45.878899 848.53235 1337.1876 4290098155
-43.464222 848.53235 1337.1876 4290165480
-33.805504 848.53235 1337.1876 4291086069
-31.390825 848.53235 1337.1876 4292138751
-28.976147 848.53235 1337.1876 4292402431
-25.35413 848.53235 1337.1876 4292336639
-21.732111 848.53235 1337.1876 4292007679
-19.31743 848.53235 1337.1876 4291548415
-16.902752 848.53235 1337.1876 4291548415
-13.280734 848.53235 1337.1876 4290890493
-4.8293576 848.53235 1337.1876 4288852712
0.80489296 847.3017 1336.15 4292536063
4.8293576 846.68634 1335.6311 4292667391
7.2440367 847.60938 1336.4094 4292733695
9.6587152 847.60938 1336.4094 4292668415
12.878288 847.91699 1336.6688 4292536575
16.902752 848.53235 1337.1876 4292799743
24.055046 856.50098 1337.3665 4292930559
-53.122936 850.37842 1338.7441 4289772017
-49.500916 850.37842 1338.7441 4288390358
-41.049541 850.37842 1338.7441 4290890473
-37.427521 850.37842 1338.7441 4290559473
-14.488073 850.37842 1338.7441 4291350015
-9.6587152 850.37842 1338.7441 4289378013
-2.4146788 850.37842 1338.7441 4292010751
13.280734 850.37842 1338.7441 4292536319
16.902752 850.37842 1338.7441 4292733951
19.31743 850.37842 1338.7441 4292864767
21.732111 850.37842 1338.7441 4292930559
14.488073 852.22449 1340.3008 4292470527
16.902752 852.22449 1340.3008 4292799487
19.31743 852.22449 1340.3008 4292996607
21.732111 852.22449 1340.3008 4292996607
24.14679 852.22449 1340.3008 4292733951
-63.020184 847.93384 1343.2231 4290297846
-58.172478 847.93384 1343.2231 4290891007
-55.748623 847.93384 1343.2231 4290298874
-46.053211 847.93384 1343.2231 4289772004
-43.629356 847.93384 1343.2231 4290824424
-33.933945 847.93384 1343.2231 4291150577
-31.510092 847.93384 1343.2231 4292400639
-29.086239 847.93384 1343.2231 4292269055
-25.450459 847.93384 1343.2231 4292071933
-21.814678 847.93384 1343.2231 4292204030
-19.390825 847.93384 1343.2231 4291875583
-16.966972 847.93384 1343.2231 4291480825
-12.119267 847.93384 1343.2231 4290363125
-7.2715597 847.93384 1343.2231 4288851669
-4.8477063 847.93384 1343.2231 4288786937
2.4238532 847.00732 1342.4419 4292798975
4.8477063 847.00732 1342.4419 4292602367
7.2715597 847.93384 1343.2231 4292996863
9.6954126 847.93384 1343.2231 4292931071
19.31743 854.0705 1341.8573 4293193215
21.732111 854.0705 1341.8573 4293259007
19.31743 855.91656 1343.4138 4292535551
21.732111 855.91656 1343.4138 4292667391
-53.324772 849.78693 1344.7856 4288918253
-50.900917 849.78693 1344.7856 4288655337
-46.053211 849.78693 1344.7856 4290628330
-43.629356 849.78693 1344.7856 4291219967
-41.205505 849.78693 1344.7856 4290759416
-37.569725 849.78693 1344.7856 4290756850
-26.662386 849.78693 1344.7856 4290228210
-14.543119 849.78693 1344.7856 4290297078
-2.4238532 849.78693 1344.7856 4292863743
7.2715597 849.78693 1344.7856 4292799487
9.6954126 849.78693 1344.7856 4292996607
12.927218 851.02228 1345.8273 4292864767
16.966972 851.64001 1346.3481 4293061631
19.31743 857.76257 1344.9703 4292666623
-70.611008 844.0697 1347.8132 4287735022
-68.176147 844.0697 1347.8132 4287931362
-65.741287 845.00043 1348.598 4290101502
-60.871559 845.00043 1348.598 4291153151
0 845.00043 1348.598 4293062143
13.331193 853.49304 1347.9105 4292863999
16.966972 853.49304 1347.9105 4292797951
14.543119 855.34607 1349.473 4292929279
16.966972 855.34607 1349.473 4292929279
12.073395 861.45465 1348.0834 4292864255
-70.611008 848.72339 1351.7371 4288786165
-68.176147 847.79266 1350.9523 4288916457
-64.929665 847.48242 1350.6907 4289771506
-60.871559 846.86194 1350.1675 4290823420
-58.436699 847.79266 1350.9523 4290824700
-56.001835 846.86194 1350.1675 4290101498
-52.349541 848.72339 1351.7371 4288786154
-48.697247 847.79266 1350.9523 4289049306
-46.262386 848.72339 1351.7371 4290628346
-43.827522 848.72339 1351.7371 4291283967
-41.392662 848.72339 1351.7371 4290889469
-37.740364 848.72339 1351.7371 4291546363
-34.088074 847.79266 1350.9523 4290623742
-31.653212 847.79266 1350.9523 4289900025
-29.218349 847.79266 1350.9523 4289504739
-25.160242 848.10284 1351.2139 4290163430
-21.913761 847.79266 1350.9523 4290689773
-19.478899 847.79266 1350.9523 4290098930
-17.044037 847.79266 1350.9523 4289967344
-12.985932 848.10284 1351.2139 4290034157
-9.7394495 847.79266 1350.9523 4290035423
-7.3045874 847.79266 1350.9523 4290956268
-4.8697248 847.79266 1350.9523 4291811324
-2.4348624 848.72339 1351.7371 4292798207
1.2174312 846.86194 1350.1675 4292929791
4.8697248 847.79266 1350.9523 4292207103
7.3045874 848.72339 1351.7371 4292667647
9.7394495 848.72339 1351.7371 4292930559
9.6954126 857.19916 1351.0354 4292537087
13.331193 857.19916 1351.0354 4292470527
16.966972 857.19916 1351.0354 4292469759
9.6954126 859.05219 1352.5979 4292864255
14.543119 859.05219 1352.5979 4292469759
-68.176147 850.58484 1353.3066 4291218175
-51.132111 850.58484 1353.3066 4290035453
-48.697247 850.58484 1353.3066 4290496510
-46.262386 850.58484 1353.3066 4290693887
-43.827522 850.58484 1353.3066 4290496510
-41.392662 850.58484 1353.3066 4290693887
-37.740364 850.58484 1353.3066 4291086845
-34.088074 850.58484 1353.3066 4289573868
-29.218349 850.58484 1353.3066 4289900773
-25.566055 850.58484 1353.3066 4290888949
-14.609175 850.58484 1353.3066 4290298352
-2.4348624 850.58484 1353.3066 4292798207
7.3045874 850.58484 1353.3066 4292536063
9.7394495 850.58484 1353.3066 4292601599
9.7394495 852.44635 1354.8762 4292667391
12.174312 852.44635 1354.8762 4292667391
-63.544952 846.29285 1356.2278 4290296814
-61.100918 846.29285 1356.2278 4291086330
-56.212845 847.22711 1357.0156 4289375975
-53.768806 848.16138 1357.8033 4288522214
-31.772476 848.16138 1357.8033 4289245160
-21.99633 848.16138 1357.8033 4290297580
-19.552294 848.16138 1357.8033 4289838323
-17.108257 848.16138 1357.8033 4289641201
-12.220183 848.16138 1357.8033 4290758903
-9.7761469 848.16138 1357.8033 4291876084
-7.3321099 848.16138 1357.8033 4292731135
-4.8880734 848.16138 1357.8033 4292798207
1.2220184 847.22711 1357.0155 4292667135
4.8880734 848.16138 1357.8033 4292207103
-52.13945 850.65265 1359.9039 4289904118
-48.880733 850.96411 1360.1665 4290825983
-46.436699 850.96411 1360.1665 4291286527
-43.992661 850.96411 1360.1665 4291286014
-40.733944 850.65265 1359.9039 4290693629
-36.660549 850.96411 1360.1665 4289838333
-34.216515 850.02985 1359.3788 4289113812
-31.772476 850.02985 1359.3788 4289179605
-29.32844 850.02985 1359.3788 4289639666
-25.662384 850.02985 1359.3788 4291087103
-17.108257 850.02985 1359.3788 4290233599
-13.442202 850.02985 1359.3788 4291679998
-9.7761469 850.02985 1359.3788 4292600319
-7.3321099 850.96411 1360.1665 4292929535
-4.8880734 850.96411 1360.1665 4292732927
-2.4440367 850.96411 1360.1665 4292667135
4.8880734 850.02985 1359.3788 4292536319
7.3321099 850.96411 1360.1665 4292733695
-66.236694 845.73785 1362.3 4291218175
-63.783485 845.73785 1362.3 4291020533
-61.330276 845.73785 1362.3 4290231273
-66.236694 847.61334 1363.8815 4291087359
-63.783485 847.61334 1363.8815 4291086330
-56.423855 847.61334 1363.8815 4288717778
-22.078899 847.61334 1363.8815 4290297078
-19.625689 847.61334 1363.8815 4289707257
1.2266055 847.61334 1363.8815 4292535807
-51.324772 853.76685 1362.5297 4288720610
-48.880733 853.76685 1362.5297 4290233822
-43.992661 853.76685 1362.5297 4291417087
-53.970642 849.48883 1365.4628 4289902570
-46.611008 851.36438 1367.0442 4291286510
-40.069111 850.7392 1366.5171 4290430719
-34.344955 850.42664 1366.2534 4290298607
-31.891743 850.42664 1366.2534 4290232815
-29.438532 850.42664 1366.2534 4290364389
-26.167585 850.11401 1365.9899 4290890739
-22.078899 849.48883 1365.4628 4291284991
-19.625689 849.48883 1365.4628 4291679743
-17.172478 850.42664 1366.2534 4292732159
-13.492661 849.48883 1365.4628 4292469759
-9.8128443 849.48883 1365.4628 4292732415
-7.359633 851.36438 1367.0442 4292732415
-4.9064221 851.36438 1367.0442 4292535551
-2.4532111 851.36438 1367.0442 4292535551
1.2266055 850.42664 1366.2534 4292602111
4.9064221 850.42664 1366.2534 4292536319
7.359633 851.36438 1367.0442 4292799487
-46.611008 853.23987 1368.6256 4287667922
-44.157799 853.23987 1368.6256 4288258276
-41.704586 853.23987 1368.6256 4287468760
-29.438532 853.23987 1368.6256 4291153405
-26.985321 853.23987 1368.6256 4292008703
-17.172478 853.23987 1368.6256 4292667135
-7.359633 853.23987 1368.6256 4292601599
-2.4532111 853.23987 1368.6256 4292535551
-36.93578 848.96191 1371.5587 4290693631
-24.623854 848.96191 1371.5587 4291941119
-22.161469 848.96191 1371.5587 4292270335
-19.699083 848.96191 1371.5587 4292732159
-13.543119 848.96191 1371.5587 4293061375
-9.8495417 848.96191 1371.5587 4292798207
-39.398167 850.84448 1373.146 4286353346
-36.93578 850.84448 1373.146 4287274448
-34.473396 850.84448 1373.146 4286948315
-32.011009 850.84448 1373.146 4289580031
-24.623854 850.84448 1373.146 4292862719
-22.161469 850.84448 1373.146 4292599551
-19.699083 850.84448 1373.146 4292403711
-13.543119 850.84448 1373.146 4292405247
-9.8495417 850.84448 1373.146 4292601599
-4.9247708 850.84448 1373.146 4292535551
1.2311927 850.84448 1373.146 4292601599
4.9247708 850.84448 1373.146 4292272895
-44.322937 852.72699 1374.7333 4285889211
-40.629356 852.72699 1374.7333 4285495722
-36.93578 853.66821 1375.5269 4290362592
-34.473396 852.72699 1374.7333 4288392181
-32.011009 852.72699 1374.7333 4291023615
-28.317432 853.66827 1375.527 4292601087
-24.623854 853.66821 1375.5269 4292732159
-22.161469 852.72699 1374.7333 4292797695
-19.699083 852.72699 1374.7333 4292535551
-17.236698 852.72699 1374.7333 4292798719
-13.543119 852.72699 1374.7333 4292602111
-7.387156 852.72699 1374.7333 4292535551
-4.9247708 852.72699 1374.7333 4292666623
-2.4623854 852.72699 1374.7333 4292600575
-9.8862381 850.3385 1379.2595 4292535551
-43.252296 852.22803 1380.8528 4287400902
