# .PCD v0.7 - Point Cloud Data file format
VERSION 0.7
FIELDS x y z rgb
SIZE 4 4 4 4
TYPE F F F U
COUNT 1 1 1 1
WIDTH 1169
HEIGHT 1
VIEWPOINT 0 0 0 1 0 0 0
POINTS 1169
DATA ascii
23.086239 801.48279 795.23315 4294967295
25.651377 801.48279 795.23315 4294967295
28.501532 801.91864 795.60059 4294967295
31.351683 802.35431 795.96808 4294967295
34.27523 801.30737 797.70129 4294967295
-1.7100917 804.09753 797.43787 4288447896
0.85504586 804.09753 797.43787 4288053383
4.2697248 805.20752 796.41174 4288187811
8.5229359 806.3175 795.38562 4290162625
28.977982 806.3175 795.38562 4294967295
31.587158 805.20752 796.41174 4294967295
34.201836 804.09753 797.43787 4294967295
-3.4091742 808.92389 797.58325 4288842411
-1.7045871 808.27234 797.03387 4288645284
0.85229355 808.27234 797.03387 4287003523
4.2522936 809.0979 795.11401 4287463591
23.812843 809.0979 795.11401 4294967295
25.513762 809.0979 795.11401 4294967295
28.096331 808.35931 795.79926 4294967295
31.250765 808.4895 797.21698 4294967295
-1.7009175 811.69861 797.30688 4288647083
1.7009175 810.39825 796.21045 4286083704
28.065138 810.39825 796.21045 4294967295
31.466972 811.69861 797.30688 4294967295
1.6954129 814.55408 795.79034 4286477191
4.2385321 813.90601 795.2439 4289106619
23.735781 813.90601 795.2439 4294967295
25.431192 813.90601 795.2439 4294967295
27.974312 813.90601 795.2439 4294967295
33.908257 815.20215 796.33679 4294967295
-3.3908257 816.49835 797.42969 4287070350
-1.6917431 817.96436 796.04968 4286873227
0.84587157 817.96436 796.04968 4286016901
25.376146 817.96436 796.04968 4294967295
35.526604 817.96436 796.04968 4294967295
-3.3834863 819.25769 797.14026 4286411920
-1.6862385 821.45245 795.06677 4286280334
0.84311926 820.3551 796.10352 4285293178
4.2155962 821.45245 795.06677 4287463572
6.7449541 821.45245 795.06677 4287467936
15.176147 821.45245 795.06677 4291476446
19.391743 821.45245 795.06677 4290950349
22.764221 821.45245 795.06677 4294967295
26.136696 821.45245 795.06677 4294967295
30.352293 821.45245 795.06677 4294967295
-3.3724771 823.38611 796.6972 4286869389
-1.6862385 822.74158 796.15369 4286935952
0 823.38611 796.6972 4286281864
-3.3651376 826.77466 796.93811 4284572780
-1.6825688 825.48828 795.85352 4287394963
0.84128439 826.13147 796.39581 4283979899
40.381653 825.48828 795.85352 4294967295
42.06422 825.48828 795.85352 4294967295
-3.3541284 830.23889 795.93506 4280833883
0 830.23889 795.93506 4283718268
40.249542 830.23889 795.93506 4294967295
-4.183486 832.97009 795.62195 4281153860
0 832.97009 795.62195 4282531428
40.998165 832.97009 795.62195 4294967295
43.508255 835.52875 797.7793 4294967295
-7.5055046 838.33167 796.21857 4286805627
-4.4477067 838.11914 796.03937 4286016631
0.83394498 838.33167 796.21857 4286934397
38.361469 838.33167 796.21857 4294967295
40.863304 838.33167 796.21857 4294967295
-10.007339 840.24432 797.8313 4282727737
-7.2177372 840.77881 796.5379 4286478717
-3.8868504 840.77881 796.5379 4285819007
-1.6642202 841.68219 796.42755 4286344075
0.83394498 840.24432 797.8313 4288250222
4.1651378 840.32715 796.59308 4287001219
7.4889913 841.04608 795.89124 4287004302
10.81743 841.68225 796.42761 4285161351
13.313762 841.68225 796.42761 4283452228
16.642202 841.68225 796.42761 4289961660
19.970642 842.95453 797.50037 4291738841
22.466972 842.95453 797.50037 4290288057
26.072784 842.53046 797.14276 4294967295
29.290274 841.42773 796.21307 4294967295
31.620184 841.68219 796.42755 4294967295
34.116516 841.04602 795.89124 4294967295
37.195721 840.77881 796.5379 4294967295
40.863304 840.24432 797.8313 4294967295
14.944954 843.12018 795.02393 4286873207
19.096329 843.12018 795.02393 4292528096
22.417431 843.12018 795.02393 4289895866
24.908257 843.12018 795.02393 4294967295
16.873394 750.29993 799.16614 4294967295
19.537615 750.29993 799.16614 4294967295
22.201836 750.29993 799.16614 4294967295
25.754128 750.29993 799.16614 4294967295
31.082569 751.65778 800.31116 4294967295
33.746788 751.65778 800.31116 4294967295
17.724771 753.19104 798.98792 4294967295
19.497248 753.19104 798.98792 4294967295
22.155964 753.19104 798.98792 4294967295
25.99633 753.64276 799.36884 4294967295
28.359632 753.19104 798.98792 4294967295
31.018349 754.54614 800.13049 4294967295
17.669725 756.84186 798.14209 4284902526
19.436697 756.84186 798.14209 4291481827
22.087158 757.51733 798.71161 4294967295
25.326607 757.74249 798.90143 4294967295
28.271559 757.51733 798.71161 4294967295
22.018349 761.83093 798.42468 4294967295
25.582569 760.68726 799.42242 4294967295
28.271559 759.54358 800.42017 4294967295
30.922018 759.54358 800.42017 4294967295
25.541285 763.17761 799.56018 4294967295
29.357798 763.62646 799.93866 4294967295
31.706423 764.52423 800.69568 4294967295
33.467892 764.52423 800.69568 4294967295
25.461468 766.80316 798.69312 4294967295
28.095413 766.80316 798.69312 4294967295
0 769.66211 798.48755 4288359226
25.408257 769.66211 798.48755 4294967295
28.944036 768.90387 799.15625 4294967295
31.60734 768.81689 800.39093 4294967295
29.78899 771.00177 799.61707 4294967295
31.541285 772.34143 800.7467 4294967295
0.87339449 774.60767 798.7334 4288909992
20.961468 774.60767 798.7334 4294967295
25.328442 774.60767 798.7334 4294967295
28.822018 774.60767 798.7334 4294967295
33.188992 775.94312 799.8595 4294967295
0.87155962 777.45123 798.51501 4287267216
4.3577981 777.45123 798.51501 4288315776
7.8440366 777.45123 798.51501 4289038979
10.458715 777.45123 798.51501 4291654327
13.944954 777.45123 798.51501 4294956533
16.559633 777.45123 798.51501 4282253324
20.045872 777.45123 798.51501 4294961897
22.660551 777.45123 798.51501 4294967295
25.27523 777.45123 798.51501 4294967295
29.051987 777.89545 798.88959 4294967295
31.376146 778.11755 799.07684 4294967295
34.027523 778.03119 800.31207 4294967295
0.86880732 782.37012 798.7384 4287399314
4.3440366 782.37012 798.7384 4288911511
6.9504585 782.37012 798.7384 4290816703
19.982569 782.37012 798.7384 4294964695
22.588991 782.37012 798.7384 4294967295
25.195412 782.37012 798.7384 4294967295
29.53945 782.37012 798.7384 4294967295
31.277063 782.37012 798.7384 4294967295
33.93853 781.24329 799.75031 4294967295
0.86880732 783.69855 799.85852 4286938518
3.4752293 783.69855 799.85852 4288582044
34.752293 783.69855 799.85852 4294967295
0.86605507 787.93433 799.50592 4287398047
4.3302751 787.27222 798.94763 4288976300
32.910091 787.27222 798.94763 4294967295
34.6422 787.27222 798.94763 4294967295
36.374313 788.59644 800.06421 4294967295
0.8642202 791.41193 799.82202 4288316835
4.3211012 790.75122 799.26489 4288776879
7.7779818 790.09052 798.70776 4290684370
10.370643 790.75122 799.26489 4291081941
12.963303 790.09052 798.70776 4290225596
16.420183 790.09052 798.70776 4287984009
19.877064 790.09052 798.70776 4294966015
32.840366 790.09052 798.70776 4294967295
34.568806 790.09052 798.70776 4294967295
36.297249 791.41193 799.82202 4294967295
-5.1688075 794.96594 798.89453 4287659409
0.8614679 794.96594 798.89453 4288056227
4.3073397 794.96594 798.89453 4288973731
7.753211 794.96594 798.89453 4290882496
10.337615 794.96594 798.89453 4291146702
12.922018 794.96594 798.89453 4289436351
37.161469 792.73328 800.93616 4294967295
39.754128 792.73328 800.93616 4294967295
-5.1688075 796.28314 800.00525 4287396489
5.1577983 797.7688 798.64185 4288316560
7.7366972 797.7688 798.64185 4290092982
10.315597 797.7688 798.64185 4291277268
12.034863 797.7688 798.64185 4290685387
36.104588 797.7688 798.64185 4294967295
-5.1577983 800.39758 800.85828 4286868600
5.1577983 799.08313 799.75012 4288119695
36.104588 799.74036 800.3042 4294967295
-4.2844038 803.27264 799.3584 4287592585
34.27523 803.92773 799.91077 4294967295
-4.2752295 806.05859 799.09143 4287330957
0 805.40491 798.54028 4286804348
32.491745 805.40491 798.54028 4294967295
34.201836 806.71228 799.64258 4294967295
-6.8403668 808.01965 800.745 4286935418
34.201836 808.01965 800.745 4294967295
-6.8183484 812.18176 800.33026 4285881693
-4.2596331 811.24585 798.88708 4287528335
-1.7009175 812.99902 798.40332 4287134878
0 811.61304 798.54272 4286542983
35.796329 811.53021 799.78088 4294967295
37.500916 811.53021 799.78088 4294967295
-6.8036699 815.59973 800.59619 4284830278
-5.1027522 814.29938 799.49976 4286341984
-5.0862384 817.79449 798.52258 4286014809
-6.7816515 820.38684 800.70837 4285290325
-5.0807338 820.46753 799.46838 4286211164
43.985321 821.84436 799.32129 4294967295
45.776146 820.38684 800.70837 4294967295
45.677063 823.13776 800.41187 4294967295
-6.7449541 825.31989 798.32764 4285422949
-5.0587158 825.31989 798.32764 4284764762
43.842205 826.60895 799.41461 4294967295
-6.7302752 828.06097 798.02271 4283458149
-5.0477066 828.06097 798.02271 4281550152
42.06422 828.06097 798.02271 4294967295
43.603668 832.80316 798.09717 4294967295
43.508255 836.80811 798.85803 4294967295
46.119267 835.36743 800.25928 4294967295
43.508255 838.0874 799.93677 4294967295
46.018349 838.0874 799.93677 4294967295
-10.007339 841.51941 798.90637 4282136377
-7.5055046 841.51941 798.90637 4286742154
-4.1697249 842.15698 799.44397 4284635250
-1.66789 842.79456 799.98157 4285753223
0.83394498 841.51941 798.90637 4287721829
4.1697249 841.51941 798.90637 4287398297
7.5055046 841.51941 798.90637 4286017932
10.841284 841.51941 798.90637 4286604168
13.34312 841.51941 798.90637 4288053357
15.844954 841.51941 798.90637 4289040535
18.90275 842.36945 799.62323 4291541467
22.516514 842.79456 799.98157 4290555069
25.852295 842.79456 799.98157 4294967295
28.354128 842.15698 799.44397 4294967295
30.855965 842.79456 799.98157 4294967295
34.469723 841.94452 799.26483 4294967295
37.527523 842.15698 799.44397 4294967295
40.863304 841.51941 798.90637 4294967295
35.633026 749.35785 802.29602 4294967295
37.41468 749.35785 802.29602 4294967295
40.087158 749.35785 802.29602 4294967295
37.41468 750.71991 803.44446 4294967295
39.196331 750.71991 803.44446 4294967295
31.018349 755.90118 801.27307 4294967295
34.617432 754.07648 801.69653 4294967295
37.299084 754.37354 802.60095 4294967295
39.9422 754.75543 802.26892 4294967295
43.337978 754.64514 802.82996 4294967295
34.858715 757.70801 802.79657 4294967295
37.812847 758.15967 803.17743 4294967295
40.766972 757.93384 802.98694 4294967295
44.311928 758.61133 803.55823 4294967295
46.084404 758.61133 803.55823 4294967295
31.805504 760.89447 801.5592 4294967295
33.572475 760.89447 801.5592 4294967295
35.339451 762.24536 802.69812 4294967295
37.989906 762.92078 803.26764 4294967295
40.640366 763.59619 803.83716 4294967295
43.585323 763.14594 803.45752 4294967295
45.941284 762.92078 803.26764 4294967295
34.348625 766.54425 802.3988 4294967295
33.363304 770.83051 802.08887 4294967295
35.119267 772.17297 803.2207 4294967295
36.875229 772.17297 803.2207 4294967295
36.682568 779.94946 803.23743 4294967295
36.605503 782.78174 803.00952 4294967295
38.227524 786.35541 802.09863 4294967295
38.106422 789.92065 801.18079 4294967295
40.993271 790.36206 801.55292 4294967295
43.302753 790.58276 801.73901 4294967295
38.025688 794.05469 802.05029 4294967295
40.618347 794.05469 802.05029 4294967295
43.21101 794.05469 802.05029 4294967295
45.900917 792.56909 803.41382 4294967295
37.904587 797.60034 801.11584 4294967295
40.618347 795.3761 803.16455 4294967295
44.006424 796.48822 802.1402 4294967295
46.667889 795.3761 803.16455 4294967295
-7.753211 799.57617 802.78174 4287131772
37.904587 799.57617 802.78174 4294967295
40.77615 799.35663 802.59668 4294967295
43.93486 799.57611 802.78174 4294967295
46.519264 798.91754 802.22644 4294967295
48.242203 799.57617 802.78174 4294967295
-7.7366972 802.36914 802.52069 4286869627
36.104588 802.36914 802.52069 4294967295
-7.7119265 805.89301 801.56787 4286804861
35.988991 806.5481 802.12024 4294967295
37.702751 806.5481 802.12024 4294967295
-8.5688076 807.85828 803.22485 4286737010
-8.5504589 810.6344 802.94971 4286539375
-8.5229359 814.78809 802.52789 4287395194
-7.6541286 817.55029 802.24084 4286868329
47.625687 818.20044 802.78906 4294967295
47.471561 821.68298 801.80127 4294967295
50.014679 821.68298 801.80127 4294967295
46.873394 823.8952 802.79449 4294967295
50.297245 823.41113 803.25848 4294967295
46.522934 826.37109 803.13812 4294967295
45.528439 829.18732 801.5885 4294967295
46.270645 831.91998 801.27661 4294967295
49.690826 832.48596 803.06183 4294967295
52.273396 831.76556 803.76245 4294967295
49.555962 835.57111 802.39307 4294967295
52.159634 834.49268 803.4458 4294967295
-11.73945 839.21381 803.50244 4281080107
43.508255 839.36676 801.01538 4294967295
46.018349 839.36676 801.01538 4294967295
49.717426 838.8374 802.31305 4294967295
51.988991 839.21381 803.50244 4294967295
-10.040367 840.64606 802.09412 4282265139
-7.5302753 840.64606 802.09412 4286674305
-4.183486 841.92542 803.17285 4284172894
-1.6733944 841.92542 803.17285 4284171862
0.83669722 841.28577 802.63354 4285421395
4.183486 841.28577 802.63348 4285949571
7.5302753 841.28577 802.63348 4287462293
10.598165 841.07251 802.45367 4287328909
13.387156 840.64606 802.09412 4287791245
16.176147 841.07251 802.45367 4288449448
19.244038 841.92542 803.17285 4290490318
22.590824 841.92542 803.17285 4290029505
25.937614 841.92542 803.17285 4294967039
28.447706 841.92542 803.17285 4294967295
30.957798 841.92542 803.17285 4294967295
34.025692 841.49896 802.81329 4294967295
37.651375 841.92542 803.17285 4294967295
40.998165 841.28577 802.63348 4294967295
43.508255 841.28577 802.63348 4294967295
46.018349 841.28577 802.63348 4294967295
48.528439 841.28577 802.63348 4294967295
42.627522 757.08929 804.89087 4294967295
40.766972 759.96643 804.70068 4294967295
42.539448 759.96643 804.70068 4294967295
37.989906 764.94708 804.9762 4294967295
40.640366 764.94708 804.9762 4294967295
43.290825 764.94708 804.9762 4294967295
45.941284 764.94708 804.9762 4294967295
40.640366 766.29791 806.11523 4294967295
43.290825 766.29791 806.11523 4294967295
45.941284 766.29791 806.11523 4294967295
35.229359 768.56421 804.10205 4294967295
38.165134 769.01312 804.48047 4294967295
40.51376 769.91089 805.23743 4294967295
43.155964 769.91089 805.23743 4294967295
46.678898 769.91089 805.23743 4294967295
37.813759 772.38647 805.36279 4294967295
40.51376 771.25757 806.37292 4294967295
43.155964 771.25757 806.37292 4294967295
46.678898 771.25757 806.37292 4294967295
37.714676 775.60913 804.80994 4294967295
40.387157 775.52905 806.05054 4294967295
43.021103 776.20032 806.61646 4294967295
38.550457 777.69995 805.26489 4294967295
42.055046 779.03961 806.39441 4294967295
38.429359 781.28485 804.36353 4294967295
40.176147 781.28485 804.36353 4294967295
43.669724 782.6203 805.4895 4294967295
40.963303 784.11438 804.13318 4294967295
46.192661 786.7796 806.38049 4294967295
-19.113762 791.66907 806.57898 4281805113
-16.507339 790.34064 805.45898 4282659652
-13.03211 790.34064 805.45892 4282989892
-10.425688 790.3407 805.45898 4285422699
-10.39266 793.89331 804.5304 4285356400
-7.7944956 793.89331 804.5304 4286605948
-5.1963301 793.89331 804.5304 4287592067
-16.166361 796.10034 806.3913 4282530119
-12.990826 795.87964 806.2052 4281939000
-10.370643 796.69751 804.27869 4285551716
-8.6422014 796.69751 804.27869 4287393920
-15.555964 799.34033 806.50708 4282991184
-10.370643 798.01892 805.39282 4285092701
39.754128 798.67963 805.94995 4294967295
46.667889 798.67963 805.94995 4294967295
48.396332 799.34033 806.50708 4294967295
-15.506422 802.86914 805.55835 4283449938
-12.922018 802.21057 805.00305 4282070073
-10.337615 801.55194 804.44775 4284830812
37.904587 801.55194 804.44775 4294967295
40.77615 802.43011 805.18817 4294967295
43.93486 802.21057 805.00305 4294967295
46.519264 802.86914 805.55835 4294967295
-16.069725 805.11407 806.57916 4282856515
-12.894495 805.65515 805.29138 4282528055
-10.315597 804.99792 804.73724 4285684579
40.488991 804.18634 806.66895 4294967295
43.93486 804.18634 806.66895 4294967295
46.469727 805.57794 806.5343 4294967295
-13.710092 809.16846 804.32959 4282461496
-11.13945 809.16846 804.32959 4284302929
-13.710092 810.47864 805.43433 4282068787
-11.115597 811.94177 804.052 4284238416
-11.115597 813.24915 805.1543 4284172108
44.462387 813.24915 805.1543 4294967295
47.027523 813.24915 805.1543 4294967295
49.592659 813.24915 805.1543 4294967295
-10.227523 816.74292 804.17603 4286078826
49.433029 816.74292 804.17603 4294967295
49.326607 822.10156 806.07837 4294967295
52.728439 822.10156 806.07837 4294967295
50.014679 825.57141 805.07983 4294967295
52.557796 825.57141 805.07983 4294967295
54.253212 825.57141 805.07983 4294967295
49.906422 828.31116 804.77393 4294967295
52.444038 828.31116 804.77393 4294967295
53.000916 835.77899 804.5304 4294967295
55.64587 834.34387 805.9364 4294967295
-15.143119 838.35168 806.69958 4280746263
-13.46055 838.35168 806.69958 4280352772
-11.777982 838.35168 806.69958 4280287235
53.281342 837.92285 806.33807 4294967295
55.524769 837.7085 806.15729 4294967295
57.20734 838.35168 806.69958 4294967295
-10.062386 841.13696 805.12402 4282782734
-7.5467882 841.13696 805.12402 4284955968
-5.0311928 841.77808 805.66455 4285150257
0.83853209 841.77808 805.66455 4285483584
4.1926603 841.77808 805.66455 4285683541
7.5467887 841.77808 805.66455 4288909210
11.180428 841.35065 805.3042 4288118683
13.416513 841.13696 805.12402 4288252061
15.652599 841.35065 805.3042 4288054426
19.28624 841.77808 805.66455 4290160316
21.801834 841.77808 805.66455 4288713896
31.86422 841.77808 805.66455 4294967295
34.379814 841.77808 805.66455 4294967295
36.895412 841.77808 805.66455 4294967295
40.249542 841.77808 805.66455 4294967295
43.603668 841.77808 805.66455 4294967295
45.280735 841.77808 805.66455 4294967295
49.752911 841.35065 805.3042 4294967295
58.697247 841.77808 805.66455 4294967295
-3.3504586 843.13245 805.49854 4288573811
-1.6752293 843.13245 805.49854 4287849831
22.90275 843.1084 805.91425 4289831617
25.966053 843.13245 805.49854 4294701311
28.478899 843.13245 805.49854 4294967295
30.154129 843.13245 805.49854 4294967295
33.541283 843.06018 806.74561 4294967295
38.488075 843.20471 804.25146 4294967295
41.834862 843.20471 804.25146 4294967295
46.364529 843.1084 805.91425 4294967295
48.634861 843.06018 806.74561 4294967295
43.155964 772.60419 807.50842 4294967295
46.385319 773.05304 807.8869 4294967295
43.899082 777.54279 807.74841 4294967295
45.655045 778.21399 808.31439 4294967295
45.559631 781.71893 808.65356 4294967295
-13.073395 788.11224 807.50403 4282989889
-19.113762 793.66174 808.25916 4281412152
-17.376146 792.9975 807.6991 4281805113
-19.053211 797.86597 807.88 4281805113
-17.3211 797.86597 807.88 4281477945
-19.053211 799.19012 808.99646 4281804861
-17.284403 800.66174 807.62122 4281936699
48.396332 800.66174 807.62122 4294967295
48.396332 801.98315 808.73535 4294967295
43.647705 805.94257 808.1499 4294967295
48.242203 805.50354 807.77966 4294967295
44.700916 808.28394 807.50793 4294967295
46.420185 808.28394 807.50793 4294967295
48.999084 808.28394 807.50793 4294967295
-18.548624 836.92218 808.11035 4279964694
-16.862385 836.92218 808.11035 4281009435
-22.764221 838.2113 809.19739 4282451990
-19.391743 838.2113 809.19739 4283042581
-16.002752 838.92468 808.49078 4284090656
-13.46055 839.638 807.78418 4284420371
-11.777982 839.638 807.78418 4284749335
53.000916 839.638 807.78418 4294967295
55.524769 839.638 807.78418 4294967295
57.20734 839.638 807.78418 4294967295
-10.656269 841.35309 809.23029 4292981690
-7.571559 841.5675 809.41113 4292982977
-4.4868503 841.78192 809.59198 4293312455
-1.6825688 842.21069 809.95349 4293445068
0.84128439 840.92438 808.86877 4290944419
4.4868503 841.35321 809.23029 4289038494
7.571559 841.56757 809.41113 4287456661
10.656269 841.35321 809.23029 4286145406
13.46055 840.92438 808.86877 4286210412
15.984404 840.92438 808.86877 4288973985
19.349541 840.92438 808.86877 4289896891
22.71468 842.21069 809.95349 4288910254
26.079817 842.21069 809.95349 4294108663
28.60367 842.21069 809.95349 4294967295
31.407949 841.78192 809.59198 4294967295
34.492661 841.5675 809.41113 4294967295
37.577366 841.35309 809.23029 4294967295
40.381653 840.92438 808.86877 4294967295
42.905502 840.92438 808.86877 4294967295
50.477066 840.92438 808.86877 4294967295
53.281342 841.35309 809.23029 4294967295
55.524769 841.5675 809.41113 4294967295
58.048622 841.5675 809.41113 4294967295
60.572475 841.5675 809.41113 4294967295
62.051376 845.62445 808.90771 4294967295
-22.764221 839.50043 810.2843 4287583052
-19.391743 839.50043 810.2843 4290214786
-16.019266 839.50043 810.2843 4291664291
-13.489908 839.50043 810.2843 4292189603
-25.293577 841.4342 811.91479 4291929777
-22.764219 841.43414 811.91479 4292392629
-19.391743 841.43414 811.91479 4292986828
-16.019266 841.4342 811.91479 4293053651
-13.489908 841.4342 811.91479 4293380302
-11.24159 841.64911 812.09595 4294039261
-7.5880733 842.07874 812.45825 4293975272
-4.2155962 842.07874 812.45825 4293513689
-1.6862385 842.07874 812.45825 4293775830
0.84311926 841.4342 811.91479 4293313486
3.9345562 841.64899 812.09595 4293511390
7.5880733 842.07874 812.45825 4294566379
11.24159 841.64899 812.09595 4290423223
13.489908 841.4342 811.91479 4288121503
16.019266 841.4342 811.91479 4289042356
19.391743 841.43414 811.91479 4289567675
22.764221 842.07874 812.45825 4288843174
26.136696 842.07874 812.45825 4293450482
28.666056 842.07874 812.45825 4294967295
31.195412 842.07874 812.45825 4294967295
34.84893 841.64899 812.09595 4294967295
38.221409 841.64911 812.09595 4294967295
40.469727 840.78961 811.37134 4294967295
42.999084 840.78961 811.37134 4294967295
46.371559 840.78961 811.37134 4294967295
49.744034 841.4342 811.91479 4294967295
53.116516 841.4342 811.91479 4294967295
55.64587 842.07874 812.45825 4294967295
58.175232 842.07874 812.45825 4294967295
60.572475 843.49701 811.03809 4294967295
40.601833 839.95129 814.58862 4294967295
43.13945 839.95129 814.58862 4294967295
46.522934 839.95129 814.58862 4294967295
52.444038 839.95129 814.58862 4294967295
-27.06789 841.24463 815.67908 4294105563
-15.225688 841.24463 815.67908 4293449697
-13.533945 841.24463 815.67908 4293973470
-10.99633 841.24463 815.67908 4294696939
0.84587157 841.24463 815.67908 4293512422
4.2293577 841.24463 815.67908 4293908445
6.7669725 841.24463 815.67908 4294303718
19.455046 841.24463 815.67908 4289104298
35.526604 841.24463 815.67908 4294967295
38.06422 841.24463 815.67908 4294967295
40.601833 841.24463 815.67908 4294967295
43.13945 841.24463 815.67908 4294967295
46.522934 841.24463 815.67908 4294967295
49.906422 841.24463 815.67908 4294967295
52.444038 841.24463 815.67908 4294967295
54.13578 841.24463 815.67908 4294967295
-25.293577 843.36786 813.54529 4294105563
-22.764221 843.36786 813.54529 4294698476
-19.391743 843.36786 813.54529 4294305002
-16.862385 843.36786 813.54529 4293712613
-7.3070335 843.79761 813.90753 4293970396
-4.4966359 843.79761 813.90753 4292851396
-1.6862385 843.36786 813.54529 4293644241
8.4311924 843.36786 813.54529 4294962162
10.96055 843.36786 813.54529 4293975784
13.489908 843.36786 813.54529 4292788458
15.738227 843.79761 813.90753 4292324565
22.764221 843.36786 813.54529 4288385952
25.855658 843.79761 813.90753 4291544543
28.666056 843.36786 813.54529 4294967295
31.195412 843.36786 813.54529 4294967295
33.72477 843.36786 813.54529 4294967295
55.64587 843.36786 813.54529 4294967295
58.175232 843.36786 813.54529 4294967295
61.547707 843.36786 813.54529 4294967295
-27.06789 842.53802 816.76965 4294764523
-25.376146 842.53802 816.76965 4294172130
-22.838531 842.53802 816.76965 4294107121
-19.455046 842.53802 816.76965 4293843686
-16.07156 842.53802 816.76965 4291869127
-13.533945 842.53802 816.76965 4293049540
-10.99633 842.53802 816.76965 4293902539
-8.4587154 842.53802 816.76965 4293307836
-3.3834863 842.53802 816.76965 4291273895
-1.6917431 842.53802 816.76965 4293642443
0.84587157 842.53802 816.76965 4292265432
4.2293577 842.53802 816.76965 4291605694
7.612844 842.53802 816.76965 4291932606
10.99633 842.53802 816.76965 4292064196
13.533945 842.53802 816.76965 4292256433
16.917431 842.53802 816.76965 4294960111
19.455046 842.53802 816.76965 4293317342
22.838531 842.53802 816.76965 4287926691
27.913761 842.53802 816.76965 4294044404
31.297249 842.53802 816.76965 4294967295
34.680733 842.53802 816.76965 4294967295
38.106422 841.83167 817.48212 4294967295
40.689907 841.12531 818.19458 4294967295
43.233028 841.12531 818.19458 4294967295
46.522934 842.53802 816.76965 4294967295
49.906422 842.53802 816.76965 4294967295
52.444038 842.53802 816.76965 4294967295
54.981651 842.53802 816.76965 4294967295
58.365135 842.53802 816.76965 4294967295
61.748623 842.53802 816.76965 4294967295
-22.838531 843.83136 817.86011 4293445348
-19.455046 843.83136 817.86011 4292654033
-7.612844 843.83136 817.86011 4291731877
-4.2293577 843.83136 817.86011 4291403692
7.612844 843.83136 817.86011 4292127670
10.99633 843.83136 817.86011 4291137459
13.533945 843.83136 817.86011 4291794558
16.07156 844.47803 818.4054 4293969860
19.455046 843.83136 817.86011 4294106861
23.120489 844.26245 818.22363 4292135129
25.376146 844.47803 818.4054 4290687679
27.913761 843.83136 817.86011 4293320936
30.451376 843.83136 817.86011 4294967295
57.519264 843.83136 817.86011 4294967295
64.28624 843.83136 817.86011 4294967295
-27.126606 842.42151 819.28735 4294171617
-25.431192 842.42151 819.28735 4293711066
-16.106422 842.42151 819.28735 4292124605
-13.563303 842.42151 819.28735 4292256191
-11.020184 842.42151 819.28735 4293441989
-1.6954129 842.42151 819.28735 4293115595
0.84770644 842.42151 819.28735 4292000209
4.2385321 842.42151 819.28735 4291145143
32.212845 842.42151 819.28735 4294967295
34.755962 842.42151 819.28735 4294967295
37.299084 842.42151 819.28735 4294967295
39.905502 841.36414 820.35791 4294967295
43.304588 841.36414 820.35791 4294967295
46.623856 842.42151 819.28735 4294967295
50.014679 842.42151 819.28735 4294967295
52.557796 842.42151 819.28735 4294967295
55.100918 842.42151 819.28735 4294967295
59.339451 842.42151 819.28735 4294967295
61.882568 842.42151 819.28735 4294967295
-22.888073 843.71765 820.38025 4292653517
-20.344954 843.71765 820.38025 4292250271
-7.6293578 843.71765 820.38025 4292589255
-5.0862384 843.71765 820.38025 4292720074
7.6293578 843.71765 820.38025 4290940316
11.020184 844.36572 820.9267 4293045139
13.563303 844.36572 820.9267 4294430411
16.106422 845.01379 821.47314 4294764524
19.497248 844.36572 820.92676 4293710561
22.605505 844.58173 821.10889 4294964991
25.431192 845.01379 821.47314 4294633467
27.691742 844.14972 820.74457 4293254113
30.517431 843.71765 820.38025 4294967295
33.908257 843.71765 820.38025 4294967295
-27.21468 841.60706 822.5249 4292786121
-25.513762 842.2572 823.07312 4293115604
-22.962385 842.90741 823.62134 4292455622
-19.277063 842.47394 823.25586 4292448668
-16.158716 842.2572 823.07312 4292844466
-13.60734 842.2572 823.07312 4292519091
-11.055963 842.25726 823.07312 4294166488
-7.6541286 842.90741 823.62134 4293380577
-3.9688072 842.47394 823.25586 4292526031
-1.7009175 841.60706 822.5249 4292525763
0.85229355 840.19995 823.95447 4292394706
4.53578 842.04053 822.89038 4291671231
7.6541286 842.90741 823.62134 4290416292
28.915596 842.90741 823.62134 4294967295
31.750458 842.47394 823.25586 4294967295
34.868805 842.2572 823.07312 4294967295
37.420185 841.60706 822.5249 4294967295
39.971558 841.60706 822.5249 4294967295
43.373394 841.60706 822.5249 4294967295
46.77523 842.2572 823.07312 4294967295
49.326607 842.2572 823.07312 4294967295
51.877983 842.25726 823.07312 4294967295
55.563305 842.04053 822.89038 4294967295
58.681648 842.25726 823.07312 4294967295
62.083488 841.60706 822.5249 4294967295
64.634865 842.2572 823.07312 4294967295
66.335777 842.90741 823.62134 4294967295
-13.60734 844.20776 824.71777 4292980154
11.055964 844.20776 824.71777 4294041562
13.60734 844.20776 824.71777 4293907414
17.009174 844.20776 824.71777 4294765301
19.560551 844.20776 824.71777 4292725974
22.962385 844.20776 824.71777 4293119199
25.513762 844.20776 824.71777 4294565625
27.21468 844.20776 824.71777 4294963448
15.258716 846.30994 822.56604 4294962414
0.85504586 839.39679 827.20129 4292000968
-27.841589 842.37201 825.78583 4292854999
-25.568808 842.80634 826.1521 4293643739
-23.011927 842.80634 826.1521 4292325833
-19.602753 842.80634 826.1521 4292382080
-16.193579 842.80634 826.1521 4293303723
-11.079817 842.80634 826.1521 4294036444
-7.6706419 842.80634 826.1521 4292790234
-4.2614679 842.80634 826.1521 4291870158
-1.7045871 842.15479 825.60266 4291211715
4.2614679 842.15479 825.60266 4292065473
7.6706419 842.80634 826.1521 4292526530
28.977982 842.80634 826.1521 4294967295
31.534863 842.80634 826.1521 4294967295
35.228134 842.37201 825.78583 4294967295
37.500916 842.15479 825.60266 4294967295
40.0578 842.15479 825.60266 4294967295
43.466972 842.15479 825.60266 4294967295
46.876144 842.80634 826.1521 4294967295
49.433029 842.80634 826.1521 4294967295
51.989906 842.80634 826.1521 4294967295
55.114986 842.37201 825.78583 4294967295
58.808258 842.80634 826.1521 4294967295
61.365139 842.15479 825.60266 4294967295
63.63792 842.37201 825.78583 4294967295
66.478897 842.80634 826.1521 4294967295
-25.568808 844.1095 827.25085 4293712100
-22.159634 844.1095 827.25085 4291011255
-19.602753 844.1095 827.25085 4292451203
-16.193579 844.1095 827.25085 4293041572
-13.636697 844.1095 827.25085 4292650158
-11.079817 844.1095 827.25085 4294232788
-7.6706419 844.1095 827.25085 4292526023
8.5229359 844.1095 827.25085 4294566112
11.079817 844.1095 827.25085 4293316840
13.636697 844.1095 827.25085 4293315531
16.158716 845.50818 825.81421 4294832115
19.602753 844.1095 827.25085 4293909983
23.011927 844.1095 827.25085 4292000710
25.568808 844.1095 827.25085 4294433523
27.273394 844.1095 827.25085 4294765566
54.546787 844.1095 827.25085 4294967295
58.808258 844.1095 827.25085 4294967295
61.365139 844.1095 827.25085 4294967295
63.92202 844.1095 827.25085 4294967295
-30.781651 842.01154 829.40601 4293581026
-28.216515 842.01154 829.40601 4293580770
-23.941284 842.01154 829.40601 4293774561
-4.2752295 842.01154 829.40601 4292394697
-1.7100917 842.01154 829.40601 4291473858
0.85596329 840.65857 829.57324 4290487232
3.9902141 841.57574 829.03857 4291472810
6.8403668 842.01154 829.40601 4293184459
29.07156 842.01154 829.40601 4294967295
31.636698 842.01154 829.40601 4294967295
35.056881 842.01154 829.40601 4294967295
37.622017 842.01154 829.40601 4294967295
40.187157 842.01154 829.40601 4294967295
43.607338 842.01154 829.40601 4294967295
47.027523 842.01154 829.40601 4294967295
49.592659 842.01154 829.40601 4294967295
52.157799 842.01154 829.40601 4294967295
56.433029 842.01154 829.40601 4294967295
66.693581 842.01154 829.40601 4294967295
-30.781651 843.31891 830.50842 4293449697
-28.216515 843.31891 830.50842 4293252062
-25.651377 843.31891 830.50842 4293252064
-23.050459 844.36578 829.42908 4292658130
-19.602753 845.41266 828.34973 4292715170
-16.193579 845.41266 828.34973 4292515996
-13.636697 845.41266 828.34973 4291333014
-11.096331 844.36578 829.42908 4292717754
-7.6954126 843.31891 830.50842 4291075500
-4.2669725 844.36578 829.42908 4291733690
7.6954126 843.31891 830.50842 4294238695
11.115597 843.31891 830.50842 4292658907
13.636697 845.41266 828.34973 4292394175
16.193579 845.41266 828.34973 4292853964
19.602753 845.41266 828.34973 4294961911
23.050459 844.36578 829.42908 4292263369
25.651377 843.31891 830.50842 4292459983
28.216515 843.31891 830.50842 4294109166
31.636698 843.31891 830.50842 4294967295
35.056881 843.31891 830.50842 4294967295
37.622017 843.31891 830.50842 4294967295
40.187157 843.31891 830.50842 4294967295
43.607338 843.31891 830.50842 4294967295
47.027523 843.31891 830.50842 4294967295
49.592659 843.31891 830.50842 4294967295
52.157799 843.31891 830.50842 4294967295
55.57798 843.31891 830.50842 4294967295
58.998165 843.31891 830.50842 4294967295
61.563301 843.31891 830.50842 4294967295
64.128441 843.31891 830.50842 4294967295
66.693581 843.31891 830.50842 4294967295
-1.7137614 841.9231 831.94751 4291800257
1.7137614 841.9231 831.94751 4290620857
4.2844038 841.9231 831.94751 4293117888
-30.847706 843.23328 833.05212 4293514718
-28.521101 844.59772 832.45868 4293382878
-25.651377 844.62628 831.61072 4293251551
-23.111927 843.92981 832.33142 4293119192
-19.666054 844.62628 831.61072 4292457907
-16.245872 844.62628 831.61072 4292449430
-13.680734 844.62628 831.61072 4291465884
-11.115597 844.62628 831.61072 4293047989
-7.7119265 843.23328 833.05212 4290548892
-4.2844038 843.23328 833.05212 4291403962
8.5688076 843.23328 833.05212 4294238446
11.126606 843.92981 832.33142 4292592601
13.680734 844.62628 831.61072 4292262086
16.245872 844.62628 831.61072 4292394190
19.666054 844.62628 831.61072 4294501363
23.086239 844.62628 831.61072 4291804104
25.706423 843.23328 833.05212 4291605958
28.277065 843.23328 833.05212 4293250785
31.704586 843.23328 833.05212 4294967295
35.132111 843.23328 833.05212 4294967295
37.702751 843.23328 833.05212 4294967295
40.273396 843.23328 833.05212 4294967295
43.700916 843.23328 833.05212 4294967295
46.271561 843.23328 833.05212 4294967295
49.699081 843.23328 833.05212 4294967295
52.269726 843.23328 833.05212 4294967295
55.697247 843.23328 833.05212 4294967295
58.998165 844.62628 831.61072 4294967295
61.563301 845.27997 832.16187 4294967295
64.41346 845.06207 831.97821 4294967295
0 839.79004 835.38104 4291212734
-6.8770642 842.45813 836.32275 4291926700
-4.2981653 842.45813 836.32275 4292785094
-1.7192661 841.8009 835.76862 4292064201
1.7192661 841.14374 835.21448 4291147194
4.011621 841.58185 835.58392 4293974491
7.4501529 842.02002 835.95331 4294502645
10.315597 842.45813 836.32275 4293251810
25.78899 842.45813 836.32275 4292592335
28.367889 842.45813 836.32275 4292197829
31.806421 842.45813 836.32275 4294109938
34.385323 842.45813 836.32275 4294967295
36.964218 842.45813 836.32275 4294967295
39.543118 842.45813 836.32275 4294967295
43.841286 842.45813 836.32275 4294967295
46.420185 842.45813 836.32275 4294967295
48.71254 842.02002 835.95331 4294967295
52.437614 842.45813 836.32275 4294967295
55.016514 842.45813 836.32275 4294967295
-27.420183 844.54346 834.15686 4293448414
-25.706423 844.54346 834.15686 4293250778
-23.13578 844.54346 834.15686 4293054167
-19.708256 844.54346 834.15686 4292327366
-16.280735 844.54346 834.15686 4291725458
-13.710092 844.54346 834.15686 4291004552
-11.13945 844.54346 834.15686 4293573826
-8.5688076 844.54346 834.15686 4291274676
11.99633 844.54346 834.15686 4294107119
13.710092 844.54346 834.15686 4294238444
16.280735 844.54346 834.15686 4293777894
19.708256 844.54346 834.15686 4292856799
23.13578 844.54346 834.15686 4292790491
56.554127 844.54346 834.15686 4294967295
59.4104 844.98016 834.52509 4294967295
61.695412 845.85364 835.2616 4294967295
63.409176 845.19855 834.70923 4294967295
61.695412 847.16382 836.36633 4294967295
-1.7229358 842.38507 838.8772 4292066257
0.8614679 841.06787 837.7666 4292330959
4.5944958 841.94598 838.50702 4294568437
7.753211 842.38507 838.8772 4294174190
10.337615 842.38507 838.8772 4293384934
25.844036 842.38507 838.8772 4294106859
28.42844 842.38507 838.8772 4292857553
31.874311 842.38507 838.8772 4293780970
34.458717 842.38507 838.8772 4294967295
37.043121 842.38507 838.8772 4294967295
40.77615 841.94598 838.50702 4294967295
43.93486 842.38507 838.8772 4294967295
46.519264 842.38507 838.8772 4294967295
49.103668 842.38507 838.8772 4294967295
51.688072 842.38507 838.8772 4294967295
-28.367889 844.42969 837.98523 4292724695
-24.929358 844.42969 837.98523 4293054427
-22.350458 844.42969 837.98517 4292857815
-19.771561 844.42969 837.98523 4292394446
-16.333027 844.42969 837.98523 4292254125
-12.894495 844.42969 837.98517 4292781219
-10.315597 844.42969 837.98517 4293578460
-7.7403669 844.0835 838.34729 4293184214
-4.3027525 843.73737 838.70947 4293646052
12.908257 843.73743 838.70941 4292857565
16.350458 843.73743 838.70941 4293315805
19.792662 843.73737 838.70947 4292855249
22.374311 843.73743 838.70941 4292790738
24.095413 843.73743 838.70941 4292988376
43.93486 843.70227 839.98779 4294967295
46.519264 843.70227 839.98779 4294967295
49.103668 843.70227 839.98779 4294967295
52.798779 843.72577 839.13556 4294967295
55.935776 843.73743 838.70941 4294967295
58.517433 843.73743 838.70941 4294967295
60.174313 845.08691 838.53931 4294967295
63.612843 845.08691 838.53931 4294967295
-27.508257 846.40131 839.64758 4292855257
-1.7284404 841.62537 842.16064 4293384682
0.8642202 840.30396 841.04651 4292397019
7.7779818 841.62537 842.16064 4293779437
10.370643 841.62537 842.16064 4292859103
25.926605 841.62537 842.16064 4294106855
28.519266 841.62537 842.16064 4293449697
31.976147 841.62537 842.16064 4293188070
34.568806 841.62537 842.16064 4294967295
37.161469 841.62537 842.16064 4294967295
40.618347 841.62537 842.16064 4294967295
-24.982569 845.01947 841.09851 4293054171
-22.398165 845.01947 841.09851 4292858071
-19.813763 845.01947 841.09851 4292987093
-16.367889 845.01947 841.09851 4291598762
-12.922018 845.01947 841.09851 4292849093
-10.337615 845.01947 841.09851 4293711833
-7.753211 845.01947 841.09851 4294106084
58.579815 845.01947 841.09851 4294967295
61.164223 845.01947 841.09851 4294967295
63.748623 845.01947 841.09851 4294967295
-24.982569 846.33667 842.20911 4293054429
-22.398165 846.33667 842.20911 4292923866
-19.813763 846.33667 842.20911 4292856790
-16.367889 846.33667 842.20911 4291863970
-12.060551 846.33667 842.20911 4294498524
-6.9284406 842.88916 845.84241 4293510612
-4.3256884 842.91797 844.55859 4294105318
-1.7321101 842.22705 845.28412 4293447902
0.86605507 840.24072 843.60938 4293187302
4.3302751 840.24072 843.60938 4293976302
7.7944956 841.56494 844.72583 4293449693
10.39266 841.56494 844.72583 4290819538
12.963303 842.94678 843.2749 4289699775
16.72049 842.92755 844.13068 4289499567
19.898165 842.91797 844.55859 4292130506
22.493578 842.91797 844.55865 4293841631
25.088991 842.91797 844.55859 4294106593
28.549541 842.91797 844.55865 4293515237
32.044037 841.56494 844.72583 4292923613
34.6422 842.22705 845.28412 4294237686
37.529053 842.00635 845.09796 4294967295
40.682568 842.57251 844.92139 4294967295
43.817738 842.92755 844.13068 4294967295
46.667889 842.94678 843.2749 4294967295
49.260551 842.94678 843.2749 4294967295
52.71743 842.94678 843.2749 4294967295
55.310093 842.94678 843.2749 4294967295
57.038532 842.94678 843.2749 4294967295
-24.198166 845.5896 845.50317 4292528856
-22.469725 845.5896 845.50317 4292857821
-19.877064 845.5896 845.50317 4292790999
-16.420183 845.5896 845.50317 4291999405
-12.963303 844.92889 844.94611 4294104543
-10.370643 844.26819 844.38904 4294107622
-8.6422014 844.26819 844.38904 4292791763
44.939449 844.26819 844.38904 4294967295
46.667889 844.26819 844.38904 4294967295
49.260551 844.26819 844.38904 4294967295
52.71743 844.26819 844.38904 4294967295
55.310093 844.26819 844.38904 4294967295
57.902752 844.26819 844.38904 4294967295
61.359634 844.26819 844.38904 4294967295
63.952293 844.92889 844.94611 4294967295
0.86880732 839.49225 846.90234 4293252328
4.3440366 839.49225 846.90234 4293975019
0 840.82068 848.02234 4292657876
7.8192658 840.82068 848.02234 4292660443
10.425688 840.82068 848.02234 4290096830
13.03211 840.82068 848.02234 4288254122
15.638532 840.82068 848.02234 4287661737
31.277063 840.82068 848.02234 4292327866
33.014679 840.82068 848.02234 4293577933
36.48991 840.82068 848.02234 4294967295
-25.981651 844.21338 846.95898 4292856802
-22.517431 845.5376 848.07544 4292726749
-19.919266 845.5376 848.07544 4293317859
-12.990826 844.87549 847.51721 4293908968
-10.39266 844.21338 846.95898 4294238444
-8.6605501 844.21338 846.95898 4290422449
45.900917 844.21338 846.95898 4294967295
49.365139 844.21338 846.95898 4294967295
52.829357 844.21338 846.95898 4294967295
55.427525 844.21338 846.95898 4294967295
58.025688 844.21338 846.95898 4294967295
61.489906 844.21338 846.95898 4294967295
1.7431192 838.75214 850.20239 4292460753
4.3577981 838.75214 850.20239 4293052625
-6.9504585 842.14911 849.14246 4291401145
-4.3440366 842.14911 849.14246 4291996342
-1.7376146 842.14911 849.14246 4293117371
0.87155962 840.08478 851.32593 4292724434
4.3577981 840.08478 851.32593 4292856009
7.8440366 840.08478 851.32593 4292791252
10.458715 840.08478 851.32593 4291080141
13.03211 842.14911 849.14246 4290224319
16.507339 842.14911 849.14246 4289564849
19.982569 842.14911 849.14246 4291078077
22.588991 842.14911 849.14246 4294697965
25.195412 842.14911 849.14246 4294501615
28.670643 842.14911 849.14246 4292791774
31.277063 842.14911 849.14246 4291474858
33.883484 842.14911 849.14246 4293185744
37.358719 842.14911 849.14246 4294967295
40.833946 842.14911 849.14246 4294967295
43.440369 842.14911 849.14246 4294967295
-24.905809 843.92035 850.63593 4292790987
-22.588991 844.80591 851.38269 4293514970
-19.982569 844.80591 851.38269 4294434541
-16.507339 844.14172 850.82263 4293843168
-13.321712 844.3631 851.00928 4294303730
-10.425688 844.14172 850.82263 4294764789
-8.1088686 843.92035 850.63593 4294039783
-4.3440366 843.47754 850.26257 4293841119
-1.7376146 843.47754 850.26257 4293118418
41.702751 843.47754 850.26257 4294967295
46.046791 843.47754 850.26257 4294967295
49.522018 843.47754 850.26257 4294967295
52.997246 843.47754 850.26257 4294967295
55.603668 843.47754 850.26257 4294967295
58.210091 843.47754 850.26257 4294967295
61.974918 843.92035 850.63593 4294967295
-26.14679 842.75006 853.57324 4293378991
-6.972477 842.75006 853.57324 4294959862
-4.3577981 842.75006 853.57324 4294500082
-1.7431192 842.75006 853.57324 4293249502
0.87155962 841.41742 852.44958 4292856020
4.3577981 841.41742 852.44958 4293118677
7.5535164 841.86163 852.82416 4293580769
10.458715 841.41742 852.44958 4294039527
12.782875 841.86163 852.82416 4294171370
16.559633 842.08374 853.01147 4293973220
19.755352 841.86163 852.82416 4294040298
22.660551 842.08374 853.01141 4294305010
25.27523 841.41742 852.44958 4293514984
28.761467 842.08374 853.01141 4291343817
31.376146 841.41742 852.44958 4290224275
33.990826 842.08374 853.01141 4293251542
37.477066 842.08374 853.01141 4294967039
40.672783 842.30585 853.19873 4294967295
43.57798 841.41742 852.44958 4294967295
46.192661 842.75006 853.57324 4294967295
49.678898 842.75006 853.57324 4294967295
52.293579 842.75006 853.57324 4294967295
54.908257 842.75006 853.57324 4294967295
58.394493 842.75006 853.57324 4294967295
61.009174 842.75006 853.57324 4294967295
-13.073395 844.0827 854.6969 4294036699
-10.458715 844.0827 854.6969 4294302703
-7.8440366 844.0827 854.6969 4293379030
-1.7431192 844.0827 854.6969 4293116621
38.348625 844.0827 854.6969 4294967295
54.908257 844.0827 854.6969 4294967295
58.394493 844.0827 854.6969 4294967295
-24.326605 847.46277 853.6228 4293774806
-22.588991 846.13434 852.50269 4294236129
-19.982569 846.13434 852.50269 4293973727
-16.507339 846.13434 852.50269 4293641943
-4.3669724 842.7149 856.15967 4293049033
0.87339449 842.04718 855.59668 4292790994
4.3669724 842.04718 855.59668 4293644254
8.1516819 842.26978 855.78436 4292266191
10.480734 842.04718 855.59668 4291866559
13.392049 842.26978 855.78436 4291994547
16.594496 842.7149 856.15967 4291004049
20.379206 842.26978 855.78436 4294235103
22.708258 842.7149 856.15967 4293447395
25.328442 842.04718 855.59668 4292856542
28.822018 842.7149 856.15967 4291014332
31.442202 842.04718 855.59668 4290684069
34.062386 842.7149 856.15967 4293710807
36.682568 842.7149 856.15967 4294967295
41.049541 842.7149 856.15967 4294967295
43.669724 842.04718 855.59668 4294967295
46.289909 842.7149 856.15967 4294967295
49.783485 842.7149 856.15967 4294967295
52.403671 842.7149 856.15967 4294967295
61.137615 842.7149 856.15967 4294967295
-24.403669 845.41528 855.82056 4294038232
-22.660551 845.41528 855.82056 4294170074
-20.045872 845.41528 855.82056 4293774799
-16.559633 845.41528 855.82056 4293376963
-13.086239 844.73279 856.5531 4293968066
-10.480734 844.05029 857.28564 4294431725
-7.8440366 845.41528 855.82056 4292720321
-4.3669724 844.05029 857.28564 4292521896
-1.746789 844.05029 857.28564 4294035131
34.062386 844.05029 857.28564 4293579995
37.555962 844.05029 857.28564 4294967295
41.049541 844.05029 857.28564 4294967295
46.289909 844.05029 857.28564 4294967295
49.783485 844.05029 857.28564 4294967295
52.403671 844.05029 857.28564 4294967295
55.023853 844.05029 857.28564 4294967295
58.517433 844.05029 857.28564 4294967295
61.137615 844.05029 857.28564 4294967295
-22.660551 846.74792 856.94421 4293839826
-20.045872 846.74792 856.94421 4292720062
-15.688073 846.74792 856.94421 4293631661
0.87614679 842.00287 859.4834 4293316560
4.380734 842.00287 859.4834 4293645021
7.8853211 842.00287 859.4834 4291672775
10.513762 842.00287 859.4834 4289761174
13.156881 841.32037 860.216 4290548632
16.64679 842.00287 859.4834 4290678930
19.275229 842.00287 859.4834 4293903302
21.903669 842.00287 859.4834 4293118940
25.408257 842.00287 859.4834 4291737555
28.912844 842.00287 859.4834 4290948026
31.541285 842.00287 859.4834 4291210416
43.807339 842.00287 859.4834 4294967295
-17.46789 845.38574 858.41162 4293500074
-13.100918 845.38574 858.41162 4293897650
-10.513762 843.34247 860.61292 4294825447
-7.8715596 844.36414 859.51227 4293377222
-4.380734 843.34247 860.61292 4293640128
-1.7522936 843.34247 860.61292 4294824402
0 843.34247 860.61292 4294105313
7.0091743 843.34247 860.61292 4292923101
29.78899 843.34247 860.61292 4291276214
31.541285 843.34247 860.61292 4291933626
34.169724 843.34247 860.61292 4293842651
37.555962 845.38574 858.41162 4294967295
40.176147 845.38574 858.41162 4294967295
42.93119 843.34247 860.61292 4294967295
46.289909 845.38574 858.41162 4294967295
49.783485 845.38574 858.41162 4294967295
52.403671 845.38574 858.41162 4294967295
55.023853 845.38574 858.41162 4294967295
58.517433 845.38574 858.41162 4294967295
-22.660551 848.08057 858.06787 4293578964
-20.088074 847.38892 860.10071 4293116875
-16.594496 846.72119 859.53772 4293894578
55.023853 846.72119 859.53772 4294967295
57.644035 846.72119 859.53772 4294967295
1.7559633 841.98029 862.08044 4293710555
4.3899083 841.98029 862.08044 4293184220
8.7798166 841.98029 862.08044 4292791259
10.53578 841.98029 862.08044 4292988878
13.169725 841.98029 862.08044 4292922831
16.681652 841.98029 862.08044 4292922316
19.315596 841.98029 862.08044 4292988363
22.827522 841.98029 862.08044 4292659413
25.461468 841.98029 862.08044 4291278026
28.095413 841.98029 862.08044 4291276214
-13.142202 844.68213 861.74243 4294423235
-10.513762 844.68213 861.74243 4294629077
-7.8853211 844.68213 861.74243 4294366679
-4.3844037 844.00244 862.47742 4294236126
-1.7522936 844.68213 861.74243 4294565864
0.87798166 843.32275 863.2124 4293514468
4.3899083 843.32275 863.2124 4293053663
7.0238533 843.32275 863.2124 4292857306
10.53578 843.32275 863.2124 4293120210
28.973394 843.32275 863.2124 4291407797
31.60734 843.32275 863.2124 4291736772
34.241287 843.32275 863.2124 4293908966
37.674309 844.68213 861.74243 4294967295
40.302753 844.68213 861.74243 4294967295
42.93119 844.68213 861.74243 4294967295
46.43578 844.68213 861.74243 4294967295
49.940369 844.68213 861.74243 4294967295
52.568806 844.68213 861.74243 4294967295
-16.64679 846.02179 862.87207 4294090926
-14.018349 846.02179 862.87207 4294092210
46.43578 846.02179 862.87207 4294967295
49.06422 846.02179 862.87207 4294967295
52.568806 846.02179 862.87207 4294967295
54.321102 846.02179 862.87207 4294967295
-20.961468 849.39203 861.78967 4294960883
21.137615 839.93707 864.28174 4292856793
0.88073397 842.63037 866.55261 4291674578
4.4036698 842.63037 866.55261 4292067024
8.2201834 842.18146 866.17413 4292594135
10.568808 842.63037 866.55261 4292789975
13.21101 841.95703 865.98499 4291868865
16.733946 841.95703 865.98499 4291802562
19.376146 841.95703 865.98492 4292789717
22.018349 841.95703 865.98492 4292461775
25.541285 841.95703 865.98492 4291540166
29.06422 842.63037 866.55261 4291408049
31.706423 842.63037 866.55261 4292460233
33.467892 842.63037 866.55261 4294565610
-12.291743 844.66522 864.34436 4294950345
-10.53578 844.66522 864.34436 4294232535
-7.901835 844.66522 864.34436 4294827496
-4.3899083 844.66522 864.34436 4293777632
-1.7559633 844.66522 864.34436 4293448923
