# .PCD v0.7 - Point Cloud Data file format
VERSION 0.7
FIELDS x y z rgb
SIZE 4 4 4 4
TYPE F F F U
COUNT 1 1 1 1
WIDTH 1152
HEIGHT 1
VIEWPOINT 0 0 0 1 0 0 0
POINTS 1152
DATA ascii
-14.377981 807.63507 1289.6239 4288908163
-10.783486 807.63507 1289.6239 4291936964
-14.278899 821.46045 1289.5088 4290548891
-16.594496 827.677 1288.2102 4288975001
-14.223853 827.677 1288.2102 4290617779
-18.965137 829.48938 1289.7384 4284304216
-16.594496 829.48938 1289.7384 4286672764
-11.853211 829.48938 1289.7384 4290751164
-18.891743 835.6709 1288.4104 4287133815
-16.530275 835.6709 1288.4104 4286739057
-14.168807 835.6709 1288.4104 4285690234
-10.626606 835.6709 1288.4104 4287071114
-21.25321 837.47626 1289.9326 4288842411
-18.891743 837.47626 1289.9326 4287988892
-7.0844035 837.47626 1289.9326 4283457395
-4.7229357 837.47626 1289.9326 4282860381
-16.466055 841.82434 1287.0586 4290159543
-14.113762 841.82434 1287.0586 4289435595
-10.585321 841.82434 1287.0586 4287133859
-7.056881 841.82434 1287.0586 4284700536
-14.113762 843.62268 1288.575 4290221768
-10.585321 843.62268 1288.575 4289236148
-32.011009 754.83624 1292.1943 4288448171
-28.317432 754.83624 1292.1943 4289297336
-24.623854 754.83624 1292.1943 4290349729
-22.161469 754.83624 1292.1943 4291797175
-31.891743 761.34033 1291.1383 4288846779
-31.891743 763.21582 1292.7196 4283257456
-7.359633 763.21582 1292.7196 4287210130
-4.9064221 763.21582 1292.7196 4290491851
-31.772476 767.81641 1290.0586 4281612867
-29.32844 767.81641 1290.0586 4280562255
-25.662384 767.81641 1290.0586 4285033609
-31.772476 769.68494 1291.634 4282137953
-29.32844 769.68494 1291.634 4280365372
-26.884403 769.68494 1291.634 4281418060
-29.218349 776.12592 1290.5248 4286807684
-25.566055 776.12592 1290.5248 4291611353
-21.913761 776.12592 1290.5248 4291940842
-19.478899 776.12592 1290.5248 4292467440
-17.044037 776.12592 1290.5248 4290953945
-14.609175 776.12592 1290.5248 4290756043
-29.218349 777.98743 1292.0944 4291216812
-25.566055 777.98743 1292.0944 4293322214
-21.913761 777.98743 1292.0944 4293124348
-19.478899 777.98743 1292.0944 4292730111
-17.044037 777.98743 1292.0944 4290953447
-14.609175 777.98743 1292.0944 4291216331
-9.7394495 777.98743 1292.0944 4292136158
-7.3045874 777.98743 1292.0944 4292136158
-4.8697248 777.98743 1292.0944 4292070884
-25.450459 786.78302 1291.6624 4291743202
-21.814678 786.78302 1291.6624 4290890462
-19.390825 786.78302 1291.6624 4289639634
-16.966972 786.78302 1291.6624 4290758371
-31.390825 794.99713 1292.0481 4290156754
-28.976147 794.99713 1292.0481 4289234037
-25.35413 794.07416 1291.2699 4289101690
-21.732111 793.15112 1290.4916 4292326083
-12.073395 794.99713 1292.0481 4292071386
-9.6587152 794.99713 1292.0481 4292005594
-40.893578 803.16913 1292.3984 4282332479
-37.285324 802.24963 1291.6232 4283183182
-33.677063 803.16913 1292.3984 4285090384
-31.271559 802.24963 1291.6232 4289696920
-28.866055 802.24963 1291.6232 4289959853
-25.257797 802.24963 1291.6232 4288575102
-21.649542 802.24963 1291.6232 4289756278
-12.027523 801.33008 1290.8479 4292332758
-9.6220188 802.24963 1291.6232 4291807700
-7.2165136 803.16913 1292.3984 4291544530
-22.765137 809.46704 1291.1686 4288839556
-19.170643 809.46704 1291.1686 4288178535
-16.774311 809.46704 1291.1686 4289625981
-14.377981 809.46704 1291.1686 4289169025
-10.783486 809.46704 1291.1686 4291935683
-7.1889906 809.46704 1291.1686 4291544278
-4.7926607 809.46704 1291.1686 4291413975
-22.765137 811.29907 1292.7133 4289232517
-19.170643 811.29907 1292.7133 4288769148
-16.774311 811.29907 1292.7133 4289756043
-14.377981 811.29907 1292.7133 4288971390
-10.783486 811.29907 1292.7133 4292066753
-7.1889906 811.29907 1292.7133 4291872209
-4.7926607 811.29907 1292.7133 4291675607
-2.3963304 811.29907 1292.7133 4291675607
-16.710093 817.56201 1291.4539 4289559443
-14.322936 817.56201 1291.4539 4288903800
-11.93578 817.56201 1291.4539 4291535777
-22.677982 819.38696 1292.9927 4288046197
-19.097248 819.38696 1292.9927 4290743972
-16.710093 819.38696 1292.9927 4291336108
-10.742202 819.38696 1292.9927 4291012014
-7.161468 819.38696 1292.9927 4292067274
-4.774312 819.38696 1292.9927 4291609299
-19.038532 823.27979 1291.0428 4288773261
-16.658716 823.27979 1291.0428 4291865532
-14.278899 823.27979 1291.0428 4291471539
-11.899082 823.27979 1291.0428 4290879659
-21.418348 825.09918 1292.5769 4283189585
-19.038532 825.09918 1292.5769 4284369748
-11.899082 825.09918 1292.5769 4291275710
-22.125994 832.51001 1292.2853 4286739825
-18.965137 831.30176 1291.2666 4286015588
-9.4825687 831.30176 1291.2666 4289372851
-7.1119266 833.11414 1292.7947 4288255128
-22.433945 839.28162 1291.4548 4288713156
-18.891743 839.28162 1291.4548 4290159543
-4.7229357 839.28162 1291.4548 4283322468
-2.3614678 839.28162 1291.4548 4282730074
-22.433945 841.08698 1292.9771 4286079105
-18.891743 841.08698 1292.9771 4288249481
-16.530275 841.08698 1292.9771 4289960100
-14.113762 845.42102 1290.0913 4289237951
-10.585321 845.42102 1290.0913 4289830342
-14.113762 847.21942 1291.6075 4285164166
-11.761468 847.21942 1291.6075 4287006370
-34.473396 758.60126 1295.3689 4284241269
-36.798164 766.02905 1295.0917 4287336358
-34.344955 766.02905 1295.0917 4287072929
-7.359633 765.09131 1294.301 4288514743
-34.216515 773.42188 1294.7849 4286349209
-31.772476 772.48767 1293.9972 4282730343
-29.32844 771.55341 1293.2095 4280167495
-26.884403 771.55341 1293.2095 4281878113
-17.108257 771.55341 1293.2095 4289176271
-13.034863 772.17627 1293.7346 4291806680
-9.7761469 772.48767 1293.9972 4292399583
-7.3321099 773.42188 1294.7849 4291873500
-4.8880734 773.42188 1294.7849 4291873250
-29.218349 779.84888 1293.6639 4292073964
-25.566055 779.84888 1293.6639 4290165981
-21.913761 779.84888 1293.6639 4290363375
-19.478899 779.84888 1293.6639 4290625264
-17.044037 779.84888 1293.6639 4290559471
-13.391743 779.84888 1293.6639 4291808213
-7.3045874 779.84888 1293.6639 4291939549
-31.653212 781.71033 1295.2334 4293253318
-29.218349 781.71033 1295.2334 4292465644
-25.566055 781.71033 1295.2334 4289506253
-21.913761 781.71033 1295.2334 4290099683
-19.478899 781.71033 1295.2334 4290099672
-17.044037 781.71033 1295.2334 4290692065
-29.086239 788.63611 1293.2249 4291408033
-25.450459 788.63611 1293.2249 4292923343
-31.510092 790.48914 1294.7874 4290419899
-29.086239 790.48914 1294.7874 4289363824
-9.6954126 790.48914 1294.7874 4291676378
-37.427521 796.8432 1293.6047 4282267209
-31.390825 796.8432 1293.6047 4288976561
-43.464222 798.68921 1295.1613 4283055694
-41.049541 798.68921 1295.1613 4282332227
-33.805504 798.68921 1295.1613 4284500300
-43.299084 806.84717 1295.4998 4284176739
-40.893578 805.92767 1294.7244 4282992207
-37.285324 805.92773 1294.7245 4283121481
-33.677063 805.92767 1294.7244 4284498510
-31.271559 805.92767 1294.7244 4286867058
-28.866055 805.92767 1294.7244 4288375953
-25.658714 805.62115 1294.4659 4289494931
-7.2165136 805.00818 1293.9491 4291544528
-4.8110094 805.00818 1293.9491 4291478998
-2.4055047 806.84717 1295.4998 4291413975
-33.548622 814.96313 1295.8027 4283648598
-31.152294 814.04712 1295.0303 4283122508
-28.755962 814.04712 1295.0303 4284957782
-26.359632 814.04712 1295.0303 4286865779
-22.765137 814.04712 1295.0303 4289492113
-19.170643 814.04712 1295.0303 4290218136
-16.774311 813.1311 1294.2579 4289363334
-14.377981 813.1311 1294.2579 4288772721
-10.384098 813.74176 1294.7728 4291605688
-7.1889906 814.04712 1295.0303 4292133839
-4.7926607 814.04712 1295.0303 4291478226
-2.3963304 814.96313 1295.8027 4291807187
-22.677982 821.21198 1294.5314 4285683554
-9.548624 821.21198 1294.5314 4290619315
-7.161468 821.21198 1294.5314 4292066761
-4.774312 821.21198 1294.5314 4291542993
-22.608257 826.91858 1294.111 4283714141
-9.5192661 826.91858 1294.111 4290817471
-23.798164 828.73798 1295.645 4284898150
-7.1394496 828.73798 1295.645 4290096830
16.658716 828.73798 1295.645 4290425804
-26.077065 835.8327 1295.0869 4284502369
-23.706423 834.92651 1294.3229 4287724187
-28.337614 842.89233 1294.4993 4286337387
-25.976147 842.89233 1294.4993 4285679713
-22.433945 842.89233 1294.4993 4286864208
-18.891743 842.89233 1294.4993 4287591526
-16.530275 842.89233 1294.4993 4289367681
-7.0844035 842.89233 1294.4993 4289369789
-4.7229357 842.89233 1294.4993 4288516029
-2.3614678 842.89233 1294.4993 4285555343
-36.93578 760.48376 1296.9562 4284309109
-34.473396 760.48376 1296.9562 4283980923
-4.9247708 762.36627 1298.5435 4290491086
-2.4623854 762.36627 1298.5435 4292662255
-36.798164 768.84229 1297.4637 4289241544
-34.344955 768.84229 1297.4637 4288453827
2.4532111 768.84229 1297.4637 4292597734
4.9064221 768.84229 1297.4637 4292400098
7.359633 768.84229 1297.4637 4292400098
-34.216515 775.29034 1296.3604 4286216045
-31.772476 775.29034 1296.3604 4286676596
-12.220183 775.29034 1296.3604 4291939797
-2.4440367 775.29034 1296.3604 4292070884
1.2220184 775.29034 1296.3604 4292070366
4.8880734 775.29034 1296.3604 4292136929
7.3321099 775.29034 1296.3604 4292136929
-34.216515 777.15887 1297.9358 4285355077
-31.772476 777.15887 1297.9358 4292723893
-9.7761469 777.15887 1297.9358 4291939549
-4.8880734 777.15887 1297.9358 4292070884
-2.4440367 777.15887 1297.9358 4292136677
1.2220184 777.15887 1297.9358 4292136413
4.8880734 777.15887 1297.9358 4292136929
7.3321099 777.15887 1297.9358 4292005342
-34.088074 785.43329 1298.3726 4287723664
-31.653212 784.50256 1297.5878 4291277763
-29.218349 783.57184 1296.803 4290885581
-9.7394495 785.43329 1298.3726 4292005340
7.3045874 785.43329 1298.3726 4292399846
9.7394495 785.43329 1298.3726 4292136931
-58.172478 794.19525 1297.9122 4283186764
-55.748623 794.19525 1297.9122 4283581779
-41.205505 794.19525 1297.9122 4282400069
-36.3578 792.34216 1296.3497 4282993764
-33.933945 793.26868 1297.131 4285355905
-7.2715597 793.26868 1297.131 4291940060
-4.8477063 793.26868 1297.131 4292005339
-2.4238532 794.19525 1297.9122 4292071134
-43.464222 800.53528 1296.7178 4283121739
-4.8293576 800.53528 1296.7178 4291478483
-43.464222 802.38135 1298.2743 4283189585
-2.4146788 802.38135 1298.2743 4291742171
-43.299084 808.68622 1297.0503 4283914073
-40.893578 808.68622 1297.0503 4283255887
-37.285324 808.68622 1297.0503 4283649380
-33.677063 808.68622 1297.0503 4284369242
-31.271559 808.68622 1297.0503 4284237655
-28.866055 808.68622 1297.0503 4286140244
-26.46055 808.68622 1297.0503 4290614425
-43.299084 810.52527 1298.601 4282071367
-40.893578 810.52527 1298.601 4282531918
-37.285324 810.52527 1298.601 4284044140
-33.677063 810.52527 1298.601 4284175192
-2.4055047 810.52527 1298.601 4291478231
14.433027 810.52527 1298.601 4291478483
16.838531 810.52527 1298.601 4291807448
-38.341286 818.62714 1298.8921 4284174942
-34.347401 818.01654 1298.3772 4284175456
-31.152294 817.71118 1298.1198 4282991438
-28.755962 817.71118 1298.1198 4283385174
-26.359632 817.71118 1298.1198 4283188052
-2.3963304 817.71118 1298.1198 4291411664
-28.645872 823.94946 1296.8396 4283189587
-26.258715 823.94946 1296.8396 4283189588
-23.871559 823.03699 1296.0702 4283057742
-7.161468 823.94946 1296.8396 4292198609
-4.774312 823.94946 1296.8396 4291542996
16.710093 824.862 1297.609 4286349193
-28.557798 830.55737 1297.1791 4282728532
-26.177982 830.55737 1297.1791 4283057240
-4.7596331 830.55737 1297.1791 4287267229
16.658716 830.55737 1297.1791 4291083237
-30.937614 832.37677 1298.7131 4282859348
-28.557798 832.37677 1298.7131 4282005572
-2.3798165 832.37677 1298.7131 4283189090
-35.559631 838.55127 1297.3792 4287123557
-30.818348 838.55127 1297.3792 4286466143
-28.447706 838.55127 1297.3792 4285286484
-26.077065 838.55127 1297.3792 4285352277
-7.1119266 838.55127 1297.3792 4288645287
-4.7412844 838.55127 1297.3792 4287663271
-2.3706422 838.55127 1297.3792 4283320932
-37.930275 840.36365 1298.9072 4287590018
-34.374313 840.36365 1298.9072 4287194237
-30.818348 840.36365 1298.9072 4286666870
1.1853211 840.36365 1298.9072 4283584352
4.7412844 840.36365 1298.9072 4283585385
-28.337614 844.69769 1296.0215 4291142075
-25.976147 844.69769 1296.0215 4291273661
-22.433945 844.69769 1296.0215 4291667372
-18.891743 844.69769 1296.0215 4289040278
-16.530275 844.69769 1296.0215 4288184969
-9.4458714 844.69769 1296.0215 4288384663
-7.0844035 844.69769 1296.0215 4290358453
-4.7229357 844.69769 1296.0215 4290555596
-2.3614678 844.69769 1296.0215 4290424009
-25.976147 846.50305 1297.5438 4291080645
-21.25321 846.50305 1297.5438 4291079866
-18.891743 846.50305 1297.5438 4290224318
-16.530275 846.50305 1297.5438 4288645287
-14.168807 846.50305 1297.5438 4288578949
-10.626606 846.50305 1297.5438 4288448133
-7.0844035 846.50305 1297.5438 4290290850
-4.7229357 846.50305 1297.5438 4290423748
-2.3614678 846.50305 1297.5438 4291936988
-37.073395 755.86212 1299.5995 4283519086
-42.016514 757.75165 1301.1926 4283849064
-39.544952 757.75165 1301.1926 4284045936
-2.4715595 757.75165 1301.1926 4292531435
-41.86055 764.24878 1300.1307 4287992483
1.2311927 764.24878 1300.1307 4292465894
4.9247708 764.24878 1300.1307 4292465891
7.387156 764.24878 1300.1307 4292400098
-44.322937 766.13135 1301.718 4284967538
-40.629356 766.13135 1301.718 4288519347
0 766.13135 1301.718 4292334305
-44.157799 770.71783 1299.0452 4283653212
-40.477982 770.71783 1299.0452 4285295743
-36.798164 770.71783 1299.0452 4287793585
-2.4532111 770.71783 1299.0452 4291939043
1.2266055 770.71783 1299.0452 4291938779
4.9064221 770.71783 1299.0452 4292136929
7.359633 770.71783 1299.0452 4292136929
-44.157799 772.59332 1300.6265 4283849334
-40.477982 772.59332 1300.6265 4283388018
-36.798164 772.59332 1300.6265 4286545317
-36.660549 779.02734 1299.5114 4280824396
-34.216515 779.02734 1299.5114 4285292364
-13.442202 779.02734 1299.5114 4292071133
-9.7761469 779.02734 1299.5114 4292005342
-7.3321099 779.02734 1299.5114 4291873500
-4.8880734 779.02734 1299.5114 4292005088
-2.4440367 779.02734 1299.5114 4292334053
2.4440367 779.02734 1299.5114 4292202976
4.8880734 779.02734 1299.5114 4292071136
7.3321099 779.02734 1299.5114 4292005342
-40.326607 780.89581 1301.0868 4281544514
-36.660549 780.89581 1301.0868 4282926674
-34.216515 780.89581 1301.0868 4286476150
-9.7761469 780.89581 1301.0868 4292005342
-7.3321099 780.89581 1301.0868 4291939549
-4.8880734 780.89581 1301.0868 4292005088
-2.4440367 780.89581 1301.0868 4292136931
1.2220184 780.89581 1301.0868 4292136929
4.8880734 780.89581 1301.0868 4292071138
7.3321099 780.89581 1301.0868 4292136931
9.7761469 780.89581 1301.0868 4292136929
-37.740364 787.2948 1299.942 4281876289
-34.088074 787.2948 1299.942 4288380316
-7.3045874 787.2948 1299.942 4291939549
-4.8697248 787.2948 1299.942 4292004827
-2.4348624 787.2948 1299.942 4292004827
7.3045874 787.2948 1299.942 4292136929
-41.392662 789.15625 1301.5116 4282268744
-38.957798 789.15625 1301.5116 4281217353
-2.4348624 789.15625 1301.5116 4292334303
7.3045874 789.15625 1301.5116 4292202722
-55.748623 796.97485 1300.2559 4283318346
-53.324772 796.97485 1300.2559 4283515211
-7.2715597 796.04828 1299.4746 4292136662
-2.4238532 797.90137 1301.0371 4291807448
-45.878899 805.15039 1300.6091 4284504677
0 805.15039 1300.6091 4291478744
14.488073 806.07336 1301.3873 4291741401
16.902752 806.07336 1301.3873 4291807194
-43.299084 812.36426 1300.1516 4282859598
-40.893578 812.36426 1300.1516 4282793804
-37.285324 812.36426 1300.1516 4284570484
0 812.36426 1300.1516 4291412688
14.433027 812.36426 1300.1516 4291478483
-43.299084 814.20331 1301.7021 4284109147
-40.893578 814.20331 1301.7021 4283846232
-37.285324 814.20331 1301.7021 4284438895
1.2027524 814.20331 1301.7021 4291084240
9.6220188 814.20331 1301.7021 4291282374
14.433027 814.20331 1301.7021 4291873239
-40.737614 820.45917 1300.4368 4282795869
-38.341286 820.45917 1300.4368 4283518295
-34.746788 820.45917 1300.4368 4284177000
-31.152294 820.45917 1300.4368 4282598740
-9.5853214 820.45917 1300.4368 4290816442
-2.3963304 820.45917 1300.4368 4291346130
11.981651 820.45917 1300.4368 4288851365
14.377981 820.45917 1300.4368 4287731623
16.774311 820.45917 1300.4368 4286678935
-40.737614 822.2912 1301.9814 4283058535
-38.341286 822.2912 1301.9814 4283911254
-34.746788 822.2912 1301.9814 4285490541
-31.152294 822.2912 1301.9814 4283582542
-2.3963304 822.2912 1301.9814 4291542741
11.981651 822.2912 1301.9814 4286744437
14.377981 822.2912 1301.9814 4286612366
-28.645872 826.68701 1299.1478 4282992721
-26.258715 826.68701 1299.1478 4283124051
-4.774312 826.68701 1299.1478 4290488769
14.322936 826.68701 1299.1478 4288320685
-31.033028 828.51196 1300.6866 4283516749
-2.387156 828.51196 1300.6866 4286675092
14.322936 828.51196 1300.6866 4288912068
-42.836697 836.0155 1301.7812 4286532188
-38.077065 836.0155 1301.7812 4287189350
-33.317432 836.0155 1301.7812 4286795107
-30.937614 834.19617 1300.2472 4284300107
-28.557798 834.19617 1300.2472 4283643467
1.1899083 836.0155 1301.7812 4283649379
-45.042202 842.17603 1300.4354 4289963695
-42.671558 842.17603 1300.4354 4290029500
-40.300919 842.17603 1300.4354 4289963706
-37.930275 842.17603 1300.4354 4290160560
-34.374313 842.17603 1300.4354 4290488756
-30.818348 842.17603 1300.4354 4290750647
1.1853211 842.17603 1300.4354 4286676110
4.7412844 842.17603 1300.4354 4283256418
-45.042202 843.9884 1301.9636 4290424509
-42.671558 843.9884 1301.9636 4290424007
-40.300919 843.9884 1301.9636 4289963456
-37.930275 843.9884 1301.9636 4289832109
-34.374313 843.9884 1301.9636 4290226608
-30.818348 843.9884 1301.9636 4290687156
-28.447706 843.9884 1301.9636 4290949059
-23.706423 843.9884 1301.9636 4291079866
1.1853211 843.9884 1301.9636 4288715679
4.7412844 843.9884 1301.9636 4284179317
-10.626606 848.30841 1299.066 4291342006
-7.0844035 848.30841 1299.066 4289371043
-4.7229357 848.30841 1299.066 4289504180
-2.3614678 848.30841 1299.066 4291609299
-43.664227 760.271 1303.3169 4285162618
-39.544952 760.58594 1303.5825 4287138980
-4.943119 761.5307 1304.379 4292594398
-2.4715595 761.5307 1304.379 4292989155
1.2357798 759.64117 1302.7859 4292465894
-46.78532 768.95508 1304.0989 4286675091
-51.517429 776.34436 1303.7893 4288385665
-49.06422 776.34436 1303.7893 4288583087
-46.611008 776.34436 1303.7893 4287464606
-44.157799 775.40662 1302.9985 4284242801
-40.477982 775.40662 1302.9985 4281414219
-36.798164 774.46881 1302.2079 4282335067
0 776.34436 1303.7893 4292137183
-43.992661 782.76428 1302.6622 4284703083
-40.326607 782.76428 1302.6622 4281479999
-36.660549 782.76428 1302.6622 4283060061
-7.3321099 782.76428 1302.6622 4292005340
-4.8880734 782.76428 1302.6622 4291939295
-2.4440367 782.76428 1302.6622 4291939295
1.2220184 782.76428 1302.6622 4292071136
4.8880734 782.76428 1302.6622 4292071138
-52.546791 784.63281 1304.2377 4283187277
-46.436699 784.63281 1304.2377 4283188829
-43.992661 784.63281 1304.2377 4283059039
-41.548622 784.63281 1304.2377 4281743179
1.2220184 784.63281 1304.2377 4291742173
4.8880734 784.63281 1304.2377 4291742171
9.7761469 784.63281 1304.2377 4292333540
-43.827522 791.0177 1303.0812 4283057742
0 791.0177 1303.0812 4291676891
7.3045874 791.0177 1303.0812 4292202976
12.174312 791.0177 1303.0812 4292136929
-58.436699 792.87921 1304.6508 4283186502
-46.262386 792.87921 1304.6508 4283448655
-4.8697248 792.87921 1304.6508 4291939799
-2.4348624 792.87921 1304.6508 4292071386
-46.053211 799.75439 1302.5996 4283648083
0 799.75439 1302.5996 4291610587
14.543119 799.75439 1302.5996 4291939036
-48.477066 801.60742 1304.162 4284044639
2.4238532 801.60742 1304.162 4291544538
7.2715597 801.60742 1304.162 4291675610
9.6954126 801.60742 1304.162 4291478231
13.331193 801.60742 1304.162 4291807195
-45.878899 808.84247 1303.7222 4283451223
1.6097859 808.53485 1303.4628 4291281617
4.8293576 808.84247 1303.7222 4291281872
7.2440367 809.7655 1304.5005 4291479248
9.6587152 808.84247 1303.7222 4291609557
12.073395 808.84247 1303.7222 4291609813
-45.704586 817.88135 1304.8035 4283715675
-43.299084 816.96185 1304.0281 4283387747
-40.893578 816.04236 1303.2528 4283386973
1.2027524 816.96185 1304.0281 4291281621
4.8110094 816.96185 1304.0281 4291546563
7.2165136 816.96185 1304.0281 4291743686
9.6220188 816.96185 1304.0281 4290757816
13.230275 816.04236 1303.2528 4291677644
16.838531 816.04236 1303.2528 4292005854
-43.133945 824.12317 1303.5262 4283847022
-40.737614 824.12317 1303.5262 4283123299
-38.341286 824.12317 1303.5262 4283845207
-34.746788 824.12317 1303.5262 4285358703
-31.152294 824.12317 1303.5262 4283582292
-2.3963304 824.12317 1303.5262 4288843945
11.981651 824.12317 1303.5262 4286746266
-34.613762 830.33698 1302.2253 4282859601
14.322936 830.33698 1302.2253 4286018189
16.710093 830.33698 1302.2253 4285491845
-33.420185 832.16199 1303.7642 4284300107
14.322936 832.16199 1303.7642 4283781981
16.710093 832.16199 1303.7642 4284703083
-46.406422 838.74463 1304.0823 4288580243
-42.836697 837.8349 1303.3153 4287656575
7.1394496 839.6543 1304.8494 4284177520
11.105809 839.04785 1304.338 4286345860
14.278899 838.74463 1304.0823 4286345865
16.658716 838.74463 1304.0823 4285622142
-46.227524 845.80078 1303.4917 4290095799
-42.671558 845.80078 1303.4917 4290095295
-40.300919 845.80078 1303.4917 4289503157
-37.930275 845.80078 1303.4917 4288253854
-34.374313 845.80078 1303.4917 4289372848
-30.818348 845.80078 1303.4917 4289109933
-28.447706 845.80078 1303.4917 4288846510
-26.077065 845.80078 1303.4917 4289175476
-22.521101 845.80078 1303.4917 4288782001
-18.965137 845.80078 1303.4917 4290750910
-16.594496 845.80078 1303.4917 4291079875
-14.223853 845.80078 1303.4917 4292655296
1.1853211 845.80078 1303.4917 4291280852
4.7412844 845.80078 1303.4917 4288588729
-44.686237 754.47314 1306.2765 4285033081
1.2412844 754.47314 1306.2765 4292334567
-47.168808 756.37109 1307.8767 4287924632
4.9651375 756.37109 1307.8767 4292400098
-46.959633 763.42023 1305.9723 4286872205
-4.943119 763.42023 1305.9723 4292267497
-2.4715595 763.42023 1305.9723 4292464876
-51.902752 765.30975 1307.5654 4288123029
-49.431194 765.30975 1307.5654 4288846004
-51.710091 771.77887 1306.4799 4287334793
-49.247707 771.77887 1306.4799 4287794350
-46.78532 771.77887 1306.4799 4286741919
-49.06422 778.21985 1305.3706 4289569982
-46.611008 778.21985 1305.3706 4287596192
-44.157799 778.21985 1305.3706 4284833399
-51.517429 780.09534 1306.952 4287661194
-49.06422 780.09534 1306.952 4287661978
-46.611008 780.09534 1306.952 4286477447
-56.212845 786.50128 1305.8131 4283318098
-52.546791 787.43555 1306.6008 4283451213
-46.436699 787.43555 1306.6008 4283189067
-43.992661 786.50128 1305.8131 4282663502
1.6293578 787.12408 1306.3383 4292005344
4.8880734 787.43555 1306.6008 4292136928
9.7761469 787.43555 1306.6008 4292202210
12.220183 786.50128 1305.8131 4292267747
-58.436699 794.74066 1306.2202 4283187016
-46.262386 794.74066 1306.2202 4283644490
1.2174312 794.74066 1306.2202 4291544792
7.3045874 794.74066 1306.2202 4291939036
9.7394495 794.74066 1306.2202 4292004827
13.391743 794.74066 1306.2202 4291873501
-60.871559 796.60217 1307.7898 4283319131
-58.436699 796.60217 1307.7898 4283451976
-56.001835 796.60217 1307.7898 4283583305
-52.349541 796.60217 1307.7898 4284106319
-48.697247 796.60217 1307.7898 4283582290
2.4348624 796.60217 1307.7898 4291742173
4.8697248 796.60217 1307.7898 4291872989
7.3045874 796.60217 1307.7898 4291872989
9.7394495 796.60217 1307.7898 4291938782
12.174312 796.60217 1307.7898 4292465126
-48.477066 803.46051 1305.7245 4284701286
2.4238532 803.46051 1305.7245 4291478744
4.8477063 803.46051 1305.7245 4291544791
7.2715597 803.46051 1305.7245 4291742171
9.6954126 803.46051 1305.7245 4291807194
12.119267 803.46051 1305.7245 4292004829
7.2715597 805.3136 1307.2869 4291478996
-45.878899 811.61151 1306.057 4284043356
4.8293576 811.61151 1306.057 4290756543
7.2440367 811.61151 1306.057 4291282887
12.073395 811.61151 1306.057 4291677132
-45.878899 813.45758 1307.6135 4283650136
-45.704586 820.63989 1307.1294 4283979107
-43.299084 819.7204 1306.354 4283979637
1.2027524 820.63995 1307.1294 4288912818
4.8110094 820.63989 1307.1294 4287992216
7.2165136 820.63989 1307.1294 4286610306
9.6220188 820.63989 1307.1294 4285561206
-43.133945 826.87122 1305.8433 4284894555
-40.737614 827.78723 1306.6156 4283905860
-38.341286 826.87122 1305.8433 4283122258
-34.746788 825.9552 1305.0709 4284437601
1.1981652 827.78723 1306.6156 4283256418
11.182874 826.56592 1305.5858 4285362299
-45.355965 833.987 1305.303 4286466395
10.742202 833.987 1305.303 4284110433
14.322936 833.987 1305.303 4283520092
16.710093 833.987 1305.303 4283585885
-47.743118 835.81201 1306.8418 4286999412
7.161468 835.81201 1306.8418 4283782765
9.548624 835.81201 1306.8418 4284241769
-52.355965 841.47369 1306.3834 4290490041
-49.976147 841.47369 1306.3834 4290424248
-47.596329 841.47369 1306.3834 4290227387
7.1394496 841.47369 1306.3834 4283784815
10.709174 841.47369 1306.3834 4286282898
14.278899 841.47369 1306.3834 4287530930
16.658716 841.47369 1306.3834 4286478242
19.038532 841.47369 1306.3834 4286806408
-54.735779 843.29309 1307.9175 4290357171
-52.355965 843.29309 1307.9175 4290293180
-49.976147 843.29309 1307.9175 4290095545
7.1394496 843.29309 1307.9175 4283654510
10.709174 843.29309 1307.9175 4283455081
14.278899 843.29309 1307.9175 4282800246
16.658716 843.29309 1307.9175 4284642450
19.038532 843.29309 1307.9175 4286873235
-45.042202 847.61316 1305.0199 4290094511
-37.930275 847.61316 1305.0199 4288714155
-34.374313 847.61316 1305.0199 4288977837
-30.818348 847.61316 1305.0199 4288714405
-28.447706 847.61316 1305.0199 4288583339
-22.521101 847.61316 1305.0199 4288781488
-10.667891 847.61316 1305.0199 4291343814
-7.1119266 847.61316 1305.0199 4290159295
-4.7412844 847.61316 1305.0199 4291082162
-2.3706422 847.61316 1305.0199 4292134850
-9.4825687 849.42554 1306.5481 4289897141
-7.1119266 849.42554 1306.5481 4291146952
-4.7412844 849.42554 1306.5481 4291806160
-2.3706422 849.42554 1306.5481 4291938003
-47.168808 758.26904 1309.4771 4287201947
-51.902752 767.19928 1309.1587 4287596685
-49.431194 767.19928 1309.1587 4288056743
-54.172478 775.54388 1309.6545 4288844948
-51.710091 775.54388 1309.6545 4288844948
-49.06422 781.97083 1308.5333 4283123035
-49.06422 783.84631 1310.1147 4282992201
-51.324772 790.23828 1308.9641 4282726465
-48.880733 790.23828 1308.9641 4282922311
1.2220184 790.23828 1308.9641 4291939548
4.8880734 790.23828 1308.9641 4292071386
7.3321099 790.23828 1308.9641 4292137179
9.7761469 790.23828 1308.9641 4292202974
13.442202 790.23828 1308.9641 4292202721
-51.324772 792.10675 1310.5396 4283185219
-48.880733 792.10675 1310.5396 4283315268
4.8880734 792.10675 1310.5396 4291873243
-63.306423 800.32507 1310.9288 4282331707
-60.871559 799.39435 1310.144 4283253582
-58.436699 799.39435 1310.144 4283255629
-56.001835 799.39435 1310.144 4283650130
-52.349541 799.39441 1310.144 4284240729
4.8697248 798.46362 1309.3594 4291675610
-49.688988 808.09314 1309.6306 4283583319
-48.293579 815.30359 1309.17 4283715675
-48.293579 817.14966 1310.7266 4283913053
-48.110092 823.39844 1309.4553 4285353824
-45.704586 823.39844 1309.4553 4285419617
-40.893578 823.39844 1309.4553 4283448653
1.2027524 823.39844 1309.4553 4283715438
4.8110094 823.39844 1309.4553 4282927460
7.2165136 823.39844 1309.4553 4282729824
-45.530273 829.61926 1308.1604 4286993252
-38.341286 829.61926 1308.1604 4284366161
-35.944954 829.61926 1308.1604 4284234575
1.1981652 829.61926 1308.1604 4283519593
11.981651 829.61926 1308.1604 4283913823
-50.322937 831.45123 1309.7051 4285875287
-47.926605 831.45123 1309.7051 4285940051
-40.737614 831.45123 1309.7051 4286861153
-52.517429 837.63696 1308.3806 4289568941
-50.130276 837.63696 1308.3806 4289766064
-61.875229 845.11249 1309.4515 4289699492
-59.495415 845.11249 1309.4515 4289238941
-54.735779 845.11249 1309.4515 4290357169
-52.355965 845.11249 1309.4515 4290489273
-49.976147 845.11249 1309.4515 4290620859
-47.596329 845.11249 1309.4515 4290292147
-42.836697 845.11249 1309.4515 4289963695
-40.456882 845.11249 1309.4515 4289437351
-26.177982 845.11249 1309.4515 4289372855
-19.038532 845.11249 1309.4515 4289503407
-16.658716 845.11249 1309.4515 4290161594
-14.278899 845.11249 1309.4515 4291540926
1.1899083 845.11249 1309.4515 4291543254
4.7596331 845.11249 1309.4515 4290953672
7.1394496 845.11249 1309.4515 4286479748
10.709174 845.11249 1309.4515 4282862959
14.278899 845.11249 1309.4515 4282537558
16.658716 845.11249 1309.4515 4285432707
19.038532 845.11249 1309.4515 4287792555
26.177982 845.11249 1309.4515 4291475651
-52.355965 846.93188 1310.9856 4288643472
-49.976147 846.93188 1310.9856 4289169816
-46.406422 846.93188 1310.9856 4288909211
-42.836697 846.93188 1310.9856 4288844960
-40.456882 846.93188 1310.9856 4288844960
-38.077065 846.93188 1310.9856 4288583076
-34.507339 846.93188 1310.9856 4287990940
-30.937614 846.93188 1310.9856 4287924891
-28.557798 846.93188 1310.9856 4288122525
-26.177982 846.93188 1310.9856 4288912040
-14.278899 846.93188 1310.9856 4288913333
-11.899082 846.93188 1310.9856 4289045175
1.1899083 846.93188 1310.9856 4290952400
4.7596331 846.93188 1310.9856 4291280337
7.1394496 846.93188 1310.9856 4291148750
10.709174 846.93188 1310.9856 4286414737
14.278899 846.93188 1310.9856 4283715929
16.658716 846.93188 1310.9856 4285492083
-2.3706422 851.23792 1308.0762 4292070104
-49.834862 754.59845 1312.9222 4288714923
-49.651375 760.16699 1311.0774 4288517031
-54.172478 777.42639 1311.2418 4287463559
-49.06422 785.7218 1311.6962 4283583055
-63.306423 802.18652 1312.4984 4282991173
-60.871559 802.18652 1312.4984 4283254344
-58.436699 802.18652 1312.4984 4283255374
-56.001835 802.18652 1312.4984 4283321423
-52.349541 802.18652 1312.4984 4283386707
-48.697247 802.18652 1312.4984 4283648348
-50.092968 811.49042 1312.495 4283650137
-49.500916 818.99573 1312.2831 4283715934
-57.952293 820.84174 1313.8396 4284959831
-53.122936 820.84174 1313.8396 4285353820
-50.708256 820.84174 1313.8396 4285551455
-52.921101 827.07648 1312.5565 4286402137
-49.312843 826.15698 1311.7812 4286730591
-45.704586 825.23749 1311.006 4286992739
-43.299084 827.07648 1312.5565 4285548123
-40.893578 827.07648 1312.5565 4284955986
4.8110094 826.15698 1311.7812 4283716201
7.2165136 826.15698 1311.7812 4283650664
9.6220188 826.15698 1311.7812 4283650137
-52.719265 833.28326 1311.2498 4286208619
-50.322937 833.28326 1311.2498 4286800757
-40.737614 833.28326 1311.2498 4287788417
-57.291744 843.112 1312.9969 4289304738
22.677982 843.112 1312.9969 4291344849
1.1899083 848.75128 1312.5198 4290886094
10.709174 848.75128 1312.5198 4288452269
14.278899 848.75128 1312.5198 4282733949
-63.306423 805.90955 1315.6376 4282924109
-60.871559 804.97876 1314.8528 4283516245
-58.436699 804.97876 1314.8528 4283255376
-56.001835 804.97876 1314.8528 4283321169
-53.566971 804.97876 1314.8528 4283320917
-50.900917 814.57886 1315.0991 4283781722
-53.324772 816.43188 1316.6616 4283715929
-53.122936 822.68774 1315.3962 4286665825
-55.326607 828.91553 1314.1072 4284628305
-52.921101 828.91553 1314.1072 4285086027
4.8110094 828.91553 1314.1072 4284241517
7.2165136 828.91553 1314.1072 4284175724
-58.485321 844.93701 1314.5358 4289238946
-54.904587 844.93701 1314.5358 4288646041
-22.677982 844.93701 1314.5358 4288912554
-19.097248 844.93701 1314.5358 4288519594
-16.710093 844.93701 1314.5358 4288914352
19.097248 844.93701 1314.5358 4287003539
22.677982 844.93701 1314.5358 4286675335
26.258715 844.93701 1314.5358 4285886580
-58.485321 846.76196 1316.0745 4289107624
-54.904587 846.76196 1316.0745 4288186264
-52.517429 846.76196 1316.0745 4288185488
-50.130276 846.76196 1316.0745 4288382866
-46.549541 846.76196 1316.0745 4288973972
-42.968807 846.76196 1316.0745 4289041051
-40.58165 846.76196 1316.0745 4289041051
-38.194496 846.76196 1316.0745 4288713631
-34.613762 846.76196 1316.0745 4287859096
-31.033028 846.76196 1316.0745 4287794077
-28.645872 846.76196 1316.0745 4287925910
-26.258715 846.76196 1316.0745 4288189083
-22.677982 846.76196 1316.0745 4288912803
-19.097248 846.76196 1316.0745 4289373105
-16.710093 846.76196 1316.0745 4289965242
-14.322936 846.76196 1316.0745 4289307830
-10.742202 846.76196 1316.0745 4289175981
-7.161468 846.76196 1316.0745 4290688701
-4.774312 846.76196 1316.0745 4291543760
4.774312 846.76196 1316.0745 4290885831
7.161468 846.76196 1316.0745 4291477711
16.710093 846.76196 1316.0745 4282733949
19.097248 846.76196 1316.0745 4284768626
23.871559 846.76196 1316.0745 4286279271
-63.306423 807.771 1317.207 4283121487
-58.436699 808.70172 1317.9918 4283386195
-56.001835 808.70172 1317.9918 4283583574
-53.566971 808.70172 1317.9918 4283584087
-55.748623 818.28497 1318.224 4284959831
-62.304588 842.44336 1318.9733 4289503144
-57.291744 848.58698 1317.6133 4289042597
-54.904587 848.58698 1317.6133 4288713633
-52.517429 848.58698 1317.6133 4288187036
-50.130276 848.58698 1317.6133 4287528850
-47.743118 848.58698 1317.6133 4287197046
-28.645872 848.58698 1317.6133 4286411641
-22.677982 848.58698 1317.6133 4287201157
-16.710093 848.58698 1317.6133 4289438135
-14.322936 848.58698 1317.6133 4289308082
-11.93578 848.58698 1317.6133 4288781738
-7.161468 848.58698 1317.6133 4288583589
-4.774312 848.58698 1317.6133 4288846508
-2.387156 848.58698 1317.6133 4291083727
11.93578 848.58698 1317.6133 4290426056
14.322936 848.58698 1317.6133 4289047220
16.710093 848.58698 1317.6133 4287862945
23.871559 848.58698 1317.6133 4290228150
-61.100918 805.18616 1321.5677 4283516245
-64.523857 811.4939 1320.3462 4282859087
-60.871559 811.4939 1320.3462 4283647581
-58.436699 811.4939 1320.3462 4283714645
-56.001835 811.4939 1320.3462 4283780438
-53.566971 811.4939 1320.3462 4283781722
-63.306423 813.35541 1321.9156 4282792524
-60.871559 813.35541 1321.9156 4283911004
-58.436699 813.35541 1321.9156 4283714391
-56.001835 813.35541 1321.9156 4283780184
-64.70092 844.27539 1320.5181 4289438137
-62.304588 844.27539 1320.5181 4289042345
21.566973 844.27539 1320.5181 4284834675
-62.304588 846.10736 1322.0627 4288910503
-59.908257 846.10736 1322.0627 4289108138
-45.530273 846.10736 1322.0627 4288315526
-43.133945 846.10736 1322.0627 4288118665
-40.737614 846.10736 1322.0627 4288776596
-38.341286 846.10736 1322.0627 4288450206
-34.746788 846.10736 1322.0627 4287924891
-31.152294 846.10736 1322.0627 4286807182
-26.359632 846.10736 1322.0627 4285753710
-19.170643 846.10736 1322.0627 4288582826
-9.5853214 846.10736 1322.0627 4288517796
1.1981652 846.10736 1322.0627 4290951887
4.7926607 846.10736 1322.0627 4290557381
7.1889906 846.10736 1322.0627 4290820553
9.5853214 846.10736 1322.0627 4290886607
19.170643 846.10736 1322.0627 4287600289
21.566973 846.10736 1322.0627 4289047735
-63.544952 807.05463 1323.1432 4282925391
-61.100918 807.05463 1323.1432 4283385942
-60.871559 815.21686 1323.4852 4284566366
-60.871559 817.07837 1325.0548 4284960349
-58.436699 817.07837 1325.0548 4285878623
-56.001835 817.07837 1325.0548 4286141539
-58.710091 847.93939 1323.6074 4289238953
-55.115597 847.93939 1323.6074 4289304484
-52.719265 847.93939 1323.6074 4288513952
-50.322937 847.93939 1323.6074 4287855766
-46.728439 847.93939 1323.6074 4287724419
-43.133945 847.93939 1323.6074 4287987093
-40.737614 847.93939 1323.6074 4288710560
-34.746788 847.93939 1323.6074 4288385183
-31.152294 847.93939 1323.6074 4286346377
-28.755962 847.93939 1323.6074 4285558133
-26.359632 847.93939 1323.6074 4284834153
-22.765137 847.93939 1323.6074 4287003024
-19.170643 847.93939 1323.6074 4288910005
-16.774311 847.93939 1323.6074 4289567936
-14.377981 847.93939 1323.6074 4289372841
-10.783486 847.93939 1323.6074 4288780710
-7.1889906 847.93939 1323.6074 4288451751
-4.7926607 847.93939 1323.6074 4288845212
-2.3963304 847.93939 1323.6074 4291411395
10.783486 847.93939 1323.6074 4291148751
14.377981 847.93939 1323.6074 4290754504
16.774311 847.93939 1323.6074 4289570486
19.170643 847.93939 1323.6074 4290690237
22.765137 847.93939 1323.6074 4291281352
26.359632 847.93939 1323.6074 4291741139
-57.511925 849.77142 1325.1521 4288316306
-52.719265 849.77142 1325.1521 4287921300
-50.322937 849.77142 1325.1521 4288447644
-22.765137 849.77142 1325.1521 4288843672
-19.170643 849.77142 1325.1521 4289896115
-16.774311 849.77142 1325.1521 4290225336
-14.377981 849.77142 1325.1521 4289702076
-11.981651 849.77142 1325.1521 4289043890
-7.1889906 849.77142 1325.1521 4288188831
26.359632 849.77142 1325.1521 4291280852
-60.871559 818.93982 1326.6244 4284697691
-58.436699 818.93982 1326.6244 4285680986
-56.001835 818.93982 1326.6244 4285944414
-64.948624 843.62775 1326.5122 4288584622
-62.543118 845.4668 1328.0627 4288910507
-38.488075 845.4668 1328.0627 4288778907
1.2027524 845.4668 1328.0627 4291214289
4.8110094 845.4668 1328.0627 4290886092
7.2165136 845.4668 1328.0627 4290952141
-61.340366 847.30579 1329.6134 4288778660
-55.326607 847.30579 1329.6134 4288448148
-48.110092 847.30579 1329.6134 4288777622
-45.704586 847.30579 1329.6134 4288777622
-43.299084 847.30579 1329.6134 4288712095
-40.893578 847.30579 1329.6134 4288975267
-37.285324 847.30579 1329.6134 4289238691
-33.677063 847.30579 1329.6134 4288649895
-31.271559 847.30579 1329.6134 4287071120
-28.866055 847.30579 1329.6134 4287201673
-26.46055 847.30579 1329.6134 4287399051
-9.6220188 847.30579 1329.6134 4288846760
-4.8110094 847.30579 1329.6134 4288712599
-2.4055047 847.30579 1329.6134 4290883768
7.2165136 847.30579 1329.6134 4291017680
9.6220188 847.30579 1329.6134 4291017164
13.230275 847.30579 1329.6134 4291148494
16.838531 847.30579 1329.6134 4291411153
19.244038 847.30579 1329.6134 4291543245
21.649542 847.30579 1329.6134 4291543245
24.055046 847.30579 1329.6134 4291215059
-60.137615 849.14484 1331.1641 4288056732
-57.732109 849.14484 1331.1641 4288185238
-55.326607 849.14484 1331.1641 4288316567
-52.921101 849.14484 1331.1641 4288778144
-49.312843 849.14484 1331.1641 4289172899
-45.704586 849.14484 1331.1641 4289107103
-43.299084 849.14484 1331.1641 4289106855
-40.893578 849.14484 1331.1641 4289172648
-37.285324 849.14484 1331.1641 4289501863
-33.677063 849.14484 1331.1641 4289437605
-31.271559 849.14484 1331.1641 4289569191
-28.866055 849.14484 1331.1641 4289241775
-25.257797 849.14484 1331.1641 4289504430
-21.649542 849.14484 1331.1641 4289964208
-19.244038 849.14484 1331.1641 4289636279
-16.838531 849.14484 1331.1641 4290096830
-13.230275 849.14484 1331.1641 4289504187
-9.6220188 849.14484 1331.1641 4288254376
-7.2165136 849.14484 1331.1641 4287925154
-4.8110094 849.14484 1331.1641 4288514964
-2.4055047 849.14484 1331.1641 4290686389
19.244038 849.14484 1331.1641 4291214541
21.649542 849.14484 1331.1641 4291543506
25.257797 849.14484 1331.1641 4291347160
28.866055 849.14484 1331.1641 4291083987
-67.611008 842.99426 1332.5181 4289373105
-65.196327 842.99426 1332.5181 4288715431
-65.196327 844.84027 1334.0746 4288977582
1.2073394 844.84027 1334.0746 4290884811
4.8293576 844.84027 1334.0746 4291017680
-57.732109 850.98389 1332.7146 4288976550
-55.326607 850.98389 1332.7146 4289108136
-52.921101 850.98389 1332.7146 4289240490
-49.312843 850.98389 1332.7146 4288318872
-25.257797 850.98389 1332.7146 4290095796
-21.649542 850.98389 1332.7146 4289898934
-19.244038 850.98389 1332.7146 4289308341
-14.433027 850.98389 1332.7146 4289504450
-9.6220188 850.98389 1332.7146 4287925406
-7.2165136 850.98389 1332.7146 4287728284
24.055046 850.98389 1332.7146 4291150549
-61.57431 847.60938 1336.4094 4288517798
-45.878899 848.53235 1337.1876 4288449943
-43.464222 848.53235 1337.1876 4288646302
-41.049541 848.53235 1337.1876 4289172646
-37.427521 848.53235 1337.1876 4289304484
-33.805504 848.53235 1337.1876 4289764519
-31.390825 848.53235 1337.1876 4290488243
-28.976147 848.53235 1337.1876 4290226867
-16.902752 848.53235 1337.1876 4289440183
-12.073395 848.53235 1337.1876 4288912570
-4.8293576 848.53235 1337.1876 4288252811
-2.4146788 848.53235 1337.1876 4290950324
1.2073394 846.68634 1335.6311 4291280325
4.8293576 846.68634 1335.6311 4291280850
7.2440367 847.60938 1336.4094 4291215058
9.6587152 847.60938 1336.4094 4291149267
13.280734 847.60931 1336.4094 4291149009
16.902752 847.60938 1336.4094 4291148751
19.31743 848.53235 1337.1876 4290820299
21.732111 848.53235 1337.1876 4291215057
24.055046 856.50098 1337.3665 4290952654
-67.867889 842.37469 1338.5359 4289767097
-72.715599 844.22778 1340.0984 4289636029
-70.29174 844.22778 1340.0984 4289701822
-67.867889 844.22778 1340.0984 4289307828
-65.444038 844.22778 1340.0984 4288386982
-25.35413 850.37842 1338.7441 4290291631
-21.732111 850.37842 1338.7441 4290489523
-19.31743 850.37842 1338.7441 4289898165
-14.488073 850.37842 1338.7441 4289504439
-9.6587152 850.37842 1338.7441 4288122788
-2.4146788 850.37842 1338.7441 4290884549
14.488073 850.37842 1338.7441 4290952400
16.902752 850.37842 1338.7441 4290952400
19.31743 850.37842 1338.7441 4290886605
21.732111 850.37842 1338.7441 4291084241
24.14679 850.37842 1338.7441 4291216081
19.31743 852.22449 1340.3008 4291017932
21.732111 852.22449 1340.3008 4291017932
24.14679 852.22449 1340.3008 4291018193
-70.611008 838.48529 1343.1046 4289768377
-64.232109 846.08081 1341.6608 4287465633
-58.172478 847.93384 1343.2231 4289044653
-55.748623 847.93384 1343.2231 4288913324
-53.324772 847.93384 1343.2231 4288451751
-49.688992 847.93384 1343.2231 4288121496
-43.629356 847.93384 1343.2231 4289041310
-41.205505 847.93384 1343.2231 4289567654
-36.3578 847.93384 1343.2231 4289173411
-31.510092 847.93384 1343.2231 4290488506
-29.086239 847.93384 1343.2231 4290356654
-16.966972 847.93384 1343.2231 4290029752
-12.119267 847.93384 1343.2231 4288583337
-7.2715597 847.93384 1343.2231 4287793823
-4.8477063 847.93384 1343.2231 4288252830
1.6159021 846.69849 1342.1815 4291280327
4.8477063 847.00732 1342.4419 4290820556
7.2715597 847.93384 1343.2231 4291017934
9.6954126 847.93384 1343.2231 4291083477
12.119267 847.93384 1343.2231 4291017684
19.31743 854.0705 1341.8573 4290952139
21.732111 854.0705 1341.8573 4290952139
19.31743 855.91656 1343.4138 4290952654
21.732111 855.91656 1343.4138 4290952654
-25.450459 849.78693 1344.7856 4289170329
-21.814678 849.78693 1344.7856 4289499551
-19.390825 849.78693 1344.7856 4289368998
-16.966972 849.78693 1344.7856 4289237156
-12.119267 850.7135 1345.5669 4288254108
-9.6954126 849.78693 1344.7856 4288254360
-7.2715597 849.78693 1344.7856 4288978084
-4.8477063 849.78693 1344.7856 4290095799
-2.4238532 850.7135 1345.5669 4291214286
7.2715597 849.78693 1344.7856 4291215057
9.6954126 850.7135 1345.5669 4290886350
13.331194 850.7135 1345.5669 4290820814
16.966972 850.7135 1345.5669 4290886351
-68.176147 843.13898 1347.0284 4286215574
-64.523857 845.00043 1348.598 4288057775
-60.871559 845.00043 1348.598 4289438900
-46.262386 845.00043 1348.598 4288449170
-38.957798 845.00043 1348.598 4289304998
-34.088074 845.00043 1348.598 4289501611
0 845.00043 1348.598 4291280840
14.543119 853.49304 1347.9105 4290886607
16.966972 853.49304 1347.9105 4290886607
19.390825 855.34607 1349.473 4290886607
9.6587152 862.37769 1348.8616 4290754765
-76.049538 834.48486 1352.8118 4289111473
-73.596329 834.48486 1352.8118 4289833152
-70.877068 840.68738 1351.5015 4286741135
-64.523857 846.86194 1350.1675 4288582822
-60.871559 846.86194 1350.1675 4289175210
-58.436699 847.79266 1350.9523 4288848300
-56.001835 846.86194 1350.1675 4288454572
-52.349541 847.79266 1350.9523 4287728800
-48.697247 847.79266 1350.9523 4288122521
-46.262386 847.79266 1350.9523 4288714915
-43.827522 847.79266 1350.9523 4289568691
-41.392662 847.79266 1350.9523 4289700276
-37.334553 847.48242 1350.6907 4289634473
-34.088074 846.86194 1350.1675 4290158521
-31.653212 846.86194 1350.1675 4289500848
-29.218349 847.79266 1350.9523 4288710295
-25.566055 848.72339 1351.7371 4288711066
-21.913761 848.72339 1351.7371 4289105819
-19.478899 848.72339 1351.7371 4288778140
-17.044037 848.72339 1351.7371 4288646554
-14.609175 847.79266 1350.9523 4288188316
-9.7394495 848.72339 1351.7371 4288583580
-7.3045874 848.72339 1351.7371 4289899439
-4.8697248 848.72339 1351.7371 4290622154
1.2174312 847.7926 1350.9523 4290887111
4.8697248 846.86194 1350.1675 4291083727
7.3045874 848.72339 1351.7371 4291084241
-76.049538 836.36035 1354.3932 4289176743
-76.049538 838.23584 1355.9746 4289372589
-73.596329 838.23584 1355.9746 4288254374
-70.877068 842.55591 1353.0769 4286609801
-68.433029 842.55591 1353.0769 4286545321
-68.433029 844.42438 1354.6523 4288056484
-58.436699 850.58484 1353.3066 4288846760
-56.001835 850.58484 1353.3066 4287991452
-52.349541 850.58484 1353.3066 4288187034
-19.478899 850.58484 1353.3066 4288777890
-17.044037 850.58484 1353.3066 4288777890
-9.7394495 850.58484 1353.3066 4289964462
-7.3045874 850.58484 1353.3066 4290622393
-4.8697248 850.58484 1353.3066 4291214282
-2.4348624 850.58484 1353.3066 4291148489
12.174312 850.58484 1353.3066 4290821584
-56.001835 852.44635 1354.8762 4287333524
-51.132111 852.44635 1354.8762 4288649645
-4.8697248 852.44635 1354.8762 4290820551
-2.4348624 852.44635 1354.8762 4290886344
13.391743 852.44635 1354.8762 4290886351
17.044037 852.44635 1354.8762 4290951887
-68.433029 847.22711 1357.0156 4288648617
-65.988991 846.29285 1356.2278 4288253604
-61.100918 847.22711 1357.0156 4289241004
-56.212845 846.29285 1356.2278 4289044907
-48.880733 848.16138 1357.8033 4288846245
-46.436699 848.16138 1357.8033 4289175210
-43.992661 848.16138 1357.8033 4289241273
-39.919266 847.53857 1357.2782 4289767093
-36.660549 848.16138 1357.8033 4289964983
-34.216515 847.22711 1357.0156 4289238972
-31.772476 846.29285 1356.2278 4289106616
-29.32844 848.16138 1357.8033 4288185740
-25.662384 848.16138 1357.8033 4289238178
-21.99633 848.16138 1357.8033 4289237671
-13.442202 848.16138 1357.8033 4289174949
1.2220184 848.16138 1357.8033 4290690248
4.8880734 847.22711 1357.0156 4290820812
7.3321099 848.16138 1357.8033 4290952654
9.7761469 848.16138 1357.8033 4290887377
-51.132111 854.3078 1356.4457 4288583841
14.609175 854.3078 1356.4457 4290623178
17.044037 854.3078 1356.4457 4290886094
-2.4348624 856.16931 1358.0153 4290623438
-58.656879 850.02985 1359.3788 4288649384
-53.768806 850.96411 1360.1665 4287860124
-48.880733 850.96411 1360.1665 4289043624
-46.436699 850.96411 1360.1665 4289701553
-43.992661 850.96411 1360.1665 4289701051
-41.548622 850.02985 1359.3788 4289372087
-25.662384 850.02985 1359.3788 4289306797
-21.99633 850.96411 1360.1665 4289044145
-19.552294 850.96411 1360.1665 4289503152
-17.108257 850.96411 1360.1665 4289832119
-13.442202 850.96411 1360.1665 4290622140
-9.7761469 850.96411 1360.1665 4290820295
-7.3321099 850.96411 1360.1665 4290951880
-4.8880734 851.89832 1360.9542 4290556613
-2.4440367 851.89832 1360.9542 4290688199
1.2220184 850.02985 1359.3788 4290887373
4.8880734 850.02985 1359.3788 4290689996
7.3321099 850.96411 1360.1665 4290624461
9.7761469 850.96411 1360.1665 4290886350
12.220183 851.89832 1360.9542 4290820301
-2.4348624 858.03076 1359.5848 4290558926
-76.333946 837.66687 1362.0349 4289175478
-73.871559 837.66687 1362.0349 4288385955
-31.891743 845.73785 1362.3 4287858346
-39.251377 847.61334 1363.8815 4289372851
-36.798164 847.61334 1363.8815 4289109935
-34.344955 847.61334 1363.8815 4288845495
-31.891743 847.61334 1363.8815 4287529636
-29.438532 847.61334 1363.8815 4287662476
-51.324772 853.76685 1362.5297 4288386730
-48.880733 853.76685 1362.5297 4288583830
-21.99633 853.76685 1362.5297 4290228150
-19.552294 853.76685 1362.5297 4290425282
-17.108257 853.76685 1362.5297 4291148748
-13.442202 853.76685 1362.5297 4290688967
-7.3321099 853.76685 1362.5297 4290623688
-4.8880734 853.76685 1362.5297 4290623438
7.3321099 853.76685 1362.5297 4290689998
13.442202 853.76685 1362.5297 4290689228
-51.324772 855.63531 1364.1051 4290031300
-19.552294 855.63531 1364.1051 4290163137
-17.108257 855.63531 1364.1051 4290557894
-7.3321099 855.63531 1364.1051 4290361031
-4.8880734 855.63531 1364.1051 4290361546
-46.611008 851.36438 1367.0442 4288846745
-44.157799 851.36438 1367.0442 4289438385
-40.477982 849.48883 1365.4628 4289372596
-29.438532 849.48883 1365.4628 4288780956
-25.349848 850.11401 1365.9899 4289504685
-9.8128443 851.36438 1367.0442 4290557894
1.2266055 850.42664 1366.2534 4290624205
4.9064221 850.42664 1366.2534 4290558413
-4.8880734 857.50378 1365.6807 4290426826
-36.93578 847.07941 1369.9714 4288912556
-34.473396 847.07941 1369.9714 4288583341
