# .PCD v0.7 - Point Cloud Data file format
VERSION 0.7
FIELDS x y z rgb
SIZE 4 4 4 4
TYPE F F F U
COUNT 1 1 1 1
WIDTH 1163
HEIGHT 1
VIEWPOINT 0 0 0 1 0 0 0
POINTS 1163
DATA ascii
-9.5192661 810.54407 1280.3044 4287659936
-7.1394496 810.54407 1280.3044 4290423242
-4.7596331 810.54407 1280.3044 4290686149
-22.125994 817.40692 1279.5508 4283519326
-18.965137 817.70892 1279.8054 4284702583
-16.594496 817.70892 1279.8054 4285426306
-14.223853 817.70892 1279.8054 4285953425
-10.66789 817.70898 1279.8054 4285821835
-7.1119266 817.70892 1279.8054 4289111480
-4.7412844 817.70892 1279.8054 4290161605
-2.3706422 818.61511 1280.5696 4290293703
0 817.70892 1279.8054 4290423744
0 824.83875 1279.277 4290227896
-4.7229357 826.6441 1280.7992 4288715188
0 826.6441 1280.7992 4290293439
-14.113762 834.63098 1280.9934 4286413439
-9.409174 834.63098 1280.9934 4285164672
-7.056881 834.63098 1280.9934 4285032829
-7.0293579 838.99304 1278.1312 4285163386
-16.401834 840.78436 1279.6416 4286871692
-10.511009 846.40125 1279.1455 4285880944
-17.108257 758.474 1282.1813 4292121542
-13.442202 758.474 1282.1813 4287391622
-9.7761469 758.474 1282.1813 4280634624
-7.3321099 758.474 1282.1813 4279515904
-4.8880734 758.474 1282.1813 4280107053
-17.108257 760.34247 1283.7567 4288246665
-13.442202 760.34247 1283.7567 4284168060
-9.7761469 760.34247 1283.7567 4280891392
-7.3321099 760.34247 1283.7567 4282733577
-4.8880734 760.34247 1283.7567 4286277252
0 760.34247 1283.7567 4290752979
-2.4348624 764.95709 1281.1075 4292328132
-29.218349 766.8186 1282.6771 4278195247
-26.783485 766.8186 1282.6771 4281817717
-17.044037 766.8186 1282.6771 4285427839
-7.3045874 766.8186 1282.6771 4292592333
-4.8697248 766.8186 1282.6771 4292396251
-2.4348624 766.8186 1282.6771 4291869907
0 766.8186 1282.6771 4291411404
-29.086239 775.66467 1282.2877 4280887593
-26.662386 775.66467 1282.2877 4281611316
-21.814678 775.66467 1282.2877 4287201447
-12.119267 775.66467 1282.2877 4290361815
-2.4238532 775.66467 1282.2877 4291476948
-29.086239 777.5177 1283.8501 4281019974
-12.119267 777.5177 1283.8501 4290230478
-9.6954126 777.5177 1283.8501 4291083739
7.2715597 777.5177 1283.8501 4291082705
9.6954126 777.5177 1283.8501 4291148752
12.119267 777.5177 1283.8501 4291214545
-28.976147 782.07483 1281.1523 4280427333
-25.35413 782.07483 1281.1523 4281611348
-9.6587152 782.07483 1281.1523 4291083741
-31.390825 783.9209 1282.709 4281477191
-28.976147 783.9209 1282.709 4281280593
-25.35413 783.9209 1282.709 4281479755
-9.6587152 783.9209 1282.709 4291083991
14.488073 783.9209 1282.709 4291082707
-25.257797 790.2959 1281.5442 4281282625
-9.6220188 790.2959 1281.5442 4290557115
-7.2165136 790.2959 1281.5442 4291741389
-4.8110094 790.2959 1281.5442 4291476948
-31.271559 792.13495 1283.0947 4281872702
-28.866055 792.13495 1283.0947 4281544769
-25.257797 792.13495 1283.0947 4281085243
-7.2165136 792.13495 1283.0947 4291281622
-4.8110094 792.13495 1283.0947 4291542741
-2.4055047 792.13495 1283.0947 4291411155
0 792.13495 1283.0947 4291411155
-31.152294 800.30701 1283.4451 4282331707
-28.755962 800.30701 1283.4451 4282135875
-26.359632 799.39099 1282.6726 4281807680
-23.963303 799.39099 1282.6726 4281217853
-16.774311 798.47498 1281.9003 4286349725
-7.1889906 798.47498 1281.9003 4291148246
-4.7926607 799.39099 1282.6726 4291083210
-2.3963304 799.39099 1282.6726 4291148746
0 799.39099 1282.6726 4290951627
-31.033028 806.61194 1282.2211 4282659139
-28.645872 806.61194 1282.2211 4282462791
-26.258715 806.61194 1282.2211 4282002240
-4.774312 806.61194 1282.2211 4291148487
-2.387156 806.61194 1282.2211 4291016901
0 806.61194 1282.2211 4290820037
-31.033028 808.43701 1283.7599 4282725188
-28.645872 808.43701 1283.7599 4282462791
-26.258715 808.43701 1283.7599 4281936447
-2.387156 808.43701 1283.7599 4290686149
0 808.43701 1283.7599 4290490051
-26.177982 812.36346 1281.8385 4282067002
-23.798164 812.36346 1281.8385 4281808193
-7.1394496 812.36346 1281.8385 4289570497
-4.7596331 812.36346 1281.8385 4290555335
-2.3798165 812.36346 1281.8385 4290555335
0 812.36346 1281.8385 4290489539
-28.557798 814.18286 1283.3726 4282923079
-26.177982 814.18286 1283.3726 4281804597
-2.3798165 814.18286 1283.3726 4290424009
-22.521101 820.42749 1282.0977 4282533717
-18.965137 820.42749 1282.0977 4284636538
-16.594496 820.42749 1282.0977 4284373622
-14.223853 820.42749 1282.0977 4284307825
-10.667891 820.42749 1282.0977 4284900731
-7.1119266 820.42749 1282.0977 4288783030
-4.7412844 820.42749 1282.0977 4289373125
-2.3706422 820.42749 1282.0977 4290162385
0 820.42749 1282.0977 4290293182
-28.447706 822.23987 1283.6259 4282135879
-26.077065 822.23987 1283.6259 4282004037
-22.521101 822.23987 1283.6259 4282599006
-18.965137 822.23987 1283.6259 4284702585
-16.594496 822.23987 1283.6259 4284110192
-14.223853 822.23987 1283.6259 4283717975
-10.667891 822.23987 1283.6259 4284310126
-7.1119266 822.23987 1283.6259 4288652477
-4.7412844 822.23987 1283.6259 4289373125
-2.3706422 822.23987 1283.6259 4290228178
-25.976147 830.25482 1283.8436 4282529618
-23.614679 830.25482 1283.8436 4281939527
-14.168807 829.35217 1283.0825 4285163637
-10.626606 829.35217 1283.0825 4284572019
-7.0844035 829.35217 1283.0825 4286480792
-4.7229357 829.35217 1283.0825 4287597728
-2.3614678 829.35217 1283.0825 4290163654
0 829.35217 1283.0825 4290162368
-23.522936 836.42932 1282.5096 4281807691
-18.818348 836.42932 1282.5096 4283388007
-4.704587 836.42932 1282.5096 4286939545
-2.3522935 836.42932 1282.5096 4290163402
0 836.42932 1282.5096 4290425028
-16.401834 842.57568 1281.1521 4286010209
-16.401834 844.36707 1282.6625 4286404947
-14.058716 844.36707 1282.6625 4286339183
-7.0293579 844.36707 1282.6625 4286014586
-19.625689 754.77606 1285.6035 4288701065
-34.216515 764.07947 1286.9076 4288978097
-31.772476 764.07947 1286.9076 4283714656
-29.32844 762.21094 1285.3322 4279444258
-25.662384 763.1452 1286.1199 4284048240
-21.99633 764.07947 1286.9076 4286744480
-19.552294 763.1452 1286.1199 4286808723
-17.108257 762.21094 1285.3322 4286149768
-13.442202 763.14526 1286.1199 4284308091
-9.7761469 763.1452 1286.1199 4288446590
-7.3321099 762.21094 1285.3322 4290945684
-4.8880734 762.21094 1285.3322 4292328132
0 762.21094 1285.3322 4291477202
-31.653212 768.68005 1284.2466 4282990195
-29.218349 769.61078 1285.0314 4278194967
-25.566055 769.61078 1285.0314 4282996327
-21.913761 770.5415 1285.8162 4287005872
-19.478899 769.61078 1285.0314 4286677659
-17.044037 768.68005 1284.2466 4286217621
-13.391744 769.61078 1285.0314 4289765311
-9.7394495 769.61078 1285.0314 4292397532
-7.3045874 769.61078 1285.0314 4291805396
-4.8697248 769.61078 1285.0314 4291410900
-2.4348624 769.61078 1285.0314 4291476950
0 769.61078 1285.0314 4291280339
7.3045874 770.5415 1285.8162 4291148752
9.7394495 770.5415 1285.8162 4291148752
-33.933945 779.37079 1285.4126 4281017923
-31.510092 779.37079 1285.4126 4280952130
-7.2715597 779.37079 1285.4126 4291412449
-4.8477063 779.37079 1285.4126 4291083473
-2.4238532 779.37079 1285.4126 4291083473
0 779.37079 1285.4126 4291280087
7.2715597 779.37079 1285.4126 4291082703
9.6954126 779.37079 1285.4126 4291213778
13.331193 779.37079 1285.4126 4291280083
-36.3578 781.22388 1286.9751 4281347642
-33.933945 781.22388 1286.9751 4281477191
-7.2715597 781.22388 1286.9751 4291478748
-4.8477063 781.22388 1286.9751 4291148752
-2.4238532 781.22388 1286.9751 4291148752
0 781.22388 1286.9751 4291214291
7.2715597 781.22388 1286.9751 4291082705
9.6954126 781.22388 1286.9751 4291214291
12.119267 781.22388 1286.9751 4291346134
-31.390825 785.76697 1284.2655 4281936447
-28.976147 785.76697 1284.2655 4281346890
-26.561468 785.76697 1284.2655 4281544269
-7.2440367 785.76697 1284.2655 4291346645
-4.8293576 785.76697 1284.2655 4291214545
-2.4146788 785.76697 1284.2655 4291082703
0 785.76697 1284.2655 4291148752
13.280734 785.76697 1284.2655 4290820559
-33.805504 787.61298 1285.822 4281741373
-31.390825 787.61298 1285.822 4281675324
-28.976147 787.61298 1285.822 4281412935
-2.4146788 787.61298 1285.822 4291148239
0 787.61298 1285.822 4291214032
13.280734 787.61298 1285.822 4290886604
-33.677063 793.974 1284.6454 4281543486
-31.271559 793.974 1284.6454 4281872450
-28.866055 793.974 1284.6454 4281610315
-26.46055 793.974 1284.6454 4281544521
-2.4055047 793.974 1284.6454 4291345613
0 793.974 1284.6454 4291148752
-33.677063 795.81299 1286.196 4281936699
-31.271559 795.81299 1286.196 4282134078
-28.866055 795.81299 1286.196 4281939779
-33.548622 803.97107 1286.5344 4282527553
-31.152294 802.13904 1284.9897 4282331457
-28.755962 802.13904 1284.9897 4282201924
-26.359632 802.13904 1284.9897 4281872702
-2.3963304 802.13904 1284.9897 4290885833
0 802.13904 1284.9897 4290754504
-33.420185 811.17444 1286.0681 4285869899
-31.033028 811.17444 1286.0681 4285211968
-28.645872 810.26196 1285.2987 4282725188
2.387156 812.08698 1286.8374 4290686916
4.774312 812.08698 1286.8374 4290686403
-30.937614 817.82166 1286.4407 4281675328
-28.557798 816.91199 1285.6736 4282463816
-26.177982 816.91199 1285.6736 4281740094
-23.798164 816.00226 1284.9066 4281217857
2.3798165 816.91199 1285.6736 4290555585
4.7596331 816.91199 1285.6736 4290555332
7.1394496 817.82166 1286.4407 4290490051
10.709174 817.82166 1286.4407 4290556100
23.798164 816.91199 1285.6736 4290885063
-28.447706 824.05225 1285.1539 4282528584
-26.077065 824.05225 1285.1539 4282528584
-22.521101 824.05225 1285.1539 4282401625
-18.965137 824.05225 1285.1539 4284768378
-16.594496 824.05225 1285.1539 4284899965
-14.223853 824.05225 1285.1539 4283981924
-10.667891 824.05225 1285.1539 4283784042
-7.1119266 824.05225 1285.1539 4287928755
-2.3706422 824.05225 1285.1539 4290228428
-28.447706 825.86462 1286.6821 4282003535
-26.077065 825.86462 1286.6821 4282398293
-22.521101 825.86462 1286.6821 4282531664
-18.965137 825.86462 1286.6821 4284572026
-16.594496 825.86462 1286.6821 4286414230
2.3706422 825.86462 1286.6821 4290293439
-28.337614 833.86554 1286.8882 4280294720
-25.976147 832.96289 1286.1271 4282135892
-22.040367 832.66193 1285.8734 4282202449
-18.891743 832.06018 1285.366 4284241267
-16.530275 832.06018 1285.366 4286807193
-4.7229357 832.06018 1285.366 4286809242
-2.3614678 832.06018 1285.366 4290164685
1.1807339 832.96289 1286.1271 4290622405
-25.875229 838.22766 1284.026 4281017673
-22.34679 838.22766 1284.026 4282199372
-18.818348 838.22766 1284.026 4283910750
-4.704587 838.22766 1284.026 4286478994
-2.3522935 838.22766 1284.026 4290163402
0 838.22766 1284.026 4290359237
-22.34679 840.026 1285.5424 4286148499
-18.818348 840.026 1285.5424 4283970370
-4.704587 840.026 1285.5424 4286411404
-2.3522935 840.026 1285.5424 4290227398
0 840.026 1285.5424 4290030787
-14.058716 847.05408 1284.9281 4290221998
-10.544037 847.05408 1284.9281 4287788436
-7.0293579 847.05408 1284.9281 4285683582
-19.625689 757.58936 1287.9755 4287588735
-31.891743 759.46484 1289.5569 4283450203
-24.53211 759.46484 1289.5569 4284703615
-22.078899 759.46484 1289.5569 4286480025
2.4532111 759.46484 1289.5569 4291082444
-34.216515 765.94794 1288.4832 4288845773
-21.99633 765.94794 1288.4832 4287006372
2.4440367 765.94794 1288.4832 4291082703
4.8880734 765.94794 1288.4832 4290753740
7.3321099 765.94794 1288.4832 4291148498
-36.522934 772.40302 1287.3857 4285752723
-34.088074 772.40302 1287.3857 4285427365
-31.653212 772.40302 1287.3857 4282335350
-9.7394495 772.40302 1287.3857 4291214295
-7.3045874 772.40302 1287.3857 4291477211
-4.8697248 772.40302 1287.3857 4291345361
0 772.40302 1287.3857 4291083477
4.8697248 772.40302 1287.3857 4291017680
7.3045874 772.40302 1287.3857 4291017680
9.7394495 772.40302 1287.3857 4291148752
12.174312 772.40302 1287.3857 4291148752
-36.522934 774.26447 1288.9552 4283580773
-34.088074 774.26447 1288.9552 4283254090
-31.653212 774.26447 1288.9552 4282661953
-7.3045874 774.26447 1288.9552 4291478496
-4.8697248 774.26447 1288.9552 4291609040
-2.4348624 774.26447 1288.9552 4291609040
0 774.26447 1288.9552 4291280089
4.8697248 774.26447 1288.9552 4291082705
-36.3578 783.0769 1288.5375 4282068285
-33.933945 783.0769 1288.5375 4282068033
2.4238532 783.0769 1288.5375 4291148752
4.8477063 783.0769 1288.5375 4291082703
7.2715597 783.0769 1288.5375 4291082703
9.6954126 783.0769 1288.5375 4291018195
-36.220184 791.30505 1288.9351 4281609033
-33.805504 789.45898 1287.3785 4281741373
2.4146788 790.38202 1288.1567 4291148239
4.8293576 790.38202 1288.1567 4291148496
7.2440367 790.38202 1288.1567 4291477204
13.280734 790.38202 1288.1567 4290886095
16.902752 791.30505 1288.9351 4290951887
-33.677063 797.65204 1287.7466 4282068535
2.4055047 797.65204 1287.7466 4291148748
-36.082569 799.49109 1289.2972 4282265914
-33.677063 799.49109 1289.2972 4282265664
2.4055047 799.49109 1289.2972 4290820553
4.8110094 799.49109 1289.2972 4291082957
-34.746788 805.80304 1288.0791 4282132795
2.3963304 805.80304 1288.0791 4290884808
-35.944954 807.63507 1289.6239 4285671484
2.3963304 807.63507 1289.6239 4290884297
4.7926607 807.63507 1289.6239 4290885060
-33.420185 814.82446 1289.1456 4283249734
-31.033028 813.91199 1288.3762 4284363331
7.161468 813.91199 1288.3762 4290752198
10.742202 813.91199 1288.3762 4290555848
14.322936 814.82446 1289.1456 4290622148
16.710093 814.82446 1289.1456 4290687941
21.484404 814.82446 1289.1456 4290819013
-38.077065 821.46045 1289.5088 4282331457
-34.110703 820.854 1288.9974 4282265927
-30.937614 820.55072 1288.7417 4282200137
2.3798165 820.55072 1288.7417 4290227643
4.7596331 820.55072 1288.7417 4290358974
7.1394496 820.55072 1288.7417 4290358974
10.709174 820.55072 1288.7417 4290425026
23.798164 820.55072 1288.7417 4290490054
-34.374313 827.677 1288.2102 4282661965
-30.818348 827.677 1288.2102 4282726992
-28.447706 827.677 1288.2102 4282726996
-21.335779 827.677 1288.2102 4282663250
-18.965137 827.677 1288.2102 4284570745
-16.594496 827.677 1288.2102 4286478742
2.3706422 827.677 1288.2102 4290293955
4.7412844 827.677 1288.2102 4290360250
7.1119266 827.677 1288.2102 4290294456
-40.300919 829.48938 1289.7384 4282330955
-37.930275 829.48938 1289.7384 4282398030
-34.374313 829.48938 1289.7384 4282858836
-30.818348 829.48938 1289.7384 4282793554
-28.447706 829.48938 1289.7384 4282726996
2.3706422 829.48938 1289.7384 4290556611
4.7412844 829.48938 1289.7384 4290359990
7.1119266 829.48938 1289.7384 4290359990
-40.144955 835.6709 1288.4104 4284231220
-34.241287 835.6709 1288.4104 4283709764
-30.699083 835.6709 1288.4104 4281738039
-28.337614 835.6709 1288.4104 4280886087
2.3614678 835.6709 1288.4104 4290753994
4.7229357 835.6709 1288.4104 4290359484
7.0844035 835.6709 1288.4104 4290227898
16.530275 835.6709 1288.4104 4290359748
-42.50642 837.47626 1289.9326 4288638584
-40.144955 837.47626 1289.9326 4289954443
-37.783485 837.47626 1289.9326 4289235861
-34.241287 837.47626 1289.9326 4290225327
-30.699083 837.47626 1289.9326 4289438383
-28.337614 837.47626 1289.9326 4289175993
-25.976147 837.47626 1289.9326 4288912822
2.3614678 837.47626 1289.9326 4290293703
4.7229357 837.47626 1289.9326 4290359487
14.168807 837.47626 1289.9326 4290163398
16.530275 837.47626 1289.9326 4290163398
-18.818348 841.82434 1287.0586 4286075982
-4.704587 841.82434 1287.0586 4285952398
-2.3522935 841.82434 1287.0586 4289966027
0 841.82434 1287.0586 4290293705
16.466055 841.82434 1287.0586 4290293703
-18.818348 843.62268 1288.575 4290878885
-16.466055 843.62268 1288.575 4291076520
-4.704587 843.62268 1288.575 4285360766
-2.3522935 843.62268 1288.575 4289439931
0 843.62268 1288.575 4290162887
16.466055 843.62268 1288.575 4290490053
-32.011009 754.83624 1292.1943 4280552495
-28.317432 754.83624 1292.1943 4282663250
-24.623854 754.83624 1292.1943 4285557631
-22.161469 754.83624 1292.1943 4286083975
2.4623854 754.83624 1292.1943 4290950102
4.9247708 754.83624 1292.1943 4291016397
2.4532111 761.34033 1291.1383 4291148489
4.9064221 761.34033 1291.1383 4290819538
7.359633 761.34033 1291.1383 4291148246
9.8128443 763.21582 1292.7196 4291214032
-39.104588 767.81641 1290.0586 4282983516
-36.660549 767.81641 1290.0586 4289168314
-34.216515 767.81641 1290.0586 4288582076
-31.772476 767.81641 1290.0586 4283384173
2.4440367 767.81641 1290.0586 4291082703
4.8880734 767.81641 1290.0586 4291082703
12.220183 767.81641 1290.0586 4291016910
-40.326607 769.68494 1291.634 4281280320
2.4440367 769.68494 1291.634 4291017684
-37.740364 776.12592 1290.5248 4281018180
2.4348624 776.12592 1290.5248 4291280087
4.8697248 776.12592 1290.5248 4291214545
-43.827522 777.98743 1292.0944 4285751160
-41.392662 777.98743 1292.0944 4281277236
-38.957798 777.98743 1292.0944 4280426540
2.4348624 777.98743 1292.0944 4291609049
4.8697248 777.98743 1292.0944 4291148498
-36.3578 784.92993 1290.1 4281741121
2.4238532 784.92993 1290.1 4291345361
4.8477063 784.92993 1290.1 4291082444
7.2715597 784.92993 1290.1 4291148237
9.6954126 784.92993 1290.1 4291083473
-53.324772 786.78302 1291.6624 4284626991
-37.569725 786.78302 1291.6624 4281804861
9.6954126 786.78302 1291.6624 4291214291
12.119267 786.78302 1291.6624 4291082705
-37.025074 794.38184 1291.5293 4281478449
2.4146788 793.15112 1290.4916 4290952141
4.8293576 794.0741 1291.2698 4291083216
7.2440367 794.0741 1291.2698 4291477718
-37.686237 801.94312 1291.3647 4282264127
2.4055047 801.33008 1290.8479 4290820037
4.8110094 802.24963 1291.6232 4290885833
7.2165136 803.16913 1292.3984 4290754504
-35.944954 809.46704 1291.1686 4288954960
7.1889906 809.46704 1291.1686 4290752196
10.783486 809.46704 1291.1686 4290621641
-38.341286 811.29907 1292.7133 4285937459
-35.944954 811.29907 1292.7133 4286463803
19.170643 811.29907 1292.7133 4290820037
-38.194496 817.56201 1291.4539 4282068033
-35.807339 817.56201 1291.4539 4282265412
14.322936 817.56201 1291.4539 4290490055
16.710093 817.56201 1291.4539 4290490055
19.097248 817.56201 1291.4539 4290490055
21.484404 817.56201 1291.4539 4290555848
-40.58165 819.38696 1292.9927 4282003789
14.322936 819.38696 1292.9927 4290162121
16.710093 819.38696 1292.9927 4290359500
19.097248 819.38696 1292.9927 4290359496
21.484404 819.38696 1292.9927 4290425545
-38.077065 823.27979 1291.0428 4282068285
-34.507339 823.27979 1291.0428 4282331719
-30.937614 823.27979 1291.0428 4282003274
4.7596331 823.27979 1291.0428 4290294458
7.1394496 823.27979 1291.0428 4290294458
10.709174 823.27979 1291.0428 4290359235
-40.456882 825.09918 1292.5769 4282462541
-38.077065 825.09918 1292.5769 4282201924
10.709174 825.09918 1292.5769 4290161858
14.278899 825.09918 1292.5769 4290556361
16.658716 825.09918 1292.5769 4290425032
-46.227524 833.11414 1292.7947 4283574072
-42.671558 832.20795 1292.0306 4282589999
-40.300919 831.30176 1291.2666 4281343535
-37.930275 832.20795 1292.0306 4283051830
-34.374313 831.30176 1291.2666 4281476152
-30.818348 831.30176 1291.2666 4281082433
4.7412844 831.30176 1291.2666 4290293945
7.1119266 831.30176 1291.2666 4290293945
10.667891 832.20801 1292.0306 4290227907
14.223853 832.20795 1292.0306 4290293956
16.594496 831.30176 1291.2666 4290293957
-42.50642 839.28162 1291.4548 4289893775
-40.144955 839.28162 1291.4548 4290025617
-37.783485 839.28162 1291.4548 4289894307
-33.060551 839.28162 1291.4548 4290686389
-30.699083 839.28162 1291.4548 4290949561
-28.337614 839.28162 1291.4548 4290753227
-25.976147 839.28162 1291.4548 4290950606
-22.433945 839.28162 1291.4548 4288250794
2.3614678 839.28162 1291.4548 4290293705
4.7229357 839.28162 1291.4548 4290490051
7.0844035 839.28162 1291.4548 4290490051
10.626606 839.28162 1291.4548 4290359500
14.168807 839.28162 1291.4548 4290293703
18.891743 839.28162 1291.4548 4290490053
21.25321 839.28162 1291.4548 4290490053
-40.144955 841.08698 1292.9771 4288449424
-37.783485 841.08698 1292.9771 4288644507
-34.241287 841.08698 1292.9771 4288645275
-30.699083 841.08698 1292.9771 4288580248
-28.337614 841.08698 1292.9771 4288711847
-25.976147 841.08698 1292.9771 4289172398
-22.433945 841.08698 1292.9771 4289960115
2.3614678 841.08698 1292.9771 4290162887
4.7229357 841.08698 1292.9771 4290490051
7.0844035 841.08698 1292.9771 4290556100
10.626606 841.08698 1292.9771 4290555594
14.168807 841.08698 1292.9771 4290490053
18.891743 841.08698 1292.9771 4290490051
21.25321 841.08698 1292.9771 4290556100
-18.818348 845.42102 1290.0913 4290551982
-16.466055 845.42102 1290.0913 4290881204
-4.704587 845.42102 1290.0913 4285097089
-2.3522935 845.42102 1290.0913 4289044925
0 845.42102 1290.0913 4290031552
14.113762 845.42102 1290.0913 4290555846
16.466055 845.42102 1290.0913 4290555846
-16.466055 847.21942 1291.6075 4287528339
-14.113762 847.21942 1291.6075 4287528089
-10.585321 847.21942 1291.6075 4288975780
-7.056881 847.21942 1291.6075 4288647317
-4.704587 847.21942 1291.6075 4287465878
-2.3522935 847.21942 1291.6075 4289176495
0 847.21942 1291.6075 4289505726
16.466055 847.21942 1291.6075 4290425028
-44.322937 758.60126 1295.3689 4280163372
-40.21896 757.97382 1294.8398 4284042339
-36.93578 758.60126 1295.3689 4288252593
-34.473396 756.71875 1293.7816 4289568953
4.9247708 756.71875 1293.7816 4290819534
9.8495417 758.60126 1295.3689 4291214032
-44.157799 766.02905 1295.0917 4280294702
-41.704586 765.09131 1294.301 4280557372
-46.436699 773.42188 1294.7849 4285687150
-43.992661 772.48767 1293.9972 4282660931
-40.733944 772.17627 1293.7346 4281278772
2.4440367 771.55341 1293.2095 4291214295
-43.827522 779.84888 1293.6639 4286211445
-41.392662 779.84888 1293.6639 4281342763
-38.957798 779.84888 1293.6639 4281147183
-48.697247 781.71033 1295.2334 4285814113
-46.262386 781.71033 1295.2334 4287787904
-43.827522 781.71033 1295.2334 4286407777
-41.392662 781.71033 1295.2334 4281407509
-38.957798 781.71033 1295.2334 4280951349
-55.748623 788.63611 1293.2249 4283839286
-53.324772 788.63611 1293.2249 4284233001
-43.629356 788.63611 1293.2249 4284632650
-41.205505 788.63611 1293.2249 4281671964
-38.781651 788.63611 1293.2249 4281411398
9.6954126 788.63611 1293.2249 4291017684
14.543119 788.63611 1293.2249 4290951887
-55.748623 790.48914 1294.7874 4283576883
-53.324772 790.48914 1294.7874 4284167989
-43.629356 790.48914 1294.7874 4283450442
-41.205505 790.48914 1294.7874 4281213480
-38.781651 790.48914 1294.7874 4281214773
9.6954126 790.48914 1294.7874 4291083477
13.331193 790.48914 1294.7874 4291083218
16.966972 790.48914 1294.7874 4291148752
-38.634861 796.8432 1293.6047 4281871156
7.2440367 796.8432 1293.6047 4291148750
-55.537613 798.68921 1295.1613 4284493877
-53.122936 798.68921 1295.1613 4285541416
-43.464222 798.68921 1295.1613 4285413189
-41.049541 798.68921 1295.1613 4283439399
7.2440367 798.68921 1295.1613 4291082955
9.6587152 798.68921 1295.1613 4290885331
-40.893578 805.92767 1294.7244 4286523457
-38.488075 805.92767 1294.7244 4286786879
7.2165136 805.00818 1293.9491 4290885060
9.6220188 805.00818 1293.9491 4290819788
13.631192 805.62115 1294.4659 4291017167
16.838531 806.84717 1295.4998 4290819788
21.649542 806.84717 1295.4998 4290820299
24.055046 806.84717 1295.4998 4290754506
-43.133945 814.96313 1295.8027 4281936199
-40.737614 814.04712 1295.0303 4281804864
-38.341286 813.1311 1294.2579 4281410605
-35.944954 813.1311 1294.2579 4281805363
19.170643 813.1311 1294.2579 4290686403
-42.968807 821.21198 1294.5314 4282265162
-40.58165 821.21198 1294.5314 4282133577
14.322936 821.21198 1294.5314 4290556111
16.710093 821.21198 1294.5314 4290556111
21.484404 821.21198 1294.5314 4290687434
-47.596329 826.91858 1294.111 4282792006
-42.836697 826.91858 1294.111 4282330955
10.709174 826.91858 1294.111 4290293442
14.278899 826.91858 1294.111 4290425032
16.658716 826.91858 1294.111 4290358983
21.418348 826.91858 1294.111 4290555848
-57.115597 828.73798 1295.645 4283510332
-54.735779 828.73798 1295.645 4283379003
-46.406422 828.73798 1295.645 4281671980
19.038532 828.73798 1295.645 4290095295
21.418348 828.73798 1295.645 4290227137
-54.524769 835.8327 1295.0869 4286468714
-52.154129 835.8327 1295.0869 4287193197
-49.783485 835.8327 1295.0869 4288114299
-46.227524 835.8327 1295.0869 4288510592
-35.559631 836.73889 1295.851 4291078580
7.1119266 834.92651 1294.3229 4290293693
10.667891 834.92651 1294.3229 4290096841
18.965137 834.92651 1294.3229 4290425030
21.335779 834.92651 1294.3229 4290359237
-40.144955 842.89233 1294.4993 4287857794
-34.241287 842.89233 1294.4993 4288117900
-30.699083 842.89233 1294.4993 4288249218
-28.337614 842.89233 1294.4993 4287987345
-25.976147 842.89233 1294.4993 4288645018
-22.433945 842.89233 1294.4993 4289567374
2.3614678 842.89233 1294.4993 4290097345
4.7229357 842.89233 1294.4993 4290292928
7.0844035 842.89233 1294.4993 4290490051
10.626606 842.89233 1294.4993 4290555846
18.891743 842.89233 1294.4993 4290425028
21.25321 842.89233 1294.4993 4290425028
16.466055 849.01776 1293.1239 4290490051
-44.322937 760.48376 1296.9562 4280360495
-40.629356 760.48376 1296.9562 4281476162
-36.93578 760.48376 1296.9562 4288776116
12.311927 760.48376 1296.9562 4291082190
-46.78532 762.36627 1298.5435 4280950054
-52.546791 775.29034 1296.3604 4284307536
-48.880733 775.29034 1296.3604 4286538861
-46.436699 775.29034 1296.3604 4286999412
-52.546791 777.15887 1297.9358 4283716424
-48.880733 777.15887 1297.9358 4285027691
-46.436699 777.15887 1297.9358 4286869895
-51.132111 784.50256 1297.5878 4284495918
-48.697247 784.50256 1297.5878 4284890179
-46.262386 784.50256 1297.5878 4286271833
-43.827522 783.57184 1296.803 4285223004
-41.392662 783.57184 1296.803 4281801767
-55.748623 793.26868 1297.131 4284166200
-53.324772 793.26868 1297.131 4285279282
-43.629356 793.26868 1297.131 4285021258
-41.205505 793.26868 1297.131 4282718246
9.6954126 793.26868 1297.131 4291345110
12.927218 792.95978 1296.8706 4291345366
16.966972 792.34216 1296.3497 4291280085
-55.537613 800.53528 1296.7178 4285215549
-53.122936 800.53528 1296.7178 4285739311
-43.464222 800.53528 1296.7178 4284884547
-41.049541 800.53528 1296.7178 4283568687
9.6587152 800.53528 1296.7178 4290819788
13.280734 800.53528 1296.7178 4290951118
16.902752 800.53528 1296.7178 4291016912
19.31743 800.53528 1296.7178 4290886096
-55.537613 802.38135 1298.2743 4285215549
-53.122936 802.38135 1298.2743 4285149753
-43.464222 802.38135 1298.2743 4285932612
16.902752 802.38135 1298.2743 4290885581
19.31743 802.38135 1298.2743 4291016910
21.732111 802.38135 1298.2743 4291016910
24.14679 802.38135 1298.2743 4291016910
-43.299084 808.68622 1297.0503 4285279293
-40.893578 808.68622 1297.0503 4285674051
-43.299084 810.52527 1298.601 4281607734
-52.719265 818.62714 1298.8921 4283386434
-50.322937 818.62714 1298.8921 4283846985
-46.329052 818.01654 1298.3772 4282267458
-43.133945 816.79517 1297.3474 4281740617
19.170643 818.62714 1298.8921 4290555848
-52.517429 824.862 1297.609 4285226362
-50.130276 824.862 1297.609 4283910502
-45.355965 824.862 1297.609 4282594883
-42.968807 823.03699 1296.0702 4282462541
19.097248 823.94946 1296.8396 4290358468
21.484404 823.03699 1296.0702 4290687688
-57.115597 830.55737 1297.1791 4283441716
-54.735779 830.55737 1297.1791 4283441716
-52.355965 830.55737 1297.1791 4283441716
-49.976147 830.55737 1297.1791 4283441716
19.038532 830.55737 1297.1791 4290292678
-57.115597 832.37677 1298.7131 4285544782
-49.783485 838.55127 1297.3792 4288975768
-46.227524 838.55127 1297.3792 4288843929
-42.671558 838.55127 1297.3792 4289041562
-54.524769 840.36365 1298.9072 4289304736
-52.154129 840.36365 1298.9072 4289173150
-49.783485 840.36365 1298.9072 4289107357
-46.227524 840.36365 1298.9072 4288910494
-42.671558 840.36365 1298.9072 4288910225
-37.930275 840.36365 1298.9072 4288183704
23.706423 840.36365 1298.9072 4290359235
-47.229359 844.69769 1296.0215 4288582044
-43.687157 844.69769 1296.0215 4288844445
-40.144955 844.69769 1296.0215 4288252048
-37.783485 844.69769 1296.0215 4288380050
-34.241287 844.69769 1296.0215 4287983996
-30.699083 844.69769 1296.0215 4288574837
-28.337614 844.69769 1296.0215 4287723403
-25.976147 844.69769 1296.0215 4288249747
-22.433945 844.69769 1296.0215 4287922563
-18.891743 844.69769 1296.0215 4287594132
2.3614678 844.69769 1296.0215 4289966277
4.7229357 844.69769 1296.0215 4290227648
7.0844035 844.69769 1296.0215 4290425028
10.626606 844.69769 1296.0215 4290359750
14.168807 844.69769 1296.0215 4290425028
18.891743 844.69769 1296.0215 4290556100
21.25321 844.69769 1296.0215 4290556100
-49.590824 846.50305 1297.5438 4288778905
-47.229359 846.50305 1297.5438 4288581792
-43.687157 846.50305 1297.5438 4289108129
-40.144955 846.50305 1297.5438 4288450193
-37.783485 846.50305 1297.5438 4288775571
-34.241287 846.50305 1297.5438 4287721589
-30.699083 846.50305 1297.5438 4288444273
-18.891743 846.50305 1297.5438 4287397518
-16.530275 846.50305 1297.5438 4287463311
-14.168807 846.50305 1297.5438 4287857313
-10.626606 846.50305 1297.5438 4288647319
-7.0844035 846.50305 1297.5438 4289502863
-4.7229357 846.50305 1297.5438 4288976552
-2.3614678 846.50305 1297.5438 4289963447
0 846.50305 1297.5438 4290161853
11.80734 846.50305 1297.5438 4290490051
14.168807 846.50305 1297.5438 4290490051
18.891743 846.50305 1297.5438 4290490051
21.25321 846.50305 1297.5438 4290556100
-46.959633 755.86212 1299.5995 4280296253
-46.959633 757.75165 1301.1926 4280689463
-46.78532 764.24878 1300.1307 4281738539
-49.247707 766.13135 1301.718 4287133565
-46.78532 766.13135 1301.718 4283383364
-49.06422 770.71783 1299.0452 4287134596
-52.546791 779.02734 1299.5114 4284698445
-51.132111 787.2948 1299.942 4284431162
-48.697247 787.2948 1299.942 4285221441
-46.262386 787.2948 1299.942 4285681991
-51.132111 789.15625 1301.5116 4285543748
-48.697247 789.15625 1301.5116 4286728760
-46.262386 789.15625 1301.5116 4287320898
-48.477066 797.90137 1301.0371 4286393170
-46.053211 796.97485 1300.2559 4287315291
13.331193 796.04828 1299.4746 4290885076
16.966972 796.04828 1299.4746 4291082455
21.814678 797.90137 1301.0371 4291083475
24.238533 797.90137 1301.0371 4291476950
-57.952293 805.15039 1300.6091 4284954688
-55.537613 805.15039 1300.6091 4284691002
-53.122936 805.15039 1300.6091 4284099896
-43.464222 804.22736 1299.8308 4287180096
19.31743 804.22736 1299.8308 4290820299
-55.326607 812.36426 1300.1516 4282789174
-52.921101 812.36426 1300.1516 4282722604
-48.110092 812.36426 1300.1516 4282395714
-45.704586 812.36426 1300.1516 4282000957
-55.326607 814.20331 1301.7021 4282395703
-52.921101 814.20331 1301.7021 4282265389
-49.312843 814.20331 1301.7021 4282858562
-55.115597 820.45917 1300.4368 4284766559
-52.719265 820.45917 1300.4368 4285294202
-50.322937 820.45917 1300.4368 4283649634
-46.728439 820.45917 1300.4368 4282201670
-52.517429 826.68701 1299.1478 4282855252
-50.130276 826.68701 1299.1478 4282460495
-57.115597 835.10583 1301.0142 4287658121
-54.735779 836.0155 1301.7812 4288975515
-52.355965 836.0155 1301.7812 4289107355
-54.524769 842.17603 1300.4354 4289042593
-52.154129 842.17603 1300.4354 4288713885
-49.783485 842.17603 1300.4354 4288647835
23.706423 842.17603 1300.4354 4290425028
-59.266056 843.9884 1301.9636 4288122775
-55.710091 843.9884 1301.9636 4289042079
-52.154129 843.9884 1301.9636 4288976541
-28.447706 843.9884 1301.9636 4288314520
-26.077065 843.9884 1301.9636 4289235622
-22.521101 843.9884 1301.9636 4288054156
2.3706422 843.9884 1301.9636 4290293439
4.7412844 843.9884 1301.9636 4290227646
7.1119266 843.9884 1301.9636 4290227646
9.4825687 843.9884 1301.9636 4290424257
23.706423 843.9884 1301.9636 4290425028
-56.675228 848.30841 1299.066 4286540401
-49.590824 848.30841 1299.066 4288976037
-47.229359 848.30841 1299.066 4288188831
-43.687157 848.30841 1299.066 4288977833
-40.144955 848.30841 1299.066 4288319390
-37.783485 848.30841 1299.066 4288907412
-34.241287 848.30841 1299.066 4288248449
-16.530275 848.30841 1299.066 4288056480
-14.168807 848.30841 1299.066 4288254374
-10.626606 848.30841 1299.066 4287332491
-7.0844035 848.30841 1299.066 4287265916
-4.7229357 848.30841 1299.066 4288578964
-2.3614678 848.30841 1299.066 4290355119
0 848.30841 1299.066 4290489539
11.80734 848.30841 1299.066 4290686916
14.168807 848.30841 1299.066 4290490305
16.530275 848.30841 1299.066 4290490305
-56.675228 850.11377 1300.5883 4283980393
-49.590824 850.11377 1300.5883 4289044142
-47.229359 850.11377 1300.5883 4288977567
-44.867889 850.11377 1300.5883 4289043360
-49.431194 760.58594 1303.5825 4283976016
-54.172478 768.01379 1303.3053 4283321684
-51.710091 768.01379 1303.3053 4286413699
-51.132111 791.0177 1303.0812 4287712584
-48.697247 791.0177 1303.0812 4287845465
-46.262386 791.0177 1303.0812 4287911515
14.609175 791.0177 1303.0812 4291346134
17.044037 791.0177 1303.0812 4291214291
19.478899 791.0177 1303.0812 4290689231
21.913761 791.0177 1303.0812 4290886609
-51.132111 792.87921 1304.6508 4287712584
-48.697247 792.87921 1304.6508 4288040032
19.478899 792.87921 1304.6508 4290885842
21.913761 792.87921 1304.6508 4291214807
24.348623 792.87921 1304.6508 4291477463
-58.172478 799.75439 1302.5996 4285281342
-49.688992 799.75439 1302.5996 4285607234
-46.053211 799.75439 1302.5996 4286130507
-49.688992 801.60742 1304.162 4285214783
-46.053211 801.60742 1304.162 4286198858
-57.952293 807.91943 1302.9438 4283907657
-55.537613 807.91943 1302.9438 4283513155
-53.122936 807.91943 1302.9438 4283446329
-50.708256 809.7655 1304.5005 4282788653
-45.878899 807.91943 1302.9438 4282326830
-55.326607 816.04236 1303.2528 4283054664
-59.678898 830.33698 1302.2253 4284033578
-59.678898 832.16199 1303.7642 4286471012
-57.908871 838.44141 1303.8267 4289107618
-61.636696 845.80078 1303.4917 4286413189
-59.266056 845.80078 1303.4917 4285820796
-54.524769 845.80078 1303.4917 4288843156
-52.154129 845.80078 1303.4917 4288976037
-30.818348 845.80078 1303.4917 4288708224
-28.447706 845.80078 1303.4917 4288511631
-26.077065 845.80078 1303.4917 4289235611
-22.521101 845.80078 1303.4917 4288580758
-18.965137 845.80078 1303.4917 4287793307
2.3706422 845.80078 1303.4917 4290489539
4.7412844 845.80078 1303.4917 4290227133
7.1119266 845.80078 1303.4917 4290161340
9.4825687 845.80078 1303.4917 4290357951
18.965137 845.80078 1303.4917 4290359487
22.521101 845.80078 1303.4917 4290556610
26.077065 845.80078 1303.4917 4290556611
-52.133945 756.37109 1307.8767 4282727496
-51.902752 763.42023 1305.9723 4287332000
-51.132111 794.74066 1306.2202 4285871153
-49.688992 803.46051 1305.7245 4284429377
-46.053211 803.46051 1305.7245 4284560194
-49.688992 805.3136 1307.2869 4282787891
-61.636696 847.61316 1305.0199 4284309887
-59.266056 847.61316 1305.0199 4283718007
-54.524769 847.61316 1305.0199 4286941078
-52.154129 847.61316 1305.0199 4288385955
-42.671558 847.61316 1305.0199 4289370795
-40.300919 847.61316 1305.0199 4288515486
-37.930275 847.61316 1305.0199 4288447878
-34.374313 847.61316 1305.0199 4287986564
-30.818348 847.61316 1305.0199 4288973209
-18.965137 847.61316 1305.0199 4287728030
-16.594496 847.61316 1305.0199 4288188581
-14.223853 847.61316 1305.0199 4288385446
-10.667891 847.61316 1305.0199 4287266446
-7.1119266 847.61316 1305.0199 4286805887
-4.7412844 847.61316 1305.0199 4287857817
-2.3706422 847.61316 1305.0199 4288910505
0 847.61316 1305.0199 4289831357
10.667891 847.61316 1305.0199 4290555332
14.223853 847.61316 1305.0199 4290424511
16.594496 847.61316 1305.0199 4290490305
18.965137 847.61316 1305.0199 4290425534
22.521101 847.61316 1305.0199 4290491072
26.077065 847.61316 1305.0199 4290425282
28.447706 847.61316 1305.0199 4290359235
-61.636696 849.42554 1306.5481 4283587180
-59.266056 849.42554 1306.5481 4282995300
-55.710091 849.42554 1306.5481 4282738776
-52.154129 849.42554 1306.5481 4286743193
-49.783485 849.42554 1306.5481 4287927723
-46.227524 849.42554 1306.5481 4288515231
-42.671558 849.42554 1306.5481 4288447646
-40.300919 849.42554 1306.5481 4288381597
-37.930275 849.42554 1306.5481 4288184971
-35.559631 849.42554 1306.5481 4288711316
-16.594496 849.42554 1306.5481 4288123801
-14.223853 849.42554 1306.5481 4288253604
-11.853211 849.42554 1306.5481 4287661724
-7.1119266 849.42554 1306.5481 4288187536
-4.7412844 849.42554 1306.5481 4288451237
-2.3706422 849.42554 1306.5481 4288122529
0 849.42554 1306.5481 4288646313
14.223853 849.42554 1306.5481 4289964479
16.594496 849.42554 1306.5481 4290227650
28.447706 849.42554 1306.5481 4290161601
-52.133945 758.26904 1309.4771 4287000198
21.649542 823.39844 1309.4553 4290161092
-59.908257 831.45123 1309.7051 4288582544
-28.557798 845.11249 1309.4515 4288447122
-26.177982 845.11249 1309.4515 4288776344
-22.608257 845.11249 1309.4515 4288384404
2.3798165 845.11249 1309.4515 4290686666
4.7596331 845.11249 1309.4515 4290358205
7.1394496 845.11249 1309.4515 4290226363
-33.317432 846.93188 1310.9856 4288713112
-30.937614 846.93188 1310.9856 4288647319
-28.557798 846.93188 1310.9856 4287858069
-26.177982 846.93188 1310.9856 4288187034
-22.608257 846.93188 1310.9856 4287794324
-19.038532 846.93188 1310.9856 4287202699
-9.5192661 846.93188 1310.9856 4287661192
2.3798165 846.93188 1310.9856 4290357188
4.7596331 846.93188 1310.9856 4290554560
7.1394496 846.93188 1310.9856 4290554560
10.709174 846.93188 1310.9856 4290227648
19.038532 846.93188 1310.9856 4290556611
22.608257 846.93188 1310.9856 4290227392
26.177982 846.93188 1310.9856 4290227137
-7.1119266 851.23792 1308.0762 4289305765
-62.304588 835.1153 1312.7944 4288384413
-59.908257 835.1153 1312.7944 4288844964
-45.216515 848.75128 1312.5198 4288119447
-42.836697 848.75128 1312.5198 4288381329
-40.456882 848.75128 1312.5198 4288447122
-38.077065 848.75128 1312.5198 4288448146
-35.697247 848.75128 1312.5198 4289171613
-30.937614 848.75128 1312.5198 4288844948
-19.038532 848.75128 1312.5198 4287991442
-16.658716 848.75128 1312.5198 4288846495
-14.278899 848.75128 1312.5198 4288516251
-10.709174 848.75128 1312.5198 4287924113
-4.7596331 848.75128 1312.5198 4288911788
-2.3798165 848.75128 1312.5198 4288385444
0 848.75128 1312.5198 4288449954
4.7596331 848.75128 1312.5198 4290161088
7.1394496 848.75128 1312.5198 4289766586
10.709174 848.75128 1312.5198 4290029499
14.278899 848.75128 1312.5198 4290161088
16.658716 848.75128 1312.5198 4290029502
19.038532 848.75128 1312.5198 4290161088
22.608257 848.75128 1312.5198 4290292677
26.177982 848.75128 1312.5198 4290226631
28.557798 848.75128 1312.5198 4290227650
-54.818348 757.45593 1315.3315 4284502901
-62.304588 836.94727 1314.3391 4287991188
-52.517429 846.76196 1316.0745 4287201175
-50.130276 846.76196 1316.0745 4288122277
-47.743118 846.76196 1316.0745 4288645791
-33.420185 846.76196 1316.0745 4288779155
-28.645872 846.76196 1316.0745 4288515747
-26.258715 846.76196 1316.0745 4288384161
-22.677982 846.76196 1316.0745 4287925145
2.387156 846.76196 1316.0745 4290028986
-19.038532 850.57068 1314.0537 4288582296
-16.658716 850.57068 1314.0537 4289042847
-14.278899 850.57068 1314.0537 4288647585
-11.899082 850.57068 1314.0537 4288252828
-7.1394496 850.57068 1314.0537 4288648089
-4.7596331 850.57068 1314.0537 4288253604
-2.3798165 850.57068 1314.0537 4287990688
0 850.57068 1314.0537 4287858069
23.798164 850.57068 1314.0537 4290292928
26.177982 850.57068 1314.0537 4290556100
28.557798 850.57068 1314.0537 4290292928
-46.549541 848.58698 1317.6133 4288513180
-42.968807 848.58698 1317.6133 4288776596
-40.58165 848.58698 1317.6133 4288776596
-35.807339 848.58698 1317.6133 4288644755
-22.677982 848.58698 1317.6133 4288056984
-9.548624 848.58698 1317.6133 4288121745
2.387156 848.58698 1317.6133 4289042343
4.774312 848.58698 1317.6133 4288912304
7.161468 848.58698 1317.6133 4288385959
10.742202 848.58698 1317.6133 4288582317
14.322936 848.58698 1317.6133 4290619322
16.710093 848.58698 1317.6133 4290751164
19.097248 848.58698 1317.6133 4290423746
21.484404 848.58698 1317.6133 4290752711
-19.097248 850.41199 1319.1521 4288254358
-16.710093 850.41199 1319.1521 4288517787
-7.161468 850.41199 1319.1521 4288518300
-2.387156 850.41199 1319.1521 4287925145
0 850.41199 1319.1521 4287989907
7.161468 850.41199 1319.1521 4288912040
9.548624 850.41199 1319.1521 4288779698
16.710093 850.41199 1319.1521 4290030505
23.871559 850.41199 1319.1521 4290752196
26.258715 850.41199 1319.1521 4291015111
28.645872 850.41199 1319.1521 4290752194
-57.511925 844.27539 1320.5181 4284636527
-55.115597 844.27539 1320.5181 4286741902
-58.710091 846.10736 1322.0627 4288053906
-55.115597 846.10736 1322.0627 4288250249
-52.719265 846.10736 1322.0627 4288052116
-50.322937 846.10736 1322.0627 4288446874
-38.341286 846.10736 1322.0627 4288710548
-33.548622 846.10736 1322.0627 4288382866
-31.152294 846.10736 1322.0627 4288646039
-28.755962 846.10736 1322.0627 4288253854
-26.359632 846.10736 1322.0627 4288122525
-16.710093 852.237 1320.6909 4286807943
28.645872 852.237 1320.6909 4290486959
-64.948624 841.78876 1324.9615 4285688949
-61.340366 841.78876 1324.9615 4284636794
-50.322937 847.93939 1323.6074 4288183704
-46.728439 847.93939 1323.6074 4288580500
-43.133945 847.93939 1323.6074 4288580498
-40.737614 847.93939 1323.6074 4289041048
-38.341286 847.93939 1323.6074 4288448148
-34.746788 847.93939 1323.6074 4288251026
-22.765137 847.93939 1323.6074 4288057236
-14.377981 847.93939 1323.6074 4288254880
-10.783486 847.93939 1323.6074 4288517792
-4.7926607 847.93939 1323.6074 4288517283
2.3963304 847.93939 1323.6074 4288911009
4.7926607 847.93939 1323.6074 4288977834
11.981651 847.93939 1323.6074 4288713905
14.377981 847.93939 1323.6074 4289635748
19.170643 847.93939 1323.6074 4290227650
21.566973 847.93939 1323.6074 4290622152
-21.566973 849.77142 1325.1521 4287662737
-19.170643 849.77142 1325.1521 4287202701
-14.377981 849.77142 1325.1521 4286020478
-10.783486 849.77142 1325.1521 4288387999
-7.1889906 849.77142 1325.1521 4288912804
-4.7926607 849.77142 1325.1521 4288977834
-2.3963304 849.77142 1325.1521 4288253854
0 849.77142 1325.1521 4288187540
23.963303 849.77142 1325.1521 4288184986
26.359632 849.77142 1325.1521 4289106088
-64.948624 844.54724 1327.2875 4287661971
-61.741283 844.85376 1327.5459 4288185760
-57.732109 845.4668 1328.0627 4288577947
-55.326607 845.4668 1328.0627 4288380567
-52.921101 845.4668 1328.0627 4287920276
-31.271559 845.4668 1328.0627 4288448918
-28.866055 845.4668 1328.0627 4288057234
-26.46055 845.4668 1328.0627 4288057234
-19.170643 851.60339 1326.6968 4287465107
-16.774311 851.60339 1326.6968 4287136143
-14.377981 851.60339 1326.6968 4286940288
-11.981651 851.60339 1326.6968 4288387734
26.359632 851.60339 1326.6968 4288580257
-57.732109 847.30579 1329.6134 4288249999
-55.326607 847.30579 1329.6134 4288118413
-52.921101 847.30579 1329.6134 4287592319
-49.312843 847.30579 1329.6134 4288580242
-45.704586 847.30579 1329.6134 4288318354
-43.299084 847.30579 1329.6134 4287922315
-40.893578 847.30579 1329.6134 4288317073
-37.285324 847.30579 1329.6134 4288053902
-33.677063 847.30579 1329.6134 4288187540
-31.271559 847.30579 1329.6134 4288055698
-28.866055 847.30579 1329.6134 4287990409
-25.257797 847.30579 1329.6134 4288056977
2.4055047 847.30579 1329.6134 4289963695
4.8110094 847.30579 1329.6134 4289899199
7.2165136 847.30579 1329.6134 4289702076
9.6220188 847.30579 1329.6134 4289701052
13.230275 847.30579 1329.6134 4288978611
16.838531 847.30579 1329.6134 4287532447
19.244038 847.30579 1329.6134 4287333274
21.649542 847.30579 1329.6134 4287267481
-52.921101 849.14484 1331.1641 4287790212
-49.312843 849.14484 1331.1641 4288449168
-45.704586 849.14484 1331.1641 4288318352
-43.299084 849.14484 1331.1641 4288448661
-40.893578 849.14484 1331.1641 4288382612
-37.285324 849.14484 1331.1641 4288054413
-33.677063 849.14484 1331.1641 4288055698
-31.271559 849.14484 1331.1641 4287989905
-24.055046 849.14484 1331.1641 4287662224
-21.649542 849.14484 1331.1641 4287596431
-9.6220188 849.14484 1331.1641 4288912038
-7.2165136 849.14484 1331.1641 4289241003
-4.8110094 849.14484 1331.1641 4288912288
-2.4055047 849.14484 1331.1641 4288057236
0 849.14484 1331.1641 4288253856
7.2165136 849.14484 1331.1641 4289766847
9.6220188 849.14484 1331.1641 4289570234
13.230275 849.14484 1331.1641 4289439160
16.838531 849.14484 1331.1641 4287860384
19.244038 849.14484 1331.1641 4287201940
21.649542 849.14484 1331.1641 4286280838
24.055046 849.14484 1331.1641 4287198604
-61.57431 844.84027 1334.0746 4288711845
-48.110092 850.98389 1332.7146 4287397514
-36.082569 850.98389 1332.7146 4288055700
-16.838531 850.98389 1332.7146 4287793555
-14.433027 850.98389 1332.7146 4287596431
-2.4055047 850.98389 1332.7146 4288319903
0 850.98389 1332.7146 4288977834
24.055046 850.98389 1332.7146 4287463059
-2.4055047 852.82288 1334.2653 4289043627
0 852.82288 1334.2653 4289372603
24.055046 852.82288 1334.2653 4287790502
-65.196327 846.68634 1335.6311 4288845984
-61.976757 847.3017 1336.1499 4288712354
-57.952293 846.68634 1335.6311 4287986575
-55.537613 847.60938 1336.4094 4288249747
-53.122936 848.53235 1337.1876 4288580248
-50.708256 848.53235 1337.1876 4288448661
-45.878899 848.53235 1337.1876 4288187286
-43.464222 848.53235 1337.1876 4288448918
-41.049541 848.53235 1337.1876 4288251796
-38.634861 848.53235 1337.1876 4288055700
-33.805504 848.53235 1337.1876 4288056984
-31.390825 848.53235 1337.1876 4287925397
-28.976147 846.68634 1335.6311 4287597186
-25.35413 847.60938 1336.4094 4287333766
-21.732111 848.53235 1337.1876 4287662226
-19.31743 848.53235 1337.1876 4287859348
-12.073395 848.53235 1337.1876 4288254360
-9.6587152 848.53235 1337.1876 4288253856
-7.2440367 848.53235 1337.1876 4288122527
-4.8293576 848.53235 1337.1876 4287990938
2.4146788 847.60938 1336.4094 4289767350
4.8293576 847.60938 1336.4094 4289832640
7.2440367 848.53235 1337.1876 4289832638
9.6587152 848.53235 1337.1876 4289307328
13.280734 848.53235 1337.1876 4289307580
16.902752 848.53235 1337.1876 4288320937
19.31743 848.53235 1337.1876 4288712610
21.732111 848.53235 1337.1876 4288252059
24.055046 854.66193 1335.8159 4288909219
-60.137615 856.50098 1337.3665 4288977582
-57.732109 856.50098 1337.3665 4288910503
-67.867889 842.37469 1338.5359 4288910503
-65.444038 842.37469 1338.5359 4288713381
-65.196327 850.37842 1338.7441 4289306294
-62.781651 850.37842 1338.7441 4288976552
-49.500916 850.37842 1338.7441 4287858329
-45.878899 850.37842 1338.7441 4288056984
-38.634861 850.37842 1338.7441 4287925404
2.4146788 850.37842 1338.7441 4289833154
4.8293576 850.37842 1338.7441 4289832890
7.2440367 850.37842 1338.7441 4290096062
9.6587152 850.37842 1338.7441 4289373125
13.280734 850.37842 1338.7441 4289241273
16.902752 850.37842 1338.7441 4288977836
19.31743 850.37842 1338.7441 4288450985
21.732111 850.37842 1338.7441 4288450985
-65.196327 852.22449 1340.3008 4288912822
-61.57431 852.22449 1340.3008 4288583593
-57.952293 852.22449 1340.3008 4288647589
-2.4146788 852.22449 1340.3008 4289634483
0 852.22449 1340.3008 4289963708
9.6587152 852.22449 1340.3008 4289241535
13.280734 852.22449 1340.3008 4289241271
16.902752 852.22449 1340.3008 4288714407
19.31743 852.22449 1340.3008 4288713129
21.732111 852.22449 1340.3008 4288647335
-60.137615 859.25952 1339.6924 4289107883
-57.732109 858.33997 1338.9171 4289108650
-60.596329 847.00732 1342.4419 4288712868
-58.172478 847.00732 1342.4419 4288842656
-55.748623 847.93384 1343.2231 4289172650
-53.324772 847.93384 1343.2231 4288383398
-43.629356 847.93384 1343.2231 4288252828
-41.205505 847.93384 1343.2231 4288121241
-36.3578 847.93384 1343.2231 4288057247
-33.933945 847.93384 1343.2231 4287072669
-31.510092 847.93384 1343.2231 4287006620
-29.086239 847.00732 1342.4419 4287662478
-25.854437 847.31616 1342.7023 4287728272
-21.814678 847.93384 1343.2231 4287925395
-19.390825 847.93384 1343.2231 4288253080
-16.966972 847.93384 1343.2231 4288450458
-13.331193 847.93384 1343.2231 4288057247
-9.6954126 847.93384 1343.2231 4287924895
-7.2715597 847.93384 1343.2231 4287858846
-4.8477063 847.93384 1343.2231 4288253854
-55.537613 854.0705 1341.8573 4287134348
9.6587152 854.0705 1341.8573 4289175991
13.280734 854.0705 1341.8573 4289110195
16.902752 854.0705 1341.8573 4288254626
19.31743 854.0705 1341.8573 4288646567
21.732111 854.0705 1341.8573 4288514982
24.14679 854.0705 1341.8573 4288909723
14.488073 855.91656 1343.4138 4288845995
16.902752 855.91656 1343.4138 4288385444
19.31743 855.91656 1343.4138 4288317593
-55.748623 849.78693 1344.7856 4287660438
-53.324772 850.7135 1345.5669 4287396245
-49.688988 850.7135 1345.5669 4287726492
-46.053211 850.7135 1345.5669 4288319909
-43.629356 850.7135 1345.5669 4288648356
