# .PCD v0.7 - Point Cloud Data file format
VERSION 0.7
FIELDS x y z rgb
SIZE 4 4 4 4
TYPE F F F U
COUNT 1 1 1 1
WIDTH 1156
HEIGHT 1
VIEWPOINT 0 0 0 1 0 0 0
POINTS 1156
DATA ascii
-7.2715597 779.37079 1285.4126 4291278553
-4.8477063 779.37079 1285.4126 4290820047
-2.4238532 779.37079 1285.4126 4291017682
0 779.37079 1285.4126 4291017680
7.2715597 779.37079 1285.4126 4291346647
9.6954126 779.37079 1285.4126 4291346897
-12.119267 781.22388 1286.9751 4287931819
-9.6954126 781.22388 1286.9751 4290622676
-7.2715597 781.22388 1286.9751 4291017178
-2.4238532 781.22388 1286.9751 4290951889
2.4238532 781.22388 1286.9751 4290886094
4.8477063 781.22388 1286.9751 4290951635
7.2715597 781.22388 1286.9751 4291214807
9.6954126 781.22388 1286.9751 4291018443
12.119267 781.22388 1286.9751 4291084492
14.488073 787.61298 1285.822 4290887125
-9.6220188 793.974 1284.6454 4285100173
-4.8110094 793.974 1284.6454 4291214807
-12.027523 795.81299 1286.196 4286541233
-9.6220188 795.81299 1286.196 4284372807
-7.2165136 795.81299 1286.196 4290952107
-4.8110094 795.81299 1286.196 4291346393
-2.4055047 795.81299 1286.196 4290885842
16.838531 795.81299 1286.196 4291082703
19.244038 795.81299 1286.196 4291214032
21.649542 795.81299 1286.196 4291148239
-14.377981 803.97107 1286.5344 4289758316
-10.783486 803.97107 1286.5344 4287459424
-7.1889906 803.97107 1286.5344 4289699994
-4.7926607 802.13904 1284.9897 4290952148
-2.3963304 803.97107 1286.5344 4291346647
-21.484404 811.17444 1286.0681 4289550674
-19.097248 810.26196 1285.2987 4289808721
-16.710093 811.17444 1286.0681 4292504950
-14.322936 810.26196 1285.2987 4290871930
-2.387156 811.17444 1286.0681 4291147230
-19.038532 817.82166 1286.4407 4289027166
-16.658716 817.82166 1286.4407 4288171857
-14.278899 816.91199 1285.6736 4291652472
-10.709174 816.91199 1285.6736 4290996843
-7.1394496 816.91199 1285.6736 4289749333
-4.7596331 816.91199 1285.6736 4288382647
-10.667891 824.05225 1285.1539 4288432718
-18.965137 825.86462 1286.6821 4287583313
-10.667891 825.86462 1286.6821 4287581017
-9.4458714 833.86554 1286.8882 4283716442
-4.7229357 833.86554 1286.8882 4284570482
-2.3614678 833.86554 1286.8882 4290162887
-2.3522935 840.026 1285.5424 4289439679
0 757.58936 1287.9755 4291213780
2.4532111 759.46484 1289.5569 4291082453
4.9064221 759.46484 1289.5569 4291017682
-12.220183 765.94794 1288.4832 4291345109
4.8880734 765.94794 1288.4832 4290821584
-9.7394495 772.40302 1287.3857 4290754004
-7.3045874 772.40302 1287.3857 4291017432
-4.8697248 772.40302 1287.3857 4290687434
-12.174312 774.26447 1288.9552 4289701332
-9.7394495 774.26447 1288.9552 4290753744
-7.3045874 774.26447 1288.9552 4291214295
-12.119267 783.0769 1288.5375 4288449902
-9.6954126 783.0769 1288.5375 4289177036
-7.2715597 783.0769 1288.5375 4290624482
-4.8477063 783.0769 1288.5375 4290885844
-2.4238532 783.0769 1288.5375 4290951637
2.4238532 783.0769 1288.5375 4290886609
4.8477063 783.0769 1288.5375 4290886096
7.2715597 783.0769 1288.5375 4291017682
9.6954126 783.0769 1288.5375 4290755278
12.119267 783.0769 1288.5375 4290952400
-12.878288 790.6897 1288.4161 4287594411
-7.2440367 791.30505 1288.9351 4290560736
-4.8293576 789.45898 1287.3785 4291017430
-2.4146788 790.38202 1288.1567 4290820050
13.683181 790.6897 1288.4161 4290886608
16.902752 791.30505 1288.9351 4290951889
-13.230275 797.65204 1287.7466 4289039306
-9.6220188 797.65204 1287.7466 4283585885
-7.2165136 797.65204 1287.7466 4289638841
-4.8110094 797.65204 1287.7466 4291280598
-2.4055047 797.65204 1287.7466 4291214805
19.244038 797.65204 1287.7466 4290820047
21.649542 797.65204 1287.7466 4290622924
-31.271559 799.49109 1289.2972 4286924364
-19.244038 799.49109 1289.2972 4288303179
-16.838531 799.49109 1289.2972 4290737520
-13.230275 799.49109 1289.2972 4289492639
-9.6220188 799.49109 1289.2972 4285621538
-7.2165136 799.49109 1289.2972 4290490221
-2.4055047 799.49109 1289.2972 4291083991
-21.566973 805.80304 1288.0791 4288368972
-19.170643 805.80304 1288.0791 4288433732
-16.774311 805.80304 1288.0791 4289815385
-2.3963304 805.80304 1288.0791 4290690012
-31.152294 807.63507 1289.6239 4288174949
-28.755962 807.63507 1289.6239 4288110413
-26.359632 807.63507 1289.6239 4287978571
-23.963303 807.63507 1289.6239 4289156435
0 807.63507 1289.6239 4290754002
-26.258715 815.73694 1289.915 4290608773
-22.280123 815.1286 1289.4021 4290541665
-19.097248 813.91199 1288.3762 4291062897
-16.710093 813.91199 1288.3762 4291918206
-2.387156 814.82446 1289.1456 4291475174
-22.211618 820.854 1288.9974 4288895057
-19.038532 820.55072 1288.7417 4289877588
-16.658716 820.55072 1288.7417 4289022279
-14.278899 820.55072 1288.7417 4289940062
-11.899082 819.64099 1287.9747 4291385716
-7.1394496 820.55072 1288.7417 4288632914
-4.7596331 820.55072 1288.7417 4288118690
-2.3798165 820.55072 1288.7417 4291605719
-18.965137 827.677 1288.2102 4284833110
-16.594496 827.677 1288.2102 4284306510
-14.223853 827.677 1288.2102 4285286484
-10.667891 827.677 1288.2102 4285547334
-7.1119266 827.677 1288.2102 4288308317
-4.7412844 827.677 1288.2102 4288248216
-2.3706422 827.677 1288.2102 4291932368
-18.965137 829.48938 1289.7384 4285162341
-16.594496 829.48938 1289.7384 4284109653
-14.223853 829.48938 1289.7384 4284500314
-10.667891 829.48938 1289.7384 4284433993
-7.1119266 829.48938 1289.7384 4286472791
-4.7412844 829.48938 1289.7384 4286213759
-2.3706422 829.48938 1289.7384 4290950856
-18.891743 835.6709 1288.4104 4288123040
-16.530275 835.6709 1288.4104 4287201938
-14.168807 835.6709 1288.4104 4287989405
-10.626606 835.6709 1288.4104 4286410632
-7.0844035 835.6709 1288.4104 4282923605
-4.7229357 835.6709 1288.4104 4283652210
-2.3614678 835.6709 1288.4104 4289507786
-25.976147 837.47626 1289.9326 4283573034
-22.433945 837.47626 1289.9326 4285088061
-18.891743 837.47626 1289.9326 4285490568
-16.530275 837.47626 1289.9326 4286345877
-14.168807 837.47626 1289.9326 4289370291
-10.626606 837.47626 1289.9326 4286870921
-7.0844035 837.47626 1289.9326 4282726983
-4.7229357 837.47626 1289.9326 4283781481
-14.113762 841.82434 1287.0586 4286868121
-9.409174 841.82434 1287.0586 4283452267
-7.056881 841.82434 1287.0586 4281873234
-4.704587 841.82434 1287.0586 4283124834
-2.3522935 841.82434 1287.0586 4288454068
-14.113762 843.62268 1288.575 4285418363
-10.585321 843.62268 1288.575 4282003026
-4.704587 843.62268 1288.575 4282202949
2.4623854 754.83624 1292.1943 4291016145
4.9247708 754.83624 1292.1943 4291017684
-13.492661 761.34033 1291.1383 4289500078
4.9064221 761.34033 1291.1383 4291018193
-17.172478 763.21582 1292.7196 4280820853
-14.719266 763.21582 1292.7196 4283844707
7.359633 763.21582 1292.7196 4291084500
9.8128443 763.21582 1292.7196 4290753740
-12.220183 767.81641 1290.0586 4290096589
-9.7761469 767.81641 1290.0586 4291608536
-19.552294 769.68494 1291.634 4280626522
-17.108257 769.68494 1291.634 4281152866
-13.442202 769.68494 1291.634 4285952664
-21.913761 776.12592 1290.5248 4290161118
-19.478899 776.12592 1290.5248 4288714925
-17.044037 776.12592 1290.5248 4281740867
-13.391743 776.12592 1290.5248 4285950072
-24.348623 777.98743 1292.0944 4290952643
-21.913761 777.98743 1292.0944 4291676109
-19.478899 777.98743 1292.0944 4290954186
-17.044037 777.98743 1292.0944 4282466888
-14.609175 777.98743 1292.0944 4280497210
-4.8697248 777.98743 1292.0944 4290754254
0 777.98743 1292.0944 4291017680
-13.331193 784.92993 1290.1 4286348189
-9.6954126 784.92993 1290.1 4287203010
-7.2715597 784.92993 1290.1 4290426867
-4.8477063 784.92993 1290.1 4291017430
-2.4238532 784.92993 1290.1 4290820051
1.2119266 784.92993 1290.1 4290951887
4.8477063 784.92993 1290.1 4291082707
7.2715597 784.92993 1290.1 4291148500
9.6954126 784.92993 1290.1 4290886609
12.119267 784.92993 1290.1 4290886609
-19.390825 786.78302 1291.6624 4287985851
-16.966972 786.78302 1291.6624 4290683363
-14.543119 786.78302 1291.6624 4290818002
-9.6954126 786.78302 1291.6624 4285956259
-7.2715597 786.78302 1291.6624 4290167012
1.2119266 786.78302 1291.6624 4290951889
4.8477063 786.78302 1291.6624 4291214291
7.2715597 786.78302 1291.6624 4291280085
9.6954126 786.78302 1291.6624 4291017680
12.119267 786.78302 1291.6624 4291017680
-36.220184 794.99713 1292.0481 4286466631
-33.805504 794.99713 1292.0481 4286727502
-31.390825 794.99713 1292.0481 4286266951
-28.976147 794.99713 1292.0481 4286790981
-25.35413 794.99713 1292.0481 4287582539
-21.732111 794.99713 1292.0481 4287913802
-19.31743 794.0741 1291.2698 4288179831
-16.902752 794.0741 1291.2698 4291337638
-14.488073 793.15112 1290.4916 4291804927
1.2073394 794.07416 1291.2699 4290688714
4.8293576 794.0741 1291.2698 4290490315
9.6587152 794.0741 1291.2698 4290886350
13.280734 794.0741 1291.2698 4290820301
16.902752 794.99713 1292.0481 4290886094
-36.082569 803.16913 1292.3984 4286991174
-33.677063 802.24963 1291.6232 4286990412
-31.271559 802.24963 1291.6232 4287845464
-28.866055 802.24963 1291.6232 4288373590
-25.257797 802.24963 1291.6232 4288305745
-21.649542 801.33008 1290.8479 4288172874
-19.244038 801.33008 1290.8479 4288302666
-16.838531 801.33008 1290.8479 4289881441
0.80183488 802.55615 1291.8816 4290754253
4.8110094 803.16913 1292.3984 4290820047
19.244038 803.16913 1292.3984 4290819284
21.649542 802.24963 1291.6232 4290753492
24.055046 802.24963 1291.6232 4290754255
-33.548622 809.46704 1291.1686 4286463813
-31.152294 809.46704 1291.1686 4286858570
-28.755962 809.46704 1291.1686 4287121215
-26.359632 809.46704 1291.1686 4288239953
-23.963303 809.46704 1291.1686 4289813840
1.1981652 809.46704 1291.1686 4290688463
23.963303 809.46704 1291.1686 4291082190
-34.746788 811.29907 1292.7133 4287192931
-31.152294 811.29907 1292.7133 4287454294
-28.755962 811.29907 1292.7133 4288897376
-26.359632 811.29907 1292.7133 4289555307
-23.963303 811.29907 1292.7133 4290671443
1.1981652 811.29907 1292.7133 4290755791
4.7926607 811.29907 1292.7133 4290623436
-26.258715 817.56201 1291.4539 4288898171
-23.871559 817.56201 1291.4539 4289817170
2.387156 817.56201 1291.4539 4290491084
-28.645872 819.38696 1292.9927 4286132555
-26.258715 819.38696 1292.9927 4287448159
2.387156 819.38696 1292.9927 4290753227
-22.608257 823.27979 1291.0428 4286599516
-16.658716 823.27979 1291.0428 4287254348
-14.278899 823.27979 1291.0428 4287842906
-7.1394496 823.27979 1291.0428 4288503915
-4.7596331 823.27979 1291.0428 4288183718
-2.3798165 823.27979 1291.0428 4292065505
-26.177982 825.09918 1292.5769 4284306514
-22.608257 825.09918 1292.5769 4284438364
-26.077065 833.11414 1292.7947 4286665552
-22.125994 832.51001 1292.2853 4288247164
-18.965137 831.30176 1291.2666 4287271324
-16.594496 831.30176 1291.2666 4285758085
-14.223853 831.30176 1291.2666 4285490298
-11.853211 831.30176 1291.2666 4285424505
-7.1119266 831.30176 1291.2666 4282795340
0 833.11414 1292.7947 4290689485
-25.976147 839.28162 1291.4548 4285211715
-22.433945 839.28162 1291.4548 4287247455
-18.891743 839.28162 1291.4548 4286797434
-16.530275 839.28162 1291.4548 4286731641
-11.80734 839.28162 1291.4548 4287131294
-30.699083 841.08698 1292.9771 4289891742
-25.976147 841.08698 1292.9771 4291334059
-22.433945 841.08698 1292.9771 4291923868
-18.891743 841.08698 1292.9771 4289032084
-16.530275 841.08698 1292.9771 4287518844
-7.0844035 841.08698 1292.9771 4280232257
-2.3614678 841.08698 1292.9771 4287926940
-16.466055 845.42102 1290.0913 4289560226
-14.113762 845.42102 1290.0913 4286533274
-10.585321 845.42102 1290.0913 4284299367
-2.3522935 845.42102 1290.0913 4287987616
-16.466055 847.21942 1291.6075 4290552250
-14.113762 847.21942 1291.6075 4291997372
-11.761468 847.21942 1291.6075 4291931579
-19.699083 757.66003 1294.5752 4287133617
-17.236698 758.60126 1295.3689 4284437138
-13.543119 756.71875 1293.7816 4290222268
-7.387156 756.71875 1293.7816 4291474899
7.387156 757.66003 1294.5752 4291083731
9.8495417 758.60126 1295.3689 4291148500
-25.349848 766.34161 1295.3552 4287857340
-22.078899 766.9668 1295.8823 4284831873
-19.625689 765.09131 1294.301 4281216124
-17.172478 765.09131 1294.301 4281019002
-14.719266 765.09131 1294.301 4282728030
9.8128443 765.09131 1294.301 4291148498
-25.255045 772.79907 1294.2598 4290096596
-21.99633 771.55341 1293.2095 4287987647
-19.552294 771.55341 1293.2095 4283979615
-17.108257 771.55341 1293.2095 4280821294
-14.66422 771.55341 1293.2095 4282727274
-24.348623 779.84888 1293.6639 4290232277
-21.913761 779.84888 1293.6639 4290429657
-19.478899 779.84888 1293.6639 4291347692
-17.044037 779.84888 1293.6639 4285821080
-14.609175 779.84888 1293.6639 4285094459
0 779.84888 1293.6639 4290886609
-25.566055 781.71033 1295.2334 4290753493
-21.913761 781.71033 1295.2334 4288190382
-19.478899 781.71033 1295.2334 4288911829
-17.044037 781.71033 1295.2334 4288846036
-25.450459 788.63611 1293.2249 4289697436
-21.814678 788.63611 1293.2249 4289172659
-19.390825 788.63611 1293.2249 4288446400
-16.966972 788.63611 1293.2249 4290486239
1.2119266 788.63611 1293.2249 4290820301
4.8477063 788.63611 1293.2249 4290820047
7.2715597 788.63611 1293.2249 4291083475
9.6954126 788.63611 1293.2249 4290952400
-37.569725 790.48914 1294.7874 4286070326
-33.933945 790.48914 1294.7874 4286201910
-31.510092 790.48914 1294.7874 4286399546
-29.086239 790.48914 1294.7874 4286136137
-25.450459 790.48914 1294.7874 4286993507
-21.814678 790.48914 1294.7874 4287785083
7.2715597 790.48914 1294.7874 4291016660
-37.427521 796.8432 1293.6047 4286664010
-33.805504 796.8432 1293.6047 4287187792
-28.976147 796.8432 1293.6047 4288038724
-25.35413 796.8432 1293.6047 4289357147
-21.732111 796.8432 1293.6047 4287517507
1.2073394 796.8432 1293.6047 4290688461
4.8293576 796.8432 1293.6047 4290950354
7.2440367 796.8432 1293.6047 4290884560
9.6587152 796.8432 1293.6047 4290622406
13.280734 796.8432 1293.6047 4290820044
16.902752 796.8432 1293.6047 4290820301
19.31743 796.8432 1293.6047 4290623188
21.732111 796.8432 1293.6047 4290491601
-37.427521 798.68921 1295.1613 4286729542
2.4146788 798.68921 1295.1613 4290819788
4.8293576 798.68921 1295.1613 4290885077
7.2440367 798.68921 1295.1613 4290753490
9.6587152 798.68921 1295.1613 4290557383
13.280734 798.68921 1295.1613 4290754252
16.902752 798.68921 1295.1613 4290819534
19.31743 798.68921 1295.1613 4290885079
-36.884403 806.23419 1294.9828 4286598220
-33.677063 805.00818 1293.9491 4286793296
2.4055047 805.00818 1293.9491 4290556879
4.8110094 805.92767 1294.7244 4290688972
7.2165136 806.84717 1295.4998 4290557642
9.6220188 806.84717 1295.4998 4290425032
14.433027 806.84717 1295.4998 4290491338
21.649542 805.92767 1294.7244 4290951632
24.055046 805.00818 1293.9491 4290885581
-34.746788 814.04712 1295.0303 4286735453
-31.152294 814.04712 1295.0303 4288444259
-28.755962 814.04712 1295.0303 4289885059
0.79877681 813.74176 1294.7728 4290688975
4.7926607 814.04712 1295.0303 4290425803
-26.258715 821.21198 1294.5314 4285879125
2.387156 821.21198 1294.5314 4290491590
-26.177982 826.91858 1294.111 4286142039
-22.608257 826.91858 1294.111 4285749601
1.1899083 826.91858 1294.111 4290689228
-26.177982 828.73798 1295.645 4287388247
-23.798164 828.73798 1295.645 4286470240
1.1899083 828.73798 1295.645 4290689233
-42.671558 836.73889 1295.851 4284097595
-40.300919 835.8327 1295.0869 4283705406
-37.930275 836.73889 1295.851 4284427339
-34.374313 836.73889 1295.851 4284625482
-30.818348 835.8327 1295.0869 4284034116
-28.447706 835.8327 1295.0869 4284688443
1.1853211 835.8327 1295.0869 4290688205
4.7412844 836.73889 1295.851 4291018182
7.1119266 836.73889 1295.851 4290820803
11.062997 836.13477 1295.3417 4290689226
14.223853 836.73889 1295.851 4290885579
18.965137 836.73889 1295.851 4290819534
21.335779 836.73889 1295.851 4291016912
-40.144955 842.89233 1294.4993 4289961380
-37.783485 842.89233 1294.4993 4290092714
-34.241287 842.89233 1294.4993 4290158766
-30.699083 842.89233 1294.4993 4290553270
-28.337614 842.89233 1294.4993 4290483640
-25.976147 842.89233 1294.4993 4290286518
-22.433945 842.89233 1294.4993 4290942897
-18.891743 842.89233 1294.4993 4290349742
-7.0844035 842.89233 1294.4993 4282329145
-4.7229357 842.89233 1294.4993 4282724432
-24.623854 760.48376 1296.9562 4278195261
-22.161469 760.48376 1296.9562 4279384418
-19.699083 760.48376 1296.9562 4282136713
-28.317432 762.36627 1298.5435 4287332302
-22.161469 762.36627 1298.5435 4280157529
-26.985321 768.84229 1297.4637 4290755778
-29.32844 775.29034 1296.3604 4289044907
-26.884403 775.29034 1296.3604 4290163388
-31.772476 777.15887 1297.9358 4289437883
-29.32844 777.15887 1297.9358 4290163668
-26.884403 777.15887 1297.9358 4290624219
-37.740364 785.43329 1298.3726 4284758343
-34.088074 785.43329 1298.3726 4286005562
-31.653212 784.50256 1297.5878 4289231236
-29.218349 784.50256 1297.5878 4289498514
-25.566055 783.57184 1296.803 4289238711
-21.913761 783.57184 1296.803 4287202729
-41.205505 793.26868 1297.131 4286400337
-38.781651 792.34216 1296.3497 4286335045
7.2715597 792.34216 1296.3497 4291016658
-38.634861 800.53528 1296.7178 4286728258
7.2440367 800.53528 1296.7178 4290754254
9.6587152 800.53528 1296.7178 4290623176
13.280734 800.53528 1296.7178 4290688458
16.902752 800.53528 1296.7178 4291016912
-41.049541 802.38135 1298.2743 4285350197
-38.634861 802.38135 1298.2743 4286400059
7.2440367 802.38135 1298.2743 4290754508
9.6587152 802.38135 1298.2743 4290687947
13.280734 802.38135 1298.2743 4290687693
16.902752 802.38135 1298.2743 4291148246
19.31743 802.38135 1298.2743 4290885583
-38.488075 808.68622 1297.0503 4287326069
7.2165136 808.68622 1297.0503 4290491849
9.6220188 808.68622 1297.0503 4290623176
14.433027 808.68622 1297.0503 4290754506
21.649542 808.68622 1297.0503 4290886096
24.055046 808.68622 1297.0503 4291016910
-40.893578 810.52527 1298.601 4286471537
-38.488075 810.52527 1298.601 4286605420
7.2165136 810.52527 1298.601 4290361035
9.6220188 810.52527 1298.601 4290753994
14.433027 810.52527 1298.601 4290687947
24.055046 810.52527 1298.601 4290951887
-50.322937 816.79517 1297.3474 4282068285
-46.329052 817.40582 1297.8623 4282594376
-43.133945 818.62714 1298.8921 4283713878
-40.737614 817.71118 1298.1198 4282924876
-38.341286 817.71118 1298.1198 4282793024
-34.746788 817.71118 1298.1198 4283317313
-31.152294 817.71118 1298.1198 4284565068
-28.755962 818.62714 1298.8921 4285550160
0 817.71118 1298.1198 4291017166
4.7926607 817.71118 1298.1198 4290818763
7.1889906 817.71118 1298.1198 4290752714
-47.743118 824.862 1297.609 4285289823
-42.968807 824.862 1297.609 4285619299
-40.58165 824.862 1297.609 4285026906
-38.194496 824.862 1297.609 4285488242
-34.613762 824.862 1297.609 4286210682
-31.033028 824.862 1297.609 4286538877
-28.645872 823.94946 1296.8396 4285092947
1.193578 823.03699 1296.0702 4290689230
4.774312 824.862 1297.609 4290687947
-42.836697 830.55737 1297.1791 4286145893
-40.456882 830.55737 1297.1791 4284500811
-34.507339 830.55737 1297.1791 4287262075
-30.937614 830.55737 1297.1791 4286011754
-28.557798 830.55737 1297.1791 4286402637
2.3798165 830.55737 1297.1791 4291083987
4.7596331 830.55737 1297.1791 4290754757
11.899082 830.55737 1297.1791 4290687949
-42.836697 832.37677 1298.7131 4283707718
-38.077065 832.37677 1298.7131 4283770440
-34.507339 832.37677 1298.7131 4283968076
4.7596331 832.37677 1298.7131 4290755528
7.1394496 832.37677 1298.7131 4290623941
9.5192661 832.37677 1298.7131 4290754508
14.278899 832.37677 1298.7131 4290820301
19.038532 832.37677 1298.7131 4290820301
21.418348 832.37677 1298.7131 4290820301
-42.671558 838.55127 1297.3792 4288904070
-40.300919 838.55127 1297.3792 4289298828
-37.930275 838.55127 1297.3792 4289562775
-34.374313 838.55127 1297.3792 4289826204
-28.447706 838.55127 1297.3792 4290807715
1.1853211 838.55127 1297.3792 4290228168
4.7412844 838.55127 1297.3792 4291017162
7.1119266 838.55127 1297.3792 4290885833
10.667891 838.55127 1297.3792 4290754508
14.223853 838.55127 1297.3792 4291016651
16.594496 838.55127 1297.3792 4291016651
18.965137 838.55127 1297.3792 4291015884
21.335779 838.55127 1297.3792 4291015884
-45.042202 840.36365 1298.9072 4289697700
-42.671558 840.36365 1298.9072 4289698209
1.1853211 840.36365 1298.9072 4289963724
4.7412844 840.36365 1298.9072 4291017164
7.1119266 840.36365 1298.9072 4290885579
10.667891 840.36365 1298.9072 4290688715
14.223853 840.36365 1298.9072 4291017162
16.594496 840.36365 1298.9072 4290820040
18.965137 840.36365 1298.9072 4290753740
21.335779 840.36365 1298.9072 4290753740
-40.144955 844.69769 1296.0215 4289699503
-37.783485 844.69769 1296.0215 4289437364
-34.241287 844.69769 1296.0215 4288648364
-30.699083 844.69769 1296.0215 4288254378
-28.337614 844.69769 1296.0215 4288514984
-25.976147 844.69769 1296.0215 4288646313
-22.433945 844.69769 1296.0215 4288647335
-18.891743 844.69769 1296.0215 4289697198
-9.4458714 844.69769 1296.0215 4290945464
-7.0844035 844.69769 1296.0215 4289037466
-4.7229357 844.69769 1296.0215 4285226610
-2.3614678 844.69769 1296.0215 4286279299
-40.144955 846.50305 1297.5438 4290027703
-37.783485 846.50305 1297.5438 4289632445
-34.241287 846.50305 1297.5438 4288646831
-30.699083 846.50305 1297.5438 4288450990
-28.337614 846.50305 1297.5438 4288582824
-25.976147 846.50305 1297.5438 4288714409
-22.433945 846.50305 1297.5438 4288515751
-18.891743 846.50305 1297.5438 4289368998
-16.530275 846.50305 1297.5438 4289960878
-14.168807 846.50305 1297.5438 4291078819
-10.626606 846.50305 1297.5438 4291341239
-7.0844035 846.50305 1297.5438 4290156213
-4.7229357 846.50305 1297.5438 4288247212
-2.3614678 846.50305 1297.5438 4286997146
-32.130276 755.86212 1299.5995 4278452254
-28.422935 755.86212 1299.5995 4279905843
-24.715597 755.86212 1299.5995 4284046436
-22.244038 755.86212 1299.5995 4286546570
-32.130276 757.75165 1301.1926 4287860132
-28.422935 757.75165 1301.1926 4284508564
-32.011009 764.24878 1300.1307 4286222248
-29.548624 764.24878 1300.1307 4287332273
-32.011009 766.13135 1301.718 4282534226
-29.548624 766.13135 1301.718 4286413439
-31.891743 770.71783 1299.0452 4285753223
-29.438532 770.71783 1299.0452 4286416520
-31.891743 772.59332 1300.6265 4286477168
-36.660549 779.02734 1299.5114 4289962162
-34.216515 779.02734 1299.5114 4290027453
-31.772476 779.02734 1299.5114 4291606741
-29.32844 779.02734 1299.5114 4291474912
-43.992661 780.89581 1301.0868 4285023814
-40.326607 780.89581 1301.0868 4285747548
-36.660549 780.89581 1301.0868 4286142572
-34.216515 780.89581 1301.0868 4287259520
-43.827522 787.2948 1299.942 4285745990
-41.392662 787.2948 1299.942 4285614148
-43.827522 789.15625 1301.5116 4285677129
-43.629356 796.04828 1299.4746 4286004808
-41.205505 796.97485 1300.2559 4286334025
-41.049541 805.15039 1300.6091 4286866800
12.073395 805.15039 1300.6091 4290820044
16.902752 805.15039 1300.6091 4290820045
19.31743 805.15039 1300.6091 4290754254
-48.110092 812.36426 1300.1516 4282918204
-43.299084 812.36426 1300.1516 4282789709
-40.893578 812.36426 1300.1516 4283710811
-38.488075 812.36426 1300.1516 4283974990
7.2165136 812.36426 1300.1516 4290622156
9.6220188 812.36426 1300.1516 4290687436
12.027523 812.36426 1300.1516 4290884558
-43.299084 814.20331 1301.7021 4282004289
9.6220188 814.20331 1301.7021 4290687434
13.230275 814.20331 1301.7021 4290687690
16.838531 814.20331 1301.7021 4291016912
19.244038 814.20331 1301.7021 4290756041
24.055046 814.20331 1301.7021 4290426828
-52.719265 820.45917 1300.4368 4283186250
-50.322937 820.45917 1300.4368 4284107352
-46.728439 820.45917 1300.4368 4284698974
-43.133945 820.45917 1300.4368 4284960863
-40.737614 820.45917 1300.4368 4285092449
-38.341286 820.45917 1300.4368 4284503907
-34.746788 820.45917 1300.4368 4284503907
-31.152294 820.45917 1300.4368 4284569700
4.7926607 820.45917 1300.4368 4290687947
7.1889906 820.45917 1300.4368 4290753740
9.5853214 820.45917 1300.4368 4290753994
-55.115597 822.2912 1301.9814 4282660686
-52.719265 822.2912 1301.9814 4283450970
-50.322937 822.2912 1301.9814 4284306279
-45.530273 822.2912 1301.9814 4285882216
7.1889906 822.2912 1301.9814 4291280085
10.783486 822.2912 1301.9814 4290753740
-50.130276 826.68701 1299.1478 4284832623
-45.355965 826.68701 1299.1478 4287131001
-42.968807 826.68701 1299.1478 4286279800
-40.58165 826.68701 1299.1478 4285227112
-38.194496 826.68701 1299.1478 4286408574
-34.613762 826.68701 1299.1478 4287986835
-31.033028 826.68701 1299.1478 4286669948
-28.645872 826.68701 1299.1478 4286993745
4.774312 826.68701 1299.1478 4290622406
7.161468 826.68701 1299.1478 4290688199
-57.291744 828.51196 1300.6866 4284897646
-54.904587 828.51196 1300.6866 4284831852
-52.517429 828.51196 1300.6866 4284702070
-50.130276 828.51196 1300.6866 4284438641
-46.549541 828.51196 1300.6866 4285686121
-38.194496 828.51196 1300.6866 4286209128
7.161468 828.51196 1300.6866 4290491586
9.548624 828.51196 1300.6866 4290687949
14.322936 828.51196 1300.6866 4290622924
19.097248 828.51196 1300.6866 4290754254
21.484404 828.51196 1300.6866 4290754254
-49.976147 836.0155 1301.7812 4289163394
-45.216515 836.0155 1301.7812 4288772745
16.658716 834.19617 1300.2472 4290885579
-46.227524 842.17603 1300.4354 4288384409
-42.671558 842.17603 1300.4354 4289238952
1.1853211 842.17603 1300.4354 4289831091
4.7412844 842.17603 1300.4354 4290951889
7.1119266 842.17603 1300.4354 4290820047
10.667891 842.17603 1300.4354 4290754004
14.223853 842.17603 1300.4354 4290951887
16.594496 842.17603 1300.4354 4290820301
18.965137 842.17603 1300.4354 4290623178
22.521101 842.17603 1300.4354 4290688715
-49.783485 843.9884 1301.9636 4288055437
-46.227524 843.9884 1301.9636 4288646804
-42.671558 843.9884 1301.9636 4289304236
1.1853211 843.9884 1301.9636 4289567418
4.7412844 843.9884 1301.9636 4290820051
7.1119266 843.9884 1301.9636 4290820051
10.667891 843.9884 1301.9636 4290884829
14.223853 843.9884 1301.9636 4290820301
16.594496 843.9884 1301.9636 4290820301
18.965137 843.9884 1301.9636 4290556879
22.521101 843.9884 1301.9636 4290754255
-40.144955 848.30841 1299.066 4287592848
-37.783485 848.30841 1299.066 4287592597
-34.241287 848.30841 1299.066 4287133839
-30.699083 848.30841 1299.066 4288319651
-28.337614 848.30841 1299.066 4288715179
-25.976147 848.30841 1299.066 4288715179
-22.433945 848.30841 1299.066 4289042093
-18.891743 848.30841 1299.066 4289042345
-16.530275 848.30841 1299.066 4288910503
-14.168807 848.30841 1299.066 4288515488
-4.7229357 848.30841 1299.066 4291011757
-2.3614678 848.30841 1299.066 4291011757
-14.168807 850.11377 1300.5883 4288975013
-11.80734 850.11377 1300.5883 4288251546
-42.840366 760.90088 1303.848 4284573313
-39.544952 760.58594 1303.5825 4285562249
-37.073395 760.58594 1303.5825 4288786105
-34.601833 760.58594 1303.5825 4288786376
-32.130276 759.64117 1302.7859 4289639886
-46.78532 769.89636 1304.8926 4286999664
-44.322937 768.95508 1304.0989 4285421683
-40.629356 768.95508 1304.0989 4285488470
-36.93578 768.95508 1304.0989 4288515687
-34.473396 768.95508 1304.0989 4287200908
-46.611008 776.34436 1303.7893 4287790214
-44.157799 776.34436 1303.7893 4287988097
-40.477982 775.40662 1302.9985 4288384400
-36.798164 774.46881 1302.2079 4287991940
-34.344955 774.46881 1302.2079 4287464092
-46.436699 782.76428 1302.6622 4285220164
-43.992661 782.76428 1302.6622 4285023285
-41.548622 782.76428 1302.6622 4284957491
-51.324772 784.63281 1304.2377 4284893243
-48.880733 784.63281 1304.2377 4285219910
-46.436699 784.63281 1304.2377 4285483082
-43.827522 791.0177 1303.0812 4285807686
-43.629356 801.60742 1304.162 4286470758
-43.464222 807.91943 1302.9438 4285550435
13.280734 808.84247 1303.7222 4290687948
16.902752 808.84247 1303.7222 4290951122
19.31743 808.84247 1303.7222 4290688970
21.732111 808.84247 1303.7222 4290820300
24.14679 809.7655 1304.5005 4290820047
-49.312843 816.04236 1303.2528 4283187276
9.6220188 816.04236 1303.2528 4290687947
13.230275 816.96191 1304.0282 4290885581
16.838531 816.96185 1304.0281 4290885838
19.244038 817.88135 1304.8035 4290819786
24.055046 816.04236 1303.2528 4290622926
-57.511925 824.12317 1303.5262 4284439397
-55.115597 824.12317 1303.5262 4284110433
-52.719265 824.12317 1303.5262 4284832623
-47.926605 824.12317 1303.5262 4285617761
10.783486 824.12317 1303.5262 4290623178
14.377981 824.12317 1303.5262 4290622924
16.774311 824.12317 1303.5262 4290557131
19.170643 824.12317 1303.5262 4290557131
21.566973 824.12317 1303.5262 4290754254
-54.904587 830.33698 1302.2253 4282793543
-52.517429 830.33698 1302.2253 4282004037
-50.130276 830.33698 1302.2253 4281609535
-46.549541 830.33698 1302.2253 4282463293
16.710093 830.33698 1302.2253 4290820301
-54.904587 832.16199 1303.7642 4283574831
-52.517429 832.16199 1303.7642 4283640115
-50.130276 832.16199 1303.7642 4283771444
-46.549541 832.16199 1303.7642 4283903293
-54.735779 839.6543 1304.8494 4289107103
-52.355965 838.74463 1304.0823 4288645006
-49.976147 838.74463 1304.0823 4288579213
-47.596329 837.8349 1303.3153 4289039513
-46.227524 845.80078 1303.4917 4287527555
-42.671558 845.80078 1303.4917 4287198091
-10.667891 845.80078 1303.4917 4288710305
-7.1119266 845.80078 1303.4917 4290023860
14.223853 845.80078 1303.4917 4290820301
16.594496 845.80078 1303.4917 4290820301
18.965137 845.80078 1303.4917 4290491851
22.521101 845.80078 1303.4917 4290688973
-43.444954 754.47314 1306.2765 4287594131
-39.7211 754.47314 1306.2765 4287726989
-37.238533 754.47314 1306.2765 4287924112
-34.755962 754.47314 1306.2765 4287531423
-47.168808 756.37109 1307.8767 4289433265
-44.686237 756.37109 1307.8767 4287529886
-46.959633 763.42023 1305.9723 4288315011
-43.252296 763.42023 1305.9723 4284702065
-39.544952 763.42023 1305.9723 4286414232
-37.073395 763.42023 1305.9723 4290822620
-34.601833 763.42023 1305.9723 4288850611
-46.959633 765.30975 1307.5654 4286670952
-46.78532 771.77887 1306.4799 4287529858
-44.322937 771.77887 1306.4799 4288055952
-46.611008 778.21985 1305.3706 4285153615
-51.517429 780.09534 1306.952 4284562482
-49.06422 780.09534 1306.952 4284496185
-51.324772 786.50128 1305.8131 4284695617
-48.880733 786.50128 1305.8131 4285416253
-46.436699 787.43555 1306.6008 4285612349
-43.827522 794.74066 1306.2202 4285939519
-43.827522 796.60217 1307.7898 4285153074
21.732111 811.61151 1306.057 4290624455
19.31743 813.45758 1307.6135 4291018182
21.732111 813.45758 1307.6135 4291018182
14.433027 819.7204 1306.354 4290753740
16.838531 819.7204 1306.354 4290687947
19.244038 819.7204 1306.354 4290753740
-57.511925 827.78723 1306.6156 4283385681
16.774311 825.9552 1305.0709 4290622924
-54.904587 833.987 1305.303 4287517798
-52.517429 833.987 1305.303 4288176499
-47.743118 833.987 1305.303 4288509574
-54.904587 835.81201 1306.8418 4288248201
-54.735779 841.47369 1306.3834 4288976287
-52.355965 841.47369 1306.3834 4288252559
-54.735779 843.29309 1307.9175 4287858069
-52.355965 843.29309 1307.9175 4287595649
-49.976147 843.29309 1307.9175 4287266684
1.1899083 843.29309 1307.9175 4290687173
4.7596331 843.29309 1307.9175 4290687947
7.1394496 843.29309 1307.9175 4290885583
10.709174 843.29309 1307.9175 4290819284
26.177982 843.29309 1307.9175 4290623178
-46.227524 847.61316 1305.0199 4286935166
-42.671558 847.61316 1305.0199 4286211709
-40.300919 847.61316 1305.0199 4285685365
-37.930275 847.61316 1305.0199 4285096294
-34.374313 847.61316 1305.0199 4286215031
-30.818348 847.61316 1305.0199 4288517787
-28.447706 847.61316 1305.0199 4289832109
-26.077065 847.61316 1305.0199 4289832109
-22.521101 847.61316 1305.0199 4289568955
-18.965137 847.61316 1305.0199 4289042345
-16.594496 847.61316 1305.0199 4289042345
-9.4825687 847.61316 1305.0199 4288841118
-7.1119266 847.61316 1305.0199 4289367463
-4.7412844 847.61316 1305.0199 4290027925
-2.3706422 847.61316 1305.0199 4291146663
16.594496 847.61316 1305.0199 4290820301
-46.227524 849.42554 1306.5481 4287460483
-42.671558 849.42554 1306.5481 4285950849
-40.300919 849.42554 1306.5481 4284701038
-37.930275 849.42554 1306.5481 4282666317
-34.374313 849.42554 1306.5481 4286413444
-30.818348 849.42554 1306.5481 4290028986
-28.447706 849.42554 1306.5481 4289963960
-26.077065 849.42554 1306.5481 4289766582
-22.521101 849.42554 1306.5481 4289568952
-16.594496 849.42554 1306.5481 4289042856
-14.223853 849.42554 1306.5481 4289106088
-10.667891 849.42554 1306.5481 4288184210
-7.1119266 849.42554 1306.5481 4288249227
-4.7412844 849.42554 1306.5481 4287594886
-2.3706422 849.42554 1306.5481 4288910746
-47.168808 758.26904 1309.4771 4287855507
-49.431194 767.19928 1309.1587 4285683805
-49.431194 769.08881 1310.7518 4287266686
-51.710091 773.66138 1308.0671 4287130480
-49.247707 773.66138 1308.0671 4287395456
-51.710091 775.54388 1309.6545 4284824638
-49.247707 775.54388 1309.6545 4284495685
-48.880733 790.23828 1308.9641 4285215297
-46.436699 790.23828 1308.9641 4286004812
-48.880733 792.10675 1310.5396 4285082666
21.732111 815.30359 1309.17 4290819786
21.732111 817.14966 1310.7266 4290753740
-60.137615 823.39844 1309.4553 4284832606
-57.511925 831.45123 1309.7051 4286991453
-62.066055 839.46198 1309.9193 4288976037
-58.087463 838.8537 1309.4064 4288976032
-54.735779 845.11249 1309.4515 4287398801
-52.355965 845.11249 1309.4515 4287464313
-49.976147 845.11249 1309.4515 4287135348
1.1899083 845.11249 1309.4515 4291081692
4.7596331 845.11249 1309.4515 4290952643
7.1394496 845.11249 1309.4515 4291018436
10.709174 845.11249 1309.4515 4290754508
14.278899 845.11249 1309.4515 4290754508
19.038532 845.11249 1309.4515 4290689485
22.608257 845.11249 1309.4515 4290689228
26.177982 845.11249 1309.4515 4290623178
-54.735779 846.93188 1310.9856 4287991188
-52.355965 846.93188 1310.9856 4287530889
-49.976147 846.93188 1310.9856 4287070338
-19.038532 846.93188 1310.9856 4289108650
1.1899083 846.93188 1310.9856 4290357701
14.278899 846.93188 1310.9856 4290294473
16.658716 846.93188 1310.9856 4290623438
19.038532 846.93188 1310.9856 4290689485
22.608257 846.93188 1310.9856 4290557132
26.177982 846.93188 1310.9856 4290491084
-46.227524 851.23792 1308.0762 4287854221
-42.671558 851.23792 1308.0762 4286868619
-14.223853 851.23792 1308.0762 4288906912
-11.853211 851.23792 1308.0762 4288248725
-7.1119266 851.23792 1308.0762 4288184971
-2.3706422 851.23792 1308.0762 4288121745
-49.834862 754.59845 1312.9222 4286144124
-49.651375 762.06494 1312.6776 4284960333
-49.06422 785.7218 1311.6962 4285677115
-60.137615 825.23749 1311.006 4283516495
-57.732109 827.07648 1312.5565 4283969588
-57.511925 833.28326 1311.2498 4287721857
-62.304588 835.1153 1312.7944 4288514704
-59.908257 835.1153 1312.7944 4288909462
-57.291744 841.28699 1311.4581 4287989655
-62.066055 843.112 1312.9969 4288713631
-58.485321 843.112 1312.9969 4287924630
-49.976147 848.75128 1312.5198 4287461503
-40.456882 848.75128 1312.5198 4286210946
-38.077065 848.75128 1312.5198 4285818748
-34.507339 848.75128 1312.5198 4287593879
-30.937614 848.75128 1312.5198 4290618822
-28.557798 848.75128 1312.5198 4290422200
-26.177982 848.75128 1312.5198 4290290613
-22.608257 848.75128 1312.5198 4289896371
-19.038532 848.75128 1312.5198 4289369511
-16.658716 848.75128 1312.5198 4288974753
-9.5192661 848.75128 1312.5198 4287856007
-4.7596331 848.75128 1312.5198 4287529352
0 848.75128 1312.5198 4288188333
26.177982 848.75128 1312.5198 4290556107
28.557798 848.75128 1312.5198 4290424778
-49.834862 757.45593 1315.3315 4285880670
-52.133945 763.96289 1314.278 4284960109
-52.133945 765.86084 1315.8783 4286408822
-60.366974 824.53381 1316.9528 4283445827
-60.137615 830.75458 1315.6578 4286801016
-62.304588 838.7793 1315.8839 4288449952
-59.908257 838.7793 1315.8839 4288187036
-62.066055 844.93701 1314.5358 4288320937
-58.485321 844.93701 1314.5358 4287859866
4.774312 844.93701 1314.5358 4290622406
7.161468 844.93701 1314.5358 4291017164
10.742202 844.93701 1314.5358 4290491849
-62.066055 846.76196 1316.0745 4288581290
-58.485321 846.76196 1316.0745 4288252055
-54.904587 846.76196 1316.0745 4288843665
-52.517429 846.76196 1316.0745 4288250763
2.387156 846.76196 1316.0745 4290491088
4.774312 846.76196 1316.0745 4290557383
7.161468 846.76196 1316.0745 4290952141
10.742202 846.76196 1316.0745 4290689733
14.322936 846.76196 1316.0745 4290491851
16.710093 846.76196 1316.0745 4290623438
19.097248 846.76196 1316.0745 4290820301
22.677982 846.76196 1316.0745 4290754253
-47.596329 850.57068 1314.0537 4287721857
-42.836697 850.57068 1314.0537 4288184206
-40.456882 850.57068 1314.0537 4289039515
-38.077065 850.57068 1314.0537 4288909971
-35.697247 850.57068 1314.0537 4288581263
-30.937614 850.57068 1314.0537 4289433771
-28.557798 850.57068 1314.0537 4289302951
-26.177982 850.57068 1314.0537 4289171365
-14.278899 850.57068 1314.0537 4288576663
-10.709174 850.57068 1314.0537 4288248976
-7.1394496 850.57068 1314.0537 4288249997
-4.7596331 850.57068 1314.0537 4287464594
-2.3798165 850.57068 1314.0537 4287925145
-60.366974 826.37988 1318.5093 4284692544
-52.517429 848.58698 1317.6133 4287918731
-50.130276 848.58698 1317.6133 4287721609
-45.355965 848.58698 1317.6133 4288445579
-33.420185 848.58698 1317.6133 4288644255
-22.677982 848.58698 1317.6133 4289235874
-19.097248 848.58698 1317.6133 4288840605
-16.710093 848.58698 1317.6133 4288774812
0 848.58698 1317.6133 4287926177
23.871559 848.58698 1317.6133 4290687949
26.258715 848.58698 1317.6133 4290556107
28.645872 848.58698 1317.6133 4290359496
-42.968807 850.41199 1319.1521 4288315020
-40.58165 850.41199 1319.1521 4289302171
-31.033028 850.41199 1319.1521 4288907425
-28.645872 850.41199 1319.1521 4288776607
-26.258715 850.41199 1319.1521 4288842400
-16.710093 850.41199 1319.1521 4289037730
-14.322936 850.41199 1319.1521 4288907164
-11.93578 850.41199 1319.1521 4288841114
-52.519264 756.6568 1321.198 4284829806
-58.710091 846.10736 1322.0627 4287789964
-55.115597 846.10736 1322.0627 4287592067
2.3963304 846.10736 1322.0627 4289636794
4.7926607 846.10736 1322.0627 4289701822
7.1889906 846.10736 1322.0627 4290557131
10.783486 846.10736 1322.0627 4290360266
14.377981 846.10736 1322.0627 4290491597
16.774311 846.10736 1322.0627 4290755026
19.170643 846.10736 1322.0627 4290820047
21.566973 846.10736 1322.0627 4290820047
-58.710091 847.93939 1323.6074 4287724179
-55.115597 847.93939 1323.6074 4287065741
-52.719265 847.93939 1323.6074 4287525772
-50.322937 847.93939 1323.6074 4287328650
-46.728439 847.93939 1323.6074 4287854462
-38.341286 847.93939 1323.6074 4289105556
-34.746788 847.93939 1323.6074 4288776343
-22.765137 847.93939 1323.6074 4289039263
-19.170643 847.93939 1323.6074 4288708765
-9.5853214 847.93939 1323.6074 4288514452
-7.1889906 847.93939 1323.6074 4288053901
-4.7926607 847.93939 1323.6074 4287530137
-2.3963304 847.93939 1323.6074 4288056482
16.774311 847.93939 1323.6074 4291148498
19.170643 847.93939 1323.6074 4290753490
23.963303 847.93939 1323.6074 4290622156
26.359632 847.93939 1323.6074 4290424778
28.755962 847.93939 1323.6074 4290359498
-52.719265 849.77142 1325.1521 4288250261
-50.322937 849.77142 1325.1521 4287329159
-46.728439 849.77142 1325.1521 4287592056
-43.133945 849.77142 1325.1521 4288249747
-40.737614 849.77142 1325.1521 4289105056
-38.341286 849.77142 1325.1521 4288381583
-34.746788 849.77142 1325.1521 4287986570
-31.152294 849.77142 1325.1521 4288973209
-28.755962 849.77142 1325.1521 4288974501
-26.359632 849.77142 1325.1521 4289369259
-22.765137 849.77142 1325.1521 4289236140
-19.170643 849.77142 1325.1521 4288576915
-16.774311 849.77142 1325.1521 4290550706
-14.377981 849.77142 1325.1521 4290226365
-10.783486 849.77142 1325.1521 4288582562
-7.1889906 849.77142 1325.1521 4287333258
-4.7926607 849.77142 1325.1521 4287201427
-2.3963304 849.77142 1325.1521 4287595929
23.963303 849.77142 1325.1521 4290557129
26.359632 849.77142 1325.1521 4290425543
28.755962 849.77142 1325.1521 4290556361
-64.948624 844.54724 1327.2875 4288711590
-62.543118 844.54724 1327.2875 4288119189
1.2027524 845.4668 1328.0627 4288780716
4.8110094 845.4668 1328.0627 4289832640
7.2165136 845.4668 1328.0627 4290885329
9.6220188 845.4668 1328.0627 4290820301
13.230275 845.4668 1328.0627 4290688459
21.649542 845.4668 1328.0627 4290687697
-19.170643 851.60339 1326.6968 4288315806
-16.774311 851.60339 1326.6968 4290158010
-14.377981 851.60339 1326.6968 4289963195
-11.981651 851.60339 1326.6968 4289305009
-7.1889906 851.60339 1326.6968 4287266420
26.359632 851.60339 1326.6968 4290755526
28.755962 851.60339 1326.6968 4290624455
-2.3963304 853.43542 1328.2416 4287793555
-64.948624 847.30579 1329.6134 4288448670
-61.340366 847.30579 1329.6134 4288053134
-57.732109 847.30579 1329.6134 4288645020
-55.326607 847.30579 1329.6134 4288579227
1.2027524 847.30579 1329.6134 4288451240
7.2165136 847.30579 1329.6134 4290622154
9.6220188 847.30579 1329.6134 4290621641
13.230275 847.30579 1329.6134 4290490056
16.838531 847.30579 1329.6134 4290753229
19.244038 847.30579 1329.6134 4290753742
21.649542 847.30579 1329.6134 4290687949
-57.732109 849.14484 1331.1641 4288449693
-55.326607 849.14484 1331.1641 4288712608
-52.921101 849.14484 1331.1641 4288712849
-49.312843 849.14484 1331.1641 4287198585
-45.704586 849.14484 1331.1641 4288052868
-43.299084 849.14484 1331.1641 4288053401
-40.893578 849.14484 1331.1641 4289040297
-37.285324 849.14484 1331.1641 4287856268
-33.677063 849.14484 1331.1641 4287461510
-31.271559 849.14484 1331.1641 4288514454
-28.866055 849.14484 1331.1641 4288712360
-25.257797 849.14484 1331.1641 4289567415
-21.649542 849.14484 1331.1641 4288316837
-9.6220188 849.14484 1331.1641 4288911246
-4.8110094 849.14484 1331.1641 4287070088
-2.4055047 849.14484 1331.1641 4287925397
19.244038 849.14484 1331.1641 4290623178
21.649542 849.14484 1331.1641 4291017680
24.055046 849.14484 1331.1641 4290887111
4.8293576 844.84027 1334.0746 4289766845
-36.082569 850.98389 1332.7146 4287332752
-33.677063 850.98389 1332.7146 4287593866
-31.271559 850.98389 1332.7146 4288448918
-28.866055 850.98389 1332.7146 4287793823
-25.257797 850.98389 1332.7146 4287727520
-21.649542 850.98389 1332.7146 4287924389
-19.244038 850.98389 1332.7146 4288319397
-16.838531 850.98389 1332.7146 4289306548
-13.230275 850.98389 1332.7146 4289174974
-9.6220188 850.98389 1332.7146 4289173663
-7.2165136 850.98389 1332.7146 4287857803
-4.8110094 850.98389 1332.7146 4287070088
24.055046 850.98389 1332.7146 4290557383
-9.6220188 852.82288 1334.2653 4287991190
-2.4055047 852.82288 1334.2653 4288384161
-61.57431 847.60931 1336.4094 4287990690
-57.952293 848.53235 1337.1876 4288122527
-55.537613 848.53235 1337.1876 4288385442
-53.122936 848.53235 1337.1876 4288778403
-49.500916 848.53235 1337.1876 4287199106
-45.878899 848.53235 1337.1876 4287527807
-43.464222 848.53235 1337.1876 4287462807
-41.049541 848.53235 1337.1876 4288449702
-38.634861 848.53235 1337.1876 4288056732
1.2073394 847.60931 1336.4094 4288650157
4.8293576 847.60938 1336.4094 4289834175
7.2440367 847.60938 1336.4094 4290426313
9.6587152 847.60938 1336.4094 4290621897
13.280734 847.60931 1336.4094 4290621897
16.902752 847.60938 1336.4094 4290819277
19.31743 848.53235 1337.1876 4290819786
21.732111 848.53235 1337.1876 4290753992
-36.220184 850.37842 1338.7441 4287925395
-33.805504 850.37842 1338.7441 4287924891
-31.390825 850.37842 1338.7441 4288385442
-28.976147 850.37842 1338.7441 4288122527
-25.35413 850.37842 1338.7441 4287727000
-21.732111 850.37842 1338.7441 4288449954
-19.31743 850.37842 1338.7441 4288514480
-16.902752 850.37842 1338.7441 4289698754
-13.280734 850.37842 1338.7441 4289109179
-7.2440367 850.37842 1338.7441 4287398797
-4.8293576 850.37842 1338.7441 4287594645
1.2073394 850.37842 1338.7441 4289766066
4.8293576 850.37842 1338.7441 4290162625
7.2440367 850.37842 1338.7441 4290557383
9.6587152 850.37842 1338.7441 4290491586
14.488073 850.37842 1338.7441 4290623174
16.902752 850.37842 1338.7441 4291083725
19.31743 850.37842 1338.7441 4290623176
21.732111 850.37842 1338.7441 4290557383
24.14679 850.37842 1338.7441 4290623178
-7.2440367 852.22449 1340.3008 4287069836
-2.4146788 852.22449 1340.3008 4289698713
14.488073 852.22449 1340.3008 4290623174
19.31743 852.22449 1340.3008 4290623176
21.732111 852.22449 1340.3008 4290623176
24.14679 852.22449 1340.3008 4290623436
-63.020184 847.93384 1343.2231 4288911548
-60.596329 847.93384 1343.2231 4288582839
-58.172478 847.93384 1343.2231 4288319899
-55.748623 847.93384 1343.2231 4288517535
-53.324772 847.93384 1343.2231 4288517031
-49.688992 847.93384 1343.2231 4287331723
-46.053211 847.93384 1343.2231 4287527555
-43.629356 847.93384 1343.2231 4287724439
-41.205505 847.93384 1343.2231 4289106092
-38.781651 847.93384 1343.2231 4288320153
12.119267 847.93384 1343.2231 4290557635
21.732111 854.0705 1341.8573 4290557129
24.14679 854.0705 1341.8573 4290623174
19.31743 855.91656 1343.4138 4290688201
21.732111 855.91656 1343.4138 4290819788
-63.020184 849.78693 1344.7856 4288517548
-60.596329 850.7135 1345.5669 4287793819
-58.172478 850.7135 1345.5669 4287661960
-36.3578 849.78693 1344.7856 4287728793
-33.933945 849.78693 1344.7856 4287662991
-31.510092 849.78693 1344.7856 4287925906
-29.086239 849.78693 1344.7856 4288253856
-25.450459 849.78693 1344.7856 4288186777
-21.814678 849.78693 1344.7856 4287724939
-19.390825 849.78693 1344.7856 4287329924
-16.966972 849.78693 1344.7856 4288975005
-12.927218 850.4046 1345.3065 4288254376
-9.6954126 850.7135 1345.5669 4287464338
-7.2715597 851.64001 1346.3481 4287596181
-4.8477063 850.7135 1345.5669 4288251780
-2.4238532 851.64001 1346.3481 4290160547
1.2119266 849.78693 1344.7856 4290421686
4.8477063 849.78693 1344.7856 4289833406
7.2715597 849.78693 1344.7856 4290491336
9.6954126 850.7135 1345.5669 4290491843
13.331193 850.7135 1345.5669 4290622917
16.966972 850.7135 1345.5669 4290622918
19.390825 851.64001 1346.3481 4290557129
19.31743 857.76257 1344.9703 4290687947
13.280734 859.60864 1346.5269 4290556620
16.902752 859.60864 1346.5269 4290491338
9.6220188 865.69611 1345.1196 4290425030
-60.596329 853.49304 1347.9105 4288517796
-2.4238532 853.49304 1347.9105 4290094765
9.6954126 853.49304 1347.9105 4290622156
14.543119 853.49304 1347.9105 4290687947
16.966972 853.49304 1347.9105 4290687947
9.6954126 855.34607 1349.473 4290753492
13.331193 855.34607 1349.473 4290621903
16.966972 855.34607 1349.473 4290622156
9.6587152 861.45465 1348.0834 4290424778
13.280734 861.45465 1348.0834 4290490823
-56.001835 847.79266 1350.9523 4288056718
-52.349541 847.79266 1350.9523 4288319135
-48.697247 847.79266 1350.9523 4287725702
-46.262386 847.79266 1350.9523 4286015084
-43.827522 847.79266 1350.9523 4286211438
-41.392662 847.79266 1350.9523 4288382608
-38.146175 848.10284 1351.2139 4287531417
-34.088074 848.72339 1351.7371 4286742652
-31.653212 848.72339 1351.7371 4287663754
-29.218349 848.72339 1351.7371 4288978335
-25.566055 848.72339 1351.7371 4288845729
-21.913761 848.72339 1351.7371 4287134346
-19.478899 848.72339 1351.7371 4286870647
-17.044037 848.72339 1351.7371 4288515215
-14.609175 848.72339 1351.7371 4288583076
1.2174312 848.72339 1351.7371 4290159557
4.8697248 848.72339 1351.7371 4289898434
7.3045874 848.72339 1351.7371 4290622156
12.174312 848.72339 1351.7371 4290491588
9.6954126 857.19916 1351.0354 4290556109
7.2715597 859.05219 1352.5979 4290425280
-58.436699 850.58484 1353.3066 4288385696
-56.001835 850.58484 1353.3066 4288517283
-52.349541 850.58484 1353.3066 4288648616
-48.697247 850.58484 1353.3066 4288319899
-46.262386 850.58484 1353.3066 4287793555
-43.827522 850.58484 1353.3066 4287725952
-41.392662 850.58484 1353.3066 4288120710
-36.522934 850.58484 1353.3066 4286741650
-34.088074 850.58484 1353.3066 4286479748
-29.218349 850.58484 1353.3066 4289044907
-25.566055 850.58484 1353.3066 4288978601
-21.913761 850.58484 1353.3066 4288056986
-19.478899 850.58484 1353.3066 4288055689
-17.044037 850.58484 1353.3066 4288450447
-13.391743 850.58484 1353.3066 4288451491
-9.7394495 850.58484 1353.3066 4288911009
-7.3045874 850.58484 1353.3066 4289568939
-4.8697248 850.58484 1353.3066 4289897643
1.2174312 850.58484 1353.3066 4290029756
4.8697248 850.58484 1353.3066 4290292928
7.3045874 850.58484 1353.3066 4290687686
12.174312 850.58484 1353.3066 4290687949
-56.001835 852.44635 1354.8762 4288583087
-52.349541 852.44635 1354.8762 4288780202
-48.697247 852.44635 1354.8762 4288910503
-17.044037 852.44635 1354.8762 4288317600
-13.391743 852.44635 1354.8762 4288978085
-7.3045874 852.44635 1354.8762 4289767084
-4.8697248 852.44635 1354.8762 4290095295
-2.4348624 852.44635 1354.8762 4290095295
