# .PCD v0.7 - Point Cloud Data file format
VERSION 0.7
FIELDS x y z rgb
SIZE 4 4 4 4
TYPE F F F U
COUNT 1 1 1 1
WIDTH 1156
HEIGHT 1
VIEWPOINT 0 0 0 1 0 0 0
POINTS 1156
DATA ascii
-10.626606 817.61731 1273.188 4292265426
-4.6715598 839.25836 1273.1228 4285032109
-2.3357799 839.25836 1273.1228 4284308129
0 839.25836 1273.1228 4281420140
-16.350458 841.04407 1274.6284 4284698958
-14.014679 841.04407 1274.6284 4285751662
-10.511009 841.04407 1274.6284 4286480533
-7.0073395 841.04407 1274.6284 4285367456
-4.6715598 841.04407 1274.6284 4281160829
-2.3357799 841.04407 1274.6284 4280107885
0 841.04407 1274.6284 4281484359
-7.3045874 761.23413 1277.9684 4292856552
-4.8697248 759.37268 1276.3989 4292069087
-2.4348624 759.37268 1276.3989 4292003294
0 760.30341 1277.1836 4291937503
-31.510092 770.10547 1277.6003 4285226108
-29.086239 768.25244 1276.038 4285161837
-24.238533 770.10547 1277.6003 4287399551
-21.814678 770.10547 1277.6003 4290689201
-19.390825 770.10547 1277.6003 4289371381
-16.966972 769.17896 1276.8191 4285616806
-9.6954126 770.10547 1277.6003 4279897344
-7.2715597 768.25244 1276.038 4287208071
-31.390825 776.53674 1276.4828 4289505685
-14.488073 776.53674 1276.4828 4290096006
-9.6587152 776.53674 1276.4828 4292068557
-7.2440367 776.53674 1276.4828 4292923866
-31.271559 782.93982 1275.3417 4286019990
-28.866055 782.93982 1275.3417 4287991472
-25.257797 782.93982 1275.3417 4288319652
-21.649542 782.93982 1275.3417 4281937201
-19.244038 782.93982 1275.3417 4285026908
-16.838531 782.93982 1275.3417 4291869379
-14.433027 782.93982 1275.3417 4293056232
-9.6220188 782.93982 1275.3417 4292464858
-31.271559 784.77881 1276.8922 4283585135
-28.866055 784.77881 1276.8922 4283915129
-26.46055 784.77881 1276.8922 4283388785
-16.838531 784.77881 1276.8922 4292466112
-13.230275 784.77881 1276.8922 4291808479
-7.2165136 784.77881 1276.8922 4291939549
-2.4055047 784.77881 1276.8922 4292005340
-26.359632 791.14691 1275.7214 4284176991
-22.765137 791.14691 1275.7214 4291476182
-19.170643 791.14691 1275.7214 4291543758
-16.774311 791.14691 1275.7214 4291543758
-14.377981 791.14691 1275.7214 4291675094
-26.359632 792.97894 1277.2662 4284375917
-22.765137 792.97894 1277.2662 4291672546
-19.170643 792.97894 1277.2662 4292266189
-16.774311 792.97894 1277.2662 4291739845
-14.377981 792.97894 1277.2662 4291609049
-9.5853214 792.97894 1277.2662 4291937501
-14.322936 801.13696 1277.6047 4292067804
-10.742202 801.13696 1277.6047 4291805658
-11.899082 806.90527 1277.2363 4292002008
-26.077065 814.99036 1277.5132 4283517793
-22.521101 814.99036 1277.5132 4287324530
-18.965137 814.99036 1277.5132 4289756810
-16.594496 814.99036 1277.5132 4289625481
-14.223853 814.08417 1276.7491 4289367192
-10.667891 813.17798 1275.9851 4292264148
-7.1119266 814.08417 1276.7491 4291346901
-4.7412844 814.99036 1277.5132 4291149782
-35.42202 821.22803 1276.2325 4285952133
-37.783485 823.03333 1277.7548 4285164670
-34.241287 823.03333 1277.7548 4284045414
-30.699083 823.03333 1277.7548 4285097328
-28.337614 823.03333 1277.7548 4285098374
-7.056881 829.23596 1276.4443 4291935704
-4.704587 829.23596 1276.4443 4291346130
-2.3522935 829.23596 1276.4443 4291609301
-7.056881 831.0343 1277.9607 4292396251
-4.704587 831.0343 1277.9607 4291806162
-2.3522935 831.0343 1277.9607 4291937749
0 831.0343 1277.9607 4291347676
-7.0293579 835.4104 1275.1105 4290490053
-4.6862388 835.4104 1275.1105 4289963197
-2.3431194 835.4104 1275.1105 4287660442
1.1715597 835.4104 1275.1105 4284965757
-21.088074 837.20172 1276.6208 4282991965
-18.744955 837.20172 1276.6208 4282925672
-16.401834 837.20172 1276.6208 4283386223
-14.058716 837.20172 1276.6208 4283650136
-10.544037 837.20172 1276.6208 4288058265
-7.0293579 837.20172 1276.6208 4288453023
-14.014679 842.82983 1276.1342 4288385192
-10.511009 842.82983 1276.1342 4287070881
-7.0073395 842.82983 1276.1342 4287664565
-4.6715598 842.82983 1276.1342 4284701859
-2.3357799 842.82983 1276.1342 4282267518
0 842.82983 1276.1342 4282075978
-14.014679 844.61554 1277.6399 4292993003
-10.511009 844.61554 1277.6399 4290163394
-7.0073395 844.61554 1277.6399 4291150036
-4.6715598 844.61554 1277.6399 4291738069
-2.3357799 844.61554 1277.6399 4288908969
0 844.61554 1277.6399 4284117106
-9.7761469 756.60547 1280.6058 4293186798
-7.3321099 756.60547 1280.6058 4292792296
-29.218349 763.09564 1279.538 4280692810
-17.044037 763.09564 1279.538 4278714379
-7.3045874 763.09564 1279.538 4292596446
-36.3578 773.81165 1280.7252 4288385435
-33.933945 772.88513 1279.9441 4288188553
-21.814678 771.95856 1279.1628 4283401621
-16.966972 771.95856 1279.1628 4283063207
-13.331193 772.88513 1279.9441 4286677608
-9.6954126 771.95856 1279.1628 4289826689
-33.805504 778.38275 1278.0393 4288194475
-13.280734 778.38275 1278.0393 4293317339
-9.6587152 778.38275 1278.0393 4292594648
-7.2440367 778.38275 1278.0393 4292660697
-36.220184 780.22882 1279.5958 4287202703
-33.805504 780.22882 1279.5958 4286546334
-12.073395 780.22882 1279.5958 4292858853
-7.2440367 780.22882 1279.5958 4292596700
-33.677063 787.53735 1279.2183 4285755263
-31.271559 787.53735 1279.2183 4282926164
-28.866055 787.53735 1279.2183 4281084736
-26.46055 786.61786 1278.4429 4282861163
-12.829358 787.2309 1278.9598 4291741657
-9.6220188 788.45691 1279.9935 4291805912
-7.2165136 787.53735 1279.2183 4292069597
-4.8110094 786.61786 1278.4429 4292135645
-2.4055047 786.61786 1278.4429 4292267232
2.4055047 786.61786 1278.4429 4292069598
-26.359632 794.81097 1278.8109 4285098300
-22.765137 794.81097 1278.8109 4291473120
-19.170643 794.81097 1278.8109 4292266452
-16.774311 794.81097 1278.8109 4291937487
-14.377981 794.81097 1278.8109 4291346393
-10.783486 794.81097 1278.8109 4291806686
-26.359632 796.64294 1280.3556 4284902517
-22.765137 796.64294 1280.3556 4290880718
-19.170643 796.64294 1280.3556 4292263107
-16.774311 796.64294 1280.3556 4293052622
-14.377981 796.64294 1280.3556 4292266463
-10.783486 796.64294 1280.3556 4291871707
-19.097248 802.96198 1279.1434 4289300832
-14.322936 802.96198 1279.1434 4291474901
-10.742202 802.96198 1279.1434 4292002526
-28.645872 804.78699 1280.6823 4282925643
-26.258715 804.78699 1280.6823 4282136127
-22.677982 804.78699 1280.6823 4287720853
-19.097248 804.78699 1280.6823 4289763472
-16.710093 804.78699 1280.6823 4290421659
-14.322936 804.78699 1280.6823 4290291647
-9.548624 804.78699 1280.6823 4291674842
-7.161468 804.78699 1280.6823 4291674842
-26.177982 808.72467 1278.7704 4282266434
-23.798164 808.72467 1278.7704 4285219664
-14.278899 808.72467 1278.7704 4289631414
-9.5192661 808.72467 1278.7704 4291740890
-30.937614 810.54407 1280.3044 4284373119
-28.557798 810.54407 1280.3044 4283381317
-26.177982 810.54407 1280.3044 4283447110
-22.608257 810.54407 1280.3044 4288636532
-19.038532 810.54407 1280.3044 4290544795
-16.658716 810.54407 1280.3044 4290018451
-4.7596331 810.54407 1280.3044 4291215829
-40.300919 818.61511 1280.5696 4284113024
-37.930275 817.70892 1279.8054 4285622658
-33.979206 817.40692 1279.5508 4285951626
-30.818348 817.70892 1279.8054 4285623174
-28.447706 817.70892 1279.8054 4285887368
-26.077065 817.70892 1279.8054 4284373873
-22.521101 817.70892 1279.8054 4284171353
-18.965137 817.70892 1279.8054 4287190393
-16.594496 816.80273 1279.0414 4290019735
-14.223853 817.70892 1279.8054 4289300626
-10.667891 817.70898 1279.8054 4292198351
-7.1119266 817.70892 1279.8054 4291543255
-4.7412844 817.70892 1279.8054 4291149524
-40.144955 824.83875 1279.277 4284900219
-37.783485 824.83875 1279.277 4285097080
-34.241287 824.83875 1279.277 4283715419
-30.699083 824.83875 1279.277 4285097578
-28.337614 824.83875 1279.277 4285164418
-25.976147 824.83875 1279.277 4284572280
-22.433945 824.83875 1279.277 4282664533
-18.891743 824.83875 1279.277 4284629329
-9.4458714 824.83875 1279.277 4291607764
-7.0844035 824.83875 1279.277 4291871192
-4.7229357 824.83875 1279.277 4291280590
-2.3614678 824.83875 1279.277 4291346384
-40.144955 826.6441 1280.7992 4285096826
-37.783485 826.6441 1280.7992 4285490552
-34.241287 826.6441 1280.7992 4283780954
-30.699083 826.6441 1280.7992 4285163627
-28.337614 826.6441 1280.7992 4285099910
-25.976147 826.6441 1280.7992 4284573566
-22.433945 826.6441 1280.7992 4282993746
-18.891743 826.6441 1280.7992 4283384397
-14.168807 826.6441 1280.7992 4287983761
-10.626606 826.6441 1280.7992 4292065237
0 826.6441 1280.7992 4291871708
-47.045872 832.83264 1279.4771 4284042593
-30.579817 832.83264 1279.4771 4285755257
-28.227524 832.83264 1279.4771 4285951623
-25.875229 832.83264 1279.4771 4285622402
-22.34679 832.83264 1279.4771 4283846754
-18.818348 832.83264 1279.4771 4282401112
-16.466055 832.83264 1279.4771 4282927456
-14.113762 832.83264 1279.4771 4284240989
-10.585321 832.83264 1279.4771 4290425024
-51.750458 834.63098 1280.9934 4283913053
-47.045872 834.63098 1280.9934 4283845728
-30.579817 834.63098 1280.9934 4286084236
-28.227524 834.63098 1280.9934 4285819781
-25.875229 834.63098 1280.9934 4285359230
-23.522936 834.63098 1280.9934 4283781481
2.3522935 834.63098 1280.9934 4281288554
4.704587 834.63098 1280.9934 4282794584
7.056881 834.63098 1280.9934 4282531668
-25.774311 838.99304 1278.1312 4282530898
-22.259632 838.99304 1278.1312 4281282892
-18.744955 838.99304 1278.1312 4283712063
2.3431194 838.99304 1278.1312 4283392356
-28.117432 840.78436 1279.6416 4282595381
-25.774311 840.78436 1279.6416 4281411107
-22.259632 840.78436 1279.6416 4280887884
-18.744955 840.78436 1279.6416 4286211670
-16.401834 840.78436 1279.6416 4289698699
2.3431194 840.78436 1279.6416 4283655010
-10.511009 847.29419 1279.8983 4291741909
-7.0073395 846.40125 1279.1455 4291938516
-4.6715598 846.40125 1279.1455 4291608538
-2.3357799 846.40125 1279.1455 4290161092
0 846.40125 1279.1455 4287661989
-31.772476 758.474 1282.1813 4281347140
-29.32844 758.474 1282.1813 4279442464
-17.108257 758.474 1282.1813 4280553511
-13.442202 758.474 1282.1813 4286217357
-9.7761469 758.474 1282.1813 4292396001
-34.216515 760.34247 1283.7567 4283847274
-31.772476 760.34247 1283.7567 4282070864
-25.662384 760.34247 1283.7567 4288318655
-21.99633 760.34247 1283.7567 4290549474
-19.552294 760.34247 1283.7567 4287786646
-13.442202 760.34247 1283.7567 4284245841
-9.7761469 760.34247 1283.7567 4290820035
-31.653212 764.95709 1281.1075 4283452000
-25.566055 764.95709 1281.1075 4288054182
-21.913761 764.95709 1281.1075 4290946270
-19.478899 764.95709 1281.1075 4290218200
-13.391743 764.95709 1281.1075 4281608968
-9.7394495 764.95709 1281.1075 4280562977
-34.088074 766.8186 1282.6771 4283844455
-13.391743 766.8186 1282.6771 4278655000
-41.205505 775.66467 1282.2877 4284309865
-37.569725 775.66467 1282.2877 4286150015
-46.053211 777.5177 1283.8501 4285097339
-43.629356 777.5177 1283.8501 4285098345
-41.205505 777.5177 1283.8501 4284703587
-38.781651 777.5177 1283.8501 4284373604
-43.464222 782.07483 1281.1523 4284636527
-41.049541 782.07483 1281.1523 4284636527
-36.220184 782.07483 1281.1523 4284242273
-33.805504 782.07483 1281.1523 4283519086
-4.8293576 782.07483 1281.1523 4292005340
-41.049541 783.9209 1282.709 4285360770
-37.427521 783.9209 1282.709 4285097328
-33.677063 790.2959 1281.5442 4287005086
-31.271559 790.2959 1281.5442 4283715436
-28.866055 790.2959 1281.5442 4280297007
-12.027523 790.2959 1281.5442 4292135393
-7.2165136 790.2959 1281.5442 4291871708
-40.893578 792.13495 1283.0947 4284439666
-36.082569 792.13495 1283.0947 4286479244
-33.677063 792.13495 1283.0947 4286742443
-31.271559 792.13495 1283.0947 4283584379
-28.866055 792.13495 1283.0947 4281019392
-7.2165136 792.13495 1283.0947 4291806685
-4.8110094 792.13495 1283.0947 4291805658
-2.4055047 792.13495 1283.0947 4291937501
0 792.13495 1283.0947 4292069337
-33.548622 800.30701 1283.4451 4283913553
-31.152294 799.39099 1282.6726 4284371557
-28.755962 799.39099 1282.6726 4282465085
-26.359632 799.39099 1282.6726 4282991429
-22.765137 799.39099 1282.6726 4289495486
-19.170643 798.47498 1281.9003 4288772471
-16.774311 799.39099 1282.6726 4291865750
-7.1889906 799.39099 1282.6726 4291938015
-4.7926607 799.39099 1282.6726 4291741150
-2.3963304 799.39099 1282.6726 4291675357
0 799.39099 1282.6726 4291741143
-40.58165 806.61194 1282.2211 4284769382
-38.194496 806.61194 1282.2211 4284965519
-34.613762 806.61194 1282.2211 4284965007
-31.033028 806.61194 1282.2211 4284306821
-28.645872 806.61194 1282.2211 4283055694
-21.484404 806.61194 1282.2211 4290219676
-19.097248 806.61194 1282.2211 4290812330
-16.710093 806.61194 1282.2211 4290614695
-7.161468 806.61194 1282.2211 4291675096
-4.774312 806.61194 1282.2211 4291281624
-2.387156 806.61194 1282.2211 4291610333
0 806.61194 1282.2211 4291610583
-40.58165 808.43701 1283.7599 4285094763
-38.194496 808.43701 1283.7599 4284701831
-34.613762 808.43701 1283.7599 4286280861
-2.387156 808.43701 1283.7599 4291544538
0 808.43701 1283.7599 4291610585
-40.456882 812.36346 1281.8385 4284571499
-38.077065 812.36346 1281.8385 4285425286
-34.507339 812.36346 1281.8385 4286083220
-30.937614 812.36346 1281.8385 4284898692
-28.557798 812.36346 1281.8385 4284044137
-2.3798165 812.36346 1281.8385 4291544540
-42.836697 814.18286 1283.3726 4280494882
-40.456882 814.18286 1283.3726 4284310876
-2.3798165 814.18286 1283.3726 4291478746
-40.300919 820.42749 1282.0977 4284440944
-26.077065 820.42749 1282.0977 4284243066
-22.521101 820.42749 1282.0977 4282269246
-18.965137 820.42749 1282.0977 4286137945
-16.594496 820.42749 1282.0977 4290085526
-14.223853 820.42749 1282.0977 4289889693
-10.667891 820.42749 1282.0977 4291933133
-7.1119266 820.42749 1282.0977 4291542745
-4.7412844 820.42749 1282.0977 4290689485
-42.671558 822.23987 1283.6259 4283518566
-16.594496 822.23987 1283.6259 4288445579
-14.223853 822.23987 1283.6259 4289035681
-11.853211 822.23987 1283.6259 4291798987
0 822.23987 1283.6259 4291346132
-54.313763 830.25482 1283.8436 4283649632
-51.952293 830.25482 1283.8436 4284043356
-49.590824 830.25482 1283.8436 4284109149
-43.687157 830.25482 1283.8436 4284174951
-40.144955 829.35217 1283.0825 4285031033
-37.783485 829.35217 1283.0825 4284768882
-34.241287 829.35217 1283.0825 4283452765
-30.699083 828.44946 1282.3214 4285360768
-28.337614 828.44946 1282.3214 4285755525
-25.976147 828.44946 1282.3214 4285492097
-22.433945 828.44946 1282.3214 4283453272
-18.891743 828.44946 1282.3214 4283057240
-16.530275 828.44946 1282.3214 4284044135
-14.168807 828.44946 1282.3214 4286341762
-10.626606 828.44946 1282.3214 4292198362
2.3614678 828.44946 1282.3214 4290821332
4.7229357 829.35217 1283.0825 4287003276
7.0844035 829.35217 1283.0825 4285753208
-55.2789 836.42932 1282.5096 4282267208
-51.750458 836.42932 1282.5096 4282859598
-49.398167 836.42932 1282.5096 4282859598
-47.045872 836.42932 1282.5096 4282464329
-44.693577 836.42932 1282.5096 4282530122
-30.579817 836.42932 1282.5096 4283385690
-28.227524 836.42932 1282.5096 4283254622
4.704587 836.42932 1282.5096 4285883528
7.056881 836.42932 1282.5096 4289107385
-46.862385 842.57568 1281.1521 4289165704
-43.347706 842.57568 1281.1521 4289559693
-25.774311 842.57568 1281.1521 4286083193
-22.259632 842.57568 1281.1521 4287199862
-18.744955 842.57568 1281.1521 4291540161
-16.401834 842.57568 1281.1521 4294369516
2.3431194 842.57568 1281.1521 4282143316
-51.548622 844.36707 1282.6625 4288645537
-22.259632 844.36707 1282.6625 4290686873
-18.744955 844.36707 1282.6625 4292000993
-16.401834 844.36707 1282.6625 4294764287
-14.058716 844.36707 1282.6625 4293978349
-44.157799 755.71381 1286.3942 4285031798
-40.477982 755.71381 1286.3942 4284242284
-36.798164 755.71381 1286.3942 4284110444
-34.344955 755.71381 1286.3942 4283913067
-25.758717 755.71381 1286.3942 4286870408
-22.078899 754.77606 1285.6035 4291138703
-19.625689 754.77606 1285.6035 4287658368
-46.436699 764.07947 1286.9076 4285425286
-43.992661 764.07947 1286.9076 4285294954
-40.326607 764.07947 1286.9076 4284438879
-36.660549 763.1452 1286.1199 4283385686
-34.216515 762.21094 1285.3322 4283517793
-43.827522 770.5415 1285.8162 4285362044
-41.392662 770.5415 1285.8162 4284572528
-37.740364 769.61078 1285.0314 4286277747
-12.174312 768.68005 1284.2466 4284377436
-49.688992 779.37079 1285.4126 4283912551
-46.053211 779.37079 1285.4126 4284636275
-38.781651 779.37079 1285.4126 4283913051
-49.688992 781.22388 1286.9751 4283912809
-46.053211 781.22388 1286.9751 4284373618
-43.629356 781.22388 1286.9751 4284439668
-41.049541 785.76697 1284.2655 4285032831
-37.427521 785.76697 1284.2655 4286411655
-4.8293576 785.76697 1284.2655 4292003292
-2.4146788 785.76697 1284.2655 4292069341
1.2073394 785.76697 1284.2655 4292003805
-55.537613 787.61298 1285.822 4283648598
-53.122936 787.61298 1285.822 4283452500
-45.878899 787.61298 1285.822 4284571776
-43.464222 787.61298 1285.822 4284768630
-41.049541 787.61298 1285.822 4285163132
-37.427521 787.61298 1285.822 4286346890
-4.8293576 787.61298 1285.822 4291871454
-2.4146788 787.61298 1285.822 4292003296
1.2073394 787.61298 1285.822 4292069087
4.8293576 787.61298 1285.822 4292003807
-57.732109 793.974 1284.6454 4283253592
-55.326607 793.974 1284.6454 4283385179
-52.921101 793.974 1284.6454 4283254624
-49.312843 793.974 1284.6454 4283781228
-45.704586 793.974 1284.6454 4284636540
-40.893578 793.974 1284.6454 4284176237
-37.285324 793.974 1284.6454 4284965739
-33.677063 793.974 1284.6454 4286280864
-31.271559 793.974 1284.6454 4283780729
-28.866055 793.974 1284.6454 4281349438
-7.2165136 793.974 1284.6454 4291805658
-4.8110094 793.974 1284.6454 4291674842
-2.4055047 793.974 1284.6454 4291740636
0 793.974 1284.6454 4291741137
-57.732109 795.81299 1286.196 4283123537
-55.326607 795.81299 1286.196 4283255124
-52.921101 795.81299 1286.196 4283123549
-49.312843 795.81299 1286.196 4283847531
-45.704586 795.81299 1286.196 4283913071
-40.893578 795.81299 1286.196 4283124834
-37.285324 795.81299 1286.196 4282202197
-33.677063 795.81299 1286.196 4285092733
-47.127827 803.36035 1286.0195 4284045410
-43.133945 803.97107 1286.5344 4283914073
-40.737614 802.13904 1284.9897 4284702833
-38.341286 802.13904 1284.9897 4284573827
-34.746788 802.13904 1284.9897 4283980662
-31.152294 802.13904 1284.9897 4284111477
-4.7926607 802.13904 1284.9897 4291281370
-2.3963304 802.13904 1284.9897 4291610335
0 802.13904 1284.9897 4291610585
-46.549541 812.08698 1286.8374 4282070611
-42.968807 810.26196 1285.2987 4281479228
0 811.17444 1286.0681 4291675097
-42.836697 816.91199 1285.6736 4281875540
-16.658716 816.00226 1284.9066 4290084787
-2.3798165 816.91199 1285.6736 4291412695
0 816.91199 1285.6736 4291411926
-42.671558 824.05225 1285.1539 4283517793
-16.594496 824.05225 1285.1539 4285555310
2.3706422 824.05225 1285.1539 4292003294
4.7412844 824.05225 1285.1539 4291675096
-49.783485 825.86462 1286.6821 4283518295
-46.227524 825.86462 1286.6821 4283582303
-42.671558 825.86462 1286.6821 4283780968
-55.494495 832.06018 1285.366 4283386205
-49.590824 832.06018 1285.366 4283913053
-43.293579 832.66193 1285.8734 4283714652
-40.144955 832.96289 1286.1271 4284109410
-37.783485 832.96289 1286.1271 4283519076
-34.241287 832.96283 1286.1271 4282268239
-55.2789 838.22766 1284.026 4283641409
-51.750458 838.22766 1284.026 4283905864
-49.398167 838.22766 1284.026 4283971658
-47.045872 838.22766 1284.026 4284364619
-43.517433 838.22766 1284.026 4284561485
-37.636696 838.22766 1284.026 4284431955
-35.284405 838.22766 1284.026 4283445059
-31.755962 838.22766 1284.026 4283182920
4.704587 838.22766 1284.026 4286015127
7.056881 838.22766 1284.026 4290291672
-55.2789 840.026 1285.5424 4287984508
-51.750458 840.026 1285.5424 4288838284
-49.398167 840.026 1285.5424 4288838284
-39.988991 840.026 1285.5424 4290414488
-37.636696 840.026 1285.5424 4290022045
-35.284405 840.026 1285.5424 4289693080
-31.755962 840.026 1285.5424 4288183939
-28.227524 840.026 1285.5424 4287004295
4.704587 840.026 1285.5424 4284503394
-22.259632 846.15839 1284.1729 4290948525
-18.744955 846.15839 1284.1729 4291804888
-16.401834 846.15839 1284.1729 4294041594
-14.058716 846.15839 1284.1729 4293716730
-11.715596 847.94971 1285.6833 4292990954
-7.0293579 847.05408 1284.9281 4290886607
-4.6862388 846.15839 1284.1729 4290753490
-2.3431194 846.15839 1284.1729 4291214041
0 846.15839 1284.1729 4291278540
-44.157799 757.58936 1287.9755 4285360497
-41.704586 757.58936 1287.9755 4285031532
-36.798164 757.58936 1287.9755 4284109681
-46.611008 759.46484 1289.5569 4285491336
-44.157799 759.46484 1289.5569 4285426290
-40.477982 759.46484 1289.5569 4284307814
-46.436699 765.94794 1288.4832 4285031548
-43.992661 765.94794 1288.4832 4284770416
-40.326607 765.94794 1288.4832 4284897892
-46.262386 772.40302 1287.3857 4284769910
-43.827522 772.40302 1287.3857 4284967538
-52.349541 774.26447 1288.9552 4283452514
-48.697247 774.26447 1288.9552 4283781479
-55.748623 783.0769 1288.5375 4283385683
-49.688992 783.0769 1288.5375 4283847529
-46.053211 783.0769 1288.5375 4284243064
-43.629356 783.0769 1288.5375 4284177522
-53.122936 789.45898 1287.3785 4283714391
-49.500916 789.45898 1287.3785 4283847270
-45.878899 789.45898 1287.3785 4284308859
-43.464222 790.38202 1288.1567 4284637044
-38.634861 789.45898 1287.3785 4284176489
2.4146788 791.30505 1288.9351 4291938516
-57.732109 797.65204 1287.7466 4282990934
-55.326607 797.65204 1287.7466 4283451485
-52.921101 797.65204 1287.7466 4283255135
-49.312843 797.65204 1287.7466 4283979115
-45.704586 797.65204 1287.7466 4283979115
-43.299084 797.65204 1287.7466 4283913071
-40.893578 797.65204 1287.7466 4283518314
-37.285324 797.65204 1287.7466 4281939043
2.4055047 797.65204 1287.7466 4291939036
-52.921101 799.49109 1289.2972 4283320928
-50.515594 799.49109 1289.2972 4283979115
-45.704586 799.49109 1289.2972 4284308075
-43.299084 799.49109 1289.2972 4284242282
2.4055047 799.49109 1289.2972 4291676378
-46.728439 805.80304 1288.0791 4283847774
-43.133945 805.80304 1288.0791 4282265664
-45.530273 807.63507 1289.6239 4282400834
2.3963304 807.63507 1289.6239 4292004575
-46.549541 814.82446 1289.1456 4282531155
2.387156 815.73694 1289.915 4291346645
-49.976147 821.46045 1289.5088 4283124051
-46.406425 820.55078 1288.7417 4283386208
2.3798165 819.64099 1287.9747 4291543254
4.7596331 819.64099 1287.9747 4291806685
7.1394496 821.46045 1289.5088 4291082703
-59.036697 835.6709 1288.4104 4282918976
-40.144955 835.6709 1288.4104 4285021779
9.4458714 835.6709 1288.4104 4291212747
-59.036697 837.47626 1289.9326 4287784820
7.0844035 837.47626 1289.9326 4289701041
9.4458714 837.47626 1289.9326 4290557131
-55.2789 841.82434 1287.0586 4289105812
-49.398167 841.82434 1287.0586 4288119193
-47.045872 841.82434 1287.0586 4288643222
-43.517433 841.82434 1287.0586 4290155941
-28.227524 841.82434 1287.0586 4289436586
-25.875229 841.82434 1287.0586 4289436586
2.3522935 841.82434 1287.0586 4283451237
4.704587 841.82434 1287.0586 4283059539
7.056881 841.82434 1287.0586 4286481031
-54.102753 843.62268 1288.575 4288384402
-51.750458 843.62268 1288.575 4286939795
-49.398167 843.62268 1288.575 4286084486
-47.045872 843.62268 1288.575 4287068803
-35.284405 843.62268 1288.575 4289961128
-28.227524 843.62268 1288.575 4289631400
-25.875229 843.62268 1288.575 4290486709
2.3522935 843.62268 1288.575 4289173163
4.704587 843.62268 1288.575 4285563773
-49.247707 754.83624 1292.1943 4283649130
-46.78532 754.83624 1292.1943 4285491334
-39.398167 754.83624 1292.1943 4284043887
-46.436699 767.81641 1290.0586 4285295226
-52.546791 769.68494 1291.634 4283452001
-48.880733 769.68494 1291.634 4283388513
-49.688992 784.92993 1290.1 4283913577
2.4238532 786.78302 1291.6624 4292135130
4.8477063 786.78302 1291.6624 4292069341
7.2715597 786.78302 1291.6624 4292003292
-43.464222 793.15112 1290.4916 4283716971
2.4146788 793.15112 1290.4916 4291806935
4.8293576 794.0741 1291.2698 4291609048
7.2440367 794.0741 1291.2698 4291937757
9.6587152 794.0741 1291.2698 4291937501
-50.515594 801.33008 1290.8479 4283913067
2.4055047 802.24963 1291.6232 4291742170
4.8110094 803.16913 1292.3984 4291676378
9.6220188 803.16913 1292.3984 4291740887
14.433027 802.24963 1291.6232 4291478490
-50.322937 809.46704 1291.1686 4283189333
2.3963304 809.46704 1291.1686 4291871706
-50.322937 811.29907 1292.7133 4283057742
2.3963304 811.29907 1292.7133 4291477463
4.7926607 811.29907 1292.7133 4291675094
7.161468 817.56201 1291.4539 4292003807
14.322936 817.56201 1291.4539 4291741923
9.548624 819.38696 1292.9927 4289177277
10.709174 823.27979 1291.0428 4286083723
10.709174 825.09918 1292.5769 4281805141
-61.636696 832.20795 1292.0306 4282987334
11.062997 831.90594 1291.776 4290491337
14.223853 833.11414 1292.7947 4291806683
-61.398167 839.28162 1291.4548 4288514171
-59.036697 839.28162 1291.4548 4288711806
-40.144955 839.28162 1291.4548 4291076266
-37.783485 839.28162 1291.4548 4290880172
-34.241287 839.28162 1291.4548 4289697437
-30.699083 839.28162 1291.4548 4289436058
10.626606 839.28162 1291.4548 4290951858
-67.301834 841.08698 1292.9771 4289895846
-61.398167 841.08698 1292.9771 4288976539
-59.036697 841.08698 1292.9771 4289107868
-56.675228 841.08698 1292.9771 4288976539
-43.687157 841.08698 1292.9771 4289501605
-40.144955 841.08698 1292.9771 4290157997
-37.783485 841.08698 1292.9771 4290487472
-33.060551 841.08698 1292.9771 4289634214
-30.699083 841.08698 1292.9771 4289239456
7.0844035 841.08698 1292.9771 4282339916
10.626606 841.08698 1292.9771 4285227896
-51.750458 845.42102 1290.0913 4286870406
-28.227524 845.42102 1290.0913 4289106601
-25.875229 845.42102 1290.0913 4289896117
-22.34679 845.42102 1290.0913 4290424485
-18.818348 845.42102 1290.0913 4291411143
-16.466055 845.42102 1290.0913 4293187554
-14.113762 845.42102 1290.0913 4293254127
-9.409174 845.42102 1290.0913 4292071138
-4.704587 845.42102 1290.0913 4290622154
-2.3522935 845.42102 1290.0913 4291148498
0 845.42102 1290.0913 4291344594
-68.216515 847.21942 1291.6075 4289104277
-65.86422 847.21942 1291.6075 4288513169
-54.102753 847.21942 1291.6075 4287527559
-51.750458 847.21942 1291.6075 4287197048
-49.398167 847.21942 1291.6075 4287920514
-47.045872 847.21942 1291.6075 4289303453
-43.517433 847.21942 1291.6075 4289501866
-22.34679 847.21942 1291.6075 4288583838
-16.466055 847.21942 1291.6075 4288978099
-14.113762 847.21942 1291.6075 4289636544
-10.585321 847.21942 1291.6075 4291018198
-7.056881 847.21942 1291.6075 4290886355
-4.704587 847.21942 1291.6075 4290753994
-2.3522935 847.21942 1291.6075 4290885581
0 847.21942 1291.6075 4291278794
-54.172478 758.60126 1295.3689 4283845978
-51.710091 758.60126 1295.3689 4283648598
-49.247707 757.66003 1294.5752 4283517290
-52.744034 765.09131 1294.301 4283714142
-49.06422 765.09131 1294.301 4283453022
4.8477063 788.63611 1293.2249 4291806683
7.2715597 788.63611 1293.2249 4291938012
9.6954126 788.63611 1293.2249 4291806685
-60.366974 796.8432 1293.6047 4282860870
-57.952293 796.8432 1293.6047 4282860368
-55.537613 796.8432 1293.6047 4283320919
4.8293576 796.8432 1293.6047 4291478231
7.2440367 796.8432 1293.6047 4291741403
9.6587152 796.8432 1293.6047 4291938014
-53.122936 798.68921 1295.1613 4283123551
4.8293576 798.68921 1295.1613 4291741401
7.2440367 798.68921 1295.1613 4291675607
9.6587152 798.68921 1295.1613 4291741403
12.073395 798.68921 1295.1613 4292201954
-48.110092 805.00818 1293.9491 4284243038
4.8110094 805.92767 1294.7244 4291806423
7.2165136 805.92767 1294.7244 4291740629
9.6220188 805.92767 1294.7244 4291609815
12.027523 805.92767 1294.7244 4291807194
4.7926607 813.1311 1294.2579 4291609047
7.1889906 813.1311 1294.2579 4291675096
10.783486 814.96313 1295.8027 4291807198
14.377981 813.1311 1294.2579 4292069600
9.5192661 826.91858 1294.111 4282922581
14.278899 828.73798 1295.645 4290755791
16.658716 828.73798 1295.645 4290163398
-66.377983 836.73889 1295.851 4287392387
-64.007339 836.73889 1295.851 4288050317
-61.636696 834.92651 1294.3229 4287061096
11.853211 834.92651 1294.3229 4291675356
14.223853 835.8327 1295.0869 4291872472
16.594496 835.8327 1295.0869 4291543507
18.965137 836.73889 1295.851 4291674581
-66.121101 842.89233 1294.4993 4289501849
-63.759632 842.89233 1294.4993 4288646541
-61.398167 842.89233 1294.4993 4288844950
-59.036697 842.89233 1294.4993 4288910744
-55.494495 842.89233 1294.4993 4288318595
-49.590824 842.89233 1294.4993 4286278269
-47.229359 842.89233 1294.4993 4287726467
-43.687157 842.89233 1294.4993 4289698725
-40.144955 842.89233 1294.4993 4289499814
-37.783485 842.89233 1294.4993 4289830564
-34.241287 842.89233 1294.4993 4289699493
-30.699083 842.89233 1294.4993 4288844699
2.3614678 842.89233 1294.4993 4290226113
4.7229357 842.89233 1294.4993 4287596985
7.0844035 842.89233 1294.4993 4283649661
9.4458714 842.89233 1294.4993 4282930760
14.168807 842.89233 1294.4993 4285558925
16.530275 842.89233 1294.4993 4286019476
-68.216515 849.01776 1293.1239 4288842120
-64.688072 849.01776 1293.1239 4289103768
-54.102753 849.01776 1293.1239 4287461010
-51.750458 849.01776 1293.1239 4287199360
-44.693577 849.01776 1293.1239 4290620859
-37.636696 849.01776 1293.1239 4288779952
-54.172478 760.48376 1296.9562 4284108386
-51.710091 760.48376 1296.9562 4283976800
-49.247707 760.48376 1296.9562 4283386723
-53.122936 800.53528 1296.7178 4282728791
-50.708256 800.53528 1296.7178 4283979115
7.2440367 800.53528 1296.7178 4291544791
12.073395 800.53528 1296.7178 4292004059
-53.122936 802.38135 1298.2743 4282926426
-50.708256 802.38135 1298.2743 4284308079
7.2165136 808.68622 1297.0503 4291740887
9.6220188 808.68622 1297.0503 4291280598
12.027523 808.68622 1297.0503 4291214805
9.6220188 810.52527 1298.601 4291280600
12.027523 810.52527 1298.601 4291741151
11.981651 816.79517 1297.3474 4287663782
-66.634865 832.37677 1298.7131 4286270045
-64.255043 832.37677 1298.7131 4286467680
-64.007339 838.55127 1297.3792 4288844699
14.223853 838.55127 1297.3792 4289435566
16.594496 838.55127 1297.3792 4288712099
18.965137 838.55127 1297.3792 4287924110
11.853211 840.36365 1298.9072 4284378206
18.965137 840.36365 1298.9072 4286215011
-63.759632 844.69769 1296.0215 4288710548
-61.398167 844.69769 1296.0215 4288187286
-59.036697 844.69769 1296.0215 4287726735
-56.675228 844.69769 1296.0215 4287593352
-40.144955 844.69769 1296.0215 4288713129
-37.783485 844.69769 1296.0215 4289172650
-34.241287 844.69769 1296.0215 4289106852
-30.699083 844.69769 1296.0215 4288580759
-28.337614 844.69769 1296.0215 4288252830
-25.976147 844.69769 1296.0215 4288844710
-18.891743 844.69769 1296.0215 4288583341
2.3614678 844.69769 1296.0215 4291541709
4.7229357 844.69769 1296.0215 4291214545
7.0844035 844.69769 1296.0215 4290293443
10.626606 844.69769 1296.0215 4284512881
14.168807 844.69769 1296.0215 4278271050
16.530275 844.69769 1296.0215 4280902770
-61.398167 846.50305 1297.5438 4288645268
-56.675228 846.50305 1297.5438 4287461010
-49.590824 846.50305 1297.5438 4288581013
-47.229359 846.50305 1297.5438 4289568171
-42.50642 846.50305 1297.5438 4289567415
-40.144955 846.50305 1297.5438 4289106864
-34.241287 846.50305 1297.5438 4288056480
-30.699083 846.50305 1297.5438 4287464594
-28.337614 846.50305 1297.5438 4287793053
-25.976147 846.50305 1297.5438 4289174706
-22.433945 846.50305 1297.5438 4289307566
-18.891743 846.50305 1297.5438 4288779948
-16.530275 846.50305 1297.5438 4287924895
-14.168807 846.50305 1297.5438 4288319401
-10.626606 846.50305 1297.5438 4291017425
-7.0844035 846.50305 1297.5438 4291215057
-4.7229357 846.50305 1297.5438 4290885581
-2.3614678 846.50305 1297.5438 4290819788
0 846.50305 1297.5438 4290950853
4.7229357 846.50305 1297.5438 4291148750
-55.748623 796.97485 1300.2559 4283123024
-55.537613 804.22736 1299.8308 4282663752
-53.122936 804.22736 1299.8308 4282860368
18.965137 842.17603 1300.4354 4285819501
-59.266056 843.9884 1301.9636 4287987595
2.3706422 843.9884 1301.9636 4291082696
7.1119266 843.9884 1301.9636 4291148750
10.667891 843.9884 1301.9636 4287202955
14.223853 843.9884 1301.9636 4282670166
16.594496 843.9884 1301.9636 4282670166
18.965137 843.9884 1301.9636 4284376449
-70.84404 848.30841 1299.066 4287526011
-67.301834 848.30841 1299.066 4288181635
-63.759632 848.30841 1299.066 4288442245
-61.398167 848.30841 1299.066 4288050317
-55.494495 848.30841 1299.066 4287591815
-51.952293 848.30841 1299.066 4287858315
-49.590824 848.30841 1299.066 4288648087
-47.229359 848.30841 1299.066 4289633197
-43.687157 848.30841 1299.066 4289567920
-40.144955 848.30841 1299.066 4289172909
-37.783485 848.30841 1299.066 4287861928
-34.241287 848.30841 1299.066 4286677390
-30.699083 848.30841 1299.066 4287006092
-28.337614 848.30841 1299.066 4287398549
-25.976147 848.30841 1299.066 4289240753
-22.433945 848.30841 1299.066 4289570218
-14.168807 848.30841 1299.066 4288119697
-10.626606 848.30841 1299.066 4289041831
-7.0844035 848.30841 1299.066 4291345361
-4.7229357 848.30841 1299.066 4291214807
-2.3614678 848.30841 1299.066 4290820049
0 848.30841 1299.066 4290754504
-73.205505 850.11377 1300.5883 4287661474
-70.84404 850.11377 1300.5883 4287922061
-67.301834 850.11377 1300.5883 4288117906
-63.759632 850.11377 1300.5883 4287457928
-61.398167 850.11377 1300.5883 4287459202
-54.313763 850.11377 1300.5883 4288909199
-44.867889 850.11377 1300.5883 4288976550
-60.871559 792.87921 1304.6508 4282531135
-58.436699 792.87921 1304.6508 4282859598
-55.748623 799.75439 1302.5996 4282728793
-59.266056 845.80078 1303.4917 4287918731
-18.965137 845.80078 1303.4917 4289437364
-16.594496 845.80078 1303.4917 4288384933
2.3706422 845.80078 1303.4917 4290623174
4.7412844 845.80078 1303.4917 4290490053
7.1119266 845.80078 1303.4917 4291082190
10.667891 845.80078 1303.4917 4290754758
14.223853 845.80078 1303.4917 4288128171
16.594496 845.80078 1303.4917 4283127903
18.965137 845.80078 1303.4917 4281090907
21.335779 845.80078 1303.4917 4283657091
-73.205505 851.91919 1302.1105 4288122788
-70.84404 851.91919 1302.1105 4288647065
-67.301834 851.91919 1302.1105 4288383124
-63.759632 851.91919 1302.1105 4287460997
-73.205505 853.72449 1303.6327 4288516001
-66.121101 853.72449 1303.6327 4288317073
-60.871559 794.74066 1306.2202 4282729543
-58.436699 794.74066 1306.2202 4282794056
-60.871559 796.60217 1307.7898 4282729543
-58.436699 796.60217 1307.7898 4282005070
-59.266056 847.61316 1305.0199 4288116876
-56.895412 847.61316 1305.0199 4288185219
-52.154129 847.61316 1305.0199 4289173150
-49.783485 847.61316 1305.0199 4289765287
-47.412846 847.61316 1305.0199 4289305515
-42.671558 847.61316 1305.0199 4288910507
-40.300919 847.61316 1305.0199 4288910507
-37.930275 847.61316 1305.0199 4288189348
-34.374313 847.61316 1305.0199 4287334040
-30.818348 847.61316 1305.0199 4287728797
-28.447706 847.61316 1305.0199 4288187036
-26.077065 847.61316 1305.0199 4289437103
-22.521101 847.61316 1305.0199 4289502626
-18.965137 847.61316 1305.0199 4289567919
-16.594496 847.61316 1305.0199 4288778403
-14.223853 847.61316 1305.0199 4287989405
-10.667891 847.61316 1305.0199 4288318368
-7.1119266 847.61316 1305.0199 4291410893
-4.7412844 847.61316 1305.0199 4291477213
-2.3706422 847.61316 1305.0199 4291148248
0 847.61316 1305.0199 4290754506
10.667891 847.61316 1305.0199 4291082955
14.223853 847.61316 1305.0199 4290096832
16.594496 847.61316 1305.0199 4286148996
18.965137 847.61316 1305.0199 4285887095
-61.636696 849.42554 1306.5481 4287656065
-59.266056 849.42554 1306.5481 4288182410
-55.710091 849.42554 1306.5481 4289302167
-52.154129 849.42554 1306.5481 4289436068
-49.783485 849.42554 1306.5481 4288778394
-46.227524 849.42554 1306.5481 4288515747
-42.671558 849.42554 1306.5481 4288517546
-40.300919 849.42554 1306.5481 4288517546
-37.930275 849.42554 1306.5481 4288583078
-34.374313 849.42554 1306.5481 4289372851
-30.818348 849.42554 1306.5481 4288649386
-28.447706 849.42554 1306.5481 4288187036
-26.077065 849.42554 1306.5481 4288384159
-22.521101 849.42554 1306.5481 4288711318
-18.965137 849.42554 1306.5481 4288777122
-16.594496 849.42554 1306.5481 4288645537
-14.223853 849.42554 1306.5481 4288187540
-11.853211 849.42554 1306.5481 4287924112
-7.1119266 849.42554 1306.5481 4289504691
0 849.42554 1306.5481 4290622154
-58.436699 798.46362 1309.3594 4280887341
2.3798165 845.11249 1309.4515 4290754506
4.7596331 845.11249 1309.4515 4290754244
7.1394496 845.11249 1309.4515 4290885831
21.418348 845.11249 1309.4515 4286808197
-9.5192661 846.93188 1310.9856 4287596694
-4.7596331 846.93188 1310.9856 4289964227
-2.3798165 846.93188 1310.9856 4290753742
2.3798165 846.93188 1310.9856 4290819534
4.7596331 846.93188 1310.9856 4290754504
7.1394496 846.93188 1310.9856 4290820553
10.709174 846.93188 1310.9856 4291082705
14.278899 846.93188 1310.9856 4290950604
16.658716 846.93188 1310.9856 4291016397
19.038532 846.93188 1310.9856 4291279303
22.608257 846.93188 1310.9856 4291476424
-71.119263 851.23792 1308.0762 4288778394
-68.748627 851.23792 1308.0762 4288778394
-64.007339 851.23792 1308.0762 4288119695
-61.636696 851.23792 1308.0762 4287988108
-52.154129 851.23792 1308.0762 4289567908
-49.783485 851.23792 1308.0762 4288581013
-46.227524 851.23792 1308.0762 4288843692
-42.671558 851.23792 1308.0762 4288647335
-40.300919 851.23792 1308.0762 4288713129
-37.930275 851.23792 1308.0762 4289108390
-30.818348 851.23792 1308.0762 4288845997
-67.563309 853.05029 1309.6044 4288778132
-58.305504 848.75128 1312.5198 4288119695
-54.735779 848.75128 1312.5198 4289764265
-34.507339 848.75128 1312.5198 4289569203
-28.557798 848.75128 1312.5198 4288514202
-26.177982 848.75128 1312.5198 4288579996
-22.608257 848.75128 1312.5198 4288711327
-19.038532 848.75128 1312.5198 4288187034
-16.658716 848.75128 1312.5198 4288121241
-14.278899 848.75128 1312.5198 4287925145
-10.709174 848.75128 1312.5198 4287728276
-7.1394496 848.75128 1312.5198 4288715681
-4.7596331 848.75128 1312.5198 4288912052
-2.3798165 848.75128 1312.5198 4290820049
0 848.75128 1312.5198 4290886094
10.709174 848.75128 1312.5198 4291279314
14.278899 848.75128 1312.5198 4291016399
16.658716 848.75128 1312.5198 4291082192
19.038532 848.75128 1312.5198 4291213262
22.608257 848.75128 1312.5198 4291542480
2.387156 846.76196 1316.0745 4290820301
4.774312 846.76196 1316.0745 4290819786
7.161468 846.76196 1316.0745 4291082957
-64.255043 850.57068 1314.0537 4288449941
-61.875229 850.57068 1314.0537 4288514464
-58.305504 850.57068 1314.0537 4288778400
-54.735779 850.57068 1314.0537 4289568167
-52.355965 850.57068 1314.0537 4289831346
-49.976147 850.57068 1314.0537 4289370795
-46.406422 850.57068 1314.0537 4289567656
-42.836697 850.57068 1314.0537 4288778405
-40.456882 850.57068 1314.0537 4289370543
-38.077065 850.57068 1314.0537 4289437101
-34.507339 850.57068 1314.0537 4289305776
-21.418348 850.57068 1314.0537 4286936713
-19.038532 850.57068 1314.0537 4285950840
14.278899 850.57068 1314.0537 4290687947
16.658716 850.57068 1314.0537 4290622154
19.038532 850.57068 1314.0537 4290556613
22.608257 850.57068 1314.0537 4290886088
-61.875229 852.39001 1315.5879 4288712108
23.798164 852.39001 1315.5879 4291017414
-31.033028 848.58698 1317.6133 4288845230
-28.645872 848.58698 1317.6133 4288449945
-26.258715 848.58698 1317.6133 4288712860
-23.871559 848.58698 1317.6133 4288121243
-16.710093 848.58698 1317.6133 4287200906
-14.322936 848.58698 1317.6133 4287530901
-10.742202 848.58698 1317.6133 4287531410
-7.161468 848.58698 1317.6133 4288123801
-4.774312 848.58698 1317.6133 4288124325
-2.387156 848.58698 1317.6133 4290624203
0 848.58698 1317.6133 4290952400
7.161468 848.58698 1317.6133 4291148748
10.742202 848.58698 1317.6133 4290950604
-69.227524 850.41199 1319.1521 4287399551
-66.84037 850.41199 1319.1521 4287596685
-64.453209 850.41199 1319.1521 4288254358
-58.485321 850.41199 1319.1521 4289238188
-54.904587 850.41199 1319.1521 4289830062
-52.517429 850.41199 1319.1521 4289960878
-50.130276 850.41199 1319.1521 4289566120
-46.549541 850.41199 1319.1521 4289829281
-42.968807 850.41199 1319.1521 4289828775
-40.58165 850.41199 1319.1521 4290092203
-38.194496 850.41199 1319.1521 4289895853
-34.613762 850.41199 1319.1521 4289436583
-31.033028 850.41199 1319.1521 4288582042
-28.645872 850.41199 1319.1521 4288713114
-21.484404 850.41199 1319.1521 4286739338
-19.097248 850.41199 1319.1521 4286476932
14.322936 850.41199 1319.1521 4290753227
16.710093 850.41199 1319.1521 4290753227
19.097248 850.41199 1319.1521 4290688199
21.484404 850.41199 1319.1521 4290885579
2.3963304 846.10736 1322.0627 4290689485
4.7926607 846.10736 1322.0627 4290820040
-26.359632 847.93939 1323.6074 4288844701
-23.963303 847.93939 1323.6074 4287857563
-16.774311 847.93939 1323.6074 4287200654
-14.377981 847.93939 1323.6074 4287923858
-10.783486 847.93939 1323.6074 4287924630
-7.1889906 847.93939 1323.6074 4288319903
-4.7926607 847.93939 1323.6074 4288715179
-2.3963304 847.93939 1323.6074 4290886092
0 847.93939 1323.6074 4291082957
10.783486 847.93939 1323.6074 4290753994
-64.70092 849.77142 1325.1521 4287007627
-62.304588 849.77142 1325.1521 4288515499
-58.710091 849.77142 1325.1521 4289172650
-55.115597 849.77142 1325.1521 4289303201
-52.719265 849.77142 1325.1521 4289170081
-50.322937 849.77142 1325.1521 4289038752
-46.728439 849.77142 1325.1521 4289364885
-43.133945 849.77142 1325.1521 4289431441
-40.737614 849.77142 1325.1521 4289431441
-38.341286 849.77142 1325.1521 4288973720
-34.746788 849.77142 1325.1521 4288250259
-31.152294 849.77142 1325.1521 4288842915
-28.755962 849.77142 1325.1521 4288713631
-26.359632 849.77142 1325.1521 4288450458
-22.765137 849.77142 1325.1521 4287398549
-19.170643 849.77142 1325.1521 4287857544
-16.774311 849.77142 1325.1521 4287988873
-14.377981 849.77142 1325.1521 4288053651
-11.981651 849.77142 1325.1521 4287724687
-7.1889906 849.77142 1325.1521 4289108640
14.377981 849.77142 1325.1521 4291082190
16.774311 849.77142 1325.1521 4291016397
19.170643 849.77142 1325.1521 4290950856
22.765137 849.77142 1325.1521 4291016903
2.4055047 845.4668 1328.0627 4291609301
4.8110094 845.4668 1328.0627 4291149000
7.2165136 845.4668 1328.0627 4291149000
-47.926605 851.60339 1326.6968 4288840603
-40.737614 851.60339 1326.6968 4289104011
-19.170643 851.60339 1326.6968 4287924112
-69.759636 847.30579 1329.6134 4282666067
-67.354126 847.30579 1329.6134 4282928462
-9.6220188 847.30579 1329.6134 4286937215
-4.8110094 847.30579 1329.6134 4290096062
-2.4055047 847.30579 1329.6134 4291082957
0 847.30579 1329.6134 4290754244
7.2165136 847.30579 1329.6134 4291017160
9.6220188 847.30579 1329.6134 4290754506
12.027523 847.30579 1329.6134 4290754506
-64.948624 849.14484 1331.1641 4286872996
-61.340366 849.14484 1331.1641 4288450988
-57.732109 849.14484 1331.1641 4289173409
-55.326607 849.14484 1331.1641 4289107616
-52.921101 849.14484 1331.1641 4288907943
-50.515594 849.14484 1331.1641 4288776357
-45.704586 849.14484 1331.1641 4288709017
-43.299084 849.14484 1331.1641 4288972425
-37.285324 849.14484 1331.1641 4288644239
-33.677063 849.14484 1331.1641 4288514204
-31.271559 849.14484 1331.1641 4288974499
-28.866055 849.14484 1331.1641 4288185501
-25.257797 849.14484 1331.1641 4287659927
-21.649542 849.14484 1331.1641 4287857563
-16.838531 849.14484 1331.1641 4288384663
-13.230275 849.14484 1331.1641 4287200918
-9.6220188 849.14484 1331.1641 4287067538
-7.2165136 849.14484 1331.1641 4289830844
-4.8110094 849.14484 1331.1641 4290752457
-2.4055047 849.14484 1331.1641 4291344594
0 849.14484 1331.1641 4290951107
13.230275 849.14484 1331.1641 4290820046
16.838531 849.14484 1331.1641 4290885329
19.244038 849.14484 1331.1641 4290820037
21.649542 849.14484 1331.1641 4290820037
2.4146788 844.84027 1334.0746 4290885831
4.8293576 844.84027 1334.0746 4291083209
-52.921101 850.98389 1332.7146 4289766064
-49.312843 850.98389 1332.7146 4289633966
-45.704586 850.98389 1332.7146 4289501611
-40.893578 850.98389 1332.7146 4288580246
-37.285324 850.98389 1332.7146 4288973461
-33.677063 850.98389 1332.7146 4289567917
-31.271559 850.98389 1332.7146 4288646815
-24.055046 850.98389 1332.7146 4287067517
19.244038 850.98389 1332.7146 4290820551
-48.110092 852.82288 1334.2653 4289699507
-55.537613 848.53235 1337.1876 4289372589
-43.464222 848.53235 1337.1876 4289040797
-28.976147 848.53235 1337.1876 4287921559
-26.561468 848.53235 1337.1876 4287132300
-19.31743 848.53235 1337.1876 4287662226
-16.902752 848.53235 1337.1876 4288056984
-13.280734 848.53235 1337.1876 4287860631
-9.6587152 848.53235 1337.1876 4288845466
-7.2440367 848.53235 1337.1876 4290424498
-4.8293576 848.53235 1337.1876 4291081158
-2.4146788 848.53235 1337.1876 4291212745
1.2073394 847.60938 1336.4094 4290819779
4.8293576 847.60938 1336.4094 4290820297
7.2440367 847.60938 1336.4094 4290820040
9.6587152 847.60938 1336.4094 4290557127
13.280734 848.53235 1337.1876 4290425543
16.902752 848.53235 1337.1876 4290754254
-55.537613 850.37842 1338.7441 4289438634
-53.122936 850.37842 1338.7441 4289569455
-50.708256 850.37842 1338.7441 4289701041
-45.878899 850.37842 1338.7441 4289567665
-43.464222 850.37842 1338.7441 4289106088
-41.049541 850.37842 1338.7441 4288316571
-37.427521 850.37842 1338.7441 4289236390
-31.390825 850.37842 1338.7441 4288251807
-26.561468 850.37842 1338.7441 4286541194
-2.4146788 850.37842 1338.7441 4290752961
9.6587152 850.37842 1338.7441 4290491588
13.280734 850.37842 1338.7441 4290491590
16.902752 850.37842 1338.7441 4290754508
19.31743 850.37842 1338.7441 4290820037
-53.122936 852.22449 1340.3008 4287991452
9.6587152 852.22449 1340.3008 4290623428
13.280734 852.22449 1340.3008 4290689477
16.902752 852.22449 1340.3008 4290558146
-63.020184 846.08081 1341.6608 4287858846
-60.596329 846.08081 1341.6608 4289240499
-58.172478 847.00732 1342.4419 4289372587
-33.933945 847.93384 1343.2231 4289699253
-29.086239 847.93384 1343.2231 4287528089
-24.238533 847.93384 1343.2231 4286870406
-21.814678 847.00732 1342.4419 4288186261
-19.390825 847.93384 1343.2231 4288121493
-16.966972 847.93384 1343.2231 4287989907
-13.331193 847.93384 1343.2231 4288910491
-9.6954126 847.93384 1343.2231 4290028459
-7.2715597 847.93384 1343.2231 4291015354
-4.8477063 847.93384 1343.2231 4290818754
1.6159021 847.31616 1342.7023 4290688708
4.8477063 847.93384 1343.2231 4290754244
7.2715597 847.93384 1343.2231 4290820037
14.488073 854.0705 1341.8573 4290623424
-70.611008 841.27747 1345.4589 4283125362
-68.176147 841.27747 1345.4589 4283780981
-63.020184 851.64001 1346.3481 4289372589
-58.172478 850.7135 1345.5669 4289373372
-55.748623 850.7135 1345.5669 4288780978
-53.324772 851.64001 1346.3481 4287662737
-48.477066 849.78693 1344.7856 4288843945
-46.053211 849.78693 1344.7856 4289107116
-41.205505 849.78693 1344.7856 4288844197
-16.966972 849.78693 1344.7856 4287726987
-13.331193 849.78693 1344.7856 4290223272
-2.4238532 849.78693 1344.7856 4290425280
0 849.78693 1344.7856 4290556098
9.6954126 851.64001 1346.3481 4290623428
12.119267 851.64001 1346.3481 4290754757
-55.537613 857.76257 1344.9703 4287794336
-53.122936 857.76257 1344.9703 4287533218
-55.537613 859.60864 1346.5269 4289833406
-53.122936 859.60864 1346.5269 4289309878
-64.929665 844.37994 1348.0748 4287991453
-60.871559 845.00043 1348.598 4289174706
-58.172478 853.49304 1347.9105 4288649143
-55.748623 853.49304 1347.9105 4287793835
-53.324772 853.49304 1347.9105 4286807943
9.6954126 853.49304 1347.9105 4290622404
-58.172478 855.34607 1349.473 4288452523
-49.688992 855.34607 1349.473 4288387239
-70.877068 840.68738 1351.5015 4287662237
-68.433029 840.68738 1351.5015 4287400335
-68.176147 848.72339 1351.7371 4289108400
-64.929665 847.48242 1350.6907 4289372081
-60.871559 847.79266 1350.9523 4289307311
-51.132111 847.79266 1350.9523 4288057498
-48.697247 848.72339 1351.7371 4288778405
-46.262386 848.72339 1351.7371 4289107114
-43.827522 847.79266 1350.9523 4288976038
-41.392662 848.72339 1351.7371 4289437101
-37.740364 847.79266 1350.9523 4289501607
-34.088074 847.79266 1350.9523 4289436342
-31.653212 847.79266 1350.9523 4288383655
-29.218349 847.79266 1350.9523 4288121250
-25.566055 847.79266 1350.9523 4287726488
-21.913761 847.79266 1350.9523 4287989656
-19.478899 847.79266 1350.9523 4288120721
-17.044037 848.72339 1351.7371 4289764265
-13.391743 848.72339 1351.7371 4290619576
-9.7394495 847.79266 1350.9523 4291080386
-7.3045874 847.79266 1350.9523 4290948800
-4.8697248 847.79266 1350.9523 4290556608
-2.4348624 848.72339 1351.7371 4290622143
1.2174312 847.79266 1350.9523 4290687940
