# .PCD v0.7 - Point Cloud Data file format
VERSION 0.7
FIELDS x y z rgb
SIZE 4 4 4 4
TYPE F F F U
COUNT 1 1 1 1
WIDTH 1167
HEIGHT 1
VIEWPOINT 0 0 0 1 0 0 0
POINTS 1167
DATA ascii
7.0091743 781.71893 808.65356 4283976001
10.513762 781.71893 808.65356 4290546372
12.266055 781.71893 808.65356 4284229987
17.522936 781.04907 808.08875 4294967295
19.275229 781.04907 808.08875 4294967295
21.61162 781.2724 808.27704 4294967295
24.53211 781.71893 808.65356 4294967295
29.78899 781.71893 808.65356 4294967295
31.541285 781.71893 808.65356 4294967295
-7.0091743 783.05853 809.78308 4291938266
-5.2403669 785.2912 807.74146 4293254127
0.87339449 785.2912 807.74146 4293717488
7.8605504 785.2912 807.74146 4286539631
10.480734 785.2912 807.74146 4289235363
13.100918 785.2912 807.74146 4285877583
16.619267 784.17487 808.76227 4294964200
20.088074 785.2912 807.74146 4294967295
22.708258 785.2912 807.74146 4294967295
25.408257 783.05853 809.78308 4294967295
28.822018 785.2912 807.74146 4294967295
31.541285 783.05853 809.78308 4294967295
34.169724 783.05853 809.78308 4294967295
-24.455046 786.62659 808.86743 4281017896
-6.9871559 787.29431 809.43048 4291938781
-4.3633027 787.36938 808.18573 4292861416
-1.7431192 788.11224 807.50403 4294572798
0.87155962 787.36938 808.18573 4293848818
4.3577981 788.11224 807.50403 4288188572
7.8440366 788.11224 807.50403 4287725936
10.458715 788.11224 807.50403 4291608297
13.088074 787.36938 808.18573 4286141773
16.594496 786.62659 808.86743 4294965200
20.045872 788.11224 807.50403 4294967295
22.660551 788.11224 807.50403 4294967295
25.328442 786.62659 808.86743 4294967295
28.761467 788.11224 807.50403 4294967295
31.376146 788.11224 807.50403 4294967295
34.027523 788.03711 808.74878 4294967295
37.239147 788.01202 809.16376 4294967295
40.176147 787.96204 809.99353 4294967295
-24.403669 789.44489 808.62769 4280952100
-4.3577981 790.11121 809.18951 4292926698
-1.7431192 789.44489 808.62769 4294835199
0.87155962 790.11121 809.18951 4293848568
3.4862385 789.44489 808.62769 4290952139
13.944954 789.44489 808.62769 4288447807
17.431192 789.44489 808.62769 4294967295
20.045872 789.44489 808.62769 4294967295
22.660551 789.44489 808.62769 4294967295
25.27523 790.11121 809.18958 4294967295
27.889908 789.44489 808.62769 4294967295
33.119267 789.44489 808.62769 4294967295
-3.4752293 794.32593 808.81921 4293058796
-1.7376146 793.66174 808.25916 4294440703
1.7376146 794.32593 808.81921 4294438399
4.3440366 792.9975 807.6991 4290163902
17.376146 792.9975 807.6991 4294967295
19.982569 792.9975 807.6991 4294967295
22.588991 792.9975 807.6991 4294967295
25.195412 794.32593 808.81921 4294967295
28.670643 793.66168 808.25916 4294967295
31.277063 792.9975 807.6991 4294967295
33.014679 793.66174 808.25916 4294967295
-4.3440366 795.65436 809.93933 4291939795
-1.7321101 797.86597 807.88 4292992742
0.86605507 796.76013 808.90967 4294831613
25.115597 797.86597 807.88 4294967295
28.579817 797.86597 807.88 4294967295
32.044037 797.86597 807.88 4294967295
-3.4642203 799.19012 808.99646 4292267734
-1.7284404 800.66174 807.62122 4292728285
0.8642202 799.9259 808.30884 4294834426
4.3211012 800.66174 807.62122 4287137926
25.062386 800.66174 807.62122 4294967295
28.579817 799.19012 808.99646 4294967295
32.011009 799.9259 808.30884 4294967295
-1.7284404 801.98315 808.73535 4294965759
0.8642202 802.64386 809.29248 4294967295
4.3211012 801.98315 808.73535 4286676612
25.926605 801.98315 808.73535 4294967295
28.807341 802.42365 809.10675 4294967295
31.976147 801.98315 808.73535 4294967295
-1.7229358 806.16211 808.33496 4291016394
0.8614679 806.82074 808.89026 4293975778
4.3073397 806.16217 808.33496 4287927192
25.844036 805.50354 807.77966 4294967295
28.141283 806.38165 808.52002 4294967295
31.874311 806.16211 808.33496 4294967295
34.458717 805.50354 807.77966 4294967295
-1.7192661 809.59833 808.61621 4285681769
0.85963303 809.59833 808.61621 4291080634
4.2981653 809.59833 808.61621 4287400611
6.8770642 808.28394 807.50793 4278190080
24.929358 808.94116 808.06207 4294967295
32.666054 809.59833 808.61621 4294967295
34.385323 808.94116 808.06207 4294967295
-5.1577983 810.91272 809.72449 4286209382
25.78899 810.91272 809.72449 4294834430
28.367889 810.91272 809.72449 4294900734
31.806421 810.91272 809.72449 4294967295
-6.8550458 814.40924 808.74841 4285483082
-3.9963303 814.45746 807.91705 4286141268
-1.7137614 813.09906 807.6438 4286209378
0.57003057 814.94232 807.45392 4286670956
19.96575 814.94232 807.45392 4294966783
23.11101 814.48151 807.5014 4294966271
25.706423 814.40924 808.74841 4294768637
28.277065 814.40924 808.74841 4294900222
31.704586 814.40924 808.74841 4294967295
34.27523 813.75415 808.19611 4294967039
-7.4103971 818.04291 809.19629 4285484108
-5.1302752 817.82501 809.01257 4286272849
20.521101 817.17133 808.46143 4294967295
23.086239 817.82501 809.01257 4294967295
25.651377 817.82501 809.01257 4294967295
28.216515 817.82501 809.01257 4294900222
31.636696 817.82501 809.01257 4294965503
35.056881 817.17133 808.46143 4294966014
-10.227523 821.95557 808.57129 4281935917
-6.8183484 821.95557 808.57129 4285817957
-5.1137614 821.95557 808.57129 4286936438
19.88685 821.08673 807.83881 4294967295
23.011927 821.95557 808.57129 4294967039
25.568808 821.95557 808.57129 4294966783
28.125687 821.95557 808.57129 4294965503
32.387157 821.95557 808.57129 4294966783
34.944038 820.6524 807.47253 4294966783
-10.227523 823.25873 809.67004 4282591018
-7.6633029 823.98047 808.97064 4285421394
-4.2522936 824.05212 807.72302 4287002997
-1.7009175 823.40192 807.1748 4285754481
17.009174 823.40192 807.1748 4294569720
19.560551 824.05212 807.72302 4294967039
23.011927 823.25873 809.67004 4294967295
25.513762 824.70227 808.27124 4294966783
28.065138 824.70227 808.27124 4294966783
31.183487 824.26886 807.90576 4294966783
34.018349 823.40192 807.1748 4294966527
-6.8036699 826.00269 809.36768 4284897107
-5.1027522 826.00269 809.36768 4286410346
-3.3908257 828.16376 807.26562 4286148984
23.735781 828.16376 807.26562 4294967295
25.431192 828.16376 807.26562 4294967039
28.822018 828.16376 807.26562 4294967295
32.212845 828.16376 807.26562 4294967295
-1.6917431 832.19122 808.04541 4286214259
0 832.19122 808.04541 4286017928
35.526604 832.19122 808.04541 4294966527
-10.96055 836.92218 808.11035 4281410340
-7.5880733 836.27759 807.56689 4284435278
-4.4966359 836.06274 807.38574 4286279278
-1.6862385 835.633 807.02344 4286017646
0 835.633 807.02344 4285031296
34.84893 836.06274 807.38574 4294966014
37.659328 836.06274 807.38574 4294834685
42.155964 835.633 807.02344 4294965757
-10.095413 839.638 807.78418 4281672746
-7.5715594 839.638 807.78418 4283975249
-4.2064219 839.638 807.78418 4286344310
-1.6825688 839.638 807.78418 4286673784
0.84128439 839.638 807.78418 4285226878
3.3651376 839.638 807.78418 4285425790
28.60367 839.638 807.78418 4294966527
31.127522 839.638 807.78418 4294899966
34.531193 838.92468 808.49078 4294899453
37.898163 838.92468 808.49078 4294899710
40.381653 839.638 807.78418 4294966526
-10.936697 841.5675 809.41113 4281475112
-7.571559 841.5675 809.41113 4282922821
-4.2064219 841.5675 809.41113 4286541946
-1.6825688 841.5675 809.41113 4286344560
0.84128439 840.92438 808.86877 4286738055
4.2064219 840.92438 808.86877 4286740871
7.2911315 841.78192 809.59198 4286016371
10.936697 842.21069 809.95349 4287461512
13.46055 842.21069 809.95349 4287662478
15.984404 842.21069 809.95349 4284041296
19.349541 842.21069 809.95349 4293645537
22.71468 842.21069 809.95349 4294967295
26.360245 841.78192 809.59198 4294966270
28.60367 841.5675 809.41113 4294966014
31.127522 841.5675 809.41113 4294899963
33.651375 841.5675 809.41113 4294636284
40.381653 840.92438 808.86877 4294768637
49.473396 844.34229 807.82666 4294900477
49.365135 847.04266 807.48755 4294966271
-3.5926607 748.71783 812.22058 4290886609
28.741285 748.71783 812.22058 4294967295
-1.7908257 752.37006 811.37598 4278190116
1.7908257 751.00092 810.22156 4290689492
4.4770641 751.00092 810.22156 4290163136
23.280733 751.68549 810.79877 4294967295
25.966972 751.68549 810.79883 4294967039
28.653212 752.37006 811.37598 4294966527
-3.5816514 753.73914 812.53027 4278190080
-1.787156 755.25562 811.19299 4278190080
0.89357799 753.81421 811.28558 4278190098
13.403669 753.88934 810.04089 4278190098
16.977982 754.57251 810.61694 4292467423
19.658716 754.57251 810.61694 4294967295
22.04159 754.80023 810.8089 4294967295
25.913761 755.25562 811.19299 4294966783
28.594496 755.25562 811.19299 4294966783
30.444036 753.73914 812.53027 4294967039
-3.574312 756.62195 812.34497 4291608772
-1.7816514 758.89246 810.33533 4289898154
0 756.62195 812.34497 4279327095
16.925688 758.89246 810.33533 4293188834
19.598166 758.89246 810.33533 4294967295
22.306423 757.7572 811.34015 4294967039
25.913761 756.62195 812.34497 4294967039
28.506422 758.89246 810.33533 4294967039
31.27523 756.62195 812.34497 4294967295
-4.4541283 760.93555 812.05804 4294364632
-1.7816514 760.25452 811.48376 4294165455
0 760.25452 811.48376 4290085832
17.816513 760.25452 811.48376 4294965759
19.598166 760.25452 811.48376 4294967295
22.270641 760.25452 811.48376 4294967295
25.833946 760.25452 811.48376 4294967295
-3.5522935 763.87872 810.61548 4294953175
-1.7761468 763.87872 810.61548 4294951633
0 763.87872 810.61548 4294951879
17.761467 763.87872 810.61548 4294967039
19.537615 763.87872 810.61548 4294967295
22.201836 763.87872 810.61548 4294967295
25.754128 763.87872 810.61548 4294967295
33.746788 763.87872 810.61548 4294967295
-4.7339444 766.19092 811.69305 4294762210
-1.772477 766.74182 810.41357 4292654017
0.88623852 765.9892 811.08698 4294755235
19.497248 766.74182 810.41357 4294967295
22.155964 766.74182 810.41357 4294967295
25.700916 766.74182 810.41357 4294967295
28.359632 766.74182 810.41357 4294967295
31.904587 766.74182 810.41357 4294967295
34.338837 765.68921 812.14203 4294967295
38.108257 766.74182 810.41357 4294967295
40.766972 766.74182 810.41357 4294967295
-5.317431 769.4519 812.69873 4292525204
23.042202 768.09686 811.55615 4294967295
25.700916 768.09686 811.55615 4294967295
31.904587 768.77441 812.12744 4294967295
37.222019 768.09686 811.55615 4294967295
0 771.70142 810.67126 4294436070
3.5339448 771.70142 810.67126 4290410868
15.902752 771.70142 810.67126 4294107369
22.970642 771.70142 810.67126 4294967295
25.915596 772.15167 811.05096 4294967295
28.271559 771.70142 810.67126 4294967295
30.038532 772.37683 811.24078 4294967295
-7.9403672 775.52368 811.93207 4294965246
10.568808 776.64417 810.91479 4291734727
26.422018 776.64417 810.91479 4294967295
29.06422 776.64417 810.91479 4294967295
-8.8073397 777.99084 812.05029 4293317357
-8.1944952 781.57013 811.14423 4292267997
14.047707 780.22766 810.01221 4285203200
15.80367 780.22766 810.01221 4294956736
26.339449 780.22766 810.01221 4294967295
28.095413 780.22766 810.01221 4294967295
-8.7614679 785.73785 812.04211 4292267232
-8.1516819 789.74268 811.49481 4291871703
34.93578 789.29749 811.11951 4294967295
36.682568 789.29749 811.11951 4294967295
-7.5535164 792.99854 811.62408 4290886341
-5.2293577 792.11011 810.875 4292466134
0 792.11011 810.875 4294964991
34.862385 792.77643 811.43683 4294967295
-6.9504585 796.98279 811.05945 4293056468
-5.2128439 796.98279 811.05945 4292398538
34.752293 796.98279 811.05945 4294967295
-6.9504585 798.31122 812.17944 4294965240
-4.338532 799.41278 811.14624 4294966525
34.6422 800.51434 810.11304 4294967295
-6.9284406 803.16278 812.34619 4283255135
-4.3302751 801.83856 811.22961 4294965739
37.240368 801.83856 811.22961 4294967295
-6.9137616 805.94739 812.07788 4284105315
-4.3211012 804.62598 810.96375 4284897399
37.161469 804.62598 810.96375 4294967295
-6.8917432 809.45514 811.11145 4285748831
-4.3073397 808.13794 810.00085 4284170076
28.42844 808.13794 810.00085 4294967295
31.012844 808.13794 810.00085 4294967295
37.043121 808.13794 810.00085 4294967295
-12.060551 810.77234 812.22217 4281805363
-10.337615 810.77234 812.22217 4282655546
-8.5963306 812.22711 810.83264 4283707977
-8.5963306 813.5415 811.94092 4284037449
-16.280735 818.33978 812.06262 4281015847
-13.680734 819.78607 810.66614 4281017644
-11.970642 820.43976 811.21729 4281605928
-8.5504589 819.78607 810.66614 4284436052
-11.079817 824.56189 810.76892 4283049772
-8.5229359 824.56189 810.76892 4284959316
-10.227523 825.86511 811.86768 4282854960
-7.6633029 826.58411 811.16589 4284698445
-4.2522936 827.30304 810.46411 4285884777
-13.60734 829.90375 812.65698 4283311663
-11.055964 829.90375 812.65698 4282655019
-6.8036699 828.60339 811.56055 4284633935
-4.2522936 828.60339 811.56055 4286016362
35.411011 839.50043 810.2843 4294767613
37.940369 839.50043 810.2843 4294767867
42.999084 839.50043 810.2843 4294899964
46.371559 839.50043 810.2843 4294966271
48.900917 839.50043 810.2843 4294899451
-15.176147 842.07874 812.45825 4281475366
-13.489908 842.07874 812.45825 4281475366
0.84311926 841.4342 811.91479 4286477185
4.2155962 841.4342 811.91479 4286347136
7.5880733 842.07874 812.45825 4286609799
10.96055 842.07874 812.45825 4287329413
13.489908 842.07874 812.45825 4287594647
16.019266 842.07874 812.45825 4283514192
19.391743 842.07874 812.45825 4291804622
22.764221 842.07874 812.45825 4294966527
26.136696 842.07874 812.45825 4294965757
28.666056 842.07874 812.45825 4294965244
31.195412 842.07874 812.45825 4294898938
34.84893 841.64911 812.09595 4294898943
37.940369 841.4342 811.91479 4294768124
40.469727 841.4342 811.91479 4294702588
42.999084 840.78961 811.37134 4294966270
46.371559 841.4342 811.91479 4294966271
-10.656269 843.92578 811.3996 4281800739
-7.571559 844.1402 811.58032 4284430663
-4.4868503 843.92578 811.3996 4286340971
-1.6825688 843.49701 811.03809 4285556586
-7.1853213 752.83777 815.69434 4292257708
-4.4908257 750.77777 813.95746 4279631890
0 750.09113 813.37854 4278190117
31.43578 750.77777 813.95746 4294967039
-5.3724771 755.10828 813.68469 4292784052
-7.1633029 756.47736 814.83911 4293307056
-5.3614678 757.98822 813.49695 4294030523
34.025688 756.47736 814.83911 4294967295
-7.1486239 760.03772 815.22504 4294961392
-8.0174313 764.34082 814.9292 4290155141
35.633026 764.34082 814.9292 4294967295
-7.1045871 767.95233 814.05029 4290419828
33.746788 767.95233 814.05029 4294967295
37.299084 767.95233 814.05029 4294967295
-10.65688 769.31024 815.19519 4289830310
-7.9761467 770.80701 813.84119 4293186262
31.904587 770.80701 813.84119 4294967295
33.746788 769.31024 815.19519 4294967295
-10.634862 772.16211 814.98376 4290159305
31.904587 772.16211 814.98376 4294967295
-10.601835 775.75397 814.08838 4289435314
-10.568808 779.33746 813.18579 4288123803
-22.899082 781.35748 814.88892 4280952358
-12.330276 782.03082 815.45667 4285159009
-10.568808 780.68414 814.32117 4288123040
-22.827522 785.59747 814.53992 4281083689
-10.53578 784.92627 813.97394 4288121759
38.631191 785.59747 814.53992 4294967295
-12.291743 786.93988 815.67188 4285686366
-10.513762 788.41711 814.30127 4287265431
36.798164 788.41711 814.30127 4294967295
-12.266055 789.75677 815.43079 4285029988
-10.480734 791.96838 813.37146 4286081926
36.798164 789.75677 815.43079 4294967295
-12.227523 793.9715 815.06055 4285029220
-10.480734 793.30377 814.49756 4286473600
-8.7155962 794.77539 813.12231 4293316071
37.555962 793.9715 815.06055 4294967295
-10.458715 796.77435 814.80774 4285814354
-8.7155962 796.10803 814.24597 4294234071
36.605503 796.10803 814.24597 4294967295
-10.425688 800.96802 814.41968 4280228884
-8.1088686 800.08234 813.67291 4289569166
-15.638532 802.29645 815.53979 4281149482
-13.900917 802.29645 815.53979 4281476398
-10.425688 802.29645 815.53979 4281410605
-10.39266 805.81122 814.57922 4282001459
-8.6605501 804.487 813.46265 4283450188
-15.588991 807.13544 815.6958 4281017896
-13.856881 807.13544 815.6958 4281542191
-8.6422014 807.2688 813.19214 4284304214
-15.506422 812.08954 813.33276 4281213478
-12.922018 812.08954 813.33276 4281279275
-10.337615 812.08954 813.33276 4282392623
-12.922018 813.40674 814.44336 4281279275
-10.337615 813.40674 814.44336 4282327850
-16.333027 817.48468 815.26575 4283572521
-13.710092 820.30505 813.71973 4283640883
-15.423853 822.27032 815.37671 4287316028
-13.680734 823.70819 813.97314 4284627241
-11.970642 823.70819 813.97314 4283640346
-13.680734 825.01556 815.07544 4284954428
-11.970642 825.01556 815.07544 4283506982
-15.341285 828.47144 814.06531 4283835692
43.13945 839.95129 814.58862 4294834173
0.84587157 841.24463 815.67908 4290150005
4.2293577 841.24463 815.67908 4288706423
7.612844 841.24463 815.67908 4288053661
10.99633 841.24463 815.67908 4288252811
13.533945 841.24463 815.67908 4287398297
16.07156 841.24463 815.67908 4283319389
19.455046 841.24463 815.67908 4289042112
22.838531 841.24463 815.67908 4294966015
25.376146 841.24463 815.67908 4294965503
27.913761 841.24463 815.67908 4294965246
31.297249 841.24463 815.67908 4294965759
34.680733 841.24463 815.67908 4294833407
38.06422 841.24463 815.67908 4294899710
40.601833 841.24463 815.67908 4294768637
43.13945 841.24463 815.67908 4294834173
46.522934 841.24463 815.67908 4294966014
-18.548624 844.65698 814.63226 4282061076
-15.850642 844.39923 814.41486 4280946447
-13.489908 843.36786 813.54529 4281474853
-11.24159 844.22729 814.26984 4280617227
-7.5880733 844.65704 814.6322 4285605926
-3.9345567 844.22729 814.26984 4289684578
-1.6862385 844.01245 814.08875 4289751145
50.025074 843.79761 813.90753 4294900476
52.273396 844.65704 814.6322 4294899705
-9.0091743 749.1897 816.54248 4284223062
-7.2073393 749.1897 816.54248 4281925633
-9.0091743 751.25598 818.28473 4293041033
34.234863 750.56726 817.70398 4294967295
-8.9816513 755.58435 818.01025 4294957519
35.926605 754.21106 816.85229 4294967295
37.722935 754.21106 816.85229 4294967295
-8.9541283 759.21558 817.14783 4294963943
-10.722936 762.0871 816.95312 4286010691
40.21101 762.0871 816.95312 4294967295
-12.47156 767.06494 817.2262 4288252300
-10.689908 765.70288 816.07776 4285483318
-8.9082565 765.70288 816.07776 4287522901
35.633026 766.38391 816.65198 4294967295
37.41468 767.06494 817.2262 4294967295
39.196331 765.70288 816.07776 4294967295
-16.034863 768.42706 818.37463 4288910225
-13.343119 769.54761 817.35736 4288320653
34.689907 769.54761 817.35736 4294967295
37.41468 768.42706 818.37463 4294967295
-21.313761 773.38385 818.63 4280558376
-19.537615 773.38385 818.63 4280690218
-16.873394 773.38385 818.63 4280359970
-13.608562 772.97565 817.41376 4282139711
33.746788 772.026 817.48499 4294967295
-21.269724 776.22729 818.4115 4281215279
-19.497248 776.22729 818.4115 4281281072
-13.293577 775.5498 817.84021 4281876266
-12.368808 778.45575 816.36633 4283849280
-16.78624 781.15747 818.64441 4282524209
-14.135779 781.15747 818.64441 4285552461
-21.137615 783.37744 816.59216 4281476398
-19.376146 784.05078 817.15991 4281542191
-13.21101 784.05078 817.15991 4285619542
38.752293 784.72412 817.72766 4294967295
40.51376 783.37744 816.59216 4294967295
42.27523 783.37744 816.59216 4294967295
-21.137615 786.0708 818.86304 4280950306
-19.376146 786.0708 818.86304 4281213478
-16.733946 786.0708 818.86304 4282068787
-14.047707 788.28235 816.80371 4284766559
38.752293 786.0708 818.86304 4294967295
-19.315596 789.62482 817.93567 4282264113
-15.80367 789.62482 817.93567 4283909195
-14.047707 789.62482 817.93567 4285095785
38.631191 789.62482 817.93567 4294967295
-19.275229 793.7757 818.81946 4281871408
-15.770642 792.43604 817.68994 4284628559
-14.018349 792.43604 817.68994 4284830812
-15.721101 795.97467 816.74951 4283448655
-13.100918 795.97467 816.74951 4283846463
-15.688073 798.77325 816.49316 4281149486
-12.782875 799.21747 816.86768 4281345066
-15.638532 803.62488 816.65979 4281083689
-13.03211 803.62488 816.65979 4281346609
-18.952293 818.67554 818.88586 4286066479
-15.473394 818.79907 816.37402 4286527032
-18.911926 821.42786 818.59058 4285409580
-17.192661 820.11346 817.4823 4286132010
-16.280735 823.58051 816.48145 4286196268
-19.455046 842.53802 816.76965 4278910976
-13.533945 842.53802 816.76965 4279238656
0.84587157 842.53802 816.76965 4292640132
4.2348623 841.83167 817.48212 4292122003
7.6293578 841.12531 818.19458 4286211193
10.99633 842.53802 816.76965 4285557099
13.533945 842.53802 816.76965 4287463854
16.07156 842.53802 816.76965 4284108120
19.455046 842.53802 816.76965 4288053892
22.838531 842.53802 816.76965 4294965503
25.376146 842.53802 816.76965 4294898940
27.974312 841.12531 818.19458 4294833660
31.330276 841.83167 817.48212 4294966015
34.680733 842.53802 816.76965 4294767613
38.104588 841.83167 817.48212 4294965759
40.601833 842.53802 816.76965 4294636795
43.13945 842.53802 816.76965 4294899710
46.522934 842.53802 816.76965 4294833917
49.060551 842.53802 816.76965 4294834430
-19.455046 844.47803 818.4054 4287580487
-16.07156 844.47803 818.4054 4287779408
-13.533945 843.83136 817.86011 4283762944
-10.99633 843.83136 817.86011 4284089857
-7.612844 843.83136 817.86011 4285799427
-5.0752292 843.83136 817.86011 4289024545
46.522934 843.83136 817.86011 4294768123
49.906422 843.83136 817.86011 4294899964
52.444038 843.83136 817.86011 4294966011
54.13578 843.83136 817.86011 4294833660
-12.651376 749.67847 820.87866 4291455878
-10.844037 749.67847 820.87866 4292778873
36.14679 748.29675 819.71362 4294967295
-13.513762 754.69977 821.18848 4288443767
-10.811009 753.32227 820.02698 4293969082
-16.166973 758.33099 820.32617 4281609238
-13.472477 758.33099 820.32617 4283577899
-10.777982 756.95764 819.16821 4293707452
-19.759632 759.70428 821.48401 4281738037
-17.065138 759.70428 821.48401 4283774499
-13.431192 761.95374 819.45667 4283380797
-19.699083 763.32288 820.61108 4286274662
-16.99633 764.07129 819.93408 4287593852
-14.297248 764.8197 819.25708 4286804854
40.21101 764.8197 819.25708 4294967295
-21.445871 766.18604 820.40918 4281212195
-19.658716 766.18604 820.40918 4285751912
-17.871559 766.18604 820.40918 4287397243
40.21101 766.18604 820.40918 4294967295
-21.379816 769.78912 819.52319 4280163618
-19.598166 769.78912 819.52319 4281282099
-16.925688 769.78912 819.52319 4281873734
37.41468 769.78912 819.52319 4294967295
-17.169418 775.19434 820.15656 4281542193
-21.269724 777.5824 819.55408 4281083437
-19.497248 777.5824 819.55408 4281149486
-15.952293 777.5824 819.55408 4281476148
-14.179816 777.5824 819.55408 4281408808
-21.203671 782.5083 819.78345 4281476398
-16.78624 782.5083 819.78345 4282330676
40.640366 782.5083 819.78345 4294967295
42.407341 782.5083 819.78345 4294967295
40.640366 783.85919 820.92236 4294967295
-21.137615 788.09076 820.56628 4281275931
-17.614679 787.41742 819.99854 4281803562
40.51376 788.7641 821.13403 4294967295
-19.315596 790.96729 819.06763 4282853676
-17.559633 790.96729 819.06763 4282720305
-21.07156 792.30969 820.19946 4280621341
-17.559633 792.30969 820.19946 4282001209
-22.040367 842.42151 819.28735 4283040016
-3.3908257 842.42151 819.28735 4289618522
-1.6954129 842.42151 819.28735 4289815644
0.85045874 840.3067 821.42847 4290802041
4.246789 841.36414 820.35791 4291401079
7.640367 841.36414 820.35791 4289490043
11.020184 842.42151 819.28735 4286401367
13.563303 842.42151 819.28735 4286282160
16.106422 842.42151 819.28735 4284177527
19.497248 842.42151 819.28735 4285821308
22.888073 842.42151 819.28735 4294966271
25.431192 842.42151 819.28735 4294965759
28.065138 840.3067 821.42847 4294834428
31.365139 842.42151 819.28735 4294965759
34.755962 842.42151 819.28735 4294899966
38.20734 841.36414 820.35791 4294966015
40.689907 842.42151 819.28735 4294637301
43.233028 842.42151 819.28735 4294703096
-25.431192 843.71765 820.38025 4288631888
-22.040367 843.71765 820.38025 4291200902
-19.779816 844.58173 821.10889 4292062111
-16.38899 844.58173 821.10889 4292523703
-13.563303 843.71765 820.38025 4292191140
-11.020184 843.71765 820.38025 4292520105
-7.6293578 843.71765 820.38025 4292388519
43.233028 843.71765 820.38025 4294833658
46.623856 843.71765 820.38025 4294702331
50.014679 843.71765 820.38025 4294768636
52.557796 843.71765 820.38025 4294834428
54.253212 843.71765 820.38025 4294833660
-18.073395 752.44189 823.20874 4280623388
-16.266054 752.44189 823.20874 4280821023
-13.555046 751.06018 822.0437 4289820007
-18.919266 756.07733 822.34998 4280425233
43.42569 781.64758 822.98169 4294967295
40.640366 785.21008 822.0614 4294967295
-27.21468 842.90741 823.62134 4289165691
-25.513762 842.90741 823.62134 4290744979
-23.245871 842.47394 823.25586 4291205263
-13.60734 842.90741 823.62134 4293182410
-11.055964 842.90741 823.62134 4293446094
-7.6541286 842.90741 823.62134 4293446867
-4.2522936 842.25726 823.07312 4292589239
-1.7009175 841.60706 822.5249 4291600284
0.85229355 840.19995 823.95447 4289166472
4.2614679 840.19995 823.95447 4288037732
7.6706419 840.19995 823.95447 4291914361
11.055964 841.60706 822.5249 4288100924
13.60734 841.60706 822.5249 4286280597
16.158716 841.60706 822.5249 4284900452
19.560551 841.60706 822.5249 4284440151
22.962385 842.2572 823.07312 4294046199
25.513762 841.60706 822.5249 4294966271
28.065138 841.60706 822.5249 4294966014
31.466972 841.60706 822.5249 4294966015
34.868805 841.60706 822.5249 4294834943
37.420185 841.60706 822.5249 4294702844
40.255047 842.04053 822.89038 4294768122
43.373394 842.90741 823.62134 4294965501
46.77523 842.90741 823.62134 4294899453
49.326607 842.90741 823.62134 4294833660
51.877983 842.90741 823.62134 4294702844
55.279816 842.90741 823.62134 4294900222
-22.111927 844.20776 824.71777 4293120464
-19.560551 844.20776 824.71777 4292924366
-16.158716 844.20776 824.71777 4292793046
-13.60734 844.20776 824.71777 4292658630
-11.055964 844.20776 824.71777 4293054158
-8.5045872 844.20776 824.71777 4292397255
54.429359 844.20776 824.71777 4294899453
0.85504586 839.39679 827.20129 4291470529
-28.125687 842.15479 825.60266 4291403685
-25.568808 842.80634 826.1521 4293447882
-23.86422 842.80634 826.1521 4293252050
-6.8183484 842.80634 826.1521 4292068555
-4.2614679 842.80634 826.1521 4292331207
-1.7045871 842.15479 825.60266 4292789953
4.2614679 841.50317 825.05322 4287911333
7.6706419 841.50317 825.05322 4289486431
11.079817 841.50317 825.05322 4284427550
13.636697 842.15479 825.60266 4283059030
16.193579 842.15472 825.60266 4283255373
19.602753 842.15479 825.60266 4283782228
23.011927 842.80634 826.1521 4292532705
25.568808 842.15479 825.60266 4294966014
28.125687 842.15472 825.60266 4294899965
31.534863 842.15472 825.60266 4294966015
34.944038 842.15472 825.60266 4294703357
37.500916 842.15479 825.60266 4294768636
39.773701 842.37201 825.78583 4294834173
43.466972 842.80634 826.1521 4294965246
46.876144 842.80634 826.1521 4294965246
49.433029 842.80634 826.1521 4294965246
51.989906 842.80634 826.1521 4294636281
56.251377 842.80634 826.1521 4294965759
-22.159634 844.1095 827.25085 4293054417
-19.602753 844.1095 827.25085 4293252564
-16.193579 844.1095 827.25085 4292989142
-13.636697 844.1095 827.25085 4292593859
-11.079817 844.1095 827.25085 4292594116
-7.6706419 844.1095 827.25085 4291804863
-3.4091742 844.1095 827.25085 4292791231
49.433029 844.1095 827.25085 4294965246
51.989906 844.1095 827.25085 4294767867
55.399082 844.1095 827.25085 4294834429
-31.704586 840.61292 830.84277 4293381574
-28.501532 841.57574 829.03857 4293514446
-25.651377 842.01154 829.40601 4294172380
-23.941284 842.01154 829.40601 4293975519
-5.1302752 842.01154 829.40601 4291475903
-1.7100917 842.01154 829.40601 4293515211
0.85596329 840.65857 829.57324 4293448926
4.2798166 840.65857 829.57324 4294239461
7.7036695 840.65857 829.57324 4293581792
11.121101 841.00818 829.21405 4289441205
13.680734 842.01154 829.40601 4282922915
16.245872 842.01154 829.40601 4281937509
19.666054 842.01154 829.40601 4282401603
23.086239 842.01154 829.40601 4292270042
25.651377 842.01154 829.40601 4294967295
28.216515 842.01154 829.40601 4294967295
31.636698 842.01154 829.40601 4294967295
35.056881 842.01154 829.40601 4294768637
37.622017 842.01154 829.40601 4294702842
40.187157 842.01154 829.40601 4294768636
43.607338 842.01154 829.40601 4294899710
47.027523 842.01154 829.40601 4294965246
-22.231194 843.31891 830.50842 4291147967
-19.666054 843.31891 830.50842 4292325803
-16.245872 843.31891 830.50842 4293184206
-13.680734 843.31891 830.50842 4292331716
-11.115597 843.31891 830.50842 4288972931
-7.6954126 843.31891 830.50842 4291012260
-4.2752295 843.31891 830.50842 4292396486
-1.7100917 843.31891 830.50842 4293514709
23.086239 843.31891 830.50842 4292989622
25.651377 843.31891 830.50842 4294967295
28.216515 843.31891 830.50842 4294967039
31.636698 843.31891 830.50842 4294966527
35.056881 843.31891 830.50842 4294899964
37.622017 843.31891 830.50842 4294768635
40.187157 843.31891 830.50842 4294636793
49.592659 843.31891 830.50842 4294966783
52.157799 843.31891 830.50842 4294966527
55.57798 843.31891 830.50842 4294834942
-35.988991 841.9231 831.94751 4293319640
-31.704586 841.9231 831.94751 4293845217
-28.277065 841.9231 831.94751 4293252567
-25.706423 841.9231 831.94751 4294633703
-23.992661 841.9231 831.94751 4294306287
3.4275229 841.9231 831.94751 4292135116
11.99633 841.9231 831.94751 4293123296
13.710092 841.9231 831.94751 4293385962
16.280735 841.9231 831.94751 4291546074
19.708256 841.9231 831.94751 4282398763
43.700916 841.9231 831.94751 4294899453
47.128441 841.9231 831.94751 4294965759
-25.706423 843.23328 833.05212 4294962923
-22.278898 843.23328 833.05212 4291081147
-19.708256 843.23328 833.05212 4291801261
-16.280735 843.23328 833.05212 4292856774
-13.710092 843.23328 833.05212 4292199364
-11.13945 843.23328 833.05212 4288052340
-7.7119265 843.23328 833.05212 4291473316
-4.2844038 843.23328 833.05212 4292593865
-1.7137614 843.23328 833.05212 4293252314
23.13578 843.23328 833.05212 4291479728
25.706423 843.23328 833.05212 4294967295
28.277065 843.23328 833.05212 4294900733
31.704586 843.23328 833.05212 4294966527
35.132111 843.23328 833.05212 4294966783
37.702751 843.23328 833.05212 4294966783
39.416515 843.23328 833.05212 4294966269
49.699081 843.23328 833.05212 4294967295
52.269726 843.23328 833.05212 4294966527
55.636696 843.92981 832.33142 4294965759
0.85963303 839.82935 834.1062 4293055455
5.1633029 839.79004 835.38104 4292331978
7.7449541 839.79004 835.38098 4291738829
10.326606 839.79004 835.38104 4292596942
-36.104588 842.45813 836.32275 4293449945
-34.385323 841.8009 835.76862 4293517279
-31.806421 841.8009 835.76862 4293582562
-28.367889 841.8009 835.76862 4292659918
-24.642813 842.02002 835.95331 4294370026
-22.350458 842.45813 836.32275 4291278021
-19.771561 842.45813 836.32275 4292457889
-16.333027 842.45813 836.32275 4292529104
-13.754128 842.45813 836.32275 4291935170
-1.7192661 842.45813 836.32275 4292858069
0.85963303 841.14374 835.21448 4292725984
3.4385321 841.14374 835.21448 4292068546
12.894495 841.14374 835.21448 4293517792
16.333027 841.8009 835.76862 4293121511
19.771561 841.8009 835.76862 4290491055
22.350458 842.45813 836.32275 4292926667
24.929358 842.45813 836.32275 4294243064
28.367889 842.45813 836.32275 4294966015
31.806421 842.45813 836.32275 4294966014
36.964218 842.45813 836.32275 4294967039
40.689297 842.02002 835.95331 4294966271
44.127827 841.58185 835.58392 4294965759
46.420185 841.8009 835.76862 4294966271
48.71254 842.02002 835.95331 4294966271
51.57798 842.45813 836.32275 4294966015
-11.13945 844.54346 834.15686 4288972147
-7.7119265 844.54346 834.15686 4292459428
-4.2844038 844.54346 834.15686 4292002499
34.27523 844.54346 834.15686 4294967039
53.126606 844.54346 834.15686 4294966015
55.982876 844.98016 834.52509 4294900220
58.267891 844.54346 834.15686 4294965247
0.8614679 841.72644 838.3219 4292660950
4.3073397 841.72644 838.3219 4293252055
7.753211 841.72644 838.3219 4292792277
10.337615 841.72644 838.3219 4291279809
12.922018 841.72644 838.3219 4290161321
16.367889 842.38507 838.8772 4291477433
19.813763 842.38507 838.8772 4294438644
27.566973 842.38507 838.8772 4294966527
37.043121 842.38507 838.8772 4294967295
40.488991 842.38507 838.8772 4294966783
43.647705 841.94598 838.50702 4294966271
46.519264 842.38507 838.8772 4294966527
48.242203 842.38507 838.8772 4294966783
-36.964218 844.42969 837.98523 4291804856
-34.385323 844.42969 837.98517 4292860127
-31.840366 843.73743 838.70941 4293518056
-28.383486 844.08356 838.34729 4293583075
-24.942202 844.0835 838.34729 4294372081
-22.374311 843.73743 838.70941 4291608524
-19.79266 843.73743 838.70941 4292528324
-16.350458 843.73743 838.70941 4292463320
-12.908257 843.73737 838.70947 4291011245
-10.326606 843.73743 838.70941 4289760104
-7.7366972 844.42969 837.98517 4292723635
-4.3009176 844.08356 838.34729 4292134086
-1.7211009 843.73743 838.70941 4292660686
12.922018 843.70227 839.98779 4291279032
16.367889 843.70227 839.98779 4288910733
19.813763 843.70227 839.98779 4292331464
22.374311 843.73743 838.70941 4293911532
24.955963 843.73737 838.70947 4294900990
28.694801 843.72577 839.13556 4294966782
31.840366 843.73743 838.70941 4294967039
34.42202 843.73743 838.70941 4294967295
37.043121 843.70227 839.98779 4294967295
40.488991 843.70227 839.98779 4294966527
44.796329 843.70227 839.98779 4294965503
46.519264 843.70227 839.98779 4294966527
49.35535 843.72565 839.13556 4294966783
52.493576 843.73743 838.70941 4294966783
55.628742 844.18719 838.65265 4294966783
58.517433 843.73743 838.70941 4294967039
60.174313 845.08691 838.53931 4294967039
-39.543118 846.40131 839.64758 4292594902
61.893578 846.40131 839.64758 4294966783
0.8642202 841.62537 842.16064 4292200657
4.3211012 841.62537 842.16064 4292398801
7.7779818 841.62537 842.16064 4292464081
10.370643 841.62537 842.16064 4291607491
43.21101 841.62537 842.16064 4294967039
-36.181652 845.01947 841.09851 4292398806
-34.458717 845.01947 841.09851 4292794078
-31.874311 845.01947 841.09851 4294109940
-28.42844 845.01947 841.09851 4294043633
-24.982569 845.01947 841.09851 4293385697
-22.398165 845.01947 841.09851 4292595665
-19.813763 845.01947 841.09851 4293384161
-16.367889 845.01947 841.09851 4292989144
-12.922018 845.01947 841.09851 4290813348
-10.337615 845.01947 841.09851 4290087806
-7.753211 845.01947 841.09851 4292985277
-4.3073397 845.01947 841.09851 4292593867
-1.7229358 845.01947 841.09851 4292792015
29.289907 845.01947 841.09851 4294967295
31.874311 845.01947 841.09851 4294967039
34.458717 845.01947 841.09851 4294967295
36.181652 845.01947 841.09851 4294967295
53.411011 845.01947 841.09851 4294966271
55.995415 845.01947 841.09851 4294967039
58.579815 845.01947 841.09851 4294967039
60.302753 845.01947 841.09851 4294967039
-36.181652 846.33667 842.20911 4292268489
-34.458717 846.33667 842.20911 4292990941
-31.012844 846.33667 842.20911 4293386730
-28.42844 846.33667 842.20911 4291477708
-24.982569 846.33667 842.20911 4291147458
-22.398165 846.33667 842.20911 4290949561
-16.367889 846.33667 842.20911 4292525511
60.302753 846.33667 842.20911 4294834428
0.86513764 842.91797 844.55865 4292068042
4.3256884 842.91797 844.55859 4292265419
8.0721712 842.92755 844.13068 4292002242
10.381651 842.91797 844.55865 4292330440
12.963303 842.94678 843.2749 4292594638
16.420183 842.94678 843.2749 4288714130
19.877064 842.94678 843.2749 4291083191
22.469725 842.94678 843.2749 4294109419
25.062386 842.94678 843.2749 4294900222
27.655046 842.94678 843.2749 4294967295
38.025688 842.94678 843.2749 4294967039
40.618347 842.94678 843.2749 4294966783
43.817738 842.92755 844.13068 4294966783
46.156574 842.90839 844.98657 4294966270
49.260551 842.94678 843.2749 4294966783
51.85321 842.94678 843.2749 4294966271
-34.568806 845.5896 845.50317 4293319904
-31.976147 844.92889 844.94611 4293385955
-28.519266 845.5896 845.50317 4291214788
-25.062386 845.5896 845.50317 4291081920
-22.469725 845.5896 845.50317 4289238941
-19.877064 844.92883 844.94617 4290815416
-16.420183 845.5896 845.50317 4292263341
-12.963303 844.26819 844.38904 4291075237
-10.370643 844.26819 844.38904 4290612346
-7.7779818 844.26819 844.38904 4293116604
-4.3211012 844.26819 844.38904 4292068040
-1.7284404 844.26819 844.38904 4292068296
6.9137616 844.26819 844.38904 4292133319
12.963303 844.26819 844.38904 4292922838
16.708258 844.70868 844.76044 4291146939
19.877064 844.26819 844.38904 4289700252
22.469725 844.26819 844.38904 4290226855
25.062386 844.26819 844.38904 4293386473
28.519266 844.92889 844.94611 4294967295
31.976147 844.92889 844.94611 4294966783
34.568806 844.92889 844.94611 4294967039
36.873394 844.70868 844.76044 4294967295
40.618347 844.26819 844.38904 4294967039
49.260551 844.26819 844.38904 4294967295
52.71743 844.26819 844.38904 4294966783
55.310093 844.92889 844.94611 4294966015
57.902752 844.92883 844.94617 4294967039
61.647705 845.14911 845.13184 4294833916
-36.374313 844.87549 847.51721 4293384137
-34.6422 845.5376 848.07544 4293452007
-32.910091 844.87549 847.51721 4293517542
-25.115597 845.5376 848.07544 4292069068
-22.517431 845.5376 848.07544 4292002247
-19.919266 845.5376 848.07544 4292001479
-16.455046 845.5376 848.07544 4292330698
-12.990826 844.21338 846.95898 4290417570
-10.39266 844.21338 846.95898 4290545547
-8.0831804 844.65479 847.33112 4291862948
-4.3302751 844.21338 846.95898 4292264134
-1.7321101 844.21338 846.95898 4292001997
5.1963301 844.21338 846.95898 4292135116
7.7944956 844.21338 846.95898 4291871944
10.39266 844.21338 846.95898 4292134603
12.990826 844.21338 846.95898 4292660945
16.455046 844.87549 847.51721 4292594641
19.919266 844.21338 846.95898 4290620584
22.517431 844.21338 846.95898 4290028679
25.115597 844.21338 846.95898 4292397539
28.579817 845.5376 848.07544 4293978609
32.044037 845.5376 848.07544 4294967295
34.6422 845.5376 848.07544 4294966271
37.529053 845.09619 847.70331 4294966783
40.704586 844.21338 846.95898 4294967295
49.365139 844.21338 846.95898 4294967295
52.829357 844.21338 846.95898 4294967039
55.427525 845.5376 848.07544 4294242806
58.025688 845.5376 848.07544 4294966271
61.489906 845.5376 848.07544 4294636795
-31.111927 846.91101 846.61743 4292334044
-28.519266 846.91101 846.61743 4292135893
0.86880732 842.14911 849.14246 4291871946
3.4752293 842.14911 849.14246 4291937737
43.440369 842.14911 849.14246 4294966783
46.046791 842.14911 849.14246 4294967295
-36.48991 844.80591 851.38269 4294502143
-33.883484 844.80591 851.38269 4293451238
-28.670643 844.80591 851.38269 4292530392
-25.195412 844.80591 851.38269 4292463571
-22.588991 844.80591 851.38269 4292858071
-19.982569 844.80591 851.38269 4292594900
-16.507339 844.80591 851.38269 4292527828
-13.03211 844.14172 850.82263 4290745503
-10.425688 844.14172 850.82263 4290740622
-7.5296631 844.3631 851.00928 4290216076
-4.3440366 844.14172 850.82263 4292523969
-1.7376146 844.14172 850.82263 4292395728
4.3440366 843.47754 850.26257 4292003274
7.8192658 843.47754 850.26257 4291674828
10.425688 843.47754 850.26257 4291083455
12.742508 843.92035 850.63593 4291412162
16.217737 844.3631 851.00928 4292793047
19.692966 843.92035 850.63593 4292265673
22.588991 843.47754 850.26257 4289634451
25.195412 843.47754 850.26257 4291409599
28.670643 844.80591 851.38269 4293715178
31.277063 844.80591 851.38269 4294967295
33.883484 844.80591 851.38269 4294967295
37.358719 844.80591 851.38269 4294967295
40.833946 843.47754 850.26257 4294967039
50.390827 843.47754 850.26257 4294966527
52.997246 843.47754 850.26257 4294966270
55.603668 844.80591 851.38269 4294965759
58.210091 844.80591 851.38269 4294966527
61.685318 844.80591 851.38269 4294834173
-31.177982 846.86182 849.19202 4292794080
0.87155962 842.08374 853.01141 4292003531
4.3577981 842.75006 853.57324 4291806664
7.8440366 842.75006 853.57324 4291280838
10.458715 842.75006 853.57324 4290951607
13.944954 842.75006 853.57324 4291214782
20.917431 842.75006 853.57324 4292265666
22.660551 842.75006 853.57324 4289107859
25.27523 842.75006 853.57324 4290818727
40.091743 842.75006 853.57324 4294967295
43.57798 841.41742 852.44958 4294967295
46.192661 841.41742 852.44958 4294967295
49.678898 842.08374 853.01141 4294966527
52.293579 842.75006 853.57324 4294966783
54.036697 842.75006 853.57324 4294966527
-33.990826 844.0827 854.6969 4293255398
-31.376146 844.0827 854.6969 4292926183
-28.761467 844.0827 854.6969 4292464600
-25.27523 844.0827 854.6969 4292660949
-22.660551 844.0827 854.6969 4292529108
-20.045872 844.0827 854.6969 4291740619
-13.073395 844.0827 854.6969 4290877856
-10.458715 844.0827 854.6969 4291263885
-7.8440366 844.0827 854.6969 4291002760
-4.3577981 844.0827 854.6969 4292720056
-1.7431192 844.0827 854.6969 4292066757
7.8440366 844.0827 854.6969 4289372324
10.458715 844.0827 854.6969 4289766564
13.073395 844.0827 854.6969 4290161837
16.559633 844.0827 854.6969 4292595670
20.045872 844.0827 854.6969 4292924380
22.660551 844.0827 854.6969 4290490293
26.14679 844.0827 854.6969 4291080618
28.761467 844.0827 854.6969 4293318107
31.376146 844.0827 854.6969 4294438139
33.990826 844.0827 854.6969 4294967039
37.477066 844.0827 854.6969 4294966271
55.779816 844.0827 854.6969 4294965759
58.394493 844.0827 854.6969 4294900478
61.880733 844.0827 854.6969 4294702843
-36.48991 846.13434 852.50269 4293779941
-16.507339 846.13434 852.50269 4292134096
0.87339449 842.7149 856.15967 4292395974
4.3669724 842.7149 856.15967 4290753727
24.455046 842.7149 856.15967 4290159516
41.049541 842.04718 855.59668 4294967295
43.669724 841.37946 855.03369 4294967295
46.289909 841.37946 855.03369 4294967295
49.492355 842.26978 855.78436 4294966014
52.403671 842.7149 856.15967 4294967039
54.150459 842.7149 856.15967 4294966015
-34.062386 844.05029 857.28564 4292925148
-31.442202 844.05029 857.28564 4292597213
-28.761467 845.41528 855.82056 4291478472
-25.27523 845.41528 855.82056 4291805386
-22.660551 845.41528 855.82056 4291146692
-20.088074 844.05029 857.28564 4290879670
-16.559633 845.41528 855.82056 4291997388
-13.100918 844.05029 857.28564 4291206296
-10.480734 844.05029 857.28564 4290871178
-7.8605504 844.05029 857.28564 4290675337
-4.3669724 844.05029 857.28564 4292588210
-1.746789 844.05029 857.28564 4292328633
7.8605504 844.05029 857.28564 4289110169
10.480734 844.05029 857.28564 4289635234
13.100918 844.05029 857.28564 4290293167
16.594496 844.05029 857.28564 4292595926
20.088074 844.05029 857.28564 4292793564
22.708258 844.05029 857.28564 4291609803
25.328442 844.05029 857.28564 4290031287
28.822018 844.05029 857.28564 4292531155
31.442202 844.05029 857.28564 4294307064
34.062386 844.05029 857.28564 4294967295
37.555962 844.05029 857.28564 4294966783
50.656879 844.05029 857.28564 4294966783
52.403671 844.05029 857.28564 4294899455
55.023853 844.05029 857.28564 4294833662
58.394493 845.41528 855.82056 4294900222
0.87614679 842.00287 859.4834 4292133570
4.380734 842.00287 859.4834 4289832627
40.302753 842.00287 859.4834 4294967295
42.93119 841.33307 858.91864 4294967039
46.435776 841.33301 858.9187 4294967295
49.06422 842.00287 859.4834 4294966783
-34.93578 845.38574 858.41162 4288908417
-28.868807 844.36414 859.51227 4290031286
-25.328442 845.38574 858.41162 4290556601
-21.867889 844.36414 859.51227 4290418587
-19.21468 845.38574 858.41162 4290874249
-16.594496 845.38574 858.41162 4292254879
-13.100918 845.38574 858.41162 4291139731
-10.480734 845.38574 858.41162 4290674539
-7.8743119 844.36414 859.51227 4291464576
-4.380734 843.34247 860.61292 4292323750
-1.746789 845.38574 858.41162 4292458425
0 843.34247 860.61292 4291081649
4.380734 843.34247 860.61292 4290094779
7.8853211 843.34247 860.61292 4289964460
10.513762 843.34247 860.61292 4289897902
13.142202 843.34247 860.61292 4290226862
16.64679 843.34247 860.61292 4292727254
19.275229 843.34247 860.61292 4292727516
21.903669 843.34247 860.61292 4292661206
25.408257 843.34247 860.61292 4291280318
28.822018 845.38574 858.41162 4292399833
31.442202 845.38574 858.41162 4293913588
34.062386 845.38574 858.41162 4294967295
37.674309 843.34247 860.61292 4294967295
40.302753 843.34247 860.61292 4294967295
42.93119 843.34247 860.61292 4294966783
46.43578 843.34247 860.61292 4294900477
49.940369 843.34247 860.61292 4294900990
52.403671 845.38574 858.41162 4294571004
55.023853 845.38574 858.41162 4294768125
58.517433 845.38574 858.41162 4294833917
55.897247 846.72119 859.53772 4294899453
57.644035 846.72119 859.53772 4294965759
-33.363304 841.98029 862.08044 4290816414
-31.60734 841.98029 862.08044 4290623428
1.7559633 841.98029 862.08044 4290686891
-34.169724 844.68213 861.74243 4289501056
-31.60734 843.32275 863.2124 4291081658
-28.944036 844.00244 862.47742 4290687154
-25.408257 844.68213 861.74243 4290884278
-21.903669 844.68213 861.74243 4290025875
-19.315596 843.32275 863.2124 4289628790
-16.665138 844.00244 862.47742 4292457135
-13.142202 844.68213 861.74243 4291536528
-10.513762 844.68213 861.74243 4290810222
-7.8853211 844.68213 861.74243 4291205251
-4.380734 844.68213 861.74243 4291470238
-1.7522936 844.68213 861.74243 4292524983
0.87798166 843.32275 863.2124 4291343272
4.3899083 843.32275 863.2124 4289898937
7.901835 843.32275 863.2124 4289373875
10.53578 843.32275 863.2124 4289437101
13.169725 843.32275 863.2124 4288449434
16.665138 844.00244 862.47742 4292726745
19.315596 843.32275 863.2124 4292990943
21.949541 843.32275 863.2124 4293122011
25.461468 843.32275 863.2124 4291675078
28.973394 843.32275 863.2124 4291873752
31.60734 843.32275 863.2124 4293385708
34.169724 844.68213 861.74243 4294967295
37.753212 843.32275 863.2124 4294967295
40.387157 843.32275 863.2124 4294967039
43.021103 843.32275 863.2124 4294966527
46.533028 843.32275 863.2124 4294966271
49.991745 844.00244 862.47742 4294834683
52.568806 844.68213 861.74243 4294767613
54.321102 844.68213 861.74243 4294833406
55.19725 846.02179 862.87207 4294767611
57.825687 846.02179 862.87207 4294964990
-38.752293 842.63037 866.55261 4290753450
1.7614679 842.63037 866.55261 4289369246
5.2844038 842.63037 866.55261 4285094246
7.9266057 842.63037 866.55261 4284438100
17.614679 842.63037 866.55261 4292793828
26.422018 842.63037 866.55261 4290556861
29.944954 842.63037 866.55261 4292201688
40.51376 842.63037 866.55261 4294966527
43.155964 842.63037 866.55261 4294966527
49.321102 842.63037 866.55261 4294834430
51.082569 842.63037 866.55261 4294834430
-36.875229 844.66522 864.34436 4290358692
-34.241287 844.66522 864.34436 4291212965
-31.60734 844.66522 864.34436 4292724173
-28.973394 844.66522 864.34436 4292461516
-25.461468 844.66522 864.34436 4292923607
-21.949541 844.66522 864.34436 4292529615
-19.315596 844.66522 864.34436 4292529610
-16.681652 844.66522 864.34436 4292529611
-13.169725 844.66522 864.34436 4291936190
-10.53578 844.66522 864.34436 4291866534
-7.901835 844.66522 864.34436 4292393653
-4.3899083 844.66522 864.34436 4292591809
-1.7559633 844.66522 864.34436 4293249483
0 844.66522 864.34436 4292658896
3.5119267 844.66522 864.34436 4288778653
10.53578 844.66522 864.34436 4286540408
13.169725 844.66522 864.34436 4286869355
15.80367 844.66522 864.34436 4292264363
19.315596 844.66522 864.34436 4293188586
21.949541 844.66522 864.34436 4293253599
24.583487 844.66522 864.34436 4292530651
28.095413 844.66522 864.34436 4290227898
31.60734 844.66522 864.34436 4293385701
34.241287 844.66522 864.34436 4294967295
37.753212 844.66522 864.34436 4294966527
46.533028 844.66522 864.34436 4294966014
52.678898 844.66522 864.34436 4294767867
-36.875229 846.00763 865.4762 4292068809
-35.119267 846.00763 865.4762 4292791753
-16.681652 846.00763 865.4762 4292725204
-13.169725 846.00763 865.4762 4292658896
-10.53578 846.00763 865.4762 4292658380
-7.901835 846.00763 865.4762 4292855759
-4.3899083 846.00763 865.4762 4292921809
-1.7559633 846.00763 865.4762 4293580252
52.678898 846.00763 865.4762 4294767867
55.283485 847.01727 865.67346 4294768123
-33.467892 844.65039 868.25586 4293186260
-31.706423 844.65039 868.25586 4292924122
-29.06422 844.65039 868.25586 4292332243
-25.541285 844.65039 868.25586 4292397781
-22.018349 844.65039 868.25586 4292000966
-19.376146 844.65039 868.25586 4292065472
-16.733946 845.32367 868.82361 4291339177
-13.21101 845.32367 868.82361 4292592331
-10.568808 845.32367 868.82361 4291870146
-7.9266057 845.32367 868.82361 4292199111
-4.4036698 845.32367 868.82361 4292331725
-1.7614679 845.32367 868.82361 4292069067
0.88073397 843.97705 867.68811 4289767098
4.4036698 843.97705 867.68811 4280301936
7.9266057 843.97705 867.68811 4281288731
10.568808 843.97705 867.68811 4285487959
