# .PCD v0.7 - Point Cloud Data file format
VERSION 0.7
FIELDS x y z rgb
SIZE 4 4 4 4
TYPE F F F U
COUNT 1 1 1 1
WIDTH 1165
HEIGHT 1
VIEWPOINT 0 0 0 1 0 0 0
POINTS 1165
DATA ascii
33.746788 751.65778 800.31116 4294901759
-13.293577 753.86859 799.5592 4288259033
-10.634862 753.19104 798.98792 4293258235
25.700916 753.19104 798.98792 4294836223
28.359632 753.19104 798.98792 4294639615
31.018349 753.86859 799.5592 4294770687
33.677063 754.54614 800.13049 4294967295
-12.368808 756.84186 798.14209 4286482635
-10.601835 757.51733 798.71161 4286415810
22.970642 756.84186 798.14209 4294967295
25.915596 757.29218 798.52179 4294901759
28.271559 757.51733 798.71161 4294836223
30.922018 758.19275 799.28113 4294901759
-12.368808 759.54358 800.42017 4287205822
-10.568808 761.83093 798.42468 4287729088
-8.8073397 761.83093 798.42468 4288781776
22.018349 761.83093 798.42468 4294901759
25.541285 761.83093 798.42468 4294836223
28.183487 761.83093 798.42468 4294967295
30.922018 759.54358 800.42017 4294967295
33.572475 759.54358 800.42017 4294967295
-12.330276 763.85095 800.12793 4287402939
-10.568808 763.85095 800.12793 4287598788
26.422018 763.17761 799.56018 4294967295
29.357798 763.62646 799.93866 4294967295
31.706423 763.85095 800.12793 4294967295
-8.7798166 766.80316 798.69312 4288322770
21.07156 766.80316 798.69312 4294967295
25.461468 766.80316 798.69312 4294967295
28.095413 766.80316 798.69312 4294836223
-12.291743 768.81689 800.39093 4287599286
-10.53578 768.81689 800.39093 4287862473
-7.8853211 769.66211 798.48755 4288389326
21.903669 769.66211 798.48755 4294967295
25.408257 769.66211 798.48755 4294967295
29.246483 769.09863 799.75653 4294967295
31.60734 768.81689 800.39093 4294967295
-10.513762 772.34143 800.7467 4287730887
-7.8853211 771.00177 799.61707 4288258257
26.284403 771.00177 799.61707 4294967295
28.912844 771.67163 800.18188 4294967295
31.541285 772.34143 800.7467 4294967295
-10.480734 775.94312 799.8595 4287271617
-8.1516819 775.0528 799.1087 4288324307
1.746789 774.60767 798.7334 4290889971
25.328442 774.60767 798.7334 4294967295
28.822018 775.27539 799.29645 4294967295
31.442202 775.94312 799.8595 4294967295
-12.227523 777.27856 800.98547 4287467954
-10.480734 777.27856 800.98547 4287271104
-7.5535164 778.33966 799.26416 4288258258
-4.6483178 777.89545 798.88959 4288784859
1.7431192 778.11755 799.07684 4290430194
4.3577981 777.45123 798.51501 4290825205
6.972477 777.45123 798.51501 4291284477
17.431192 777.45123 798.51501 4294770687
20.045872 777.45123 798.51501 4294967295
22.660551 777.45123 798.51501 4294967295
25.27523 778.11755 799.07684 4294967295
28.470947 778.33966 799.26416 4294967295
31.442202 777.27856 800.98547 4294967295
33.188992 777.27856 800.98547 4294967295
-10.458715 780.11646 800.76221 4287401659
-7.8330274 781.24329 799.75031 4288257229
-4.3440366 782.37012 798.7384 4288718294
-1.7376146 782.37012 798.7384 4289902309
1.7376146 782.37012 798.7384 4290559986
22.588991 782.37012 798.7384 4282204053
25.195412 782.37012 798.7384 4292399328
28.71743 781.24329 799.75031 4294967295
31.376146 780.11646 800.76221 4294967295
-10.425688 785.02698 800.97864 4287598009
-8.1088686 784.14136 800.23193 4288322761
29.53945 784.36279 800.41858 4294967295
31.277063 785.02698 800.97864 4294967295
-7.7944956 787.93433 799.50592 4288191687
-5.1963301 787.27222 798.94763 4288718804
25.981651 787.27222 798.94763 4291297279
28.579817 787.93433 799.50592 4294967295
-7.4899082 790.97144 799.45062 4288126665
-5.1853213 790.09052 798.70776 4288718804
20.741285 790.09052 798.70776 4278198528
22.469725 790.09052 798.70776 4279518996
25.350458 790.53101 799.07916 4292665847
27.655046 790.75122 799.26489 4294967295
-10.370643 792.73328 800.93616 4287599285
-7.7669725 793.84961 799.91534 4288389066
-5.1688075 794.96594 798.89453 4288915675
8.6146793 794.96594 798.89453 4291810047
10.337615 794.96594 798.89453 4291810815
12.922018 794.96594 798.89453 4292731903
16.367889 794.96594 798.89453 4294178559
20.67523 794.96594 798.89453 4292993489
22.398165 794.96594 798.89453 4294967295
24.982569 794.96594 798.89453 4294967295
28.475229 793.84961 799.91534 4294967295
-7.753211 796.28314 800.00525 4288323273
-4.2981653 797.7688 798.64185 4288784853
5.1577983 797.7688 798.64185 4290888431
7.7366972 797.7688 798.64185 4291349500
10.315597 797.7688 798.64185 4291745023
12.894495 797.7688 798.64185 4292468991
16.333027 797.7688 798.64185 4293718783
20.631193 797.7688 798.64185 4294967295
22.350458 797.7688 798.64185 4294967295
24.929358 797.7688 798.64185 4294967295
28.42844 796.28314 800.00525 4294967295
-7.4501529 799.95947 800.48895 4287929797
24.929358 799.08313 799.75012 4294967295
28.081345 799.95947 800.48895 4294967295
-7.7119265 803.92773 799.91077 4287666624
-5.1412845 802.61755 798.80603 4288719565
23.13578 802.61755 798.80603 4294967295
25.706423 803.27264 799.3584 4294967295
28.277065 803.92773 799.91077 4294967295
-6.8403668 806.71228 799.64258 4287864772
-4.2752295 805.40491 798.54028 4288784847
-1.7100917 805.40491 798.54028 4289573857
1.7100917 806.05859 799.09143 4290231275
3.9902141 805.84064 798.90771 4290559994
7.6954126 805.40491 798.54028 4291218683
10.26055 805.40491 798.54028 4291547647
16.245872 805.40491 798.54028 4293061631
19.951071 805.84064 798.90771 4294967295
23.086239 806.05859 799.09143 4294967295
25.651377 806.71228 799.64258 4294967295
28.216515 806.71228 799.64258 4294967295
-10.26055 808.01965 800.745 4287336116
-8.5504589 808.01965 800.745 4288257218
23.941284 808.01965 800.745 4294967295
25.651377 808.01965 800.745 4294967295
28.216515 808.01965 800.745 4294967295
-11.079817 812.83337 800.87964 4287401911
-7.6706419 811.53027 799.78088 4288125894
-4.2596331 811.24585 798.88708 4288719055
-1.7027524 811.61304 798.54272 4289311448
0.85229355 811.24585 798.88708 4289771498
4.2614679 810.87866 799.23151 4290559980
7.5001831 811.26965 799.56116 4291087352
11.073394 811.24585 798.88708 4291614207
13.636697 810.87866 799.23151 4292139775
16.185322 811.24585 798.88708 4292798719
19.602753 810.87866 799.23151 4294836223
23.011929 811.53021 799.78088 4294967295
25.568808 812.83337 800.87964 4294967295
28.125687 812.83337 800.87964 4294967295
-10.205504 815.59973 800.59619 4287728575
-7.3706422 815.16626 800.23071 4288321473
-4.2522936 814.29938 799.49976 4288914638
-1.7009175 814.29938 799.49976 4289441758
1.7009175 814.29938 799.49976 4290558969
4.2522936 814.94958 800.04797 4290560228
7.9376144 815.16632 800.23071 4290956022
10.772476 814.73285 799.86523 4291613695
13.60734 814.29938 799.49976 4291942911
16.158716 814.29938 799.49976 4292601855
19.560551 814.29938 799.49976 4294770687
22.962385 814.94958 800.04797 4294967295
25.513762 815.59973 800.59619 4294967295
27.21468 815.59973 800.59619 4294967295
-4.2385321 817.79449 798.52258 4289045197
-1.6954129 817.79449 798.52258 4289572060
0.84770644 817.79449 798.52258 4289770221
11.86789 817.79449 798.52258 4292008191
13.563303 817.79449 798.52258 4292139775
16.106422 817.79449 798.52258 4292732671
19.497248 817.79449 798.52258 4294508543
22.040367 817.79449 798.52258 4294967295
-7.6293573 819.73877 800.16199 4288387528
-4.2339449 820.46753 799.46838 4288979664
-1.693578 820.46753 799.46838 4289572317
0.84770644 820.4682 799.46893 4289704168
4.2385321 819.73871 800.16193 4290692074
11.86789 819.73877 800.16193 4292205055
13.563303 819.73877 800.16193 4292073215
16.106422 819.73871 800.16193 4292600319
19.476147 820.46753 799.46838 4294114047
22.876146 820.10309 799.81512 4294967295
25.431192 819.73877 800.16193 4294967295
27.126606 819.73877 800.16193 4294967295
-4.2293577 823.13776 800.41187 4288914643
-1.6917431 823.13776 800.41187 4289507805
0 823.13776 800.41187 4289507553
19.455046 823.13776 800.41187 4293982975
22.838531 823.13776 800.41187 4294967295
35.039143 748.44971 801.53027 4294639615
-17.816513 750.71991 803.44446 4284575403
37.41468 750.71991 803.44446 4294967295
-19.537615 755.73145 803.74585 4285624717
-16.873394 754.37354 802.60095 4285035171
-13.293577 755.90118 801.27307 4285824439
34.883179 754.93939 801.33405 4294967295
37.299084 754.37354 802.60095 4294967295
-15.952293 757.93384 802.98694 4286219169
-14.179816 757.25629 802.41565 4286218927
35.449543 757.25629 802.41565 4294967295
37.222019 757.93384 802.98694 4294967295
-14.135779 760.89447 801.5592 4286416047
34.455963 760.89447 801.5592 4294967295
-15.902752 763.59619 803.83716 4286678174
-14.135779 762.24536 802.69812 4286547628
34.750458 762.69562 803.07782 4294967295
37.106422 763.59619 803.83716 4294967295
-15.853211 767.21759 802.96655 4286676891
-14.091743 766.54425 802.3988 4286546598
34.05505 766.76874 802.58807 4294967295
-12.291743 770.83051 802.08887 4287402161
33.363304 770.83051 802.08887 4294967295
-15.80367 772.17297 803.2207 4286742432
-13.156881 772.927 802.54846 4286875817
34.206421 772.927 802.54846 4294967295
-14.018349 775.02069 803.00574 4286678181
35.045872 775.02069 803.00574 4294967295
-15.721101 779.94946 803.23743 4286348971
-13.392049 779.05914 802.48682 4286875559
34.062386 779.28174 802.67444 4294967295
-12.782875 782.33759 802.63495 4286941610
-10.458715 781.4491 801.88586 4287401913
31.376146 781.4491 801.88586 4294967295
33.119267 782.11542 802.44769 4294967295
-12.742508 787.24103 802.8454 4286810282
-10.425688 786.35541 802.09863 4287467704
31.277063 786.35541 802.09863 4294967295
33.014679 787.01965 802.65869 4294967295
-12.124771 791.24487 802.29724 4287270313
-10.39266 789.92065 801.18079 4287271606
29.445871 789.92065 801.18079 4294967295
31.75535 790.80347 801.92511 4294967295
-12.990826 792.56909 803.41382 4287072165
-10.370643 794.05469 802.05029 4287599033
31.976147 794.05469 802.05029 4294967295
34.6422 792.56909 803.41382 4294967295
-12.099083 795.3761 803.16455 4287401393
-10.337615 797.60034 801.11584 4287206074
-8.6146793 797.60034 801.11584 4287864261
29.289907 797.60034 801.11584 4294967295
31.926605 796.48822 802.1402 4294967295
34.568806 795.3761 803.16455 4294967295
-12.634862 799.79572 802.9668 4287007151
-10.337615 798.91754 802.22644 4287008698
32.161469 799.35663 802.59668 4294967295
34.458717 800.23474 803.33704 4294967295
-12.894495 803.02637 803.07483 4286875567
-10.315597 801.71198 801.96655 4287205311
31.806421 802.36914 802.52069 4294967295
-11.13945 805.89301 801.56787 4287335862
-8.5688076 805.23792 801.0155 4288125379
30.847706 805.89301 801.56787 4294967295
-13.710092 807.85828 803.22485 4286545830
-11.115597 809.32703 801.84729 4287401398
25.651377 809.32703 801.84729 4294967295
28.216515 809.32703 801.84729 4294967295
31.671558 808.59265 802.53607 4294967295
34.27523 807.85828 803.22485 4294967295
-13.680734 810.6344 802.94971 4286415268
31.636698 810.6344 802.94971 4294967295
34.201836 810.6344 802.94971 4294967295
-15.341285 815.4397 803.07727 4285888668
-13.636697 814.78809 802.52789 4286217628
-11.93211 814.13654 801.97852 4287270575
28.977982 814.13654 801.97852 4294967295
31.250765 815.00531 802.711 4294967295
34.091743 815.4397 803.07727 4294967295
-13.60734 818.20044 802.78906 4286283675
-11.055964 817.55023 802.24084 4287269811
7.6541281 817.55029 802.24084 4291218417
10.205504 817.55029 802.24084 4291678719
28.915596 817.55029 802.24084 4294967295
30.616514 818.20044 802.78906 4294967295
-13.60734 819.50085 803.8855 4286283416
-11.055964 819.50085 803.8855 4287335600
-7.6293578 821.68298 801.80127 4288519372
1.6954129 821.68298 801.80127 4289968104
4.2385321 821.68298 801.80127 4290625775
7.6541286 819.50085 803.8855 4290823924
11.036697 820.59192 802.84338 4291876351
25.431192 821.68298 801.80127 4294967295
28.021101 820.59192 802.84338 4294967295
30.616514 819.50085 803.8855 4294967295
-8.4587154 824.43109 801.50232 4288191173
23.684404 824.43109 801.50232 4294967295
25.376146 824.43109 801.50232 4294967295
27.06789 824.43109 801.50232 4294967295
25.376146 825.72443 802.5929 4294967295
27.06789 826.37109 803.13812 4294967295
-21.445871 749.79047 806.58484 4284243068
42.891743 749.79047 806.58484 4294967295
-19.598166 752.08203 804.5929 4284769412
40.087158 752.08203 804.5929 4294967295
-21.379816 754.12512 806.31567 4285295498
40.384098 753.89813 806.12427 4294967295
42.759632 754.80615 806.88989 4294967295
-19.537615 757.76819 805.46332 4285427088
-17.761467 757.08929 804.89087 4285233554
39.963303 757.76819 805.46332 4294967295
-17.133944 760.41815 805.08154 4285823634
38.403671 760.41815 805.08154 4294967295
40.766972 761.32147 805.84326 4294967295
-19.497248 762.67657 806.98584 4285624467
-17.669725 764.94708 804.9762 4286018961
37.989906 764.94708 804.9762 4294967295
40.766972 762.67657 806.98584 4294967295
42.539448 762.67657 806.98584 4294967295
-17.669725 766.29791 806.11523 4285822611
38.873394 766.29791 806.11523 4294967295
-16.733946 769.23755 804.66974 4286085014
-14.091743 768.56421 804.10205 4286283679
35.229359 768.56421 804.10205 4294967295
37.577984 769.46198 804.85895 4294967295
-16.681652 773.51544 804.35266 4286216599
37.813759 772.38647 805.36279 4294967295
40.51376 771.25757 806.37292 4294967295
-19.315596 776.20032 806.61646 4285887634
-16.64679 776.36035 804.13525 4286019486
35.045872 776.36035 804.13525 4294967295
37.753212 774.85785 805.48462 4294967295
40.387157 776.20032 806.61646 4294967295
-19.275229 779.03961 806.39441 4285821841
-17.522936 777.69995 805.26489 4285690784
37.674309 777.69995 805.26489 4294967295
40.302753 779.03961 806.39441 4294967295
-19.21468 782.6203 805.4895 4285690512
-16.885628 781.72998 804.73883 4285822617
34.93578 781.28485 804.36353 4294967295
37.555962 781.95258 804.92651 4294967295
-19.21468 783.95575 806.61548 4285690766
-16.269114 785.00275 804.88232 4286216603
-13.944954 784.11438 804.13318 4286218916
34.862385 784.7807 804.69501 4294967295
37.555962 783.95575 806.61548 4294967295
41.049541 783.95575 806.61548 4294967295
-16.559633 786.7796 806.38049 4286281631
37.477066 786.7796 806.38049 4294967295
-16.796942 790.78351 805.83234 4285887378
-13.900917 789.01227 804.33887 4286349211
34.752293 789.01227 804.33887 4294967295
37.358719 791.00488 806.01898 4294967295
-15.588991 793.89331 804.5304 4286151061
-13.856881 793.89331 804.5304 4286611877
36.374313 793.89331 804.5304 4294967295
-16.455046 795.87964 806.20514 4285953940
-13.827523 796.69751 804.27869 4286415014
34.568806 796.69751 804.27869 4294967295
37.503365 796.15228 805.56299 4294967295
39.838531 796.54175 806.76343 4294967295
-15.555964 798.01892 805.39282 4286546334
37.161469 798.67963 805.94995 4294967295
-16.367889 802.21057 805.00305 4285823380
34.458717 801.55194 804.44775 4294967295
36.755966 802.43011 805.18817 4294967295
-16.342201 805.28796 805.63574 4286085266
-13.754128 804.34076 804.18311 4286480807
32.666054 804.34076 804.18311 4294967295
34.385323 804.34076 804.18311 4294967295
37.277676 805.6037 806.11993 4294967295
39.627522 804.18634 806.66895 4294967295
-15.423853 809.16846 804.32959 4286414232
35.988991 809.16846 804.32959 4294967295
-18.851376 811.78882 806.53906 4285755021
-16.264221 811.21021 804.74316 4285756305
32.491745 811.94177 804.052 4294967295
35.095413 811.21021 804.74316 4294967295
37.702751 810.47864 805.43433 4294967295
39.416515 811.78882 806.53906 4294967295
-18.811008 814.55658 806.25671 4285953429
-17.100918 813.24915 805.1543 4285494166
35.911926 813.90283 805.70551 4294967295
37.622017 813.90283 805.70551 4294967295
39.332111 814.55658 806.25671 4294967295
-16.193579 817.39447 804.72546 4286020242
32.387157 817.39453 804.72546 4294967295
34.659939 817.61176 804.90863 4294967295
37.500916 818.04608 805.2749 4294967295
-16.193579 819.34924 806.37366 4286084238
-13.60734 820.80121 804.98193 4286480025
-11.055964 820.80121 804.98193 4287335599
28.915596 820.80121 804.98193 4294967295
31.501835 820.0752 805.6778 4294967295
34.944038 819.34924 806.37366 4294967295
37.500916 819.34924 806.37366 4294967295
39.205505 819.34924 806.37366 4294967295
-13.60734 822.10156 806.07837 4286480289
-11.906422 822.10156 806.07837 4287270061
28.915596 822.10156 806.07837 4294967295
30.616514 822.10156 806.07837 4294967295
-23.233028 751.8399 808.31287 4285032327
44.083179 751.61212 808.12085 4294967295
-22.567583 756.62231 808.4212 4284966536
43.650459 756.16827 808.03833 4294967295
-21.313761 760.48401 807.75311 4285294987
-19.537615 759.80505 807.18066 4285294472
43.811619 760.25763 807.56232 4294967295
46.179817 759.80505 807.18066 4294967295
-22.201836 762.52081 809.47058 4285426321
-19.497248 764.03162 808.12842 4286019224
40.766972 764.03162 808.12842 4294967295
43.42569 764.03162 808.12842 4294967295
46.179817 762.52081 809.47058 4294967295
-21.269724 765.38672 809.271 4284965773
-19.436697 767.6488 807.25427 4285952668
40.640366 767.6488 807.25427 4294967295
43.359634 766.51776 808.26263 4294967295
-21.203671 770.35052 809.53223 4285032329
-19.436697 768.99963 808.39319 4285886621
43.585323 769.44989 808.77289 4294967295
45.941284 770.35052 809.53223 4294967295
-21.137615 773.95087 808.64392 4284900739
-19.376146 772.60419 807.50842 4285690260
40.51376 772.60419 807.50842 4294967295
42.862385 773.50195 808.26544 4294967295
45.798164 773.95087 808.64392 4294967295
-22.899082 775.29749 809.7793 4285098374
-21.07156 778.21399 808.31439 4285098374
43.021103 777.54279 807.74841 4294967295
46.240368 778.43774 808.50311 4294967295
40.302753 780.37927 807.52393 4294967295
43.22324 780.82587 807.90045 4294967295
45.559631 781.71893 808.65356 4294967295
-21.027523 783.05853 809.78308 4284900993
-19.21468 785.2912 807.74146 4285822095
41.049541 785.2912 807.74146 4294967295
43.669724 785.2912 807.74146 4294967295
46.43578 783.05853 809.78308 4294967295
49.06422 783.05853 809.78308 4294967295
-20.365749 787.56689 808.78833 4285229960
38.348625 788.11224 807.50403 4294967295
41.007339 787.36938 808.18573 4294967295
43.669724 786.62659 808.86743 4294967295
45.998779 787.51691 809.61816 4294967295
48.910091 787.29431 809.43048 4294967295
-20.045872 790.11121 809.18951 4285427341
40.963303 789.44489 808.62769 4294967295
43.57798 790.11121 809.18951 4294967295
46.192661 790.77753 809.75134 4294967295
49.969418 790.33331 809.37677 4294967295
-19.113762 793.66174 808.25916 4285623950
-17.376146 792.9975 807.6991 4285493132
41.123547 793.44025 808.07245 4294967295
43.440369 794.32593 808.81921 4294967295
-19.113762 795.65436 809.93933 4285755023
-17.3211 797.86597 807.88 4285165964
40.704586 797.86597 807.88 4294967295
43.440369 795.65436 809.93933 4294967295
45.177982 795.65436 809.93933 4294967295
-19.053211 799.19012 808.99646 4285952148
40.662384 799.9259 808.30884 4294967295
43.302753 799.19012 808.99646 4294967295
41.482571 801.98315 808.73535 4294967295
43.21101 802.64386 809.29248 4294967295
-18.952293 805.50354 807.77966 4285820817
40.77615 805.94263 808.1499 4294967295
-18.911926 808.28394 807.50793 4285755023
40.402752 808.94116 808.06207 4294967295
-20.631193 810.91272 809.72449 4285098120
42.981651 810.91272 809.72449 4294967295
-19.688072 815.79169 808.60608 4285885322
40.50153 814.94232 807.45392 4294967295
43.700916 815.06433 809.30078 4294967295
46.271561 815.71942 809.85315 4294967295
-18.811008 817.82501 809.01257 4286016396
41.042202 817.82501 809.01257 4294967295
42.752293 817.82501 809.01257 4294967295
-16.477676 821.08673 807.83881 4285952910
28.977982 821.95557 808.57129 4294967295
31.81896 821.52118 808.20508 4294967295
34.944038 821.30396 808.02191 4294967295
37.500916 821.30396 808.02191 4294967295
39.205505 821.30396 808.02191 4294967295
-15.898472 823.30646 808.83832 4286347920
-13.60734 823.40192 807.1748 4286546082
34.944038 823.25873 809.67004 4294967295
-25.07156 751.00092 810.22156 4284900741
-25.020184 754.57251 810.61694 4284900742
46.466057 753.88934 810.04089 4294967295
-25.020184 756.62195 812.34497 4285162632
-23.161469 758.89246 810.33533 4285491597
46.322937 758.89246 810.33533 4294967295
-24.943119 760.93555 812.05804 4285096586
-23.089909 763.87872 810.61548 4285096839
-24.866055 766.59448 812.90527 4284966534
-22.179817 765.9892 811.08698 4285096847
46.084404 766.74182 810.41357 4294967295
-24.814678 769.4519 812.69873 4284900741
-23.042202 768.09686 811.55615 4285032327
-24.737616 773.05225 811.8103 4284900739
-22.970642 771.70142 810.67126 4284900741
-24.660551 776.64417 810.91479 4284900739
-22.899082 776.64417 810.91479 4285229961
-25.541285 777.99084 812.05029 4284966273
-28.095413 782.91254 812.27612 4284571776
-25.461468 782.91254 812.27612 4284703615
-22.242203 780.67511 810.38947 4285032067
47.411011 780.22766 810.01221 4294967295
-22.779816 785.06799 811.47736 4284966271
47.311928 784.39819 810.9126 4294967295
-22.708258 789.96521 811.6825 4285097090
-20.917431 792.77643 811.43683 4285162630
46.483181 792.55438 811.24951 4294967295
49.678898 792.77643 811.43683 4294967295
-20.851376 796.98279 811.05945 4285162632
46.046791 796.98279 811.05945 4294967295
-19.952293 799.41278 811.14624 4285557390
45.975227 799.41278 811.14624 4294967295
48.65321 798.31122 812.17944 4294967295
-20.78532 801.83856 811.22961 4285294472
45.900917 802.50067 811.7879 4294967295
-20.741285 804.62598 810.96375 4285162630
44.3633 805.06641 811.33514 4294967295
46.667889 805.94739 812.07788 4294967295
48.396332 805.94739 812.07788 4294967295
-20.67523 808.13794 810.00085 4285294470
43.93486 808.79651 810.55615 4294967295
46.519264 809.45514 811.11145 4294967295
-22.398165 810.77234 812.22217 4285031296
-20.631193 812.22711 810.83264 4285425538
44.700916 812.22711 810.83264 4294967295
46.519264 810.77234 812.22217 4294967295
48.242203 810.77234 812.22217 4294967295
-22.350458 813.5415 811.94092 4285030781
48.13945 813.5415 811.94092 4294967295
-20.565138 817.68469 811.51025 4285358467
44.557796 817.0296 810.95789 4294967295
47.414066 817.46631 811.32617 4294967295
-18.811008 820.43976 811.21729 4285951116
37.622017 821.09344 811.76843 4294967295
40.472172 820.65765 811.40106 4294967295
43.322323 820.22186 811.03351 4294967295
46.742508 820.65765 811.40106 4294967295
-18.811008 822.40082 812.87085 4286149518
-17.045872 824.56189 810.76892 4286150281
35.911926 822.40082 812.87085 4294967295
37.622017 822.40082 812.87085 4294967295
40.187157 822.40082 812.87085 4294967295
43.607338 822.40082 812.87085 4294967295
47.027523 822.40082 812.87085 4294967295
-26.944954 751.46442 814.53638 4284703367
-26.862385 755.10828 813.68469 4284833668
-26.862385 756.47736 814.83911 4284900489
-26.807339 760.03772 815.22504 4284900741
-24.943119 762.9787 813.78076 4285096589
-29.944954 779.33746 813.18579 4284703617
-25.541285 779.33746 813.18579 4284834946
-33.363304 785.59747 814.53992 4284769410
-31.60734 784.92627 813.97394 4284899965
-29.266054 784.70245 813.78534 4284965504
-25.754128 784.70245 813.78534 4284965247
-33.363304 786.93988 815.67188 4284703617
-31.60734 786.93988 815.67188 4284833919
-28.641592 787.47821 814.38165 4285031040
-25.116209 787.97052 813.9248 4284834174
-25.408257 789.75677 815.43079 4284768382
-22.708258 791.96838 813.37146 4285096837
-27.948624 794.63922 815.62354 4285030783
-25.328442 794.63922 815.62354 4285031040
-22.708258 793.30377 814.49756 4285096839
49.678898 794.77539 813.12231 4294967295
-25.27523 797.44067 815.36951 4284899202
-22.660551 796.10803 814.24597 4285097091
50.550457 796.10803 814.24597 4294967295
-22.588991 800.30383 813.85962 4285096837
46.915596 799.63959 813.29956 4294967295
49.522018 800.30377 813.85962 4294967295
-27.801834 802.29645 815.53979 4284637821
-26.06422 802.29645 815.53979 4284572028
-22.517431 804.487 813.46265 4285097089
50.231194 804.487 813.46265 4294967295
-28.519266 809.91162 815.42041 4284834426
-24.774313 809.47119 815.04901 4284899708
-22.469725 807.2688 813.19214 4284900993
49.548626 807.70929 813.56348 4294967295
-24.695414 814.28485 815.18378 4284965242
-22.398165 813.40674 814.44336 4285030781
-22.350458 816.82751 814.71161 4285031287
-20.565138 820.30505 813.71973 4285425541
44.557796 819.64996 813.16736 4294967295
-18.851376 822.27032 815.37671 4286346894
-17.100918 823.70819 813.97314 4286084234
39.416515 822.27032 815.37671 4294967295
44.462387 823.70819 813.97314 4294967295
46.172478 823.70819 813.97314 4294967295
-17.045872 829.7746 815.16406 4285885326
-28.741285 754.21106 816.85229 4284571524
-33.363304 788.28235 816.80371 4284637823
-31.60734 788.28235 816.80371 4284637823
-28.973394 788.28235 816.80371 4284900225
-33.363304 789.62482 817.93567 4284703617
-31.60734 789.62482 817.93567 4284899967
-28.944036 790.3606 817.24805 4284833918
-25.408257 791.09644 816.56042 4284833922
-29.78899 792.43604 817.68994 4284899194
-29.11315 796.41974 817.12482 4284833403
-27.889908 798.77325 816.49316 4284899196
-24.984711 799.21747 816.86768 4284833661
-27.889908 801.43854 818.74048 4284572026
-25.236698 802.53174 817.70013 4284572028
-28.579817 809.78381 817.92883 4284834169
-27.655046 812.55444 817.6488 4284834169
-25.926605 811.23303 816.53467 4284834169
-27.566973 817.35834 817.77521 4284964988
-24.982569 817.35834 817.77521 4285030778
-22.350458 818.79907 816.37402 4285162873
-22.350458 820.11346 817.4823 4285162623
-20.058105 820.98975 818.22119 4285689222
-18.851376 824.89069 817.58618 4286939032
-19.688072 826.91565 817.98553 4285425284
-17.100918 826.323 816.17786 4287070631
-30.631193 753.32227 820.02698 4284637569
-28.829357 754.01099 820.60773 4284703619
-26.944954 758.33099 820.32617 4285097089
-26.944954 759.70428 821.48401 4284702585
-33.363304 790.96729 819.06763 4284834173
-31.60734 790.96729 819.06763 4285030781
-31.60734 792.30969 820.19946 4284899194
-27.889908 802.77118 819.86414 4284638071
-31.277063 807.61011 820.02014 4284834169
-29.445871 811.10803 819.04541 4284834171
-31.177982 813.75647 821.27844 4285096576
-29.383486 815.19727 819.8772 4285030783
-29.383486 816.51862 820.99133 4285030783
-28.141283 820.87091 820.737 4285358716
-24.695414 820.43182 820.3667 4285293183
-22.398165 819.99274 819.99646 4285490048
-27.508257 824.05664 820.80701 4286474887
-25.215902 823.61847 820.43768 4285818243
-22.350458 823.39941 820.25293 4285753993
-20.631193 822.74225 819.69885 4285557379
-27.508257 825.37103 821.91528 4285424003
-24.929358 825.37103 821.91528 4285096065
-22.350458 825.37103 821.91528 4284964735
-19.741283 826.44104 820.85547 4284767361
-30.631193 756.07733 822.34998 4284900739
-28.829357 756.07733 822.34998 4285031296
-34.062386 805.32269 824.63159 4284899965
-31.376146 806.76904 823.23499 4284834171
-33.990826 808.10168 824.35864 4284834174
-33.883484 812.25964 823.94043 4284965256
-31.277063 810.26697 822.26025 4284964989
-29.53945 810.26697 822.26025 4284899196
-31.177982 815.08069 822.39502 4285096576
-32.011009 817.12244 822.80853 4284964994
-29.383486 817.84003 822.10547 4285030781
-31.976147 819.16144 823.21973 4285227646
-31.012844 822.62714 822.21777 4285950338
-29.289907 823.28577 822.77307 4285687937
-27.508257 826.68542 823.02356 4281938262
-24.956881 825.97351 823.73132 4282201687
-22.350458 826.68542 823.02356 4282267477
-25.062386 824.44708 827.67639 4282201941
-22.398165 826.57874 825.54968 4282202195
-28.579817 823.026 829.09424 4282268251
-25.062386 825.76849 828.79053 4282860377
-33.363304 819.15869 842.83789 4283320417
-28.973394 819.15869 842.83789 4283189342
-26.339449 819.15869 842.83789 4283189342
49.475231 812.22736 844.84167 4294967295
51.242203 812.22736 844.84167 4294967295
47.708256 813.57825 845.98071 4294967295
49.321102 815.6972 843.84338 4294967295
51.082569 815.6972 843.84338 4294967295
-24.660551 817.04388 844.97876 4283189342
49.321102 817.04388 844.97876 4294967295
51.082569 817.04388 844.97876 4294967295
-33.363304 821.17236 844.53577 4283385961
-31.60734 821.17236 844.53577 4283320419
-28.973394 821.1723 844.53577 4283386210
52.678898 821.84357 845.10168 4294967295
52.412846 782.8399 848.8396 4294967295
-25.541285 818.39056 846.11426 4283254622
-22.899082 818.39056 846.11426 4283254622
49.321102 818.39056 846.11426 4294967295
51.082569 818.39056 846.11426 4294967295
-28.183487 821.08386 848.38525 4283519592
-25.834862 820.18604 847.62823 4283518565
-22.899082 819.73718 847.24976 4283715173
49.321102 820.41052 847.8175 4294967295
51.082569 820.41052 847.8175 4294967295
-33.363304 823.18604 846.23364 4283716719
-31.60734 823.85724 846.79962 4283913582
-29.851376 823.18604 846.23364 4283716719
52.678898 823.85724 846.79962 4294967295
50.922935 825.87091 848.49744 4294967295
52.568806 827.26678 847.05835 4294967295
52.732109 777.11914 851.86426 4294967295
45.183487 785.60333 851.16968 4294967295
50.605503 785.60333 851.16968 4294967295
52.412846 784.91248 850.58716 4294967295
46.247097 790.05609 851 4294967295
49.250153 789.59692 850.61285 4294967295
52.253212 789.82654 850.80646 4294967295
54.055046 789.13776 850.22571 4294967295
44.908257 795.41034 851.59045 4294967295
46.561466 797.55042 849.47083 4294967295
44.770641 800.28857 851.77966 4294967295
46.561466 798.91949 850.62524 4294967295
48.352295 798.91949 850.62524 4294967295
44.678898 803.07599 851.51379 4294967295
46.466057 802.39282 850.93781 4294967295
48.253212 801.70972 850.36182 4294967295
46.322937 806.56549 850.53198 4294901759
48.698471 805.65747 849.76636 4294967295
46.322937 807.92761 851.68054 4294901759
47.85688 812.81427 849.26074 4294967295
46.970642 814.84692 850.97449 4294967295
-24.737616 818.98169 850.53674 4283781479
-22.970642 818.98169 850.53674 4283781479
47.708256 818.30627 849.96729 4294967295
-25.621101 820.33252 851.67578 4283979116
49.475231 820.33252 851.67578 4294967295
-31.706423 823.77716 850.65613 4284241267
-29.06422 823.10382 850.08838 4284044654
49.321102 823.77716 850.65613 4294967295
51.082569 822.43048 849.52063 4294967295
-29.06422 825.12384 851.79163 4284438645
49.166973 827.21338 849.62939 4294967295
49.166973 828.55579 850.76135 4294967295
54.550457 779.89948 854.2085 4294967295
43.508255 783.44647 853.27515 4294967295
54.385323 783.44647 853.27515 4294967295
41.568806 786.98511 852.33472 4294967295
43.376148 787.67596 852.91724 4294967295
45.183487 786.98511 852.33472 4294967295
50.605503 788.36682 853.49976 4294967295
46.847706 791.89276 852.54858 4294836223
49.701836 789.74854 854.66479 4294901759
52.412846 789.74854 854.66479 4294967295
43.244038 794.64783 854.87158 4294967295
49.850769 793.72949 854.09723 4294901759
52.253212 793.27026 853.71008 4294967295
44.908257 796.78363 852.74841 4294967295
42.979816 802.34229 853.51117 4294967295
44.678898 805.12543 853.24188 4294901759
46.322937 809.28967 852.82898 4294967295
46.322937 810.65173 853.97742 4294967295
-23.042202 818.23462 853.83093 4283913321
46.675232 817.7829 853.45001 4294967295
-25.621101 821.68341 852.81482 4284110446
-22.970642 821.68341 852.81482 4284110446
47.85688 819.58966 854.97351 4294967295
-25.621101 823.0343 853.95386 4284373363
47.708256 823.0343 853.95386 4294967295
-28.183487 826.47046 852.92712 4284570745
40.084404 779.85168 856.78418 4294967295
54.550457 784.06989 857.72485 4294967295
43.376148 791.13025 855.82983 4294967295
41.442204 797.40283 857.19458 4294967295
43.244038 796.02533 856.03308 4294967295
43.111927 802.27692 857.38013 4294967295
44.770641 805.76501 856.39722 4294967295
44.72477 808.52075 857.41272 4294967295
44.541283 814.05701 856.84863 4294967295
46.179817 818.19385 856.4126 4294967295
-23.042202 820.94476 856.11609 4284307825
46.084404 820.94476 856.11609 4294967295
-25.659634 823.34247 856.17578 4284570745
-23.042202 822.2998 857.25867 4284570745
46.896332 823.34247 856.17578 4294967295
38.49358 775.5379 860.99512 4294967295
41.906422 784.03052 860.30774 4294967295
43.640366 785.46002 858.89697 4294967295
45.458717 785.46002 858.89697 4294967295
-21.754128 791.76208 860.28662 4282333270
41.568806 793.89368 858.15991 4294967295
-25.302752 796.65717 860.48987 4282860381
-22.591743 795.96631 859.90735 4282926171
-19.880733 796.65717 860.48987 4282992219
39.761467 796.65717 860.48987 4294967295
-27.027523 800.1579 859.51758 4282861917
-25.225689 800.1579 859.51758 4282927456
-22.522936 800.1579 859.51758 4282861918
-19.820183 800.1579 859.51758 4282927710
41.442204 799.46912 858.93683 4294967295
-22.487156 802.59277 859.60858 4283123550
-19.820183 801.5354 860.67908 4283189344
41.442204 801.5354 860.67908 4294967295
43.111927 803.65021 858.53809 4294967295
-21.555964 805.71014 860.27502 4283583841
-19.759632 806.39679 860.854 4283518816
41.315598 806.39679 860.854 4294967295
43.111927 805.0235 859.69604 4294836223
-21.489908 809.87231 859.86035 4283781479
42.979816 808.50317 858.70593 4294967295
-21.445871 812.64008 859.578 4283913321
42.891743 811.95691 859.00201 4294967295
42.891743 814.00635 860.72998 4294967295
-21.379816 816.78113 859.14557 4284110962
44.095871 817.80273 860.00696 4294967295
-25.700916 823.65491 858.40125 4284637306
-23.089909 822.26752 859.84741 4284572026
44.403671 823.62537 860.99231 4294967295
46.179817 822.26752 859.84741 4294967295
-25.700916 825.00995 859.5437 4284900993
-12.946789 764.82532 863.73486 4287270061
-11.097248 764.11829 863.13873 4287400626
-12.908257 768.4046 862.82874 4287401129
34.114677 768.4046 862.82874 4294967295
36.770641 772.67822 862.508 4294967295
40.205505 781.18762 861.83478 4294967295
42.033028 780.48907 861.24573 4294967295
-18.275229 783.28339 863.60193 4284438391
41.055962 784.35339 862.54205 4294967295
-21.820183 788.2403 861.24133 4281938010
-19.131193 786.81641 862.65674 4282135386
-16.398165 788.20935 863.83118 4282071894
38.262386 788.20935 863.83118 4294967295
40.953209 787.52832 861.94904 4294967295
-18.789602 790.09381 862.8042 4282400344
-16.365137 791.02057 863.58557 4282664281
38.185322 791.02057 863.58557 4294967295
40.00367 789.63043 862.41345 4294967295
-19.034863 793.84094 862.03949 4282861146
-16.315596 794.53394 862.62378 4282730074
39.882568 793.14801 861.4552 4294967295
-14.502752 795.91986 863.79236 4283189594
38.069725 795.91986 863.79236 4294967295
-18.073395 798.72974 862.23743 4283189343
-16.266054 799.42059 862.82001 4283255136
-14.458715 800.80237 863.98499 4283386977
37.954128 800.11145 863.40247 4294967295
39.761467 798.72974 862.23743 4294967295
-18.919266 802.9129 861.84058 4283452257
40.541283 802.9129 861.84058 4294901759
-18.018349 804.29047 863.00208 4283650145
-16.216515 804.29047 863.00208 4283715938
39.640366 804.29047 863.00208 4294967295
-19.759632 808.45679 862.59094 4283913321
-17.963303 808.45679 862.59094 4283913069
40.417431 808.45679 862.59094 4294967295
-19.699083 812.61047 862.16919 4284176239
41.188992 811.24139 861.01477 4294967295
-19.699083 813.97961 863.32349 4284177270
41.188992 813.97961 863.32349 4294967295
42.891743 815.37268 861.88208 4294967295
-21.445871 816.73895 863.03406 4284440442
41.104588 816.73895 863.03406 4294967295
43.353516 820.64044 862.3996 4294967295
-7.4422016 757.64148 865.52576 4288257229
-9.2752295 761.23761 864.63391 4288322243
-7.4422016 759.0639 866.7251 4288585165
-4.6513758 759.0639 866.7251 4288980688
-9.2752295 762.65576 865.82971 4288452543
-14.79633 766.23926 864.92712 4286808736
-10.172478 766.94629 865.52325 4287993017
29.592661 766.94629 865.52325 4294967295
31.442202 766.94629 865.52325 4294967295
-16.596331 769.81433 864.01746 4286939797
-13.830275 769.81433 864.01746 4287137705
-11.06422 769.81433 864.01746 4288059321
34.114677 769.81433 864.01746 4294967295
-18.440367 772.63391 866.39478 4286282392
-16.596331 771.92902 865.80042 4286940061
-13.830275 771.92896 865.80042 4287334315
-11.06422 771.92902 865.80042 4288124085
34.114677 771.92902 865.80042 4294967295
36.880733 772.63391 866.39478 4294967295
-16.546789 776.19214 865.47083 4287794098
-14.708257 776.19214 865.47083 4287596975
37.996326 775.72363 865.07587 4294967295
40.447708 774.78662 864.28577 4294967295
-16.497248 779.742 864.53992 4285753740
-13.788991 777.59772 866.65601 4285886353
-11.031193 777.59772 866.65601 4286612118
34.93211 777.59772 866.65601 4294836223
37.689907 777.59772 866.65601 4294967295
-16.497248 781.14337 865.72156 4284109683
-14.66422 782.54474 866.90308 4282202447
34.827522 782.54474 866.90308 4294770687
37.577065 781.14337 865.72156 4294901759
-16.447706 784.68054 864.77991 4282267227
37.464218 784.68054 864.77991 4294967295
-14.620184 786.0777 865.95801 4282071367
36.550457 786.0777 865.95801 4294967295
-13.665138 790.29877 865.59296 4282730325
36.440369 790.29877 865.59296 4294967295
-13.637615 793.10583 865.34375 4282992731
37.276146 793.10583 865.34375 4294967295
-14.502752 797.30579 864.96094 4283255135
36.256882 797.30579 864.96094 4294967295
-12.689908 798.69177 866.12964 4283386977
36.256882 798.69177 866.12964 4294770687
-13.555046 802.87494 865.73254 4283781480
34.339451 803.5658 866.31506 4294967295
36.749237 802.64471 865.53839 4294705151
-16.216515 805.66797 864.16357 4283847274
37.838531 805.66797 864.16357 4294836223
39.640366 805.66797 864.16357 4294967295
-16.216515 807.04547 865.32495 4284110194
-13.814067 807.96381 866.0993 4284175988
37.838531 807.73425 865.9057 4294967295
-17.065138 811.20343 864.90674 4284110965
37.722935 811.89008 865.48572 4294967295
40.118042 810.97443 864.71368 4294967295
-19.699083 815.34869 864.47791 4284440442
-17.065138 813.26337 866.64368 4284308859
37.722935 813.26337 866.64368 4294967295
39.398167 815.34869 864.47791 4294967295
-22.086851 817.63055 866.40192 4284703614
-19.699083 817.40234 866.20953 4284637821
37.607338 818.08691 866.78674 4294967295
39.966976 817.63666 865.5351 4294967295
40.508869 820.38239 866.10614 4294967295
43.353516 823.36456 864.69653 4294967295
14.972477 751.85474 868.49475 4291942655
-4.6651373 755.4635 867.61353 4288718544
-1.866055 755.4635 867.61353 4289376982
0.93577981 754.37451 868.65735 4289574629
4.6788988 753.28558 869.70117 4290494698
7.4862385 753.28558 869.70117 4290955514
10.293578 753.28558 869.70117 4291350014
14.036697 753.28558 869.70117 4292008191
-1.866055 756.89014 868.81641 4289508055
0 756.89014 868.81641 4289507812
-7.4422016 760.48627 867.92444 4288650958
-4.6513758 761.19751 868.52405 4289177557
-1.8605504 761.90869 869.12378 4289835230
0 761.90869 869.12378 4289245660
26.047707 761.90869 869.12378 4294967295
-9.2752295 764.07397 867.02551 4288452543
-7.4201837 764.07397 867.02551 4288453068
27.825687 764.07397 867.02551 4294967295
-7.4201837 765.49219 868.22119 4288583884
-4.6376147 766.20129 868.81909 4289242838
-1.8550459 766.9104 869.41699 4289835480
25.970642 766.9104 869.41699 4294967295
27.825687 766.20129 868.81909 4294967295
-9.2477064 769.77429 867.90765 4288584636
-7.3981652 769.77429 867.90765 4288256465
-5.548624 770.48126 868.50378 4288783321
28.976149 770.00995 868.10638 4294901759
31.442202 769.77429 867.90765 4294967295
-4.6238532 771.89526 869.69604 4289505495
-1.8495413 771.89526 869.69604 4290557924
25.893578 771.89526 869.69604 4294967295
28.667891 771.89526 869.69604 4294967295
-12.908257 774.0437 867.5835 4288320442
-9.6811934 775.10101 868.47504 4287663779
-7.3761468 775.45343 868.77222 4288189865
-4.6100917 776.15839 869.36658 4289110958
-1.8440367 776.86328 869.96094 4290425782
28.889908 776.39337 869.5647 4294967295
31.348623 775.45343 868.77222 4294967295
33.807339 774.51367 867.97974 4294901759
-13.788991 779.0033 867.84119 4285096821
-11.031193 779.0033 867.84119 4285492589
34.012844 779.0033 867.84119 4294836223
-12.869725 780.40887 869.02637 4282005324
-10.111927 780.40887 869.02637 4281742400
-7.3541284 780.40887 869.02637 4281217353
-5.5155964 780.40887 869.02637 4281217353
31.255045 780.40887 869.02637 4294967295
33.093578 780.40887 869.02637 4294770687
-12.831193 783.94611 868.08472 4282268490
-10.998165 784.64679 868.67554 4282597459
32.07798 784.64679 868.67554 4294967295
34.827522 783.94611 868.08472 4294967295
-12.792661 787.47485 867.13599 4282796369
32.28624 788.40631 867.92139 4294901759
34.722935 788.17346 867.72504 4294901759
-10.965137 790.26917 869.49207 4283124832
28.326607 790.26917 869.49207 4294967295
31.06789 790.26917 869.49207 4294967295
-10.93211 793.78113 868.52917 4283453022
32.188992 793.31683 868.1377 4294967295
34.618347 792.38818 867.35474 4294967295
-12.72844 795.19104 867.10193 4283386977
-9.7039757 796.5755 869.1413 4283453027
-7.2807341 796.57269 869.57495 4283650147
29.152294 795.17407 869.70374 4294967295
31.836697 796.92444 869.21753 4294967295
34.548622 795.88611 867.68799 4294967295
-10.877064 800.0777 867.29822 4283519592
34.444038 800.0777 867.29822 4294967295
-9.9706421 801.46362 868.4668 4283716719
-7.2513762 802.84955 869.63538 4283979891
31.72477 802.15662 869.05109 4294967295
-12.651376 804.94751 867.4801 4284110194
-9.9403667 805.63831 868.06262 4283979380
-7.2293577 806.32922 868.64514 4284241780
32.532108 805.63837 868.06262 4294967295
34.339451 805.63837 868.06262 4294967295
36.14679 805.63837 868.06262 4294967295
-13.513762 809.80054 867.64795 4284111479
-9.9266052 808.75574 868.72906 4284111225
-7.2073393 809.80054 867.64795 4284307573
28.917431 807.71094 869.81018 4294967295
31.628441 807.71094 869.81018 4294967295
34.234863 809.80054 867.64795 4294967295
36.036697 809.80054 867.64795 4294967295
-13.213455 811.63721 869.19659 4284636796
-9.9100914 811.86682 869.3902 4284703614
-7.2073393 811.86682 869.3902 4284637819
31.832418 812.09637 869.5838 4294967295
34.234863 811.86682 869.3902 4294967295
36.036697 811.17804 868.80945 4294967295
-17.065138 814.63666 867.80164 4284572028
-14.370643 814.63666 867.80164 4284834173
35.926605 814.63666 867.80164 4294967295
37.722935 814.63666 867.80164 4294967295
-17.065138 816.01001 868.95959 4284899713
-13.472477 816.01001 868.95959 4284965755
-10.777982 816.01001 868.95959 4284900739
35.028442 816.01001 868.95959 4294967295
-19.699083 819.45599 867.94104 4284703617
35.816513 820.82513 869.09546 4294967295
37.607338 819.45599 867.94104 4294967295
37.530273 823.57043 868.79425 4294967295
40.21101 822.88727 868.21814 4294967295
16.893578 749.67261 870.57898 4292468991
18.770641 749.67261 870.57898 4292469759
16.893578 751.10767 871.78894 4292337663
19.709175 751.10767 871.78894 4292930303
22.524771 751.10767 871.78894 4294114559
24.401834 751.10767 871.78894 4294967295
1.8715596 754.71637 870.90771 4290034412
4.6788988 754.71637 870.90771 4290626281
7.4862385 754.71637 870.90771 4291217916
10.293578 754.71637 870.90771 4291350269
14.036697 754.71637 870.90771 4292008959
16.844036 754.71637 870.90771 4292469503
19.651377 754.71637 870.90771 4292995583
22.458715 754.71637 870.90771 4293916927
25.266056 754.71637 870.90771 4294967295
-1.866055 758.31671 870.01929 4289507803
0.93577981 757.23193 871.06671 4289640165
4.6788988 756.14722 872.11414 4290823660
7.4862385 756.14722 872.11414 4291020020
10.293578 756.14722 872.11414 4291284221
14.017431 757.23193 871.06671 4292008447
16.844036 756.14722 872.11414 4292468991
19.651377 756.14722 872.11414 4293061119
22.458715 756.14722 872.11414 4293719551
25.191742 758.31671 870.01929 4294967295
27.990826 758.31671 870.01929 4294967295
1.866055 760.45667 871.82361 4290100198
4.9761467 760.6944 872.02411 4290691826
7.46422 760.45667 871.82361 4291020528
10.263303 760.45667 871.82361 4291481338
13.995413 760.45667 871.82361 4291810813
16.794495 760.45667 871.82361 4292337151
19.593578 760.45667 871.82361 4292994815
22.39266 760.45667 871.82361 4293587967
24.258715 759.74335 871.22217 4294967295
-1.8605504 763.33112 870.32312 4289834971
0 764.04236 870.92279 4289573085
20.466055 764.75354 871.52246 4293323263
22.326605 764.75354 871.52246 4293456127
24.807341 763.80524 870.7229 4294901759
0 766.1759 872.7218 4290033629
16.744955 766.1759 872.7218 4292730879
19.53578 766.1759 872.7218 4292862975
22.326605 766.1759 872.7218 4293258751
-3.7100918 768.32861 870.61279 4289177807
-1.8550459 768.32861 870.61279 4290033115
0 769.74677 871.80859 4290296024
20.405504 769.74677 871.80859 4292994559
22.26055 769.74677 871.80859 4293390079
24.733946 768.80133 871.01141 4294967295
-1.8495413 773.3092 870.88831 4291084770
0 773.3092 870.88831 4290889187
24.968807 773.3092 870.88831 4294967295
27.74312 773.3092 870.88831 4294967295
0 774.72321 872.08057 4290886625
16.645872 774.72321 872.08057 4293060095
19.420183 774.72321 872.08057 4293126143
22.194496 774.72321 872.08057 4293390079
24.968807 774.72321 872.08057 4294901759
-3.6880734 778.27307 871.14954 4281808474
-1.8440367 778.97797 871.7439 4282137185
0 778.97797 871.7439 4282597730
20.284403 779.68286 872.33826 4293323519
23.357798 779.21289 871.94208 4294244863
25.816513 778.97797 871.7439 4294901759
28.582569 778.97791 871.7439 4294967295
-9.1926603 781.81445 870.21143 4282005324
-7.3541284 781.81445 870.21143 4281742931
-4.5963302 781.81445 870.21143 4281281873
31.255045 781.81445 870.21143 4294967295
-9.1926603 783.22003 871.39661 4283123801
-7.3541284 783.22003 871.39661 4282991965
-4.5963302 783.92279 871.98914 4283058275
-1.8385321 783.92285 871.9892 4282861411
0 783.92285 871.9892 4282794586
19.304588 784.62561 872.58179 4293652223
22.981651 784.62561 872.58179 4294179327
25.73945 784.62561 872.58179 4294901759
28.497248 783.22003 871.39661 4294967295
-9.7761469 787.216 870.8418 4283124062
-7.3321099 787.44952 871.0387 4283124067
-4.5825686 788.15021 871.62952 4283124836
-1.8330275 788.15021 871.62952 4283256169
20.163303 788.15021 871.62952 4293981183
22.912844 788.15021 871.62952 4294113535
25.662386 788.15021 871.62952 4294770687
28.411926 786.74884 870.44788 4294967295
-9.1376143 791.66632 870.67017 4283386973
-7.3321099 789.55157 872.81104 4283190627
-4.5825686 789.55157 872.81104 4283255907
-1.8330275 789.55157 872.81104 4283452516
0 789.55157 872.81104 4283781479
19.246788 789.55157 872.81104 4294112511
22.844036 791.66632 870.67017 4294507519
25.585321 791.66632 870.67017 4294967295
28.326607 791.66632 870.67017 4294967295
-4.5688076 793.06348 871.84814 4283386721
-1.827523 793.06348 871.84814 4283386977
0 793.06348 871.84814 4283912297
19.188992 793.06348 871.84814 4291476706
22.844036 793.06348 871.84814 4294835967
25.585321 793.06348 871.84814 4294967295
27.412844 793.06348 871.84814 4294967295
-4.5550461 797.26343 871.46545 4283913835
-1.8220184 797.26349 871.46545 4283979629
0 797.26349 871.46545 4283979892
20.042202 797.95996 872.05273 4287409100
22.77523 797.95996 872.05273 4292075775
25.508257 797.26349 871.46545 4294967295
27.937614 797.03131 871.26971 4294967295
-7.2733946 799.36145 870.61829 4283716971
-4.5458717 800.75159 871.79041 4283979891
-1.8183486 800.75159 871.79041 4284111477
0 800.75159 871.79041 4284309113
28.487463 800.28827 871.39972 4294967295
30.911926 799.36145 870.61829 4294967295
22.729359 802.14172 872.96265 4289510877
25.456881 802.14172 872.96265 4294967295
27.275229 802.14172 872.96265 4294967295
-4.5321102 804.92847 871.38824 4284242037
-1.812844 804.92847 871.38824 4284439674
0 804.92847 871.38824 4284637818
25.379816 805.6214 871.97253 4294967295
28.099083 804.92847 871.38824 4294967295
30.818348 804.23547 870.80396 4294967295
-4.5183487 809.09271 870.97522 4284835198
-1.8073394 809.09271 870.97522 4284703869
0 809.09271 870.97522 4284703869
28.013762 809.09271 870.97522 4294967295
30.724771 809.09271 870.97522 4294967295
-4.5183487 810.47443 872.14026 4284835453
-1.8073394 810.47443 872.14026 4284967036
0 810.47443 872.14026 4284966786
25.302752 810.47443 872.14026 4294967295
28.013762 810.47443 872.14026 4294967295
-9.0091743 814.62183 871.7132 4285097604
-7.2073393 814.62183 871.7132 4285032578
-4.5045872 814.62183 871.71313 4285032578
-1.8018348 815.31061 872.29395 4285361542
28.228745 814.85138 871.90674 4294967295
31.231806 814.39227 871.51959 4294967295
-22.454128 818.06995 870.69653 4285031812
-19.759632 818.75659 871.27539 4285623181
-17.065138 818.06995 870.69647 4285098117
-13.472477 818.06995 870.69653 4284901245
-10.777982 818.06995 870.69647 4285163653
-8.9816513 818.75659 871.27539 4285164166
32.333946 818.06995 870.69647 4294967295
34.729053 817.84106 870.50348 4294967295
-16.166973 820.12994 872.43335 4285691016
-13.472477 820.12994 872.43335 4285755532
-10.777982 820.12994 872.43335 4285493132
-8.0834866 820.12994 872.43335 4285229707
31.43578 820.12994 872.43335 4294967295
34.130276 820.12994 872.43335 4294967295
34.921101 823.56329 871.4043 4294967295
37.607338 822.19421 870.24988 4294967295
3.7431192 757.57806 873.32056 4290363121
1.866055 763.30988 874.22937 4290625514
