# .PCD v0.7 - Point Cloud Data file format
VERSION 0.7
FIELDS x y z rgb
SIZE 4 4 4 4
TYPE F F F U
COUNT 1 1 1 1
WIDTH 1164
HEIGHT 1
VIEWPOINT 0 0 0 1 0 0 0
POINTS 1164
DATA ascii
35.633026 765.70288 816.07776 4294967295
37.41468 767.06494 817.2262 4294967295
39.196331 767.06494 817.2262 4294836223
-16.925688 768.42706 818.37463 4286546325
-14.209174 770.66809 816.34009 4286941362
37.299084 770.66809 816.34009 4294967295
39.196331 768.42706 818.37463 4294967295
-19.537615 773.38385 818.63 4286085783
-16.873394 772.70496 818.0575 4286349475
-14.179816 773.51715 816.12634 4286021803
35.449543 773.51715 816.12634 4294967295
37.299084 772.026 817.48499 4294967295
39.07523 773.38385 818.63 4294967295
-16.543119 775.77563 818.03058 4285757855
35.449543 774.87225 817.26892 4294967295
37.222019 775.5498 817.84021 4294967295
-15.902752 779.80658 817.50537 4284902806
-14.135779 778.45575 816.36633 4283717755
34.750458 778.90601 816.74603 4294967295
37.106422 779.80658 817.50537 4294967295
-17.669725 781.15747 818.64441 4286284461
37.989906 781.15747 818.64441 4294967295
-16.733946 784.05078 817.15991 4285494174
34.6422 783.82635 816.9707 4294967295
-19.376146 786.0708 818.86304 4286151324
-16.681652 788.28235 816.80371 4285625500
35.119267 788.28235 816.80371 4294967295
37.871559 786.0708 818.86304 4294967295
-16.665138 790.3606 817.24805 4285493644
34.169724 791.09644 816.56042 4294967295
36.875229 789.62482 817.93567 4294967295
-16.64679 793.10583 818.2547 4285756307
37.674309 793.10583 818.2547 4294967295
-15.721101 796.64233 817.3125 4286348187
37.555962 796.64233 817.3125 4290298334
-15.688073 800.1059 817.61682 4286215586
-13.363914 799.21747 816.86768 4286480539
37.477066 799.43958 817.05499 4284969149
-16.559633 801.43854 818.74048 4285886355
-13.03211 803.62488 816.65979 4286743465
38.227524 803.62488 816.65979 4284239482
-16.507339 805.61755 818.33997 4285952140
39.965137 805.61755 818.33997 4282861156
-15.588991 809.78381 817.92883 4285361031
-13.27951 808.90106 817.18439 4286216603
38.106422 808.45966 816.81226 4281346890
39.838531 809.78381 817.92883 4280034371
-12.675229 812.11395 817.2774 4285822355
38.025688 811.23303 816.53467 4280100165
39.754128 812.55444 817.6488 4287598531
-15.555964 813.87585 818.76294 4285756818
39.754128 813.87585 818.76294 4290759164
-15.506422 818.67554 818.88586 4284769410
-12.922019 817.3584 817.77533 4285427601
-10.326606 817.4201 816.51935 4286086830
-7.7366972 818.79907 816.37402 4284969377
31.806421 818.79907 816.37402 4294967295
34.385323 818.79907 816.37402 4294967295
37.454586 817.71851 817.42493 4294244351
39.627522 818.67554 818.88586 4294967295
-10.315597 820.77063 818.03644 4287134102
-7.7366972 820.77063 818.03644 4287989674
10.315597 821.42786 818.59058 4292139519
32.092968 820.55157 817.85175 4294967295
34.385323 820.77063 818.03644 4294967295
36.677673 820.98975 818.22119 4294967295
-4.2844038 823.58051 816.48145 4290029522
-1.7137614 823.58051 816.48145 4289636824
0 823.58051 816.48145 4288456400
7.7119265 823.58051 816.48145 4290296798
29.133945 824.2356 817.03381 4294967295
31.418961 824.45392 817.21796 4294967295
34.27523 824.89069 817.58618 4294967295
27.361467 826.323 816.17786 4294967295
32.561466 826.20087 818.69092 4294967295
35.132111 826.20087 818.69092 4294967295
40.966358 748.75732 820.10199 4294967295
43.376148 749.67847 820.87866 4294967295
-21.622019 754.69977 821.18848 4285557908
-19.219572 753.78143 820.41412 4285954719
40.841587 753.78143 820.41412 4294967295
43.244038 754.01099 820.60773 4294967295
45.045872 754.69977 821.18848 4294967295
-21.555964 758.33099 820.32617 4285623181
-19.759632 758.33099 820.32617 4286544283
-17.065138 756.95764 819.16821 4285033111
37.722935 756.95764 819.16821 4294967295
40.118042 757.87323 819.94019 4294967295
43.111927 758.33099 820.32617 4294967295
-22.454128 759.70428 821.48401 4285425803
-19.699083 761.95374 819.45667 4286478490
-17.908257 761.95374 819.45667 4286018961
41.188992 761.95374 819.45667 4294967295
43.875229 761.95374 819.45667 4294967295
46.561466 761.95374 819.45667 4294967295
-22.385321 764.00745 821.18829 4285295244
-19.658716 764.8197 819.25708 4285886873
-17.871559 764.8197 819.25708 4285887886
41.104588 764.8197 819.25708 4294967295
43.78532 764.8197 819.25708 4294967295
46.466057 764.8197 819.25708 4294967295
-21.445871 766.86914 820.98517 4284901003
-19.658716 766.18604 820.40918 4285755033
41.104588 766.18604 820.40918 4294967295
43.78532 766.86914 820.98517 4294967295
46.466057 766.86914 820.98517 4294967295
48.253212 766.86914 820.98517 4294967295
-19.598166 769.78912 819.52319 4285757333
-17.816513 769.78912 819.52319 4286086301
40.087158 769.78912 819.52319 4294967295
-21.9737 772.05927 821.43726 4285164682
40.977982 771.15125 820.67163 4294967295
43.353516 772.05927 821.43726 4294967295
-21.313761 776.09961 820.9198 4284968070
-19.537615 774.7417 819.7749 4285758356
39.963303 774.7417 819.7749 4294967295
43.515594 776.09961 820.9198 4294967295
-19.497248 778.25989 820.12537 4286348953
-17.724771 777.5824 819.55408 4286218666
38.994495 777.5824 819.55408 4294967295
40.766972 778.25989 820.12537 4294967295
43.42569 778.93744 820.69666 4294967295
-21.269724 780.29254 821.83923 4285098120
-19.436697 782.5083 819.78345 4286413980
37.989906 782.5083 819.78345 4294967295
40.766972 780.29254 821.83923 4294967295
43.42569 780.29254 821.83923 4294967295
40.640366 783.85919 820.92236 4294967295
42.407341 783.85919 820.92236 4294967295
-21.137615 788.7641 821.13403 4284967306
-19.376146 787.41742 819.99854 4285624728
38.752293 787.41742 819.99854 4294967295
40.51376 788.09076 820.56628 4294967295
42.27523 788.7641 821.13403 4294967295
-19.315596 790.96729 819.06763 4285690773
-17.559633 790.96729 819.06763 4286150042
38.631191 790.96729 819.06763 4294967295
-21.07156 793.65216 821.33142 4284900741
-19.315596 792.30969 820.19946 4285690260
40.387157 792.30969 820.19946 4294967295
42.14312 792.98096 820.76544 4291613659
-28.036697 796.45496 821.07861 4284308859
-26.284403 796.45496 821.07861 4284572030
-19.275229 795.11536 819.9491 4285558671
-17.522936 795.11536 819.9491 4286018713
40.302753 795.11536 819.9491 4286681547
42.055046 796.45496 821.07861 4284443552
-19.21468 799.31323 819.56451 4285491596
-17.46789 798.64551 819.00146 4285689242
40.758411 799.53583 819.7522 4283124087
-20.06789 802.04382 820.55884 4285162630
41.834862 802.77118 819.86414 4283320930
43.669724 801.31641 821.25354 4282663000
-19.174313 804.10382 820.98779 4285556875
41.834862 804.10382 820.98779 4283648596
-19.113762 808.93854 821.14026 4285492878
-17.376146 808.27429 820.5802 4285427339
41.702751 808.27429 820.5802 4281221727
-16.455046 811.77014 819.6037 4285493902
41.570641 812.43225 820.16199 4283261951
-16.420183 815.19727 819.8772 4284769925
40.618347 815.19727 819.8772 4294967295
43.302753 813.75647 821.27844 4294967295
-17.284403 816.51862 820.99133 4284966532
41.482571 816.51862 820.99133 4294967295
43.21101 816.51862 820.99133 4294967295
-16.080734 820.87091 820.737 4285822093
-12.922018 820.65137 820.55182 4286215319
-10.337615 821.30994 821.10718 4286148246
-7.753211 821.30994 821.10718 4287333288
39.627522 820.65137 820.55182 4294967295
-5.1577983 822.74225 819.69885 4288189365
37.250763 823.18036 820.06818 4294967295
39.543118 824.05664 820.80701 4294967295
34.27523 827.51111 819.79565 4294967295
36.964218 825.37103 821.91528 4294967295
46.227524 748.1051 823.47626 4294901759
-22.591743 751.75104 822.62622 4285427084
45.183487 751.06018 822.0437 4294967295
-25.302752 753.82361 824.37378 4285097091
46.990826 753.82361 824.37378 4294967295
48.798164 753.82361 824.37378 4294967295
-27.92844 758.83234 824.67297 4284966532
-25.225689 757.45483 823.51147 4285162632
-23.423853 756.07733 822.34998 4285360264
45.045872 756.07733 822.34998 4294967295
-25.148624 761.07764 822.64197 4285098120
-23.352293 761.07764 822.64197 4285098120
-30.537615 763.82422 824.95789 4284900993
-28.741285 763.82422 824.95789 4284375680
-26.046789 763.13757 824.37891 4284967559
-25.07156 767.43018 824.07422 4285098120
-23.280733 766.06104 822.9198 4285164679
-23.233028 768.91858 822.71313 4285558671
44.678898 768.91858 822.71313 4294967295
46.466057 769.60175 823.28918 4294967295
48.253212 769.60175 823.28918 4294967295
-23.161469 773.87537 822.96851 4285622933
46.322937 773.87537 822.96851 4294967295
48.104588 773.87537 822.96851 4294967295
-23.161469 775.23749 824.11707 4285228425
48.104588 775.23749 824.11707 4294967295
-22.201836 778.13647 822.63721 4285032327
46.179817 778.13647 822.63721 4294967295
-22.179817 780.9104 823.66815 4285164428
44.311928 781.64758 822.98169 4294967295
47.020184 780.9104 823.66815 4294967295
-22.122936 784.10638 823.09283 4284966794
43.290825 785.21008 822.0614 4294967295
46.970642 783.00269 824.12427 4294967295
-22.970642 786.56091 823.20044 4285032581
44.174313 787.23633 823.76996 4294967295
46.530273 787.46149 823.95978 4294967295
-28.183487 791.4574 823.40491 4284308861
-25.541285 790.78406 822.83716 4284703361
-22.311926 790.55957 822.64795 4284966788
44.036697 791.4574 823.40491 4290234326
-24.583487 794.99463 822.46338 4284637572
-21.949541 794.99463 822.46338 4285031816
44.036697 792.80408 824.54041 4289246441
-28.912844 797.79462 822.20813 4284702335
-25.408257 797.79462 822.20813 4284768641
-21.903669 797.79462 822.20813 4285229193
43.899082 796.33704 823.59521 4282071118
45.655045 797.6795 824.72717 4279708211
-28.912844 799.13428 823.33765 4284702335
-25.408257 799.80408 823.90247 4284833153
-22.779816 799.80408 823.90247 4285162376
45.559631 800.47394 824.46729 4283781479
-22.708258 803.98724 823.50549 4284899717
-20.961468 803.31958 822.9425 4285228167
43.669724 802.65186 822.37952 4284109147
45.416515 803.98724 823.50549 4283584883
-22.708258 805.32269 824.63159 4285097089
-20.06789 805.37952 823.37146 4285623952
43.57798 806.10272 822.67316 4280495949
45.416515 805.32269 824.63159 4280948539
-20.917431 808.10168 824.35864 4284769412
45.321102 808.10168 824.35864 4278198566
-19.982569 811.5954 823.38037 4285032581
43.440369 810.26697 822.26025 4279380166
45.177982 812.92383 824.50049 4294967295
-19.053211 815.08069 822.39502 4285098372
-19.899082 817.78455 823.36676 4285360264
-17.284403 817.84003 822.10547 4285427335
41.482571 817.84003 822.10547 4294967295
43.21101 817.84003 822.10547 4294967295
45.612232 817.28778 824.25586 4294967295
48.499084 817.72913 824.62805 4294967295
-19.588991 820.04242 823.96246 4285360012
41.482571 819.16144 823.21973 4294967295
43.787155 820.04242 823.96246 4294967295
-16.080734 823.06622 822.58795 4285164688
-12.922018 822.62714 822.21777 4284572808
-10.337615 822.62714 822.21777 4284967558
40.77615 823.50531 822.95819 4294967295
-15.506422 825.26154 824.43909 4286148496
37.250763 827.12354 823.39301 4294967295
39.627522 825.26154 824.43909 4294967295
47.133945 750.18402 825.22913 4294967295
-28.013762 755.20538 825.53882 4284835200
-30.631193 760.20984 825.83447 4284703615
-28.829357 760.20984 825.83447 4284507267
-30.537615 765.88416 826.69482 4284703618
-28.741285 765.88416 826.69482 4284900741
-26.944954 765.19751 826.11584 4284966536
-26.265442 769.25562 825.61346 4284966533
-25.634253 772.06866 826.24127 4285031304
50.040367 773.01746 826.16931 4294967295
-25.020184 774.38379 827.32129 4284900743
49.072479 775.4917 826.2934 4294967295
51.827522 774.38379 827.32129 4294967295
49.886238 777.96167 826.41394 4294967295
52.261776 778.41571 826.79681 4294967295
-24.866055 781.53113 825.49951 4284703619
49.732109 782.21008 826.07196 4294967295
-24.814678 784.35773 825.26685 4284900739
47.85688 784.35773 825.26685 4294967295
49.629356 785.71283 826.40942 4294967295
51.508255 784.24689 827.78943 4294967295
49.629356 787.06787 827.552 4294967295
47.001465 790.34338 826.38965 4292205549
45.798164 794.1507 825.6759 4279448185
47.559631 795.49738 826.8114 4282208346
49.321102 796.84399 827.94678 4280237425
-31.60734 799.69318 826.42505 4284833405
-28.973396 799.69312 826.42505 4284898942
47.411011 799.69318 826.42505 4283189862
-25.116209 802.26007 825.97333 4284833663
47.311928 803.1532 826.72632 4284040553
-24.53211 804.49286 827.85596 4284834171
-22.708258 806.65814 825.75757 4285031294
47.163303 806.65814 825.75757 4279189059
-24.455046 807.99359 826.88354 4284572026
-22.660551 809.43433 825.4823 4284703869
46.242203 808.71399 826.18292 4286226638
-22.660551 811.43323 827.16779 4284899967
47.06422 810.76697 826.60596 4287797671
-22.588991 815.58069 826.74072 4285031294
-20.851376 814.25226 825.62061 4285097091
46.915596 814.25226 825.62061 4294967295
-24.326605 816.90906 827.86072 4284768378
-22.517431 820.37762 826.86115 4284965502
-20.194494 821.29449 826.76239 4285424264
-17.284403 821.80426 825.448 4285426324
-12.976147 821.09094 826.1546 4286480023
44.07523 821.80426 825.448 4294967295
46.766972 819.71545 826.30292 4294967295
48.499084 820.37762 826.86115 4294967295
-19.012844 823.12567 826.56226 4285489798
-17.284403 823.12567 826.56226 4285358980
41.482571 823.78638 827.11932 4294901759
44.3633 823.56616 826.93359 4294967295
46.667889 823.78638 827.11932 4294967295
39.627522 826.57874 825.54968 4294967295
-30.537615 767.94415 828.43164 4284900741
-28.741285 767.94415 828.43164 4284966532
-30.537615 769.31744 829.5896 4284966532
-28.741285 770.00415 830.16858 4284900738
-26.862385 772.90656 828.69177 4284769664
-25.941284 775.01282 829.15973 4284769409
-26.807339 777.11639 829.62537 4284638075
53.614677 778.48267 830.77734 4294967295
-28.506422 781.36688 829.28516 4284506238
-26.724771 780.68585 828.71094 4284703615
52.558716 781.36688 829.28516 4294967295
51.508255 785.60474 828.93433 4294967295
49.629356 788.42297 828.69458 4294967295
51.508255 786.96265 830.07922 4294967295
49.629356 789.77802 829.83716 4289573330
51.401836 791.13312 830.97974 4292606207
49.475231 793.31525 828.89551 4283987659
-29.944954 799.53735 830.21777 4285095290
49.321102 798.86401 829.65002 4282664547
-33.363304 803.04932 829.25488 4284899194
-31.60734 802.37805 828.6889 4285029497
-28.680735 802.60181 828.87762 4284833147
-26.339449 802.37805 828.6889 4284833404
-33.363304 804.39172 830.38672 4284768378
-31.60734 804.39172 830.38672 4284833401
-28.942202 805.11206 829.6861 4284702073
-26.284403 805.83246 828.98547 4284702331
-34.169724 807.17212 830.11499 4284702585
-25.369724 808.25055 829.06226 4284768123
-25.328442 811.33215 829.69855 4284834427
-25.27523 814.09851 829.41504 4284703098
-25.195412 818.23749 828.98083 4284768379
-25.195412 819.56592 830.10095 4284965503
-22.517431 823.026 829.09424 4285096578
-30.631193 769.1637 833.38409 4284900739
-28.829357 769.85248 833.96484 4284769662
-30.537615 773.43738 833.06348 4284571778
-28.741285 773.43738 833.06348 4284506233
55.686237 773.43738 833.06348 4294967295
53.72477 775.64478 831.00061 4294967295
55.458717 778.4314 832.04218 4294967295
57.306423 778.38293 833.30933 4294967295
55.401836 781.21527 833.08142 4294967295
57.188992 781.21527 833.08142 4294967295
53.449543 784.09106 831.58215 4294967295
52.478897 787.22729 832.26447 4294967295
53.284405 790.3573 832.94159 4291810031
51.401836 792.48816 832.12219 4282540180
51.242203 796.69238 831.74304 4282335839
-31.60734 805.73419 831.51868 4284636538
-28.973394 805.73419 831.51868 4284636793
-33.293579 809.18164 831.80933 4284571514
-31.574312 808.46405 832.51239 4284571249
-28.927523 808.82288 832.16089 4284834422
-26.284403 808.51178 831.24451 4284834169
-29.11315 813.78046 831.76288 4284637306
-28.587154 817.69666 832.44885 4284833916
-25.195412 820.89435 831.22107 4284964991
-27.801834 823.55121 833.46118 4284832897
-25.485016 822.66559 832.71442 4285293701
56.027523 767.64093 836.02417 4294967295
58.738533 767.64093 836.02417 4294967295
61.449543 767.64093 836.02417 4294967295
63.256882 767.64093 836.02417 4294967295
58.85994 771.68915 835.51349 4294967295
-30.537615 774.81067 834.22144 4284571524
57.482571 774.81067 834.22144 4294967295
55.401836 782.58154 834.2334 4294967295
55.401836 784.63098 835.96149 4294967295
-29.051987 820.53955 834.84601 4284570233
-28.761467 822.76062 836.71863 4285623175
-26.06422 824.87964 834.5813 4285360518
-28.761467 824.09326 837.84229 4285294468
-26.14679 824.09326 837.84229 4284373618
61.222019 758.13458 842.39709 4294967295
77.988991 804.68384 842.40527 4294967295
52.125687 809.52563 842.56372 4294836223
52.844036 813.00391 841.57239 4294967295
-35.045872 821.9082 842.54004 4284113526
-33.188992 824.0188 840.39563 4282797666
-31.442202 824.0188 840.39563 4282533478
-29.695414 824.0188 840.39563 4282204514
-33.771255 825.79938 841.89697 4282861403
-31.442202 826.02197 842.08459 4282664538
-28.822018 826.02197 842.08459 4282729558
91.100914 765.92218 845.03931 4294967295
88.91835 788.54382 845.80078 4294967295
91.612846 788.54382 845.80078 4294967295
94.307343 788.54382 845.80078 4294967295
85.871559 793.47607 844.72748 4294967295
87.750458 792.07397 844.85327 4294967295
83.99633 796.24451 845.75366 4294967295
85.783485 796.24451 845.75366 4294967295
81.955963 799.75507 844.78967 4294967295
76.374313 803.2572 843.81836 4294967295
79.926605 803.2572 843.81836 4294967295
81.955963 801.11713 845.93811 4294967295
70.899086 806.03894 843.54785 4294901759
72.671562 806.03894 843.54785 4294967295
77.181656 805.32703 844.25562 4294967295
79.926605 804.61505 844.96338 4294967295
51.401836 808.74908 845.83301 4294967295
65.58165 808.07153 845.26172 4294967295
69.126602 807.39398 844.69043 4294967295
53.009174 812.22736 844.84167 4294836223
54.776146 810.87646 843.70276 4283980391
53.009174 813.57825 845.98071 4292011775
-35.045872 824.58746 844.79919 4282926426
-31.442202 828.02509 843.77356 4283255135
-29.695414 829.36053 844.89966 4283320928
59.009174 748.6676 846.18701 4294967295
55.321102 751.48718 848.56445 4294967295
58.087154 750.78235 847.97009 4294967295
90.088074 756.51416 848.87891 4294967295
89.818352 760.12286 847.99756 4294967295
89.548622 763.72321 847.10925 4294967295
89.099083 772.94873 848.34778 4294967295
91.523552 772.48535 847.95703 4294967295
91.54863 777.90271 848.60083 4294967295
94.267891 777.90271 848.60083 4294967295
96.080734 777.90271 848.60083 4294967295
91.270645 781.45819 847.67456 4294967295
95.186546 781.91876 848.06293 4294967295
88.289909 785.00519 846.74121 4294967295
90.992661 785.00519 846.74121 4294967295
93.695412 785.00519 846.74121 4294967295
89.816513 789.91711 846.95874 4294967295
91.612846 789.91711 846.95874 4294967295
93.409172 789.91711 846.95874 4294967295
88.645874 794.12769 846.5849 4294967295
91.332108 794.12769 846.5849 4294967295
93.122932 793.44312 846.00769 4294967295
83.99633 797.61084 846.90576 4294967295
85.783485 797.61084 846.90576 4294967295
88.645874 796.18127 848.31641 4294967295
91.332108 796.18127 848.31641 4294967295
83.99633 798.97711 848.05774 4294967295
85.783485 798.97711 848.05774 4294967295
88.464218 798.97711 848.05774 4294967295
60.576145 803.16028 847.66083 4293325311
74.829361 803.16028 847.66083 4294967295
76.611008 803.84131 848.23511 4294967295
80.174309 803.84131 848.23511 4294967295
81.955963 802.47925 847.08655 4294967295
56.836697 805.97296 846.10828 4278202729
58.612843 805.97296 846.10828 4287613183
62.165138 805.97296 846.10828 4294967295
63.941284 805.97296 846.10828 4294967295
67.493576 805.97296 846.10828 4294967295
71.045868 805.97296 846.10828 4294967295
72.822021 805.97296 846.10828 4294967295
78.150459 805.97296 846.10828 4294967295
51.508255 808.68872 848.39807 4294967295
56.244648 808.23608 848.01642 4279842866
58.612843 808.00977 847.82562 4290898896
62.165138 808.00977 847.82562 4294967295
64.533333 808.23608 848.01642 4294967295
67.493576 808.00977 847.82562 4294967295
70.157791 808.00977 847.82562 4294967295
72.822021 808.00977 847.82562 4294967295
53.009174 814.92908 847.11975 4287410687
53.009174 816.27997 848.25879 4282806995
54.605503 820.41052 847.8175 4292075260
-34.241287 824.52844 847.3656 4283059041
-34.241287 825.87091 848.49744 4283452770
-31.60734 825.87091 848.49744 4283320928
67.508255 748.56445 850.02411 4294967295
70.28257 748.56445 850.02411 4294967295
73.056885 748.56445 850.02405 4294967295
76.447708 748.3288 849.82538 4294967295
79.530273 749.27142 850.62024 4294967295
81.99633 748.80011 850.22284 4294967295
86.00367 749.27142 850.62024 4294967295
88.777985 749.27142 850.62024 4294967295
90.627525 749.27142 850.62024 4294967295
67.508255 750.68542 851.8125 4294967295
70.28257 750.68542 851.8125 4294967295
73.981651 750.68542 851.8125 4294967295
75.831192 750.68542 851.8125 4294967295
82.304581 750.68542 851.8125 4294967295
86.00367 750.68542 851.8125 4294967295
88.513763 752.89697 849.75317 4294967295
90.357796 752.89697 849.75317 4294967295
86.669724 754.30676 850.94177 4294967295
88.513763 754.30676 850.94177 4294967295
86.411011 757.91974 850.06396 4294967295
88.249542 757.91974 850.06396 4294967295
86.15229 761.52423 849.1792 4294967295
87.985321 761.52423 849.1792 4294967295
86.15229 763.62628 850.9516 4294967295
88.90184 762.9256 850.36084 4294967295
91.826607 774.33887 849.5199 4294967295
83.99633 800.34338 849.20984 4294967295
85.783485 800.34338 849.20984 4294967295
88.464218 800.34338 849.20984 4294901759
83.102753 802.39282 850.93781 4294967295
85.783485 802.39282 850.93781 4294967295
87.570641 801.70972 850.36182 4294967295
60.576145 805.88446 849.95776 4294638847
74.829361 805.88446 849.95776 4294967295
76.611008 805.88446 849.95776 4294967295
79.283485 805.88446 849.95776 4294967295
60.576145 807.92761 851.68054 4294967295
74.829361 807.92761 851.68054 4294967295
76.611008 807.92761 851.68054 4294967295
78.392662 807.92761 851.68054 4294967295
49.732109 811.40448 850.68799 4294967295
51.508255 811.40448 850.68799 4292404202
56.103485 811.41486 850.17352 4285565097
58.612843 811.40448 850.68799 4293787627
62.165138 810.04657 849.54309 4294967295
65.273392 811.065 850.40173 4294967295
67.493576 811.40448 850.68799 4294836223
70.157791 811.40436 850.68799 4294967295
72.746796 811.43042 849.40192 4294967295
51.401836 815.52441 851.54578 4286547117
54.946789 814.16937 850.4032 4284714992
58.491745 815.52441 851.54578 4294639615
72.671562 814.16937 850.4032 4294967295
53.009174 818.30627 849.96729 4289970675
56.543118 818.30627 849.96729 4292667135
53.009174 820.33252 851.67578 4294967295
54.605503 822.43048 849.52063 4293190897
-34.348625 825.12384 851.79163 4283388506
54.605503 825.12384 851.79163 4293323519
54.434864 828.55579 850.76135 4294573567
72.346786 748.47382 853.87183 4294967295
79.766975 748.47382 853.87183 4294967295
67.508255 752.09937 853.00464 4294967295
73.981651 752.09937 853.00464 4294967295
75.831192 752.09937 853.00464 4294967295
82.304581 752.09937 853.00464 4294967295
85.078896 752.09937 853.00464 4294967295
82.304581 753.51337 854.1969 4294967295
85.078896 753.51337 854.1969 4294967295
84.825691 757.83124 853.91357 4294967295
87.750458 801.65771 852.93396 4294967295
80.42202 805.80859 853.81787 4294967295
83.102753 805.12543 853.24188 4294967295
85.783485 804.44226 852.66589 4294967295
61.466972 809.28967 852.82898 4294967295
64.13945 809.28967 852.82898 4294967295
74.829361 809.28967 852.82898 4294967295
76.611008 809.28967 852.82898 4294967295
79.407341 808.2323 853.89941 4294967295
83.102753 807.17487 854.96985 4294967295
49.886238 810.65173 853.97742 4293787647
61.466972 810.65173 853.97742 4294967295
64.13945 810.65173 853.97742 4294967295
74.829361 810.65173 853.97742 4294967295
76.611008 810.65173 853.97742 4294967295
78.392662 810.65173 853.97742 4294967295
47.955963 814.12024 852.97778 4294836223
49.732109 814.79919 853.55029 4290097919
67.493576 814.12024 852.97778 4294967295
71.045868 814.12024 852.97778 4294967295
51.401836 817.55707 853.25964 4293715967
52.205505 820.63654 853.89417 4293517823
53.009174 823.0343 853.95386 4291810035
-35.229359 826.47046 852.92712 4283716971
70.491745 749.89203 855.06763 4294967295
72.346786 749.89203 855.06763 4294967295
77.911926 749.89203 855.06763 4294967295
79.766975 749.89203 855.06763 4294967295
77.911926 751.31018 856.26331 4294967295
79.766975 751.31018 856.26331 4294967295
82.304581 754.92737 855.38916 4294967295
85.959633 805.08044 855.82001 4294967295
80.42202 808.5412 856.12195 4294967295
83.102753 808.5412 856.12195 4294967295
78.392662 812.01385 855.12598 4294967295
49.732109 816.836 855.2677 4291347711
51.508255 819.55176 857.5575 4292859645
-31.904587 822.2998 857.25867 4283649893
53.009174 824.38513 855.0929 4292007669
48.253212 811.27374 858.42603 4288064215
-31.178898 817.46222 859.71985 4283320930
-28.506422 818.14325 860.29407 4283452517
49.886242 817.46216 859.71979 4293255162
-30.194496 820.90961 858.70251 4283715686
51.508255 820.90961 858.70251 4291875578
52.341286 822.96118 859.12433 4292599545
53.174313 825.00995 859.5437 4294967295
48.64954 802.9129 861.84058 4294967295
48.352295 811.9259 861.59198 4290360033
48.352295 813.97961 863.32349 4292858879
-26.807339 816.73895 863.03406 4283715436
48.253212 816.73895 863.03406 4291807739
-31.1789 820.86743 862.59094 4283848306
49.886238 820.1864 862.01672 4291020774
51.667889 821.54846 863.16528 4293717759
47.133945 798.69177 866.12964 4294967295
46.847706 805.66797 864.16357 4289643248
45.946789 807.73425 865.9057 4288389337
-26.046789 811.89008 865.48572 4283386977
46.704586 811.20337 864.90674 4290094556
-25.07156 815.34869 864.47791 4283715688
46.704586 813.26337 866.64368 4290491879
-28.594496 818.10522 864.18616 4283585135
-25.650152 817.63666 865.5351 4283847791
46.561466 818.08691 866.78674 4289571792
48.352295 817.40234 866.20953 4291282671
-28.594496 820.15466 865.91412 4284045687
-26.211618 820.38239 866.10614 4284111222
50.040367 820.15466 865.91412 4293849085
51.827522 820.83783 866.49011 4294967295
-31.47584 823.36456 864.69653 4284374653
40.326607 785.34747 869.26636 4294967295
42.159634 785.34747 869.26636 4294967295
42.033028 790.26917 869.49207 4294967295
41.906422 793.78113 868.52917 4294967295
43.728439 793.08466 867.94196 4294901759
45.550457 792.38818 867.35474 4294836223
41.906422 795.17407 869.70374 4294967295
43.640366 796.58118 868.27405 4294770687
46.186054 796.58118 868.27411 4294901759
45.321102 801.46362 868.4668 4291419899
-28.013762 806.32922 868.64514 4283321430
-25.302752 806.32922 868.64514 4283320928
-23.495413 806.32922 868.64514 4283320928
45.183487 804.94751 867.4801 4289114605
-23.423853 809.80054 867.64795 4283452770
43.376148 807.71094 869.81018 4287926731
45.045872 809.80054 867.64795 4289177055
-23.423853 811.17804 868.80945 4283715688
45.045872 811.86682 869.3902 4290359770
-23.352293 814.63666 867.80164 4283651178
46.704586 814.63666 867.80164 4290229988
-23.352293 816.01001 868.95959 4284110194
44.908257 816.01001 868.95959 4289898182
-23.280733 820.14056 868.51825 4284045942
46.561466 819.45599 867.94104 4289442550
48.352295 820.14056 868.51825 4293981183
-30.977371 823.11499 868.41016 4284637830
-28.594496 822.2041 867.64221 4284637821
-26.211618 822.65948 868.02618 4284572029
50.040367 822.2041 867.64221 4294967295
-19.362385 779.68286 872.33826 4285227138
-16.596331 779.68286 872.33826 4286345105
-22.062386 781.81445 870.21143 4285096324
-25.73945 784.62561 872.58179 4285557642
-22.981651 783.92285 871.9892 4286478482
-20.223854 783.92285 871.9892 4286807953
40.326607 787.44952 871.0387 4294705151
43.076149 786.74884 870.44788 4294901759
45.825687 786.74884 870.44788 4294901759
40.205505 791.66632 870.67017 4294836223
40.205505 793.06348 871.84814 4294770687
41.906422 797.26349 871.46545 4294508543
43.728439 796.56702 870.87817 4294967295
-27.275229 800.75159 871.79041 4283255378
-25.456881 800.75159 871.79041 4283255387
-21.820183 800.75159 871.79041 4283059039
41.822018 800.75159 871.79041 4291548159
43.640366 800.05652 871.20435 4291747327
-20.001835 802.14172 872.96265 4283125084
41.822018 802.14172 872.96265 4287204305
-21.754128 804.92847 871.38824 4283190623
-19.941284 805.6214 871.97253 4283322468
41.695412 805.6214 871.97253 4287664313
43.508255 804.23547 870.80396 4287270616
43.376148 809.09271 870.97522 4289438925
-21.688074 810.47443 872.14026 4283781479
43.376148 810.47443 872.14026 4289701582
-21.622019 814.62183 871.7132 4283847537
43.244038 815.31061 872.29395 4288586934
44.908257 818.06995 870.69647 4292008161
46.704586 818.75659 871.27539 4294967295
-23.352293 820.12994 872.43335 4284572028
44.908257 820.12994 872.43335 4294967295
46.704586 820.12994 872.43335 4294967295
-30.444036 824.93243 872.55859 4284311954
-28.653212 822.87878 870.82709 4284835201
-25.07156 822.19421 870.24988 4284637821
48.352295 822.19421 870.24988 4294967295
-14.840367 774.0014 875.396 4286740887
-14.79633 778.25818 875.0611 4287923625
36.990826 778.96521 875.65723 4294377471
-18.440367 781.79749 874.12134 4287135899
-16.596331 781.79749 874.12134 4288254636
38.72477 781.79749 874.12134 4294836223
-25.816513 783.91217 875.9043 4284902022
-18.440367 783.91217 875.9043 4283520374
-16.596331 783.91217 875.9043 4283454580
38.72477 783.91217 875.9043 4294705151
-22.981651 786.73401 874.35944 4283453811
-19.61101 786.96826 874.55695 4282730857
38.609173 787.43677 874.95203 4294836223
-21.99633 790.95288 873.99268 4282533476
-20.163303 790.95288 873.99268 4282533476
38.49358 790.95288 873.99268 4294967295
-22.912844 792.35425 875.17432 4282861150
-19.246788 792.35425 875.17432 4282730338
38.49358 792.35425 875.17432 4294967295
40.205505 794.46063 873.02625 4294967295
-21.930275 795.85779 874.20435 4282861663
-19.188992 796.5564 874.79333 4282993248
-16.447706 797.25494 875.38232 4283059041
38.377983 796.5564 874.79333 4293388543
40.205505 795.85779 874.20435 4294377471
-23.686239 799.35291 873.22717 4283255387
-19.131193 800.04938 873.81445 4282994016
40.084404 800.04938 873.81445 4288718300
-18.183487 803.53186 874.13477 4283256670
-16.398165 802.13879 875.57617 4283256670
-14.576147 802.13879 875.57617 4283190625
38.262386 802.13879 875.57617 4286017928
40.00367 803.53186 874.13477 4286085281
-19.092661 804.922 875.30688 4283454054
40.00367 804.922 875.30688 4287400114
-21.754128 807.00739 873.14111 4283519590
-19.941284 809.0863 874.89398 4283715689
41.091129 808.39331 874.30975 4288254909
41.568806 811.85614 873.3053 4288188344
43.376148 811.85614 873.3053 4289240251
-19.880733 813.92871 875.05286 4284111480
40.966358 814.159 875.24707 4291087588
-21.622019 817.37683 874.03619 4284243066
41.442204 818.06561 874.61694 4294967295
43.244038 817.37683 874.03619 4294441983
-26.046789 821.50323 873.59131 4284834688
-22.487156 820.47314 874.68488 4284703616
43.244038 819.44312 875.77844 4294967295
45.875229 820.47314 874.68488 4294967295
48.500916 821.50323 873.59131 4294967295
-28.741285 824.24982 875.90723 4284703617
-25.7474 823.33429 875.13525 4285163909
-11.19633 768.30304 878.43945 4287071385
34.522018 768.30304 878.43945 4294967295
-13.023853 771.86554 877.51917 4287333024
-11.163302 772.57678 878.11884 4287267489
35.35046 772.57678 878.11884 4294967295
37.21101 772.57678 878.11884 4294967295
39.07156 773.28796 878.71851 4294967295
-12.985321 776.12866 877.1897 4288186797
35.245872 776.83777 877.7876 4294639615
-11.130275 778.25598 878.98328 4288714941
35.245872 778.25598 878.98328 4294770687
-14.179816 780.85052 877.24689 4286938793
36.990826 781.08618 877.44562 4294443007
-25.816513 785.32196 877.09302 4283189875
-16.596331 785.32196 877.09302 4281941855
-14.752294 785.32196 877.09302 4281744476
36.880733 785.32196 877.09302 4294639615
-25.73945 788.84235 876.13721 4282794075
-23.900917 788.84235 876.13721 4282859868
-18.385321 788.84235 876.13721 4282861411
-16.546789 788.84235 876.13721 4282927460
-14.752294 786.73175 878.28174 4282861917
35.036697 786.73175 878.28174 4294967295
36.770641 788.84235 876.13721 4294967295
-25.73945 790.24792 877.32227 4282794584
-16.546789 790.24792 877.32227 4282665315
-14.708257 790.95068 877.91486 4282861914
36.770641 790.95068 877.91486 4294243583
-27.495413 793.75562 876.35583 4283255124
-25.662386 793.75562 876.35583 4283254622
-23.829357 793.75562 876.35583 4283254622
-18.330275 793.75562 876.35583 4282731360
-16.497248 793.75562 876.35583 4282665567
-14.66422 795.15698 877.53748 4282928736
34.827522 796.55835 878.71912 4285556875
36.660549 795.85767 878.1283 4288189392
-16.447706 798.6521 876.56042 4282797407
-14.620184 798.6521 876.56042 4283124832
37.464218 799.35071 877.14941 4285359763
-16.398165 803.5318 876.75073 4283519590
-13.684404 802.48914 877.83362 4283519590
32.895412 801.44641 878.9165 4286542475
34.722935 801.44641 878.9165 4286937233
37.351379 803.5318 876.75073 4287136147
-18.183487 806.31213 876.479 4283519590
-16.398165 804.92474 877.92517 4283519590
-13.665138 804.92474 877.92517 4283781481
37.312843 805.61841 877.20209 4287136409
40.00367 806.31213 876.479 4287663030
-18.183487 807.70233 877.65112 4283715436
-16.365137 808.3974 878.23718 4283650158
-14.546789 809.09247 878.82324 4283584883
37.276146 808.3974 878.23718 4284837249
-18.128441 811.85815 877.23114 4283914616
37.465443 812.08911 877.42596 4290036690
39.882568 811.16516 876.64685 4285759648
-18.128441 813.93701 878.98401 4284310139
-16.315596 813.93701 878.98401 4284310139
36.256882 813.93701 878.98401 4294967295
-19.880733 816.6922 877.38293 4284638081
37.954128 816.6922 877.38293 4294967295
40.363914 816.92255 877.57715 4294967295
-22.522936 820.82068 876.93982 4285032580
-19.820183 820.82068 876.93982 4284966532
43.244038 820.82068 876.93982 4294967295
45.045872 820.82068 876.93982 4294967295
-22.522936 822.19818 878.10132 4285295236
-19.820183 822.19818 878.10132 4285032581
40.541283 822.19818 878.10132 4294967295
43.244038 822.19818 878.10132 4294967295
-1.8770642 761.15289 880.25879 4290559441
-9.3577986 764.73218 879.35266 4285822611
-7.5082569 762.58789 881.46875 4284970911
-4.6926603 762.58789 881.46875 4285365415
-1.8770642 762.58789 881.46875 4286351799
30.92477 763.66003 880.41071 4294967295
33.688072 764.73218 879.35266 4294967295
-9.3577986 766.16296 880.55908 4287926438
-7.4862385 767.59381 881.7655 4288714941
-5.6146789 766.87842 881.16229 4288452541
29.944954 767.59381 881.7655 4294967295
31.816513 766.87842 881.16229 4294967295
-9.3302755 769.72961 879.64233 4288452271
33.588989 769.72961 879.64233 4294967295
-9.3302755 771.15625 880.84521 4288582585
33.588989 771.15625 880.84521 4294967295
-10.233027 775.42151 880.51752 4289043645
31.629358 776.13275 881.11719 4294967295
33.48991 775.42151 880.51752 4294705151
-12.985321 779.67419 880.17908 4283256700
34.318352 779.67419 880.17908 4294705151
-11.130275 781.09235 881.37488 4281742429
31.53578 781.09235 881.37488 4294967295
33.390827 781.09235 881.37488 4294836223
-27.74312 784.62115 880.42627 4282466657
-12.946789 783.91418 879.83014 4282072664
-11.097248 784.62115 880.42627 4282598238
34.216515 783.91418 879.83014 4294770687
-27.660551 788.14154 879.47046 4282794838
-12.908257 788.14154 879.47046 4282861913
-11.097248 786.03516 881.61841 4282861411
31.442202 786.03516 881.61841 4294967295
34.114677 788.14154 879.47046 4294967295
-12.908257 789.55133 880.65906 4283059039
-10.142202 790.96106 881.84778 4283189342
31.348623 790.96106 881.84778 4287075521
33.807339 790.02124 881.05536 4291083740
-12.869725 793.76184 880.28516 4282994016
-9.1926603 794.4646 880.87769 4283321180
34.012844 793.76184 880.28516 4288518574
-12.831193 797.95972 879.90063 4283190625
32.994495 797.95972 879.90063 4285819279
34.827522 797.95972 879.90063 4285358728
-10.081652 799.36108 881.08228 4283585383
31.161469 799.36108 881.08228 4287070370
-10.965137 802.84363 880.09448 4283913321
31.981651 802.84363 880.09448 4286610072
34.722935 802.84363 880.09448 4286873237
-13.665138 806.31769 879.09973 4283847022
-10.965137 804.24072 881.27258 4283913071
29.240368 804.24072 881.27258 4286938541
31.93211 805.27917 880.18616 4284832387
34.618347 806.31769 879.09973 4285555332
36.440369 806.31769 879.09973 4285162621
-12.754128 808.4071 880.86145 4283979639
-10.93211 808.4071 880.86145 4283979894
29.152294 809.10358 881.44873 4294967295
31.885319 808.4071 880.86145 4289640139
34.618347 807.71063 880.27417 4283459207
-16.365137 810.4826 879.99536 4284112763
-13.940673 811.40936 880.77679 4284440188
32.730274 811.87274 881.16748 4294967295
34.548622 811.17767 880.58142 4294376191
-18.128441 815.32294 880.15259 4284901509
-16.315596 815.32294 880.15259 4284769923
-14.502752 815.32294 880.15259 4284441471
34.444038 815.32294 880.15259 4294967295
36.256882 815.32294 880.15259 4294967295
-18.073395 818.76477 879.13049 4284966534
-16.315596 816.70892 881.32117 4285032327
-14.502752 816.70892 881.32117 4284901511
34.444038 816.70892 881.32117 4294967295
37.105507 817.73682 880.22583 4294967295
40.665138 818.76477 879.13049 4294967295
-18.073395 820.8374 880.87805 4285164173
-16.266054 821.52826 881.46057 4285164177
-13.555046 821.52826 881.46057 4285558924
34.339451 821.52826 881.46057 4294967295
37.050461 820.8374 880.87805 4294967295
-25.225689 823.57568 879.26282 4285557892
-22.522936 824.2644 879.84351 4285558668
-19.820183 824.2644 879.84357 4285558928
37.838531 824.95319 880.42432 4294967295
40.541283 824.2644 879.84351 4294967295
43.244038 824.2644 879.84357 4294967295
-21.622019 826.33075 881.58582 4286019990
40.541283 826.33075 881.58582 4294967295
0.94403672 756.85596 884.48401 4289442539
19.82477 756.85596 884.48401 4291613183
25.488991 756.85596 884.48401 4294967295
28.3211 756.85596 884.48401 4294967295
-3.7651377 759.00439 882.37134 4289243581
0 761.88287 884.79846 4287072174
20.708258 761.16327 884.19171 4292270847
22.590826 760.4436 883.58496 4293587711
25.728439 760.9234 883.98944 4294967295
28.238533 760.44366 883.58496 4294967295
-7.5082569 764.02295 882.67883 4287729590
-3.7541285 764.02295 882.67883 4287399864
-1.8770642 764.02295 882.67883 4287399864
24.401834 764.02295 882.67883 4294967295
28.155964 764.02295 882.67883 4294967295
30.033028 764.02295 882.67883 4294967295
-3.7541285 765.45795 883.88879 4289634507
-1.8770642 765.45795 883.88879 4290818782
25.340366 765.45795 883.88879 4294901759
28.155964 765.45795 883.88879 4294967295
-7.4862385 769.02466 882.97205 4288847029
-4.3669724 769.50165 883.37421 4289767628
-1.8715596 769.74005 883.57526 4290688736
25.266056 770.45544 884.17847 4294967295
29.009174 769.74005 883.57532 4294967295
31.816513 769.02466 882.97205 4294967295
-9.3302755 772.58289 882.0481 4289438398
-7.46422 772.58289 882.0481 4289110978
-5.598165 772.58289 882.0481 4289703371
31.722937 772.58289 882.0481 4294836223
-7.46422 774.72278 883.85242 4286677149
-4.6651373 774.72278 883.85242 4287597997
-1.866055 774.72278 883.85242 4288649919
25.191742 775.4361 884.45386 4294967295
29.234863 774.96051 884.05292 4294901759
-9.9229355 778.0293 882.71631 4283255668
-7.4422016 778.9776 883.51587 4282269023
-5.5816512 778.9776 883.51587 4283190125
29.768806 778.9776 883.51587 4294967295
31.629358 777.55518 882.31653 4294836223
-29.768806 780.39996 884.71521 4282203228
-9.2752295 782.51056 882.57068 4282664031
-7.4422016 780.39996 884.71521 4282860377
-4.6513758 780.39996 884.71521 4282531150
-1.8605504 780.39996 884.71521 4282333251
28.794495 781.45526 883.64294 4292665851
31.53578 782.51056 882.57068 4294967295
-9.2752295 783.92877 883.76648 4282927460
-7.4201837 784.63788 884.36438 4283255137
-4.6376147 785.34698 884.96228 4283123294
25.970642 785.34698 884.96228 4289446132
28.444036 784.40155 884.16504 4288129243
-10.172478 787.44916 882.81067 4282993248
-7.3981652 788.8631 884.00293 4283320928
-4.6238532 788.8631 884.00293 4283255136
25.893578 788.8631 884.00293 4291283962
28.976149 788.39178 883.60547 4284440729
31.442202 787.44916 882.81067 4288845284
-11.06422 792.37085 883.0365 4283321180
-7.3761468 793.07574 883.63086 4283255903
-4.6100917 793.78064 884.22522 4283190880
-1.8440367 793.78064 884.22522 4283716969
25.816513 793.78064 884.22522 4292663036
28.889908 793.31073 883.82892 4286742434
31.348623 792.37085 883.0365 4286610582
-10.111927 795.87018 882.06287 4283650145
-7.3541284 797.27576 883.24805 4283783019
-4.5963302 797.27576 883.24805 4283716970
28.497248 797.27576 883.24805 4288058303
31.255045 795.87018 882.06287 4286479785
-9.1651373 800.76245 882.26379 4283913321
-7.3541284 798.68134 884.43323 4283848812
-4.5963302 798.68134 884.43323 4283717227
-1.8385321 798.68134 884.43323 4283848558
25.73945 798.68134 884.43323 4291741432
28.453211 799.72192 883.34851 4288452032
-9.1651373 802.16382 883.44543 4283847022
-7.3321099 803.56519 884.62708 4283782515
-5.4990826 803.56519 884.62708 4283979637
23.829357 803.56519 884.62708 4292463615
25.662386 803.56519 884.62708 4291937778
27.495413 802.16382 883.44543 4287661494
-9.1376143 805.63794 882.45056 4283716468
28.326607 805.63794 882.45056 4287663806
-9.1376143 807.03503 883.62866 4284637821
-7.310092 808.43225 884.80676 4284769662
-5.4825687 808.43225 884.80676 4284769662
23.757797 808.43225 884.80676 4292993023
25.585321 807.73364 884.21771 4294967295
27.412844 807.03503 883.62866 4294967295
-10.021101 811.19299 883.21045 4284900991
-3.6440368 811.88947 883.79773 4284900993
25.508257 811.88947 883.79773 4294901759
28.241283 811.19299 883.21045 4294967295
30.974312 811.19299 883.21045 4294967295
-12.72844 813.95795 882.92572 4284704644
-10.010092 813.96771 884.242 4285033097
-7.2880735 813.28241 884.97217 4285230728
-4.5550461 813.28241 884.97217 4285362313
25.508257 813.28241 884.97217 4294967295
28.241283 813.28241 884.97217 4294967295
32.124157 814.18964 883.12109 4294967295
-16.315596 818.09485 882.48975 4285164170
-13.596331 818.09485 882.48975 4285428109
-10.000917 816.04315 884.68396 4285691279
-3.6366973 816.04315 884.68396 4285297805
31.771559 817.06897 883.58685 4294967295
34.444038 818.09485 882.48975 4294967295
-16.315596 820.8667 884.8269 4285559959
-13.596331 820.8667 884.8269 4285624716
-10.272782 820.40472 884.43732 4285756555
32.026913 820.40472 884.43732 4294967295
-18.073395 822.90997 882.62561 4285888668
34.339451 823.60083 883.20813 4294967295
36.749237 823.83112 883.40234 4294967295
37.050461 825.6734 884.95569 4294967295
39.761467 825.6734 884.95569 4294967295
4.7477064 751.10718 887.48486 4287998189
13.293578 751.10718 887.48486 4293060607
1.8935779 753.25983 885.37585 4289048280
4.7339449 754.70752 886.59656 4288784107
7.5743117 754.70752 886.59656 4289967570
10.414679 754.70752 886.59656 4291349488
13.255046 754.70752 886.59656 4292797183
16.095413 753.98364 885.98621 4292863487
0.94403672 758.29938 885.70105 4286286274
4.7201834 758.29938 885.70105 4288452818
7.5743117 756.15515 887.81714 4291412449
10.398165 757.22729 886.75909 4291611894
13.216514 758.29938 885.70105 4292534783
16.048624 758.29938 885.70105 4292665855
18.880733 758.29938 885.70105 4291349234
1.8880734 759.74286 886.91809 4287204016
4.7201834 759.74286 886.91809 4288189894
7.5522938 759.74286 886.91809 4290494929
10.384403 759.74286 886.91809 4291811060
13.216514 759.74286 886.91809 4292797951
16.048624 759.74286 886.91809 4292731135
18.880733 759.74286 886.91809 4291547133
0.94128442 764.04175 886.61877 4290886626
4.7064219 764.76135 887.22546 4291413996
7.5302753 764.76135 887.22546 4289703673
10.354128 764.76135 887.22546 4288191187
13.177981 764.76135 887.22546 4291810810
16.001835 764.04175 886.61877 4292993535
19.766972 763.32214 886.01196 4292008185
22.590826 763.32214 886.01196 4293653503
19.709175 766.89301 885.09875 4291811068
22.524771 766.89301 885.09875 4293390847
25.340366 766.89301 885.09875 4294967295
1.2513762 768.80634 886.7121 4291019238
4.6926603 769.76306 887.51868 4291610610
7.5082569 769.76306 887.51868 4291874047
10.323853 769.76306 887.51868 4292269053
13.139449 769.76306 887.51868 4292729855
15.642201 768.80634 886.7121 4292533503
19.709175 768.328 886.30872 4292007930
22.524771 768.328 886.30872 4293390847
0.62385321 772.84015 886.18915 4290291917
7.4862385 773.31708 886.59131 4292269567
10.293578 773.31708 886.59131 4292467199
14.036697 773.31708 886.59131 4292599807
16.844036 772.60168 885.9881 4292468223
19.651377 772.60168 885.98804 4292074494
22.458715 772.60168 885.9881 4293258751
25.266056 771.88629 885.38489 4294967295
28.073395 771.88629 885.38489 4294967295
-3.73211 776.86273 885.65674 4284044637
-1.866055 776.86273 885.65674 4285360497
0.93577981 774.74792 887.79773 4288386446
4.6788988 774.74792 887.79773 4291610569
7.4862385 774.74792 887.79773 4292203775
10.293578 774.74792 887.79773 4293321983
14.036697 774.74792 887.79773 4293190399
16.844036 774.74792 887.79773 4293059071
19.621101 775.8053 886.72723 4292139774
22.39266 776.86273 885.65674 4293455359
25.191742 776.86273 885.65674 4294967295
27.990826 776.86273 885.65674 4294967295
14.92844 778.28931 886.85962 4294835455
16.794495 778.28931 886.85962 4293650943
19.593578 778.28931 886.85962 4292468219
22.39266 778.28931 886.85962 4293651455
25.191742 778.28931 886.85962 4292007157
-4.6513758 781.82239 885.91455 4282794585
-1.8605504 781.82239 885.91455 4282662998
26.047707 781.82239 885.91455 4289115898
-1.8605504 783.24481 887.11389 4283452000
19.53578 783.24481 887.11389 4293848575
22.326605 783.24481 887.11389 4292600063
24.187157 783.24481 887.11389 4292073471
-1.8550459 786.76514 886.15808 4283320930
0.92752296 788.18335 887.35388 4283453799
3.7100918 788.18335 887.35388 4283716719
7.4201837 788.18335 887.35388 4283782263
10.202752 788.18335 887.35388 4283848308
13.912844 788.18335 887.35388 4282271341
16.695414 788.18335 887.35388 4283786905
19.477982 787.47424 886.75598 4293187832
22.26055 787.47424 886.75598 4293781247
24.115597 786.76514 886.15808 4292927231
-4.6238532 790.2771 885.19519 4283386721
-1.8495413 790.2771 885.19519 4283649893
0.92477065 791.6911 886.38745 4283651176
3.6990826 791.6911 886.38745 4283783019
7.3981652 791.6911 886.38745 4283848058
10.172478 791.6911 886.38745 4284243073
13.871559 791.6911 886.38745 4283126132
16.645872 791.6911 886.38745 4282995061
19.420183 791.6911 886.38745 4288256997
22.194496 791.6911 886.38745 4294373631
24.660551 790.74847 885.59259 4293846527
27.74312 790.2771 885.19519 4286872235
0.92477065 793.1051 887.57959 4283848558
4.6238532 793.1051 887.57959 4284045684
7.3981652 793.1051 887.57959 4283915129
10.172478 793.1051 887.57959 4284506752
13.871559 793.1051 887.57959 4284572291
16.645872 793.1051 887.57959 4283849084
19.420183 793.1051 887.57959 4285761465
22.194496 793.1051 887.57959 4291416831
-1.8440367 795.19043 885.41382 4283848558
1.8440367 796.60022 886.60254 4283651960
3.6880734 796.60022 886.60254 4283915129
7.3761468 796.60022 886.60254 4284112513
10.142202 796.60022 886.60254 4284573062
13.830275 796.60022 886.60254 4284769929
19.362385 796.60022 886.60254 4284642451
23.357798 796.13031 886.2063 4291743996
25.816513 795.19043 885.41382 4291019770
-7.3541284 800.08691 885.61829 4283913067
-4.5963302 800.08691 885.61829 4283913069
-1.8385321 800.08691 885.61829 4284175987
0.92201835 798.01001 887.79126 4284177270
4.6100917 798.01001 887.79126 4284244349
7.3761468 798.01001 887.79126 4284770436
10.142202 798.01001 887.79126 4284901514
13.830275 798.01001 887.79126 4284966287
16.596331 798.01001 887.79126 4285491863
19.362385 798.01001 887.79126 4284244611
22.981651 800.08691 885.61829 4289766878
25.73945 800.08691 885.61829 4291675124
-3.6770642 801.49249 886.80347 4284111225
-1.8385321 802.19531 887.39606 4284440957
1.8385321 802.89807 887.98865 4284639105
3.6770642 802.89807 887.98865 4284901509
7.3541284 802.89807 887.98865 4285098122
9.1926603 802.89807 887.98865 4285492880
13.788991 802.89807 887.98865 4285690008
19.61101 802.4295 887.59357 4284638088
22.062386 801.49249 886.80347 4285489565
-7.3321099 804.96655 885.80859 4284638075
-4.2770638 805.43365 886.20245 4284572540
-1.8330275 806.36792 886.99023 4284703615
20.163303 806.36792 886.99023 4283650936
22.60734 805.43365 886.20245 4285889190
-7.310092 809.82941 885.98474 4285098626
-5.4825687 809.82941 885.98474 4284966784
-1.827523 809.82941 885.98474 4285098372
22.844036 809.82941 885.98474 4286747322
-1.827523 811.22656 887.16284 4285428105
19.188992 811.22656 887.16284 4284901775
22.844036 811.22656 887.16284 4285567929
-7.2880735 814.67535 886.14673 4285232011
-5.4660549 814.67535 886.14673 4285297805
