# .PCD v0.7 - Point Cloud Data file format
VERSION 0.7
FIELDS x y z rgb
SIZE 4 4 4 4
TYPE F F F U
COUNT 1 1 1 1
WIDTH 1158
HEIGHT 1
VIEWPOINT 0 0 0 1 0 0 0
POINTS 1158
DATA ascii
-2.387156 801.13696 1277.6047 4291611641
-22.608257 806.90527 1277.2363 4288319931
-19.038532 806.90527 1277.2363 4288649929
-16.658716 806.90527 1277.2363 4289373395
-14.278899 806.90527 1277.2363 4289439945
-10.709174 806.90527 1277.2363 4289308105
-7.1394496 806.90527 1277.2363 4289702867
-21.335779 814.08417 1276.7491 4288584135
-18.965137 814.08417 1276.7491 4289044176
-16.594496 814.08417 1276.7491 4289373140
-14.223853 814.08417 1276.7491 4289241547
-11.062997 813.78204 1276.4945 4288912839
-7.1119266 813.17798 1275.9851 4289637076
-4.7412844 814.08417 1276.7491 4288981721
-2.3706422 814.08417 1276.7491 4290758389
-9.4458714 821.22803 1276.2325 4288847822
-7.0844035 821.22803 1276.2325 4289308373
-4.7229357 821.22803 1276.2325 4289177307
-2.3614678 821.22803 1276.2325 4291348219
-14.168807 823.03333 1277.7548 4289438929
-10.626606 823.03333 1277.7548 4289044171
-7.0844035 823.03333 1277.7548 4289504721
-4.7229357 823.03333 1277.7548 4289308123
-2.3614678 823.03333 1277.7548 4291216120
-4.704587 829.23596 1276.4443 4289504986
-2.3522935 829.23596 1276.4443 4291149811
-4.704587 831.0343 1277.9607 4289439963
-2.3522935 831.0343 1277.9607 4291150325
-2.3431194 835.4104 1275.1105 4291150579
-36.660549 754.737 1279.0303 4285231491
-34.216515 754.737 1279.0303 4286215324
-31.772476 754.737 1279.0303 4287399342
-29.32844 754.737 1279.0303 4287333547
-25.662384 754.737 1279.0303 4287925429
-21.99633 754.737 1279.0303 4288846277
-19.552294 754.737 1279.0303 4288911048
-17.108257 754.737 1279.0303 4289240270
-13.442202 754.737 1279.0303 4289176008
-9.7761469 754.737 1279.0303 4289111775
1.2220184 754.737 1279.0303 4292071423
4.8880734 754.737 1279.0303 4292203263
-39.104588 756.60547 1280.6058 4283585135
-36.660549 756.60547 1280.6058 4286019476
-34.216515 756.60547 1280.6058 4286413732
-19.552294 756.60547 1280.6058 4288714439
-17.108257 756.60547 1280.6058 4289503698
-13.442202 756.60547 1280.6058 4289176006
1.2220184 756.60547 1280.6058 4292598271
4.8880734 756.60547 1280.6058 4292335615
7.3321099 756.60547 1280.6058 4292204030
-31.653212 763.09564 1279.538 4286939291
-29.218349 763.09564 1279.538 4287333297
-25.566055 763.09564 1279.538 4287859638
-21.913761 763.09564 1279.538 4288714687
-19.478899 763.09564 1279.538 4288583623
-17.044037 763.09564 1279.538 4289043918
-14.609175 763.09564 1279.538 4288978892
-9.7394495 763.09564 1279.538 4289177036
-7.3045874 763.09564 1279.538 4289703380
-4.8697248 763.09564 1279.538 4290361826
1.2174312 763.09564 1279.538 4292796415
4.8697248 763.09564 1279.538 4292270335
-25.046484 773.19403 1280.2045 4287794100
-21.814678 772.88513 1279.9441 4288583616
1.2119266 772.88513 1279.9441 4292336383
4.8477063 772.88513 1279.9441 4292335615
7.2715597 773.81165 1280.7252 4292401407
-25.35413 778.38275 1278.0393 4287728052
-21.732111 778.38275 1278.0393 4288517827
1.2073394 778.38275 1278.0393 4292270335
-26.561468 780.22882 1279.5958 4287794352
1.2073394 780.22882 1279.5958 4292598527
4.8293576 780.22882 1279.5958 4292533247
-28.866055 787.53735 1279.2183 4287268005
-25.658714 787.2309 1278.9598 4287728814
-16.838531 786.61786 1278.4429 4289044431
-12.829358 787.2309 1278.9598 4289307599
-9.6220188 787.53735 1279.2183 4289177034
-7.2165136 787.53735 1279.2183 4289703378
-4.8110094 787.53735 1279.2183 4289901025
-2.4055047 787.53735 1279.2183 4291545850
-28.755962 794.81097 1278.8109 4287070890
-26.359632 794.81097 1278.8109 4287597491
-22.765137 794.81097 1278.8109 4288255421
-19.170643 794.81097 1278.8109 4288781767
-16.774311 794.81097 1278.8109 4289110476
-14.377981 794.81097 1278.8109 4288979660
-10.783486 794.81097 1278.8109 4289242573
-7.1889906 794.81097 1278.8109 4289702867
-4.7926607 794.81097 1278.8109 4289965020
-2.3963304 794.81097 1278.8109 4291807224
-31.152294 796.64294 1280.3556 4287201949
-28.755962 796.64294 1280.3556 4287202481
-26.359632 796.64294 1280.3556 4287663032
-22.765137 796.64294 1280.3556 4288189882
-19.170643 796.64294 1280.3556 4288912844
-16.774311 796.64294 1280.3556 4289176273
-14.377981 796.64294 1280.3556 4289176525
-10.783486 796.64294 1280.3556 4289373903
-7.1889906 796.64294 1280.3556 4289505488
-4.7926607 796.64294 1280.3556 4289899740
-2.3963304 796.64294 1280.3556 4291741944
-26.258715 802.96198 1279.1434 4287859382
-22.677982 802.96198 1279.1434 4288123318
-19.097248 802.96198 1279.1434 4288716235
-16.710093 802.96198 1279.1434 4289308373
-14.322936 802.96198 1279.1434 4289373382
-10.742202 802.96198 1279.1434 4289176521
-7.161468 802.96198 1279.1434 4289637589
-4.774312 802.96198 1279.1434 4289638110
-2.387156 802.96198 1279.1434 4291611643
-31.033028 804.78699 1280.6823 4287332770
-28.645872 804.78699 1280.6823 4287463852
-26.258715 804.78699 1280.6823 4288055989
-4.774312 804.78699 1280.6823 4289572574
-2.387156 804.78699 1280.6823 4291414778
-26.177982 808.72467 1278.7704 4287991220
-22.608257 808.72467 1278.7704 4288254908
-14.278899 808.72467 1278.7704 4289505222
-4.7596331 808.72467 1278.7704 4289310169
-2.3798165 808.72467 1278.7704 4291283960
-26.177982 810.54407 1280.3044 4287925427
-23.798164 810.54407 1280.3044 4287663032
-21.335779 817.70892 1279.8054 4288846788
-18.965137 817.70892 1279.8054 4289174735
-16.594496 817.70892 1279.8054 4289701335
-14.223853 817.70892 1279.8054 4289241805
-11.853211 817.70892 1279.8054 4288847047
-7.1119266 816.80273 1279.0414 4289177557
-4.7412844 816.80273 1279.0414 4288915161
-2.3706422 816.80273 1279.0414 4291020537
0 818.61511 1280.5696 4291677182
-10.626606 824.83875 1279.277 4289044172
-7.0844035 824.83875 1279.277 4289702099
-4.7229357 824.83875 1279.277 4289308121
-2.3614678 824.83875 1279.277 4291084531
-14.168807 826.6441 1280.7992 4289503698
-10.626606 826.6441 1280.7992 4289175245
-7.0844035 826.6441 1280.7992 4289504721
0 826.6441 1280.7992 4291085817
-4.704587 832.83264 1279.4771 4289439961
-39.104588 758.474 1282.1813 4285952646
-36.660549 758.474 1282.1813 4286545039
-34.216515 758.474 1282.1813 4286347935
1.2220184 758.474 1282.1813 4292796415
4.8880734 758.474 1282.1813 4292401663
7.3321099 758.474 1282.1813 4292335615
9.7761469 758.474 1282.1813 4291875583
-40.326607 760.34247 1283.7567 4285886598
-36.660549 760.34247 1283.7567 4286610332
-34.216515 760.34247 1283.7567 4286412947
7.3321099 760.34247 1283.7567 4292336127
9.7761469 760.34247 1283.7567 4292336383
12.220183 760.34247 1283.7567 4292336383
-31.653212 764.95709 1281.1075 4286873500
-29.218349 764.95709 1281.1075 4287136174
-25.566055 764.95709 1281.1075 4287727796
-21.913761 764.95709 1281.1075 4288583102
-19.478899 764.95709 1281.1075 4288452032
-17.044037 764.95709 1281.1075 4289044170
1.2174312 764.95709 1281.1075 4292730367
4.8697248 764.95709 1281.1075 4292401407
-36.522934 766.8186 1282.6771 4286740131
-34.088074 766.8186 1282.6771 4286412436
-31.653212 766.8186 1282.6771 4287201951
-29.218349 766.8186 1282.6771 4287333297
-26.783485 766.8186 1282.6771 4287859641
-21.913761 766.8186 1282.6771 4288451517
4.8697248 766.8186 1282.6771 4292336127
7.3045874 766.8186 1282.6771 4292336127
-31.510092 775.66467 1282.2877 4287333034
-29.086239 775.66467 1282.2877 4287398829
4.8477063 775.66467 1282.2877 4291875583
7.2715597 775.66467 1282.2877 4292270079
-33.933945 777.5177 1283.8501 4286609565
-31.510092 777.5177 1283.8501 4287267494
-29.086239 777.5177 1283.8501 4287596973
7.2715597 777.5177 1283.8501 4292533247
9.6954126 777.5177 1283.8501 4292270335
-31.390825 782.07483 1281.1523 4287267494
-28.976147 782.07483 1281.1523 4287531180
-26.561468 782.07483 1281.1523 4287794352
1.2073394 782.07483 1281.1523 4292005375
4.8293576 782.07483 1281.1523 4292335615
7.2440367 782.07483 1281.1523 4292335615
-33.805504 783.9209 1282.709 4286872483
-31.390825 783.9209 1282.709 4287333034
1.2073394 783.9209 1282.709 4291742974
4.8293576 783.9209 1282.709 4292204282
7.2440367 783.9209 1282.709 4292270075
-31.271559 790.2959 1281.5442 4287202472
-28.866055 790.2959 1281.5442 4287071144
-7.2165136 790.2959 1281.5442 4289834196
-2.4055047 790.2959 1281.5442 4291545334
2.4055047 790.2959 1281.5442 4291480058
-36.082569 792.13495 1283.0947 4286610832
-33.677063 792.13495 1283.0947 4286610328
-31.271559 792.13495 1283.0947 4287070879
1.2027524 792.13495 1283.0947 4291874559
4.8110094 792.13495 1283.0947 4291875580
7.2165136 792.13495 1283.0947 4291678458
-34.746788 800.30701 1283.4451 4285490311
-31.152294 799.39099 1282.6726 4287267234
-28.755962 799.39099 1282.6726 4287398832
1.1981652 799.39099 1282.6726 4291808767
4.7926607 799.39099 1282.6726 4291677946
-33.420185 806.61194 1282.2211 4285755275
-31.033028 806.61194 1282.2211 4287334051
-28.645872 806.61194 1282.2211 4287398827
1.193578 806.61194 1282.2211 4291809535
-31.033028 808.43701 1283.7599 4287400616
-28.645872 808.43701 1283.7599 4287464876
1.193578 808.43701 1283.7599 4291743743
-26.177982 812.36346 1281.8385 4287729329
-23.798164 812.36346 1281.8385 4287794620
1.1899083 812.36346 1281.8385 4291678206
-26.177982 814.18286 1283.3726 4287598520
-23.798164 814.18286 1283.3726 4287925688
1.1899083 814.18286 1283.3726 4291546111
-22.521101 820.42749 1282.0977 4288386237
-18.965137 820.42749 1282.0977 4289043920
-16.594496 820.42749 1282.0977 4289438677
1.1853211 820.42749 1282.0977 4291414526
-21.335779 822.23987 1283.6259 4288912581
-18.965137 822.23987 1283.6259 4289043920
-16.594496 822.23987 1283.6259 4289438677
-14.223853 822.23987 1283.6259 4289438675
1.1853211 822.23987 1283.6259 4291348734
4.7412844 822.23987 1283.6259 4291481075
-30.699083 830.25482 1283.8436 4285294470
-9.4458714 828.44946 1282.3214 4289044170
-7.0844035 828.44946 1282.3214 4289373134
0.78715593 829.65308 1283.3363 4291152121
-41.704586 754.77606 1285.6035 4284637558
12.266055 754.77606 1285.6035 4292467455
-40.326607 763.14526 1286.1199 4285161859
-36.660549 762.21094 1285.3322 4286870688
-34.216515 762.21094 1285.3322 4286281620
7.3321099 762.21094 1285.3322 4292401407
9.7761469 763.1452 1286.1199 4292467199
12.220183 763.1452 1286.1199 4292401407
-36.522934 769.61078 1285.0314 4286806694
-34.088074 769.61078 1285.0314 4286675105
-31.653212 769.61078 1285.0314 4287333034
-29.218349 769.61078 1285.0314 4287201965
-26.783485 768.68005 1284.2466 4287793846
7.3045874 768.68005 1284.2466 4292401407
9.7394495 769.61078 1285.0314 4292466687
12.174312 770.5415 1285.8162 4292335615
-36.3578 779.37079 1285.4126 4286806939
-33.933945 779.37079 1285.4126 4286740894
9.6954126 779.37079 1285.4126 4291809787
-36.3578 781.22388 1286.9751 4286610080
9.6954126 781.22388 1286.9751 4292204030
-33.805504 785.76697 1284.2655 4287004836
-31.390825 785.76697 1284.2655 4287202472
1.2073394 785.76697 1284.2655 4291414012
4.8293576 785.76697 1284.2655 4291414012
7.2440367 785.76697 1284.2655 4291611391
-36.220184 787.61298 1285.822 4287005336
-33.805504 787.61298 1285.822 4287004836
0 787.61298 1285.822 4291743229
4.8293576 787.61298 1285.822 4291480062
7.2440367 787.61298 1285.822 4291414012
9.6587152 787.61298 1285.822 4291480062
-36.082569 793.974 1284.6454 4286937748
-33.677063 793.974 1284.6454 4286610069
1.2027524 793.974 1284.6454 4291940351
4.8110094 793.974 1284.6454 4291875832
7.2165136 793.974 1284.6454 4291875832
-37.285324 795.81299 1286.196 4286277504
-33.677063 795.81299 1286.196 4286740883
7.2165136 795.81299 1286.196 4291678204
9.6220188 795.81299 1286.196 4291611389
-38.341286 803.05505 1285.7621 4284768895
-35.146175 802.74969 1285.5046 4285360006
1.1981652 802.13904 1284.9897 4291809279
4.7926607 803.05505 1285.7621 4291612411
7.1889906 803.97107 1286.5344 4291678204
-33.420185 812.08698 1286.8374 4284507521
-31.033028 811.17444 1286.0681 4286217112
-28.645872 811.17444 1286.0681 4286479522
4.774312 811.17444 1286.0681 4291612153
7.161468 811.17444 1286.0681 4291809532
-33.317432 817.82166 1286.4407 4287003801
-30.937614 817.82166 1286.4407 4287267229
-28.557798 817.82166 1286.4407 4287530921
-26.177982 816.91199 1285.6736 4287926203
-23.798164 816.00226 1284.9066 4287991733
2.3798165 816.00226 1284.9066 4291611389
4.7596331 816.91199 1285.6736 4291677946
7.1394496 817.82166 1286.4407 4291612665
-33.188992 824.05225 1285.1539 4287070629
-28.447706 824.05225 1285.1539 4287860395
-26.077065 824.05225 1285.1539 4288123824
-22.521101 824.05225 1285.1539 4288320698
-18.965137 824.05225 1285.1539 4288912331
-16.594496 824.05225 1285.1539 4289438675
2.3706422 824.05225 1285.1539 4291414526
4.7412844 824.05225 1285.1539 4291152114
7.1119266 824.05225 1285.1539 4291546616
-33.188992 825.86462 1286.6821 4287202468
-30.818348 825.86462 1286.6821 4288057776
-28.447706 825.86462 1286.6821 4288123053
-21.335779 825.86462 1286.6821 4289239999
-14.223853 825.86462 1286.6821 4289635791
-11.853211 825.86462 1286.6821 4289241033
2.3706422 825.86462 1286.6821 4291480575
4.7412844 825.86462 1286.6821 4291481075
7.1119266 825.86462 1286.6821 4291810039
-40.144955 832.06018 1285.366 4284504438
-37.783485 832.06018 1285.366 4284438391
7.0844035 832.06018 1285.366 4291480823
-44.157799 757.58936 1287.9755 4285623672
14.719266 757.58936 1287.9755 4292269823
-44.157799 759.46484 1289.5569 4284176489
14.719266 759.46484 1289.5569 4291940607
-43.992661 765.94794 1288.4832 4284175724
-40.326607 765.94794 1288.4832 4285030273
13.442202 765.94794 1288.4832 4292334847
-41.392662 772.40302 1287.3857 4283781481
-37.740364 772.40302 1287.3857 4285952148
-34.088074 772.40302 1287.3857 4286740896
9.7394495 772.40302 1287.3857 4292269823
12.174312 772.40302 1287.3857 4292401407
-41.392662 774.26447 1288.9552 4283912297
-37.740364 774.26447 1288.9552 4285689233
12.174312 774.26447 1288.9552 4292402175
-37.569725 783.0769 1288.5375 4285559178
9.6954126 783.0769 1288.5375 4291611643
12.119267 783.0769 1288.5375 4291809022
-41.049541 791.30505 1288.9351 4285622140
-38.634861 791.30505 1288.9351 4285687682
9.6587152 790.38202 1288.1567 4291546108
12.878288 790.6897 1288.4161 4291611644
-40.893578 797.65204 1287.7466 4284831602
-38.488075 797.65204 1287.7466 4284963702
7.2165136 797.65204 1287.7466 4291940860
9.6220188 797.65204 1287.7466 4291611389
12.027523 797.65204 1287.7466 4291677182
-43.299084 799.49109 1289.2972 4284504438
-40.893578 799.49109 1289.2972 4284964989
7.2165136 799.49109 1289.2972 4291612411
9.6220188 799.49109 1289.2972 4291611389
12.027523 799.49109 1289.2972 4291874815
-40.737614 805.80304 1288.0791 4284703365
-38.341286 805.80304 1288.0791 4284244610
-34.746788 805.80304 1288.0791 4285427599
4.7926607 805.80304 1288.0791 4291678458
7.1889906 805.80304 1288.0791 4291809787
9.5853214 805.80304 1288.0791 4292072191
-40.737614 807.63507 1289.6239 4285688724
-38.341286 807.63507 1289.6239 4285098374
-34.746788 807.63507 1289.6239 4285558413
9.5853214 807.63507 1289.6239 4291940860
-40.58165 815.73694 1289.915 4285818498
-38.194496 815.73694 1289.915 4286476684
-34.613762 814.82446 1289.1456 4286016911
-31.033028 813.91199 1288.3762 4285688978
-28.645872 813.91199 1288.3762 4286018473
7.161468 813.91199 1288.3762 4291875069
9.548624 815.73694 1289.915 4291480825
23.871559 815.73694 1289.915 4291612413
-34.903976 820.2475 1288.486 4287004572
-30.937614 820.55072 1288.7417 4287859888
-28.557798 819.64099 1287.9747 4287728295
-26.177982 819.64099 1287.9747 4287925675
-23.798164 819.64099 1287.9747 4287794100
7.1394496 819.64099 1287.9747 4291481075
9.5192661 820.55072 1288.7417 4291480823
-40.300919 827.677 1288.2102 4285095290
-37.930275 827.677 1288.2102 4285029245
-34.374313 827.677 1288.2102 4285161857
4.7412844 827.677 1288.2102 4291481077
7.1119266 827.677 1288.2102 4291415027
9.4825687 829.48938 1289.7384 4291480058
-46.78532 754.83624 1292.1943 4285884804
-46.611008 761.34033 1291.1383 4284898694
-44.157799 761.34033 1291.1383 4284175474
14.719266 761.34033 1291.1383 4292137215
-46.611008 763.21582 1292.7196 4284898942
17.172478 763.21582 1292.7196 4292466175
-46.436699 767.81641 1290.0586 4284964989
-43.992661 767.81641 1290.0586 4284241519
-40.326607 767.81641 1290.0586 4284833408
14.66422 767.81641 1290.0586 4292401663
-46.436699 769.68494 1291.634 4284898683
-43.992661 769.68494 1291.634 4283979117
14.66422 769.68494 1291.634 4292401663
17.108257 769.68494 1291.634 4292401663
-43.827522 776.12592 1290.5248 4284702333
-41.392662 776.12592 1290.5248 4283715438
-38.957798 776.12592 1290.5248 4284438391
13.391743 776.12592 1290.5248 4292073215
-46.262386 777.98743 1292.0944 4285162619
-43.827522 777.98743 1292.0944 4284768128
-41.392662 777.98743 1292.0944 4283518062
-38.957798 777.98743 1292.0944 4284175739
13.391743 777.98743 1292.0944 4292401662
-41.205505 784.92993 1290.1 4285425788
-38.781651 784.92993 1290.1 4285492097
13.331193 784.92993 1290.1 4291808766
-43.629356 786.78302 1291.6624 4285162623
-41.205505 786.78302 1291.6624 4285491332
-38.781651 786.78302 1291.6624 4285689730
14.543119 786.78302 1291.6624 4291874045
16.966972 786.78302 1291.6624 4291939838
19.390825 786.78302 1291.6624 4291611639
-45.878899 794.99713 1292.0481 4284306283
-43.464222 794.0741 1291.2698 4284896626
-41.049541 793.15112 1290.4916 4285487992
13.683181 793.76642 1291.0104 4291874557
16.902752 794.0741 1291.2698 4292071934
19.31743 794.0741 1291.2698 4291677691
-48.911926 802.55615 1291.8816 4283649384
-45.704586 802.24963 1291.6232 4284175473
-43.299084 802.24963 1291.6232 4284044408
-40.893578 801.33008 1290.8479 4285162119
9.6220188 801.33008 1290.8479 4291940607
12.829358 802.55615 1291.8816 4291809020
-43.133945 809.46704 1291.1686 4284043638
-40.737614 809.46704 1291.1686 4284635775
-38.341286 809.46704 1291.1686 4284569982
-35.944954 809.46704 1291.1686 4285162119
9.5853214 809.46704 1291.1686 4291480060
-43.133945 811.29907 1292.7133 4284173686
-40.737614 811.29907 1292.7133 4284700287
-38.341286 811.29907 1292.7133 4284700294
-35.944954 811.29907 1292.7133 4285292687
10.783486 811.29907 1292.7133 4291546366
22.765137 811.29907 1292.7133 4291809533
-42.968807 817.56201 1291.4539 4285490298
-40.58165 817.56201 1291.4539 4286148485
-38.194496 817.56201 1291.4539 4286345609
11.93578 817.56201 1291.4539 4291480823
14.322936 817.56201 1291.4539 4291677434
22.677982 817.56201 1291.4539 4291743231
-45.355965 819.38696 1292.9927 4285425286
-42.968807 819.38696 1292.9927 4285623683
-40.58165 819.38696 1292.9927 4286150283
-38.194496 819.38696 1292.9927 4286215824
11.93578 819.38696 1292.9927 4291415030
14.322936 819.38696 1292.9927 4291743227
16.710093 819.38696 1292.9927 4291743227
19.097248 819.38696 1292.9927 4291414264
22.677982 819.38696 1292.9927 4291742717
-40.456882 823.27979 1291.0428 4286805906
-38.077065 823.27979 1291.0428 4286544276
-35.697247 823.27979 1291.0428 4287267742
-26.177982 823.27979 1291.0428 4288386226
-23.798164 823.27979 1291.0428 4288450484
10.709174 823.27979 1291.0428 4291414519
21.418348 823.27979 1291.0428 4291414264
-42.836697 825.09918 1292.5769 4285029497
10.709174 825.09918 1292.5769 4291283191
-42.671558 831.30176 1291.2666 4284504184
-49.247707 757.66003 1294.5752 4283319916
-46.78532 756.71875 1293.7816 4284635773
17.236698 757.66003 1294.5752 4292269311
-49.06422 766.02905 1295.0917 4283122529
17.172478 765.09131 1294.301 4292598783
19.625689 766.02905 1295.0917 4292335615
22.078899 766.9668 1295.8823 4292203775
24.53211 766.9668 1295.8823 4292269055
-48.880733 772.48767 1293.9972 4283189346
-46.436699 772.48767 1293.9972 4285031550
-43.992661 771.55341 1293.2095 4284636277
14.66422 771.55341 1293.2095 4292270335
17.108257 772.48767 1293.9972 4292270335
19.552294 773.42188 1294.7849 4292137727
-46.262386 779.84888 1293.6639 4285359997
-43.827522 779.84888 1293.6639 4285491845
-41.392662 779.84888 1293.6639 4284834171
14.609175 779.84888 1293.6639 4291875069
17.044037 779.84888 1293.6639 4291875069
-48.697247 781.71033 1295.2334 4284175474
-46.262386 781.71033 1295.2334 4285293698
-43.827522 781.71033 1295.2334 4285491582
17.044037 781.71033 1295.2334 4291809022
19.478899 781.71033 1295.2334 4291743218
-46.053211 788.63611 1293.2249 4285029499
-43.629356 788.63611 1293.2249 4285490298
16.966972 788.63611 1293.2249 4292137471
19.390825 788.63611 1293.2249 4291611391
-49.688992 790.48914 1294.7874 4284239974
-46.053211 790.48914 1294.7874 4284765807
21.814678 790.48914 1294.7874 4291809535
24.238533 790.48914 1294.7874 4291940860
-48.293579 796.8432 1293.6047 4284109931
-45.878899 796.8432 1293.6047 4284373102
14.488073 796.8432 1293.6047 4291940860
16.902752 796.8432 1293.6047 4291940860
19.31743 796.8432 1293.6047 4291940860
-50.708256 798.68921 1295.1613 4284175474
14.488073 798.68921 1295.1613 4291809020
16.902752 798.68921 1295.1613 4291809020
19.31743 798.68921 1295.1613 4291809020
21.732111 798.68921 1295.1613 4291743227
-49.312843 805.92767 1294.7244 4283714924
-45.704586 805.92767 1294.7244 4284174968
-43.299084 805.00818 1293.9491 4284175485
13.230276 805.92767 1294.7244 4291677690
16.838531 806.84717 1295.4998 4291743227
19.244038 806.84717 1295.4998 4291546620
21.649542 806.84717 1295.4998 4291678206
24.055046 806.84717 1295.4998 4291810303
-50.322937 814.96313 1295.8027 4284963956
-46.329052 814.35248 1295.2877 4284963958
-43.133945 813.1311 1294.2579 4285029238
11.981651 813.1311 1294.2579 4291546618
14.377981 813.1311 1294.2579 4291743227
16.774311 814.96313 1295.8027 4291611641
19.170643 814.96313 1295.8027 4291611389
21.566973 813.1311 1294.2579 4291743229
-45.355965 821.21198 1294.5314 4285556875
-42.968807 821.21198 1294.5314 4285884804
14.322936 821.21198 1294.5314 4291677434
16.710093 821.21198 1294.5314 4292269567
19.097248 821.21198 1294.5314 4291480058
23.871559 821.21198 1294.5314 4291480062
-45.216515 826.91858 1294.111 4284504184
-42.836697 826.91858 1294.111 4284438645
11.899082 826.91858 1294.111 4291480058
14.278899 826.91858 1294.111 4291480060
21.418348 826.91858 1294.111 4291479807
-51.710091 760.48376 1296.9562 4283123049
-49.247707 760.48376 1296.9562 4283320167
19.699083 760.48376 1296.9562 4292335615
-51.710091 762.36627 1298.5435 4283058539
22.161469 762.36627 1298.5435 4292532991
24.623854 762.36627 1298.5435 4292532991
-51.517429 768.84229 1297.4637 4282991970
19.625689 768.84229 1297.4637 4292203263
22.078899 768.84229 1297.4637 4292203263
24.53211 768.84229 1297.4637 4292269311
-51.324772 775.29034 1296.3604 4283320417
-48.880733 775.29034 1296.3604 4283254622
17.108257 775.29034 1296.3604 4292533247
19.552294 775.29034 1296.3604 4292335615
-51.324772 777.15887 1297.9358 4283452516
-48.880733 777.15887 1297.9358 4283978344
19.552294 777.15887 1297.9358 4292005883
21.99633 777.15887 1297.9358 4292071676
24.440367 777.15887 1297.9358 4292137471
-51.943729 784.81281 1297.8494 4284306789
-48.697247 784.50256 1297.5878 4284306546
-46.262386 783.57184 1296.803 4284899196
21.913761 784.50256 1297.5878 4291809020
24.348623 784.50256 1297.5878 4291940095
-50.092968 792.9599 1296.8706 4283846758
21.814678 793.26868 1297.131 4291875067
24.238533 792.34216 1296.3497 4291743481
-53.122936 800.53528 1296.7178 4283452516
16.902752 800.53528 1296.7178 4291678206
19.31743 800.53528 1296.7178 4291809022
21.732111 800.53528 1296.7178 4291874815
-55.537613 802.38135 1298.2743 4283190375
-53.122936 802.38135 1298.2743 4283451746
16.902752 802.38135 1298.2743 4292138239
19.31743 802.38135 1298.2743 4291809787
21.732111 802.38135 1298.2743 4291875580
24.14679 802.38135 1298.2743 4291875071
-49.312843 808.68622 1297.0503 4283648877
-45.704586 808.68622 1297.0503 4283977588
14.433027 808.68622 1297.0503 4291743229
16.838531 808.68622 1297.0503 4291743229
19.244038 808.68622 1297.0503 4291743231
-52.921101 810.52527 1298.601 4284108649
-49.312843 810.52527 1298.601 4284634996
16.838531 810.52527 1298.601 4291677434
19.244038 810.52527 1298.601 4291743229
-52.719265 818.62714 1298.8921 4284438645
-50.322937 817.71118 1298.1198 4284701816
-47.926605 817.71118 1298.1198 4284767357
-45.355965 823.03699 1296.0702 4284833149
14.322936 823.03699 1296.0702 4291414778
16.710093 823.94946 1296.8396 4291480315
19.097248 823.94946 1296.8396 4291479805
22.677982 823.03699 1296.0702 4291348731
-51.902752 755.86212 1299.5995 4283320678
19.772476 755.86212 1299.5995 4292203775
-54.374313 757.75165 1301.1926 4283518064
22.244038 757.75165 1301.1926 4292269823
-51.710091 764.24878 1300.1307 4283123049
-51.517429 770.71783 1299.0452 4283123299
22.078899 770.71783 1299.0452 4292203775
24.53211 770.71783 1299.0452 4292269055
-53.970642 772.59332 1300.6265 4283649382
22.078899 772.59332 1300.6265 4292269567
24.53211 772.59332 1300.6265 4292203775
-52.546791 779.02734 1299.5114 4284109931
21.99633 779.02734 1299.5114 4292006133
24.440367 779.02734 1299.5114 4292072190
-56.212845 780.89581 1301.0868 4283912551
-53.768806 780.89581 1301.0868 4284109931
-53.566971 787.2948 1299.942 4283845728
-56.001835 789.15625 1301.5116 4283715175
-53.566971 789.15625 1301.5116 4283517793
-55.748623 797.90137 1301.0371 4283190125
-53.324772 796.04828 1299.4746 4283649130
24.238533 796.04828 1299.4746 4291678206
-55.537613 805.15039 1300.6091 4283715175
-53.122936 805.15039 1300.6091 4283649128
-57.732109 812.36426 1300.1516 4284109933
-55.326607 812.36426 1300.1516 4284175726
-52.921101 812.36426 1300.1516 4284634991
-57.732109 814.20331 1301.7021 4284043887
-55.326607 814.20331 1301.7021 4284438645
-52.921101 814.20331 1301.7021 4284438641
-50.322937 820.45917 1300.4368 4284963706
-47.926605 820.45917 1300.4368 4284833149
-50.322937 822.2912 1301.9814 4284439416
-47.926605 822.2912 1301.9814 4284570234
11.93578 826.68701 1299.1478 4291414778
14.322936 826.68701 1299.1478 4291480058
16.710093 826.68701 1299.1478 4291480058
19.097248 826.68701 1299.1478 4291282426
21.484404 826.68701 1299.1478 4291348219
-54.374313 760.58594 1303.5825 4283715699
-55.403671 768.95508 1304.0989 4283320423
-56.423855 775.40662 1302.9985 4283780711
-53.970642 774.46881 1302.2079 4283715688
-56.212845 782.76428 1302.6622 4283912547
-61.100918 784.63281 1304.2377 4283912297
-58.656879 784.63281 1304.2377 4283912551
-56.212845 784.63281 1304.2377 4283780966
-53.566971 791.0177 1303.0812 4283452770
24.348623 791.0177 1303.0812 4291677434
-56.001835 792.87921 1304.6508 4283321712
-60.596329 799.75439 1302.5996 4283256169
-58.172478 799.75439 1302.5996 4283190375
-58.172478 801.60742 1304.162 4283715175
-70.025688 809.7655 1304.5005 4284241267
-67.611008 809.7655 1304.5005 4284241267
-65.196327 808.84247 1303.7222 4284109680
-61.57431 809.7655 1304.5005 4284175474
-57.952293 807.91943 1302.9438 4283978090
-55.537613 807.91943 1302.9438 4283912297
-57.732109 816.96185 1304.0281 4284503672
-55.326607 816.96185 1304.0281 4284700794
-52.921101 817.88135 1304.8035 4284832121
-45.530273 824.12317 1303.5262 4284373368
-58.340366 756.37109 1307.8767 4283386473
-55.610092 763.42023 1305.9723 4283386981
-56.845871 765.30975 1307.5654 4283452000
-61.330276 780.09534 1306.952 4283912551
-58.877064 780.09534 1306.952 4283912547
-61.100918 786.50128 1305.8131 4283780718
-58.656879 787.43555 1306.6008 4283649384
-56.212845 788.36975 1307.3887 4283583337
-58.436699 794.74066 1306.2202 4282334817
-63.020184 803.46051 1305.7245 4283978094
-60.596329 803.46051 1305.7245 4283912045
-58.172478 803.46051 1305.7245 4283715175
-63.020184 805.3136 1307.2869 4284043887
-60.596329 805.3136 1307.2869 4283978094
-70.025688 811.61151 1306.057 4284372596
-67.611008 811.61151 1306.057 4284438645
-65.196327 811.61151 1306.057 4284372596
-61.57431 811.61151 1306.057 4284175474
-70.025688 813.45758 1307.6135 4284373368
-61.57431 813.45758 1307.6135 4284109683
-57.732109 820.63989 1307.1294 4284569975
-55.326607 820.63989 1307.1294 4284701818
-52.921101 820.63989 1307.1294 4284439160
-49.312843 821.55945 1307.9047 4284241782
-58.340366 758.26904 1309.4771 4283320930
-59.317432 767.19928 1309.1587 4283451496
-59.317432 769.08881 1310.7518 4283649382
-59.097248 773.66138 1308.0671 4283912297
-59.097248 775.54388 1309.6545 4283912551
-58.656879 790.23828 1308.9641 4283058539
-63.306423 798.46362 1309.3594 4283978090
-60.871559 798.46362 1309.3594 4283715175
-72.715599 809.01965 1310.4117 4284241267
-61.57431 815.30359 1309.17 4284570234
-61.57431 817.14966 1310.7266 4284570747
-57.732109 823.39844 1309.4553 4284109690
-55.326607 823.39844 1309.4553 4284241532
-52.921101 823.39844 1309.4553 4284243068
-49.312843 823.39844 1309.4553 4284373883
-45.704586 823.39844 1309.4553 4284570747
14.433027 823.39844 1309.4553 4291480062
16.838531 823.39844 1309.4553 4291480062
19.244038 823.39844 1309.4553 4291480058
21.649542 823.39844 1309.4553 4291677436
-64.785324 755.5509 1313.7253 4283781481
-59.58165 760.16699 1311.0774 4283255135
-59.58165 762.06494 1312.6776 4283452000
-64.260551 772.86786 1313.9382 4284174442
-61.78899 772.86786 1313.9382 4284108649
-63.783485 785.7218 1311.6962 4283780716
-61.330276 785.7218 1311.6962 4283517543
-61.330276 787.59735 1313.2775 4283320678
-76.351379 811.79926 1312.7554 4284373369
-72.715599 810.87274 1311.9742 4284373368
-70.29174 812.72583 1313.5366 4284175987
-67.867889 811.79932 1312.7554 4284373107
-65.444038 811.79932 1312.7554 4284438900
-61.57431 818.99573 1312.2831 4284837001
-61.57431 820.84174 1313.8396 4285690511
-62.543118 825.23749 1311.006 4286745777
-57.732109 825.23749 1311.006 4285492115
-55.326607 825.23749 1311.006 4285031564
-48.110092 825.23749 1311.006 4284702333
-64.785324 757.45593 1315.3315 4283780968
-62.293579 757.45593 1315.3315 4283649382
-62.293579 759.36084 1316.9377 4283649130
-62.06422 763.96289 1314.278 4283714923
-62.06422 765.86084 1315.8783 4283649130
-61.330276 789.47284 1314.8589 4282665315
-70.29174 814.57886 1315.0991 4284175987
-67.867889 814.57886 1315.0991 4284308079
-65.444038 814.57886 1315.0991 4284636788
-70.29174 816.43188 1316.6616 4286280597
-65.444038 816.43188 1316.6616 4286872737
-61.171864 823.91846 1316.434 4286612135
-57.952293 824.53381 1316.9528 4285886634
-55.537613 824.53381 1316.9528 4284965532
-53.122936 822.68774 1315.3962 4284441723
-50.708256 822.68774 1315.3962 4284375930
19.31743 822.68774 1315.3962 4291677434
21.732111 822.68774 1315.3962 4291743227
-60.137615 828.91553 1314.1072 4287664317
-64.785324 761.26581 1318.5439 4283780716
-62.06422 767.75873 1317.4785 4284108397
-80.350456 809.63245 1318.7766 4284504438
-73.045868 809.63245 1318.7766 4284307573
-70.29174 818.28497 1318.224 4288319694
-67.867889 818.28497 1318.224 4288190391
-65.444038 818.28497 1318.224 4286611616
-67.867889 820.13806 1319.7865 4288587995
-65.444038 820.13806 1319.7865 4287864272
16.966972 820.13806 1319.7865 4291546366
-62.781651 826.37988 1318.5093 4288651212
-57.952293 826.37988 1318.5093 4287400126
-67.524773 757.61279 1322.0042 4283978094
-65.023849 756.6568 1321.198 4283780716
-67.277061 763.17078 1320.1503 4284174192
-64.785324 763.17078 1320.1503 4283912045
-64.785324 765.07574 1321.7565 4284108397
-82.785324 811.4939 1320.3462 4284241267
-80.350456 811.4939 1320.3462 4284438645
-76.698166 811.4939 1320.3462 4284175991
-73.045868 811.4939 1320.3462 4283913071
-75.480736 813.35541 1321.9156 4283847528
-73.045868 813.35541 1321.9156 4285425288
-68.176147 813.35541 1321.9156 4287267494
-65.444038 821.99109 1321.3489 4288192456
-53.324772 821.99109 1321.3489 4284441975
24.238533 821.99109 1321.3489 4291742975
-65.444038 823.84412 1322.9114 4288325854
-55.748623 823.84412 1322.9114 4286150059
-61.57431 829.14893 1320.844 4288849626
-73.045868 815.21686 1323.4852 4286674870
-65.444038 825.6972 1324.4739 4289113821
-58.172478 825.6972 1324.4739 4287860938
-62.781651 831.91797 1323.1788 4290428401
-67.524773 762.3927 1326.0344 4284239734
-79.431198 810.79163 1326.2942 4283780971
-75.765137 812.6601 1327.8696 4285820815
-51.132111 818.93982 1326.6244 4284376182
19.478899 818.93982 1326.6244 4291480062
21.913761 818.93982 1326.6244 4291677183
-53.566971 820.80127 1328.1938 4285427855
21.913761 820.80127 1328.1938 4291480573
24.348623 820.80127 1328.1938 4291546618
-70.333946 757.25275 1329.5487 4284239986
17.108257 816.39709 1331.0205 4291743229
-58.436699 824.52423 1331.333 4288585947
24.348623 823.59351 1330.5482 4291349749
14.719266 811.97882 1333.8353 4291546366
-51.324772 818.26556 1332.5959 4285164683
19.552294 818.26556 1332.5959 4291020022
-56.212845 820.13403 1334.1714 4286742713
19.552294 820.13403 1334.1714 4291217657
21.99633 820.13403 1334.1714 4291480573
24.348623 826.38568 1332.9026 4291546616
14.719266 813.85437 1335.4167 4291809022
17.172478 815.72986 1336.998 4291414264
-61.100918 823.87103 1337.3223 4289375712
-58.656879 823.87103 1337.3223 4288914660
-56.212845 822.00256 1335.7468 4287467465
19.552294 822.93677 1336.5345 4291349755
21.99633 822.93677 1336.5345 4291415548
24.348623 830.10864 1336.0416 4291480312
12.311927 811.31165 1339.813 4291875067
14.719266 817.60535 1338.5795 4291348982
17.172478 817.60535 1338.5795 4291217653
-53.970642 819.48083 1340.1609 4287137467
14.719266 819.48083 1340.1609 4291480825
17.172478 819.48083 1340.1609 4291480825
-61.100918 825.7395 1338.8978 4290297076
19.552294 826.67371 1339.6855 4291217144
21.99633 826.67371 1339.6855 4291414524
24.440367 825.7395 1338.8978 4291480312
12.357799 806.87939 1342.6158 4291677436
-54.172478 815.07666 1342.9875 4285954215
-51.710091 815.07666 1342.9875 4285098906
13.132722 813.82159 1341.9293 4291480569
-56.423855 821.35632 1341.7422 4287993558
-53.970642 821.35632 1341.7422 4287467467
13.492661 821.35632 1341.7422 4291480309
17.172478 821.35632 1341.7422 4291611639
-58.877064 823.23181 1343.3236 4290031593
-56.423855 823.23181 1343.3236 4289439457
-52.744034 823.23181 1343.3236 4288060370
13.492661 823.23181 1343.3236 4291151603
17.172478 823.23181 1343.3236 4291217653
21.99633 829.47644 1342.0487 4291348984
21.99633 831.34497 1343.6241 4291480571
9.930275 800.0238 1344.6836 4291414778
9.930275 801.92175 1346.2839 4291414012
12.412844 801.92175 1346.2839 4291414012
-49.431194 808.76892 1344.2091 4284702083
-49.431194 810.65845 1345.8022 4285162369
9.8862381 810.65845 1345.8022 4290953713
-51.710091 817.90045 1345.3684 4286545847
-49.247707 817.90045 1345.3684 4286020248
9.8495417 818.84167 1346.1621 4291348723
12.311927 816.95923 1344.5748 4291481077
-61.330276 825.10736 1344.905 4290758133
-58.877064 825.10736 1344.905 4290165226
-56.423855 825.10736 1344.905 4289507553
-53.970642 825.10736 1344.905 4289309917
14.719266 826.0451 1345.6957 4291086069
17.172478 826.0451 1345.6957 4291283192
19.625689 826.98285 1346.4863 4291086069
-7.4752293 797.46002 1349.062 4290817489
7.4752293 797.46002 1349.062 4291349234
9.930275 803.8197 1347.8842 4291480058
-47.168808 805.71765 1349.4845 4284702083
9.930275 805.71765 1349.4845 4291414516
-49.431194 812.54797 1347.3955 4284769664
9.8862381 812.54797 1347.3955 4291152114
-46.959633 814.4375 1348.9886 4285428107
9.8862381 814.4375 1348.9886 4291217905
-49.247707 820.72424 1347.7494 4286877877
-46.78532 820.72424 1347.7494 4285956775
9.8495417 820.72424 1347.7494 4290822125
-51.710091 822.60675 1349.3367 4288060107
-49.247707 822.60675 1349.3367 4287926972
-46.78532 822.60675 1349.3367 4287071663
9.8495417 822.60675 1349.3367 4291151088
12.311927 822.60675 1349.3367 4291151088
-58.877064 828.85834 1348.0677 4291480575
-56.423855 828.85834 1348.0677 4291349247
-46.611008 830.73383 1349.649 4289043920
-44.157799 830.73383 1349.649 4289044433
14.719266 829.79608 1348.8584 4290888693
17.172478 829.79608 1348.8584 4291020280
19.625689 828.85834 1348.0677 4291151862
-25.009174 791.07227 1350.2163 4287857054
-22.508257 791.07227 1350.2163 4289567415
-20.007339 791.07227 1350.2163 4290161874
-17.506422 791.07227 1350.2163 4290556631
-22.508257 792.98425 1351.8285 4287925899
-20.007339 792.98425 1351.8285 4289964462
-16.255962 792.98425 1351.8285 4290819025
-12.504587 792.98425 1351.8285 4289963225
-10.00367 792.98425 1351.8285 4289503691
-7.5027523 792.98425 1351.8285 4290161622
-5.0018349 792.98425 1351.8285 4289834198
-13.704587 799.36499 1350.6682 4287005077
-7.4752293 799.36499 1350.6682 4290358996
7.4752293 799.36499 1350.6682 4291152110
-47.343121 801.26996 1352.2744 4284570747
-44.851376 801.26996 1352.2744 4284636286
-13.704587 801.26996 1352.2744 4284573060
-9.9669724 801.26996 1352.2744 4285426322
-7.4752293 801.26996 1352.2744 4288321214
7.4752293 801.26996 1352.2744 4291348723
-47.168808 808.56458 1351.885 4284966016
-44.686237 808.56458 1351.885 4284965510
7.4477062 809.51355 1352.6851 4291413494
-46.959633 816.32703 1350.5819 4285757081
-43.252296 817.27179 1351.3784 4285624460
-39.544952 818.21655 1352.175 4285621898
7.4146791 817.27179 1351.3784 4291347953
-61.559631 824.48926 1350.924 4291546623
-59.097248 824.48926 1350.924 4290693117
-55.403671 824.48926 1350.924 4290297332
-51.710091 824.48926 1350.924 4289045982
-49.247707 824.48926 1350.924 4288978126
-46.78532 824.48926 1350.924 4288122818
9.8495417 824.48926 1350.924 4291152112
12.311927 824.48926 1350.924 4291086319
-61.559631 826.37177 1352.5112 4292269823
-54.172478 826.37177 1352.5112 4290821364
-51.710091 826.37177 1352.5112 4289834469
-49.247707 826.37177 1352.5112 4289767642
-46.78532 826.37177 1352.5112 4288649162
-44.322937 826.37177 1352.5112 4288255421
-40.629356 826.37177 1352.5112 4287334319
9.8495417 826.37177 1352.5112 4291152112
12.311927 826.37177 1352.5112 4291152112
-44.157799 832.60938 1351.2305 4288782290
-40.477982 832.60938 1351.2305 4287071924
-30.14312 787.97894 1355.4563 4285951371
-27.631193 787.97894 1355.4563 4286806680
-20.095413 786.05859 1353.837 4289701071
-16.327522 787.0188 1354.6467 4289964503
-12.559633 787.97894 1355.4563 4289372882
-10.047707 787.97894 1355.4563 4288913096
-7.53578 787.97894 1355.4563 4289373647
-22.508257 794.89624 1353.4406 4284176237
-20.007339 794.89624 1353.4406 4284635777
-16.255962 794.89624 1353.4406 4287330723
-12.504587 794.89624 1353.4406 4289630912
-10.00367 794.89624 1353.4406 4290159302
-5.0018349 794.89624 1353.4406 4290031578
-2.5009174 794.89624 1353.4406 4291018729
2.5009174 794.89624 1353.4406 4291152375
5.0018349 794.89624 1353.4406 4291217905
-45.016514 796.80823 1355.0527 4284636027
-22.508257 796.80823 1355.0527 4284439162
-20.007339 796.80823 1355.0527 4284373371
-17.506422 796.80823 1355.0527 4285162630
-10.00367 796.80823 1355.0527 4288911550
-5.0018349 796.80823 1355.0527 4289834969
-2.5009174 796.80823 1355.0527 4291018986
1.2504587 796.80823 1355.0527 4291151353
5.0018349 796.80823 1355.0527 4291086317
-44.851376 803.17493 1353.8806 4284702081
-13.704587 803.17493 1353.8806 4284966802
-9.9669724 803.17493 1353.8806 4284835720
-7.4752293 803.17493 1353.8806 4287138219
7.4752293 803.17493 1353.8806 4291545332
-42.359634 805.07983 1355.4868 4284899717
-39.867889 805.07983 1355.4868 4285097091
-17.442202 805.07983 1355.4868 4285558673
-13.704587 805.07983 1355.4868 4285755537
-9.9669724 805.07983 1355.4868 4285033363
-7.4752293 805.07983 1355.4868 4284901521
-4.9834862 805.07983 1355.4868 4285691036
4.9834862 805.07983 1355.4868 4291413235
7.4752293 805.07983 1355.4868 4291347186
-43.444954 811.4115 1354.2854 4285359491
-39.7211 811.4115 1354.2854 4285491082
7.4477062 811.4115 1354.2854 4291282678
-39.7211 813.30945 1355.8857 4285687691
-37.238533 813.30945 1355.8857 4285753740
-34.755962 813.30945 1355.8857 4285753736
-32.273396 813.30945 1355.8857 4285753736
-29.790825 813.30945 1355.8857 4285753736
-13.654128 813.30945 1355.8857 4285953681
-9.930275 813.30945 1355.8857 4285952666
-7.4477062 813.30945 1355.8857 4284834185
-2.4825687 813.30945 1355.8857 4289769677
4.9651375 813.30945 1355.8857 4291479537
-43.252296 821.05078 1354.5649 4286677170
-39.544952 821.05084 1354.5649 4286019225
-37.073395 821.99561 1355.3615 4285822876
-34.601833 821.99561 1355.3615 4286083986
-32.130276 821.05084 1354.5649 4286149272
-28.422935 821.99561 1355.3615 4286150545
-24.715597 821.99561 1355.3615 4286217621
-14.829358 821.99561 1355.3615 4285230215
-2.4715595 821.99561 1355.3615 4292198120
7.4146791 821.05084 1354.5649 4291085808
-54.172478 828.25427 1354.0985 4290820842
-51.710091 828.25427 1354.0985 4290097375
-49.247707 828.25427 1354.0985 4290228193
-40.629356 828.25427 1354.0985 4287596725
-36.93578 829.19556 1354.8921 4286478754
9.8495417 829.19556 1354.8921 4291020273
12.311927 828.25427 1354.0985 4291152114
-30.980429 791.17963 1358.1549 4284570235
-27.631193 790.8595 1357.885 4285227910
-25.119267 790.8595 1357.885 4285360241
-2.5119267 789.89935 1357.0754 4291281645
0.83730888 790.53949 1357.6151 4291020528
5.0238533 789.89935 1357.0754 4291480823
-42.515594 799.67615 1357.4709 4284702080
-40.014679 799.67615 1357.4709 4284898940
-25.009174 799.67615 1357.4709 4285163137
-22.508257 799.67615 1357.4709 4285162881
-20.007339 799.67615 1357.4709 4284834442
-17.506422 799.67615 1357.4709 4285229200
-5.0018349 799.67615 1357.4709 4288256202
-2.5009174 799.67615 1357.4709 4290953715
1.2504587 799.67615 1357.4709 4291151350
5.0018349 799.67615 1357.4709 4291085295
-42.359634 806.98486 1357.093 4285162632
-39.867889 806.98486 1357.093 4285293702
-17.442202 806.98486 1357.093 4285821845
-13.704587 806.98486 1357.093 4285821328
-9.9669724 806.98486 1357.093 4285820828
-7.4752293 806.98486 1357.093 4285294484
-4.9834862 806.98486 1357.093 4284705415
-2.4917431 806.98486 1357.093 4289705427
2.4917431 806.98486 1357.093 4291217137
4.9834862 806.98486 1357.093 4291216372
-37.376148 808.88977 1358.6993 4285425288
-34.884403 808.88977 1358.6993 4285490822
-32.392662 808.88977 1358.6993 4285490822
-17.442202 808.88977 1358.6993 4286083986
-13.704587 808.88977 1358.6993 4285953168
-9.9669724 808.88977 1358.6993 4286082971
-7.4752293 808.88977 1358.6993 4285161869
-4.9834862 808.88977 1358.6993 4283718268
-2.4917431 808.88977 1358.6993 4289442260
1.2458715 808.88977 1358.6993 4290954481
4.9834862 808.88977 1358.6993 4291019507
-37.238533 815.2074 1357.486 4285819533
-34.755962 815.2074 1357.486 4285951373
-32.273396 815.2074 1357.486 4285885324
-28.549541 815.2074 1357.486 4285688710
-24.825687 815.2074 1357.486 4285753736
-19.86055 815.2074 1357.486 4286346640
-17.377981 815.2074 1357.486 4286346640
-13.654128 815.2074 1357.486 4286215323
-9.930275 815.2074 1357.486 4285821330
-7.4477062 815.2074 1357.486 4284571263
-4.9651375 815.2074 1357.486 4286281099
-2.4825687 815.2074 1357.486 4290952402
4.9651375 815.2074 1357.486 4291150577
-37.073395 823.88513 1356.9547 4286413217
-34.601833 823.88513 1356.9547 4286412434
-32.130276 823.88513 1356.9547 4286478227
-28.422935 823.88513 1356.9547 4286412949
-24.715597 823.88513 1356.9547 4286151061
-22.244038 823.88513 1356.9547 4285953681
-19.772476 823.88513 1356.9547 4285558158
-17.300917 823.88513 1356.9547 4285031814
-14.829358 823.88513 1356.9547 4285161351
-2.4715595 823.88513 1356.9547 4291544063
7.4146791 823.88513 1356.9547 4291217137
-34.601833 825.77466 1358.5479 4286741398
-32.130276 825.77466 1358.5479 4286083725
-28.422935 825.77466 1358.5479 4285360779
-24.715597 825.77466 1358.5479 4284572028
-2.4715595 825.77466 1358.5479 4290953195
4.943119 825.77466 1358.5479 4290690539
7.4146791 825.77466 1358.5479 4291151090
-37.816513 787.32855 1361.448 4284372598
-35.295414 787.32855 1361.448 4284307325
-32.774311 787.32855 1361.448 4284702083
-42.702751 793.74011 1360.314 4284636027
-40.190826 793.74011 1360.314 4284636027
-35.166973 793.74011 1360.314 4284504438
-31.399082 793.74011 1360.314 4284438907
-27.631193 793.74011 1360.314 4284570241
-25.119267 793.74011 1360.314 4284373368
-37.678898 795.66052 1361.9331 4284833147
-35.166973 795.66052 1361.9331 4284636025
-31.399082 795.66052 1361.9331 4284767869
-27.631193 795.66052 1361.9331 4285031044
-37.51376 802.54413 1359.889 4285031298
-35.012844 802.54413 1359.889 4285097089
-31.261467 802.54413 1359.889 4285097090
-27.510092 802.54413 1359.889 4285097091
-25.009174 802.54413 1359.889 4285294472
-22.508257 802.54413 1359.889 4285294472
-20.007339 802.54413 1359.889 4284966536
-2.5009174 802.54413 1359.889 4290362339
1.2504587 802.54413 1359.889 4291150579
-37.51376 804.45612 1361.5012 4285359495
-35.012844 804.45612 1361.5012 4285293700
-31.261467 804.45612 1361.5012 4285162372
-27.510092 804.45612 1361.5012 4285228679
-25.009174 804.45612 1361.5012 4285228425
-22.508257 804.45612 1361.5012 4285228425
-20.007339 804.45612 1361.5012 4285229709
0 804.45612 1361.5012 4290953965
-27.409174 810.79474 1360.3055 4285687943
-24.917431 810.79474 1360.3055 4285491597
-22.425688 811.74719 1361.1086 4285754509
-19.933945 810.79474 1360.3055 4285952144
-17.442202 810.79474 1360.3055 4286018193
-4.9834862 810.79474 1360.3055 4284769410
1.2458715 811.74719 1361.1086 4291347952
-37.238533 817.10535 1359.0863 4285491849
-34.755962 817.10535 1359.0863 4285819542
-28.549541 817.10535 1359.0863 4286084490
-24.825687 817.10535 1359.0863 4286216076
-22.343119 817.10535 1359.0863 4286216076
-19.86055 817.10535 1359.0863 4286281620
-17.377981 817.10535 1359.0863 4286281620
-13.654128 817.10535 1359.0863 4285887641
-9.930275 817.10535 1359.0863 4285621650
-7.4477062 817.10535 1359.0863 4285687443
-4.9651375 817.10535 1359.0863 4287332536
-2.4825687 817.10535 1359.0863 4291609081
2.4825687 817.10535 1359.0863 4291085035
4.9651375 817.10535 1359.0863 4290888172
-22.343119 819.0033 1360.6866 4286151828
-19.86055 819.0033 1360.6866 4286019474
-17.377981 819.0033 1360.6866 4285822095
-12.412844 819.0033 1360.6866 4284703615
-9.930275 819.0033 1360.6866 4286211459
-7.4477062 819.0033 1360.6866 4288580007
-4.9651375 819.0033 1360.6866 4291277018
1.2412844 819.0033 1360.6866 4291019758
4.9651375 819.0033 1360.6866 4290822892
-34.601833 827.66418 1360.1411 4285887886
-32.130276 827.66418 1360.1411 4285098626
-28.422935 827.66418 1360.1411 4284440456
-24.715597 827.66418 1360.1411 4285163386
-2.4715595 827.66418 1360.1411 4290822377
2.4715595 827.66418 1360.1411 4291151090
4.943119 827.66418 1360.1411 4290887920
7.4146791 827.66418 1360.1411 4291216885
-37.073395 829.55371 1361.7343 4287469234
-34.601833 829.55371 1361.7343 4287796665
-32.130276 829.55371 1361.7343 4288191423
-28.422935 829.55371 1361.7343 4288979657
-24.715597 829.55371 1361.7343 4289702601
-2.4715595 829.55371 1361.7343 4290822890
0 829.55371 1361.7343 4290822125
-42.858715 789.25598 1363.0731 4284636027
-40.337616 789.25598 1363.0731 4284439162
-37.816513 790.21967 1363.8857 4284438905
-35.295414 789.25598 1363.0731 4284307573
-37.678898 797.58093 1363.5524 4285030783
-35.166973 797.58093 1363.5524 4285162623
-31.399082 797.58093 1363.5524 4285228417
-27.631193 797.58093 1363.5524 4284899967
-30.011009 806.36804 1363.1133 4285360266
-27.510092 806.36804 1363.1133 4285491595
-25.009174 806.36804 1363.1133 4285491595
-22.508257 806.36804 1363.1133 4285557388
-20.007339 806.36804 1363.1133 4285820815
0 814.60468 1363.5179 4291282415
-12.412844 820.90125 1362.2869 4286411418
-9.930275 820.90125 1362.2869 4288582826
-7.4477062 820.90125 1362.2869 4291280339
-4.9651375 820.90125 1362.2869 4291149311
1.2412844 820.90125 1362.2869 4291282408
4.9651375 820.90125 1362.2869 4290953965
-22.343119 822.79913 1363.8872 4284769664
-19.86055 822.79913 1363.8872 4284900743
-17.377981 822.79913 1363.8872 4286348189
-13.654128 822.79913 1363.8872 4290290881
-9.930275 822.79913 1363.8872 4291544803
-7.4477062 822.79913 1363.8872 4291413474
-4.9651375 822.79913 1363.8872 4291150575
1.2412844 822.79913 1363.8872 4290690795
-32.130276 831.44324 1363.3275 4289901529
-28.422935 831.44324 1363.3275 4290953434
-24.715597 831.44324 1363.3275 4291281129
-2.4715595 831.44324 1363.3275 4290822890
-22.343119 824.69708 1365.4874 4286216074
-19.86055 824.69708 1365.4874 4287069877
-17.377981 824.69708 1365.4874 4289241046
-13.654128 824.69708 1365.4874 4291083232
-9.930275 824.69708 1365.4874 4291413494
-7.4477062 824.69708 1365.4874 4291150579
-4.9651375 824.69708 1365.4874 4290822377
0 824.69708 1365.4874 4290822125
-22.343119 826.59503 1367.0878 4291083998
-19.86055 826.59503 1367.0878 4291018979
-17.377981 826.59503 1367.0878 4291018979
-13.654128 826.59503 1367.0878 4290756323
-9.930275 826.59503 1367.0878 4290559469
-7.4477062 826.59503 1367.0878 4290822640
-4.9651375 826.59503 1367.0878 4290822890
-34.755962 828.49298 1368.6881 4289835480
