# .PCD v0.7 - Point Cloud Data file format
VERSION 0.7
FIELDS x y z rgb
SIZE 4 4 4 4
TYPE F F F U
COUNT 1 1 1 1
WIDTH 1171
HEIGHT 1
VIEWPOINT 0 0 0 1 0 0 0
POINTS 1171
DATA ascii
0.88348621 763.81183 805.98102 4287731907
4.4174314 764.94708 804.9762 4288653272
7.951376 764.94708 804.9762 4289508329
16.78624 764.94708 804.9762 4286882798
19.436697 764.94708 804.9762 4291223295
21.203671 764.94708 804.9762 4294179071
40.640366 764.94708 804.9762 4294967295
43.359634 763.81183 805.98102 4294967295
1.7669724 766.29791 806.11523 4288061903
3.5339448 766.29791 806.11523 4288192721
43.290825 766.29791 806.11523 4294967295
4.697248 769.46198 804.85895 4288784603
7.6330276 769.01312 804.48047 4289442535
10.568808 768.56421 804.10205 4289445631
16.733946 768.56421 804.10205 4285239256
19.376146 768.56421 804.10205 4289777151
21.137615 768.56421 804.10205 4292601087
38.165134 769.01312 804.48047 4294967295
40.51376 769.23755 804.66974 4294967295
42.27523 769.91089 805.23743 4294967295
-1.7614679 771.25757 806.37292 4287205563
1.7614679 771.25757 806.37292 4287798475
4.4036698 771.25757 806.37292 4288850397
7.901835 773.51544 804.35266 4289968869
38.631191 773.51544 804.35266 4294967295
40.387157 773.51544 804.35266 4294967295
43.155964 771.25757 806.37292 4294967295
-3.5119267 776.20032 806.61646 4286350252
-1.7559633 776.20032 806.61646 4286876596
1.7559633 776.20032 806.61646 4287864259
4.3899083 774.85785 805.48462 4288259030
7.8853211 776.36035 804.13525 4289771754
37.674309 776.36035 804.13525 4294967295
40.387157 774.85785 805.48462 4294967295
43.021103 775.52905 806.05054 4294967295
-1.7522936 779.03961 806.39441 4287008181
1.7522936 779.03961 806.39441 4287798211
4.088685 778.14648 805.64142 4288455632
40.302753 777.69995 805.26489 4294967295
42.93119 778.36975 805.82965 4294967295
45.559631 779.03961 806.39441 4294967295
4.6581039 782.17511 805.1142 4288521173
7.8605499 781.95258 804.92651 4289376993
10.480734 781.28485 804.36353 4290362608
34.93578 781.28485 804.36353 4294967295
37.555962 781.28485 804.36353 4294967295
41.340672 781.72998 804.73883 4294967295
43.669724 782.6203 805.4895 4294967295
1.746789 783.95575 806.61548 4287731653
4.3614678 784.70142 805.93616 4288126926
7.8440366 785.44702 805.25684 4288983007
10.458715 784.7807 804.69501 4290099175
13.073395 784.78064 804.69507 4290758648
15.688073 784.7807 804.69501 4289970675
31.376146 784.11438 804.13318 4294967295
34.281345 784.55859 804.50775 4294967295
37.477066 784.7807 804.69501 4294967295
40.672783 785.00275 804.88232 4294967295
43.669724 783.95575 806.61548 4294967295
45.416515 783.95575 806.61548 4294967295
4.3577981 786.7796 806.38049 4288389331
7.8440366 786.7796 806.38049 4289179362
10.458715 786.7796 806.38049 4289901538
40.963303 786.7796 806.38049 4294967295
43.57798 786.7796 806.38049 4294967295
0.86880732 791.66907 806.57898 4287336897
4.6336389 791.22626 806.20563 4288324303
8.1088686 790.78351 805.83234 4289441507
10.425688 790.3407 805.45898 4289835232
12.742508 789.45508 804.71222 4290363378
15.638532 789.01227 804.33887 4285892031
33.883484 789.01227 804.33887 4294967295
37.793121 790.00854 805.17896 4294967295
39.965137 791.66907 806.57898 4294967295
-1.7321101 793.89331 804.5304 4286941610
6.9284406 793.89331 804.5304 4288718298
10.39266 793.89331 804.5304 4290098405
34.6422 793.89331 804.5304 4294967295
36.374313 793.89331 804.5304 4294967295
0.8642202 796.69751 804.27869 4287729086
4.3211012 796.69751 804.27869 4288257484
7.7779818 796.69751 804.27869 4289179616
10.370643 796.69751 804.27869 4289836513
12.963303 796.69751 804.27869 4289970161
32.840366 796.69751 804.27869 4294967295
34.568806 796.69751 804.27869 4294967295
37.503365 796.15228 805.56299 4294967295
39.838531 796.54175 806.76343 4294967295
5.1853213 798.01892 805.39282 4288717780
7.7779818 798.01892 805.39282 4289047524
34.568806 798.01892 805.39282 4294967295
37.161469 798.67963 805.94995 4294967295
39.754128 799.34033 806.50708 4294967295
5.1688075 801.55194 804.44775 4288717780
7.753211 802.21057 805.00305 4288850394
10.337615 801.55194 804.44775 4289311970
12.060551 801.55194 804.44775 4290430451
34.458717 801.55194 804.44775 4294967295
36.755966 802.43011 805.18817 4294967295
0.85963303 805.65521 805.29144 4287073965
4.2981653 804.99792 804.7373 4288191434
7.7366972 805.65515 805.29138 4288915411
10.315597 804.99792 804.73724 4289113828
12.607951 804.77887 804.55255 4290036215
15.473394 804.34076 804.18311 4283525278
20.631193 804.34076 804.18311 4289507553
24.069725 804.34076 804.18311 4290432255
27.508257 804.34076 804.18311 4291746559
31.806421 804.34076 804.18311 4294967295
34.385323 804.34076 804.18311 4294967295
37.004585 804.92078 805.98016 4294967295
40.445873 805.57794 806.5343 4294967295
-10.282569 809.16846 804.32959 4285360516
-7.7119265 809.16846 804.32959 4285557645
-4.2844038 809.16846 804.32959 4286282144
4.2844038 809.16846 804.32959 4287995077
7.7119265 809.16846 804.32959 4288915665
11.13945 809.16846 804.32959 4289705711
13.710092 809.16846 804.32959 4289707507
35.988991 809.16846 804.32959 4294967295
37.702751 809.16846 804.32959 4294967295
-3.9987767 810.91534 805.80255 4286151071
-1.7100917 811.94177 804.052 4286875567
0.85688072 811.78882 806.53906 4287074488
4.2844038 811.13367 805.98669 4287929537
7.7119265 810.47864 805.43433 4288915411
11.115597 811.94177 804.052 4289443055
13.680734 811.94177 804.052 4290296814
16.245872 811.94177 804.052 4291021556
19.666054 811.94177 804.052 4289313758
23.086239 811.94177 804.052 4289970922
25.651377 811.94177 804.052 4290889215
28.216515 811.94177 804.052 4291747326
31.636698 811.94177 804.052 4294967295
35.056881 811.94177 804.052 4294967295
37.702751 810.47864 805.43433 4294967295
40.273396 811.13373 805.98669 4294967295
42.844036 811.78882 806.53906 4294967295
-1.7100917 813.90283 805.70551 4286941106
4.2752295 814.55658 806.25671 4287929282
7.6954126 813.90289 805.70557 4289045714
11.115597 813.90289 805.70557 4289507053
13.680734 813.24915 805.1543 4290099685
35.911926 813.24915 805.1543 4294967295
37.622017 813.90283 805.70551 4294967295
39.902142 814.12079 805.88922 4294967295
42.752293 814.55658 806.25671 4294967295
11.93211 818.04608 805.2749 4289770484
13.636697 817.39453 804.72546 4289509613
16.193579 817.39447 804.72546 4290496245
19.602753 817.39447 804.72546 4291679484
23.011927 816.74292 804.17603 4292403455
25.568808 817.39453 804.72546 4289509353
28.125687 817.39453 804.72546 4290893819
31.534863 817.39447 804.72546 4294705151
34.944038 817.39447 804.72546 4294967295
37.500916 818.04608 805.2749 4294967295
39.205505 818.04608 805.2749 4294967295
6.8183484 819.34924 806.37366 4288455378
11.079817 819.34924 806.37366 4288718562
13.636697 819.34924 806.37366 4286944983
16.193579 819.34924 806.37366 4286813643
23.812843 820.80121 804.98193 4291745791
25.513762 820.80121 804.98193 4291087871
28.096331 820.0752 805.6778 4292404218
31.534863 819.34924 806.37366 4294573823
34.944038 819.34924 806.37366 4294967295
37.500916 819.34924 806.37366 4294967295
40.0578 819.34924 806.37366 4294967295
43.466972 819.34924 806.37366 4294967295
28.065138 822.10156 806.07837 4292536063
33.908257 826.86761 806.17273 4294967295
32.14312 828.31116 804.77393 4294967295
-13.105809 751.61212 808.12085 4283718549
46.466057 751.15674 807.73682 4294967295
48.253212 751.8399 808.31287 4294901759
-7.1266055 756.8493 808.61261 4285165965
48.104588 756.8493 808.61261 4294967295
-4.4403667 760.48401 807.75317 4286349475
-1.7761468 759.80505 807.18066 4287466932
0 759.80505 807.18066 4287730876
46.771866 760.71027 807.94391 4294967295
-7.1045871 762.52081 809.47058 4285493660
-4.436697 763.27625 808.7995 4286086565
-1.772477 764.03162 808.12842 4287205815
0 764.03162 808.12842 4287206595
47.020184 763.27625 808.7995 4294967295
-4.4311924 765.38672 809.271 4286218408
-1.7669724 767.6488 807.25427 4287008952
0.88348621 767.6488 807.25427 4287338696
44.174313 767.6488 807.25427 4294967295
46.899082 766.51776 808.26263 4294967295
-7.0678897 770.35052 809.53223 4285164683
-4.4174314 768.99963 808.39319 4286218663
0 768.99963 808.39319 4287009215
46.824768 769.67505 808.96265 4294967295
-7.9266057 773.95087 808.64392 4285624464
-4.697248 773.05304 807.8869 4286415009
-1.7614679 772.60419 807.50842 4287007927
0.587156 773.05304 807.8869 4287074487
44.036697 772.60419 807.50842 4294967295
45.798164 773.95087 808.64392 4294967295
47.559631 775.29749 809.7793 4294967295
-7.6091743 777.99023 808.12573 4285689736
-4.3899083 777.54279 807.74841 4286546336
0 778.21399 808.31439 4286876854
47.411011 778.88519 808.88037 4294967295
-4.380734 781.04913 808.08875 4286282649
-1.7522936 781.04907 808.08875 4287006898
0.87614679 781.04907 808.08875 4287139772
46.43578 781.04907 808.08875 4294967295
49.06422 781.71893 808.65356 4294967295
-4.380734 783.05853 809.78308 4286414230
-1.746789 785.2912 807.74146 4287007155
0.87339449 785.2912 807.74146 4287336899
46.289909 785.2912 807.74146 4294967295
49.06422 783.05853 809.78308 4294967295
-3.4862385 788.11224 807.50403 4286282914
-1.7431192 788.11224 807.50403 4287138223
0.87155962 788.11224 807.50403 4287205826
3.4862385 788.11224 807.50403 4287994827
40.963303 788.11224 807.50403 4294967295
43.57798 788.11224 807.50403 4294967295
46.549236 787.56689 808.78833 4294967295
49.783485 787.96204 809.99353 4294967295
41.834862 789.44489 808.62769 4294967295
43.57798 789.44489 808.62769 4294967295
45.902142 790.33331 809.37677 4294967295
41.123547 793.44037 808.07245 4294967295
43.440369 793.66174 808.25916 4294967295
41.570641 797.86597 807.88 4294967295
43.302753 797.86597 807.88 4294967295
46.046791 795.65436 809.93933 4294967295
40.618347 800.66174 807.62122 4294967295
43.21101 800.66174 807.62122 4294967295
45.034863 799.19012 808.99646 4294967295
44.07523 801.98315 808.73535 4294967295
46.667889 803.30457 809.84961 4294967295
48.396332 803.30457 809.84961 4294967295
-10.337615 806.82074 808.89026 4285294470
44.222015 805.94263 808.1499 4294967295
46.519264 806.82074 808.89026 4294967295
48.242203 806.82074 808.89026 4294967295
-7.4501529 808.72211 807.87738 4285360519
-5.1577983 809.59833 808.61621 4286282644
0.85963303 808.28394 807.50793 4286943154
41.262386 808.28394 807.50793 4294967295
43.841286 808.94116 808.06207 4294967295
46.420185 809.59833 808.61621 4294967295
48.13945 809.59833 808.61621 4294967295
-5.1577983 810.91272 809.72449 4286151313
48.999084 810.91272 809.72449 4294967295
-3.4275229 814.40924 808.74847 4286020007
-1.7137614 814.40924 808.74841 4286809270
0.68550456 814.14722 808.52753 4286942126
4.2752295 815.86395 807.35901 4288191427
7.6954126 815.86395 807.35901 4288915159
10.26055 815.86395 807.35901 4289046761
41.042202 815.86395 807.35901 4294967295
43.92416 814.94232 807.45392 4294967295
46.842815 813.97247 808.38019 4294967295
49.699081 815.71942 809.85315 4294967295
-1.7100917 817.82501 809.01257 4286743730
1.1400611 818.04291 809.19629 4287401392
4.2752295 817.17133 808.46143 4288255936
8.5504589 817.17133 808.46143 4288849879
47.027523 817.82501 809.01257 4294967295
4.2614679 821.30396 808.02197 4288190402
7.95474 821.08673 807.83881 4288784086
11.079817 821.30396 808.02197 4288982236
13.636697 820.6524 807.47253 4287403739
31.534863 820.6524 807.47253 4294441983
34.944038 820.6524 807.47253 4294967295
37.500916 821.30396 808.02191 4294967295
40.0578 821.30396 808.02191 4294967295
43.466972 821.30396 808.02191 4294967295
4.2559633 823.98047 808.97064 4288321993
6.8036699 823.40192 807.1748 4288324308
28.915596 823.40192 807.1748 4293259007
31.466972 823.40192 807.1748 4294376191
35.152294 823.83539 807.54028 4294901759
37.500916 823.25873 809.67004 4294967295
39.205505 823.25873 809.67004 4294967295
43.466972 823.25873 809.67004 4294967295
42.522934 826.00269 809.36768 4294443007
-13.431192 751.68549 810.79877 4284309370
50.14312 751.00092 810.22156 4294967295
-12.53578 753.73914 812.53027 4284573062
-10.722936 754.57251 810.61694 4284901266
-8.9357796 754.57251 810.61694 4285427610
50.040367 754.57251 810.61694 4294967295
51.933945 753.73914 812.53027 4294967295
-12.510092 756.62195 812.34497 4284507528
-10.689908 758.89246 810.33533 4284114319
-8.0174313 758.89246 810.33533 4285035418
50.040367 756.62195 812.34497 4294967295
-10.689908 760.93555 812.05804 4284835474
-8.9082565 760.25452 811.48376 4285427615
49.886238 760.25452 811.48376 4294967295
-7.9926605 763.87872 810.61548 4285296022
49.732109 763.87872 810.61548 4294967295
-7.985321 765.9892 811.08698 4285165201
49.732109 765.91553 812.33282 4294967295
-8.8623857 768.09686 811.55615 4285427087
47.708256 771.70142 810.67126 4294967295
49.475231 773.05225 811.8103 4294967295
49.321102 776.64417 810.91479 4294967295
51.082569 777.99084 812.05029 4294967295
-7.0238533 780.22766 810.01221 4285952900
50.922935 781.57013 811.14417 4294967295
52.678898 782.91254 812.27612 4294967295
49.940369 784.39819 810.9126 4294967295
52.568806 785.73785 812.04211 4294967295
49.783485 789.29749 811.11951 4294967295
52.403671 789.96521 811.6825 4294967295
54.150459 790.63293 812.24548 4294967295
46.192661 792.11011 810.875 4294967295
49.678898 792.77643 811.43683 4294967295
52.293579 793.44275 811.99866 4294967295
46.915596 796.98279 811.05945 4294967295
49.522018 796.98279 811.05945 4294967295
46.766972 800.51434 810.11304 4294967295
49.444954 799.41278 811.14624 4294967295
52.128441 798.31122 812.17944 4294967295
50.231194 801.83856 811.22961 4294967295
53.118042 802.27997 811.60181 4294967295
-12.099083 805.94739 812.07788 4284900993
-10.370643 805.94739 812.07788 4285162884
50.124771 804.62598 810.96375 4294967295
52.71743 805.28668 811.52081 4294967295
-7.753211 808.79651 810.55615 4285361029
49.965137 808.13794 810.00085 4294967295
51.688072 808.79651 810.55615 4294967295
-6.8917432 810.77234 812.22217 4285427587
-4.2981653 812.22711 810.83264 4286151581
49.858715 812.22711 810.83264 4294967295
52.494495 811.49976 811.5274 4294967295
-5.1577983 813.5415 811.94092 4286151313
52.437614 813.5415 811.94092 4294967295
-3.4275229 817.68469 811.51025 4286151333
49.699081 817.68469 811.51025 4294967295
51.412846 818.33978 812.06262 4294967295
-1.7100917 820.43976 811.21729 4286940589
0.85504586 820.43976 811.21729 4287269555
41.042202 821.09344 811.76843 4294967295
47.027527 820.43976 811.21729 4294967295
-1.7100917 822.40082 812.87085 4287071917
0.85504586 822.40082 812.87085 4287138223
44.319267 824.56189 810.76892 4294443007
47.027523 822.40082 812.87085 4294836223
49.592659 822.40082 812.87085 4294967295
43.421101 826.58411 811.16589 4294574079
-14.370643 750.09113 813.37854 4284506235
53.291134 751.46442 814.53644 4294967295
55.686237 752.15112 815.11536 4294967295
57.482571 752.83777 815.69434 4294967295
51.933945 755.10828 813.68469 4294967295
52.829357 757.16187 815.41632 4294967295
55.515594 757.84644 815.99353 4294967295
52.423237 760.26544 815.41699 4294967295
55.401836 760.72083 815.80103 4294967295
57.188992 760.72083 815.80103 4294967295
-10.689908 762.9787 813.78076 4284901261
51.667889 764.34082 814.9292 4294967295
57.903671 764.34082 814.9292 4294967295
60.576145 764.34082 814.9292 4294967295
49.732109 767.95233 814.05029 4294967295
52.396332 769.31024 815.19519 4294967295
58.612843 769.31024 815.19519 4294967295
61.277065 769.31024 815.19519 4294967295
52.288074 772.16211 814.98376 4294967295
53.009174 775.75397 814.08838 4294967295
52.844036 779.33746 813.18579 4294967295
54.776146 777.10486 815.22729 4294967295
58.310093 777.10486 815.22729 4294967295
54.605503 782.03082 815.45667 4294967295
59.009174 782.03082 815.45667 4294967295
58.824768 785.59747 814.53992 4294967295
55.255966 787.00867 814.42181 4294967295
57.825687 788.41711 814.30127 4294967295
55.111927 790.86255 814.40112 4294967295
57.644035 791.96838 813.37146 4294967295
52.293579 794.77539 813.12231 4294967295
55.023853 793.9715 815.06055 4294967295
58.517429 793.9715 815.06055 4294967295
54.036697 796.10803 814.24597 4294967295
55.603668 800.96802 814.41968 4294967295
57.341286 802.29645 815.53979 4294967295
-10.39266 805.81122 814.57922 4285162882
55.427525 805.14911 814.02094 4294967295
57.159634 805.81122 814.57922 4294967295
-10.39266 807.13544 815.6958 4284966786
-8.6422014 808.59015 814.30634 4285427080
53.58165 807.2688 813.19214 4294967295
55.310093 808.59021 814.30627 4294967295
57.933945 808.88721 815.21069 4294967295
61.734558 808.06085 815.604 4294967295
-6.8917432 812.08954 813.33276 4285361540
55.133945 812.08954 813.33276 4294967295
-7.753211 814.06531 814.99866 4285427336
-5.1577983 814.8559 813.04919 4286085520
52.437614 814.8559 813.04919 4294967295
55.995415 814.06531 814.99866 4294967295
58.579815 814.72394 815.55396 4294967295
-6.8770642 816.82751 814.71161 4285493382
-5.1577983 816.17029 814.15747 4286085520
53.297249 816.17029 814.15747 4294967295
55.016514 816.82751 814.71161 4294967295
-4.2844038 820.30505 813.71973 4286085529
49.699081 819.64996 813.16736 4294967295
52.269726 820.30505 813.71973 4294967295
54.840366 820.96014 814.27209 4294967295
-4.2844038 822.27032 815.37671 4286281887
-1.7100917 823.70819 813.97314 4287005868
0 823.70819 813.97314 4286809510
47.027523 823.70819 813.97314 4294770687
49.699081 822.27032 815.37671 4294967295
52.269726 822.27032 815.37671 4294967295
-1.7100917 825.01556 815.07544 4287006381
57.658714 749.1897 816.54248 4294967295
59.460552 751.25598 818.28473 4294967295
53.889908 754.21106 816.85229 4294967295
55.686237 754.21106 816.85229 4294967295
58.081348 755.12665 817.62427 4294967295
59.097248 759.21558 817.14783 4294967295
53.614677 762.0871 816.95312 4294967295
55.401836 762.0871 816.95312 4294967295
52.558716 765.70288 816.07776 4294967295
55.231194 766.38391 816.65198 4294967295
57.606731 766.15692 816.46063 4294967295
60.576145 765.70288 816.07776 4294967295
55.948624 770.66809 816.34009 4294967295
58.612843 770.66809 816.34009 4294967295
60.388992 770.66809 816.34009 4294967295
55.891743 772.77161 816.80566 4294967295
58.491745 773.51715 816.12634 4294967295
60.264221 773.51715 816.12634 4294967295
56.719265 774.87225 817.26892 4294967295
61.150459 774.87225 817.26892 4294967295
55.954128 778.90601 816.74603 4294967295
58.310093 778.45575 816.36633 4294967295
61.255047 778.90601 816.74603 4294967295
56.366974 783.37744 816.59216 4294967295
56.073395 791.09644 816.56042 4294967295
55.897247 795.97467 816.74951 4294967295
58.517433 795.97467 816.74951 4294967295
62.011009 795.97467 816.74951 4294967295
58.685013 799.21747 816.86768 4294967295
61.880733 799.43958 817.05499 4294967295
-13.03211 803.62488 816.65979 4284637567
59.078899 803.62488 816.65979 4294967295
61.685318 803.62488 816.65979 4294967295
-12.742508 805.39618 818.15332 4284965502
-13.856881 809.78381 817.92883 4284768124
-10.39266 808.45966 816.81226 4284966786
61.489906 809.1217 817.37054 4294967295
64.088074 809.78381 817.92883 4294967295
-10.370643 811.89374 817.09174 4284900739
-8.6422014 811.23303 816.53467 4285427083
57.902752 811.23303 816.53467 4294967295
61.071564 812.11395 817.2774 4294967295
63.952293 812.55444 817.6488 4294967295
-12.963303 813.87585 818.76294 4284899460
-12.060551 818.01697 818.33057 4284899458
-10.337615 817.35834 817.77521 4285097349
-8.0354738 817.39948 816.93799 4285492620
56.796329 817.4201 816.51935 4294967295
58.517433 817.4201 816.51935 4294967295
61.131195 817.05994 816.86963 4294967295
63.680733 817.4201 816.51935 4294967295
-7.7366972 820.77069 818.0365 4285557901
56.162689 820.55157 817.85175 4294967295
58.455048 820.77063 818.03644 4294967295
61.033943 820.77069 818.0365 4294967295
-4.5700307 824.01727 816.84967 4286282397
52.269726 823.58051 816.48145 4294705151
55.411621 824.45392 817.21796 4294967295
58.267891 824.89069 817.58618 4294967295
55.57798 827.63037 817.28015 4294770687
59.124771 826.20087 818.69092 4294967295
61.695412 826.20087 818.69092 4294967295
56.433029 828.93774 818.38257 4294967295
58.14312 828.93774 818.38257 4294967295
56.251377 832.38092 817.36169 4294967295
59.092358 832.81537 817.72797 4294967295
-13.944954 804.10382 820.98779 4285031294
-19.113762 808.93854 821.14026 4284505483
-16.507339 808.27429 820.5802 4284768378
-12.163302 807.61011 820.02014 4285228675
-15.588991 811.77014 819.6037 4284834173
-12.990826 811.10803 819.04541 4284899710
-16.455046 813.75647 821.27844 4284702585
-13.827523 815.19727 819.8772 4284701822
-13.827523 816.51862 820.99133 4284702079
-12.922018 820.65137 820.55182 4285096827
-10.337615 819.99274 819.99646 4285557638
-10.315597 823.39941 820.25293 4285162882
-7.7366972 823.39941 820.25293 4285887118
60.174313 822.74225 819.69885 4294967295
-12.034863 825.37103 821.91528 4285621625
-10.315597 825.37103 821.91528 4285755271
-7.7366972 825.37103 821.91528 4286347664
59.981651 827.51111 819.79565 4294967295
61.695412 827.51111 819.79565 4294967295
61.695412 828.82129 820.90027 4294967295
56.433029 831.55249 820.58728 4294705151
58.14312 832.20618 821.13843 4294705151
-19.808807 811.86115 823.60437 4283849593
-17.376146 811.5954 823.38037 4284702585
-15.588991 815.08069 822.39502 4284768376
-16.732721 817.32471 823.41504 4284833655
-16.420183 819.82214 823.77679 4284766570
-16.080734 823.50531 822.95819 4285028706
-13.209174 823.06622 822.58795 4285424506
-12.894495 826.68542 823.02356 4287069589
-12.922018 826.57874 825.54968 4285753223
66.377983 822.68335 839.26965 4294836223
61.458717 817.81622 841.70593 4294377471
63.21468 817.81622 841.70593 4294246399
59.702751 819.15869 842.83789 4294639615
61.458717 819.15869 842.83789 4294377215
64.39679 820.5686 841.41052 4294639615
66.377983 824.0188 840.39563 4294443007
-21.137615 817.04388 844.97876 4283255135
-19.376146 817.04388 844.97876 4282992219
63.799999 821.39606 844.72443 4294377471
66.587158 823.24786 843.66968 4294377215
-25.541285 818.39056 846.11426 4283255387
-22.018349 818.39056 846.11426 4283321183
-19.436697 816.27997 848.25879 4283189344
60.86422 817.33527 847.18652 4294442239
-25.541285 820.41052 847.8175 4283322472
-22.018349 820.41052 847.8175 4283387749
61.651375 819.73718 847.24976 4294508543
63.412846 821.08386 848.38525 4294443007
-26.339449 824.52844 847.3656 4283782513
64.970642 823.18604 846.23364 4294114559
-24.583487 825.87091 848.49744 4284110194
-24.53211 828.60645 848.18787 4284175989
-22.779816 828.60645 848.18787 4284175989
-16.855045 812.78833 850.54681 4283189083
-17.133944 815.07275 851.16486 4283189342
58.491745 814.16937 850.4032 4294443007
-19.436697 818.30627 849.96729 4283255906
60.960548 818.30627 849.96729 4294245887
-21.203671 820.33252 851.67578 4283321964
61.844036 820.33252 851.67578 4294377471
-24.660551 822.43048 849.52063 4283716719
-22.899082 823.10382 850.08838 4283847792
63.412846 823.10382 850.08838 4294114303
-16.034863 809.28967 852.82898 4283189081
-14.253211 810.65173 853.97742 4283189844
-14.209174 814.79919 853.55029 4283190113
58.612843 814.12024 852.97778 4294311935
-19.497248 818.23462 853.83093 4283124584
-17.133944 817.33124 853.06915 4283124836
60.264221 817.55707 853.25964 4294114559
-21.203671 821.68341 852.81482 4283848308
-19.497248 819.58966 854.97351 4283979637
62.036697 819.58966 854.97351 4294179583
63.611008 823.0343 853.95386 4293982719
-14.326606 805.76501 856.39722 4282927178
-12.522936 808.52075 857.41272 4283189593
57.188992 809.90747 857.27393 4294180607
-12.47156 814.73804 857.42285 4283388007
58.794495 814.05701 856.84863 4294311679
-16.57737 817.74121 856.03094 4283520367
-14.209174 817.51489 855.84015 4283388522
60.388992 818.19385 856.4126 4294179583
-21.313761 819.55176 857.5575 4283979891
-19.537615 819.55176 857.5575 4284045684
-16.873394 819.55176 857.5575 4284045936
-14.209174 819.55176 857.5575 4283848308
61.212845 820.24829 856.83679 4294113791
63.611008 824.38513 855.0929 4293916927
-14.414679 799.46912 858.93683 4282531662
-12.612844 801.5354 860.67908 4282927178
58.559631 801.5354 860.67908 4294574079
-10.777982 805.71014 860.27502 4282993504
55.686237 805.71014 860.27502 4294180351
57.482571 805.0235 859.69604 4294377215
-10.744954 809.87231 859.86035 4283256169
55.515594 809.87231 859.86035 4293852159
-12.510092 811.27374 858.42603 4283190627
57.188992 811.95691 859.00201 4294114559
-10.722936 814.00635 860.72998 4283649643
-12.916971 817.80267 860.00696 4283848563
58.081837 817.18976 859.49005 4294113535
-21.313761 820.90961 858.70251 4284373368
-19.537615 820.90961 858.70251 4284307575
-16.873394 820.90961 858.70251 4284307829
61.277065 820.90961 858.70251 4294113535
-21.313761 822.26752 859.84741 4284570747
60.981037 822.72015 860.229 4293982719
54.990826 778.34064 863.35828 4294770687
56.65321 781.18762 861.83478 4294705151
56.65321 783.28339 863.60193 4294770687
58.480736 783.28339 863.60193 4294639615
-10.93211 786.81641 862.65674 4286349207
58.304588 788.20935 863.83118 4294508543
-10.910091 791.02057 863.58557 4281481306
58.187157 791.02057 863.58557 4294180351
60.005505 791.02057 863.58557 4294508543
-12.689908 793.84094 862.03949 4281874001
58.917431 794.53394 862.62378 4294639615
-9.0642204 795.91986 863.79236 4282926426
56.198166 795.91986 863.79236 4294443007
-12.651376 798.03888 861.65491 4283057742
-9.9403667 799.42065 862.81995 4282861658
52.412846 800.80237 863.98499 4294180351
56.027523 799.42059 862.81995 4294443007
58.738533 798.03888 861.65491 4294508543
61.449543 798.03888 861.65491 4294508543
54.055046 802.9129 861.84058 4294311679
-9.0091743 804.29047 863.00208 4283124834
54.055046 804.29047 863.00208 4294115071
-8.9816513 809.14343 863.16992 4283190377
52.991745 808.45679 862.59094 4293851903
-10.744954 811.24139 861.01477 4283256171
53.72477 811.9259 861.59198 4294048767
55.515594 811.9259 861.59198 4294048767
-10.722936 815.37268 861.88208 4284176237
-8.9541283 813.97961 863.32349 4284308079
53.72477 813.97961 863.32349 4294048511
55.401836 815.37268 861.88208 4293982719
-10.722936 816.73895 863.03406 4284768376
-8.9357796 816.73895 863.03406 4284834169
55.401836 816.73895 863.03406 4294048511
57.188992 816.73895 863.03406 4294179583
-19.598166 820.86743 862.591 4284636286
-16.925688 820.86743 862.591 4284570747
-13.659328 820.64044 862.3996 4284308860
58.200611 821.09442 862.78241 4294048511
49.78899 772.63391 866.39478 4294639615
51.633026 772.63391 866.39478 4294639615
52.70459 775.72363 865.07587 4294770687
-4.5963302 777.59772 866.65601 4286414750
49.640366 777.59772 866.65601 4294574079
52.318352 778.66986 865.59796 4294508543
54.990826 779.742 864.53992 4294443007
-9.1651373 782.54474 866.90308 4286283414
53.157799 781.84406 866.31232 4294574079
54.990826 781.84406 866.31232 4294180351
56.65321 784.68054 864.77991 4294180863
58.480736 784.68054 864.77991 4294508543
-10.965137 786.0777 865.95801 4285426574
52.998165 786.0777 865.95801 4294114559
55.739449 786.0777 865.95801 4294311679
-9.1100922 789.60229 865.00574 4281415513
52.838531 790.99524 866.18018 4294967295
55.875229 790.53094 865.78876 4294311679
-10.000917 792.41071 864.75769 4281808977
54.550457 793.8009 865.92981 4294443007
54.385323 797.30579 864.96094 4294443007
-7.2513762 798.69177 866.12964 4283189342
-7.2293577 802.87494 865.73254 4282664033
50.605503 803.5658 866.31506 4294048511
52.412846 802.18408 865.15002 4294114559
-9.0091743 805.66797 864.16357 4283190375
52.253212 805.66797 864.16357 4293916927
-7.2073393 807.73425 865.9057 4283255655
50.451378 808.42297 866.48645 4294311935
-8.0834866 811.20337 864.90674 4283781484
52.093578 811.20337 864.90674 4294180351
-7.1633029 815.34869 864.47791 4284439668
52.909172 814.30603 865.56079 4294114559
-10.722936 818.10522 864.18616 4284636790
-8.0541286 817.74921 865.84802 4284505720
53.72477 817.40234 866.20953 4294114559
55.515594 816.71783 865.63232 4294114559
57.188992 818.10522 864.18616 4294179583
-12.510092 820.15466 865.91412 4284440449
-10.722936 820.15466 865.91412 4284506239
55.401836 820.15466 865.91412 4294180351
57.188992 820.83783 866.49011 4294180351
-17.22263 823.36456 864.69653 4284638599
-14.253211 823.59155 864.88794 4284572551
57.903671 823.59155 864.88794 4294180095
48.088074 771.89526 869.69604 4294639615
-3.6880734 774.0437 867.5835 4286282914
-1.8440367 775.45343 868.77222 4287335347
47.944954 776.86328 869.96094 4294508543
49.78899 774.0437 867.5835 4294574079
-4.5963302 779.0033 867.84119 4287202981
49.640366 779.0033 867.84119 4294901759
51.478901 779.0033 867.84119 4294770687
-7.3541284 780.40887 869.02637 4286412947
-4.5963302 780.40887 869.02637 4286543768
-1.8385321 780.40887 869.02637 4287266727
49.640366 780.40887 869.02637 4294639615
51.478901 780.40887 869.02637 4294311935
-9.1651373 783.94611 868.08472 4285492367
-7.3321099 783.94611 868.08472 4285360275
-5.4990826 785.34747 869.26636 4281481054
49.491745 785.34747 869.26636 4294770687
51.324772 783.94611 868.08472 4294377471
-7.310092 788.17346 867.72504 4281612117
51.779816 787.94061 867.52863 4294770687
54.825687 787.47485 867.13599 4294311935
-5.4825687 790.26917 869.49207 4282796119
49.343121 790.26917 869.49207 4294311679
51.170643 790.26917 869.49207 4294443007
-7.2880735 792.38818 867.35474 4282796119
-5.4660549 793.78113 868.52917 4282861917
51.927521 793.08466 867.94196 4294180095
-7.2733946 795.19104 867.10193 4282861917
-4.8513761 796.5755 869.1413 4283124064
-1.8220184 795.17407 869.70374 4283189342
49.734558 796.5755 869.1413 4293982719
52.732109 795.19104 867.10193 4294311679
50.759632 800.0777 867.29822 4293982719
-4.5321102 802.84955 869.63538 4283124582
48.946789 801.46362 868.4668 4294114559
49.400608 805.40802 867.86847 4294442751
-4.5100918 808.75574 868.72906 4283716204
-1.8073394 807.71094 869.81018 4283848562
46.990826 807.71094 869.81018 4294901759
49.550461 809.80054 867.64795 4294639615
-4.2042813 811.63721 869.19659 4284242549
-1.8018348 811.86682 869.3902 4284177270
49.550461 811.86676 869.39026 4294574079
-5.3889909 814.63666 867.80164 4284439668
52.093578 814.63666 867.80164 4294311935
-5.3889909 816.01001 868.95959 4284440440
50.297249 816.01001 868.95959 4294770687
52.093578 816.01001 868.95959 4294377471
-8.0587158 820.14056 868.51825 4284704131
53.72477 820.14056 868.51825 4294180351
-12.510092 822.2041 867.64221 4284573577
-10.722936 822.2041 867.64221 4284769671
55.401836 822.88727 868.2182 4294508543
4.6651373 761.16992 872.42505 4288190409
7.46422 761.16992 872.42505 4288586453
9.3302755 761.16992 872.42505 4289309919
0 766.1759 872.7218 4287006631
44.521099 769.74677 871.80859 4294901759
46.376148 769.74677 871.80859 4294901759
48.231194 768.32861 870.61279 4294639615
46.238533 773.3092 870.88831 4294639615
48.088074 773.3092 870.88831 4294508543
0 774.72321 872.08057 4288255423
44.388992 774.72321 872.08057 4294508543
46.238533 774.72321 872.08057 4294443007
47.022934 778.97797 871.7439 4294508543
-4.5963302 781.81445 870.21143 4285162891
-1.8385321 781.81445 870.21143 4285360266
49.640366 781.81445 870.21143 4294901759
-3.6770642 783.22003 871.39661 4281808474
-1.8385321 783.22003 871.39661 4281742425
44.124771 784.62561 872.58179 4294114559
47.188992 784.15704 872.18671 4294311423
-4.2770638 787.216 870.8418 4282269524
-1.8330275 787.44952 871.0387 4282335319
46.742203 788.15021 871.62952 4294048767
49.491745 786.74884 870.44788 4294508543
-3.655046 791.66632 870.67017 4282927962
-1.827523 791.66632 870.67017 4282861913
46.742203 789.55157 872.81104 4294114815
49.343121 791.66632 870.67017 4293916927
47.515594 793.06348 871.84814 4294114559
-3.6440368 796.56702 870.87817 4283124832
-1.8220184 796.56702 870.87817 4283124832
46.765137 797.49561 871.66119 4294245887
-4.5458717 799.36145 870.61829 4283124581
-1.8183486 800.05652 871.20435 4283190373
47.277065 800.75159 871.79041 4294443007
45.458717 802.14172 872.96265 4294901759
-4.5321102 804.23547 870.80396 4283584620
-1.812844 804.23547 870.80396 4283716719
46.227524 804.92847 871.38824 4294836223
46.990826 809.09271 870.97522 4294901759
46.087158 810.47443 872.14026 4294770687
-3.6036696 813.93304 871.13245 4284506235
-1.8018348 814.62183 871.7132 4284441212
46.847706 814.62183 871.7132 4294836223
48.64954 814.62183 871.7132 4294836223
-4.4908257 818.06995 870.69653 4284704642
-1.7963303 818.75659 871.27539 4284836231
49.698471 818.29883 870.88947 4294705151
52.093578 818.06995 870.69647 4294377471
-4.4908257 820.12994 872.43335 4285098634
-1.7963303 820.12994 872.43335 4285098636
49.399082 820.12994 872.43335 4294770687
52.093578 820.12994 872.43335 4294836223
-13.431192 822.87872 870.82709 4285098125
-10.744954 822.87878 870.82709 4285098125
-7.8796334 823.28943 871.17346 4285229964
53.72477 822.87878 870.82709 4294705151
13.139449 755.41272 875.41895 4288060872
7.4862385 757.57806 873.32056 4288520919
10.293578 757.57806 873.32056 4289310687
10.605504 759.96271 875.33124 4289441247
13.100918 759.72424 875.13019 4289572575
37.431194 760.4397 875.7334 4294836223
40.238533 760.4397 875.7334 4294967295
43.981651 760.4397 875.7334 4294770687
1.866055 763.30988 874.22937 4287796404
4.3541284 763.07208 874.02887 4288059851
7.46422 762.59656 873.62793 4288717782
41.053211 764.02319 874.83081 4294967295
43.852295 764.02319 874.83081 4294705151
46.651375 764.02319 874.83081 4294639615
0 767.59833 873.92114 4287072676
42.79266 767.59833 873.92114 4294967295
1.8605504 769.02075 875.12048 4288453827
40.93211 769.02075 875.12048 4294639615
0 771.16498 873.00439 4287532725
43.284405 771.6377 873.40302 4294705151
0.92752296 775.06934 874.33441 4287203246
40.811008 774.0014 875.396 4294574079
43.464218 776.13721 873.27283 4294574079
1.2330276 778.02252 874.86237 4284438135
38.840366 778.96521 875.65723 4294639615
40.689907 778.96521 875.65723 4294443007
43.464218 777.55121 874.46497 4294443007
0.61467892 782.03247 874.31952 4281807444
40.568806 782.50238 874.7157 4294705151
43.027527 781.5625 873.92316 4294245887
46.100918 781.09259 873.52698 4293983231
1.8440367 783.91217 875.9043 4282795618
38.72477 783.91217 875.9043 4294770687
40.568806 783.91217 875.9043 4294770687
42.412846 783.91217 875.9043 4294639615
0.61284405 786.96826 874.55695 4282795618
43.511929 786.96826 874.55695 4294311935
0.91651374 790.95288 873.99268 4283189344
43.076149 790.95288 873.99268 4294180863
45.825687 790.95288 873.99268 4293984255
0.91651374 793.40747 874.10028 4283386977
3.666055 792.35425 875.17432 4283386723
40.326607 792.35425 875.17432 4294836223
42.946789 794.46063 873.02625 4294377471
45.688072 794.46063 873.02625 4294180863
1.2183486 796.32349 874.59698 4283322215
4.2642207 796.78925 874.98969 4283387491
7.310092 797.25494 875.38232 4283585383
10.051376 797.25494 875.38232 4283585131
40.205505 796.5564 874.79333 4294836223
42.6422 796.32355 874.59698 4294639615
0.60733944 800.28156 874.01025 4283453801
4.5550461 800.74585 874.40173 4283847528
9.1100922 800.74585 874.40173 4284110446
41.906422 800.74585 874.40173 4294770687
43.728439 800.04938 873.81445 4294770687
45.550457 799.35291 873.22717 4294770687
0.90917432 803.53186 874.13477 4283848558
4.5550461 802.13879 875.57617 4284110446
7.2880735 802.13879 875.57617 4284308079
10.021101 802.13879 875.57617 4284373876
40.995415 802.13879 875.57617 4294967295
43.640366 803.53186 874.13477 4294967295
1.8183486 804.922 875.30688 4283915381
3.6366973 804.922 875.30688 4284045684
41.822018 804.922 875.30688 4294967295
43.640366 804.922 875.30688 4294901759
0.60428137 808.39331 874.30975 4284243064
43.508255 809.0863 874.89398 4294967295
45.321102 807.00739 873.14111 4294836223
0 811.85614 873.3053 4284373368
45.183487 811.85614 873.3053 4294967295
0.6024465 814.159 875.24707 4284835202
43.376148 813.92871 875.05286 4294967295
45.183487 813.92871 875.05286 4294967295
46.247097 817.60645 874.2298 4294901759
-4.4908257 821.50323 873.59131 4285164683
-1.7963303 821.50323 873.59131 4285559187
0 819.44312 875.77844 4285691540
46.847706 819.44312 875.77844 4294901759
49.473396 820.47314 874.68488 4294967295
52.093578 821.50323 873.59131 4294967295
-12.574312 823.56317 875.32825 4285428895
-10.777982 823.56317 875.32825 4285492882
-8.3828745 823.79205 875.52124 4285492623
-4.4908257 823.56317 875.32825 4285558414
-1.7963303 823.56317 875.32825 4285755793
5.3614678 831.76819 875.7063 4286283929
8.042202 831.76819 875.7063 4286283675
10.722936 831.76819 875.7063 4286348705
1.7816514 836.53143 875.79846 4286611877
4.4541283 836.53143 875.79846 4286612127
8.314373 835.62335 875.0329 4286415010
10.689908 835.16931 874.65002 4286546084
7.1045871 838.56207 873.58655 4286611877
16.048624 749.63873 878.39856 4287927489
16.001835 753.24744 877.51721 4287469487
19.766972 754.68671 878.73083 4287800037
31.376146 754.20697 878.32635 4292141567
33.886238 754.68671 878.73083 4293521663
15.955046 757.56531 877.23389 4289376222
18.770641 758.28284 877.83887 4288389358
30.97156 758.28284 877.83887 4291090172
35.038528 757.8045 877.43555 4294310655
37.541283 756.84778 876.62891 4294836223
40.35688 756.84778 876.62891 4294967295
43.172478 756.84778 876.62891 4294967295
45.049541 756.84778 876.62891 4294377471
5.6146789 761.87048 876.93982 4288586451
7.4862385 761.87048 876.93982 4288455894
10.293578 761.87048 876.93982 4289375969
13.100918 761.87048 876.93982 4289901286
34.623852 761.87048 876.93982 4293457663
37.431194 761.87048 876.93982 4294901759
39.302753 761.87048 876.93982 4294967295
5.6146789 763.30133 878.14624 4288914382
7.4862385 763.30133 878.14624 4288587475
10.293578 763.30133 878.14624 4289442018
14.036697 763.30133 878.14624 4289901554
16.844036 763.30133 878.14624 4287599317
29.944954 763.30133 878.14624 4289839348
31.816513 763.30133 878.14624 4291089151
34.623852 763.30133 878.14624 4292799743
37.431194 763.30133 878.14624 4294967295
1.866055 765.44983 876.03369 4287993778
4.3541284 766.40088 876.83563 4288584901
35.455048 766.8764 877.23657 4293787647
37.321102 766.8764 877.23657 4294967295
39.809177 765.92529 876.43463 4294901759
1.8605504 770.44312 876.31982 4289044683
4.6651373 768.30304 878.43945 4289373895
7.46422 768.30304 878.43945 4289637589
34.522018 768.30304 878.43945 4292602623
37.321102 768.30304 878.43945 4294967295
40.001835 770.44312 876.31982 4294836223
4.9614677 772.33966 877.91895 4287795875
7.4422016 773.28796 878.71851 4288716446
35.35046 773.28796 878.71851 4294049279
37.21101 772.57678 878.11884 4294901759
39.07156 771.86554 877.51917 4294901759
3.7100918 776.12866 877.1897 4284044645
35.245872 776.83777 877.7876 4293787647
38.028442 776.12866 877.1897 4294705151
40.811008 775.41956 876.5918 4294508543
5.5651374 778.25598 878.98328 4281741392
7.4201837 778.25598 878.98328 4281150286
16.695414 778.25598 878.98328 4286019724
19.477982 778.25598 878.98328 4290426808
31.53578 778.25598 878.98328 4291349477
33.390827 778.25598 878.98328 4291285759
4.3155961 781.32184 877.64435 4282400603
7.3981652 781.79315 878.04175 4282860377
10.172478 781.79315 878.04175 4282664024
16.645872 781.79315 878.04175 4280628298
19.420183 781.79315 878.04175 4281482086
34.524769 781.32184 877.64435 4293257982
37.607342 780.85052 877.24689 4294376703
4.6100917 785.32196 877.09302 4282729824
7.3761468 785.32196 877.09302 4282794584
10.142202 785.32196 877.09302 4282992481
37.80275 785.32196 877.09302 4294245119
40.568806 785.32196 877.09302 4294639615
4.5963302 788.84235 876.13721 4283255137
7.3541284 788.84235 876.13721 4283123801
10.128441 787.78705 877.20947 4283255906
13.830275 786.73175 878.28174 4283256170
16.596331 786.73175 878.28174 4283387757
19.362385 786.73175 878.28174 4283453547
34.114677 786.73175 878.28174 4294441983
37.80275 786.73175 878.28174 4294246143
40.447708 788.84235 876.13721 4294574079
5.5155964 790.24792 877.32227 4283386723
7.3541284 790.24792 877.32227 4283518816
10.418349 790.71649 877.71729 4283453287
13.788991 791.65344 878.50745 4283650414
16.546789 791.65344 878.50745 4283912818
34.012844 791.65344 878.50745 4292602367
37.383484 790.71649 877.71729 4294770687
5.4990826 793.75562 876.35583 4283322468
7.3321099 793.75562 876.35583 4283519590
9.1651373 793.75562 876.35583 4283585383
38.49358 793.75562 876.35583 4294967295
13.747706 795.85767 878.1283 4283979381
16.497248 796.55835 878.71912 4284702079
19.246788 796.55835 878.71912 4284505981
21.99633 796.55835 878.71912 4284507267
29.32844 796.55835 878.71912 4283654268
32.383488 796.09125 878.3252 4284576691
34.827522 795.85767 878.1283 4293130495
37.577065 795.15698 877.53748 4294901759
7.310092 798.6521 876.56042 4283979117
10.965137 798.6521 876.56042 4284175987
13.401835 799.5835 877.3457 4284373368
16.447706 800.04926 877.7384 4284767874
19.188992 800.04926 877.7384 4284833921
21.930275 800.04926 877.7384 4284638087
31.981651 800.04926 877.7384 4281815413
34.722935 800.04926 877.7384 4290636799
37.464218 799.35071 877.14941 4294639103
40.205505 798.6521 876.56042 4294705151
5.4660549 803.5318 876.75073 4283979891
7.2880735 803.5318 876.75073 4284307573
10.021101 803.5318 876.75073 4284505209
13.706423 801.44641 878.9165 4284702077
16.447706 801.44641 878.9165 4284833921
19.188992 801.44641 878.9165 4284899713
22.844036 801.44641 878.9165 4284836232
25.585321 801.44641 878.9165 4285034126
28.326607 801.44641 878.9165 4285296778
31.93211 802.48914 877.83362 4282078579
34.618347 803.5318 876.75073 4288993022
37.351379 803.5318 876.75073 4292801535
40.084404 803.5318 876.75073 4294967295
1.8183486 806.31213 876.479 4284111479
4.5513763 805.61841 877.20209 4284111479
7.2880735 804.92474 877.92517 4284177019
10.021101 804.92474 877.92517 4284374652
28.241283 804.92474 877.92517 4285558926
31.885321 804.92474 877.92517 4283392122
34.618347 804.92474 877.92517 4287015875
37.351379 804.92474 877.92517 4292273151
40.953209 805.61841 877.20209 4294967295
4.8489299 808.16571 878.04181 4284638847
7.2733946 808.3974 878.23718 4284770176
9.0917435 809.09247 878.82324 4284966784
28.184402 809.09247 878.82324 4286150550
31.8211 809.09247 878.82324 4284442756
34.548622 809.09247 878.82324 4285431966
37.276146 809.09247 878.82324 4292141051
40.609787 808.16571 878.04181 4294967295
1.812844 811.16516 876.64685 4284769664
4.2299695 812.08911 877.42596 4285031810
34.444038 812.55109 877.81543 4286218655
37.163303 812.55109 877.81543 4292337146
41.091129 812.08911 877.42596 4294967295
5.4385319 813.93701 878.98401 4285294230
25.379816 813.93701 878.98401 4286018713
28.099083 813.93701 878.98401 4286348185
31.72477 813.93701 878.98401 4284770434
34.444038 813.93701 878.98401 4287008170
37.163303 813.93701 878.98401 4292600319
1.204893 816.46191 877.18878 4284835469
4.2171254 816.92255 877.57715 4285163150
34.339451 817.38306 877.96545 4289310140
37.050461 817.38306 877.96545 4293915391
40.665138 816.69226 877.38293 4294967295
43.376148 816.6922 877.38293 4294967295
45.183487 817.38306 877.96545 4294967295
0 820.82068 876.93982 4285691277
46.847706 820.82068 876.93982 4294967295
49.550461 820.82068 876.93982 4294967295
52.253212 820.82068 876.93982 4294967295
0.90091741 822.19818 878.10132 4286084502
4.5045872 822.19818 878.10132 4285823379
46.847706 822.19818 878.10132 4294967295
49.550461 822.19818 878.10132 4293590271
-10.777982 825.62317 877.06519 4285296280
-8.0834866 825.62317 877.06519 4285690266
-4.4908257 825.62317 877.06519 4286413723
-1.7963303 825.62317 877.06519 4286085522
0.89816517 826.99646 878.22302 4286019740
4.4908257 826.99646 878.22302 4286086553
8.0834866 826.99646 878.22302 4286020760
10.777982 826.99646 878.22302 4286151326
-7.1633029 829.03973 876.02185 4286217621
-4.4770641 829.72424 876.59906 4286217366
-1.7908257 829.72424 876.59906 4286282907
0.89541286 830.40881 877.17627 4286283166
3.5816514 830.40881 877.17627 4286283929
12.53578 830.40881 877.17627 4286348705
0.89357799 833.13452 876.8584 4286480289
4.4678898 833.13452 876.8584 4286349725
13.418348 832.45618 877.59448 4286480292
19.82477 751.08215 879.61572 4289773282
22.656881 751.80389 880.22424 4288391142
25.488991 751.80389 880.22424 4289970169
28.3211 751.80389 880.22424 4290957306
30.209175 751.08215 879.61572 4292469503
33.985321 751.08215 879.61572 4293719551
20.708258 756.12592 879.94434 4288389358
22.590826 756.84558 880.55109 4290559457
25.414679 756.84552 880.55103 4290297843
28.238533 756.12592 879.94434 4288654583
15.955046 759.71783 879.04883 4288455389
19.709175 760.43536 879.65381 4288718569
22.524771 761.15289 880.25879 4290759403
25.340366 761.15289 880.25879 4290627572
28.155964 760.43536 879.65381 4289969663
30.97156 759.71783 879.04883 4291154169
7.4862385 764.73218 879.35266 4288915925
10.293578 764.73218 879.35266 4289507298
14.036697 764.73218 879.35266 4290362090
16.844036 764.73218 879.35266 4290362339
19.651377 764.73218 879.35266 4289378528
22.458715 764.73218 879.35266 4286159067
25.266056 764.73218 879.35266 4288130275
29.009174 764.73218 879.35266 4290497018
31.816513 764.73218 879.35266 4290694655
33.688072 764.73218 879.35266 4291024639
10.293578 766.16296 880.55908 4290163426
14.036697 766.16296 880.55908 4290624741
16.844036 766.16296 880.55908 4291283430
19.651377 766.87842 881.16235 4291086836
22.458715 766.87842 881.16229 4290296815
24.95413 766.63989 880.96124 4289574377
29.009174 766.16296 880.55908 4290234623
31.816513 766.16296 880.55908 4290563583
7.46422 769.72961 879.64233 4288782532
10.263303 769.72961 879.64233 4290624738
13.995413 769.72961 879.64233 4291151340
16.794495 769.72961 879.64233 4291415281
26.124771 769.72961 879.64233 4290957561
28.923853 769.72961 879.64233 4288525544
31.722937 769.72961 879.64233 4289843967
34.522018 769.72961 879.64233 4293127167
10.263303 771.15625 880.84521 4289900222
13.995413 771.15625 880.84521 4291215846
16.794495 771.15625 880.84521 4292202746
19.593578 771.15625 880.84521 4292202999
22.39266 771.15625 880.84521 4292532216
25.191742 771.15625 880.84521 4292533247
28.923853 771.15625 880.84521 4289575916
31.722937 771.15625 880.84521 4289972981
33.588989 771.15625 880.84521 4291417599
5.5816512 774.71033 879.91785 4281610067
7.4422016 774.71033 879.91785 4281479260
10.233027 775.42151 880.51752 4281086037
14.26422 775.65863 880.71747 4283913077
16.744955 774.71033 879.91785 4288579759
19.53578 774.71033 879.91785 4292264428
22.326605 776.13275 881.11719 4292532223
25.117432 776.13275 881.11719 4294177535
28.838531 776.13275 881.11719 4293717503
31.629358 774.71033 879.91785 4290693608
33.48991 774.71033 879.91785 4290563839
13.912844 779.67419 880.17908 4281613393
22.26055 779.67419 880.17908 4283851944
25.043119 779.67419 880.17908 4293587711
28.753212 779.67419 880.17908 4294507007
31.53578 779.67419 880.17908 4292927226
13.871559 783.20715 879.23401 4282468196
16.645872 783.20715 879.23401 4281745757
19.420183 783.20715 879.23401 4280692808
22.194496 783.91418 879.83014 4281419366
24.968807 783.91418 879.83008 4286681775
28.667891 783.91418 879.83008 4292269810
31.442202 783.91418 879.83014 4294504447
34.216515 783.20715 879.23401 4293060607
13.830275 788.14154 879.47046 4283321963
16.596331 788.14154 879.47046 4283585135
19.362385 788.14154 879.47046 4283716470
22.128441 788.14154 879.47046 4283322757
24.968807 786.03516 881.61841 4281023073
28.623854 787.08838 880.54443 4286155457
31.348623 788.14154 879.47046 4293390591
34.114677 788.14154 879.47046 4294573823
19.362385 789.55133 880.65906 4284175987
23.050459 789.55133 880.65906 4284439938
25.816513 790.25623 881.25342 4284309378
28.582569 789.55133 880.65906 4281748347
31.348623 789.55133 880.65906 4287871227
14.708257 793.05902 879.69263 4284175989
16.546789 793.05902 879.69263 4284570747
19.304588 793.05902 879.69263 4284440694
23.288073 793.52759 880.08765 4284638597
25.73945 794.4646 880.87769 4284967306
28.190826 793.52759 880.08765 4283258749
31.255045 793.05902 879.69263 4286355392
23.829357 797.95972 879.90063 4284967053
25.662386 797.95972 879.90063 4285098634
28.411926 797.95972 879.90063 4284770179
13.706423 802.84363 880.09448 4284703616
16.447706 802.84363 880.09448 4284966532
19.188992 802.84363 880.09448 4284769412
22.844036 802.84363 880.09448 4285032847
25.585321 802.84363 880.09448 4285362062
10.021101 806.31769 879.09973 4284704386
13.665138 806.31769 879.09973 4284704388
16.398165 806.31769 879.09973 4284902024
19.131193 806.31769 879.09973 4285032841
22.77523 806.31769 879.09973 4285230222
25.508257 806.31769 879.09973 4285689238
28.241283 806.31769 879.09973 4285755283
