# .PCD v0.7 - Point Cloud Data file format
VERSION 0.7
FIELDS x y z rgb
SIZE 4 4 4 4
TYPE F F F U
COUNT 1 1 1 1
WIDTH 1140
HEIGHT 1
VIEWPOINT 0 0 0 1 0 0 0
POINTS 1140
DATA ascii
-31.772476 758.474 1282.1813 4287995075
-31.772476 760.34247 1283.7567 4287732157
-29.32844 760.34247 1283.7567 4287994060
-25.662384 760.34247 1283.7567 4287599555
-19.552294 760.34247 1283.7567 4287469230
-40.477982 754.77606 1285.6034 4286415005
-36.798164 754.77606 1285.6035 4286744485
-34.344955 754.77606 1285.6035 4286613422
-29.438532 754.77606 1285.6035 4288520139
-25.349848 755.08862 1285.8671 4287468990
-22.078899 755.71381 1286.3942 4287271354
-19.625689 754.77606 1285.6035 4287800263
-17.172478 754.77606 1285.6035 4290826484
-13.901528 755.08862 1285.8671 4291220973
-36.660549 764.07947 1286.9076 4287072174
-34.216515 763.1452 1286.1199 4286613421
-31.772476 763.1452 1286.1199 4287534523
-29.32844 763.1452 1286.1199 4287797441
-25.662384 763.14526 1286.1199 4287863229
-21.99633 763.1452 1286.1199 4287929273
-19.552294 763.1452 1286.1199 4287467959
-17.108257 763.1452 1286.1199 4286481063
-13.442202 763.1452 1286.1199 4287796147
-9.7761469 764.07947 1286.9076 4289375726
-7.3321099 764.07947 1286.9076 4291810047
-4.8880734 764.07947 1286.9076 4291548927
-2.4440367 764.07947 1286.9076 4291417343
-31.653212 770.5415 1285.8162 4287534776
-29.218349 770.5415 1285.8162 4287469251
-25.566055 770.5415 1285.8162 4287534782
-21.913761 770.5415 1285.8162 4288389830
-19.478899 770.5415 1285.8162 4287273151
-17.044037 770.5415 1285.8162 4285496996
-14.609175 770.5415 1285.8162 4285168263
-9.7394495 770.5415 1285.8162 4283260014
-2.4348624 770.5415 1285.8162 4291614458
-24.238533 779.37079 1285.4126 4287730622
-21.814678 779.37079 1285.4126 4288125379
-19.390825 779.37079 1285.4126 4287994311
-33.933945 781.22388 1286.9751 4286546854
-31.510092 781.22388 1286.9751 4287336370
-29.086239 781.22388 1286.9751 4287468208
-25.450459 781.22388 1286.9751 4287599286
-21.814678 781.22388 1286.9751 4288191173
-19.390825 781.22388 1286.9751 4287864007
-16.966972 781.22388 1286.9751 4288653522
-13.331193 781.22388 1286.9751 4290035180
-9.6954126 781.22388 1286.9751 4291349488
-7.2715597 781.22388 1286.9751 4290888937
-24.14679 785.76697 1284.2655 4287467704
-21.732111 785.76697 1284.2655 4288125377
-19.31743 785.76697 1284.2655 4287601352
-16.902752 785.76697 1284.2655 4287075008
-33.805504 787.61298 1285.822 4286547102
-31.390825 787.61298 1285.822 4287468204
-25.35413 787.61298 1285.822 4287598775
-21.732111 787.61298 1285.822 4288321729
-19.31743 787.61298 1285.822 4287928782
-16.902752 787.61298 1285.822 4287139266
-21.649542 793.974 1284.6454 4288059332
-19.244038 793.974 1284.6454 4287796932
-33.677063 795.81299 1286.196 4286480809
-31.271559 795.81299 1286.196 4287599033
-25.257797 795.81299 1286.196 4287600056
-21.649542 795.81299 1286.196 4287929281
-19.244038 795.81299 1286.196 4287666625
-9.5853214 803.97107 1286.5344 4291022322
-21.484404 812.08698 1286.8374 4288124085
-19.097248 812.08698 1286.8374 4288058558
-14.322936 812.08698 1286.8374 4288390603
-10.344342 811.4787 1286.3246 4290692853
-7.161468 811.17444 1286.0681 4290627064
-33.188992 825.86462 1286.6821 4286743967
-30.818348 825.86462 1286.6821 4287401641
-28.447706 825.86462 1286.6821 4287993269
-30.699083 832.06018 1285.366 4288058038
-40.477982 757.58936 1287.9755 4286612130
-36.798164 757.58936 1287.9755 4287006635
-34.344955 757.58936 1287.9755 4286547626
-22.078899 757.58936 1287.9755 4287533760
-17.172478 757.58936 1287.9755 4289969621
-13.492661 757.58936 1287.9755 4292073464
-2.4532111 757.58936 1287.9755 4291087612
-44.157799 759.46484 1289.5569 4286151576
-40.477982 759.46484 1289.5569 4286611874
-36.798164 759.46484 1289.5569 4287006635
-9.8128443 759.46484 1289.5569 4291678458
-7.359633 759.46484 1289.5569 4291941374
-4.9064221 759.46484 1289.5569 4291021566
-2.4532111 759.46484 1289.5569 4291021566
0 759.46484 1289.5569 4290759162
-43.992661 765.94794 1288.4832 4285953681
-40.326607 765.94794 1288.4832 4286414238
-36.660549 765.94794 1288.4832 4287006381
-34.216515 765.94794 1288.4832 4286613676
-31.772476 765.94794 1288.4832 4287468728
-29.32844 765.94794 1288.4832 4287403458
-25.662384 765.94794 1288.4832 4287732673
-21.99633 765.94794 1288.4832 4288193473
-19.552294 765.94794 1288.4832 4287535809
-17.108257 765.94794 1288.4832 4285759398
-13.442202 765.94794 1288.4832 4283521130
-9.7761469 765.94794 1288.4832 4282665065
-7.3321099 765.94794 1288.4832 4290165467
-4.8880734 765.94794 1288.4832 4291023615
-2.4440367 765.94794 1288.4832 4291221247
0 765.94794 1288.4832 4290366716
-34.088074 772.40302 1287.3857 4286483110
-31.653212 772.40302 1287.3857 4287404212
-29.218349 772.40302 1287.3857 4287535296
-25.566055 772.40302 1287.3857 4287666367
-21.913761 772.40302 1287.3857 4287929281
-19.478899 772.40302 1287.3857 4287141312
-17.044037 772.40302 1287.3857 4286680762
-13.391743 772.40302 1287.3857 4287338414
-9.7394495 772.40302 1287.3857 4288783797
-7.3045874 772.40302 1287.3857 4290099914
-4.8697248 772.40302 1287.3857 4291282678
-2.4348624 772.40302 1287.3857 4291940607
-36.522934 774.26447 1288.9552 4286809510
-34.088074 774.26447 1288.9552 4286744226
-31.653212 774.26447 1288.9552 4287665328
-29.218349 774.26447 1288.9552 4287666366
-25.566055 774.26447 1288.9552 4288126145
-21.913761 774.26447 1288.9552 4288125629
-19.478899 774.26447 1288.9552 4287337159
-17.044037 774.26447 1288.9552 4286876608
-13.391743 774.26447 1288.9552 4289704396
-9.7394495 774.26447 1288.9552 4291415018
-7.3045874 774.26447 1288.9552 4291678190
-4.8697248 774.26447 1288.9552 4291349757
-2.4348624 774.26447 1288.9552 4291744511
0 774.26447 1288.9552 4291219956
-36.3578 783.0769 1288.5375 4286874533
-33.933945 783.0769 1288.5375 4286611875
-31.510092 783.0769 1288.5375 4287467184
-29.086239 783.0769 1288.5375 4287665078
-26.662386 783.0769 1288.5375 4287599285
-13.331193 783.0769 1288.5375 4289312229
-9.6954126 783.0769 1288.5375 4291218418
-7.2715597 783.0769 1288.5375 4290823661
-4.8477063 783.0769 1288.5375 4290823413
-36.220184 791.30505 1288.9351 4286874279
-33.805504 790.38202 1288.1567 4286546593
-31.390825 790.38202 1288.1567 4287401902
-28.976147 790.38202 1288.1567 4287730874
-25.35413 790.38202 1288.1567 4287664569
-21.732111 789.45898 1287.3785 4288321729
-19.31743 789.45898 1287.3785 4287862471
-16.902752 790.38202 1288.1567 4287204540
-13.280735 790.38208 1288.1567 4289115112
-9.6587152 790.38202 1288.1567 4291219192
-7.2440367 790.38202 1288.1567 4290758641
-4.8293576 790.38202 1288.1567 4290824179
-36.082569 797.65204 1287.7466 4286939291
-33.677063 797.65204 1287.7466 4286677679
-31.271559 797.65204 1287.7466 4287796417
-28.866055 797.65204 1287.7466 4287863214
-25.257797 797.65204 1287.7466 4287731122
-21.649542 797.65204 1287.7466 4288191425
-19.244038 797.65204 1287.7466 4287732418
-16.838531 797.65204 1287.7466 4287074745
-14.433027 797.65204 1287.7466 4286747590
-40.893578 799.49109 1289.2972 4286414230
-37.285324 799.49109 1289.2972 4286807961
-33.677063 799.49109 1289.2972 4286546602
-31.271559 799.49109 1289.2972 4287796669
-28.866055 799.49109 1289.2972 4287666614
-25.257797 799.49109 1289.2972 4287600054
-21.649542 799.49109 1289.2972 4287862714
-19.244038 799.49109 1289.2972 4287928770
-16.838531 799.49109 1289.2972 4287402170
-13.230275 799.49109 1289.2972 4288590044
-9.6220188 799.49109 1289.2972 4290957048
-7.2165136 799.49109 1289.2972 4290693619
-4.8110094 799.49109 1289.2972 4290693108
-26.359632 805.80304 1288.0791 4287599287
-21.566973 805.80304 1288.0791 4288123831
-19.170643 805.80304 1288.0791 4287993028
-16.774311 805.80304 1288.0791 4288190407
-14.377981 805.80304 1288.0791 4287865024
-10.783486 805.80304 1288.0791 4290562031
-7.1889906 805.80304 1288.0791 4290561267
-4.7926607 805.80304 1288.0791 4290561521
-34.746788 807.63507 1289.6239 4286414495
-31.152294 807.63507 1289.6239 4287467956
-28.755962 807.63507 1289.6239 4287534526
-26.359632 807.63507 1289.6239 4287337147
-22.765137 807.63507 1289.6239 4287926708
-19.170643 807.63507 1289.6239 4287993028
-16.774311 807.63507 1289.6239 4288453579
-14.377981 807.63507 1289.6239 4287930815
-11.981651 807.63507 1289.6239 4290365412
-4.7926607 807.63507 1289.6239 4290561269
-2.3963304 807.63507 1289.6239 4290956027
-34.613762 814.82446 1289.1456 4286546080
-31.033028 814.82446 1289.1456 4287598769
-28.645872 815.73694 1289.915 4287664828
-26.258715 815.73694 1289.915 4287730622
-22.67798 814.82446 1289.1456 4287861174
-19.097248 814.82446 1289.1456 4287599802
-16.710093 814.82446 1289.1456 4287665596
-14.322936 814.82446 1289.1456 4287404743
-10.742202 814.82446 1289.1456 4290364917
-7.161468 814.82446 1289.1456 4290824442
-4.774312 814.82446 1289.1456 4290823663
-33.317432 821.46045 1289.5088 4286678172
-30.937614 821.46045 1289.5088 4287467688
-28.557798 821.46045 1289.5088 4287598774
-26.177982 821.46045 1289.5088 4287730360
-22.211622 820.854 1288.9974 4287665082
-19.038532 820.55072 1288.7417 4287469757
-16.658716 821.46045 1289.5088 4286483119
-14.278899 820.55072 1288.7417 4286090161
-11.105809 820.854 1288.9974 4290036718
-7.1394496 820.55072 1288.7417 4290824188
-4.7596331 821.46045 1289.5088 4290495472
-33.188992 827.677 1288.2102 4286941860
-30.818348 827.677 1288.2102 4287468204
-28.447706 827.677 1288.2102 4287731124
-26.077065 827.677 1288.2102 4287862710
-40.300919 829.48938 1289.7384 4287070879
-34.374313 829.48938 1289.7384 4287334827
-28.447706 829.48938 1289.7384 4288190128
-26.077065 829.48938 1289.7384 4288124335
-18.965137 829.48938 1289.7384 4288059836
-16.594496 829.48938 1289.7384 4287730872
-49.247707 754.83624 1292.1943 4285428105
-46.78532 754.83624 1292.1943 4286086035
-44.322937 754.83624 1292.1943 4286151576
-9.8495417 754.83624 1292.1943 4292073725
-7.387156 754.83624 1292.1943 4291678967
-4.9247708 754.83624 1292.1943 4291153405
0 754.83624 1292.1943 4290956796
-46.611008 761.34033 1291.1383 4286019988
-44.157799 761.34033 1291.1383 4286151061
-40.477982 761.34033 1291.1383 4286414238
0 761.34033 1291.1383 4290891516
-49.06422 763.21582 1292.7196 4285362314
-46.611008 763.21582 1292.7196 4285888658
2.4532111 763.21582 1292.7196 4290235387
4.9064221 763.21582 1292.7196 4290365169
-48.880733 767.81641 1290.0586 4285362312
-46.436699 767.81641 1290.0586 4286020242
-43.992661 767.81641 1290.0586 4286019476
-40.326607 767.81641 1290.0586 4286414239
-36.660549 767.81641 1290.0586 4287006381
-34.216515 767.81641 1290.0586 4286547880
-12.220183 767.81641 1290.0586 4284181368
-7.3321099 767.81641 1290.0586 4288589503
-4.8880734 767.81641 1290.0586 4291022320
0 767.81641 1290.0586 4291220217
-48.880733 769.68494 1291.634 4285230215
-46.436699 769.68494 1291.634 4285953681
-43.992661 769.68494 1291.634 4286019990
-40.326607 769.68494 1291.634 4286283165
-36.660549 769.68494 1291.634 4286875819
1.2220184 769.68494 1291.634 4291022586
-41.392662 776.12592 1290.5248 4286414234
-37.740364 776.12592 1290.5248 4286480545
-34.088074 776.12592 1290.5248 4286481059
-31.653212 776.12592 1290.5248 4287402161
-29.218349 776.12592 1290.5248 4287599285
-26.783485 776.12592 1290.5248 4287730872
-17.044037 776.12592 1290.5248 4288257483
-13.391743 776.12592 1290.5248 4290427873
-9.7394495 776.12592 1290.5248 4291152625
-7.3045874 776.12592 1290.5248 4290889454
-4.8697248 776.12592 1290.5248 4290626811
-2.4348624 776.12592 1290.5248 4290955775
0 776.12592 1290.5248 4290955510
-48.697247 777.98743 1292.0944 4285361544
-46.262386 777.98743 1292.0944 4285887888
-43.827522 777.98743 1292.0944 4285952916
-41.392662 777.98743 1292.0944 4286479260
-37.740364 777.98743 1292.0944 4286611361
-4.8697248 777.98743 1292.0944 4290758133
-2.4348624 777.98743 1292.0944 4291021305
0 777.98743 1292.0944 4291152625
-37.569725 784.92993 1290.1 4286545314
-29.086239 784.92993 1290.1 4287796667
-13.331193 784.92993 1290.1 4289049574
-9.6954126 784.92993 1290.1 4291218680
-7.2715597 784.92993 1290.1 4290758129
-4.8477063 784.92993 1290.1 4290626547
-2.4238532 784.92993 1290.1 4290758133
0 784.92993 1290.1 4290758131
-37.569725 786.78302 1291.6624 4286545314
-2.4238532 786.78302 1291.6624 4290693108
0 786.78302 1291.6624 4290758129
-41.049541 794.0741 1291.2698 4286413719
-37.829967 793.76642 1291.0104 4286610329
-28.976147 793.15112 1290.4916 4287928505
-16.902752 793.15112 1290.4916 4286877109
-12.878288 793.76642 1291.0104 4289378797
-9.6587152 794.0741 1291.2698 4291022071
-7.2440367 794.0741 1291.2698 4290758899
-4.8293576 794.0741 1291.2698 4290889716
-40.893578 802.24963 1291.6232 4286413720
-37.285324 802.24963 1291.6232 4286480027
-33.677063 802.24963 1291.6232 4286283681
-31.271559 802.24963 1291.6232 4287599540
-28.866055 802.24963 1291.6232 4287796922
-24.85688 801.94312 1291.3647 4287729845
-21.649542 801.33008 1290.8479 4288058812
-19.244038 801.33008 1290.8479 4287796678
-16.838531 801.33008 1290.8479 4287730885
-13.230275 801.33008 1290.8479 4288918743
-7.2165136 801.33008 1290.8479 4290693358
-4.8110094 801.33008 1290.8479 4290759151
-2.4055047 802.24963 1291.6232 4290758898
0 803.16913 1292.3984 4290233068
-38.341286 809.46704 1291.1686 4286414234
-34.746788 809.46704 1291.1686 4286414238
-31.152294 809.46704 1291.1686 4287664565
-28.755962 809.46704 1291.1686 4287534526
-26.359632 809.46704 1291.1686 4287600319
-23.963303 809.46704 1291.1686 4288124085
-16.774311 809.46704 1291.1686 4288716487
-4.7926607 809.46704 1291.1686 4290298098
-2.3963304 809.46704 1291.1686 4290495476
0 809.46704 1291.1686 4290495476
-43.133945 811.29907 1292.7133 4286019215
-40.737614 811.29907 1292.7133 4286216338
-38.341286 811.29907 1292.7133 4286348189
-28.755962 811.29907 1292.7133 4287534524
-26.359632 811.29907 1292.7133 4287732159
-2.3963304 811.29907 1292.7133 4290823663
0 811.29907 1292.7133 4290494963
-38.194496 817.56201 1291.4539 4286875287
-34.613762 817.56201 1291.4539 4286809498
-31.033028 817.56201 1291.4539 4287533481
-28.645872 817.56201 1291.4539 4287599035
-26.258715 817.56201 1291.4539 4287796415
-23.871559 817.56201 1291.4539 4287599033
-16.710093 817.56201 1291.4539 4286811570
-9.548624 817.56201 1291.4539 4290692858
-4.774312 817.56201 1291.4539 4290757867
-2.387156 817.56201 1291.4539 4290757867
0 817.56201 1291.4539 4290561521
-40.58165 819.38696 1292.9927 4286545819
-38.194496 819.38696 1292.9927 4286480539
-35.807339 819.38696 1292.9927 4286809760
-2.387156 819.38696 1292.9927 4290561521
0 819.38696 1292.9927 4290627061
-35.697247 823.27979 1291.0428 4286809510
-26.177982 823.27979 1291.0428 4288190391
-22.608257 823.27979 1291.0428 4287862966
-19.038532 823.27979 1291.0428 4287666364
-16.658716 823.27979 1291.0428 4286876848
-14.278899 823.27979 1291.0428 4286484143
-10.709174 823.27979 1291.0428 4290430189
-7.1394496 823.27979 1291.0428 4291021305
-4.7596331 823.27979 1291.0428 4290627053
-38.077065 825.09918 1292.5769 4286481059
-35.697247 825.09918 1292.5769 4286875817
-22.608257 825.09918 1292.5769 4287928503
-19.038532 825.09918 1292.5769 4288059836
-16.658716 825.09918 1292.5769 4287665078
-14.278899 825.09918 1292.5769 4287141303
-7.1394496 825.09918 1292.5769 4290955260
-4.7596331 825.09918 1292.5769 4291086832
-2.3798165 825.09918 1292.5769 4291218418
-9.4825687 833.11414 1292.7947 4286483660
-7.1119266 833.11414 1292.7947 4286220744
-4.7412844 832.20795 1292.0306 4285693376
-51.710091 758.60126 1295.3689 4285297032
-49.247707 757.66003 1294.5752 4285231241
-46.78532 756.71875 1293.7816 4285889685
2.4623854 757.66003 1294.5752 4291088382
4.9247708 758.60126 1295.3689 4290891768
-52.335163 766.34161 1295.3552 4285098375
2.4532111 765.09131 1294.301 4290957046
4.9064221 766.02905 1295.0917 4290956789
7.359633 766.02905 1295.0917 4291219704
-51.324772 772.48767 1293.9972 4285361291
-48.880733 772.48767 1293.9972 4285230216
-46.436699 772.48767 1293.9972 4285756560
-43.992661 772.48767 1293.9972 4285822097
-40.326607 771.55341 1293.2095 4286480286
2.4440367 772.48767 1293.9972 4291219191
4.8880734 772.48767 1293.9972 4290890486
7.3321099 773.42188 1294.7849 4290956025
-51.132111 779.84888 1293.6639 4285230215
-48.697247 779.84888 1293.6639 4285230728
-46.262386 779.84888 1293.6639 4285757072
-43.827522 779.84888 1293.6639 4286018709
-41.392662 779.84888 1293.6639 4286347674
-38.957798 779.84888 1293.6639 4286282140
-2.4348624 779.84888 1293.6639 4290889206
0 779.84888 1293.6639 4290823409
7.3045874 779.84888 1293.6639 4290627061
9.7394495 779.84888 1293.6639 4290889978
-51.132111 781.71033 1295.2334 4285361544
-48.697247 781.71033 1295.2334 4285230728
-46.262386 781.71033 1295.2334 4285757072
-43.827522 781.71033 1295.2334 4285953681
-41.392662 781.71033 1295.2334 4286348439
2.4348624 781.71033 1295.2334 4290823924
4.8697248 781.71033 1295.2334 4290692854
7.3045874 781.71033 1295.2334 4290692854
-48.477066 788.63611 1293.2249 4285361290
-46.053211 788.63611 1293.2249 4285690512
-41.205505 788.63611 1293.2249 4286413215
-38.781651 788.63611 1293.2249 4286347935
-2.4238532 788.63611 1293.2249 4291283960
0 788.63611 1293.2249 4290627053
-48.477066 790.48914 1294.7874 4285558925
-46.053211 790.48914 1294.7874 4285821841
-43.629356 790.48914 1294.7874 4285887121
-2.4238532 790.48914 1294.7874 4290889458
0 790.48914 1294.7874 4290823926
-48.293579 796.8432 1293.6047 4285164168
-45.878899 796.8432 1293.6047 4285953683
-43.464222 796.8432 1293.6047 4286085522
-2.4146788 796.8432 1293.6047 4290758901
0 796.8432 1293.6047 4290759153
-48.293579 798.68921 1295.1613 4285229963
-45.878899 798.68921 1295.1613 4285953429
-43.464222 798.68921 1295.1613 4286018961
0 798.68921 1295.1613 4290627812
-48.110092 805.92767 1294.7244 4285559176
-45.704586 805.92767 1294.7244 4285888140
-43.299084 805.92767 1294.7244 4286019471
-40.893578 805.92767 1294.7244 4286348437
-38.488075 805.00818 1293.9491 4286414234
1.2027524 805.92767 1294.7244 4290692602
14.433027 805.92767 1294.7244 4290824171
-46.329052 814.35248 1295.2877 4285953428
-43.133945 814.04712 1295.0303 4286151316
-40.737614 814.04712 1295.0303 4286677403
-38.341286 813.1311 1294.2579 4286414234
-2.3963304 813.1311 1294.2579 4290823663
1.1981652 814.04712 1295.0303 4290561265
-42.968807 821.21198 1294.5314 4286085783
-40.58165 821.21198 1294.5314 4286283162
-38.194496 821.21198 1294.5314 4286480289
-2.387156 821.21198 1294.5314 4290758383
0 821.21198 1294.5314 4290890232
-38.077065 826.91858 1294.111 4286874533
-22.608257 826.91858 1294.111 4287862712
-14.278899 826.91858 1294.111 4287206072
-11.899082 826.91858 1294.111 4289311705
-7.1394496 826.91858 1294.111 4291415279
-4.7596331 826.91858 1294.111 4291350259
-2.3798165 826.91858 1294.111 4291481588
-14.278899 828.73798 1295.645 4286679215
-10.709174 828.73798 1295.645 4289180123
-7.1394496 828.73798 1295.645 4288457174
-2.3798165 828.73798 1295.645 4285165474
-55.403671 760.48376 1296.9562 4284638336
-51.710091 760.48376 1296.9562 4285297034
7.387156 760.48376 1296.9562 4290825720
-55.403671 762.36627 1298.5435 4284637823
9.8495417 762.36627 1298.5435 4291351031
-56.423855 768.84229 1297.4637 4284768126
-53.970642 768.84229 1297.4637 4284703617
7.359633 768.84229 1297.4637 4291153657
-56.212845 775.29034 1296.3604 4284768376
-52.546791 775.29034 1296.3604 4284966534
2.4440367 775.29034 1296.3604 4291350005
4.8880734 775.29034 1296.3604 4290758903
7.3321099 775.29034 1296.3604 4290758903
9.7761469 775.29034 1296.3604 4291022072
-56.212845 777.15887 1297.9358 4284899192
-53.768806 777.15887 1297.9358 4284637821
2.4440367 777.15887 1297.9358 4290889458
4.8880734 777.15887 1297.9358 4290561267
-51.943729 784.81281 1297.8494 4284966791
-48.697247 783.57184 1296.803 4285230728
-46.262386 783.57184 1296.803 4285691023
-43.827522 784.50256 1297.5878 4285952918
-41.392662 783.57184 1296.803 4286413467
2.4348624 784.50256 1297.5878 4290692335
4.8697248 784.50256 1297.5878 4290823925
7.3045874 784.50256 1297.5878 4290889718
-50.092968 792.95978 1296.8706 4285295240
-46.053211 792.34216 1296.3497 4285953681
-43.629356 792.34216 1296.3497 4286019215
-2.4238532 792.34216 1296.3497 4290693108
1.2119266 793.26868 1297.131 4290889976
7.2715597 794.19525 1297.9122 4290627315
-48.293579 800.53528 1296.7178 4285230215
-45.878899 800.53528 1296.7178 4285822095
-43.464222 800.53528 1296.7178 4285887121
2.4146788 800.53528 1296.7178 4290627826
14.488073 800.53528 1296.7178 4290693360
-70.025688 802.38135 1298.2743 4283585133
-67.611008 802.38135 1298.2743 4283781479
-65.196327 802.38135 1298.2743 4283781479
-53.122936 802.38135 1298.2743 4284899965
-50.708256 802.38135 1298.2743 4285623687
2.4146788 802.38135 1298.2743 4290889982
4.8293576 802.38135 1298.2743 4291022061
7.2440367 802.38135 1298.2743 4291022061
9.6587152 802.38135 1298.2743 4290889958
12.073395 802.38135 1298.2743 4291152873
-52.921101 808.68622 1297.0503 4284769664
-49.312843 808.68622 1297.0503 4285493130
-45.704586 808.68622 1297.0503 4285887888
2.4055047 808.68622 1297.0503 4290823672
4.8110094 808.68622 1297.0503 4290693360
14.433027 808.68622 1297.0503 4290495724
-55.326607 810.52527 1298.601 4285031298
-52.921101 810.52527 1298.601 4284703617
-49.312843 810.52527 1298.601 4285427083
2.4055047 810.52527 1298.601 4290823924
4.8110094 810.52527 1298.601 4290693360
14.433027 810.52527 1298.601 4289969128
16.838531 810.52527 1298.601 4290298350
-52.719265 818.62714 1298.8921 4285032327
-50.322937 817.71118 1298.1198 4285624207
-46.728439 817.71112 1298.1198 4285822098
-43.133945 816.79517 1297.3474 4286151061
2.3963304 817.71118 1298.1198 4290956026
-45.355965 824.862 1297.609 4286873246
-42.968807 823.94946 1296.8396 4286611355
-40.58165 823.03699 1296.0702 4286546334
-10.344342 823.64532 1296.5831 4290166502
0 823.94946 1296.8396 4290955773
-2.3798165 830.55737 1297.1791 4281944990
0 830.55737 1297.1791 4279121512
-59.317432 755.86212 1299.5995 4284307575
-55.610092 755.86212 1299.5995 4284835457
7.4146791 755.86212 1299.5995 4291023354
9.8862381 755.86212 1299.5995 4291219450
-59.317432 757.75165 1301.1926 4283979637
9.8862381 757.75165 1301.1926 4291022072
-56.634861 764.24878 1300.1307 4284768126
9.8495417 764.24878 1300.1307 4291022072
-59.097248 766.13135 1301.718 4284241782
9.8495417 766.13135 1301.718 4291087866
-56.423855 770.71783 1299.0452 4284572028
-53.970642 770.71783 1299.0452 4284571776
9.8128443 770.71783 1299.0452 4291153657
-63.783485 772.59332 1300.6265 4283979617
-61.330276 772.59332 1300.6265 4284374374
-58.877064 772.59332 1300.6265 4284307825
-56.212845 779.02734 1299.5114 4284833919
-53.768806 779.02734 1299.5114 4284703615
9.7761469 779.02734 1299.5114 4290758649
-61.100918 780.89581 1301.0868 4284240235
-58.656879 780.89581 1301.0868 4284241269
-56.212845 780.89581 1301.0868 4284964735
-53.768806 780.89581 1301.0868 4284571776
9.7761469 780.89581 1301.0868 4290889717
12.220183 780.89581 1301.0868 4291087352
-56.001835 787.2948 1299.942 4284964735
-52.349541 787.2948 1299.942 4284834948
2.4348624 787.2948 1299.942 4290758133
4.8697248 787.2948 1299.942 4290429681
7.3045874 787.2948 1299.942 4290758903
9.7394495 787.2948 1299.942 4290693108
-56.001835 789.15625 1301.5116 4284833919
-53.566971 789.15625 1301.5116 4284833919
2.4348624 789.15625 1301.5116 4290889727
4.8697248 789.15625 1301.5116 4290627315
7.3045874 789.15625 1301.5116 4291087866
9.7394495 789.15625 1301.5116 4290889971
-70.29174 797.90137 1301.0371 4283585385
-67.867889 797.90137 1301.0371 4283781479
-65.444038 797.90137 1301.0371 4283781479
-53.324772 796.97485 1300.2559 4284768126
-50.900917 796.97485 1300.2559 4285360264
2.4238532 796.04828 1299.4746 4290956777
4.8477063 796.97485 1300.2559 4290627567
7.2715597 796.97485 1300.2559 4290627567
9.6954126 796.97485 1300.2559 4290627309
12.119267 796.97485 1300.2559 4290956530
-70.025688 804.22736 1299.8308 4283585385
-67.611008 804.22736 1299.8308 4283781479
-65.196327 805.15039 1300.6091 4283847528
-61.57431 805.15033 1300.6091 4284044653
-57.952293 805.15039 1300.6091 4284373623
-55.537613 805.15039 1300.6091 4285031296
-53.122936 804.22736 1299.8308 4284769662
-50.708256 804.22736 1299.8308 4285427335
4.8293576 804.22736 1299.8308 4290627311
7.2440367 805.15039 1300.6091 4290627567
9.6587152 805.15039 1300.6091 4290364139
12.073395 805.15039 1300.6091 4290429932
-69.759636 812.36426 1300.1516 4283782513
-64.948624 812.36426 1300.1516 4283847274
-61.340366 812.36426 1300.1516 4284306806
-57.732109 812.36426 1300.1516 4284439164
-55.326607 812.36426 1300.1516 4285031044
-52.921101 812.36426 1300.1516 4284900743
-50.515594 812.36426 1300.1516 4285427087
4.8110094 812.36426 1300.1516 4290496495
7.2165136 812.36426 1300.1516 4290496495
9.6220188 812.36426 1300.1516 4290429933
13.230275 812.36426 1300.1516 4290364396
16.838531 812.36426 1300.1516 4290627311
-69.759636 814.20331 1301.7021 4283848562
-67.354126 814.20331 1301.7021 4284110446
-64.948624 814.20331 1301.7021 4283979117
-61.340366 814.20331 1301.7021 4284241267
-57.732109 814.20331 1301.7021 4284241269
-55.326607 814.20331 1301.7021 4285162371
-52.921101 814.20331 1301.7021 4285162630
4.8110094 814.20331 1301.7021 4290497008
7.2165136 814.20331 1301.7021 4290628850
9.6220188 814.20331 1301.7021 4290495472
13.230275 814.20331 1301.7021 4290758899
16.838531 814.20331 1301.7021 4290956275
19.244038 814.20331 1301.7021 4291218418
-55.115597 820.45917 1300.4368 4285230215
-52.719265 820.45917 1300.4368 4285229963
-50.322937 820.45917 1300.4368 4286019222
-46.728439 820.45917 1300.4368 4286348440
2.3963304 820.45917 1300.4368 4291350270
-55.115597 822.2912 1301.9814 4285755271
-52.719265 822.2912 1301.9814 4285821069
-50.322937 822.2912 1301.9814 4286281620
-47.926605 822.2912 1301.9814 4286412695
2.3963304 822.2912 1301.9814 4289376746
-46.549541 826.68701 1299.1478 4284242811
-42.968807 826.68701 1299.1478 4285228675
0 826.68701 1299.1478 4284637601
-61.78899 761.5307 1304.379 4284176237
-59.317432 760.58594 1303.5825 4284044917
-61.559631 768.01379 1303.3053 4284308075
-59.097248 768.01379 1303.3053 4283979891
-63.783485 775.40662 1302.9985 4283978602
-61.330276 775.40662 1302.9985 4284175981
-58.877064 775.40662 1302.9985 4284307315
-63.544952 782.76428 1302.6622 4283978094
-61.100918 782.76428 1302.6622 4284109681
-58.656879 782.76428 1302.6622 4284241269
-56.212845 782.76428 1302.6622 4284964735
9.7761469 782.76428 1302.6622 4290823672
12.220183 782.76428 1302.6622 4290955514
-64.766968 784.63281 1304.2377 4283912810
-61.100918 784.63281 1304.2377 4284109933
-58.656879 784.63281 1304.2377 4284109683
-56.001835 791.0177 1303.0812 4284964989
-53.566971 791.0177 1303.0812 4284571776
4.8697248 791.0177 1303.0812 4290495472
9.7394495 791.0177 1303.0812 4290561521
-68.176147 792.87921 1304.6508 4283715686
-65.741287 792.87921 1304.6508 4283649893
-60.871559 792.87921 1304.6508 4284044639
-58.436699 792.87921 1304.6508 4284241269
-56.001835 792.87921 1304.6508 4284701820
-63.020184 799.75439 1302.5996 4283912551
-60.596329 799.75439 1302.5996 4284044137
-58.172478 799.75439 1302.5996 4284175476
-55.748623 799.75439 1302.5996 4285030785
-70.025688 807.91943 1302.9438 4283782513
-67.611008 808.84247 1303.7222 4283913324
-65.196327 807.91943 1302.9438 4283913067
-61.57431 807.91943 1302.9438 4284044653
-57.952293 807.91943 1302.9438 4284373368
7.2440367 807.91943 1302.9438 4290627311
9.6587152 807.91943 1302.9438 4290429933
12.073395 807.91943 1302.9438 4290429933
-69.759636 816.96185 1304.0281 4283979893
-67.354126 816.96185 1304.0281 4284175985
-64.948624 816.96185 1304.0281 4284176241
-61.340366 816.96191 1304.0282 4284307574
-57.732109 816.96185 1304.0281 4284703104
-55.326607 816.04236 1303.2528 4285162632
4.8110094 816.96185 1304.0281 4290693616
7.2165136 816.96185 1304.0281 4290035687
9.6220188 816.96185 1304.0281 4288720602
13.230275 816.96191 1304.0282 4287732936
16.838531 816.96185 1304.0281 4286679735
-55.115597 824.12317 1303.5262 4284570747
-52.719265 824.12317 1303.5262 4284439416
-50.322937 824.12317 1303.5262 4284373622
2.3963304 824.12317 1303.5262 4282531969
-64.546791 756.37109 1307.8767 4283913067
-62.06422 756.37109 1307.8767 4284110446
-64.260551 763.42023 1305.9723 4283979115
-61.78899 763.42023 1305.9723 4284110444
-66.732109 765.30975 1307.5654 4283716971
-64.260551 765.30975 1307.5654 4284176489
-63.783485 778.21985 1305.3706 4284174442
-66.236694 780.09534 1306.952 4283847022
-68.433029 788.36975 1307.3887 4283715686
-64.766968 787.43549 1306.6008 4283649636
-61.100918 787.43555 1306.6008 4284110186
-58.656879 787.43555 1306.6008 4284307317
-63.306423 794.74066 1306.2202 4283978846
-60.871559 794.74066 1306.2202 4284176226
-58.436699 794.74066 1306.2202 4284175474
-56.001835 794.74066 1306.2202 4284833147
-70.29174 803.46051 1305.7245 4283716971
-67.867889 803.46051 1305.7245 4283913321
-61.340366 819.7204 1306.354 4284637824
-57.732109 820.63989 1307.1294 4284899709
4.8110094 820.63989 1307.1294 4283331735
7.2165136 820.63989 1307.1294 4284255150
9.6220188 820.63989 1307.1294 4285695915
13.230276 820.63995 1307.1294 4283788948
16.838531 819.7204 1306.354 4278333516
2.3963304 825.9552 1305.0709 4278200410
-64.546791 758.26904 1309.4771 4283979115
-66.732109 767.19928 1309.1587 4283585385
-66.732109 769.08881 1310.7518 4283781231
-66.484406 773.66138 1308.0671 4283846772
-66.484406 775.54388 1309.6545 4283847024
-63.544952 790.23828 1308.9641 4283649882
-70.025688 817.14966 1310.7266 4284045432
-67.611008 817.14966 1310.7266 4284241782
-65.196327 817.14966 1310.7266 4284373368
-57.732109 823.39844 1309.4553 4284243068
-55.326607 823.39844 1309.4553 4284111225
-52.921101 823.39844 1309.4553 4284176237
4.8110094 823.39844 1309.4553 4279451227
7.2165136 823.39844 1309.4553 4284714667
9.6220188 823.39844 1309.4553 4287928800
13.230275 823.39844 1309.4553 4288850159
-67.029358 760.16699 1311.0774 4283783019
-70.439453 772.86786 1313.9382 4283847277
-71.409172 779.3089 1312.8291 4283585385
-68.946793 779.3089 1312.8291 4283781481
-70.025688 818.99573 1312.2831 4284572030
-67.611008 818.99573 1312.2831 4284307575
-65.196327 818.99573 1312.2831 4284570747
-61.57431 818.99573 1312.2831 4284702331
-55.326607 825.23749 1311.006 4284046716
1.2027524 825.23749 1311.006 4281551974
4.8110094 825.23749 1311.006 4284111227
12.027523 825.23749 1311.006 4286741971
-69.768806 757.45593 1315.3315 4283651176
-69.768806 759.36084 1316.9377 4283716971
-69.511925 763.96289 1314.278 4283651178
-69.511925 765.86084 1315.8783 4283847024
-70.439453 774.75739 1315.5315 4283781229
-57.952293 822.68774 1315.3962 4284046716
7.2440367 822.68774 1315.3962 4288256186
9.6587152 823.61078 1316.1746 4288583410
13.280734 823.61078 1316.1746 4285163967
-69.511925 767.75873 1317.4785 4283912566
-70.439453 778.5365 1318.7179 4283584617
-70.29174 818.28497 1318.224 4284703878
-67.867889 818.28497 1318.224 4284703869
-64.232109 818.28497 1318.224 4284374650
-60.596329 818.28497 1318.224 4284308861
-70.29174 820.13806 1319.7865 4284443793
-67.867889 820.13806 1319.7865 4284375930
-64.232109 820.13806 1319.7865 4284177786
-60.596329 820.13806 1319.7865 4284242814
-72.260551 763.17078 1320.1503 4284044139
-72.260551 765.07574 1321.7565 4283913067
-71.675232 780.42603 1320.311 4283519592
-58.172478 821.99109 1321.3489 4284112509
-73.045868 818.93982 1326.6244 4285759660
-70.611008 818.93982 1326.6244 4284378007
-68.176147 818.93982 1326.6244 4283720317
-64.523857 818.93982 1326.6244 4283850366
-60.871559 818.93982 1326.6244 4284112513
-73.045868 820.80127 1328.1938 4286550209
-70.611008 820.80127 1328.1938 4285431984
-68.176147 820.80127 1328.1938 4284972185
-64.523857 820.80127 1328.1938 4284640906
-60.871559 820.80127 1328.1938 4284639105
-73.321098 814.52856 1329.4451 4285562017
7.3321099 816.39709 1331.0205 4289770482
-73.045868 823.59351 1330.5482 4287866070
-70.611008 823.59351 1330.5482 4286944711
-68.176147 823.59351 1330.5482 4286483891
-65.741287 822.66278 1329.7634 4285233565
9.7761469 818.26556 1332.5959 4287466963
-63.544952 820.13403 1334.1714 4284378747
-61.100918 820.13403 1334.1714 4284115575
-73.045868 826.38568 1332.9026 4289180898
-70.611008 826.38568 1332.9026 4288194003
-73.045868 828.24719 1334.472 4289838323
4.9064221 813.85437 1335.4167 4285362607
-68.433029 823.87103 1337.3223 4287405256
-64.766968 822.93683 1336.5345 4285629358
9.8128443 817.60535 1338.5795 4285951371
12.266055 817.60535 1338.5795 4284832634
-61.330276 819.48083 1340.1609 4284445587
9.8128443 819.48083 1340.1609 4283780468
12.266055 819.48083 1340.1609 4288648893
-70.877068 825.7395 1338.8978 4289246443
-68.433029 825.7395 1338.8978 4288720347
-65.988991 825.7395 1338.8978 4287799245
4.9247708 813.19415 1341.4003 4285361562
7.387156 814.13538 1342.1938 4287007143
12.311927 813.19415 1341.4003 4285164209
-61.330276 821.35632 1341.7422 4284970927
9.8128443 821.35632 1341.7422 4282404216
12.266055 821.35632 1341.7422 4287996621
-63.783485 823.23181 1343.3236 4287010245
9.8128443 823.23181 1343.3236 4280503926
13.492661 823.23181 1343.3236 4283923119
12.220183 831.34497 1343.6241 4284777884
-56.845871 808.76892 1344.2091 4284178558
-59.317432 810.65845 1345.8022 4284309887
7.387156 817.90045 1345.3684 4282206580
9.8128443 826.0451 1345.6957 4282732398
13.492661 826.0451 1345.6957 4287599025
-65.988991 835.08191 1346.7751 4289509109
1.2412844 805.71765 1349.4845 4282539893
-59.317432 812.54797 1347.3955 4284376199
4.943119 812.54797 1347.3955 4284113263
4.943119 814.4375 1348.9886 4282798965
7.387156 820.72424 1347.7494 4282405239
-71.409172 822.60675 1349.3367 4289444340
-67.715599 822.60675 1349.3367 4288917723
7.387156 822.60675 1349.3367 4280962921
-66.236694 830.73383 1349.649 4289050606
-63.783485 830.73383 1349.649 4288852199
9.8128443 829.79608 1348.8584 4282540657
-54.818348 801.26996 1352.2744 4284177522
-2.4825687 808.56458 1351.885 4281684334
1.2412844 808.56458 1351.885 4282339960
-61.78899 818.21655 1352.175 4286286521
0 818.21655 1352.175 4284511392
4.943119 817.27179 1351.3784 4282404474
-71.409172 824.48926 1350.924 4289182708
-67.715599 824.48926 1350.924 4289049062
7.387156 824.48926 1350.924 4280961384
7.387156 826.37177 1352.5112 4282010214
-22.508257 794.89624 1353.4406 4287929783
-20.007339 794.89624 1353.4406 4288257468
-17.506422 794.89624 1353.4406 4287862710
-16.255962 796.80823 1355.0527 4288060603
-12.504587 796.80823 1355.0527 4287470266
-2.4917431 803.17493 1353.8806 4281489015
-57.310093 805.07983 1355.4868 4284309887
-12.458715 805.07983 1355.4868 4286746547
-7.4752293 805.07983 1355.4868 4282074220
-4.9834862 805.07983 1355.4868 4281486185
-58.340366 811.4115 1354.2854 4284444040
-7.4477062 811.4115 1354.2854 4287469501
-4.9651375 811.4115 1354.2854 4284053143
-2.4825687 811.4115 1354.2854 4281157995
1.2412844 811.4115 1354.2854 4282010994
-58.340366 813.30945 1355.8857 4284576391
-9.930275 813.30945 1355.8857 4289966818
-7.4477062 813.30945 1355.8857 4289835232
-4.9651375 813.30945 1355.8857 4287798967
-2.4825687 813.30945 1355.8857 4282338149
1.2412844 813.30945 1355.8857 4281093740
-64.260551 821.05084 1354.5649 4288455634
-61.78899 821.05084 1354.5649 4287731911
-54.374313 821.99561 1355.3615 4285893033
-2.4715595 821.99561 1355.3615 4290428136
0 821.05084 1354.5649 4288587481
4.943119 821.05084 1354.5649 4282541184
-68.946793 828.25427 1354.0985 4289314035
-61.559631 828.25427 1354.0985 4288391648
7.387156 828.25427 1354.0985 4286548399
-25.119267 791.8197 1358.6947 4287929783
-55.020184 800.63214 1358.277 4284243066
-52.519264 800.63214 1358.277 4284243066
-16.255962 799.67615 1357.4709 4288718019
-12.504587 799.67615 1357.4709 4286219942
-10.00367 800.63214 1358.277 4283131278
-7.5027523 800.63214 1358.277 4280762474
-5.0018349 800.63214 1358.277 4280896878
-57.310093 806.98486 1357.093 4284310406
-54.818348 806.98486 1357.093 4284507521
-12.458715 806.98486 1357.093 4288125377
-9.9669724 806.98486 1357.093 4285824953
-7.4752293 806.98486 1357.093 4282008959
-4.9834862 806.98486 1357.093 4280830051
-54.818348 808.88977 1358.6993 4284770438
-52.326607 808.88977 1358.6993 4284836231
-12.458715 808.88977 1358.6993 4289243865
-9.9669724 808.88977 1358.6993 4289377498
-58.340366 815.2074 1357.486 4285496213
-54.616512 815.2074 1357.486 4285361294
-9.930275 815.2074 1357.486 4289968354
-7.4477062 815.2074 1357.486 4290757869
-4.9651375 815.2074 1357.486 4290823142
-2.4825687 815.2074 1357.486 4287599285
2.4825687 815.2074 1357.486 4281550706
-69.203667 823.88513 1356.9547 4289246954
-66.732109 823.88513 1356.9547 4288984039
-64.260551 823.88513 1356.9547 4288850652
-61.78899 823.88513 1356.9547 4288258514
-54.374313 823.88513 1356.9547 4286944170
-2.4715595 823.88513 1356.9547 4290559971
1.2357798 823.88513 1356.9547 4290362341
4.943119 823.88513 1356.9547 4287536570
-54.374313 825.77466 1358.5479 4287273151
-2.4715595 825.77466 1358.5479 4289772258
0 825.77466 1358.5479 4290297064
4.943119 825.77466 1358.5479 4290035427
-52.750458 793.74011 1360.314 4284242030
-50.238533 793.74011 1360.314 4283979637
-25.119267 793.74011 1360.314 4288979128
-22.60734 793.74011 1360.314 4288979128
-20.095413 793.74011 1360.314 4288519611
-52.750458 795.66052 1361.9331 4284309109
-50.238533 795.66052 1361.9331 4283980920
-27.631193 795.66052 1361.9331 4284966803
-25.119267 795.66052 1361.9331 4287265936
-22.60734 795.66052 1361.9331 4288384161
-20.095413 795.66052 1361.9331 4288386228
-10.047707 795.66052 1361.9331 4283000983
-7.53578 795.66052 1361.9331 4280764021
-5.0238533 795.66052 1361.9331 4281353341
-2.5119267 795.66052 1361.9331 4281682306
-55.020184 802.54413 1359.889 4284637821
-52.519264 802.54413 1359.889 4284572028
-16.255962 802.54413 1359.889 4287733438
-10.00367 802.54413 1359.889 4285166748
-52.519264 804.45612 1361.5012 4284507521
-16.255962 804.45612 1361.5012 4287138990
-54.818348 810.79474 1360.3055 4284967306
-52.326607 811.74719 1361.1086 4285164172
-17.442202 812.69971 1361.9117 4284835718
-13.704588 811.74719 1361.1086 4286679721
-58.340366 817.10535 1359.0863 4285759650
-54.616512 817.10535 1359.0863 4284904603
-52.133945 817.10535 1359.0863 4284838810
-12.412844 817.10535 1359.0863 4288392122
-9.930275 817.10535 1359.0863 4290230740
-7.4477062 817.10535 1359.0863 4290757084
-4.9651375 817.10535 1359.0863 4290822631
-2.4825687 817.10535 1359.0863 4289440978
2.4825687 817.10535 1359.0863 4282601350
-58.340366 819.0033 1360.6866 4287141564
-52.133945 819.0033 1360.6866 4285432482
-49.651375 819.0033 1360.6866 4285167000
-17.377981 819.0033 1360.6866 4284113528
-13.654128 819.0033 1360.6866 4287796135
-9.930275 819.0033 1360.6866 4290099160
-7.4477062 819.0033 1360.6866 4290362076
-4.9651375 819.0033 1360.6866 4290230758
2.4825687 819.0033 1360.6866 4287994311
-64.260551 827.66418 1360.1411 4289376996
-61.78899 827.66418 1360.1411 4289179616
-2.4715595 827.66418 1360.1411 4289706211
1.2357798 827.66418 1360.1411 4290165733
4.943119 827.66418 1360.1411 4290428907
-46.640366 791.18335 1364.6982 4283979638
-27.732111 790.21967 1363.8857 4289308338
-50.238533 797.58093 1363.5524 4284046970
-25.119267 797.58093 1363.5524 4285294974
-22.60734 797.58093 1363.5524 4287334301
-20.095413 797.58093 1363.5524 4287401641
-50.018349 806.36804 1363.1133 4284769923
-20.007339 806.36804 1363.1133 4284705161
-16.255962 806.36804 1363.1133 4285493914
-50.018349 808.28003 1364.7255 4284966532
-22.508257 808.28003 1364.7255 4285361544
-20.007339 808.28003 1364.7255 4285033363
-17.506422 808.28003 1364.7255 4284967570
-49.834862 814.60468 1363.5179 4284967304
-44.851376 814.60468 1363.5179 4284770954
-19.933945 814.60468 1363.5179 4285034126
-17.442202 814.60468 1363.5179 4284178817
-14.950459 814.60468 1363.5179 4284444542
-58.340366 820.90125 1362.2869 4287798727
-52.133945 820.90125 1362.2869 4286023068
-49.651375 820.90125 1362.2869 4285627562
-19.86055 820.90125 1362.2869 4284836731
-17.377981 820.90125 1362.2869 4286087055
-13.654128 820.90125 1362.2869 4288192458
-9.930275 820.90125 1362.2869 4290494679
-7.4477062 820.90125 1362.2869 4290494679
-4.9651375 820.90125 1362.2869 4290362591
-58.340366 822.79913 1363.8872 4288127957
-52.133945 822.79913 1363.8872 4286286256
-42.203671 822.79913 1363.8872 4285299610
-39.7211 822.79913 1363.8872 4285560720
-19.86055 822.79913 1363.8872 4286018684
-17.377981 822.79913 1363.8872 4287992474
-13.654128 822.79913 1363.8872 4290097359
-9.930275 822.79913 1363.8872 4289904609
-7.4477062 822.79913 1363.8872 4289772767
-4.9651375 822.79913 1363.8872 4289706465
2.4825687 822.79913 1363.8872 4290626029
-46.640366 793.11072 1366.3234 4283981177
-37.816513 793.11072 1366.3234 4283915377
-31.51376 793.11072 1366.3234 4283980673
-46.640366 795.03815 1367.9485 4284112763
-40.337616 795.03815 1367.9485 4284046718
-31.51376 795.03815 1367.9485 4283980921
-27.732111 795.03815 1367.9485 4284309633
-50.238533 799.50128 1365.1716 4284375932
-45.21468 799.50128 1365.1716 4284308861
-27.631193 799.50128 1365.1716 4284638337
-25.119267 799.50128 1365.1716 4284310907
-22.60734 799.50128 1365.1716 4284376701
-20.095413 799.50128 1365.1716 4284312454
-50.238533 801.42169 1366.7908 4284703615
-46.470642 801.42169 1366.7908 4284572031
-42.702751 801.42169 1366.7908 4284571776
-27.631193 801.42169 1366.7908 4284836231
-25.119267 801.42169 1366.7908 4284901513
-22.60734 801.42169 1366.7908 4284769671
-20.095413 801.42169 1366.7908 4284573314
-50.018349 810.19202 1366.3375 4284966532
-47.517429 812.104 1367.9497 4284967304
-40.014679 811.14801 1367.1436 4284771208
-37.51376 812.104 1367.9497 4285034124
-27.510092 812.104 1367.9497 4286150279
-25.009174 811.14801 1367.1436 4285493382
-22.508257 811.14801 1367.1436 4285427588
-20.007339 810.19202 1366.3375 4285625234
-47.343121 817.4621 1365.9272 4285167006
-43.605507 817.46216 1365.9272 4285100175
-39.867889 817.4621 1365.9272 4285428108
-37.376148 818.41455 1366.7303 4285559439
-32.392662 818.41455 1366.7303 4285887375
-28.655045 818.41455 1366.7303 4285953931
-24.917431 817.4621 1365.9272 4285756809
-22.425688 817.4621 1365.9272 4285230465
-19.933945 816.50964 1365.1241 4284508030
-58.340366 824.69708 1365.4874 4288455893
-54.616512 824.69708 1365.4874 4287470016
-52.133945 824.69708 1365.4874 4286877623
-24.825687 824.69708 1365.4874 4283915648
-22.343119 824.69708 1365.4874 4286152609
-19.86055 824.69708 1365.4874 4287533227
-17.377981 824.69708 1365.4874 4289309638
-13.654128 824.69708 1365.4874 4289836515
-9.930275 824.69708 1365.4874 4289838049
-7.4477062 824.69708 1365.4874 4289772256
-4.9651375 824.69708 1365.4874 4289706211
-64.546791 826.59503 1367.0878 4287732166
-62.06422 826.59503 1367.0878 4287403458
-58.340366 826.59503 1367.0878 4287466686
-54.616512 826.59503 1367.0878 4286415797
-27.308256 826.59503 1367.0878 4288715191
-24.825687 826.59503 1367.0878 4288520376
-22.343119 826.59503 1367.0878 4289507271
-19.86055 826.59503 1367.0878 4289639888
-17.377981 826.59503 1367.0878 4289837267
-13.654128 826.59503 1367.0878 4289969119
-9.930275 826.59503 1367.0878 4289311966
-4.9651375 826.59503 1367.0878 4289902824
-2.4825687 826.59503 1367.0878 4289837031
1.2412844 826.59503 1367.0878 4290033892
-31.651377 787.14734 1369.1433 4288978867
-47.900917 796.96558 1369.5736 4284375932
-42.858715 796.96558 1369.5736 4284505983
-40.337616 796.96558 1369.5736 4284572028
-37.816513 796.96558 1369.5736 4284506235
-35.295414 796.96558 1369.5736 4284441723
-31.51376 796.96558 1369.5736 4284638848
-46.470642 803.34204 1368.41 4284507009
-42.702751 803.34204 1368.41 4284507267
-40.190826 803.34204 1368.41 4284639105
-37.678898 803.34204 1368.41 4284836483
-27.631193 803.34204 1368.41 4284902276
-25.119267 803.34204 1368.41 4285230728
-22.60734 803.34204 1368.41 4285230728
-46.470642 805.26245 1370.0293 4284769923
-42.702751 805.26245 1370.0293 4284573314
-40.190826 805.26245 1370.0293 4284639622
-37.678898 805.26245 1370.0293 4284705415
-35.166973 805.26245 1370.0293 4284902274
-31.399082 805.26245 1370.0293 4284901763
-27.631193 805.26245 1370.0293 4285164681
-25.119267 805.26245 1370.0293 4285361544
-37.51376 814.01599 1369.5618 4285362314
-31.261467 814.01599 1369.5618 4285756556
-27.510092 814.01599 1369.5618 4286019724
-49.834862 820.31952 1368.3365 4286154156
-47.343121 820.31952 1368.3365 4285956521
-44.851376 820.31952 1368.3365 4285299610
-37.376148 820.31952 1368.3365 4285429134
-28.655045 820.31952 1368.3365 4285032325
-24.917431 820.31952 1368.3365 4283719022
-22.425688 820.31952 1368.3365 4284047731
-49.834862 822.22449 1369.9427 4286483117
-47.343121 822.22449 1369.9427 4286154408
-43.605507 822.22449 1369.9427 4285430422
-39.867889 822.22449 1369.9427 4285429136
-32.392662 822.22449 1369.9427 4284769925
-28.655045 822.22449 1369.9427 4284440445
-57.099083 828.49298 1368.6881 4286284711
-54.616512 828.49298 1368.6881 4286087600
-32.273396 829.44196 1369.4883 4289047250
-27.308256 829.44196 1369.4883 4289967310
-24.825687 829.44196 1369.4883 4289836765
-22.343119 828.49298 1368.6881 4290032861
-19.86055 828.49298 1368.6881 4289836765
-17.377981 829.44196 1369.4883 4289639901
-14.067889 829.12567 1369.2216 4289902559
-9.930275 828.49298 1368.6881 4289902813
-35.57798 783.61566 1372.7057 4287135391
-43.045872 791.01898 1372.4077 4283980920
-40.51376 790.05109 1371.5917 4283652462
-37.981651 791.98688 1373.2239 4284046718
-35.449543 791.01898 1372.4077 4283783799
-40.337616 798.89294 1371.1987 4284441725
-37.816513 798.89294 1371.1987 4284507519
-35.295414 799.85669 1372.0114 4284573569
-31.51376 799.85669 1372.0115 4284639106
-46.470642 807.18286 1371.6484 4284836230
-42.702751 808.14307 1372.458 4284639367
-37.678898 807.18286 1371.6484 4284771208
-35.166973 809.10327 1373.2677 4285361544
-31.399082 808.14307 1372.458 4285427076
-27.631193 807.18286 1371.6484 4285361540
-35.012844 815.92798 1371.174 4285755789
-35.012844 817.8399 1372.7861 4285558923
-32.511925 817.8399 1372.7861 4285361544
-52.326607 824.12946 1371.549 4286218162
-49.834862 824.12946 1371.549 4286218664
-47.343121 824.12946 1371.549 4285429404
-43.605507 824.12946 1371.549 4284641169
-39.867889 824.12946 1371.549 4284180868
-37.376148 824.12946 1371.549 4284312454
-29.900917 824.12946 1371.549 4287925675
-7.4752293 824.12946 1371.549 4289706724
-52.326607 826.03442 1373.1553 4285758378
-49.834862 826.03442 1373.1553 4285562017
-43.605507 826.03442 1373.1553 4285232538
-39.867889 826.03442 1373.1553 4286087831
-37.376148 826.03442 1373.1553 4286745762
-34.884403 826.03442 1373.1553 4287271104
-29.900917 826.03442 1373.1553 4289572031
-7.4752293 826.03442 1373.1553 4290231521
-4.9834862 826.03442 1373.1553 4289902572
-2.4917431 826.03442 1373.1553 4289836779
-38.119267 785.55847 1374.3438 4285492097
-35.57798 785.55847 1374.3438 4286676627
-35.295414 804.67517 1376.0742 4285164420
-35.166973 811.02362 1374.887 4285493130
-37.51376 819.75189 1374.3982 4285100171
-35.012844 820.70789 1375.2043 4285690002
-32.511925 821.66388 1376.0104 4287070631
-49.834862 827.93933 1374.7615 4288586953
-43.605507 827.93933 1374.7615 4289179085
-39.867889 827.93933 1374.7615 4289968083
-29.900917 827.93933 1374.7615 4289704916
-22.425688 827.93933 1374.7615 4289377498
-19.933945 827.93933 1374.7615 4289311707
-12.458715 827.93933 1374.7615 4289770974
-43.388992 782.49036 1379.6051 4284308861
-40.836697 782.49036 1379.6051 4284702581
-38.284405 780.53912 1377.9598 4286214026
-47.517429 823.57581 1377.6224 4284838550
-47.517429 825.48779 1379.2346 4288849868
-37.51376 825.48779 1379.2346 4290099926
-35.012844 825.48779 1379.2346 4290231260
-43.544952 777.9754 1382.3383 4285294724
-40.983486 777.9754 1382.3383 4286016646
