# .PCD v0.7 - Point Cloud Data file format
VERSION 0.7
FIELDS x y z rgb
SIZE 4 4 4 4
TYPE F F F U
COUNT 1 1 1 1
WIDTH 1157
HEIGHT 1
VIEWPOINT 0 0 0 1 0 0 0
POINTS 1157
DATA ascii
23.706423 807.74084 1271.4006 4291088125
26.077065 807.74084 1271.4006 4291285759
28.447706 807.74084 1271.4006 4290891768
25.976147 814.00653 1270.1436 4291088127
17.044037 755.64972 1273.2598 4291219450
19.478899 755.64972 1273.2598 4291416826
14.609175 757.51123 1274.8293 4291153657
17.044037 757.51123 1274.8293 4291351035
16.966972 764.54633 1272.913 4291614207
19.390825 764.54633 1272.913 4291548415
19.390825 766.39941 1274.4755 4291679231
19.31743 772.8446 1273.3698 4291481855
19.31743 774.69067 1274.9263 4291087614
19.244038 779.26178 1272.2404 4291087871
16.838531 781.10083 1273.791 4291416575
16.774311 787.48291 1272.6321 4291219199
16.710093 797.48694 1274.5271 4290956543
19.038532 802.35681 1273.4011 4290758647
21.418348 802.35681 1273.4011 4290956281
22.521101 809.55322 1272.9287 4290760185
26.077065 809.55322 1272.9287 4290760446
28.447706 809.55322 1272.9287 4290891768
22.521101 811.3656 1274.4569 4290956280
14.609175 760.30341 1277.1836 4291482621
17.044037 759.37268 1276.3989 4291614462
16.966972 770.10547 1277.6003 4291547901
19.390825 768.25244 1276.038 4291416574
16.902752 776.53674 1276.4828 4291219454
16.838531 782.93982 1275.3417 4291482621
16.710093 799.31195 1276.0659 4291153151
16.710093 801.13696 1277.6047 4290758651
16.658716 805.99561 1276.4692 4290825209
19.038532 805.99561 1276.4692 4290956792
21.418348 805.08594 1275.7023 4291087866
22.521101 814.08417 1276.7491 4290758649
26.077065 814.08417 1276.7491 4290758907
12.220183 754.737 1279.0303 4290957055
9.7761469 756.60547 1280.6058 4290693119
12.220183 756.60547 1280.6058 4291219455
14.609175 763.09564 1279.538 4291614207
17.044037 763.09564 1279.538 4291548415
16.966972 771.95856 1279.1628 4291219452
14.433027 788.45691 1279.9935 4290497023
14.322936 802.96198 1279.1434 4290627574
14.322936 804.78699 1280.6823 4290627574
16.658716 808.72467 1278.7704 4290890230
19.038532 808.72467 1278.7704 4291087862
19.038532 810.54407 1280.3044 4290890232
22.521101 816.80273 1279.0414 4290692857
26.077065 816.80273 1279.0414 4290758649
9.7761469 758.474 1282.1813 4291021820
12.220183 758.474 1282.1813 4291482367
-2.4440367 760.34247 1283.7567 4287076290
9.7761469 760.34247 1283.7567 4291417599
12.220183 760.34247 1283.7567 4291548927
14.609175 764.95709 1281.1075 4291679484
17.044037 764.95709 1281.1075 4291679484
14.609175 766.8186 1282.6771 4291547901
14.488073 783.9209 1282.709 4291087871
14.433027 790.2959 1281.5442 4290758910
14.433027 792.13495 1283.0947 4290693119
14.322936 806.61194 1282.2211 4290758901
14.322936 808.43701 1283.7599 4290889717
16.710093 808.43701 1283.7599 4290955510
16.658716 812.36346 1281.8385 4290955512
19.038532 812.36346 1281.8385 4290889978
16.658716 814.18286 1283.3726 4290627061
19.038532 814.18286 1283.3726 4290627065
-2.4532111 755.71381 1286.3942 4287405765
2.4532111 754.77606 1285.6035 4291022335
4.9064221 754.77606 1285.6035 4291284735
7.359633 754.77606 1285.6035 4290889980
-4.8880734 764.07947 1286.9076 4285759914
-2.4440367 763.1452 1286.1199 4287404740
9.7761469 764.07947 1286.9076 4291745791
12.220183 763.1452 1286.1199 4291548671
14.609175 769.61078 1285.0314 4291153404
14.543119 779.37079 1285.4126 4291021820
14.433027 793.974 1284.6454 4290955519
14.433027 795.81299 1286.196 4290495222
11.981651 803.05505 1285.7621 4290758647
11.93578 812.08698 1286.8374 4290693371
14.322936 811.17444 1286.0681 4290824183
19.038532 816.00226 1284.9066 4290561017
23.004892 816.6087 1285.418 4290692601
-21.25321 833.86554 1286.8882 4288782017
-18.891743 833.86554 1286.8882 4288650960
-16.530275 833.86554 1286.8882 4288979925
-14.168807 833.86554 1286.8882 4288389317
-10.626606 833.86554 1286.8882 4288191939
-7.0844035 833.86554 1286.8882 4287797182
-4.7229357 833.86554 1286.8882 4287141303
-18.818348 838.22766 1284.026 4289438679
-16.466055 838.22766 1284.026 4289767388
-4.9064221 757.58936 1287.9755 4285892015
1.2266055 757.58936 1287.9755 4288589528
4.9064221 757.58936 1287.9755 4291153918
7.359633 757.58936 1287.9755 4291548671
-7.359633 759.46484 1289.5569 4285758867
-4.9064221 759.46484 1289.5569 4285693866
1.2266055 759.46484 1289.5569 4288391895
4.9064221 759.46484 1289.5569 4290694399
7.359633 759.46484 1289.5569 4291418111
9.8128443 759.46484 1289.5569 4291680511
-4.8880734 765.94794 1288.4832 4286087077
-2.4440367 765.94794 1288.4832 4288060868
9.7761469 765.94794 1288.4832 4291547647
12.220183 765.94794 1288.4832 4291350015
14.609175 772.40302 1287.3857 4291219454
14.609175 774.26447 1288.9552 4291153657
-9.6587152 791.30505 1288.9351 4284180616
12.073395 791.30505 1288.9351 4291087098
12.027523 797.65204 1287.7466 4290693108
-19.244038 799.49109 1289.2972 4288390103
-16.838531 799.49109 1289.2972 4287403208
-13.230275 799.49109 1289.2972 4284050327
-9.6220188 799.49109 1289.2972 4285952650
-4.8110094 799.49109 1289.2972 4287403971
-19.170643 805.80304 1288.0791 4286347956
-14.377981 805.80304 1288.0791 4284045686
11.981651 805.80304 1288.0791 4290955510
-21.566973 807.63507 1289.6239 4285163416
-19.170643 807.63507 1289.6239 4284901243
-16.774311 807.63507 1289.6239 4284111727
-14.377981 807.63507 1289.6239 4284242825
-10.783486 807.63507 1289.6239 4286150563
-7.1889906 807.63507 1289.6239 4287268785
-4.7926607 807.63507 1289.6239 4287074745
-2.3963304 807.63507 1289.6239 4289640415
10.783486 807.63507 1289.6239 4290758901
-19.097248 815.73694 1289.915 4284111979
7.161468 815.73694 1289.915 4290497021
10.742202 814.82446 1289.1456 4290364666
14.322936 814.82446 1289.1456 4290692854
16.710093 814.82446 1289.1456 4290627060
19.097248 815.73694 1289.915 4290430199
21.484404 815.73694 1289.915 4290495993
-7.1394496 821.46045 1289.5088 4288058810
23.798164 819.64099 1287.9747 4290561269
-18.965137 827.677 1288.2102 4288389067
-21.335779 829.48938 1289.7384 4288452534
-18.965137 829.48938 1289.7384 4288585417
-16.594496 829.48938 1289.7384 4288848333
-14.223853 829.48938 1289.7384 4288323524
-10.667891 829.48938 1289.7384 4288257732
-7.1119266 829.48938 1289.7384 4288060355
-4.7412844 829.48938 1289.7384 4287141564
-21.25321 835.6709 1288.4104 4289242048
-14.168807 835.6709 1288.4104 4289044935
-10.626606 835.6709 1288.4104 4288782277
-7.0844035 835.6709 1288.4104 4288190911
-12.311927 754.83624 1292.1943 4287267481
-9.8495417 754.83624 1292.1943 4286218886
-7.387156 754.83624 1292.1943 4285955971
-9.8128443 761.34033 1291.1383 4286547626
-7.359633 761.34033 1291.1383 4285034644
1.2266055 761.34033 1291.1383 4288589531
4.9064221 761.34033 1291.1383 4290562299
7.359633 761.34033 1291.1383 4291549439
-12.266055 763.21582 1292.7196 4288126663
-9.8128443 763.21582 1292.7196 4286285226
-7.359633 763.21582 1292.7196 4284837524
1.2266055 763.21582 1292.7196 4288720599
4.9064221 763.21582 1292.7196 4289904889
7.359633 763.21582 1292.7196 4291220735
-7.3321099 767.81641 1290.0586 4284706197
-4.8880734 767.81641 1290.0586 4286218918
-2.4440367 767.81641 1290.0586 4288258501
2.4440367 767.81641 1290.0586 4289706474
7.3321099 767.81641 1290.0586 4291351807
9.7761469 767.81641 1290.0586 4291482367
12.220183 767.81641 1290.0586 4291153407
-17.108257 769.68494 1291.634 4288453827
-13.442202 769.68494 1291.634 4288322245
-9.7761469 769.68494 1291.634 4286087080
-7.3321099 769.68494 1291.634 4285692322
-4.8880734 769.68494 1291.634 4286940842
-2.4440367 769.68494 1291.634 4288848839
2.4440367 769.68494 1291.634 4289969382
9.7761469 769.68494 1291.634 4291285503
12.220183 769.68494 1291.634 4291153663
-2.4348624 776.12592 1290.5248 4288651724
-2.4348624 777.98743 1292.0944 4288389330
12.174312 777.98743 1292.0944 4291416319
-12.119267 786.78302 1291.6624 4285230485
-9.6954126 786.78302 1291.6624 4284639359
-7.2715597 786.78302 1291.6624 4287007907
-4.8477063 786.78302 1291.6624 4287073721
12.119267 786.78302 1291.6624 4291021307
-12.878288 794.38177 1291.5292 4284507559
-9.6587152 794.0741 1291.2698 4284508555
-7.2440367 794.0741 1291.2698 4286877102
-4.8293576 794.0741 1291.2698 4288190143
-2.4146788 794.99713 1292.0481 4292730367
9.6587152 794.99713 1292.0481 4290495472
12.073395 793.15112 1290.4916 4290561267
-31.271559 803.16913 1292.3984 4284175739
-24.85688 802.55615 1291.8816 4285033099
-21.649542 802.24963 1291.6232 4287138224
-19.244038 801.33008 1290.8479 4288520656
-16.838531 802.24963 1291.6232 4285493412
-12.829358 801.94312 1291.3647 4285296013
-9.6220188 802.24963 1291.6232 4286544796
-7.2165136 802.24963 1291.6232 4287728814
-4.8110094 802.24963 1291.6232 4286680762
-2.4055047 802.24963 1291.6232 4289049054
4.8110094 803.16913 1292.3984 4290627574
9.6220188 802.24963 1291.6232 4290758389
-26.359632 809.46704 1291.1686 4283257452
-22.765137 809.46704 1291.1686 4283978359
-19.170643 809.46704 1291.1686 4283715688
-16.774311 809.46704 1291.1686 4284439668
-14.377981 809.46704 1291.1686 4285491582
-10.783486 809.46704 1291.1686 4286216080
-7.1889906 809.46704 1291.1686 4287466921
-4.7926607 809.46704 1291.1686 4288059325
-2.3963304 809.46704 1291.1686 4290690789
7.1889906 809.46704 1291.1686 4290563066
9.5853214 809.46704 1291.1686 4290430199
-33.548622 811.29907 1292.7133 4284638087
-31.152294 811.29907 1292.7133 4283980157
-28.755962 811.29907 1292.7133 4283520374
-26.359632 811.29907 1292.7133 4283257202
-22.765137 811.29907 1292.7133 4283584629
-19.170643 811.29907 1292.7133 4283387757
-16.774311 811.29907 1292.7133 4284769410
-14.377981 811.29907 1292.7133 4285099908
-10.783486 811.29907 1292.7133 4286020505
-7.1889906 811.29907 1292.7133 4287665080
-4.7926607 811.29907 1292.7133 4287601854
-2.3963304 811.29907 1292.7133 4290365160
2.3963304 811.29907 1292.7133 4290890751
4.7926607 811.29907 1292.7133 4290760447
7.1889906 811.29907 1292.7133 4290760447
9.5853214 811.29907 1292.7133 4290429947
-21.484404 817.56201 1291.4539 4284769662
-19.097248 817.56201 1291.4539 4284507267
-14.322936 817.56201 1291.4539 4285955496
-10.742202 817.56201 1291.4539 4287336386
-7.161468 817.56201 1291.4539 4288520154
-4.774312 817.56201 1291.4539 4287668163
-2.387156 817.56201 1291.4539 4289904868
7.161468 817.56201 1291.4539 4290693367
14.322936 817.56201 1291.4539 4290693108
16.710093 817.56201 1291.4539 4291087866
19.097248 817.56201 1291.4539 4290561015
21.484404 817.56201 1291.4539 4290561015
-28.645872 819.38696 1292.9927 4286544535
-26.258715 819.38696 1292.9927 4286939293
-22.677982 819.38696 1292.9927 4287138212
-19.097248 819.38696 1292.9927 4287271856
-16.710093 819.38696 1292.9927 4287535028
-14.322936 819.38696 1292.9927 4287469234
-10.742202 819.38696 1292.9927 4287994298
-4.774312 819.38696 1292.9927 4287075771
-2.387156 819.38696 1292.9927 4289839077
2.387156 819.38696 1292.9927 4290628094
4.774312 819.38696 1292.9927 4290298865
7.161468 819.38696 1292.9927 4290627574
10.742202 819.38696 1292.9927 4290561270
14.322936 819.38696 1292.9927 4290495476
16.710093 819.38696 1292.9927 4290956027
-21.418348 823.27979 1291.0428 4288058810
-19.038532 823.27979 1291.0428 4288782528
-10.709174 823.27979 1291.0428 4288455101
-7.1394496 823.27979 1291.0428 4287797430
-4.7596331 823.27979 1291.0428 4286944701
-22.608257 825.09918 1292.5769 4287400877
-16.658716 825.09918 1292.5769 4288520910
-14.278899 825.09918 1292.5769 4288389317
-10.709174 825.09918 1292.5769 4288257988
-7.1394496 825.09918 1292.5769 4287797950
-4.7596331 825.09918 1292.5769 4286747320
-30.818348 832.20795 1292.0306 4286807187
-28.447706 831.30176 1291.2666 4287137176
-26.077065 832.20795 1292.0306 4287203217
-23.706423 832.20795 1292.0306 4287465897
-2.3706422 831.30176 1291.2666 4289378265
-32.011009 758.60126 1295.3689 4282994531
-28.727829 757.97382 1294.8397 4283125338
-24.623854 758.60126 1295.3689 4284110446
-22.161469 758.60126 1295.3689 4286610580
-19.699083 757.66003 1294.5752 4287070858
-17.236698 757.66003 1294.5752 4288386718
-13.543119 757.66003 1294.5753 4288583871
-9.8495417 756.71875 1293.7816 4286548382
-31.891743 766.9668 1295.8823 4285562004
-29.438532 766.02905 1295.0917 4284902805
-26.167585 766.34161 1295.3552 4284836749
-22.078899 766.9668 1295.8823 4287994032
-19.625689 766.02905 1295.0917 4288585155
-17.172478 765.09131 1294.301 4288979142
-13.492661 765.09131 1294.301 4288716749
-9.8128443 765.09131 1294.301 4286022057
0 766.02905 1295.0917 4288456404
4.9064221 766.02905 1295.0917 4290035957
7.359633 766.9668 1295.8823 4291286015
-31.772476 773.42188 1294.7849 4285889687
-29.32844 772.48767 1293.9972 4286086042
-26.069723 772.79907 1294.2598 4286151837
-21.99633 773.42188 1294.7849 4287270323
-19.552294 773.42188 1294.7849 4287073975
-17.108257 772.48767 1293.9972 4287797179
-13.849541 772.79907 1294.2598 4287468990
-9.7761469 772.48767 1293.9972 4285627554
-7.3321099 772.48767 1293.9972 4285495712
-4.8880734 772.48767 1293.9972 4286809518
-2.4440367 771.55341 1293.2095 4288783564
1.2220184 773.42188 1294.7849 4289113570
7.3321099 773.42188 1294.7849 4290957311
9.7761469 772.48767 1293.9972 4291350783
12.220183 772.48767 1293.9972 4291153407
-12.174312 779.84888 1293.6639 4286152873
-9.7394495 779.84888 1293.6639 4286085774
-7.3045874 779.84888 1293.6639 4286743447
-4.8697248 779.84888 1293.6639 4287204028
-2.4348624 779.84888 1293.6639 4288256716
12.174312 779.84888 1293.6639 4290889980
-31.653212 781.71033 1295.2334 4286086035
-29.218349 781.71033 1295.2334 4286151326
-25.566055 781.71033 1295.2334 4286415008
-21.913761 781.71033 1295.2334 4287270827
-19.478899 781.71033 1295.2334 4287467706
-17.044037 781.71033 1295.2334 4287928257
-13.391743 781.71033 1295.2334 4287006122
-9.7394495 781.71033 1295.2334 4285495181
-7.3045874 781.71033 1295.2334 4286679456
-4.8697248 781.71033 1295.2334 4287073725
-2.4348624 781.71033 1295.2334 4287797448
12.174312 781.71033 1295.2334 4290758649
-21.814678 788.63611 1293.2249 4287206065
-13.331193 788.63611 1293.2249 4286151842
-7.2715597 788.63611 1293.2249 4286680750
-4.8477063 788.63611 1293.2249 4287795385
-2.4238532 788.63611 1293.2249 4289308625
-24.238533 790.48914 1294.7874 4286350756
-21.814678 790.48914 1294.7874 4287271858
-19.390825 790.48914 1294.7874 4287862462
-16.966972 790.48914 1294.7874 4288323013
-14.543119 790.48914 1294.7874 4286744758
-2.4238532 790.48914 1294.7874 4291347692
-24.14679 796.8432 1293.6047 4286482856
-21.732111 796.8432 1293.6047 4287798715
-7.2440367 796.8432 1293.6047 4287597475
-2.4146788 796.8432 1293.6047 4291285758
9.6587152 796.8432 1293.6047 4290298352
-33.805504 798.68921 1295.1613 4285228675
-31.390825 798.68921 1295.1613 4285557640
-28.976147 798.68921 1295.1613 4285822595
-26.561468 798.68921 1295.1613 4286612368
1.2073394 798.68921 1295.1613 4290299363
4.8293576 798.68921 1295.1613 4290430199
7.2440367 798.68921 1295.1613 4290430199
-36.082569 806.84717 1295.4998 4284703867
-33.677063 805.92767 1294.7244 4284045953
-31.271559 805.92767 1294.7244 4283848318
-28.866055 805.92767 1294.7244 4283388522
-25.257797 805.00818 1293.9491 4283519092
1.2027524 805.92773 1294.7245 4290495994
4.8110094 805.92767 1294.7244 4290628341
7.2165136 805.00818 1293.9491 4290627824
-34.347401 814.35248 1295.2877 4285953419
-31.152294 814.04712 1295.0303 4286282639
-28.755962 814.04712 1295.0303 4285297812
-26.359632 814.04712 1295.0303 4284310661
-23.164526 813.74176 1294.7728 4284373623
-16.774311 814.04712 1295.0303 4285296518
-14.377981 813.1311 1294.2579 4285822091
-10.783486 813.1311 1294.2579 4286875298
-7.1889906 813.1311 1294.2579 4287928505
-4.7926607 813.1311 1294.2579 4287930052
-2.3963304 813.1311 1294.2579 4290232807
1.1981652 814.04712 1295.0303 4290431228
4.7926607 814.04712 1295.0303 4290693883
11.182874 814.35248 1295.2877 4290496250
-31.033028 821.21198 1294.5314 4286544272
-28.645872 821.21198 1294.5314 4286873750
-26.258715 821.21198 1294.5314 4286939543
-23.871559 821.21198 1294.5314 4286808486
-16.710093 821.21198 1294.5314 4288519613
-14.322936 821.21198 1294.5314 4288651964
-2.387156 821.21198 1294.5314 4289708007
1.193578 821.21198 1294.5314 4290299643
4.774312 821.21198 1294.5314 4290759151
7.161468 821.21198 1294.5314 4290693358
10.742202 821.21198 1294.5314 4290495474
14.322936 821.21198 1294.5314 4290495222
-28.557798 826.91858 1294.111 4287201947
-26.177982 826.91858 1294.111 4287399583
-23.798164 826.91858 1294.111 4287136674
-2.3798165 826.91858 1294.111 4289378526
0 828.73798 1295.645 4289707507
-37.073395 753.9726 1298.0062 4284967808
-34.601833 753.9726 1298.0062 4284178817
-32.011009 760.48376 1296.9562 4283980659
-28.317432 760.48376 1296.9562 4283583587
-24.623854 760.48376 1296.9562 4284899948
-22.161469 760.48376 1296.9562 4287926427
-19.699083 760.48376 1296.9562 4287599537
-17.236698 760.48376 1296.9562 4288323261
-14.774312 760.48376 1296.9562 4288455628
-34.473396 762.36627 1298.5435 4286020490
-32.011009 762.36627 1298.5435 4285165181
-24.623854 762.36627 1298.5435 4284308607
-22.161469 762.36627 1298.5435 4287729842
-34.344955 768.84229 1297.4637 4285626513
-31.891743 768.84229 1297.4637 4285889685
-24.53211 768.84229 1297.4637 4286086049
-22.078899 768.84229 1297.4637 4287862460
-19.625689 768.84229 1297.4637 4288322493
-12.266055 768.84229 1297.4637 4287731387
1.2266055 768.84229 1297.4637 4289376995
4.9064221 768.84229 1297.4637 4290035959
7.359633 768.84229 1297.4637 4291417599
-34.216515 775.29034 1296.3604 4285691540
-31.772476 775.29034 1296.3604 4285954713
-29.32844 775.29034 1296.3604 4286151324
-25.662384 775.29034 1296.3604 4286414756
-21.99633 775.29034 1296.3604 4287204275
-19.552294 775.29034 1296.3604 4287073975
-17.108257 775.29034 1296.3604 4287534526
-13.442202 775.29034 1296.3604 4287271349
-9.7761469 775.29034 1296.3604 4285299615
-7.3321099 775.29034 1296.3604 4285496994
-4.8880734 775.29034 1296.3604 4286810555
1.2220184 775.29034 1296.3604 4289245412
4.8880734 775.29034 1296.3604 4290298361
7.3321099 775.29034 1296.3604 4291153663
9.7761469 775.29034 1296.3604 4291218943
-36.660549 777.15887 1297.9358 4285690777
-34.216515 777.15887 1297.9358 4285822865
-31.772476 777.15887 1297.9358 4286151574
-29.32844 777.15887 1297.9358 4286151326
-25.662384 777.15887 1297.9358 4286414756
-21.99633 777.15887 1297.9358 4287336116
-19.552294 777.15887 1297.9358 4287139768
-17.108257 777.15887 1297.9358 4287600319
-14.66422 777.15887 1297.9358 4287468732
1.2220184 777.15887 1297.9358 4289245410
4.8880734 777.15887 1297.9358 4290429429
7.3321099 777.15887 1297.9358 4291087615
9.7761469 777.15887 1297.9358 4291087615
-36.522934 785.43329 1298.3726 4285691790
-34.088074 784.50256 1297.5878 4285954715
-31.653212 784.50256 1297.5878 4285954715
-29.218349 784.50256 1297.5878 4285954207
-25.566055 784.50256 1297.5878 4286283425
-21.913761 783.57184 1296.803 4287401643
-19.478899 784.50256 1297.5878 4287795388
-17.044037 784.50256 1297.5878 4288387525
-14.609175 783.57184 1296.803 4287730876
-2.4348624 783.57184 1296.803 4288192458
0.81162077 784.81281 1297.8494 4289310925
4.8697248 785.43329 1298.3726 4290626303
7.3045874 785.43329 1298.3726 4290889471
9.7394495 784.50256 1297.5878 4290955513
-33.933945 793.26868 1297.131 4285493137
-31.510092 793.26868 1297.131 4286085530
-29.086239 793.26868 1297.131 4285692825
-25.854433 792.95978 1296.8706 4286350753
-21.814678 792.34216 1296.3497 4287666612
-19.390825 792.34216 1296.3497 4288323524
-16.966972 792.34216 1296.3497 4288257731
1.2119266 793.26868 1297.131 4291219447
4.8477063 793.26868 1297.131 4290495734
7.2715597 794.19525 1297.9122 4290430453
-33.805504 800.53528 1296.7178 4283978361
-28.976147 800.53528 1296.7178 4283849584
1.2073394 800.53528 1296.7178 4289708273
7.2440367 800.53528 1296.7178 4290627574
-36.220184 802.38135 1298.2743 4283979639
-36.082569 808.68622 1297.0503 4285623937
0 808.68622 1297.0503 4290693117
-37.285324 810.52527 1298.601 4285559178
-34.746788 817.71118 1298.1198 4286150026
-31.152294 816.79517 1297.3474 4286413201
0 816.79517 1297.3474 4290167543
16.774311 818.62714 1298.8921 4290889980
19.170643 817.71118 1298.1198 4290495733
22.765137 816.79517 1297.3474 4290167027
-34.2159 824.25366 1297.0961 4286676624
-31.033028 823.94946 1296.8396 4286874004
-28.645872 823.03699 1296.0702 4286546073
-26.258715 823.03699 1296.0702 4286546073
-2.387156 823.03699 1296.0702 4289445090
1.193578 823.94952 1296.8396 4290168571
4.774312 823.94946 1296.8396 4290759402
7.161468 823.94946 1296.8396 4290693609
-28.557798 830.55737 1297.1791 4286874242
2.3798165 830.55737 1297.1791 4290365438
-39.544952 755.86212 1299.5995 4285099138
-37.073395 755.86212 1299.5995 4285559689
-34.601833 755.86212 1299.5995 4285099908
-39.544952 757.75165 1301.1926 4284705413
-37.073395 757.75165 1301.1926 4285494929
-34.601833 757.75165 1301.1926 4285757070
-34.473396 764.24878 1300.1307 4285496210
-36.93578 766.13135 1301.718 4285822623
-36.798164 770.71783 1299.0452 4285624730
-34.344955 770.71783 1299.0452 4285494929
4.9064221 770.71783 1299.0452 4289773302
-39.251377 772.59332 1300.6265 4284770959
-36.798164 772.59332 1300.6265 4285428632
-39.104588 779.02734 1299.5114 4284705165
-36.660549 779.02734 1299.5114 4285692060
-34.216515 779.02734 1299.5114 4286020242
1.2220184 779.02734 1299.5114 4289245659
4.8880734 779.02734 1299.5114 4290232305
7.3321099 779.02734 1299.5114 4291087614
9.7761469 779.02734 1299.5114 4291087614
-40.326607 780.89581 1301.0868 4284835974
-36.660549 780.89581 1301.0868 4285626515
2.4440367 780.89581 1301.0868 4290101470
4.8880734 780.89581 1301.0868 4290495224
7.3321099 780.89581 1301.0868 4291021567
-36.522934 787.2948 1299.942 4285428619
-34.088074 787.2948 1299.942 4285364122
-31.653212 787.2948 1299.942 4285758880
-29.218349 787.2948 1299.942 4285562017
-26.783485 787.2948 1299.942 4286022568
1.2174312 787.2948 1299.942 4290560738
4.8697248 787.2948 1299.942 4290626813
7.3045874 787.2948 1299.942 4290692606
9.7394495 787.2948 1299.942 4290429681
-37.740364 789.15625 1301.5116 4284703363
7.3045874 789.15625 1301.5116 4290889980
-36.3578 796.97485 1300.2559 4284636540
-38.634861 805.15039 1300.6091 4285361281
-38.488075 812.36426 1300.1516 4285557638
-40.893578 814.20331 1301.7021 4285493132
-38.488075 814.20331 1301.7021 4285492099
-38.341286 820.45917 1300.4368 4286020238
-35.944954 820.45917 1300.4368 4286217873
10.783486 820.45917 1300.4368 4290232305
14.377981 820.45917 1300.4368 4290429429
16.774311 820.45917 1300.4368 4290692858
-38.341286 822.2912 1301.9814 4286281868
10.783486 822.2912 1301.9814 4290363888
14.377981 822.2912 1301.9814 4290429427
16.774311 822.2912 1301.9814 4290889978
-33.420185 826.68701 1299.1478 4286543504
2.387156 826.68701 1299.1478 4290365438
4.774312 826.68701 1299.1478 4290561771
7.161468 826.68701 1299.1478 4290495978
-33.420185 828.51196 1300.6866 4286149768
4.774312 828.51196 1300.6866 4290429931
7.161468 828.51196 1300.6866 4290495724
-43.252296 760.58594 1303.5824 4284572799
-39.544952 760.58594 1303.5825 4284968332
-37.073395 760.58594 1303.5825 4285692312
-44.322937 769.89636 1304.8926 4284308607
-40.629356 768.95508 1304.0989 4285032589
-44.157799 776.34436 1303.7893 4284110723
-40.886852 775.09399 1302.735 4284966286
-40.326607 782.76428 1302.6622 4284769922
-40.326607 784.63281 1304.2377 4284637821
-37.740364 791.0177 1303.0812 4284702331
-41.392662 792.87921 1304.6508 4284834173
-38.957798 792.87921 1304.6508 4284570747
-38.781651 799.75439 1302.5996 4284243068
-41.205505 801.60742 1304.162 4284769660
-43.464222 809.7655 1304.5005 4284769664
-41.049541 808.84247 1303.7222 4285427337
-43.299084 817.88135 1304.8035 4284639622
-40.893578 816.96185 1304.0281 4285626004
-38.488075 816.04236 1303.2528 4286150279
19.244038 817.88135 1304.8035 4290429427
21.649542 816.96185 1304.0281 4290561269
24.055046 816.96185 1304.0281 4290429684
-38.341286 824.12317 1303.5262 4285425792
-35.944954 824.12317 1303.5262 4285952137
10.783486 824.12317 1303.5262 4290429679
14.377981 824.12317 1303.5262 4290495474
16.774311 824.12317 1303.5262 4290561267
4.774312 830.33698 1302.2253 4289904107
-49.651375 754.47314 1306.2765 4283585135
-47.168808 754.47314 1306.2765 4284177272
-43.444954 754.47314 1306.2765 4284506235
-49.651375 756.37109 1307.8767 4283847024
-47.168808 756.37109 1307.8767 4284636540
-46.959633 763.42023 1305.9723 4284177270
-43.252296 763.42023 1305.9723 4284638074
-39.544952 763.42023 1305.9723 4285099156
-46.959633 765.30975 1307.5654 4284309113
-43.252296 765.30975 1307.5654 4284637824
-46.78532 771.77887 1306.4799 4284307575
-44.322937 771.77887 1306.4799 4284110975
-46.611008 778.21985 1305.3706 4284241780
-44.157799 778.21985 1305.3706 4284177021
-44.157799 780.09534 1306.952 4284177019
-46.436699 788.36975 1307.3887 4284175976
-43.992661 788.36975 1307.3887 4284176239
-41.548622 787.43555 1306.6008 4284373620
-58.436699 794.74066 1306.2202 4283452521
-56.001835 794.74066 1306.2202 4284175987
-43.827522 794.74066 1306.2202 4284111729
-41.392662 794.74066 1306.2202 4284309109
-38.957798 794.74066 1306.2202 4284110196
-43.827522 796.60217 1307.7898 4284440692
-41.392662 796.60217 1307.7898 4284704121
-43.629356 803.46051 1305.7245 4284834171
-41.205505 803.46051 1305.7245 4284899965
-43.629356 805.3136 1307.2869 4284703615
-43.464222 811.61151 1306.057 4284900739
-43.464222 813.45758 1307.6135 4284770438
-60.137615 820.63989 1307.1294 4283979891
-57.732109 820.63989 1307.1294 4284307828
-45.704586 820.63989 1307.1294 4284900995
-43.299084 820.63989 1307.1294 4284967045
-40.893578 820.63989 1307.1294 4285427596
19.244038 820.63989 1307.1294 4290495476
21.649542 821.55945 1307.9047 4290495476
-35.146175 827.17657 1306.1007 4284177271
7.1889906 827.78723 1306.6156 4290364658
9.5853214 825.9552 1305.0709 4290429933
-49.651375 758.26904 1309.4771 4283585133
-47.168808 758.26904 1309.4771 4284309113
-46.959633 767.19928 1309.1587 4284570747
-49.431194 769.08881 1310.7518 4284110196
-46.78532 773.66138 1308.0671 4284307573
-49.247707 775.54388 1309.6545 4283978865
-46.611008 781.97083 1308.5333 4284111727
-44.157799 781.97083 1308.5333 4284439162
-46.611008 783.84631 1310.1147 4284439918
-44.157799 783.84631 1310.1147 4284373622
-46.436699 790.23828 1308.9641 4284176239
-43.992661 790.23828 1308.9641 4284307573
-46.436699 792.10675 1310.5396 4284307825
-46.262386 799.39435 1310.144 4284637051
-43.827522 798.46362 1309.3594 4284572280
-46.053211 809.01965 1310.4117 4284703615
-57.952293 815.30359 1309.17 4284110446
-45.878899 815.30359 1309.17 4284900991
-55.537613 817.14966 1310.7266 4284307825
-49.500916 817.14966 1310.7266 4284440444
21.732111 817.14966 1310.7266 4290495476
24.14679 817.14966 1310.7266 4290495476
-57.732109 823.39844 1309.4553 4284636540
-48.110092 823.39844 1309.4553 4284703867
-45.704586 823.39844 1309.4553 4284638073
-43.299084 823.39844 1309.4553 4285163384
-40.893578 823.39844 1309.4553 4285229177
-38.488075 823.39844 1309.4553 4285097087
13.230275 823.39844 1309.4553 4290429679
16.838531 823.39844 1309.4553 4290561267
19.244038 823.39844 1309.4553 4290561015
-54.818348 755.5509 1313.7253 4283781481
-52.326607 754.59845 1312.9222 4283781480
-52.133945 760.16699 1311.0774 4283847274
-49.651375 760.16699 1311.0774 4283716719
-52.133945 762.06494 1312.6776 4283848558
-49.651375 762.06494 1312.6776 4283848562
-54.374313 770.97833 1312.3451 4283781231
-51.902752 770.97833 1312.3451 4283912818
-49.431194 770.97833 1312.3451 4284110194
-55.610092 772.86786 1313.9382 4283847790
-51.902752 772.86786 1313.9382 4284110446
-49.247707 778.36768 1312.0354 4283914351
-46.78532 777.42639 1311.2418 4283979891
-49.06422 785.7218 1311.6962 4283912547
-51.517429 787.59735 1313.2775 4284110444
-49.06422 787.59735 1313.2775 4283979117
-58.656879 793.97522 1312.115 4283386471
-56.212845 793.97522 1312.115 4284175987
-48.880733 793.97522 1312.115 4284175987
-46.436699 793.97522 1312.115 4284439416
-58.656879 795.84375 1313.6904 4283518566
-56.212845 795.84375 1313.6904 4284176239
-51.324772 795.84375 1313.6904 4284242030
-48.880733 795.84375 1313.6904 4283979891
-46.262386 802.18652 1312.4984 4284703869
-58.172478 810.87274 1311.9742 4283519340
-55.748623 812.72583 1313.5366 4284110446
-49.688992 812.72583 1313.5366 4284637050
-46.053211 810.87274 1311.9742 4284769662
-55.537613 818.99573 1312.2831 4284439416
-53.122936 818.99573 1312.2831 4284702585
-49.500916 818.99573 1312.2831 4284703100
24.14679 818.99573 1312.2831 4290429427
-60.366974 820.84174 1313.8396 4284243064
-55.537613 820.84174 1313.8396 4284570747
-53.122936 820.84174 1313.8396 4284505981
-50.708256 820.84174 1313.8396 4284572030
21.732111 820.84174 1313.8396 4290561015
24.14679 820.84174 1313.8396 4290495476
-60.137615 825.23749 1311.006 4284637835
-57.732109 826.15698 1311.7812 4283980668
-55.326607 826.15698 1311.7812 4284046462
-52.921101 826.15698 1311.7812 4283915132
-49.312843 826.15698 1311.7812 4284112253
-45.704586 826.15698 1311.7812 4284111995
-43.299084 826.15698 1311.7812 4283914096
-40.893578 826.15698 1311.7812 4284111475
-38.488075 826.15698 1311.7812 4283980153
7.2165136 827.07648 1312.5565 4290561015
9.6220188 825.23749 1311.006 4290627311
13.230275 825.23749 1311.006 4290561520
16.838531 825.23749 1311.006 4290495472
19.244038 825.23749 1311.006 4290298611
-54.818348 757.45593 1315.3315 4283847274
-54.818348 759.36084 1316.9377 4283716971
-54.616512 763.96289 1314.278 4283781229
-52.133945 763.96289 1314.278 4284110194
-49.651375 763.96289 1314.278 4284110196
-57.099083 765.86084 1315.8783 4283913071
-54.616512 765.86084 1315.8783 4283913067
-52.133945 765.86084 1315.8783 4284110446
-59.317432 774.75739 1315.5315 4283716969
-55.610092 774.75739 1315.5315 4283716970
-51.902752 774.75739 1315.5315 4283782765
-51.710091 781.19141 1314.4164 4283716971
-49.247707 781.19141 1314.4164 4283979367
-55.403671 783.07397 1316.0037 4283848046
-51.710091 783.07397 1316.0037 4283979115
-52.744034 790.41058 1315.6495 4284176491
-49.06422 789.47284 1314.8589 4284242032
-58.656879 797.71222 1315.2659 4283321964
-56.212845 797.71222 1315.2659 4283979637
-52.546791 797.71222 1315.2659 4283980143
-48.880733 797.71222 1315.2659 4284373622
-58.656879 799.58069 1316.8413 4283650926
-56.212845 799.58069 1316.8413 4283979891
-52.546791 799.58069 1316.8413 4284111477
-48.880733 799.58069 1316.8413 4284506233
-51.132111 805.90955 1315.6376 4284243066
-48.697247 804.97876 1314.8528 4284243065
-46.262386 804.04803 1314.068 4284703617
-53.324772 814.57886 1315.0991 4284111477
9.6587152 824.53381 1316.9528 4290495726
14.488073 824.53381 1316.9528 4290429681
16.902752 824.53381 1316.9528 4290429681
19.31743 824.53381 1316.9528 4290167023
21.732111 822.68774 1315.3962 4290232818
24.14679 822.68774 1315.3962 4290166512
-57.732109 828.91553 1314.1072 4284837524
-43.299084 828.91553 1314.1072 4284310139
-40.893578 828.91553 1314.1072 4284310139
-57.099083 767.75873 1317.4785 4283847024
-55.610092 776.64697 1317.1246 4283716972
-51.902752 776.64697 1317.1246 4283848558
-59.317432 778.5365 1318.7179 4283716971
-55.610092 778.5365 1318.7179 4283716971
-55.403671 784.95642 1317.5909 4284110191
-53.970642 793.22382 1318.0216 4284242030
-58.656879 801.44922 1318.4169 4283585133
-56.212845 802.38342 1319.2046 4283716719
-52.954128 802.07202 1318.942 4283848308
-52.755352 808.39142 1317.7302 4284110969
-48.697247 807.771 1317.207 4284572026
-53.122936 826.37988 1318.5093 4284112509
-49.500916 826.37988 1318.5093 4284375681
-45.878899 826.37988 1318.5093 4284309633
-57.521099 758.56879 1322.8102 4283650415
-56.212845 805.18616 1321.5677 4283585133
12.119267 821.99109 1321.3489 4290561519
21.814678 821.99109 1321.3489 4290167023
26.662386 821.99109 1321.3489 4290495476
16.966972 823.84412 1322.9114 4290232303
26.662386 823.84412 1322.9114 4290167793
-48.477066 825.6972 1324.4739 4284440708
-60.871559 818.93982 1326.6244 4284245126
24.348623 818.93982 1326.6244 4290298098
-60.871559 820.80127 1328.1938 4284840106
-56.001835 820.80127 1328.1938 4284114058
14.609175 820.80127 1328.1938 4290298352
19.478899 820.80127 1328.1938 4290035948
21.913761 820.80127 1328.1938 4290298863
24.348623 820.80127 1328.1938 4290167793
-60.871559 823.59351 1330.5482 4286024899
-58.436699 823.59351 1330.5482 4285825969
-56.001835 822.66278 1329.7634 4284312736
-52.755352 823.28326 1330.2866 4284639107
-46.262386 822.66278 1329.7634 4284506502
25.566055 822.66278 1329.7634 4290298098
26.662386 833.10944 1330.7236 4290693360
-63.544952 820.13403 1334.1714 4286945487
19.552294 820.13403 1334.1714 4290429681
21.99633 820.13403 1334.1714 4290495474
-60.871559 826.38568 1332.9026 4287734235
-63.306423 828.24719 1334.472 4289378295
-60.871559 828.24719 1334.472 4288391400
12.266055 815.72986 1336.998 4289905393
-63.544952 822.93677 1336.5345 4288130020
-58.656879 823.87103 1337.3223 4287339711
-56.212845 822.93677 1336.5345 4285892267
-52.546791 822.93677 1336.5345 4284771482
-48.880733 822.00256 1335.7468 4284178304
21.99633 822.00256 1335.7468 4290364406
25.662384 822.93677 1336.5345 4290166769
-63.306423 830.10864 1336.0416 4290167039
-60.871559 830.10864 1336.0416 4289245941
-63.306423 831.97009 1337.6112 4290233343
-60.871559 831.97009 1337.6112 4289707003
14.719266 817.60535 1338.5795 4290102000
17.172478 817.60535 1338.5795 4290102000
19.625689 819.48083 1340.1609 4290364406
-58.656879 826.67371 1339.6855 4288259804
-56.212845 826.67371 1339.6855 4287799253
-53.768806 825.7395 1338.8978 4286616513
25.255045 826.3623 1339.423 4290298606
-63.306423 833.8316 1339.1807 4290233599
12.311927 815.07666 1342.9875 4290167797
-51.517429 821.35632 1341.7422 4284311712
-49.06422 821.35632 1341.7422 4283851399
19.625689 821.35632 1341.7422 4290364154
22.078899 821.35632 1341.7422 4290298361
-51.517429 823.23181 1343.3236 4285564082
19.625689 823.23181 1343.3236 4289904116
22.078899 823.23181 1343.3236 4290167545
-58.656879 829.47644 1342.0487 4289837810
-56.212845 829.47644 1342.0487 4289114344
24.440367 829.47644 1342.0487 4289969900
-61.100918 831.34497 1343.6241 4289773051
-58.656879 831.34497 1343.6241 4289969912
-56.212845 831.34497 1343.6241 4289180396
14.774312 816.95923 1344.5748 4290036722
17.236698 817.90045 1345.3684 4290167537
-53.970642 826.0451 1345.6957 4288127700
19.625689 825.10736 1344.905 4290035442
22.078899 826.0451 1345.6957 4290298613
-61.100918 833.2135 1345.1997 4289970943
-58.656879 833.2135 1345.1997 4289576703
-56.212845 833.2135 1345.1997 4288787187
-58.656879 835.08191 1346.7751 4289838842
-56.212845 835.08191 1346.7751 4289312498
-44.488075 812.54797 1347.3955 4284572028
-46.959633 814.4375 1348.9886 4284441476
12.357799 814.4375 1348.9886 4289905139
-49.247707 820.72424 1347.7494 4285627810
-51.710091 822.60675 1349.3367 4286352051
-49.247707 822.60675 1349.3367 4286219697
-53.970642 829.79608 1348.8584 4288719082
19.625689 829.79608 1348.8584 4289969646
22.078899 829.79608 1348.8584 4290167282
9.930275 808.56458 1351.885 4289838831
-46.959633 816.32703 1350.5819 4284246157
14.829358 817.27179 1351.3784 4290297838
17.300917 818.21655 1352.175 4290362860
-51.710091 824.48926 1350.924 4287469264
19.699083 824.48926 1350.924 4289838062
-51.710091 826.37177 1352.5112 4287929311
19.625689 832.60938 1351.2305 4290822379
-44.686237 811.4115 1354.2854 4284703617
9.930275 811.4115 1354.2854 4289707759
-44.686237 813.30945 1355.8857 4284769671
9.930275 813.30945 1355.8857 4290166510
12.412844 813.30945 1355.8857 4290495474
-49.431194 821.99561 1355.3615 4286878145
-46.959633 821.05084 1354.5649 4285299111
14.829358 821.05084 1354.5649 4290165739
17.300917 821.05084 1354.5649 4290231532
-54.172478 830.13678 1355.6858 4289048812
-51.710091 829.19556 1354.8921 4288982763
-49.247707 830.13678 1355.6858 4288522713
17.236698 830.13678 1355.6858 4291085815
7.4752293 806.98486 1357.093 4290429933
-47.168808 815.2074 1357.486 4284640915
-44.686237 815.2074 1357.486 4284703617
12.412844 815.2074 1357.486 4290560236
-49.431194 823.88513 1356.9547 4287207371
-46.959633 823.88513 1356.9547 4286089147
-44.488075 823.88513 1356.9547 4286023088
14.829358 823.88513 1356.9547 4289968363
17.300917 823.88513 1356.9547 4290034412
-49.431194 825.77466 1358.5479 4288325591
-46.959633 825.77466 1358.5479 4287667661
-43.252296 825.77466 1358.5479 4286812348
14.829358 825.77466 1358.5479 4290232818
17.300917 825.77466 1358.5479 4290298611
-54.172478 832.01929 1357.2731 4289246956
14.774312 832.01929 1357.2731 4286478760
7.5027523 802.54413 1359.889 4290298098
-42.359634 812.69971 1361.9117 4284966532
7.4752293 811.74719 1361.1086 4290035437
9.9669724 812.69971 1361.9117 4290560236
-44.686237 817.10535 1359.0863 4284246407
9.930275 817.10535 1359.0863 4290297578
12.412844 817.10535 1359.0863 4290297578
-43.444954 819.0033 1360.6866 4285299613
9.930275 819.0033 1360.6866 4290166764
12.412844 819.0033 1360.6866 4290034921
-46.959633 827.66418 1360.1411 4287865040
-44.488075 827.66418 1360.1411 4287930565
14.829358 827.66418 1360.1411 4290822642
-51.902752 829.55371 1361.7343 4288983785
-49.431194 829.55371 1361.7343 4288523236
-46.959633 829.55371 1361.7343 4287996892
-44.488075 829.55371 1361.7343 4287668172
12.357799 829.55371 1361.7343 4283854772
-42.515594 806.36804 1363.1133 4284703617
7.5027523 806.36804 1363.1133 4289969902
-42.515594 808.28003 1364.7255 4284835720
5.0018349 808.28003 1364.7255 4290100716
-42.359634 814.60468 1363.5179 4284575372
7.4752293 814.60468 1363.5179 4290100968
-42.203671 820.90125 1362.2869 4285299109
-39.7211 820.90125 1362.2869 4285100171
9.930275 820.90125 1362.2869 4290559721
12.412844 820.90125 1362.2869 4290428134
-39.7211 822.79913 1363.8872 4286349221
-37.238533 822.79913 1363.8872 4285954463
-34.755962 822.79913 1363.8872 4285691288
-32.273396 822.79913 1363.8872 4285691288
9.930275 822.79913 1363.8872 4290690278
12.412844 822.79913 1363.8872 4290821864
-49.431194 831.44324 1363.3275 4288654052
-46.959633 832.388 1364.124 4287272400
-44.488075 832.388 1364.124 4286877374
-31.51376 793.11072 1366.3234 4283652209
-25.21101 793.11072 1366.3234 4284571524
-22.689909 793.11072 1366.3234 4285821591
-20.168808 793.11072 1366.3234 4288054435
-16.387156 793.11072 1366.3234 4288910775
-12.605505 793.11072 1366.3234 4289503687
-37.816513 795.03815 1367.9485 4283915131
-35.295414 795.03815 1367.9485 4283718255
-31.51376 795.03815 1367.9485 4283849588
-27.732111 795.03815 1367.9485 4283915129
-25.21101 795.03815 1367.9485 4283914877
-22.689909 795.03815 1367.9485 4284178306
-20.168808 795.03815 1367.9485 4285821800
-16.387156 795.03815 1367.9485 4287795602
-12.605505 795.03815 1367.9485 4288913839
-10.084404 795.03815 1367.9485 4289046218
-7.5633025 795.03815 1367.9485 4289046218
-5.042202 795.03815 1367.9485 4287799229
-2.521101 795.03815 1367.9485 4289378261
-15.07156 799.50128 1365.1716 4283851651
-2.5119267 799.50128 1365.1716 4289705431
5.0238533 799.50128 1365.1716 4290232305
-42.702751 801.42169 1366.7908 4284572028
-40.190826 801.42169 1366.7908 4284441725
-16.327522 801.42169 1366.7908 4284244611
-12.559633 801.42169 1366.7908 4284770954
-10.047707 801.42169 1366.7908 4284771208
-5.0238533 801.42169 1366.7908 4287601352
-2.5119267 801.42169 1366.7908 4289575143
5.0238533 801.42169 1366.7908 4290232555
-40.014679 811.14801 1367.1436 4284968073
-37.51376 812.104 1367.9497 4284968585
-2.5009174 812.104 1367.9497 4287472833
5.0018349 811.14801 1367.1436 4289969897
-39.867889 816.50964 1365.1241 4284641419
-37.376148 818.41455 1366.7303 4285034378
-34.884403 818.41455 1366.7303 4285099154
-32.392662 818.41455 1366.7303 4285099154
-29.900917 818.41455 1366.7303 4285165964
4.9834862 817.4621 1365.9272 4290297576
7.4752293 817.4621 1365.9272 4290495212
-42.203671 824.69708 1365.4874 4286614705
-39.7211 824.69708 1365.4874 4286613170
-37.238533 824.69708 1365.4874 4285889703
-34.755962 824.69708 1365.4874 4285822874
9.930275 824.69708 1365.4874 4289310932
12.412844 824.69708 1365.4874 4290166498
-42.203671 826.59503 1367.0878 4286812863
-39.7211 826.59503 1367.0878 4286876612
-37.238533 826.59503 1367.0878 4286350267
9.930275 826.59503 1367.0878 4282867877
-5.06422 788.11523 1369.9595 4286944694
-2.53211 788.11523 1369.9595 4289049814
-40.337616 796.96558 1369.5736 4284309887
-37.816513 796.96558 1369.5736 4284309887
-35.295414 796.96558 1369.5736 4284310135
-31.51376 796.96558 1369.5736 4284310137
-27.732111 796.96558 1369.5736 4284375932
-25.21101 796.96558 1369.5736 4284179067
-22.689909 796.96558 1369.5736 4283916152
-20.168808 796.96558 1369.5736 4283784815
-17.647707 796.96558 1369.5736 4284047731
-12.605505 796.96558 1369.5736 4284706960
-10.084404 796.96558 1369.5736 4286742693
-7.5633025 796.96558 1369.5736 4288650690
-5.042202 796.96558 1369.5736 4288323778
1.2605505 796.96558 1369.5736 4289838062
-40.190826 803.34204 1368.41 4284507521
-37.678898 803.34204 1368.41 4284507521
-20.095413 803.34204 1368.41 4284507780
-16.327522 803.34204 1368.41 4284967815
-12.559633 803.34204 1368.41 4285164679
-10.047707 803.34204 1368.41 4283984257
-7.53578 803.34204 1368.41 4284707723
-5.0238533 803.34204 1368.41 4285956010
-2.5119267 803.34204 1368.41 4289706211
5.0238533 803.34204 1368.41 4289903853
-40.190826 805.26245 1370.0293 4284835716
-37.678898 805.26245 1370.0293 4284769923
-32.655045 805.26245 1370.0293 4284639359
-27.631193 805.26245 1370.0293 4284507521
-22.60734 805.26245 1370.0293 4284639620
-20.095413 805.26245 1370.0293 4284639622
-16.327522 805.26245 1370.0293 4284967816
-12.559633 805.26245 1370.0293 4285296267
-10.047707 805.26245 1370.0293 4284443793
-7.53578 805.26245 1370.0293 4284838550
-5.0238533 805.26245 1370.0293 4284840354
-2.5119267 805.26245 1370.0293 4288722398
2.5119267 805.26245 1370.0293 4290167012
-37.51376 814.01599 1369.5618 4284773005
-35.012844 814.01599 1369.5618 4284968333
-31.261467 814.01599 1369.5618 4285099403
-27.510092 814.01599 1369.5618 4285230474
-22.508257 814.01599 1369.5618 4285034378
-20.007339 814.01599 1369.5618 4285296269
-17.506422 814.01599 1369.5618 4285362062
-7.5027523 814.01599 1369.5618 4284573064
-5.0018349 814.01599 1369.5618 4283985288
-2.5009174 814.01599 1369.5618 4288525005
2.5009174 814.01599 1369.5618 4290561269
-29.900917 820.31952 1368.3365 4285231757
4.9834862 820.31952 1368.3365 4289436099
7.4752293 820.31952 1368.3365 4291015132
-32.392662 822.22449 1369.9427 4285559959
-12.458715 822.22449 1369.9427 4284443020
-7.4752293 822.22449 1369.9427 4283917448
-4.9834862 822.22449 1369.9427 4283914627
-2.4917431 822.22449 1369.9427 4283388283
2.4917431 822.22449 1369.9427 4286481250
4.9834862 822.22449 1369.9427 4287009956
7.4752293 822.22449 1369.9427 4288325559
-42.203671 829.44196 1369.4883 4286746044
-39.7211 829.44196 1369.4883 4286219208
-37.238533 829.44196 1369.4883 4285956035
-34.755962 829.44196 1369.4883 4285429676
-29.790825 830.39093 1370.2883 4285495708
-22.343119 830.39093 1370.2883 4288192960
-19.86055 830.39093 1370.2883 4288388815
-13.240367 829.7583 1369.7549 4282930554
-34.601833 837.11182 1368.1071 4289838051
-27.85321 790.05109 1371.5917 4283981426
-10.12844 790.05109 1371.5917 4288981711
-7.5963302 790.05109 1371.5917 4288389317
-5.06422 790.05109 1371.5917 4286484915
-2.53211 790.05109 1371.5917 4288853464
1.6880733 791.34161 1372.6798 4289904363
5.06422 791.98688 1373.2239 4290232307
-37.816513 798.89294 1371.1987 4284375932
-35.295414 799.85669 1372.0114 4284376189
-31.51376 799.85663 1372.0115 4284441982
-27.732111 799.85669 1372.0114 4284310653
-25.21101 799.85669 1372.0114 4284376449
-22.689909 799.85669 1372.0114 4284442242
-20.168808 798.89294 1371.1987 4284244612
-7.5633025 798.89294 1371.1987 4287731637
1.2605505 799.85663 1372.0115 4290231533
-37.678898 807.18286 1371.6484 4284835718
-35.166973 808.14307 1372.458 4284967047
-31.399082 808.14307 1372.458 4284835717
-27.631193 808.14307 1372.458 4284770438
-25.119267 808.14307 1372.458 4284705160
-22.60734 808.14307 1372.458 4284771210
-20.095413 808.14307 1372.458 4284837003
-16.327522 808.14307 1372.458 4285165455
-12.559633 808.14307 1372.458 4285230993
-10.047707 808.14307 1372.458 4285034132
-7.53578 808.14307 1372.458 4284507788
-5.0238533 808.14307 1372.458 4283525001
-2.5119267 807.18286 1371.6484 4287867087
1.2559633 808.14307 1372.458 4289641449
-27.510092 815.92798 1371.174 4285297551
-25.009174 815.92798 1371.174 4285100171
-22.508257 815.92798 1371.174 4285100171
-20.007339 815.92798 1371.174 4285165716
-16.255962 815.92798 1371.174 4285493915
-10.00367 815.92798 1371.174 4285297553
-7.5027523 815.92798 1371.174 4284376451
-5.0018349 815.92798 1371.174 4284443791
-2.5009174 815.92798 1371.174 4289378265
1.2504587 815.92798 1371.174 4290756600
-25.009174 817.8399 1372.7861 4285165964
-22.508257 817.8399 1372.7861 4285494929
-12.504587 817.8399 1372.7861 4284706195
-10.00367 817.8399 1372.7861 4284639116
-7.5027523 817.8399 1372.7861 4284244614
-5.0018349 817.8399 1372.7861 4284507015
-2.5009174 817.8399 1372.7861 4285099408
1.2504587 817.8399 1372.7861 4287333024
-34.884403 824.12946 1371.549 4286086826
-32.392662 824.12946 1371.549 4285758117
-17.442202 824.12946 1371.549 4285099660
-13.704587 824.12946 1371.549 4284507019
-9.9669724 824.12946 1371.549 4283718018
-7.4752293 824.12946 1371.549 4283454847
-4.9834862 824.12946 1371.549 4284505731
-2.4917431 824.12946 1371.549 4287993017
4.9834862 824.12946 1371.549 4284516284
7.4752293 824.12946 1371.549 4283792561
-32.392662 826.03442 1373.1553 4285758128
-14.950459 826.03442 1373.1553 4284574359
-9.9669724 826.03442 1373.1553 4283259012
-7.4752293 826.03442 1373.1553 4282995840
-4.9834862 826.03442 1373.1553 4283391365
7.4752293 826.03442 1373.1553 4286416590
-39.7211 832.28888 1371.8887 4286022586
-37.238533 832.28888 1371.8887 4286153915
-34.755962 832.28888 1371.8887 4286548914
-13.654128 832.28888 1371.8887 4283585134
-37.238533 834.18683 1373.489 4289706465
-12.412844 834.18683 1373.489 4289635789
-9.930275 834.18683 1373.489 4288589013
0 785.55847 1374.3438 4289773300
0 787.50134 1375.9819 4289838573
-35.295414 802.7478 1374.4491 4284770688
-30.25321 802.7478 1374.4491 4284573314
-25.21101 802.7478 1374.4491 4284573827
0 802.7478 1374.4491 4290035425
-25.119267 811.02362 1374.887 4285034378
-15.07156 811.02362 1374.887 4285427354
-12.559633 811.98383 1375.6965 4285822369
-10.047707 811.02362 1374.887 4285494166
0 811.02362 1374.887 4290232305
-30.011009 820.70789 1375.2043 4285625232
-27.510092 820.70789 1375.2043 4285362060
-25.009174 821.66388 1376.0104 4285229963
-22.508257 820.70789 1375.2043 4285296011
-20.007339 821.66388 1376.0104 4284309887
-10.00367 819.75189 1374.3982 4284180364
0.83363914 821.02655 1375.473 4286943895
-17.442202 827.93933 1374.7615 4285428130
-9.9669724 827.93933 1374.7615 4281419640
-7.4752293 827.93933 1374.7615 4281485433
-4.9834862 827.93933 1374.7615 4280108387
-9.9669724 829.84436 1376.3677 4282076287
-7.4752293 829.84436 1376.3677 4281484150
-4.9834862 829.84436 1376.3677 4281288581
-2.4917431 829.84436 1376.3677 4284183474
-27.631193 814.86438 1378.1254 4285297551
-20.095413 814.86438 1378.1254 4285233554
-16.327522 814.86438 1378.1254 4285167253
-25.119267 816.78479 1379.7446 4285625232
-20.095413 816.78479 1379.7446 4285297805
-16.327522 816.78479 1379.7446 4285100688
-30.011009 823.57581 1377.6224 4284837002
-27.510092 823.57581 1377.6224 4284573573
-25.009174 823.57581 1377.6224 4284573575
-22.508257 823.57581 1377.6224 4283849853
-20.007339 823.57581 1377.6224 4284705415
-17.506422 823.57581 1377.6224 4285692310
-2.5009174 823.57581 1377.6224 4288589013
1.2504587 823.57581 1377.6224 4289244136
5.0018349 823.57581 1377.6224 4287140313
-32.511925 825.48779 1379.2346 4285167272
-27.510092 825.48779 1379.2346 4286482604
-25.009174 825.48779 1379.2346 4287600823
-2.5009174 825.48779 1379.2346 4282740364
-14.950459 831.74927 1377.9739 4286740896
-7.4752293 831.74927 1377.9739 4287799497
-31.261467 827.39978 1380.8467 4287468222
-25.009174 827.39978 1380.8467 4288850120
-22.508257 827.39978 1380.8467 4289179085
-20.007339 827.39978 1380.8467 4287730901
-17.506422 827.39978 1380.8467 4284638630
0 827.39978 1380.8467 4284837526
-32.511925 829.31177 1382.4589 4289969380
1.2559633 822.54596 1384.6023 4285233081
-27.631193 824.46631 1386.2214 4288914130
-30.14312 826.38672 1387.8407 4290821616
