# .PCD v0.7 - Point Cloud Data file format
VERSION 0.7
FIELDS x y z rgb
SIZE 4 4 4 4
TYPE F F F U
COUNT 1 1 1 1
WIDTH 1155
HEIGHT 1
VIEWPOINT 0 0 0 1 0 0 0
POINTS 1155
DATA ascii
21.99633 786.50128 1305.8131 4294967295
25.662384 787.43549 1306.6008 4294639359
29.32844 787.43555 1306.6008 4294573567
31.772476 787.43555 1306.6008 4294573567
34.216515 787.43555 1306.6008 4294113279
-41.392662 794.74066 1306.2202 4289440224
21.913761 794.74066 1306.2202 4294179071
-43.827522 796.60217 1307.7898 4289243872
24.348623 796.60217 1307.7898 4294179071
-43.629356 803.46051 1305.7245 4289178079
25.450459 803.46051 1305.7245 4294047743
29.086239 803.46051 1305.7245 4293982207
-43.629356 805.3136 1307.2869 4288980955
25.450459 805.3136 1307.2869 4293982719
29.086239 805.3136 1307.2869 4293916927
-41.049541 811.61151 1306.057 4289637087
25.35413 811.61151 1306.057 4293916159
28.976147 811.61151 1306.057 4290828008
37.427521 811.61151 1306.057 4283923138
-43.464222 813.45758 1307.6135 4289045214
-41.049541 813.45758 1307.6135 4289505765
25.35413 813.45758 1307.6135 4291745268
28.976147 813.45758 1307.6135 4286683635
31.390825 813.45758 1307.6135 4284051915
33.805504 813.45758 1307.6135 4283987348
36.220184 813.45758 1307.6135 4286948033
-40.893578 820.63989 1307.1294 4289308378
-37.28532 820.63989 1307.1294 4288914909
25.257797 820.63989 1307.1294 4283001523
28.866055 820.63989 1307.1294 4284642994
31.271559 820.63989 1307.1294 4284314028
33.677063 820.63989 1307.1294 4285034665
36.884403 820.33344 1306.871 4287993813
-34.746788 826.87122 1305.8433 4288126169
23.963303 825.9552 1305.0709 4282935730
26.359632 825.9552 1305.0709 4283856832
28.755962 826.87122 1305.8433 4283855019
31.152294 827.78723 1306.6156 4283657393
34.746788 827.78723 1306.6156 4284380577
-34.613762 833.987 1305.303 4288718557
26.258715 833.987 1305.303 4293520383
28.645872 833.987 1305.303 4292074751
31.033028 833.987 1305.303 4289048548
33.420185 833.987 1305.303 4284386247
-40.58165 835.81201 1306.8418 4289110489
-38.194496 835.81201 1306.8418 4288848864
-35.807339 835.81201 1306.8418 4288848864
28.645872 835.81201 1306.8418 4293916159
31.033028 835.81201 1306.8418 4291218922
33.420185 835.81201 1306.8418 4286682111
-40.456882 841.47369 1306.3834 4289308373
-38.077065 841.47369 1306.3834 4288848864
23.798164 841.47369 1306.3834 4293323263
26.177982 841.47369 1306.3834 4293257471
28.557798 841.47369 1306.3834 4293520383
30.937614 841.47369 1306.3834 4293718015
33.317432 841.47369 1306.3834 4293850623
-42.836697 843.29309 1307.9175 4289176532
-40.456882 843.29309 1307.9175 4289176532
23.798164 843.29309 1307.9175 4293257215
26.177982 843.29309 1307.9175 4293191423
28.557798 843.29309 1307.9175 4292928767
30.937614 843.29309 1307.9175 4293060351
33.317432 843.29309 1307.9175 4293192703
-37.930275 847.61316 1305.0199 4288979673
-34.374313 847.61316 1305.0199 4288257748
22.521101 847.61316 1305.0199 4293652223
-40.300919 849.42554 1306.5481 4288979925
-37.930275 849.42554 1306.5481 4288849370
23.706423 849.42554 1306.5481 4293323263
26.077065 849.42554 1306.5481 4293125631
-37.783485 856.43256 1305.916 4288848856
-34.634865 856.13165 1305.6622 4288718301
-25.976147 855.52991 1305.1549 4294967295
23.614679 856.43256 1305.916 4293060095
25.976147 857.33521 1306.6772 4293191935
-35.284405 863.40454 1305.2545 4288981720
-32.93211 863.40454 1305.2545 4287732961
23.522936 863.40454 1305.2545 4293061119
25.875229 863.40454 1305.2545 4293455615
-35.284405 865.20288 1306.7708 4288652757
25.875229 865.20288 1306.7708 4292996095
28.227524 865.20288 1306.7708 4293127423
-35.14679 871.23706 1305.3186 4288913878
23.431192 871.23706 1305.3186 4293454591
25.774311 871.23706 1305.3186 4293257471
28.117432 871.23706 1305.3186 4292731903
-37.48991 873.02844 1306.829 4288586453
25.774311 873.02844 1306.829 4293191423
28.117432 873.02844 1306.829 4292928767
31.632111 873.02844 1306.829 4292665855
35.14679 873.02844 1306.829 4292534271
37.48991 873.02844 1306.829 4292599551
-37.372478 878.54431 1306.2477 4288586462
-35.036697 878.54431 1306.2477 4288652255
22.189907 878.54431 1306.2477 4292994303
25.693579 878.54431 1306.2477 4292796927
28.029358 878.54431 1306.2477 4292731135
31.533028 878.54431 1306.2477 4292599807
35.036697 878.54431 1306.2477 4292468479
37.372478 878.54431 1306.2477 4292271103
-37.372478 880.33002 1307.7534 4288125913
-35.036697 880.33002 1307.7534 4288586464
28.029358 880.33002 1307.7534 4292139263
31.533028 880.33002 1307.7534 4292534271
35.036697 880.33002 1307.7534 4292468479
37.372478 880.33002 1307.7534 4292271103
-31.409174 886.29688 1306.2443 4287997659
25.592661 886.29688 1306.2443 4292534015
27.919266 886.29688 1306.2443 4292666111
-31.409174 888.07556 1307.744 4287998173
27.919266 888.07556 1307.744 4292666111
-31.285322 894.89319 1306.9524 4287864786
25.491743 894.00739 1306.2054 4292666111
27.809174 894.89319 1306.9524 4293125887
-31.186239 899.43909 1305.5532 4288192469
23.100918 899.43909 1305.5532 4293389311
25.411009 899.43909 1305.5532 4293849855
-32.341286 901.2052 1307.0424 4287928266
23.100918 901.2052 1307.0424 4291810815
25.411009 901.2052 1307.0424 4290034410
27.721102 901.2052 1307.0424 4288914923
-34.51376 908.83569 1306.936 4288387273
-32.212845 907.95618 1306.1945 4287664328
-29.911926 907.07666 1305.4529 4288453329
23.009174 907.07666 1305.4529 4286081965
25.310091 908.83569 1306.936 4285364124
28.761467 908.83569 1306.936 4285952666
32.212845 908.83569 1306.936 4286214039
34.51376 908.83569 1306.936 4286082453
43.71743 907.07666 1305.4529 4286473098
-28.64679 914.67212 1305.317 4289115366
-25.209175 914.67212 1305.317 4294967295
-32.084404 916.42419 1306.7943 4288782790
-29.79266 916.42419 1306.7943 4289572562
34.376148 916.42419 1306.7943 4286409885
38.959633 916.42419 1306.7943 4286539406
41.251377 916.42419 1306.7943 4286605965
43.543118 916.42419 1306.7943 4286408842
-28.555046 922.63934 1306.8027 4292071931
-25.128441 921.76611 1306.0664 4292993023
29.697248 922.63934 1306.8027 4286276232
31.981651 922.63934 1306.8027 4286276483
34.266056 922.63934 1306.8027 4286342533
37.692657 922.63934 1306.8027 4286079108
-27.302752 929.28162 1305.8632 4292599807
-25.027523 929.28162 1305.8632 4292796927
19.339451 929.28162 1305.8632 4285885326
22.752293 929.28162 1305.8632 4286146447
25.027523 929.28162 1305.8632 4285817482
-25.027523 931.02106 1307.3298 4292599807
-22.752293 931.02106 1307.3298 4291746303
13.651376 931.02106 1307.3298 4284964769
15.926605 931.02106 1307.3298 4285425320
19.339451 931.02106 1307.3298 4286342793
22.752293 931.02106 1307.3298 4286277004
-6.8036699 934.57031 1305.0902 4292928511
-2.26789 934.57031 1305.0902 4293191679
0 934.57031 1305.0902 4294045695
4.53578 934.57031 1305.0902 4294967295
6.8036699 934.57031 1305.0902 4294309375
10.205505 934.57031 1305.0902 4290954201
-47.168808 758.26904 1309.4771 4289506017
-43.444954 758.26904 1309.4771 4289637349
-43.252296 767.19928 1309.1587 4289573607
-39.544952 767.19928 1309.1587 4289245671
32.130276 767.19928 1309.1587 4294639615
-43.252296 769.08881 1310.7518 4289441507
34.601833 769.08881 1310.7518 4294639615
-39.398167 773.66138 1308.0671 4289377000
32.011009 773.66138 1308.0671 4294311167
34.473396 773.66138 1308.0671 4294573823
-44.322937 775.54388 1309.6545 4289507555
-41.86055 775.54388 1309.6545 4289638884
34.473396 775.54388 1309.6545 4294244863
-44.157799 781.97083 1308.5333 4289308123
-46.611008 783.84631 1310.1147 4289637858
-44.157799 783.84631 1310.1147 4289572062
-46.436699 790.23828 1308.9641 4289177307
-43.992661 790.23828 1308.9641 4289244126
25.662384 790.23828 1308.9641 4294573311
29.32844 790.23828 1308.9641 4294442239
31.772476 790.23828 1308.9641 4294310655
34.216515 790.23828 1308.9641 4294245375
-48.880733 792.10675 1310.5396 4289308123
-46.436699 792.10675 1310.5396 4289308123
-43.992661 792.10675 1310.5396 4289045466
25.662384 792.10675 1310.5396 4294179071
29.32844 792.10675 1310.5396 4294113535
31.772476 792.10675 1310.5396 4294113535
34.216515 792.10675 1310.5396 4294048511
-48.697247 800.32507 1310.9288 4289308634
-46.262386 799.39435 1310.144 4289440476
-43.827522 798.46362 1309.3594 4289244126
25.566055 798.46362 1309.3594 4293653247
29.218349 798.46362 1309.3594 4293784063
31.653212 799.39435 1310.144 4293850111
34.088074 799.39435 1310.144 4293850111
-46.053211 809.01965 1310.4117 4289438939
-43.629356 808.09314 1309.6306 4289308379
29.086239 807.16663 1308.8494 4293589224
31.510092 808.09314 1309.6306 4291614943
33.933945 808.09314 1309.6306 4289841381
36.3578 807.16663 1308.8494 4291351011
-43.464222 815.30359 1309.17 4288847574
-41.049541 815.30359 1309.17 4289439711
31.390825 815.30359 1309.17 4281623736
33.805504 815.30359 1309.17 4286542486
-43.464222 817.14966 1310.7266 4289308123
-43.299084 823.39844 1309.4553 4289177305
-40.893578 823.39844 1309.4553 4289572062
-38.488075 823.39844 1309.4553 4288783075
31.271559 823.39844 1309.4553 4284841905
33.677063 823.39844 1309.4553 4284905901
36.082569 823.39844 1309.4553 4284182179
-40.737614 829.61926 1308.1604 4289308123
-38.341286 829.61926 1308.1604 4289111008
-34.746788 829.61926 1308.1604 4288718557
-43.133945 831.45123 1309.7051 4288848085
-40.737614 831.45123 1309.7051 4288979671
-38.341286 831.45123 1309.7051 4289045214
-42.968807 838.54944 1309.1499 4289111252
-40.58165 837.63696 1308.3806 4289045718
35.807339 838.54944 1309.1499 4292600575
-42.836697 845.11249 1309.4515 4289110741
-40.456882 845.11249 1309.4515 4289110741
26.177982 845.11249 1309.4515 4293257471
28.557798 845.11249 1309.4515 4292928767
30.937614 845.11249 1309.4515 4292862975
34.507339 845.11249 1309.4515 4292666367
-42.836697 846.93188 1310.9856 4288848083
28.557798 846.93188 1310.9856 4292666111
30.937614 846.93188 1310.9856 4292732159
34.507339 846.93188 1310.9856 4292862975
-40.300919 851.23792 1308.0762 4288979925
23.706423 851.23792 1308.0762 4293059583
26.077065 851.23792 1308.0762 4292993791
-40.300919 853.05029 1309.6044 4288979925
26.077065 853.05029 1309.6044 4293191167
28.447706 853.05029 1309.6044 4293125631
-37.783485 860.04333 1308.9606 4288586964
25.976147 859.14062 1308.1995 4293061119
28.337614 860.04333 1308.9606 4292863743
-37.636696 867.90039 1309.0453 4288914646
28.227524 867.00122 1308.2871 4293192959
31.755962 867.90039 1309.0453 4292797695
35.284405 867.90039 1309.0453 4292731647
-39.833027 874.8197 1308.3394 4288718032
-37.48991 874.8197 1308.3394 4288586201
30.46055 874.8197 1308.3394 4292796927
-39.833027 876.61108 1309.8499 4288848839
-39.708256 883.90143 1310.7646 4288519370
-37.372478 883.00854 1310.0118 4288191193
-35.036697 883.00854 1310.0118 4288454622
31.533028 883.00854 1310.0118 4292467967
35.036697 883.00854 1310.0118 4292796415
37.372478 883.00854 1310.0118 4292796671
39.708256 883.00854 1310.0118 4292730879
-34.899082 889.85425 1309.2438 4288324056
-32.572475 889.85425 1309.2438 4287406288
27.919266 889.85425 1309.2438 4292468223
-34.899082 891.63293 1310.7435 4288455124
-32.572475 891.63293 1310.7435 4287470798
30.245872 891.63293 1310.7435 4293455103
34.899082 891.63293 1310.7435 4293849343
-37.078899 899.32251 1310.687 4288452816
-34.761467 899.32251 1310.687 4288518609
27.809174 897.55078 1309.1931 4293784063
30.899084 898.73193 1310.1891 4287925704
34.761467 899.32251 1310.687 4286078887
-32.341286 902.97125 1308.5315 4287928264
25.411009 902.97125 1308.5315 4287269830
27.721102 902.97125 1308.5315 4284966843
30.031193 902.97125 1308.5315 4284637878
34.651375 902.97125 1308.5315 4286148246
36.961468 902.97125 1308.5315 4286080404
40.426605 902.97125 1308.5315 4286475158
-36.961468 904.73737 1310.0205 4288387019
-34.651375 904.73737 1310.0205 4288321225
25.411009 904.73737 1310.0205 4286148014
27.721102 904.73737 1310.0205 4285818527
31.186239 904.73737 1310.0205 4286279067
34.651375 904.73737 1310.0205 4286410385
36.961468 904.73737 1310.0205 4286342543
40.426605 904.73737 1310.0205 4286013062
-34.51376 910.59479 1308.4192 4288321739
-32.212845 910.59479 1308.4192 4287337664
25.310091 910.59479 1308.4192 4287401913
28.761467 910.59479 1308.4192 4287861177
32.212845 910.59479 1308.4192 4287006651
34.51376 910.59479 1308.4192 4286809272
36.814678 910.59479 1308.4192 4287202729
-36.814678 912.35388 1309.9025 4287862471
-34.51376 912.35388 1309.9025 4287994313
-32.212845 912.35388 1309.9025 4287337664
28.761467 912.35388 1309.9025 4288386240
32.212845 912.35388 1309.9025 4288186825
34.51376 912.35388 1309.9025 4287726274
36.814678 912.35388 1309.9025 4287595944
40.266056 912.35388 1309.9025 4287793324
43.71743 912.35388 1309.9025 4287332774
46.018349 912.35388 1309.9025 4287398801
-34.376148 919.92834 1309.7489 4291215588
-32.084404 919.05231 1309.0103 4290558953
36.667889 918.17627 1308.2716 4286144902
41.251377 919.05231 1309.0103 4286211459
43.543118 919.05231 1309.0103 4286277252
45.834862 919.92834 1309.7489 4286539906
-28.555046 925.25903 1309.0115 4292335359
29.697248 925.25903 1309.0115 4286146697
31.981651 925.25903 1309.0115 4286015363
34.266056 925.25903 1309.0115 4285883778
37.692657 925.25903 1309.0115 4285751939
-31.981651 927.00549 1310.484 4292335871
-29.697248 927.00549 1310.484 4292796415
28.555046 927.00549 1310.484 4285949573
31.981651 927.00549 1310.484 4286145152
34.266056 927.00549 1310.484 4286013566
-19.339451 932.7605 1308.7964 4292665855
-15.926605 932.7605 1308.7964 4292402687
-10.238532 932.7605 1308.7964 4292468223
-4.5504589 932.7605 1308.7964 4292468223
2.2752295 932.7605 1308.7964 4294835455
13.651376 932.7605 1308.7964 4284634532
15.926605 932.7605 1308.7964 4285555634
19.339451 932.7605 1308.7964 4286015111
-6.8256879 934.49994 1310.2631 4292468223
0 934.49994 1310.2631 4292926719
4.5504589 934.49994 1310.2631 4292465919
6.8256879 934.49994 1310.2631 4290821364
10.238532 934.49994 1310.2631 4287139307
13.651376 934.49994 1310.2631 4284899474
15.926605 934.49994 1310.2631 4285294232
18.201836 934.49994 1310.2631 4286144902
-52.326607 754.59845 1312.9222 4289375451
-49.834862 754.59845 1312.9222 4289506017
-49.651375 760.16699 1311.0774 4289309667
-47.168808 760.16699 1311.0774 4289375460
-43.444954 760.16699 1311.0774 4289638117
32.273396 760.16699 1311.0774 4294836223
-52.133945 762.06494 1312.6776 4289506269
-49.651375 762.06494 1312.6776 4289309408
-47.168808 762.06494 1312.6776 4289572324
32.273396 762.06494 1312.6776 4294639615
-46.959633 770.97833 1312.3451 4289638110
-43.252296 770.97833 1312.3451 4289573092
-51.902752 772.86786 1313.9382 4289309917
-49.431194 772.86786 1313.9382 4289506782
-46.959633 772.86786 1313.9382 4289638369
-51.710091 779.3089 1312.8291 4288981722
-49.247707 779.3089 1312.8291 4289439963
-46.78532 778.36768 1312.0354 4289768928
-44.322937 777.42639 1311.2418 4289572576
-46.611008 785.7218 1311.6962 4289244126
-44.157799 785.7218 1311.6962 4289572578
-51.517429 787.59735 1313.2775 4289572566
-49.06422 787.59735 1313.2775 4289308636
-51.324772 793.97522 1312.115 4288979671
-48.880733 793.97522 1312.115 4289374427
-46.436699 793.97522 1312.115 4289506269
26.884403 793.97522 1312.115 4294244863
29.32844 793.97522 1312.115 4294179071
31.772476 793.97522 1312.115 4294179071
34.216515 793.97522 1312.115 4293982207
-51.324772 795.84375 1313.6904 4289111259
-48.880733 795.84375 1313.6904 4289440476
-48.697247 802.18652 1312.4984 4289177305
-46.262386 802.18652 1312.4984 4289374427
31.653212 802.18652 1312.4984 4294508543
34.088074 802.18652 1312.4984 4294901759
-48.477066 812.72583 1313.5366 4289635289
-46.053211 811.79932 1312.7554 4289438167
-43.464222 818.99573 1312.2831 4289177305
-45.878899 820.84174 1313.8396 4289308888
-45.704586 827.07648 1312.5565 4289572314
-43.299084 826.15698 1311.7812 4288914391
-40.893578 825.23749 1311.006 4288849368
-38.488075 825.23749 1311.006 4288978910
-43.133945 833.28326 1311.2498 4289110489
-45.530273 835.1153 1312.7944 4289308123
-38.341286 835.1153 1312.7944 4288914912
-45.355965 841.28699 1311.4581 4288849620
35.807339 841.28699 1311.4581 4292929279
-45.355965 843.112 1312.9969 4289045970
-42.836697 848.75128 1312.5198 4288979925
28.557798 848.75128 1312.5198 4292862463
30.937614 848.75128 1312.5198 4293125631
34.507339 848.75128 1312.5198 4293126143
-40.300919 854.86267 1311.1324 4288586453
28.447706 854.86267 1311.1324 4292994559
30.818348 854.86267 1311.1324 4293191679
34.374313 854.86267 1311.1324 4292863487
-40.300919 856.67505 1312.6606 4288586451
30.818348 856.67505 1312.6606 4292798207
34.374313 856.67505 1312.6606 4292732159
-40.144955 862.75134 1311.2439 4288849368
-37.783485 862.75134 1311.2439 4288915929
30.699083 862.75134 1311.2439 4293061631
34.241287 862.75134 1311.2439 4292732671
-40.144955 864.5567 1312.7661 4288783323
-39.988991 870.5979 1311.3197 4289111511
-39.833027 878.4024 1311.3602 4288518857
-39.833027 880.19373 1312.8706 4288518857
-42.044037 886.58008 1313.0232 4287994569
-39.708256 886.58008 1313.0232 4288191948
-37.372478 886.58008 1313.0232 4288060373
-35.036697 885.68719 1312.2704 4288652255
31.533026 886.58008 1313.0232 4292665855
35.036697 886.58008 1313.0232 4292928767
37.372478 886.58008 1313.0232 4293059583
39.708256 886.58008 1313.0232 4293256703
-40.715595 893.41168 1312.2434 4288518604
-37.225689 893.41168 1312.2434 4288388817
-34.899082 893.41168 1312.2434 4288257231
31.409174 893.41168 1312.2434 4293192191
34.899082 893.41168 1312.2434 4291021555
-40.715595 895.19043 1313.7432 4288321995
-37.225689 895.19043 1313.7432 4288519120
-34.899082 895.19043 1313.7432 4288387534
32.572475 895.19043 1313.7432 4291217903
34.899082 895.19043 1313.7432 4288520389
37.225689 895.19043 1313.7432 4286544313
-44.031193 902.86584 1313.6747 4288188611
-40.168808 902.27533 1313.1768 4288189628
-37.078899 901.09418 1312.1809 4288452562
-34.761467 901.09418 1312.1809 4288913113
32.444038 901.09418 1312.1809 4285227144
-39.271561 907.38647 1312.2542 4288453059
-36.961468 907.38647 1312.2542 4288255945
36.961468 906.50342 1311.5096 4285885326
40.426605 907.38647 1312.2542 4286017682
43.891743 907.38647 1312.2542 4286149010
46.201836 907.38647 1312.2542 4286477969
-36.814678 914.11292 1311.3856 4287205815
-34.51376 914.11292 1311.3856 4287666366
29.911926 914.11292 1311.3856 4287067034
32.212845 914.11292 1311.3856 4286673057
36.814678 914.11292 1311.3856 4286210442
-36.814678 915.87201 1312.8689 4288059071
-34.51376 915.87201 1312.8689 4289177809
-34.376148 922.5564 1311.9648 4292202229
-32.084404 922.5564 1311.9648 4291940607
41.251377 922.5564 1311.9648 4286079874
-31.981651 928.75195 1311.9565 4292139263
-28.555046 928.75195 1311.9565 4292139263
25.128441 928.75195 1311.9565 4285948039
28.555046 928.75195 1311.9565 4286013312
31.981651 928.75195 1311.9565 4285947519
-28.555046 930.49841 1313.4292 4292073215
-25.128441 930.49841 1313.4292 4292731391
-22.844036 930.49841 1313.4292 4292534271
-13.706422 930.49841 1313.4292 4292271103
22.844036 930.49841 1313.4292 4286211209
25.128441 930.49841 1313.4292 4285948037
28.555046 930.49841 1313.4292 4286013314
31.981651 930.49841 1313.4292 4285947006
34.266056 930.49841 1313.4292 4285947006
-54.818348 757.45593 1315.3315 4289047004
-52.326607 757.45593 1315.3315 4289309919
-54.818348 759.36084 1316.9377 4289374427
34.884403 759.36084 1316.9377 4294639615
-54.616512 763.96289 1314.278 4289440474
-52.133945 763.96289 1314.278 4289506267
-49.651375 763.96289 1314.278 4289440222
-47.168808 763.96289 1314.278 4289572064
-54.616512 765.86084 1315.8783 4289637083
-52.133945 765.86084 1315.8783 4289768926
-49.651375 765.86084 1315.8783 4289440476
-47.168808 765.86084 1315.8783 4289572062
-54.374313 774.75739 1315.5315 4289047004
-51.902752 774.75739 1315.5315 4289047004
-49.431194 774.75739 1315.5315 4289440476
-51.710091 781.19141 1314.4164 4289374427
-49.247707 781.19141 1314.4164 4289308636
-51.710091 783.07397 1316.0037 4289374166
-49.247707 783.07397 1316.0037 4288915161
-52.744034 790.41058 1315.6495 4289046232
-51.324772 797.71222 1315.2659 4289177057
-52.546791 799.58069 1316.8413 4289111514
-51.132111 804.97876 1314.8528 4289176790
-48.697247 804.97876 1314.8528 4289373402
-46.262386 804.04803 1314.068 4289702878
-48.477066 814.57886 1315.0991 4289241814
-46.053211 814.57886 1315.0991 4289504986
-48.477066 816.43188 1316.6616 4289110228
-46.053211 816.43188 1316.6616 4289439193
-53.122936 824.53381 1316.9528 4288913867
-49.500916 823.61078 1316.1746 4289112020
-45.878899 822.68774 1315.3962 4289047000
-49.312843 830.75458 1315.6578 4288847319
-45.704586 829.83508 1314.8826 4289373408
-50.322937 836.94727 1314.3391 4289110739
-46.728439 836.94727 1314.3391 4289111763
-52.719265 838.7793 1315.8839 4288650958
-50.322937 838.7793 1315.8839 4289045716
-47.926605 838.7793 1315.8839 4288915413
-45.355965 844.93701 1314.5358 4288979925
-45.355965 846.76196 1316.0745 4288849370
-42.836697 850.57068 1314.0537 4288979925
30.937614 850.57068 1314.0537 4293191423
34.507339 850.57068 1314.0537 4292995071
-42.836697 852.39001 1315.5879 4288586453
-45.042202 860.29974 1315.7169 4288650958
-42.671558 859.39355 1314.9529 4288323025
-40.300919 858.48737 1314.1887 4288783575
30.818348 858.48737 1314.1887 4293126911
34.374313 858.48737 1314.1887 4292863487
-40.144955 866.36206 1314.2883 4288979925
-42.50642 868.16742 1315.8105 4288848083
-42.341286 875.09381 1315.1106 4288650952
-42.176147 881.98505 1314.381 4288651212
-43.211929 889.25861 1315.2817 4288650703
-39.708256 889.25861 1315.2817 4288519372
-37.372478 889.25861 1315.2817 4288192208
32.700916 889.25861 1315.2817 4293717759
37.372478 889.25861 1315.2817 4293519615
39.708256 889.25861 1315.2817 4293190911
-46.715595 891.04437 1316.7874 4288518091
-44.379818 891.04437 1316.7874 4288518091
37.372478 891.04437 1316.7874 4289178601
39.708256 891.04437 1316.7874 4286217660
-46.532108 896.96912 1315.2429 4287861190
-44.205505 896.96912 1315.2429 4288058569
-40.715595 896.96912 1315.2429 4288256196
37.225689 896.96912 1315.2429 4285751703
39.552292 896.96912 1315.2429 4286014875
-46.532108 898.7478 1316.7427 4287926470
-44.205505 898.7478 1316.7427 4288321228
-41.878899 898.7478 1316.7427 4288190141
-46.348625 904.63757 1315.1686 4288123583
-44.031193 904.63757 1315.1686 4288320962
-41.71376 904.63757 1315.1686 4288058042
-44.031193 906.40924 1316.6624 4287992767
-41.71376 906.40924 1316.6624 4287795131
-39.271561 910.91864 1315.2324 4288058307
-39.115597 917.63104 1314.3521 4289571792
-36.814678 917.63104 1314.3521 4290492122
-39.115597 919.39014 1315.8352 4290690527
-36.814678 919.39014 1315.8352 4291544553
-37.431805 926.35254 1315.1656 4292072444
-34.376148 926.06049 1314.9194 4292138749
34.376148 926.93652 1315.6581 4285947519
37.813759 926.06049 1314.9194 4285882236
41.251377 926.06049 1314.9194 4285882746
-25.128441 932.24481 1314.9017 4292270591
-22.844036 932.24481 1314.9017 4291810559
-19.417431 932.24481 1314.9017 4292204799
-15.990826 932.24481 1314.9017 4292664575
-13.706422 932.24481 1314.9017 4292468223
-10.279816 932.24481 1314.9017 4292402431
-4.5688071 932.24481 1314.9017 4292730367
-2.2844036 932.24481 1314.9017 4292730367
2.2844036 932.24481 1314.9017 4292926719
20.559633 932.24481 1314.9017 4286144902
22.844036 932.24481 1314.9017 4286275716
31.981651 932.24481 1314.9017 4285815417
-6.8532109 933.99127 1316.3743 4292598527
-2.2844036 933.99127 1316.3743 4292599039
1.1422018 933.99127 1316.3743 4292005631
10.279816 933.99127 1316.3743 4286545816
13.706422 933.99127 1316.3743 4285621890
15.990826 933.99127 1316.3743 4285884806
18.275229 933.99127 1316.3743 4286078857
22.844036 933.99127 1316.3743 4286078594
29.697248 933.99127 1316.3743 4286011517
31.981651 933.99127 1316.3743 4285879925
34.266056 933.99127 1316.3743 4286077561
-57.310093 761.26581 1318.5439 4289374681
-54.616512 767.75873 1317.4785 4289374679
-52.133945 767.75873 1317.4785 4289638108
-49.651375 767.75873 1317.4785 4289572060
-57.099083 769.65668 1319.0789 4289111511
-54.616512 769.65668 1319.0789 4289047002
-55.610092 776.64697 1317.1246 4289112796
-55.610092 778.5365 1318.7179 4289374428
-54.172478 784.95642 1317.5909 4288914380
-55.403671 786.83899 1319.1782 4288915162
-53.970642 793.22382 1318.0216 4289111259
-56.423855 795.0993 1319.603 4289242327
-53.970642 795.0993 1319.603 4289177057
-56.212845 802.38342 1319.2046 4289439189
-53.768806 802.38342 1319.2046 4289176790
-51.943729 809.01196 1318.2534 4289372627
-48.697247 807.771 1317.207 4289438425
-49.688992 818.28497 1318.224 4289110997
-55.748623 820.13806 1319.7865 4288783573
-53.324772 820.13806 1319.7865 4288651212
-53.122936 826.37988 1318.5093 4288978124
-49.500916 826.37988 1318.5093 4288978386
-52.921101 832.59357 1317.2084 4288650190
-49.312843 832.59357 1317.2084 4288978900
-72.165138 834.43262 1318.759 4288518859
-69.759636 834.43262 1318.759 4288847824
-67.354126 834.43262 1318.759 4288848072
-61.340366 834.43262 1318.759 4289110210
-57.732109 834.43262 1318.759 4289241798
-55.326607 834.43262 1318.759 4289373384
-52.921101 834.43262 1318.759 4288913617
-52.719265 841.52734 1318.2009 4288716240
-50.322937 841.52734 1318.2009 4288847826
-47.926605 841.52734 1318.2009 4288914130
-45.355965 848.58698 1317.6133 4288783323
-45.355965 850.41199 1319.1521 4288783073
-45.216515 854.20941 1317.1219 4288717528
-42.836697 854.20941 1317.1219 4288520658
-46.406422 856.02881 1318.656 4288914384
-45.042202 863.01837 1318.0092 4288848338
-42.671558 863.01837 1318.0092 4288453841
-43.687157 869.97278 1317.3328 4288651727
-44.867889 871.77814 1318.8551 4289242581
-42.341286 877.79132 1317.385 4288650442
-51.387157 892.83008 1318.2931 4287991994
-49.051376 892.83008 1318.2931 4288584132
-46.715595 892.83008 1318.2931 4288255430
-44.379818 892.83008 1318.2931 4288255430
39.708256 892.83008 1318.2931 4285228709
-52.555046 894.61578 1319.7987 4288058306
-49.051376 894.61578 1319.7987 4287926974
-51.185322 902.30524 1319.7422 4287860665
-46.532108 900.52649 1318.2424 4288057024
-44.031193 908.18097 1318.1562 4287926468
-41.71376 908.18097 1318.1562 4287926468
-44.031193 909.95264 1319.6501 4287861440
-41.71376 909.95264 1319.6501 4287927487
-40.426605 913.56775 1317.4662 4287795649
-43.891743 915.33386 1318.9552 4287665080
-41.58165 915.33386 1318.9552 4288716483
-40.266056 922.02875 1318.0601 4291677170
-36.814678 921.14917 1317.3185 4291873523
-36.667889 928.6886 1317.1354 4292138751
-34.376148 928.6886 1317.1354 4292401663
-32.084404 928.6886 1317.1354 4292270079
37.813759 928.6886 1317.1354 4285947004
-36.667889 930.44067 1318.6127 4291416063
-34.376148 930.44067 1318.6127 4291745023
-32.084404 930.44067 1318.6127 4291941375
-28.64679 930.44067 1318.6127 4291810047
25.209175 930.44067 1318.6127 4286144387
28.64679 930.44067 1318.6127 4286012801
34.376148 930.44067 1318.6127 4285947004
37.813759 930.44067 1318.6127 4285947256
0 935.73773 1317.8468 4287861467
29.697248 935.73773 1317.8468 4286143102
31.981651 935.73773 1317.8468 4285814902
34.266056 935.73773 1317.8468 4286143867
31.981651 937.48413 1319.3193 4286011513
-60.855656 757.93146 1322.2728 4289177558
-57.521099 756.6568 1321.198 4289374427
-58.555962 763.17078 1320.1503 4289177302
-58.555962 765.07574 1321.7565 4289045720
-62.06422 773.45258 1322.2794 4289177307
-58.754131 772.18726 1321.2125 4289177562
-56.022018 781.05585 1320.8422 4289110747
-56.634861 788.7215 1320.7655 4289506017
-59.097248 790.604 1322.3528 4288979412
-56.634861 790.604 1322.3528 4289242327
-58.877064 796.97485 1321.1843 4289176532
-56.423855 796.97485 1321.1843 4289308375
-58.877064 798.85034 1322.7657 4289176273
-58.656879 805.18616 1321.5677 4289110228
-56.212845 805.18616 1321.5677 4289241814
-53.768806 805.18616 1321.5677 4289176019
-56.001835 811.4939 1320.3462 4289110228
-52.349541 811.4939 1320.3462 4289241296
-56.001835 813.35541 1321.9156 4289176021
-52.349541 813.35541 1321.9156 4289176275
-58.172478 821.99109 1321.3489 4288782290
-55.748623 821.99109 1321.3489 4288979925
-58.172478 823.84412 1322.9114 4288978640
-55.748623 823.84412 1322.9114 4288978640
-67.611008 830.07196 1321.6223 4288848335
-60.366974 830.07196 1321.6223 4288716485
-57.952293 829.14893 1320.844 4288978894
-55.537613 829.14893 1320.844 4288978894
-53.122936 828.22589 1320.0658 4288912594
-67.354126 836.27161 1320.3097 4288453579
-64.948624 836.27161 1320.3097 4288453579
-61.340366 836.27161 1320.3097 4288912581
-57.732109 836.27161 1320.3097 4288780745
-55.326607 836.27161 1320.3097 4289109967
-67.354126 838.11066 1321.8602 4288518859
-61.340366 838.11066 1321.8602 4288715472
-57.732109 838.11066 1321.8602 4288780493
-55.326607 838.11066 1321.8602 4289372630
-52.719265 844.27539 1320.5181 4288519120
-50.322937 844.27539 1320.5181 4288584913
-47.926605 844.27539 1320.5181 4288454613
-55.115597 846.10736 1322.0627 4288520404
-52.719265 846.10736 1322.0627 4288650958
-50.322937 846.10736 1322.0627 4288782544
-47.926605 846.10736 1322.0627 4288454359
-47.743118 852.237 1320.6909 4288322770
-47.596329 857.84821 1320.1901 4288519372
-47.596329 859.6676 1321.7241 4288519374
-46.227524 865.73688 1320.3014 4288782542
-47.412846 867.54926 1321.8295 4288453579
-44.867889 874.48621 1321.1384 4288585156
-44.693577 883.1864 1321.934 4287798477
-52.555046 896.40149 1321.3044 4288320969
-49.051376 896.40149 1321.3044 4287860675
-56.058716 898.18726 1322.8101 4288123331
-52.555046 898.18726 1322.8101 4287860670
-49.051376 898.18726 1322.8101 4287795133
-51.185322 905.86267 1322.7417 4287991996
-48.858715 904.08392 1321.2419 4287992767
-46.532108 904.97327 1321.9918 4287992514
-44.031193 911.72437 1321.1439 4287861442
-46.348625 913.49603 1322.6378 4287467702
-43.891743 917.09991 1320.4443 4288914119
-41.58165 917.09991 1320.4443 4289769426
-43.891743 918.86603 1321.9335 4290558174
-46.018349 926.42639 1321.7681 4292203775
-43.71743 925.54688 1321.0265 4292334846
-40.64954 925.84003 1321.2737 4292072958
-36.667889 932.19275 1320.09 4291547129
-34.376148 932.19275 1320.09 4291810558
-32.084404 932.19275 1320.09 4291875832
-28.64679 932.19275 1320.09 4292270591
-25.209175 932.19275 1320.09 4292468223
-22.917431 932.19275 1320.09 4291941631
-19.479816 932.19275 1320.09 4292073215
-16.042202 932.19275 1320.09 4292599295
-13.750459 932.19275 1320.09 4292664575
-10.312843 932.19275 1320.09 4292796159
-4.5834861 932.19275 1320.09 4292599039
4.5834861 932.19275 1320.09 4290559462
6.8752294 932.19275 1320.09 4288322243
20.625689 932.19275 1320.09 4286078857
25.209175 932.19275 1320.09 4286078594
27.500917 932.19275 1320.09 4286077311
-36.667889 933.94476 1321.5673 4291349757
-34.376148 933.94476 1321.5673 4291810303
-32.084404 933.94476 1321.5673 4292071676
-28.64679 933.94476 1321.5673 4292006911
-25.209175 933.94476 1321.5673 4292205055
-22.917431 933.94476 1321.5673 4291744767
-19.479816 933.94476 1321.5673 4292073215
-16.042202 933.94476 1321.5673 4292335871
-13.750459 933.94476 1321.5673 4292531967
-10.312843 933.94476 1321.5673 4292663551
-6.8752294 933.94476 1321.5673 4291939839
-4.5834861 933.94476 1321.5673 4290428664
-2.291743 933.94476 1321.5673 4288652509
2.291743 933.94476 1321.5673 4285230004
4.5834861 933.94476 1321.5673 4286080169
6.8752294 933.94476 1321.5673 4286080169
9.1669722 933.94476 1321.5673 4285818779
16.042202 933.94476 1321.5673 4286278285
19.479816 933.94476 1321.5673 4286078855
22.917431 933.94476 1321.5673 4286078592
25.209175 933.94476 1321.5673 4286078592
27.500917 933.94476 1321.5673 4286143102
34.266056 939.23059 1320.792 4285815415
-62.522934 760.48071 1324.4222 4289045970
-59.801834 766.98071 1323.3627 4288913876
-62.293579 768.88562 1324.9689 4289308121
-64.546791 775.35052 1323.8798 4288979671
-62.06422 775.35052 1323.8798 4289177307
-59.58165 775.35052 1323.8798 4289177307
-64.546791 777.24847 1325.48 4289176536
-62.06422 777.24847 1325.48 4289242329
-59.58165 777.24847 1325.48 4289307873
-61.78899 784.20508 1323.4974 4288913878
-59.317432 784.20508 1323.4974 4288914912
-61.78899 786.0946 1325.0907 4288913365
-59.317432 786.0946 1325.0907 4288979673
-61.559631 794.36902 1325.5273 4289372882
-59.097248 792.48651 1323.9401 4289110741
-61.330276 800.72583 1324.3472 4289044433
-58.877064 800.72583 1324.3472 4289241042
-61.330276 802.60132 1325.9285 4289044431
-61.100918 807.98889 1323.9309 4288979153
-58.656879 807.98889 1323.9309 4289110483
-56.212845 807.05463 1323.1432 4289176019
-58.436699 815.21686 1323.4852 4288913876
-56.001835 815.21686 1323.4852 4288913876
-53.566971 815.21686 1323.4852 4288979412
-60.871559 817.07837 1325.0548 4288586703
-58.436699 817.07837 1325.0548 4288717780
-60.596329 825.6972 1324.4739 4288715981
-72.440369 833.76404 1324.7354 4288519109
-70.025688 833.76404 1324.7354 4288716487
-65.196327 831.91797 1323.1788 4288716485
-73.367889 839.94971 1323.4109 4288781512
-67.354126 839.94971 1323.4109 4288518087
-64.948624 839.94971 1323.4109 4288715722
-61.340366 839.94971 1323.4109 4288715974
-57.732109 839.94971 1323.4109 4288715468
-55.326607 839.94971 1323.4109 4288781517
-73.367889 841.78876 1324.9615 4288781514
-69.759636 841.78876 1324.9615 4288649677
-67.354126 841.78876 1324.9615 4288650438
-61.340366 841.78876 1324.9615 4288387775
-57.732109 841.78876 1324.9615 4288518859
-55.326607 841.78876 1324.9615 4288518859
-55.115597 847.93939 1323.6074 4288980959
-52.719265 847.93939 1323.6074 4288848333
-50.322937 847.93939 1323.6074 4288980175
-47.926605 847.93939 1323.6074 4288519902
-55.115597 849.77142 1325.1521 4288519120
-52.719265 849.77142 1325.1521 4288453579
-50.322937 849.77142 1325.1521 4288782544
-52.517429 856.79944 1324.5378 4288584904
-50.130276 857.71198 1325.3073 4288453829
-47.596329 861.487 1323.2582 4288650958
-47.412846 869.36163 1323.3577 4288518859
-47.412846 871.17401 1324.8859 4288519363
-47.229359 878.09692 1324.1829 4287993794
-44.867889 878.09692 1324.1829 4288454345
-47.045872 884.98474 1323.4503 4288650960
-51.750458 886.78308 1324.9667 4287597755
-49.398167 886.78308 1324.9667 4288321477
-56.234863 892.73303 1323.4435 4287794879
-56.234863 894.52441 1324.9539 4288057540
-56.058716 899.97296 1324.3158 4287860163
-53.722935 899.97296 1324.3158 4287991493
-49.051376 899.97296 1324.3158 4287991994
-56.058716 901.75867 1325.8214 4287794881
-52.555046 901.75867 1325.8214 4287860671
-46.532108 907.64136 1324.2415 4287664317
-48.858715 909.42004 1325.7412 4287860411
-46.532108 909.42004 1325.7412 4287664063
-49.824768 917.03943 1325.6255 4289439180
-46.348625 916.15356 1324.8785 4289110984
-46.201836 920.63214 1323.4226 4291281129
-43.891743 920.63214 1323.4226 4291675887
-48.511925 922.39819 1324.9117 4291872752
-46.201836 922.39819 1324.9117 4292136186
-48.319267 929.94458 1324.7345 4292073215
-46.018349 929.06506 1323.9929 4291678207
-43.71743 929.06506 1323.9929 4291612415
-40.266056 929.06506 1323.9929 4291613181
-36.667889 935.69684 1323.0446 4291612671
-34.376148 935.69684 1323.0446 4291810047
-32.084404 935.69684 1323.0446 4291941375
-28.64679 935.69684 1323.0446 4292072959
-25.209175 935.69684 1323.0446 4292401919
-22.917431 935.69684 1323.0446 4292336127
-20.625689 935.69684 1323.0446 4292467967
-10.312843 935.69684 1323.0446 4292465916
-6.8752294 935.69684 1323.0446 4289966037
-4.5834861 935.69684 1323.0446 4288256727
-2.291743 935.69684 1323.0446 4286612159
0 935.69684 1323.0446 4284638128
29.79266 935.69684 1323.0446 4285881211
-36.667889 937.44885 1324.5219 4291482110
-34.376148 937.44885 1324.5219 4291876607
-32.084404 937.44885 1324.5219 4292139007
-9.1669722 937.44885 1324.5219 4286869432
-36.667889 939.20093 1325.999 4292269823
-65.023849 764.30469 1327.6466 4289374166
-62.522934 763.34869 1326.8406 4289308372
-64.785324 770.79059 1326.5751 4288913878
-67.277061 772.69556 1328.1813 4288979408
-64.546791 779.14642 1327.0803 4288979673
-62.06422 779.14642 1327.0803 4289111259
-59.58165 779.14642 1327.0803 4289308134
-67.029358 781.04437 1328.6807 4288782542
-64.546791 781.04437 1328.6807 4288782292
-61.78899 787.98413 1326.6838 4289110228
-64.260551 789.87366 1328.2771 4289307089
-61.78899 789.87366 1328.2771 4289307089
-61.559631 796.25153 1327.1146 4289176273
-66.484406 798.13403 1328.7019 4288847824
-64.022018 798.13403 1328.7019 4288715468
-66.236694 804.47681 1327.5099 4289176273
-63.783485 804.47681 1327.5099 4288847824
-64.766968 812.6601 1327.8696 4288978894
-61.100918 811.72583 1327.0819 4289110479
-58.656879 810.79163 1326.2942 4289044435
-60.871559 818.93982 1326.6244 4288585167
-64.523857 820.80127 1328.1938 4288912848
-60.871559 820.80127 1328.1938 4288781517
-72.715599 827.55023 1326.0363 4288124614
-70.29174 827.55023 1326.0363 4288782544
-64.232109 827.55023 1326.0363 4288519367
-73.647705 835.61011 1326.292 4288650180
-70.025688 835.61011 1326.292 4288912844
-65.196327 835.61011 1326.292 4288518859
-70.025688 837.45612 1327.8484 4288780491
-61.340366 844.54724 1327.2875 4288125894
-57.732109 844.54724 1327.2875 4288388820
-55.115597 851.60339 1326.6968 4288650442
-52.719265 851.60339 1326.6968 4288585419
-50.322937 851.60339 1326.6968 4288979921
-55.115597 853.43542 1328.2416 4288716487
-50.322937 853.43542 1328.2416 4288650442
-52.517429 859.53699 1326.8461 4288323526
-50.130276 859.53699 1326.8461 4288389319
-52.517429 861.362 1328.3849 4288782532
-50.130276 861.362 1328.3849 4288782532
-49.976147 866.03546 1327.0933 4288583622
-47.412846 872.98639 1326.4139 4288190911
-49.783485 874.79877 1327.9421 4288453579
-47.229359 880.80493 1326.4663 4287667148
-51.952293 882.61029 1327.9885 4288319942
-49.590824 882.61029 1327.9885 4288912079
-58.807339 890.37976 1327.9993 4288057538
-54.102753 888.58142 1326.4829 4288189637
-56.058716 904.43726 1328.08 4287663292
-52.94434 904.73486 1328.3309 4287860668
-49.051376 904.43726 1328.08 4287992251
-51.185322 911.19879 1327.241 4287729077
-48.858715 911.19879 1327.241 4287729077
-55.838531 912.97748 1328.7407 4287794870
-52.348625 912.97748 1328.7407 4288123835
-48.858715 912.97748 1328.7407 4288189628
-53.300919 919.69696 1327.8662 4289702362
-50.21101 919.40167 1327.6173 4290557151
-49.666969 925.04736 1327.1454 4291875068
-48.319267 931.70361 1326.2177 4291417343
-46.018349 931.70361 1326.2177 4291546111
-43.71743 931.70361 1326.2177 4291809279
-40.266056 931.70361 1326.2177 4291219452
11.504587 931.70361 1326.2177 4285752986
13.805505 931.70361 1326.2177 4286080906
-48.319267 933.46271 1327.7009 4291547901
-46.018349 933.46271 1327.7009 4291875327
-43.71743 933.46271 1327.7009 4292006911
-40.266056 933.46271 1327.7009 4291481854
-18.407339 933.46271 1327.7009 4292532735
-16.106422 933.46271 1327.7009 4292598783
-13.805505 933.46271 1327.7009 4292663295
2.3009174 933.46271 1327.7009 4284638128
4.6018348 933.46271 1327.7009 4284767636
6.9027524 933.46271 1327.7009 4285359773
10.354128 933.46271 1327.7009 4285949586
16.106422 933.46271 1327.7009 4286277002
19.557798 933.46271 1327.7009 4285947269
23.009174 933.46271 1327.7009 4285947519
25.310091 933.46271 1327.7009 4285816190
27.61101 933.46271 1327.7009 4285881211
-67.822021 757.25275 1329.5487 4289111763
-65.310089 757.25275 1329.5487 4289045970
-67.822021 759.1731 1331.168 4289177559
-65.310089 759.1731 1331.168 4289308373
-67.524773 766.21667 1329.2587 4289242327
-65.023849 766.21667 1329.2587 4289176534
-67.524773 768.12866 1330.8708 4288979408
-69.768806 776.50549 1331.3937 4288979662
-67.277061 775.55298 1330.5906 4289176784
-69.511925 782.94232 1330.2809 4288847570
-67.029358 782.94232 1330.2809 4288913363
-64.546791 782.94232 1330.2809 4288913365
-69.511925 784.84027 1331.8812 4288649677
-67.029358 784.84027 1331.8812 4289110228
-64.546791 784.84027 1331.8812 4289176021
-66.732109 791.76318 1329.8702 4289438675
-64.260551 791.76318 1329.8702 4289372882
-69.203667 793.65271 1331.4635 4289110480
-66.732109 793.65271 1331.4635 4289044431
-64.260551 793.65271 1331.4635 4289110480
-71.409172 800.01654 1330.2892 4288913615
-67.715599 800.01654 1330.2892 4289176021
-64.022018 800.01654 1330.2892 4288978638
-68.946793 801.89905 1331.8765 4289242066
-71.14312 806.35229 1329.0912 4289374670
-66.236694 806.35229 1329.0912 4289110217
-63.783485 806.35229 1329.0912 4288978640
-71.14312 808.22784 1330.6726 4289044937
-67.463303 808.22784 1330.6726 4289240781
-63.783485 808.22784 1330.6726 4289043918
-68.433029 814.52856 1329.4451 4288912592
-64.766968 814.52856 1329.4451 4288848337
-70.877068 816.39709 1331.0205 4289110480
-68.433029 816.39709 1331.0205 4289110228
-64.766968 816.39709 1331.0205 4288979155
-73.045868 822.66278 1329.7634 4288781263
-70.611008 822.66278 1329.7634 4288912592
-68.176147 822.66278 1329.7634 4288978642
-64.523857 822.66278 1329.7634 4288847311
-65.196327 839.30219 1329.405 4288519109
-70.025688 841.14819 1330.9615 4288715974
-67.611008 841.14819 1330.9615 4288716487
-65.196327 841.14819 1330.9615 4288650438
-61.340366 847.30579 1329.6134 4288453579
-57.732109 847.30579 1329.6134 4288190412
-61.340366 849.14484 1331.1641 4288453325
-57.732109 849.14484 1331.1641 4288716235
-57.511925 856.18347 1330.5586 4288453828
-55.115597 856.18347 1330.5586 4288519621
-52.517429 863.18701 1329.9237 4288649412
-52.517429 865.01202 1331.4624 4288583882
-49.976147 868.76453 1329.3944 4288453579
-52.355965 870.58392 1330.9285 4288453325
-49.976147 870.58392 1330.9285 4288848083
-52.154129 878.42352 1330.9984 4288320964
-49.783485 877.51733 1330.2344 4288715975
-54.313763 884.41565 1329.5107 4288058821
-56.675228 886.22101 1331.033 4287992515
-61.159634 893.97644 1331.032 4288319427
-58.807339 892.1781 1329.5156 4288188611
-58.57798 899.89844 1329.4851 4287860926
-58.57798 901.68976 1330.9955 4288255684
-58.394497 908.90161 1331.8441 4287795381
-56.058716 908.00873 1331.0913 4287794616
-52.94434 907.71112 1330.8403 4287728824
-58.165138 914.75623 1330.2405 4287467184
-55.838531 914.75623 1330.2405 4288189374
-53.511925 914.75623 1330.2405 4288518339
-60.491745 916.53491 1331.7402 4287597239
-58.165138 916.53491 1331.7402 4288452547
-55.838531 916.53491 1331.7402 4288387023
-55.618347 922.35449 1330.1071 4290427882
-53.300919 922.35449 1330.1071 4291086069
-57.93578 924.12622 1331.601 4292137724
-55.618347 924.12622 1331.601 4292073466
-53.300919 924.12622 1331.601 4292073466
-53.132111 927.69647 1329.379 4292270586
-50.822018 928.57947 1330.1235 4292073983
-49.469727 935.2218 1329.1841 4291811071
-46.018349 935.2218 1329.1841 4291941119
-43.71743 935.2218 1329.1841 4291941119
-40.266056 935.2218 1329.1841 4291744510
-28.761467 935.2218 1329.1841 4292007421
-25.310091 935.2218 1329.1841 4292336127
-23.009174 935.2218 1329.1841 4292598527
-19.557798 935.2218 1329.1841 4292270078
-16.106422 935.2218 1329.1841 4290493928
-13.805505 935.2218 1329.1841 4289111271
-11.504587 935.2218 1329.1841 4286808516
-6.9027524 935.2218 1329.1841 4286211502
-4.6018348 935.2218 1329.1841 4285032611
-2.3009174 935.2218 1329.1841 4285361320
0 935.2218 1329.1841 4285754522
25.310091 935.2218 1329.1841 4285947521
28.761467 935.2218 1329.1841 4285553785
-49.469727 936.98083 1330.6672 4291744767
-46.018349 936.98083 1330.6672 4291940607
-43.71743 936.98083 1330.6672 4291940607
-40.266056 936.98083 1330.6672 4292072957
-34.51376 936.98083 1330.6672 4292730367
-32.212845 936.98083 1330.6672 4292664318
-28.761467 936.98083 1330.6672 4292335866
-25.310091 936.98083 1330.6672 4292731135
-23.009174 936.98083 1330.6672 4292664831
-19.557798 936.98083 1330.6672 4290822882
-16.106422 936.98083 1330.6672 4288388284
-13.805505 936.98083 1330.6672 4286873531
-10.354128 936.98083 1330.6672 4285360286
-6.9027524 936.98083 1330.6672 4285491865
-4.6018348 936.98083 1330.6672 4285689743
-2.3009174 936.98083 1330.6672 4285952916
0 936.98083 1330.6672 4286149266
23.009174 936.98083 1330.6672 4285618304
-67.822021 761.09351 1332.7871 4289111509
-70.025688 770.04059 1332.4829 4289110993
-70.025688 771.95258 1334.0951 4289110991
-72.260551 778.41046 1332.9999 4288652757
-69.768806 778.41046 1332.9999 4288782542
-72.260551 780.31543 1334.6061 4289045716
-69.511925 786.73822 1333.4816 4289176271
-67.029358 786.73822 1333.4816 4289176271
-70.439453 795.54224 1333.0566 4288979150
-68.946793 803.78162 1333.4637 4289373132
-71.14312 811.04108 1333.0447 4288978892
-68.689911 810.10333 1332.2539 4289043920
-70.877068 818.26556 1332.5959 4289241296
-68.433029 818.26556 1332.5959 4289110228
-67.611008 842.99426 1332.5181 4288519109
-65.196327 842.99426 1332.5181 4288519109
-67.611008 844.84027 1334.0746 4288519109
-65.196327 844.84027 1334.0746 4288453316
-61.340366 850.98389 1332.7146 4288256202
-57.732109 850.98389 1332.7146 4288716487
-61.340366 852.82288 1334.2653 4288518859
-57.511925 859.84747 1333.6479 4288715201
-55.115597 859.84747 1333.6479 4288978373
-54.904587 866.83704 1333.0012 4288387271
-52.517429 866.83704 1333.0012 4288453579
-54.904587 868.66199 1334.54 4288255430
-52.355965 872.40332 1332.4625 4288124614
-54.735779 874.22272 1333.9966 4288715981
-52.355965 874.22272 1333.9966 4288519363
-55.710091 880.2359 1332.5266 4288255173
-56.895412 882.04828 1334.0547 4288058821
-61.398167 889.83179 1334.0774 4288188611
-58.807339 895.77478 1332.5482 4287860413
-60.921101 905.27246 1334.0164 4287991992
-58.57798 904.37677 1333.2611 4287992250
-60.730274 910.68732 1333.3499 4287598772
-58.394497 910.68732 1333.3499 4287467186
-60.730274 912.47302 1334.8555 4287467184
-60.491745 919.203 1333.9899 4289767383
-58.165138 919.203 1333.9899 4290227935
-55.838531 918.3136 1333.24 4290031065
-57.93578 925.89789 1333.0947 4293124351
-55.618347 925.89789 1333.0947 4292599807
-60.253212 927.66962 1334.5886 4294967295
-57.93578 927.66962 1334.5886 4294901759
-55.618347 927.66962 1334.5886 4293259519
-53.300919 927.66962 1334.5886 4292667647
-53.132111 932.99469 1333.8464 4292273919
-50.822018 931.22864 1332.3573 4291942655
2.3100917 932.99469 1333.8464 4285951644
4.6201835 932.99469 1333.8464 4286148246
6.9302754 932.99469 1333.8464 4286214039
10.395412 932.99469 1333.8464 4286213008
13.860551 932.11169 1333.1018 4286211979
16.170643 932.99469 1333.8464 4286080906
19.63578 932.99469 1333.8464 4285881474
23.100918 932.99469 1333.8464 4286013314
-49.469727 938.73993 1332.1505 4291350270
-46.018349 938.73993 1332.1505 4291611389
-43.71743 938.73993 1332.1505 4291809023
-40.266056 938.73993 1332.1505 4291941373
-36.814678 938.73993 1332.1505 4291940863
-34.51376 938.73993 1332.1505 4292335615
-32.212845 938.73993 1332.1505 4292663295
-28.761467 938.73993 1332.1505 4290822126
-25.310091 938.73993 1332.1505 4288519633
-23.009174 938.73993 1332.1505 4287599304
-20.708258 938.73993 1332.1505 4285099169
-16.106422 938.73993 1332.1505 4285948832
-13.805505 938.73993 1332.1505 4285752986
-10.354128 938.73993 1332.1505 4285950869
23.009174 938.73993 1332.1505 4285290105
25.310091 938.73993 1332.1505 4285224312
-52.921101 940.49896 1333.6337 4291810289
-49.469727 940.49896 1333.6337 4291350522
-46.018349 940.49896 1333.6337 4292137722
-43.71743 940.49896 1333.6337 4292400893
-40.266056 940.49896 1333.6337 4292467199
-36.814678 940.49896 1333.6337 4292138239
-34.51376 940.49896 1333.6337 4291875067
-32.212845 940.49896 1333.6337 4291743968
-29.911926 940.49896 1333.6337 4289770177
-25.310091 940.49896 1333.6337 4285821110
-23.009174 940.49896 1333.6337 4284638866
32.212845 940.49896 1333.6337 4285487990
-50.41835 947.96118 1333.3855 4288195790
-41.251377 947.96118 1333.3855 4288127460
-55.001835 949.71326 1334.8628 4291609831
-52.710091 949.71326 1334.8628 4289701834
-49.272476 949.71326 1334.8628 4286612131
-41.251377 949.71326 1334.8628 4289178079
-70.590828 757.4538 1336.2583 4288914130
-70.333946 764.93433 1336.0256 4288913615
-72.526604 773.86456 1335.7072 4288849366
-72.260551 782.22034 1336.2123 4288978640
-72.260551 784.12531 1337.8186 4289242068
-70.753212 788.63611 1335.0818 4289176272
-71.994499 790.53406 1336.6821 4288979914
-75.13945 838.66858 1335.411 4288715972
-72.715599 838.66858 1335.411 4288715974
-72.715599 840.52161 1336.9734 4288584382
-70.29174 840.52161 1336.9734 4288650431
-70.025688 847.60938 1336.4094 4288519118
-67.611008 847.60938 1336.4094 4288453577
-65.196327 847.60938 1336.4094 4288321991
-69.759636 854.66193 1335.8159 4288518857
-67.354126 854.66193 1335.8159 4288649929
-64.948624 854.66193 1335.8159 4288649929
-61.340366 854.66193 1335.8159 4288649675
-74.570641 856.50098 1337.3665 4288255682
