# .PCD v0.7 - Point Cloud Data file format
VERSION 0.7
FIELDS x y z rgb
SIZE 4 4 4 4
TYPE F F F U
COUNT 1 1 1 1
WIDTH 1170
HEIGHT 1
VIEWPOINT 0 0 0 1 0 0 0
POINTS 1170
DATA ascii
40.858719 889.7619 800.34229 4294967295
43.546787 890.17291 800.68884 4294967295
-6.9730887 892.36646 799.9223 4293054435
-4.0229359 891.54633 799.23071 4293515755
-1.6091744 891.54633 799.23071 4294042611
0.80458719 892.77655 800.26807 4293977850
3.75474 891.95636 799.57648 4294504703
7.50948 891.95636 799.57648 4294967295
10.459633 891.54633 799.23071 4294967295
14.482569 891.54633 799.23071 4294967295
16.896332 891.54633 799.23071 4294767615
20.114677 891.54633 799.23071 4294899711
22.52844 891.54633 799.23071 4294966783
24.942204 892.77655 800.26807 4294966015
28.160549 892.77655 800.26807 4294898943
31.378899 892.16144 799.74939 4294965503
34.329052 892.36646 799.9223 4294966527
37.547401 892.36646 799.9223 4294966783
40.229359 892.77655 800.26807 4294967295
-12.844037 896.60193 800.87756 4291738839
-9.6330271 896.60193 800.87756 4292857056
-7.2247705 895.37451 799.84265 4293119973
-4.0137615 894.14709 798.80762 4293449962
-1.6055046 894.14709 798.80762 4293976816
0.80275232 895.37451 799.84265 4293912056
4.2813454 894.96533 799.49762 4294702335
6.9571862 894.96533 799.49762 4294967295
10.43578 894.76074 799.32513 4294967295
13.64679 894.14709 798.80762 4294967295
16.8578 894.76074 799.32513 4294768126
20.068806 894.76074 799.32513 4294899711
22.477064 894.7608 799.32513 4294966015
25.152906 895.78369 800.18768 4294965759
28.096329 895.98828 800.36011 4294899711
31.307339 895.98828 800.36011 4294965247
34.518349 896.60193 800.87756 4294965759
37.729355 896.60193 800.87756 4294966271
40.940369 896.60193 800.87756 4294967295
44.151375 896.60193 800.87756 4294967295
-7.1999998 899.26099 799.1955 4293448684
-4.2666669 899.05713 799.02362 4293778164
0.80000001 899.26099 799.19543 4294042870
4 899.26099 799.1955 4294240765
7.1999998 898.64941 798.67981 4294966783
10.4 898.64941 798.67981 4294967295
13.6 898.64941 798.67981 4294967295
16.799999 898.64941 798.67981 4294965503
20 899.26099 799.19543 4294965503
22.4 899.26099 799.1955 4294833405
24.533333 899.46484 799.36737 4294899455
28 899.87262 799.71118 4294966015
43.200001 899.87262 799.71118 4294967295
-12.8 901.09583 800.74255 4292066266
-10.4 901.09583 800.74255 4293118950
-7.1926603 901.77551 800.00763 4293711599
-3.7247705 902.0484 798.92969 4293647089
-1.5963303 901.84497 798.75818 4293976567
0.80000001 901.09583 800.74255 4293976566
3.9908257 902.4552 799.27271 4294372603
7.183486 901.84497 798.75818 4294900735
10.376146 901.2348 798.24365 4294967295
13.568808 901.2348 798.24365 4294967295
16.495413 901.6416 798.58667 4294767871
19.954128 902.4552 799.27271 4294965247
23.14679 902.4552 799.27271 4294966015
25.541285 902.4552 799.27271 4294965759
27.968807 901.77551 800.00763 4294966527
31.200001 901.09583 800.74255 4294964734
34.400002 901.09583 800.74255 4294966271
41.599998 901.09583 800.74255 4294967039
43.200001 901.09583 800.74255 4294967295
-7.183486 903.6756 800.30164 4293580522
-3.9908257 903.6756 800.30164 4293712879
-1.5926605 905.03217 798.82947 4294107893
0.79633027 904.35388 799.56555 4294108152
3.985321 904.35388 799.56555 4294240508
7.1669722 905.03217 798.82947 4294637567
13.537615 905.03217 798.82947 4294967295
16.722935 905.03217 798.82947 4294702334
19.908257 905.03217 798.82947 4294899711
23.14679 903.6756 800.30164 4294965503
25.541285 903.6756 800.30164 4294898687
27.93578 903.6756 800.30164 4294964735
31.128441 903.6756 800.30164 4294965247
-7.1669722 907.46741 800.88281 4293582831
-3.9798164 907.19629 800.00018 4293911794
-1.5889908 908.21094 798.89362 4293911794
0.79633027 906.85858 800.36938 4294173943
3.9798164 907.19629 800.00012 4294043640
7.1541281 907.8725 799.26221 4294702847
10.328441 908.21094 798.89355 4294967295
13.506422 908.21094 798.89355 4294967295
16.684402 908.21094 798.89362 4294571514
19.885323 907.53406 799.63092 4294767101
23.080734 907.19629 800.00012 4294767356
25.482569 906.85858 800.36945 4294832638
27.871559 907.46741 800.88281 4294897662
31.056881 907.46741 800.88281 4294963967
34.242203 907.46741 800.88281 4294965503
-7.1504583 910.03308 800.43005 4293647859
-3.972477 910.03308 800.43005 4293911797
-1.5853211 911.38123 798.95068 4293911795
0.7944954 910.03308 800.43005 4293977334
3.972477 910.03308 800.43005 4293846261
7.1504583 910.03308 800.43005 4294505727
10.328441 910.03308 800.43005 4294967295
13.506422 910.03308 800.43005 4294967295
16.664219 910.70715 799.69037 4294505977
19.862385 910.03308 800.43005 4294701565
23.040367 910.03308 800.43005 4294767103
25.423853 910.03308 800.43005 4294898687
27.807339 910.03308 800.43005 4294897919
31.779816 910.03308 800.43005 4294963967
-7.133945 913.80524 800.99451 4293845491
-3.6990826 913.40118 800.65387 4293779188
-1.5853211 913.19922 800.48358 4293647602
1.5853211 913.80524 800.99451 4293647853
3.9633026 913.19922 800.48358 4293780470
7.133945 913.19922 800.48364 4294374140
10.304587 913.19922 800.48358 4294967295
13.475229 913.19922 800.48358 4294967295
16.381651 912.99725 800.31329 4294572026
19.816513 912.59326 799.97266 4294438134
22.987156 912.59326 799.97266 4294635516
26.157799 913.19922 800.48358 4294964991
28.53578 913.80524 800.99451 4294701055
30.913761 913.80524 800.99451 4294766847
34.084404 913.80524 800.99451 4294964479
-6.3266053 916.35699 800.53003 4293779189
-3.9541283 916.35699 800.53003 4293647603
-1.5816513 916.35699 800.53003 4293713396
10.280734 916.35699 800.53003 4294834943
13.444036 916.35699 800.53003 4294967295
16.870947 915.95392 800.19019 4294308342
19.770641 915.14777 799.5105 4294438132
22.933945 915.14777 799.5105 4294635514
25.306421 915.14777 799.5105 4294898940
28.469725 916.35699 800.53003 4294438650
30.051376 916.35699 800.53003 4294438650
-6.3045874 920.77649 800.3324 4293581297
-4.2030582 920.37482 799.99371 4294042361
-1.5761468 920.77649 800.3324 4293846263
3.940367 920.77649 800.3324 4293911030
6.3045874 920.77649 800.3324 4293846261
10.244954 920.17401 799.8244 4294768639
13.134557 919.97314 799.65509 4294967295
16.28685 919.97314 799.65509 4294638074
19.701836 918.36658 798.30042 4294503669
23.116821 918.76825 798.6391 4294635511
26.400459 919.27032 799.06238 4294766844
29.158714 920.17401 799.8244 4294700283
31.522936 920.77649 800.3324 4294830844
33.099083 920.77649 800.3324 4294830844
-4.7174311 923.31281 799.85486 4294108152
4.7174311 923.31281 799.85486 4294042359
6.2899084 923.31281 799.85486 4293714930
10.48318 922.91211 799.51691 4294703358
13.628135 922.91211 799.51691 4294967295
16.773088 922.91211 799.51691 4294374902
19.655964 922.71173 799.34802 4294437621
22.800919 922.71173 799.34802 4294569465
25.683792 922.91211 799.51691 4294503418
29.090824 923.31281 799.85486 4294831613
31.449541 923.31281 799.85486 4294699771
-6.2899084 924.51501 800.86853 4293845235
-3.9311926 924.51501 800.86853 4294108406
3.9311926 924.51501 800.86853 4293911541
7.0761471 924.51501 800.86853 4293647853
10.221101 924.51501 800.86853 4294308091
13.366055 924.51501 800.86853 4294967295
16.511009 924.51501 800.86853 4294506744
19.655964 924.51501 800.86853 4294371828
22.800919 924.51501 800.86853 4294504184
25.945873 924.51501 800.86853 4294372857
29.090824 924.51501 800.86853 4294569209
31.449541 924.51501 800.86853 4294372344
33.022018 924.51501 800.86853 4294569466
-1.5688074 927.04285 800.38391 4293976564
-22.231194 810.6344 802.94971 4292264403
-22.159634 814.78809 802.52789 4292002002
-19.88685 814.57098 802.34473 4292198870
-22.111927 818.20044 802.78906 4292067792
-19.277063 817.76703 802.42358 4292264407
-16.158716 816.90009 801.69263 4292528602
-22.111927 819.50085 803.8855 4292330195
-19.560551 819.50085 803.8855 4292264406
-18.649542 823.6272 803.44061 4292395739
-18.548624 829.83191 802.13202 4292264927
-19.371559 832.48596 803.06183 4292067549
-18.508257 834.49268 803.4458 4292659941
-16.770641 836.64954 801.34033 4292595415
-19.28624 838.57275 802.96191 4292264925
-15.93211 837.93164 802.42139 4292331991
-18.407339 840.64606 802.09412 4292725218
-16.733946 840.64606 802.09412 4292463063
-19.180733 844.70715 801.59424 4292132568
-16.6789 844.06964 801.05664 4292199894
41.697247 844.06964 801.05664 4294967295
-18.346788 846.61987 803.20703 4292527323
-16.642202 848.04376 801.7915 4292397018
-14.977982 848.04376 801.7915 4292462811
-18.306421 850.58838 803.93701 4292001745
-16.605505 850.73718 801.44641 4292462298
-14.944954 850.73718 801.44641 4292462298
-16.605505 852.00671 802.51685 4292330708
-14.944954 852.00671 802.51685 4292462550
-14.895412 855.39941 801.45349 4293119964
-14.036697 858.07733 801.09534 4292527830
-16.422018 866.63098 801.76733 4292397018
-18.06422 869.14191 803.88452 4292067792
-16.422018 867.88641 802.82593 4292198871
-14.746789 869.2851 801.38928 4292528093
-18.023853 871.79041 803.50171 4292264917
-16.385321 870.53778 802.44543 4292132565
-13.89633 871.93359 801.00623 4292593628
-11.444036 871.93359 801.00623 4292594398
35.149544 871.93359 801.00623 4294967295
37.601833 871.93359 801.00623 4294967295
40.054131 871.93359 801.00623 4294966783
43.323853 871.93359 801.00623 4294967295
-17.166054 873.80841 802.5871 4292198867
-13.89633 873.18347 802.06018 4292725214
-17.922935 877.76434 801.99854 4292264151
-14.66422 877.76434 801.99854 4292724956
46.436699 877.76434 801.99854 4294967295
-17.340673 881.22314 802.29883 4292527833
-14.631192 881.01599 802.12421 4292463063
43.893578 880.39459 801.60022 4294967295
46.096638 880.34735 802.43243 4294967295
-19.508257 882.88025 803.69617 4292131798
-17.031193 884.25928 802.2428 4292659163
-13.787156 883.63928 801.72003 4292463065
-11.354129 883.01929 801.19727 4292726240
43.253826 883.43262 801.54572 4294967295
45.519264 882.88025 803.69617 4294967295
-19.398165 887.56366 801.10486 4292066518
-16.973394 887.56366 801.10486 4292528089
-13.740367 887.56366 801.10486 4292462807
-11.315597 887.56366 801.10486 4292397016
0 887.56366 801.10486 4293912054
42.837616 887.56366 801.10486 4294967295
45.416515 885.49933 803.28833 4294967295
-19.398165 889.41742 802.66791 4291672517
-17.242813 889.21143 802.4942 4292067791
45.262386 890.03534 803.18896 4294967295
-16.531652 892.94727 803.02814 4291475149
-13.977982 891.81696 802.07501 4292068055
-10.483486 891.40594 801.72852 4292594653
41.933945 891.40594 801.72852 4294967295
43.546787 891.40594 801.72852 4294967295
45.159634 892.63898 802.76819 4294966783
-16.091743 896.46722 803.38 4291080647
-13.946177 895.237 802.34259 4291738835
-10.727829 894.41681 801.65106 4292659936
34.597248 894.00677 801.3053 4294899967
37.815598 894.00677 801.3053 4294966271
41.033943 894.00677 801.3053 4294967295
43.447708 894.00677 801.3053 4294967295
46.666054 895.237 802.34265 4294967295
-13.64679 898.44305 802.42993 4291541453
-10.43578 897.82935 801.91248 4292659679
31.307339 897.82935 801.91248 4294965247
34.518349 897.82935 801.91248 4294965759
37.729355 898.44305 802.42993 4294965759
40.672787 898.23846 802.25751 4294966527
44.954128 898.44305 802.42993 4294967295
-16.055046 900.28418 803.9823 4291409599
-13.6 902.31903 801.77393 4292264399
-10.4 902.31903 801.77393 4293382115
34.400002 902.31903 801.77393 4294966015
37.599998 902.31903 801.77393 4294966271
40.799999 902.31903 801.77393 4294967295
44 902.31903 801.77393 4294966527
-16 903.54224 802.8053 4291539899
-13.585321 904.21912 802.06799 4292856019
-10.376146 904.896 801.33069 4293580516
-7.183486 904.896 801.33069 4293778925
27.93578 904.896 801.33069 4294964479
31.128441 904.896 801.33069 4294965759
34.321098 904.896 801.33069 4294966271
37.5578 904.21912 802.06799 4294965759
40.752293 904.21912 802.06799 4294967039
43.950459 904.21912 802.06799 4294966527
-15.963303 906.72662 802.87427 4292263628
-13.561468 907.06366 802.50439 4293383395
-10.36422 907.4007 802.13458 4293450732
30.26055 908.685 801.90942 4294964735
34.242203 908.685 801.90942 4294964735
37.470642 907.4007 802.13458 4294965503
40.659634 907.4007 802.13464 4294966015
43.848625 907.4007 802.13458 4294965759
46.240368 907.4007 802.13458 4294965247
-15.926605 910.51135 803.4494 4293646310
-13.803059 910.30841 803.27832 4294041325
-10.341284 910.5752 802.19519 4293582060
-7.1504583 911.24786 801.45435 4293713649
-4.7669725 911.24786 801.45435 4293779957
0.7944954 911.24786 801.45435 4293516270
27.807339 911.24786 801.45435 4294897918
30.985321 911.24786 801.45435 4294963455
34.163303 911.24786 801.45435 4294832638
37.385323 910.5752 802.19519 4294966015
40.566971 910.5752 802.19519 4294833406
43.69725 911.24786 801.45435 4294964991
46.875229 911.24786 801.45435 4294966015
-15.889908 913.67749 803.50293 4293909998
-13.506422 913.07007 802.99078 4294042096
-10.328441 912.46271 802.47864 4293845487
0 912.46271 802.47864 4293516267
37.341286 912.46271 802.47864 4294966015
40.7841 912.86761 802.82007 4294964990
43.69725 913.07007 802.99072 4294964991
46.080734 913.07007 802.99078 4294965247
-13.211009 915.8252 802.69775 4293975796
-10.304587 915.62317 802.52747 4294173687
-7.387156 916.71649 801.70526 4293713393
-3.1633027 917.56616 801.54968 4293911541
-1.5816513 917.56616 801.54968 4293911541
0.7917431 915.95746 802.15527 4293451248
3.9587154 916.29169 801.78308 4293713911
7.1256881 916.29169 801.78308 4293978361
9.4899082 917.56616 801.54968 4294832895
31.669725 916.29169 801.78308 4294569980
34.044952 916.29169 801.78308 4294767356
37.255047 915.62317 802.52747 4294767357
40.161469 915.8252 802.69775 4294965247
42.803669 916.22919 803.03845 4294898942
-12.653211 919.37988 803.07898 4293253099
-10.280734 919.37988 803.07898 4293844467
-7.908257 918.77533 802.56921 4293974769
0.79082566 918.77533 802.56921 4293517298
7.908257 918.77533 802.56921 4293912054
34.796329 918.77533 802.56921 4294700795
37.168808 918.77533 802.56921 4294634746
40.595718 919.17841 802.909 4294700796
42.704586 919.9845 803.58875 4294964735
-10.244954 923.18646 802.3645 4293779439
-7.3553519 922.38312 801.68707 4293844978
-3.1522937 921.98151 801.34839 4294108665
-1.5761468 922.58398 801.85645 4294042615
0.78807342 922.58398 801.85645 4293779444
3.1522937 921.98151 801.34839 4293976566
7.880734 921.98151 801.34839 4293912308
34.149845 922.38312 801.68707 4294634749
37.039452 922.58398 801.85645 4294700796
39.92905 922.78485 802.02582 4294766076
-10.244954 924.39142 803.38049 4293713898
-7.0926609 924.39142 803.38049 4293779437
-3.9311926 925.71716 801.8822 4293976563
-1.5724771 926.91931 802.89575 4294042357
0.78807342 924.39142 803.38049 4293845746
4.1932721 926.11786 802.22003 4293912052
7.0761466 926.31824 802.38898 4293846002
10.221101 926.31824 802.38904 4294371835
13.366055 926.31824 802.38904 4294967295
16.511009 926.31824 802.38904 4294440951
19.655964 926.31824 802.38904 4294569976
22.538839 926.11786 802.22003 4294635515
25.683792 926.11786 802.22003 4294701306
29.090824 925.71716 801.8822 4294701307
31.449541 925.71716 801.8822 4294767354
33.848625 925.05432 802.63135 4294767613
37.039452 924.39142 803.38049 4294503161
40.191742 924.39142 803.38049 4294831357
42.555962 924.39142 803.38049 4294765564
10.221101 928.12152 803.90942 4294569982
13.366055 928.12152 803.90942 4294967295
16.511009 928.12152 803.90942 4294440950
19.655964 928.12152 803.90942 4294569723
22.014679 928.12152 803.90942 4294438137
-20.234863 833.05475 804.84949 4291804888
-20.234863 834.34387 805.9364 4292002010
-20.080734 844.48401 805.3302 4291869394
-18.346788 847.89502 804.2821 4292527319
-19.43058 850.96387 805.12567 4292001488
-19.772476 867.04816 806.04321 4292001999
46.280735 886.05267 805.06299 4294967295
-19.398165 891.8891 804.75195 4291474630
-17.781651 891.27118 804.23096 4291606471
-17.741285 895.10504 804.84753 4291013569
-16.896332 897.69745 804.41724 4291079874
-17.660551 902.12531 805.53467 4291867592
46.559631 901.5116 805.01721 4294967295
-17.6 905.98865 804.86816 4292329417
-15.889908 914.89227 804.52722 4293778410
44.491745 914.89227 804.52722 4294965247
46.080734 914.89227 804.52722 4294964735
-14.26789 917.44122 804.0603 4293186537
43.596329 917.44122 804.0603 4294899455
45.974312 917.44122 804.0603 4294965247
44.388992 919.25916 805.5932 4294767100
45.974312 919.25916 805.5932 4294964223
-12.653211 922.40289 805.62775 4293318375
43.495415 921.79834 805.11804 4294634749
45.867889 923.00745 806.13757 4294833151
-12.609175 926.80139 805.41248 4292923110
-10.244954 926.19891 804.90448 4293647085
-7.0926609 926.19891 804.90448 4293712620
-3.9403672 926.19891 804.90448 4293910259
-1.5761468 926.80139 805.41248 4294305015
0.78807342 926.19891 804.90448 4293977587
3.677676 926.39972 805.07379 4293978105
7.0926609 926.80139 805.41248 4294306301
23.642202 926.19891 804.90448 4294503673
26.269114 926.39972 805.07379 4294503675
29.158714 926.19891 804.90448 4294503673
31.522936 926.19891 804.90448 4294503928
33.887154 926.19891 804.90448 4294635257
37.039452 926.19891 804.90448 4294568696
40.191742 926.19885 804.90454 4294700027
43.34404 926.19885 804.90454 4294503418
45.708256 926.80139 805.41248 4294832895
-6.3045874 928.00635 806.42847 4293778158
-3.940367 928.00635 806.42847 4293843438
-1.5761468 928.00635 806.42847 4294040560
3.940367 928.00635 806.42847 4293912308
7.0926609 928.00635 806.42847 4294635261
10.244954 928.00635 806.42847 4294833919
13.380733 928.66504 805.67578 4294967295
16.511009 929.32367 804.9231 4294440950
19.655964 929.32367 804.9231 4294503928
22.066055 928.00635 806.42847 4294569466
26.006422 928.00635 806.42847 4294438650
29.158714 928.00635 806.42847 4294372090
31.522936 928.00635 806.42847 4294372342
33.887154 928.00635 806.42847 4294503415
37.039452 928.00635 806.42847 4294765818
40.191742 928.00635 806.42847 4294568953
43.344036 928.00635 806.42847 4294766588
45.708256 928.00635 806.42847 4294963965
43.243118 930.52588 805.93677 4294963964
-21.46789 866.91479 808.54688 4291739343
-19.772476 868.30786 807.10535 4291935952
-12.653211 926.03046 808.68652 4293119971
-10.280734 926.03046 808.68652 4293251300
-7.908257 926.03046 808.68652 4293514470
0.79082566 926.03046 808.68652 4293910510
23.724771 926.03046 808.68652 4294635259
-12.653211 927.23962 809.70605 4292857567
-10.280734 927.23962 809.70605 4292922594
-7.1174312 927.23962 809.70605 4293382635
-3.9541283 927.23962 809.70605 4293843185
-1.5816513 927.23962 809.70605 4293646318
3.9541283 927.23962 809.70605 4294503677
7.1174312 927.23962 809.70605 4294900477
10.244954 929.21136 807.44446 4294966527
13.397247 929.21136 807.44446 4294967295
16.549541 929.21136 807.44446 4294440950
19.701836 929.21136 807.44446 4294503930
22.895412 928.22546 808.57526 4294832893
26.097248 927.23962 809.70605 4294701052
29.158714 929.21136 807.44446 4294503673
31.633028 927.23962 809.70605 4294306549
33.887154 929.21136 807.44446 4294503160
37.039452 929.21136 807.44446 4294633978
40.191742 929.21136 807.44446 4294831612
45.708256 929.21136 807.44446 4294964731
14.185321 930.41632 808.46045 4294967295
16.549541 930.41632 808.46045 4294506744
19.701836 930.41632 808.46045 4294306294
29.946789 930.41632 808.46045 4294568953
33.887154 931.0188 808.96844 4294635259
37.039452 931.0188 808.96844 4294503670
39.92905 930.81793 808.79913 4294634744
43.34404 931.0188 808.96844 4294568440
45.708256 931.0188 808.96844 4294831611
0.79266053 925.92517 811.21375 4293976307
-11.097248 927.13715 812.23572 4292396757
-7.133945 927.13715 812.23572 4293120224
-3.9633026 927.13715 812.23572 4294041583
-1.5853211 927.13715 812.23572 4294568955
0.79266053 927.13715 812.23572 4294768639
3.9633026 927.13715 812.23572 4294966783
7.133945 927.13715 812.23572 4294966783
10.280734 928.44885 810.72559 4294966783
13.444036 929.05347 811.23535 4294967295
17.398165 929.65802 811.74512 4294112240
19.770641 929.65802 811.74512 4294372087
22.933945 928.44885 810.72559 4294568440
26.360855 928.85187 811.06543 4294503413
28.469725 929.05347 811.23535 4294568952
31.10581 929.25494 811.40527 4294437880
41.122936 929.65802 811.74512 4294831611
19.770641 930.86719 812.76477 4294438134
26.888073 930.86719 812.76477 4294503414
28.469725 930.86719 812.76477 4294569720
30.842201 930.86719 812.76477 4294306294
33.944954 931.84674 811.62866 4294635258
37.102753 931.84674 811.62866 4294701305
40.260551 931.84674 811.62866 4294832635
43.344036 932.82629 810.49255 4294898430
45.708256 932.82629 810.49255 4294832895
29.421408 934.83466 812.18585 4294372342
31.522936 934.63379 812.01654 4294502904
33.887154 934.03125 811.50854 4294437625
36.251377 934.63379 812.01654 4294766588
33.808258 937.13782 811.51172 4294437111
36.166973 937.73889 812.01855 4294964991
-12.741284 924.51379 815.25586 4291870157
-9.5339451 925.82544 813.74573 4292462550
-7.1431189 927.6947 814.01379 4293252576
-3.7015288 928.31683 814.10236 4294172651
-1.5853211 928.34912 813.25757 4294966271
0.7944954 927.64764 815.28217 4294568944
3.972477 927.04022 814.77002 4294967295
7.1458712 927.97491 814.90405 4294965243
10.310092 928.6286 814.14722 4294768636
13.211009 929.15704 813.9389 4294835197
16.381651 929.15704 813.9389 4294638330
22.987156 928.95508 813.76855 4294437624
25.365137 928.95508 813.76855 4294240498
14.26789 930.77313 815.30139 4294967295
16.645872 930.77313 815.30139 4294572024
19.770641 932.07642 813.7843 4294569205
22.933945 932.07642 813.7843 4294371831
26.097248 932.07642 813.7843 4294306549
28.469725 932.07642 813.7843 4294372344
37.959633 932.07642 813.7843 4294569718
40.332108 932.07642 813.7843 4294635768
43.495415 932.07642 813.7843 4294767356
20.561468 933.89014 815.3136 4294502132
22.933945 933.89014 815.3136 4294371575
26.097246 933.89014 815.3136 4294306549
28.469725 934.49475 815.82336 4294437365
30.051376 934.49475 815.82336 4294437365
37.959633 933.28558 814.80383 4294373109
40.068501 933.68866 815.14374 4294635768
43.231808 933.68866 815.14374 4294832893
29.946789 937.64618 814.55652 4294436852
31.522936 937.64618 814.55646 4294502644
33.84771 938.89612 814.30237 4294568694
37.018349 937.96997 814.17542 4294635257
-16.495413 925.23615 818.48096 4293778409
-13.302752 924.82935 818.13794 4292990174
-10.36422 925.68726 817.55322 4293714408
-7.1669722 926.94904 817.3092 4294306801
-4.7779818 926.94904 817.3092 4293714663
-1.5926605 926.94904 817.3092 4294368478
3.9816513 926.94904 817.3092 4294565862
-3.1853211 928.16663 818.33582 4293380540
-1.5926605 928.16663 818.33582 4293314747
3.9816513 928.16663 818.33582 4294104506
7.1577978 928.81824 817.57721 4294766055
10.328441 929.46985 816.8186 4294569975
12.711926 929.46985 816.8186 4294964991
13.506422 931.29199 818.35504 4294967295
16.645872 931.98511 816.32336 4294240253
19.023853 931.98511 816.32336 4294173164
45.974312 931.98511 816.32336 4294898942
16.910091 933.60107 817.68597 4294239222
19.53639 934.43671 817.51849 4294371573
22.959633 935.05652 817.60504 4294174452
26.126606 935.05652 817.60504 4294372596
28.469725 935.70392 816.8429 4294239472
40.659328 934.43671 817.51849 4294701308
43.86055 934.00507 818.02655 4294832894
23.724771 938.12231 818.88208 4294306290
26.888073 937.5177 818.37231 4294174190
28.469725 937.5177 818.37231 4294305266
30.051376 937.5177 818.37231 4294634232
37.432415 937.71924 818.54224 4294634488
25.218349 940.05615 816.5885 4294108143
31.522936 940.05615 816.5885 4294306036
33.887154 940.05615 816.5885 4294437365
-16.799999 925.56006 821.37024 4294701814
-13.855657 925.58673 820.52069 4294964985
-10.376146 926.86334 819.85303 4294967295
-7.183486 926.86334 819.85303 4293978093
-4.788991 926.86334 819.85303 4293516004
0.79816514 926.86334 819.85303 4292591024
-11.174312 928.08374 820.88196 4294967295
-6.3853211 928.08374 820.88196 4292131259
-3.7247705 928.49054 821.22491 4293644241
-1.5963303 928.69397 821.39648 4294964212
0.79816514 928.08374 820.88196 4294964982
4.2568808 928.49054 821.22491 4294967035
7.1752291 929.34424 820.63672 4294967295
10.09419 929.3576 820.21191 4294967295
11.148623 930.60181 820.38916 4294967295
14.333945 931.81946 821.41577 4294967295
16.684402 933.72168 820.40363 4294108660
19.566973 935.5954 820.23944 4294239987
22.987156 935.62109 819.38916 4294173427
25.365137 935.62109 819.38916 4294174701
40.42569 935.62109 819.38916 4294832382
42.803669 935.62109 819.38916 4294963967
20.609175 937.43909 820.922 4294569211
22.194496 937.43909 820.922 4294503923
26.950459 938.04504 821.43298 4294239474
28.53578 938.04504 821.43298 4294436340
40.42569 937.43909 820.922 4294766075
42.803669 936.83307 820.41101 4294963198
23.724771 939.9361 820.41138 4294504179
25.306421 939.33148 819.90161 4294305267
30.842201 939.33148 819.90161 4294634231
34.005505 939.33148 819.90161 4294766328
37.168808 939.33148 819.90161 4294832635
-16.799999 926.78326 822.40161 4294700540
-13.6 926.78326 822.40161 4294967295
-9.6000004 926.78326 822.40161 4294967295
-8 926.78326 822.40161 4292532954
-13.333333 928.41425 823.77679 4294967295
-10.4 928.6181 823.94867 4294967295
-7.1999998 928.6181 823.94867 4290885303
-4.2666669 928.82202 824.12061 4292067256
-1.6 929.22974 824.46436 4292000180
0.80000001 928.00653 823.43298 4294966271
3.7333336 928.82202 824.12061 4294967295
7.1999998 929.22974 824.46436 4294967295
10.4 929.22974 824.46436 4294967295
13.302752 931.3382 823.62616 4294967295
16.563669 934.49817 823.67444 4294373112
19.06789 937.36597 823.4765 4293977076
41.313763 937.97339 823.98865 4294897916
20.609175 939.86304 822.96582 4294503421
22.987156 940.46912 823.47681 4294174703
26.157799 939.25708 822.45483 4294108658
28.53578 939.25708 822.45483 4294567670
30.913761 939.86304 822.96582 4294502134
34.348621 939.66107 822.79547 4294568696
37.519268 939.66107 822.79547 4294700795
39.633026 940.46906 823.47681 4294832638
-19.310091 924.76245 827.23779 4293909476
-16.877983 925.41125 826.47681 4294964220
-16.055046 927.28748 826.75073 4294965503
-13.64679 927.90118 827.26825 4294966527
-10.43578 928.51489 827.78577 4294437873
-6.4220185 928.51489 827.78577 4288908417
-4.0137615 928.51489 827.78577 4290092176
-1.6055046 928.51489 827.78577 4291473313
0.80275232 927.28748 826.75073 4293976808
4.0137615 928.51489 827.78577 4294967295
7.2247705 928.51489 827.78577 4294967295
9.6330271 928.51489 827.78577 4294967295
-8 930.45294 825.49573 4288187020
11.2 930.45294 825.49573 4294967295
13.6 932.28772 827.04285 4294967295
15.963303 935.40619 827.05615 4294373627
17.519266 936.68982 825.52234 4293715697
19.862387 940.40302 826.03723 4294043380
22.245872 941.01038 826.54932 4294174449
25.423853 940.40302 826.03717 4294108658
27.807339 939.79565 825.52509 4294173938
30.985321 941.01038 826.54932 4294174193
34.163303 940.40295 826.03723 4294568186
36.944035 940.40302 826.03723 4294700284
39.72477 939.18823 825.01294 4294964735
23.779816 943.49902 826.03162 4294239984
38.047707 942.89301 825.52063 4294635259
-19.354128 925.31433 830.31915 4294963704
-17.741285 924.69781 829.79932 4294964991
-16.628136 927.633 829.65814 4293844198
-14.482569 927.83801 829.83099 4292988889
-11.26422 928.45312 830.34961 4288447896
-7.2339449 929.09772 829.58514 4290025376
-4.0192661 929.09772 829.58514 4290420366
-1.6055046 929.74231 828.82068 4291144346
1.0727829 927.633 829.65814 4294110443
4.0137615 929.74231 828.82068 4294967295
7.2247705 929.74231 828.82068 4294967295
10.43578 929.74231 828.82068 4294967295
11.238532 930.96973 829.85559 4294967295
12.844037 932.19714 830.8905 4294967295
14.4 934.12256 828.58984 4294967295
16 935.34576 829.62122 4294044144
17.579817 936.59778 829.3689 4293780716
19.111927 940.34265 828.60229 4294108915
27.871559 940.34265 828.60229 4294240500
31.056881 941.56024 829.62903 4294174449
33.445873 940.95142 829.11566 4294239983
20.127218 943.23755 828.42706 4294240244
22.775536 943.64252 828.76855 4294371569
25.423853 942.83258 828.08569 4293977840
-19.354128 927.16388 831.87866 4292127157
-16.934864 927.7804 832.3985 4290942888
-12.902752 927.16388 831.87866 4289960878
-10.214679 927.9859 832.57178 4287590781
-6.984098 929.23676 832.75439 4290420883
-4.0321102 929.01343 833.43823 4290156689
-1.612844 929.01343 833.43817 4290880158
0.806422 927.7804 832.3985 4294108390
4.0266056 929.04016 832.15265 4294967039
6.9779816 929.66553 832.24396 4294967295
10.207339 929.64777 833.10101 4294967295
14.449541 933.42456 831.92542 4294967295
16.055046 934.65198 832.96033 4293912045
27.967888 940.26331 832.45947 4294043377
31.128441 941.50824 832.20117 4294437880
-16.973394 927.72839 834.9707 4290219653
-13.740367 927.11047 834.44971 4288509065
-10.507339 928.34631 835.4917 4288972137
-7.274312 928.96423 836.01276 4290418816
-4.0412846 929.58215 836.53381 4290547085
-1.6165137 929.58215 836.53381 4291466912
0.53883791 927.93439 835.14435 4293384918
4.0412846 928.96423 836.0127 4294900733
7.5437312 929.17023 836.18646 4294967295
10.507339 929.58215 836.53381 4294967295
12.902752 930.86298 834.99768 4294967295
17.700918 934.60425 835.53613 4294109940
25.688074 938.33429 836.06519 4294306803
34.518349 937.72058 835.54773 4294502646
36.926605 937.10681 835.03027 4294830844
-19.46422 926.4209 837.79236 4289890686
-17.882568 925.13727 839.32617 4289890686
-13.803669 925.77905 838.55927 4289102195
-9.73211 928.28101 839.36072 4289564005
-7.5694194 928.48761 839.53497 4290154088
0.81100917 928.28101 839.36072 4294436837
4.0550461 928.901 839.88354 4294967295
7.2990828 928.901 839.88354 4294967295
10.543119 928.901 839.88354 4294967295
-4.0412846 930.81799 837.57581 4293835945
-1.6165137 930.81799 837.57581 4294954957
13.740367 930.81799 837.57581 4294769916
16.165138 932.05383 838.6178 4293912304
28.160549 938.29492 838.64795 4294108915
30.504587 939.56171 837.1001 4294437369
-17.069725 926.38013 840.37402 4289890686
-14.100305 926.36841 841.23615 4289365102
-11.379816 926.38013 840.37402 4289036892
-17.069725 927.62299 841.422 4290285954
-13.005505 927.62299 841.422 4289496159
-10.566973 928.24438 841.94598 4290350675
-7.3155961 928.86578 842.46997 4293046905
3.2513762 928.86578 842.46997 4294967036
8.1284399 928.86578 842.46997 4294967295
9.7541285 928.86578 842.46997 4294967295
-3.7847097 930.55444 841.27759 4294896348
-1.6220183 930.76111 841.45184 4294832107
0.81100917 930.14105 840.92908 4294964218
4.866055 930.14105 840.92908 4294967295
6.4880733 930.14105 840.92908 4294967295
11.354129 930.14105 840.92908 4294967295
13.787156 930.14105 840.92908 4294704123
32.256882 937.02814 840.19592 4294306549
-17.108257 928.2135 844.53589 4290482815
-13.577981 928.00586 844.36084 4290088818
-11.405504 928.2135 844.53589 4289431139
0 928.8363 845.06104 4294503151
9.7761469 928.8363 845.06104 4294967295
13.849541 928.8363 845.06104 4294704122
17.108257 928.8363 845.06104 4294241010
-9.7541285 930.10864 843.51794 4293174896
-7.3155961 930.10864 843.51794 4294964441
-4.0642204 930.7301 844.04187 4294701040
1.6256881 930.10864 843.51794 4294305515
4.0642204 930.10864 843.51794 4293779425
7.3155961 930.10864 843.51794 4293845220
11.379816 930.10864 843.51794 4294967295
25.952293 933.86115 844.0658 4294372342
29.196331 935.1012 845.11133 4294437367
-19.618349 926.92773 847.37585 4290745729
-14.713761 926.92773 847.37585 4290285943
-17.166054 928.17761 848.42969 4290615164
-14.713761 928.17761 848.42969 4289891699
0 928.17761 848.42969 4294503662
11.444036 928.17761 848.42969 4294967295
13.89633 928.17761 848.42969 4294638329
17.166054 928.17761 848.42969 4294241010
19.618349 928.17761 848.42969 4294240242
-13.034863 930.08197 846.11145 4290018908
-10.319266 930.49725 846.46161 4293776818
-7.3321099 930.70483 846.6366 4294900976
-4.344954 930.91241 846.81171 4294239980
-1.6293578 930.70483 846.6366 4294568687
1.6293578 930.08197 846.11145 4294306539
4.344954 930.49725 846.46161 4294305772
7.0605507 930.49725 846.46161 4293450469
9.7761469 930.08197 846.11145 4294372857
22.811008 931.32764 847.16174 4294306290
25.255047 931.95044 847.68689 4294372084
30.957798 932.5733 848.21204 4294437367
35.845871 930.08197 846.11145 4294635002
37.475231 930.08197 846.11145 4294635002
27.636698 933.83722 846.66174 4294306549
-19.662386 926.90796 849.97534 4290812286
40.144035 926.90796 849.97534 4294832382
-19.662386 928.16064 851.03162 4290285441
-17.166054 929.42743 849.48364 4290417539
-13.89633 929.42743 849.48364 4290480472
-11.444036 929.42743 849.48364 4294952050
0.81743121 929.42743 849.48364 4294503664
3.2697248 929.42743 849.48364 4294043113
8.1743116 929.42743 849.48364 4292398292
10.626606 929.42743 849.48364 4293584079
13.911009 928.79407 850.25763 4294572537
17.166054 929.42743 849.48364 4294042864
19.618349 929.42743 849.48364 4294240756
21.25321 929.42743 849.48364 4294240756
34.332111 929.42743 849.48364 4294569720
36.866974 928.16064 851.03162 4294700794
-17.166054 930.67731 850.53748 4291603108
-13.078899 930.67731 850.53748 4291667874
-10.354129 931.09393 850.88873 4294966008
-7.3568807 930.67731 850.53748 4294967294
-4.0871563 930.67731 850.53748 4293517278
-1.6348624 931.30225 851.06439 4293976807
0 930.67731 850.53748 4294175214
22.070641 930.67731 850.53748 4294503158
24.522936 930.67731 850.53748 4294634998
29.427523 931.92719 851.59131 4294700025
40.233948 926.89386 852.57947 4294832895
-18.863304 929.40906 853.39221 4293250251
-16.422018 929.40479 854.69666 4294966527
-14.763303 929.40906 853.39221 4293055698
1.640367 929.40906 853.39221 4294174956
4.1009178 929.40906 853.39221 4294568431
7.3816509 929.40906 853.39221 4292989401
10.662386 929.40906 853.39221 4294044099
13.66422 929.41046 852.95734 4294638329
16.385321 929.41333 852.08777 4294042609
18.843121 929.41333 852.08777 4294371574
31.986238 929.40906 853.39221 4294766074
34.48624 928.14935 853.63806 4294963965
-13.108257 930.66602 853.14404 4294967036
-11.469725 930.66602 853.14404 4294967294
-7.3733945 930.66602 853.14404 4294967295
-3.8232419 931.08356 853.49609 4293911529
-1.6385322 931.91864 854.2002 4294239472
0 930.66602 853.14404 4293845734
14.746789 930.66602 853.14404 4293980400
16.385321 930.66602 853.14404 4293977068
18.843121 930.66602 853.14404 4294437620
22.120182 930.66602 853.14404 4294503413
25.397247 930.66602 853.14404 4294436851
27.855045 930.66602 853.14404 4294699512
37.073395 926.25336 855.9635 4294833149
40.368805 926.25336 855.9635 4294964991
32.954128 927.51306 857.02563 4294832893
34.601833 927.51306 857.02563 4294767100
37.073395 927.51306 857.02563 4294832894
-10.674313 930.66028 855.75525 4294967295
-7.3899078 930.66028 855.75525 4294967295
-4.1055045 931.28802 856.28455 4294967295
-1.6422018 931.91577 856.81384 4294966783
0.82110089 930.66028 855.75525 4294372332
3.2844036 930.66028 855.75525 4294437355
6.5688071 930.66028 855.75525 4292593327
13.137614 930.66028 855.75525 4294967295
16.422018 930.66028 855.75525 4293845739
18.885323 931.28796 856.28455 4294569205
22.169724 930.66028 855.75525 4294503411
25.454128 930.66028 855.75525 4294503157
29.559633 930.66028 855.75525 4294831609
40.458717 926.25189 858.57837 4294899455
-18.124771 928.77277 858.08777 4294967295
-16.495413 928.77478 859.39752 4294967295
-14.021101 928.77478 859.39752 4294967295
-11.559633 928.77686 860.70728 4294967295
4.943119 928.77277 858.08777 4292858323
7.4220181 928.77478 859.39752 4294436054
10.710092 928.77277 858.08777 4294967295
14.829358 928.77277 858.08777 4293651689
23.119267 928.77686 860.70728 4294436592
25.596329 928.77686 860.70728 4294633715
28.603058 928.77545 859.83417 4294699767
31.341284 928.77478 859.39752 4294831610
34.128437 927.93524 859.99762 4294963451
36.880733 927.93524 859.99762 4294767102
40.458717 927.51434 859.64282 4294899711
-9.8862381 930.03241 859.1499 4294967295
-7.1400609 930.45233 859.50391 4294967295
-4.3938837 930.87225 859.85797 4294967295
-1.6477064 931.29211 860.21204 4294900735
0.82385319 930.03241 859.1499 4294569203
4.119266 930.03241 859.1499 4293976291
8.2385321 930.03241 859.1499 4294967295
10.710092 930.03241 859.1499 4294967295
14.005505 930.03241 859.1499 4294309365
16.477064 930.03241 859.1499 4293648103
21.420183 930.03241 859.1499 4294306036
-19.033028 927.5213 862.26477 4294967295
-16.550459 928.78662 863.33167 4294967295
-14.895412 928.78662 863.33167 4294967295
23.170643 928.78662 863.33167 4294503414
25.65321 928.78662 863.33167 4294701049
28.963303 928.78662 863.33167 4294766841
31.445871 928.78662 863.33167 4294963963
33.652599 928.36481 862.97607 4294831867
37.514374 928.36481 862.97607 4294898687
40.548622 928.15393 862.79822 4294965247
-13.211009 930.03931 861.77185 4294967295
-10.733945 930.03931 861.77185 4294967295
-7.7064223 930.88104 862.48145 4294899965
-3.8532112 931.72266 863.1911 4294371834
-1.6513761 931.93311 863.36853 4294568958
0.82568806 930.03931 861.77185 4294371570
3.8532112 930.46014 862.12665 4294502634
7.4311924 930.03931 861.77185 4294967295
10.733945 930.03931 861.77185 4294967295
14.036697 930.03931 861.77185 4294309365
16.513762 930.03931 861.77185 4293647853
18.990826 930.03931 861.77185 4294503161
21.46789 930.03931 861.77185 4294306038
-19.096329 926.90747 865.67126 4294967295
-19.096329 928.177 866.7417 4294967295
-16.605505 928.177 866.7417 4294967295
26.568808 928.177 866.7417 4294701304
29.889908 928.177 866.7417 4294832893
31.550459 928.177 866.7417 4294832893
34.871559 928.177 866.7417 4294965247
37.362385 928.177 866.7417 4294964991
40.683487 928.177 866.7417 4294964991
-14.06789 930.05194 864.39844 4294967295
-10.757798 930.05194 864.39844 4294967295
-7.4477062 931.3172 865.46533 4294899199
-4.1376147 931.94983 865.99878 4294634746
-1.6550459 932.58252 866.53223 4294963967
0.82752293 930.05194 864.39844 4294765816
4.1376147 930.68457 864.93188 4294965498
7.4477062 930.05194 864.39844 4294967295
10.757798 930.05194 864.39844 4294967295
14.06789 930.05194 864.39844 4294243572
16.550459 930.05194 864.39844 4293385188
19.033028 930.05194 864.39844 4294239984
22.343121 930.05194 864.39844 4294503413
24.825687 930.05194 864.39844 4294635511
28.13578 930.05194 864.39844 4294833147
33.100918 930.05194 864.39844 4294832893
-21.634863 928.19934 869.37659 4294967295
-19.138531 928.19934 869.37659 4294967295
-16.642202 928.19934 869.37659 4294967295
-14.114679 929.44653 867.81213 4294967295
-10.793578 929.44653 867.81213 4294966783
0.83027524 929.44653 867.81213 4294964734
4.9816513 929.44653 867.81213 4294967295
7.4798164 928.82294 868.59436 4294967295
10.806421 928.82294 868.59436 4294967295
14.114679 929.44653 867.81213 4294243572
16.605505 929.44653 867.81213 4293977838
19.096329 929.44653 867.81213 4294503926
22.417431 929.44653 867.81213 4294635514
25.767891 928.82294 868.59436 4294701306
29.123852 928.19934 869.37659 4294899198
31.550459 929.44653 867.81213 4294767100
34.041283 929.44653 867.81213 4294965503
37.362385 929.44653 867.81213 4294964735
40.683487 929.44653 867.81213 4294964735
43.269726 928.19934 869.37659 4294965247
-7.472477 930.716 868.88245 4294964991
-4.9816513 930.716 868.88245 4294963967
40.683487 931.98553 869.95288 4294899199
-19.160549 928.84949 871.23279 4294966783
-16.642202 929.47168 870.44934 4294966015
-14.145872 929.47168 870.44934 4294966527
-10.81743 929.47168 870.44934 4294965247
0.83211011 929.47168 870.44934 4294965503
4.1605506 929.47168 870.44934 4294966783
7.4889908 929.47168 870.44934 4294967295
10.841284 928.22729 872.01624 4294967295
13.34312 928.22729 872.01624 4294967295
15.826606 928.84949 871.23279 4293847276
19.158714 928.84949 871.23279 4294569719
22.490826 928.84949 871.23279 4294569720
25.822937 928.84949 871.23279 4294635513
29.123852 929.47168 870.44934 4294569722
31.620184 929.47168 870.44934 4294767102
34.116516 929.47168 870.44934 4294964991
37.444954 929.47168 870.44934 4294964735
40.773392 929.47168 870.44934 4294964479
43.269726 929.47168 870.44934 4294965503
-19.138531 930.74396 871.52209 4294966783
-6.6568809 930.74396 871.52209 4294964991
-4.1605506 930.74396 871.52209 4294832124
-1.6642202 930.74396 871.52209 4294964735
31.620184 930.74396 871.52209 4294832895
34.116516 930.74396 871.52209 4294898943
37.444954 931.38013 872.05847 4294767358
39.85321 933.255 871.02332 4294833407
-15.844954 929.50238 873.09143 4294966527
-13.34312 929.50238 873.09143 4294965759
-10.841284 929.50238 873.09143 4294964735
-8.3394499 929.50238 873.09143 4294964735
0.83394498 929.50238 873.09143 4294966527
4.1697249 929.50238 873.09143 4294967295
7.5055046 929.50238 873.09143 4294967295
10.841284 929.50238 873.09143 4294967295
13.34312 929.50238 873.09143 4294967295
15.844954 929.50238 873.09143 4293649897
19.180733 929.50238 873.09143 4294634743
22.516514 929.50238 873.09143 4294832891
25.852295 929.50238 873.09143 4294701049
28.354128 929.50238 873.09143 4294767100
30.022018 929.50238 873.09143 4294767102
-18.346788 930.77753 874.1665 4294964735
-1.66789 930.77753 874.1665 4294965503
26.686239 930.77753 874.1665 4294833147
28.354128 930.77753 874.1665 4294833147
30.855965 930.77753 874.1665 4294898942
34.469723 931.20258 874.5249 4294832894
37.527523 932.05261 875.2417 4294966014
-15.897248 928.91943 876.52393 4294965247
-13.416513 927.68073 878.09546 4294964991
-10.900917 927.68073 878.09546 4294965247
-7.5302753 928.91943 876.52393 4294964479
-4.183486 928.91943 876.52393 4294898174
0.83669722 928.91943 876.52393 4294966783
4.183486 928.91943 876.52393 4294967295
7.5302753 928.91943 876.52393 4294967295
10.877064 928.91943 876.52393 4294967295
13.387156 928.91943 876.52393 4294967295
15.897248 928.91943 876.52393 4293912813
19.244038 928.91943 876.52393 4294634743
22.590824 928.91943 876.52393 4294832122
25.100918 928.91943 876.52393 4294898170
-1.6733944 930.19873 877.60266 4294966527
1.6733944 930.19873 877.60266 4294967295
4.183486 930.19873 877.60266 4294967295
7.5302753 930.19873 877.60266 4294967295
10.877064 930.19873 877.60266 4294967295
16.733946 930.19873 877.60266 4294371058
19.244038 930.19873 877.60266 4294831610
22.590824 930.19873 877.60266 4294831609
25.937614 930.83838 878.14197 4294766841
28.447706 930.83838 878.14197 4294767354
30.957798 930.83838 878.14197 4294832892
34.025692 931.05157 878.32178 4294634746
36.814678 931.47809 878.68127 4294635513
-15.93211 928.96289 879.17651 4294965759
-13.46055 927.10901 881.53748 4294965503
-10.920183 928.03595 880.35699 4294965759
-7.5577979 928.03595 880.35699 4294964735
-4.1926603 928.96289 879.17651 4294965247
0 928.96289 879.17651 4294967295
13.416513 928.96289 879.17651 4294967295
15.093578 928.96289 879.17651 4293717228
-1.6770642 930.245 880.25757 4294966527
1.6770642 930.245 880.25757 4294967039
4.1926603 930.245 880.25757 4294966783
7.5467887 930.245 880.25757 4294967295
10.621407 930.67236 880.61792 4294967295
16.21162 930.67236 880.61792 4294240240
19.28624 930.88611 880.7981 4294897145
22.640366 930.245 880.25757 4294830838
25.994495 931.52716 881.33862 4294832378
28.447706 932.75739 879.76001 4294898940
31.025688 931.52716 881.33862 4294898940
34.379814 931.52716 881.33862 4294832893
36.814678 932.75739 879.76001 4294833147
28.447706 934.03674 880.83875 4294898170
-15.984404 929.03851 883.16431 4294898174
-13.46055 929.03851 883.16437 4294963967
-10.936697 929.03851 883.16437 4294964991
-7.8519874 928.82416 882.98358 4294964991
-4.2064219 929.03851 883.16431 4294898687
-1.6825688 929.6817 883.70667 4294966783
0.56085628 929.25293 883.34515 4294967295
4.2064219 929.6817 883.70667 4294967295
7.5715594 929.6817 883.70667 4294967295
11.777982 929.6817 883.70667 4294967295
13.46055 929.03851 883.16437 4294966015
15.143119 929.6817 883.70667 4294240252
22.71468 929.6817 883.70667 4294897403
-15.984404 930.96802 884.79126 4294963711
-4.2064219 930.96802 884.79126 4294767102
-1.6825688 930.96802 884.79126 4294967039
5.0477066 930.96802 884.79126 4294967295
7.5715594 930.96802 884.79126 4294967295
10.936697 930.96802 884.79126 4294967295
13.46055 930.96802 884.79126 4294833407
15.956881 931.88867 883.60547 4294240757
19.28624 932.80927 882.41968 4294766330
22.676147 931.88867 883.60547 4294765559
25.994495 932.80927 882.41968 4294831865
31.025688 932.80927 882.41968 4294767355
34.379814 932.80927 882.41968 4294832893
36.895412 932.80927 882.41968 4294833147
16.770641 934.73248 884.04132 4294306037
18.447706 935.37354 884.58191 4294635259
26.833027 934.09143 883.50073 4294964985
28.510092 934.09143 883.50073 4294964985
-13.489908 929.74048 886.37244 4294963967
-10.96055 929.74048 886.37244 4294964991
-7.3070335 929.31079 886.01007 4294898686
0.84311926 929.74048 886.37244 4294967039
3.3724771 929.74048 886.37244 4294967295
-15.143119 932.25433 885.87598 4294898687
-13.489908 931.02966 887.45935 4294963967
-10.96055 931.02966 887.45935 4294899199
-7.5880733 931.02966 887.45935 4294898942
-4.2064219 932.25433 885.87598 4294964990
-1.6825688 932.25433 885.87598 4294967295
0.84311926 931.02966 887.45935 4294967295
4.2155962 931.02966 887.45935 4294967295
7.5880733 931.02966 887.45935 4294967295
10.936697 932.25433 885.87598 4294967295
13.46055 932.25433 885.87598 4294373109
15.143119 932.25433 885.87598 4293649387
19.391743 931.02966 887.45935 4294832635
22.764221 931.02966 887.45935 4294700279
25.238533 932.25433 885.87598 4294964223
31.162384 931.64197 886.66766 4294833404
34.529358 931.64197 886.66766 4294701561
37.016514 932.25433 885.87598 4294701304
-13.46055 933.54071 886.96057 4294635259
-5.0477066 933.54071 886.96057 4294965247
15.143119 933.54071 886.96057 4293912558
25.238533 933.54071 886.96057 4294766840
30.286238 933.54071 886.96057 4294437365
35.333946 933.54071 886.96057 4294635002
37.016514 933.54071 886.96057 4294438389
18.447706 936.65564 885.66296 4294568953
-10.96055 932.31879 888.54639 4294898687
-7.5880733 932.31879 888.54639 4294964735
-3.3724771 932.31879 888.54639 4294965247
-1.6862385 932.31879 888.54639 4294967039
0.84587157 930.48596 890.92505 4294966271
4.2155962 932.31879 888.54639 4294966527
7.5880733 932.31879 888.54639 4294967295
10.96055 932.31879 888.54639 4294967295
13.489908 932.31879 888.54639 4294175731
20.234863 932.31879 888.54639 4294767354
22.764221 932.31879 888.54639 4294635255
32.038532 932.31879 888.54639 4294766587
33.72477 932.31879 888.54639 4294635002
-10.936697 934.82703 888.04517 4294965247
-7.5880728 934.25244 890.17676 4294898686
-5.0587158 934.2525 890.17682 4294899198
16.300306 934.0376 889.99561 4294437363
-10.936697 936.11334 889.12976 4294964735
0.84587157 931.7793 892.0155 4294966271
4.2293577 931.7793 892.0155 4294966527
7.612844 931.7793 892.0155 4294967295
10.99633 931.7793 892.0155 4294967295
13.533945 931.7793 892.0155 4294306803
6.7669725 933.07263 893.10608 4294967295
13.533945 933.07263 893.10608 4294108656
-10.117432 937.47534 892.89429 4294964735
-7.8691125 936.61597 892.16962 4294964735
-15.341285 926.20929 896.47534 4294964479
1.6954129 931.85632 894.69653 4294966015
4.2385321 931.85632 894.69653 4294966783
8.4770641 931.85632 894.69653 4294967295
10.172477 931.85632 894.69653 4294967295
6.7816515 933.8006 896.33588 4294967295
13.563303 934.44867 896.88232 4294110451
1.7045871 930.11877 899.77173 4294967295
4.53578 931.76569 898.54425 4294967295
8.5045872 931.98242 898.72705 4294967295
10.205504 931.98242 898.72705 4294967295
-17.192661 921.32178 902.81848 4294964735
-16.349541 922.02661 904.72083 4294964991
-13.783486 921.41705 905.51489 4294964479
-16.367889 922.73425 906.62549 4294965759
-13.783486 922.73425 906.62549 4294964735
-16.367889 924.05145 907.73608 4294966271
-13.209175 924.92963 908.47656 4294833150
0.8642202 923.55261 911.23962 4294966527
3.4568808 923.55261 911.23962 4294967295
4.3073397 928.00305 911.06799 4285274430
7.753211 928.00305 911.06799 4284682007
-1.7376146 919.19751 914.10767 4294967039
-1.7321101 923.00403 913.39319 4294964988
1.7321101 923.66614 913.95142 4294964477
4.3302751 923.66614 913.95142 4294765304
-1.7284404 926.19543 913.46802 4286466645
0.57614678 925.75494 913.09662 4288966019
1.7284404 927.51685 914.58215 4283891712
4.3211012 927.51685 914.58215 4284876289
-1.7229358 930.63745 913.28931 4286724643
4.3073397 930.63745 913.28931 4286789155
-4.3577981 917.37732 916.49707 4294964479
-6.9504585 920.52594 915.22778 4294966271
-4.3440366 920.52594 915.22778 4294966271
-4.3440366 921.85437 916.3479 4294965758
-3.4642203 924.99036 915.06799 4286861403
-1.7321101 926.31458 916.18457 4284155392
0 926.31458 916.18457 4284416000
0.8642202 928.83826 915.69629 4286265639
