# .PCD v0.7 - Point Cloud Data file format
VERSION 0.7
FIELDS x y z rgb
SIZE 4 4 4 4
TYPE F F F U
COUNT 1 1 1 1
WIDTH 1176
HEIGHT 1
VIEWPOINT 0 0 0 1 0 0 0
POINTS 1176
DATA ascii
44.004585 841.85065 793.95361 4294967295
-1.6550459 845.27704 792.91846 4292595681
4.9651375 845.27704 792.91846 4293055462
7.4477062 845.27704 792.91846 4292791522
14.06789 845.27704 792.91846 4293318900
-1.6550459 846.54236 793.98535 4292529890
4.1376147 846.54236 793.98535 4292594399
7.4477062 846.54236 793.98535 4292791522
10.757798 846.54236 793.98535 4292792548
14.06789 846.54236 793.98535 4293450226
16.550459 846.54236 793.98535 4294175743
19.033028 846.54236 793.98535 4294967295
22.343121 846.54236 793.98535 4294967295
25.65321 846.54236 793.98535 4294967295
28.963303 846.54236 793.98535 4294967295
33.92844 846.54236 793.98535 4294967295
37.238533 846.54236 793.98535 4294967295
39.7211 846.54236 793.98535 4294967295
47.99633 846.54236 793.98535 4294967295
49.651375 846.54236 793.98535 4294967295
52.133945 846.54236 793.98535 4294967295
54.616512 846.54236 793.98535 4294967295
-1.6513761 850.50238 794.70837 4292660195
4.1284404 850.50238 794.70837 4292396507
7.4311924 850.50238 794.70837 4292528607
11.009174 850.08154 794.35352 4292924390
14.036697 849.87115 794.17609 4293648373
16.513762 850.50238 794.70837 4293977849
18.990826 850.50238 794.70837 4294966783
22.018349 850.08154 794.35352 4294967295
25.596329 850.50238 794.70837 4294967295
28.899082 850.50238 794.70837 4294967295
31.376146 850.50238 794.70837 4294967295
33.85321 850.50238 794.70837 4294967295
37.155964 850.50238 794.70837 4294967295
40.458717 850.50238 794.70837 4294967295
4.119266 853.19159 794.35974 4292265435
6.5688071 857.84259 794.3573 4291936213
10.674313 857.84259 794.3573 4291674063
26.157799 864.43445 794.68311 4294967295
27.79266 864.43445 794.68311 4294967295
43.177982 869.04474 794.64636 4294967295
19.46422 875.57898 794.92371 4293779957
22.708258 875.57898 794.92371 4294967295
40.550457 875.57898 794.92371 4294967295
42.983486 875.57898 794.92371 4294967295
46.227524 875.57898 794.92371 4294967295
49.471558 875.57898 794.92371 4294967295
51.904587 875.57898 794.92371 4294967295
-4.8495412 878.91278 793.81067 4291410641
50.111927 878.91278 793.81067 4294967295
51.728439 878.91278 793.81067 4294966527
-7.274312 880.14862 794.85266 4291673808
-4.0412846 880.14862 794.85266 4291475664
-1.6165137 880.14862 794.85266 4291541457
16.973394 880.14862 794.85266 4293055464
19.398165 880.14862 794.85266 4293714680
21.822937 880.14862 794.85266 4294967295
25.055964 880.14862 794.85266 4294967295
28.28899 880.14862 794.85266 4294967295
46.070641 880.14862 794.85266 4294967039
49.303673 880.14862 794.85266 4294967295
51.611008 881.54169 793.41125 4294967295
17.741285 882.77472 794.45093 4292989669
49.998165 882.77472 794.45093 4294967295
51.611008 882.77472 794.45093 4294967039
34.518349 889.23737 794.66797 4294965503
37.729355 889.23737 794.66797 4294965247
32 893.75653 794.55432 4294965759
34.400002 893.75653 794.55432 4294965759
37.599998 893.75653 794.55432 4294966527
40.799999 893.75653 794.55432 4294966527
43.200001 893.75653 794.55432 4294966783
41.409176 900.16174 794.7229 4294965247
43.499695 901.02264 794.57666 4294767358
50.965137 900.16174 794.7229 4294967295
50.319267 917.30194 794.78662 4294898687
49.629356 749.12585 795.56018 4294967295
51.401836 749.12585 795.56018 4294967295
-12.330276 757.79095 795.01831 4291345107
-10.568808 757.79095 795.01831 4291214030
-12.291743 762.77582 795.29736 4292924909
-10.53578 762.77582 795.29736 4292858601
-12.266055 765.64319 795.09888 4292661737
-10.513762 765.64319 795.09888 4292792807
-8.7614679 765.64319 795.09888 4292463843
-7.8440366 773.45331 795.14404 4293319410
-12.163302 778.38489 795.37817 4292727014
-10.425688 778.38489 795.37817 4292530401
-8.6880732 778.38489 795.37817 4292990952
-12.099083 788.7691 797.59363 4292463845
53.005505 786.56671 795.73663 4294967295
-10.337615 791.01434 795.56274 4292727014
52.549541 791.01434 795.56274 4294967295
-12.634862 792.77057 797.04352 4292266468
-10.315597 793.82556 795.31702 4292727012
-8.5963306 793.82556 795.31702 4292990441
53.411011 792.33154 796.67334 4294967295
-10.315597 795.79718 796.97943 4292398051
-8.5963306 795.14001 796.42529 4292727014
-10.282569 799.99719 796.59656 4292595685
-8.5688076 799.3421 796.04425 4292661223
-10.282569 801.30737 797.70129 4292988903
-7.6954126 802.13647 795.78436 4292858345
8.5504589 801.48279 795.23315 4293252843
11.115597 801.48279 795.23315 4293253610
53.012844 801.48279 795.23315 4294967295
-11.115597 804.09753 797.43787 4292660192
-7.6706419 806.3175 795.38562 4292660708
-7.95474 808.05518 796.85077 4292594658
-4.2522936 809.0979 795.11401 4292595685
0.85045874 809.0979 795.11401 4292727782
34.868805 809.0979 795.11401 4294967295
37.420185 809.0979 795.11401 4294967295
39.121101 809.0979 795.11401 4294967295
-6.8036699 810.39825 796.21045 4292398050
-5.1027522 810.39825 796.21045 4292529636
-7.6293578 813.90601 795.2439 4292463329
-5.0862384 813.90601 795.2439 4292398302
-13.489908 821.45245 795.06677 4291804884
-10.96055 821.45245 795.06677 4292002776
-6.7449541 821.45245 795.06677 4292529118
-4.2155962 821.45245 795.06677 4292726240
0 821.45245 795.06677 4292728035
4.2155962 821.45245 795.06677 4292662503
6.7449541 821.45245 795.06677 4292530151
11.80367 821.45245 795.06677 4293582060
13.489908 821.45245 795.06677 4293648637
15.176147 821.45245 795.06677 4294306303
32.038532 821.45245 795.06677 4294967295
34.56789 821.45245 795.06677 4294967295
37.940369 821.45245 795.06677 4294967295
40.469727 821.45245 795.06677 4294967295
42.999084 821.45245 795.06677 4294967295
-13.489908 823.38611 796.6972 4291870676
-11.24159 823.60101 796.87842 4292002261
-10.095413 826.77466 796.93811 4292068055
-7.571559 826.13147 796.39581 4292265691
-5.0477066 825.48828 795.85352 4292398302
-6.7082567 830.23889 795.93506 4292396764
-5.0311928 830.23889 795.93506 4292660193
-6.7082567 831.521 797.01611 4292462813
-5.0201836 832.97009 795.62195 4292660193
0 832.97009 795.62195 4292725988
-8.3669729 835.52875 797.7793 4292397018
-5.0201836 834.24945 796.70068 4292594400
-6.6715598 838.33167 796.21857 4292397022
-4.1697249 837.69409 795.68103 4292528352
0.83394498 837.69409 795.68103 4292792544
30.855965 837.69409 795.68103 4294967295
50.036697 837.69409 795.68103 4294967295
52.538532 837.69409 795.68103 4294967295
-6.6568809 841.68225 796.42761 4292331741
-4.5766053 841.3642 796.15942 4292463327
0.83211011 840.40991 795.35486 4292660191
29.123852 840.40991 795.35486 4294967295
31.620184 840.40991 795.35486 4294967295
34.116516 840.40991 795.35486 4294967295
46.598164 840.40991 795.35486 4294967295
49.094498 840.40991 795.35486 4294967295
52.422935 840.40991 795.35486 4294967295
-6.6422019 845.02441 796.62958 4292462811
-3.8746178 844.38965 796.09442 4292529375
0.66422021 844.13574 795.88025 4292726497
3.321101 843.12018 795.02393 4292792546
10.793578 843.12018 795.02393 4292923110
16.605505 843.12018 795.02393 4294372605
19.096329 843.12018 795.02393 4294967295
22.417431 843.12018 795.02393 4294967295
25.738533 843.12018 795.02393 4294967295
29.059633 843.12018 795.02393 4294967295
31.550459 843.75488 795.55914 4294967295
34.041283 843.12018 795.02393 4294967295
37.362385 843.12018 795.02393 4294967295
40.960247 843.54327 795.38068 4294967295
44.004585 843.75488 795.55914 4294967295
46.495415 843.75488 795.55914 4294967295
48.986237 843.12018 795.02393 4294967295
52.307343 843.12018 795.02393 4294967295
-3.3100917 847.80762 795.05225 4292529118
-1.6550459 847.80762 795.05225 4292594911
1.6550459 847.80762 795.05225 4292397788
4.1376147 847.80762 795.05225 4292594402
7.4477062 847.80762 795.05225 4292725984
9.930275 847.80762 795.05225 4292792292
16.550459 847.80762 795.05225 4294372351
19.033028 847.80762 795.05225 4294966783
23.170643 847.80762 795.05225 4294967295
25.65321 847.80762 795.05225 4294967295
28.963303 847.80762 795.05225 4294967295
31.445871 847.80762 795.05225 4294967295
33.92844 847.80762 795.05225 4294967295
37.238533 847.80762 795.05225 4294967295
40.548622 847.80762 795.05225 4294967295
43.858715 847.80762 795.05225 4294967295
47.168808 847.80762 795.05225 4294967295
49.651375 847.80762 795.05225 4294967295
52.133945 847.80762 795.05225 4294967295
54.616512 847.80762 795.05225 4294967295
-6.6201835 850.33826 797.18604 4292462300
-4.1357799 850.06226 796.29932 4292462300
-1.6513761 851.76489 795.77283 4292594402
0.8266055 850.06226 796.29932 4292397278
7.4311924 851.76489 795.77283 4292462811
10.733945 851.76489 795.77283 4292793314
14.036697 851.76489 795.77283 4293582839
16.513762 851.76489 795.77283 4293912308
18.990826 851.76489 795.77283 4294966783
22.293579 851.76489 795.77283 4294967295
25.596329 851.76489 795.77283 4294967295
28.899082 851.76489 795.77283 4294967295
31.376146 851.76489 795.77283 4294967295
33.85321 851.76489 795.77283 4294967295
37.155964 851.76489 795.77283 4294967295
40.458717 851.76489 795.77283 4294967295
43.834862 850.06226 796.29932 4294967295
47.142204 850.06226 796.29932 4294967295
49.596329 850.41895 795.94598 4294967295
52.076149 850.41895 795.94598 4294967295
54.555962 850.41895 795.94598 4294967295
-9.9082565 854.28986 797.90186 4292396505
-7.1559634 853.44824 797.19214 4292331225
-4.1284404 853.65863 797.36963 4292330970
-1.6477064 854.45129 795.42188 4292265435
0.54923546 853.92285 796.7204 4292133850
4.119266 854.45129 795.42188 4292134362
7.4146786 854.45129 795.42188 4292003546
10.710092 854.45129 795.42188 4292069589
14.005505 854.45129 795.42188 4293515247
16.477064 854.45129 795.42188 4293714932
18.970642 853.73938 796.12958 4294636029
22.244038 854.45129 795.42188 4294967295
25.53945 854.45129 795.42188 4294967295
28.866055 853.73938 796.12958 4294967295
32.130276 854.45129 795.42188 4294967295
34.678898 853.0274 796.83728 4294967295
37.113762 853.73938 796.12958 4294967295
40.368805 854.45129 795.42188 4294967295
43.761467 853.0274 796.83728 4294967295
46.78899 853.44824 797.19214 4294967295
49.431194 854.45129 795.42188 4294967295
51.959633 853.73938 796.12958 4294967295
54.374313 854.45129 795.42188 4294967295
-7.6892967 856.55078 797.19208 4292198102
-3.2954128 856.97064 797.54614 4292002008
-1.6477064 856.34082 797.01508 4292067800
1.0984709 856.55078 797.19208 4291870935
4.119266 855.711 796.48401 4292134099
8.2385321 855.711 796.48401 4291673298
13.730887 856.13086 796.83807 4292858854
16.477064 855.711 796.48401 4293846261
18.948624 855.711 796.48401 4294438908
22.244038 855.711 796.48401 4294967295
25.53945 855.711 796.48401 4294967295
28.834862 855.711 796.48401 4294967295
32.130276 855.711 796.48401 4294967295
34.601833 855.711 796.48401 4294967295
37.073395 855.711 796.48401 4294967295
40.368805 855.711 796.48401 4294967295
43.664223 855.711 796.48401 4294967295
47.234253 856.55078 797.19208 4294967295
49.431194 855.711 796.48401 4294967295
51.902752 855.711 796.48401 4294967295
54.374313 855.711 796.48401 4294967295
-1.6422018 860.35358 796.47449 4292067804
0.82110089 860.35358 796.47449 4291870422
3.8318043 859.5166 795.76874 4292132564
7.3899078 859.09808 795.41589 4291343819
10.674313 859.09808 795.41589 4291213260
14.232415 859.93506 796.12158 4293055974
16.422018 859.72583 795.94519 4293582838
18.885323 859.72583 795.94519 4294767871
22.169724 859.09808 795.41589 4294967295
25.454128 859.09808 795.41589 4294967295
28.738533 859.09808 795.41589 4294967295
32.022934 859.09808 795.41589 4294967295
34.48624 859.09808 795.41589 4294967295
36.675842 859.5166 795.76874 4294967295
40.233948 859.09808 795.41589 4294967295
43.518349 859.09808 795.41589 4294967295
46.80275 860.35358 796.47449 4294967295
50.087158 859.09808 795.41589 4294967295
52.550457 859.09808 795.41589 4294967295
54.192661 859.09808 795.41589 4294967295
-1.6422018 861.60907 797.53308 4291870161
0.82110089 861.60907 797.53308 4292132565
4.3694191 862.60419 795.75604 4292395481
7.373395 862.39539 795.57996 4291803855
10.650459 862.39539 795.58002 4291146704
13.927523 863.02173 796.10815 4292988642
16.385321 863.02173 796.10815 4293253358
18.843121 863.02173 796.10815 4294767615
22.120182 862.39539 795.58002 4294967295
25.124159 862.18658 795.40399 4294967295
28.947401 862.18658 795.40399 4294967295
31.951376 862.39539 795.58002 4294967295
34.409176 862.39539 795.58002 4294967295
37.14006 862.60419 795.75604 4294967295
40.144035 862.39539 795.58002 4294967295
43.421101 862.39539 795.58002 4294967295
46.698166 863.02173 796.10815 4294967295
49.975227 862.39539 795.57996 4294967295
52.433029 862.39539 795.58002 4294967295
54.07156 862.39539 795.58002 4294967295
-7.3568807 866.93414 796.79089 4292068568
-3.8171256 866.04755 796.91534 4291937234
-1.6366973 865.60425 796.9776 4292134867
0.81926608 864.27441 797.16431 4291871444
4.0963306 864.27441 797.16431 4292264665
7.3651376 865.60425 796.9776 4291871189
10.638533 865.60425 796.97766 4290819271
13.911926 865.60425 796.9776 4292528351
17.166054 866.3092 796.26398 4293779191
19.618349 866.3092 796.26398 4294307325
22.070641 866.3092 796.26404 4294967295
25.340366 866.3092 796.26398 4294967295
28.610092 866.3092 796.26398 4294967295
31.879818 866.3092 796.26398 4294967295
35.149544 866.3092 796.26398 4294966783
37.601833 866.3092 796.26398 4294967295
40.054131 866.3092 796.26404 4294967295
43.323853 865.68427 795.73706 4294967295
46.620186 865.95673 796.62085 4294967295
49.890823 865.95673 796.62085 4294967295
52.899693 866.04755 796.91534 4294967295
54.07156 864.27441 797.16431 4294967295
-3.2697248 868.18402 797.84473 4292068821
-1.6348624 868.18402 797.84473 4292200407
0.81743121 868.18402 797.84473 4292068569
4.0871563 868.18402 797.84473 4292332256
7.3568807 868.18402 797.84473 4291806163
10.626606 868.18402 797.84473 4291015883
13.89633 868.18402 797.84473 4292265430
17.166054 868.18402 797.84473 4293647349
32.697247 868.18402 797.84473 4294967295
34.332111 868.18402 797.84473 4294967295
37.601833 868.18402 797.84473 4294967295
53.950459 868.18402 797.84473 4294967295
-4.0733948 872.78174 797.79724 4292002775
-1.6293578 872.15894 797.27209 4292331993
0.81467891 872.15894 797.27209 4292002262
4.344954 872.36652 797.44708 4291607765
7.3321099 871.53607 796.74695 4291411155
10.319266 871.95135 797.09698 4290817212
13.849541 871.53607 796.74695 4292132820
17.108257 871.53607 796.74695 4293253359
19.552294 870.91321 796.2218 4293846266
21.983486 871.26355 795.86328 4294967295
25.255047 870.91327 796.2218 4294966783
28.513762 870.91321 796.2218 4294967295
31.500916 871.12085 796.39679 4294967295
35.275841 871.58795 795.91876 4294967295
37.475231 871.53607 796.74695 4294967295
39.87431 871.61389 795.50464 4294967295
43.129356 871.61389 795.50464 4294967295
46.384399 871.61389 795.50464 4294967295
49.63945 871.61395 795.50464 4294967295
52.080734 871.61389 795.50464 4294967295
1.0837921 875.00885 797.05914 4291738321
4.0642204 875.42316 797.40845 4291540428
7.3155961 874.8017 796.88452 4291606735
10.566973 874.80176 796.88452 4290751931
13.818348 874.1803 796.3606 4291804114
17.069725 874.1803 796.3606 4293187052
21.133945 874.1803 796.3606 4294967295
25.198166 874.1803 796.3606 4294967295
28.449541 874.1803 796.3606 4294967295
31.700916 874.1803 796.3606 4294967295
34.952293 874.80176 796.88452 4294900991
37.390827 874.80176 796.88452 4294966783
39.016514 874.80176 796.88452 4294966783
-6.4880733 876.81903 795.96936 4291739606
-3.2440367 876.81903 795.96936 4291673298
-1.6220183 876.81903 795.96936 4291673298
0.81100917 878.05908 797.01489 4291541455
4.0550461 878.05908 797.01489 4291409608
7.2990828 878.05908 797.01489 4291540426
10.813457 877.64575 796.66632 4290817726
13.787157 877.43909 796.49213 4291541198
17.031193 876.81903 795.96936 4293121259
19.46422 876.81903 795.96936 4293846263
21.897247 876.81903 795.96936 4294967295
25.141285 876.81903 795.96936 4294967295
28.385323 876.81903 795.96936 4294967295
31.629356 877.43909 796.49213 4294967295
34.873394 878.05908 797.01489 4294967039
38.117432 878.05908 797.01489 4294967295
40.550457 877.43909 796.49213 4294967039
42.983486 877.43909 796.49213 4294966527
46.227524 876.81903 795.96936 4294967295
48.660549 876.81903 795.96936 4294967295
-7.274312 881.38446 795.89465 4291343819
-4.0412846 881.38446 795.89465 4291277262
-1.6165137 881.38446 795.89465 4291475153
1.6165137 881.38446 795.89465 4291344848
4.8495412 881.38446 795.89465 4291541194
7.274312 881.38446 795.89465 4291344071
10.507339 881.38446 795.89465 4291606217
13.740367 881.38446 795.89465 4291738577
16.165138 881.38446 795.89465 4292266202
19.398165 881.38446 795.89465 4293385712
21.822937 881.38446 795.89465 4294967295
25.055964 881.38446 795.89465 4294967295
28.28899 881.38446 795.89465 4294967039
31.522018 881.38446 795.89465 4294966015
34.755043 881.38446 795.89465 4294965759
37.988075 881.38446 795.89465 4294965759
40.412846 881.38446 795.89465 4294966527
42.837616 881.38446 795.89465 4294966527
46.070641 881.38446 795.89465 4294966527
48.495415 881.38446 795.89465 4294966783
-7.274312 883.23822 797.45776 4291539916
-4.0412846 882.6203 796.93677 4291473616
-1.612844 884.00775 795.4906 4291737044
0.80825686 883.23822 797.45776 4291212490
4.0412846 883.23822 797.45776 4292132811
7.274312 882.6203 796.93677 4291935434
10.507339 882.6203 796.93677 4291409869
13.723853 883.31403 796.21368 4291936470
16.934864 884.00775 795.4906 4292660440
20.160549 884.00775 795.4906 4293913844
22.579817 884.00775 795.4906 4294967295
24.999083 884.00775 795.4906 4294967295
28.22477 884.00775 795.4906 4294966527
31.522018 882.6203 796.93677 4294965759
34.676147 884.00775 795.4906 4294965503
37.945869 883.31403 796.21368 4294966527
40.321102 884.00775 795.4906 4294966527
42.837616 882.6203 796.93677 4294966783
46.070641 882.6203 796.93677 4294967039
49.246788 883.31403 796.21368 4294967295
51.611008 884.00775 795.4906 4294967295
-7.2577982 886.47382 797.56982 4291474118
-4.0321097 885.8573 797.05005 4291671244
-1.6110091 886.54822 796.32452 4291802831
0.806422 886.47382 797.56982 4292264401
4.0321102 886.47382 797.56982 4292659661
7.2577982 885.8573 797.04999 4292528341
10.483486 885.8573 797.05005 4291869914
13.693579 886.54822 796.32452 4291804627
16.896332 887.24048 795.60022 4292659928
20.114677 887.24048 795.60022 4293847796
22.52844 887.24048 795.60022 4294967295
24.955963 886.89429 795.9624 4294967295
28.176147 886.89441 795.9624 4294834174
31.39633 886.89429 795.9624 4294899199
34.597248 886.62537 795.08154 4294833151
37.815598 886.62537 795.08154 4294966015
41.080734 886.54816 796.32458 4294965503
43.546787 885.8573 797.04999 4294966015
45.940369 886.2027 796.68726 4294966015
49.163303 886.20276 796.68726 4294966783
51.49358 887.24048 795.60022 4294967295
-6.4366975 889.08588 797.15613 4291671753
-4.0229359 889.08588 797.15613 4291934412
-1.6091744 889.08588 797.15613 4292394708
4.8275228 889.08588 797.15613 4292921818
7.2412844 889.08588 797.15613 4292855773
10.459633 889.08588 797.15613 4291474385
13.677982 889.08588 797.15613 4291670213
16.876148 889.77539 796.4295 4292461780
20.068806 890.46484 795.70288 4293584625
22.477064 890.46484 795.70288 4294967295
24.885323 890.46484 795.70288 4294967295
28.096329 890.46484 795.70288 4294834430
31.307339 890.46484 795.70288 4294965247
34.518349 890.46484 795.70288 4294965503
37.729355 890.46484 795.70288 4294965503
40.940369 890.46484 795.70288 4294966271
44.151375 890.46484 795.70288 4294966527
46.666054 889.08588 797.15613 4294966527
49.079819 889.08588 797.15613 4294966271
51.49358 889.08588 797.15613 4294967295
-1.6055046 892.30597 797.25525 4292264662
4.8165135 892.91968 797.77271 4292198874
7.2247705 892.91968 797.77271 4291279567
10.43578 892.91968 797.77271 4290555596
13.646789 892.30597 797.25525 4291079874
16.8578 892.30603 797.25525 4292266456
19.801222 892.10138 797.08276 4293386990
22.477064 891.69226 796.73779 4294967295
24.885323 891.69226 796.73779 4294967295
28.096329 891.69226 796.73779 4294900222
30.504587 891.69226 796.73779 4294965759
44.954128 891.69226 796.73779 4294966271
46.559631 891.69226 796.73779 4294966015
48.967888 891.69226 796.73779 4294966527
52.178902 891.69226 796.73779 4294967039
-1.6 896.20294 796.61707 4292330708
4.8000002 896.20294 796.61707 4291935700
13.6 896.20294 796.61707 4291211197
16.799999 896.20294 796.61707 4292528856
20.266666 895.79517 796.27325 4294242806
22.4 895.59131 796.10138 4294967295
24.799999 895.59131 796.10138 4294967295
28 895.59131 796.10144 4294768892
31.200001 895.59131 796.10144 4294966783
34.400002 895.59131 796.10144 4294966271
37.599998 895.59131 796.10144 4294966271
40.533333 895.38745 795.9295 4294965759
44 894.97974 795.58569 4294965503
46.400002 895.59131 796.10138 4294966527
48.799999 895.59137 796.10138 4294966527
52 895.59131 796.10144 4294966783
54.400002 896.20294 796.61707 4294967295
-4 897.42615 797.64844 4291869900
-1.5963303 898.79395 796.18567 4292067022
0.80000001 897.42615 797.64844 4291606475
4 897.42615 797.64844 4291408072
7.1999998 897.42615 797.64844 4291146438
10.4 897.42615 797.64844 4291014080
13.6 897.42615 797.64844 4292000448
16.799999 897.42615 797.64844 4292921820
19.976147 898.11005 796.91705 4294045172
23.14679 898.79395 796.18567 4294967295
25.541285 898.79395 796.18567 4294967295
27.93578 898.79395 796.18567 4294834941
31.128441 898.79395 796.18567 4294965759
34.321098 898.79395 796.18567 4294965503
37.513763 898.79395 796.18567 4294966015
40.706421 898.18372 795.67114 4294965759
43.899082 897.57355 795.15662 4294899967
47.091743 898.79395 796.18567 4294966015
49.48624 898.79395 796.18567 4294967039
52.678898 898.79395 796.18567 4294967295
54.27523 898.79395 796.18567 4294966527
-3.1926606 900.0144 797.2146 4292001229
-1.5944954 901.30566 796.99536 4291671497
1.5963303 900.0144 797.2146 4291409345
3.7223244 900.87524 797.06842 4291144898
6.3779817 901.30566 796.99536 4291210695
9.5779819 900.0144 797.2146 4291213249
13.568808 900.0144 797.2146 4291738309
17.559633 900.0144 797.2146 4293448423
20.204283 900.87524 797.06842 4294308599
23.093578 901.98816 796.26282 4294967295
25.482569 901.98816 796.26282 4294967295
27.871559 901.98816 796.26282 4294834941
31.056881 901.98816 796.26282 4294966271
34.262386 901.64691 796.62909 4294965247
37.427521 901.37939 795.74951 4294965759
40.612846 901.37939 795.74951 4294966271
44.594494 901.37939 795.74951 4294899199
46.98349 901.98816 796.26282 4294965759
50.168808 901.98816 796.26282 4294966527
52.618347 901.30566 796.99536 4294967295
54.722935 901.73608 796.9223 4294967295
-3.9816513 903.81458 797.80286 4291079364
-1.5926605 903.81458 797.80286 4291144905
1.5926605 903.81458 797.80286 4291079364
3.9816513 903.81458 797.80286 4290948277
7.1669722 903.81458 797.80286 4291605708
10.341284 904.49426 797.06787 4291869645
13.537615 903.81458 797.80286 4292067022
16.722935 903.81458 797.80286 4292923362
19.884403 904.49426 797.06787 4293913588
23.040367 905.17389 796.33289 4294967295
25.423853 905.17389 796.33289 4294967295
27.807339 905.17389 796.33289 4294900990
30.985321 905.17389 796.33289 4294966783
34.163303 905.17389 796.33289 4294966783
37.341286 904.56653 795.82074 4294966271
40.519264 904.56653 795.82074 4294833151
43.69725 904.56647 795.8208 4294964735
46.930275 904.49426 797.06787 4294965247
50.053211 905.17389 796.33289 4294966015
52.436699 905.17389 796.33289 4294967295
54.820183 905.17389 796.33289 4294966783
-3.1779816 906.38867 797.35718 4291079364
-1.5889908 906.38867 797.35718 4291145157
0.7944954 906.38867 797.35718 4290948292
3.972477 906.38867 797.35718 4290882485
7.1504583 906.38867 797.35718 4291868614
10.328441 906.38867 797.35718 4292263383
13.506422 906.38867 797.35718 4292395990
16.935778 907.24487 797.20703 4292725984
19.582874 907.24487 797.20703 4293386478
23.28685 907.24487 797.20703 4294967295
25.913149 908.10107 797.05695 4294967295
28.050154 907.24487 797.20703 4294966527
30.949541 907.67297 797.13202 4294966527
34.123856 907.67297 797.13196 4294964735
37.298164 907.67297 797.13196 4294964735
40.42569 908.35132 796.39587 4294898943
43.596329 908.35132 796.39587 4294965759
46.821098 907.67297 797.13196 4294965759
49.966057 908.01215 796.76392 4294965759
52.884403 908.10107 797.05695 4294966271
55.042206 907.24487 797.20703 4294966783
57.137615 907.67297 797.13202 4294967039
-1.5853211 910.16925 797.92883 4291407811
3.1706421 910.16925 797.92883 4292065223
7.133945 910.16925 797.92883 4293118427
10.304587 910.16925 797.92883 4292856290
13.475229 910.16925 797.92883 4292199641
16.645872 910.16925 797.92883 4292397018
19.816513 910.16925 797.92883 4293254639
22.987156 910.16925 797.92883 4294967295
26.157799 910.16925 797.92883 4294967295
28.53578 910.16925 797.92883 4294965503
30.913761 910.16925 797.92883 4294967295
34.005505 911.5202 796.4519 4294965503
37.212845 910.84473 797.19037 4294965759
40.332108 911.5202 796.4519 4294833149
43.596329 910.16925 797.92883 4294964991
46.766972 910.16925 797.92883 4294965503
49.878899 910.84473 797.19037 4294965247
53.108257 910.16925 797.92883 4294965503
55.48624 910.16925 797.92883 4294966527
57.07156 910.16925 797.92883 4294967039
18.979816 912.72943 797.47144 4292135134
23.724771 912.72943 797.47144 4294967295
26.097248 912.72943 797.47144 4294901501
28.469725 912.72943 797.47144 4294964735
30.842201 912.72943 797.47144 4294967039
34.005505 912.72943 797.47144 4294965503
37.168808 912.72943 797.47144 4294966783
40.332108 912.72943 797.47144 4294966015
43.495415 912.72943 797.47144 4294966015
46.658714 912.72943 797.47144 4294966015
49.733948 913.74054 796.36194 4294964991
52.985321 912.72943 797.47144 4294965759
56.148624 912.72943 797.47144 4294966271
17.337614 917.16156 797.28442 4292330458
19.701836 917.16156 797.28442 4292923880
22.85413 917.16156 797.28442 4294967295
26.006422 915.9566 796.26843 4294967295
29.158714 915.9566 796.26843 4294966271
31.522936 915.9566 796.26843 4294967039
33.887154 915.9566 796.26843 4294965759
37.302143 916.75995 796.9458 4294965759
40.191742 916.55908 796.77649 4294965503
43.344036 916.55908 796.77643 4294965503
47.284405 915.9566 796.26843 4294964991
48.86055 915.9566 796.26843 4294964991
53.06361 916.35822 796.60712 4294965759
55.690521 916.75995 796.9458 4294965759
11.007339 920.90845 797.82764 4292266461
14.152293 920.90845 797.82764 4291607251
16.773088 920.50775 797.48975 4292264402
19.655964 920.30737 797.3208 4292792297
22.800919 920.30737 797.3208 4294967039
25.945875 919.70624 796.81396 4294967295
29.090826 919.70624 796.81396 4294966527
31.449541 919.7063 796.81396 4294967295
33.808258 919.70624 796.81396 4294966783
36.953209 920.30737 797.3208 4294966015
40.098167 920.30737 797.3208 4294966015
43.400368 919.94666 797.01672 4294900223
46.388073 919.70624 796.81396 4294965503
49.270947 918.90485 796.13818 4294898943
52.520733 919.94666 797.01672 4294966015
55.036697 920.30737 797.3208 4294965247
26.669725 923.4447 797.3501 4294967295
43.926605 923.4447 797.3501 4294966271
46.279816 923.4447 797.3501 4294965759
49.57431 922.48523 796.54114 4294899455
51.770641 923.4447 797.3501 4294965759
-12.433027 748.94202 798.02124 4292201187
-13.827523 791.41193 799.82202 4292069087
-12.944036 793.84961 799.91534 4292200673
-12.909174 797.026 799.32355 4292397536
-12.034863 799.08313 799.75012 4292989155
-13.710092 803.92773 799.91077 4292528343
-11.99633 803.92773 799.91077 4292857308
-10.26055 806.05859 799.09143 4292264923
-11.079817 810.22705 798.68213 4292133081
-13.489908 825.31989 798.32764 4292067794
-11.80367 825.31989 798.32764 4292199123
-13.46055 828.06097 798.02271 4292067792
-10.936696 829.34735 799.10742 4292331222
-8.4128437 828.7041 798.56506 4292331222
-7.5467887 832.80316 798.09717 4292331738
-8.3669729 836.80811 798.85803 4292462811
-6.6422019 846.92871 798.23523 4292724954
-9.930275 851.60352 798.25281 4292003544
-9.9082565 855.55237 798.96631 4292066005
-6.6055045 856.81488 800.03088 4292066005
-4.9541283 856.18359 799.4986 4292066004
-9.8862381 858.23035 798.60828 4292131798
-7.4146786 858.86023 799.13934 4292066260
-3.8446484 859.07013 799.31641 4291672272
-6.5688071 862.8645 798.59167 4292132563
-4.9266057 862.8645 798.59167 4292264405
-9.8532114 864.74774 800.17944 4292134105
-7.3733945 866.77972 799.27673 4292134104
-4.9155965 866.77972 799.27673 4292068567
0.81926608 865.5271 798.22058 4291937496
4.0963306 865.5271 798.22058 4292594913
-10.650459 868.03241 800.33301 4292264925
-7.3568807 869.4339 798.89856 4292134110
-4.0871563 869.4339 798.89856 4292002774
0 869.4339 798.89856 4291871190
3.2697248 869.4339 798.89856 4291542743
-13.078899 870.68378 799.95239 4292462296
-7.3568807 870.68378 799.95239 4292462309
-9.73211 879.29913 798.06055 4291673550
0 879.29913 798.06055 4291344848
3.2440367 879.29913 798.06055 4291541194
-8.0642204 887.70685 798.6095 4291802567
0.806422 887.70685 798.6095 4292591833
3.225688 887.70685 798.6095 4292921818
-7.5217128 889.80963 799.5105 4291935179
-4.0229359 890.3161 798.19348 4292067024
0.80458719 889.62799 798.92133 4292525791
4.0229359 890.3161 798.19348 4292790496
7.2412844 890.3161 798.19348 4292199637
10.459633 890.3161 798.19348 4290949070
-6.4366975 891.54633 799.23071 4292527060
-4.2911315 891.95636 799.57648 4292330195
0.80458719 891.54633 799.23071 4292395740
3.2183487 891.54633 799.23071 4292330460
-3.2110093 894.14709 798.80762 4292330708
0.80275232 894.14709 798.80762 4292395738
3.2110093 894.14709 798.80762 4292330458
7.2247705 894.14709 798.80762 4291410889
10.43578 894.14709 798.80762 4290489287
-6.4000001 899.26099 799.1955 4291671752
-4.8000002 898.64941 798.67981 4291869900
0 898.64941 798.67981 4291738309
8 898.64941 798.67981 4291210696
11.2 898.64941 798.67981 4291542213
16 898.64941 798.67981 4292395992
-6.4000001 901.09583 800.74255 4291276995
-3.9908257 901.2348 798.24365 4291276227
0.5321101 901.6416 798.58667 4291276483
4.788991 901.2348 798.24365 4291276221
7.9816513 901.2348 798.24365 4291868623
10.376146 901.2348 798.24365 4291542475
13.568808 901.2348 798.24365 4291673027
16.761467 901.2348 798.24365 4292857056
19.155964 901.2348 798.24365 4292990952
-6.3706422 905.03217 798.82947 4290947775
-4.7779818 905.03217 798.82947 4290947775
-6.8966355 907.5119 800.04816 4291079614
-3.9752293 907.8725 799.26221 4291013566
-1.5889908 907.60352 798.38147 4291210950
0.7944954 908.21094 798.89362 4291210942
4.237309 908.00848 798.7229 4292197575
7.1504583 907.60352 798.38147 4292592587
10.328441 907.60352 798.38147 4292723937
13.506422 907.60352 798.38147 4292462048
15.889908 907.60352 798.38147 4292397018
20.656881 907.60352 798.38147 4294636287
22.245872 907.60352 798.38147 4294967295
-7.1504583 910.03308 800.43005 4291342526
-3.9688072 910.70715 799.69037 4291342010
-1.5853211 911.38123 798.95068 4291670719
0.79266053 911.38123 798.95068 4291408061
3.9633026 911.38123 798.95068 4292461532
7.133945 911.38123 798.95068 4293185508
10.304587 911.38123 798.95068 4292922597
13.475229 911.38123 798.95068 4292396503
16.645872 911.38123 798.95068 4292527834
20.609175 911.38123 798.95068 4294766591
22.194496 911.38123 798.95068 4294967295
-7.3981652 913.40118 800.65387 4291211198
-3.9633029 913.19922 800.48364 4291473599
-1.5853211 912.59326 799.97266 4291670979
0.52844036 912.99725 800.31329 4291605953
3.9633026 912.59326 799.97266 4292527069
7.1247706 913.26593 799.23181 4292660704
10.280734 913.9386 798.49097 4292660708
13.458715 913.26593 799.23181 4292199639
16.60734 913.9386 798.49097 4292133333
19.770641 913.9386 798.49097 4293383917
22.933945 913.9386 798.49097 4294967295
36.377983 913.9386 798.49097 4294966271
42.704586 913.9386 798.49097 4294966271
45.867889 913.9386 798.49097 4294966527
56.939449 913.9386 798.49097 4294966015
-1.5816513 915.75238 800.02026 4291737029
1.5816513 915.75238 800.02026 4292000710
3.6905196 915.55084 799.85034 4292132826
6.8538227 915.55084 799.85034 4292463583
10.280734 915.14777 799.5105 4292397788
13.444036 915.14777 799.5105 4291936985
15.816514 915.14777 799.5105 4292001749
1.5761468 920.77649 800.3324 4291738822
3.940367 919.57153 799.31641 4292132823
7.0926604 919.57153 799.31641 4292397537
9.9822626 918.76825 798.6391 4292266462
13.134557 918.76825 798.6391 4291871193
15.761468 918.36658 798.30042 4291869646
56.741283 919.57153 799.31641 4294964735
4.1932721 922.91211 799.51691 4292198867
7.3382263 922.91211 799.51691 4292463064
10.221101 922.71173 799.34802 4292463579
13.366055 922.71173 799.34802 4292001496
16.511009 922.71173 799.34802 4292000975
19.393883 922.51141 799.17902 4292528601
22.800919 922.11066 798.84119 4294966527
25.159634 922.11066 798.84119 4294967295
29.352905 922.51141 799.17902 4294900223
31.449541 922.71173 799.34802 4294966527
33.808258 922.71173 799.34802 4294967295
36.953209 922.71173 799.34802 4294966783
40.098167 922.71173 799.34802 4294965503
42.456882 922.11066 798.84119 4294966015
53.464222 922.71173 799.34802 4294966271
55.036697 922.71173 799.34802 4294966527
3.9311926 924.51501 800.86853 4292395987
7.0761471 924.51501 800.86853 4292724952
10.221101 924.51501 800.86853 4292527321
13.366055 924.51501 800.86853 4292000982
16.511009 924.51501 800.86853 4291803853
19.90214 924.55804 800.03278 4293055454
22.774313 924.57953 799.61493 4294966015
25.915598 924.57959 799.61499 4294901502
28.806726 924.55804 800.03278 4294833918
31.449541 924.51501 800.86853 4294965247
33.808258 924.51501 800.86853 4294833919
36.953209 924.51501 800.86853 4294966015
40.098167 924.51501 800.86853 4294899711
43.142204 925.24377 798.86694 4294965503
46.279816 925.24377 798.86694 4294964991
49.417431 925.24377 798.86694 4294966015
52.375534 924.55811 800.03278 4294965247
43.926605 927.04285 800.38391 4294965503
48.633026 927.04285 800.38391 4294967295
-13.710092 805.89301 801.56787 4292132565
-11.99633 805.23792 801.0155 4292329945
-10.650459 869.2851 801.38928 4292461793
-13.108257 870.53778 802.44543 4292068055
-10.650459 871.16406 802.97357 4292133590
-8.1743116 871.93359 801.00623 4292330460
-13.078899 873.18347 802.06018 4292264917
-6.451376 891.40594 801.72852 4292265169
-6.4366975 894.00677 801.3053 4291804364
-8.027523 897.82935 801.91248 4291474371
-6.3559632 911.24786 801.45435 4291341755
-6.8697248 915.4212 802.35712 4291013305
-3.9633026 915.62317 802.52747 4291144891
-1.5816513 917.56616 801.54968 4291671751
0.52721709 916.27081 802.20148 4291606465
-7.1174312 919.37988 803.07898 4290947509
-3.9541283 919.37988 803.07898 4291079353
-1.5816513 918.77533 802.56921 4291540163
0 919.37988 803.07898 4291343809
-3.940367 923.18646 802.3645 4291078835
-1.5761468 922.58398 801.85645 4291474111
1.5761468 922.58398 801.85645 4291541189
56.2159 922.78485 802.02582 4294965247
1.5761468 924.39142 803.38049 4291736774
4.1932721 926.11786 802.22003 4292461523
7.0761471 925.71716 801.8822 4292527575
10.221101 926.31824 802.38898 4292329945
13.366055 926.31824 802.38904 4292131543
16.773088 926.11786 802.22003 4292132561
19.655964 926.31824 802.38904 4292989922
22.800919 926.31824 802.38904 4294900223
25.945873 926.31824 802.38898 4294967295
29.090826 926.31824 802.38904 4294966015
31.449541 926.31824 802.38898 4294966527
33.808258 926.31824 802.38904 4294966783
36.953209 926.31824 802.38904 4294966527
40.098167 926.31824 802.38898 4294965759
42.981037 926.51855 802.55792 4294965247
46.388073 926.31824 802.38898 4294966015
49.795105 926.51855 802.55792 4294965759
52.457489 925.67596 802.71948 4294965503
55.165138 924.39142 803.38049 4294964991
20.442202 928.12152 803.90942 4294041844
22.800919 928.12152 803.90942 4294899967
25.945873 928.12152 803.90942 4294835709
29.090824 928.12152 803.90942 4294966015
31.449541 928.12152 803.90942 4294966271
33.808258 928.12152 803.90942 4294966783
36.953209 928.12152 803.90942 4294967295
40.098167 928.12152 803.90942 4294966783
43.243118 928.12152 803.90942 4294964991
46.388073 928.12152 803.90942 4294965759
49.533028 928.12152 803.90942 4294965759
-6.3266053 921.79834 805.11804 4291012785
-3.9541283 922.40289 805.62781 4291342520
-1.5816513 923.00745 806.13757 4291276470
0 922.40289 805.62775 4291276478
1.5761468 925.59644 804.39648 4291998917
3.677676 926.39972 805.07379 4292460753
7.0926609 926.19885 804.90454 4292461526
10.244954 926.80139 805.41248 4292198871
13.397247 926.80139 805.41248 4292593119
16.28685 926.39972 805.07379 4291935442
18.913761 926.80139 805.41248 4292462811
53.06361 926.39972 805.07379 4294899455
4.7284403 928.00635 806.42847 4292986062
6.3045874 928.00635 806.42847 4292198347
10.244954 928.00635 806.42847 4291211461
19.701836 928.00635 806.42847 4292592589
22.85413 928.00635 806.42847 4294965503
26.006422 928.00635 806.42847 4294901502
29.158714 928.00635 806.42847 4294965503
31.522936 928.00635 806.42847 4294965503
33.887154 928.00635 806.42847 4294966271
37.039452 928.00635 806.42847 4294966527
40.191742 928.00635 806.42847 4294966271
43.29266 928.66504 805.67578 4294965247
46.49633 928.00635 806.42847 4294966015
49.648624 928.00635 806.42847 4294964735
52.012844 928.00635 806.42847 4294966271
-3.9633026 922.8952 808.65894 4291276983
0 923.50116 809.16992 4291736259
55.48624 922.28918 808.14795 4294964735
57.467892 922.59216 808.40344 4294964991
-1.5816513 924.82129 807.66699 4291802304
1.5816513 925.4259 808.17676 4291868356
3.1633027 926.03046 808.68652 4292788683
7.908257 926.03046 808.68652 4292000712
13.444036 926.03046 808.68652 4290750649
16.60734 926.03046 808.68652 4290948023
53.776146 926.03046 808.68652 4294964735
55.3578 925.4259 808.17676 4294964479
10.280734 927.23962 809.70605 4291604938
14.234862 927.23962 809.70605 4291737528
17.398165 927.23962 809.70605 4291870148
19.770641 927.23962 809.70605 4292723153
22.933945 927.23962 809.70605 4294438393
26.053211 928.22546 808.57526 4294901502
28.370642 929.21136 807.44446 4294964991
30.842201 927.23962 809.70605 4294966783
33.887154 929.21136 807.44446 4294966015
37.039452 929.21136 807.44446 4294966271
40.191742 929.21136 807.44446 4294966527
43.344036 929.21136 807.44446 4294899967
46.658714 927.23962 809.70605 4294965759
49.822018 927.23962 809.70605 4294964735
52.985321 927.23962 809.70605 4294965759
55.3578 927.23962 809.70605 4294965503
-6.3706422 920.2522 811.6626 4291343546
-4.7669725 923.39587 811.69714 4291080125
-3.1706421 925.31915 810.70282 4292591306
-1.5853211 925.31915 810.70282 4293578201
0.52844036 925.08301 811.37567 4292330186
3.9633026 925.92517 811.21375 4293249233
7.133945 925.92517 811.21375 4292919755
12.682569 925.92517 811.21375 4291474356
15.853211 925.92517 811.21375 4291804354
57.600002 925.11719 810.53253 4294965503
7.133945 927.13715 812.23572 4294433759
10.304587 927.13715 812.23572 4293843686
13.475229 927.13715 812.23572 4294107622
16.645872 927.13715 812.23572 4294041830
19.816513 927.13715 812.23572 4293185744
22.987156 927.13715 812.23572 4293253599
26.128441 927.79297 811.48065 4294901247
28.469725 928.44885 810.72559 4294635002
30.878899 927.79297 811.48065 4294966015
34.005505 928.44885 810.72559 4294966271
37.168808 928.44885 810.72559 4294967039
40.332108 928.44885 810.72559 4294965759
43.495415 928.44885 810.72559 4294965247
46.766972 927.13715 812.23572 4294965247
49.937614 927.13715 812.23572 4294965247
52.985321 928.44885 810.72559 4294965247
55.3578 928.44885 810.72559 4294965759
57.07156 927.13715 812.23572 4294966271
-6.3779817 922.03015 814.46979 4291474372
-4.7779818 923.2962 814.22925 4292591829
-1.5889908 925.82544 813.74573 4294961375
0.7944954 925.82544 813.74573 4292727001
3.972477 925.82544 813.74573 4294367203
3.972477 927.04022 814.77002 4293776612
7.4152904 927.44513 815.11151 4294236129
10.328441 927.64764 815.28223 4294237165
13.498165 927.97485 814.90405 4294435570
16.674311 927.97491 814.90405 4294239981
19.839449 928.30212 814.52594 4293846247
23.013762 928.30212 814.52594 4294109165
25.893578 928.75311 813.59821 4294966783
28.050154 928.28644 814.94873 4294636026
30.949541 928.30212 814.526 4294899710
34.123852 928.30212 814.526 4294966271
37.298164 928.30212 814.52594 4294966783
40.472477 928.30212 814.526 4294966015
43.596329 928.95508 813.76855 4294966015
46.821098 928.30212 814.52594 4294899454
49.995411 928.30212 814.526 4294965247
53.108257 928.95508 813.76855 4294899199
-8.0458717 914.92065 818.93933 4291211965
-6.4000001 921.89044 818.27612 4294963451
-3.9963303 922.54626 817.52106 4293645525
-3.1926606 925.03271 818.30945 4293252291
-1.5926605 926.34021 816.79584 4294042063
0.79724771 925.68726 817.55322 4292660443
3.9816513 926.94904 817.3092 4294566130
6.3706422 926.94904 817.3092 4294960883
7.9633026 928.16663 818.33582 4294967295
13.537615 928.16663 818.33582 4294967295
16.702751 928.81824 817.57721 4294967295
19.886238 928.81824 817.57721 4294967295
23.066055 928.81824 817.57721 4294967295
25.423853 929.46985 816.8186 4294967295
27.871559 928.16663 818.33582 4294571003
31.022018 928.81824 817.57721 4294966527
34.163303 929.46985 816.8186 4294965503
37.383484 928.81824 817.57721 4294967295
40.519264 929.46985 816.8186 4294967295
43.69725 929.46985 816.8186 4294966527
46.92844 928.81824 817.57721 4294965503
50.110092 928.81824 817.57721 4294965247
52.436699 929.46985 816.8186 4294964223
28.601835 930.68463 817.8429 4294306810
33.368809 930.68463 817.8429 4294965759
40.519264 930.68463 817.8429 4294966015
43.69725 930.68463 817.8429 4294966015
-6.4000001 923.11365 819.3075 4294699512
-4.8000002 923.11365 819.3075 4293712361
-6.9333329 924.74463 820.68262 4294239475
-4.2642202 925.58673 820.52069 4294239734
-1.5963303 926.86334 819.85303 4294502649
0.79816514 926.86334 819.85303 4294239220
3.9908257 926.86334 819.85303 4294967039
6.3853211 926.86334 819.85303 4294967295
10.376146 926.86334 819.85303 4294967295
-1.5963303 928.08374 820.88196 4294765051
4.788991 928.08374 820.88196 4294967295
7.183486 928.08374 820.88196 4294967295
10.376146 928.08374 820.88196 4294967295
13.568808 928.08374 820.88196 4294967295
16.761467 928.69397 821.39648 4294967039
19.688074 928.49054 821.22491 4294967295
23.14679 928.08374 820.88196 4294967295
25.541285 928.08374 820.88196 4294967295
27.93578 928.69397 821.39648 4294373626
31.092661 929.34424 820.63672 4294966271
34.560242 929.33087 821.06152 4294966271
37.190216 929.3576 820.21191 4294966527
47.065136 929.0191 821.0166 4294966015
49.941284 929.3576 820.21191 4294898943
52.106419 929.33087 821.06152 4294766591
54.27523 929.3042 821.91101 4294700793
38.223854 930.60181 820.38916 4294967295
40.612846 930.60181 820.38916 4294966783
43.798164 930.60181 820.38916 4294966015
-6.4000001 926.78326 822.40161 4294963455
-4 926.78326 822.40161 4294831357
0.80000001 926.78326 822.40161 4294633206
3.2 926.78326 822.40161 4294966527
-1.6 928.61816 823.94867 4294568953
1.6 928.00653 823.43298 4294567670
4 928.61816 823.94867 4294966527
7.1999998 928.61816 823.94873 4294967295
10.4 928.00653 823.43298 4294967295
13.599999 928.6181 823.94867 4294967295
16.799999 929.22974 824.46436 4294966783
20.266666 928.82202 824.12061 4294967295
22.4 928.61816 823.94867 4294967295
25.066666 928.41431 823.77679 4294967295
27.733332 928.82202 824.12061 4294176756
31.200001 929.22974 824.46436 4294832895
34.400002 929.22974 824.46436 4294965247
37.599998 929.22974 824.46436 4294966783
40 929.22974 824.46436 4294967295
46.400002 929.22974 824.46436 4294966527
48.799999 929.22974 824.46436 4294899455
52 929.22974 824.46436 4294504190
54.400002 929.22974 824.46436 4294701309
41.504585 930.5246 822.94006 4294967295
43.899082 930.5246 822.94006 4294966527
-4.0137615 926.06006 825.71582 4294831868
0 926.06006 825.71582 4294567670
-4.0137615 927.28748 826.75073 4294766588
-1.6055046 928.51489 827.78577 4294766589
0.80275232 927.28748 826.75073 4294305268
4.0137615 928.51489 827.78577 4294966271
7.2247705 928.51489 827.78577 4294967295
10.43578 927.90125 827.26825 4294967295
13.64679 928.51489 827.78577 4294967295
16.8578 928.51489 827.78577 4294966783
20.068806 928.51489 827.78577 4294967295
22.477064 928.51489 827.78577 4294967295
24.617737 928.10577 827.44073 4294967295
28.096329 928.51489 827.78577 4293913071
31.307339 928.51489 827.78577 4294898687
48.165138 928.51489 827.78577 4294965247
34.400002 930.45294 825.49573 4294964991
37.866669 930.86066 825.83954 4294965503
40.799999 931.06458 826.01141 4294966527
44.16 931.43152 826.3208 4294966527
46.400002 931.06458 826.01141 4294966527
49.599998 930.45294 825.49573 4294964991
52 930.45294 825.49573 4294701055
54.400002 930.45294 825.49573 4294898687
-4.0229359 927.83801 829.83105 4294766077
-1.6091744 928.45312 830.34961 4294897405
0.80458719 927.83801 829.83099 4294371316
4.0137615 929.74231 828.82068 4294966783
7.2339449 929.09772 829.58514 4294967295
10.459633 928.45312 830.34961 4294967295
13.64679 929.74231 828.82068 4294967295
16.8578 929.74231 828.82068 4294966527
20.114677 928.45312 830.34961 4294967295
22.477064 929.74231 828.82068 4294967295
24.91468 929.09772 829.58514 4294967295
28.160549 928.45312 830.34961 4293847021
31.342201 929.09772 829.58514 4294964734
34.518349 929.74231 828.82068 4294964223
36.926605 929.74231 828.82068 4294965503
48.967888 929.74231 828.82068 4294766847
52.178902 929.74231 828.82068 4294897919
55.389908 929.74231 828.82068 4294964991
34.518349 930.96973 829.85559 4294964735
37.729355 930.96973 829.85559 4294966783
41.207951 931.37891 830.2005 4294966271
43.883789 931.78802 830.54559 4294966015
46.559631 930.96973 829.85559 4294965759
49.770641 930.96973 829.85559 4294966015
51.376148 930.96973 829.85559 4294965503
56.192661 930.96973 829.85559 4294965247
-4.3009171 928.80792 833.26489 4294898430
-1.612844 928.39691 832.91833 4294766589
0.806422 928.39691 832.91833 4294372083
4.0321102 928.39691 832.91833 4294966527
7.2577982 928.39691 832.91833 4294967295
10.743731 929.23676 832.75439 4294967295
13.677982 929.68335 831.38696 4294967039
16.896332 929.68335 831.38696 4294966783
19.86116 929.66553 832.24396 4294967295
22.554129 929.65662 832.67249 4294967295
24.985321 929.33502 833.0553 4294967295
28.22477 928.39691 832.91833 4293649897
31.41468 929.65662 832.67249 4294701307
34.676147 929.62994 833.95801 4294898687
37.901833 929.62994 833.95801 4294899711
40.321102 929.62994 833.95801 4294966271
46.772476 929.62994 833.95801 4294965759
48.886242 929.64771 833.10101 4294964991
52.35688 929.65662 832.67249 4294965247
55.332722 929.64771 833.10101 4294965247
14.482569 930.91357 832.42419 4294965247
-3.7718656 929.17023 836.18646 4294766845
-1.6165137 928.96423 836.01276 4294832382
1.6165137 928.34631 835.4917 4294701304
4.0412846 928.34631 835.4917 4294966527
7.274312 928.34631 835.4917 4294967295
10.507339 928.96423 836.01276 4294966527
13.740367 928.96423 836.01276 4294900479
16.973394 928.34631 835.4917 4294966527
19.398165 929.58215 836.53381 4294967295
21.553518 929.17023 836.18646 4294967295
24.247707 929.58215 836.53381 4294967295
28.28899 928.96423 836.01276 4293715692
31.522018 929.58215 836.53381 4294701309
34.755043 929.58215 836.53381 4294898687
37.988075 929.58215 836.53381 4294965247
40.412846 929.58215 836.53381 4294966527
42.837616 929.58215 836.53381 4294967039
46.070641 929.58215 836.53381 4294966527
49.303673 929.58215 836.53381 4294965247
53.344955 928.34631 835.4917 4294965503
25.805504 930.86298 834.99768 4294967295
0 926.4209 837.79236 4294767354
-4.0550461 928.901 839.88354 4294963967
-1.6220183 928.901 839.88354 4294767102
1.0813456 928.07428 839.18646 4294899454
4.0550456 928.28101 839.36072 4294966783
7.0287461 928.07428 839.18646 4294967295
10.272782 928.48761 839.53497 4294967295
13.787156 928.28101 839.36072 4294966527
17.301529 928.07428 839.18646 4294966783
19.46422 928.901 839.88354 4294967295
21.897247 928.901 839.88354 4294967295
29.196331 928.901 839.88354 4293911791
31.629358 928.901 839.88354 4294898174
34.873394 928.901 839.88354 4294898430
38.117432 928.901 839.88354 4294767614
40.550457 928.901 839.88354 4294965759
42.983486 928.901 839.88354 4294966527
45.416515 928.901 839.88354 4294967295
48.660549 928.901 839.88354 4294966271
52.715595 927.66095 838.83789 4294965247
55.148624 927.66095 838.83789 4294965759
-6.4660549 930.81799 837.57581 4294699771
25.055964 930.81799 837.57581 4294967295
27.480734 930.81799 837.57581 4293518315
-4.0642204 928.86578 842.46997 4294898175
