# .PCD v0.7 - Point Cloud Data file format
VERSION 0.7
FIELDS x y z rgb
SIZE 4 4 4 4
TYPE F F F U
COUNT 1 1 1 1
WIDTH 1164
HEIGHT 1
VIEWPOINT 0 0 0 1 0 0 0
POINTS 1164
DATA ascii
-66.732109 759.64117 1302.7859 4289834478
7.4146791 760.58594 1303.5825 4294967295
-68.946793 768.95508 1304.0989 4290032105
7.387156 768.01379 1303.3053 4294967295
9.8495417 769.89636 1304.8926 4294967295
12.311927 769.89636 1304.8926 4294967295
-67.463303 775.40662 1302.9985 4289769449
7.359633 775.40662 1302.9985 4294967295
-68.433029 782.76428 1302.6622 4289570536
-65.988991 782.76428 1302.6622 4289833965
7.3321099 782.76428 1302.6622 4294967295
-70.877068 784.63281 1304.2377 4289375714
-68.433029 784.63281 1304.2377 4289505767
7.3321099 784.63281 1304.2377 4294967295
-68.176147 791.0177 1303.0812 4289373414
4.8697248 791.0177 1303.0812 4294967295
-70.611008 792.87921 1304.6508 4289441760
4.8697248 792.87921 1304.6508 4294967295
7.3045874 792.87921 1304.6508 4294967295
-67.867889 799.75439 1302.5996 4289571570
4.8477063 799.75439 1302.5996 4294967295
7.2715597 799.75439 1302.5996 4294967295
-70.29174 801.60742 1304.162 4289506019
7.2715597 801.60742 1304.162 4294967295
-72.440369 807.91943 1302.9438 4289307619
-67.611008 807.91943 1302.9438 4288980707
7.2440367 808.84247 1303.7222 4294769916
9.6587152 809.7655 1304.5005 4294245375
-72.165138 816.96185 1304.0281 4289110756
-67.354126 816.04236 1303.2528 4289375213
-64.948624 816.96185 1304.0281 4289441006
7.2165136 816.96185 1304.0281 4294440951
9.6220188 816.96185 1304.0281 4293785343
-74.28624 824.12317 1303.5262 4289504482
-69.493576 824.12317 1303.5262 4289636581
-67.097244 824.12317 1303.5262 4288914662
-64.70092 824.12317 1303.5262 4289506799
-62.304588 824.12317 1303.5262 4289245160
4.7926607 824.12317 1303.5262 4294967295
7.1889906 824.12317 1303.5262 4294375158
-62.066055 830.33698 1302.2253 4288917223
2.387156 830.33698 1302.2253 4294967295
4.774312 830.33698 1302.2253 4294967295
-66.84037 832.16199 1303.7642 4289112570
7.161468 832.16199 1303.7642 4294046193
-66.634865 839.6543 1304.8494 4289047011
-64.255043 839.6543 1304.8494 4289310183
-61.875229 837.8349 1303.3153 4288982505
4.7596331 837.8349 1303.3153 4294967295
7.1394496 838.74463 1304.0823 4293980400
9.5192661 839.6543 1304.8494 4293455615
-61.636696 845.80078 1303.4917 4288916456
4.7412844 845.80078 1303.4917 4294967295
7.1119266 845.80078 1303.4917 4294177779
-61.398167 851.91919 1302.1105 4288784870
-59.036697 851.91919 1302.1105 4289048299
4.7229357 851.91919 1302.1105 4294967295
-61.398167 853.72449 1303.6327 4288850663
2.3614678 853.72449 1303.6327 4294967295
4.7229357 853.72449 1303.6327 4294967295
-61.159634 859.80786 1302.2218 4288916208
-58.807339 859.80786 1302.2218 4289376759
2.3522935 859.80786 1302.2218 4294967295
4.704587 859.80786 1302.2218 4294967295
-72.921104 861.6062 1303.7382 4288979673
-70.56881 861.6062 1303.7382 4288518868
-68.216515 861.6062 1303.7382 4289111262
-64.688072 861.6062 1303.7382 4289111521
-61.159634 861.6062 1303.7382 4288651755
4.704587 861.6062 1303.7382 4294967295
7.056881 861.6062 1303.7382 4293980400
-73.417732 868.84863 1303.3047 4288848346
-67.950462 868.55005 1303.053 4288914397
-64.435776 867.65442 1302.2977 4288718818
-60.921101 867.65442 1302.2977 4288849648
-58.57798 867.65442 1302.2977 4288783855
-56.234863 867.65442 1302.2977 4289773823
-53.891743 867.65442 1302.2977 4294967295
1.5620795 868.25153 1302.8011 4294967295
4.6862388 868.55005 1303.053 4294967295
7.0293579 868.55005 1303.053 4293914607
-72.409172 874.97284 1303.2363 4288782038
-67.737617 874.97284 1303.2363 4288980959
-64.233948 874.97284 1303.2363 4288915940
-60.730274 874.97284 1303.2363 4288719077
-58.394497 874.97284 1303.2363 4288850663
-56.058716 874.97284 1303.2363 4289905151
-53.722935 874.97284 1303.2363 4294836223
1.16789 874.97284 1303.2363 4294967295
4.6715598 874.97284 1303.2363 4294967295
-72.409172 876.75854 1304.7419 4288586453
-70.073395 876.75854 1304.7419 4288520921
-67.737617 876.75854 1304.7419 4288849630
-64.233948 876.75854 1304.7419 4288784354
-60.730274 876.75854 1304.7419 4288784868
-58.394497 876.75854 1304.7419 4288916710
-56.058716 876.75854 1304.7419 4289905151
-53.722935 876.75854 1304.7419 4294967295
1.16789 876.75854 1304.7419 4294967295
4.6715598 876.75854 1304.7419 4294967295
7.0073395 876.75854 1304.7419 4293585642
-65.144951 884.51813 1304.7445 4288652766
-60.491745 884.51813 1304.7445 4288324319
-58.165138 883.62878 1303.9946 4288653283
-55.838531 883.62878 1303.9946 4289444863
-53.511925 882.73938 1303.2448 4294770687
0.77553517 883.92523 1304.2446 4294967295
-57.93578 890.46399 1303.2178 4288784357
-55.618347 890.46399 1303.2178 4289379327
0 890.46399 1303.2178 4294967295
-57.93578 892.23566 1304.7117 4288784357
-55.618347 892.23566 1304.7117 4289642495
1.1587156 892.23566 1304.7117 4294967295
-57.752293 895.90692 1302.575 4288718564
0 895.90692 1302.575 4294967295
-57.752293 897.67303 1304.0641 4288784357
1.1550459 897.67303 1304.0641 4294967295
-73.629356 903.55847 1302.4865 4288387021
-58.673393 904.43805 1303.228 4288388576
1.1504587 904.43799 1303.228 4294967295
-57.293579 911.16803 1302.3624 4288587498
-55.001835 911.16803 1302.3624 4290429695
1.1458715 911.16803 1302.3624 4294967295
-58.439449 912.92004 1303.8397 4287668179
2.291743 912.92004 1303.8397 4294967295
4.5834861 912.92004 1303.8397 4294967295
-57.110092 918.27325 1303.1212 4292464890
2.2844036 918.27325 1303.1212 4294967295
4.5688071 919.14648 1303.8574 4294967295
1.1376147 925.80273 1302.9298 4294967295
1.1376147 927.54224 1304.3965 4294967295
-55.563301 931.96948 1302.8973 4291941631
-52.161469 931.96954 1302.8973 4292467967
-49.893578 932.83643 1303.6283 4291744767
-46.869724 931.6806 1302.6537 4292731903
-43.089909 931.10266 1302.1664 4293060863
-40.822018 931.10266 1302.1664 4292995071
-37.042202 931.6806 1302.6537 4292798207
-34.018349 932.83643 1303.6283 4293061631
-31.750458 932.83643 1303.6283 4293061631
-6.8036699 932.83643 1303.6283 4294967295
-4.53578 931.96954 1302.8973 4294967295
-2.26789 931.10266 1302.1664 4294967295
-69.511925 756.37109 1307.8767 4289571563
9.930275 756.37109 1307.8767 4294967295
13.654128 756.37109 1307.8767 4294967295
-71.675232 763.42023 1305.9723 4289572062
9.8862381 763.42023 1305.9723 4294967295
12.357799 763.42023 1305.9723 4294967295
-74.14679 765.30975 1307.5654 4288915163
-71.675232 765.30975 1307.5654 4289441508
9.8862381 765.30975 1307.5654 4294967295
12.357799 765.30975 1307.5654 4294967295
-71.409172 771.77887 1306.4799 4289768935
9.8495417 771.77887 1306.4799 4294967295
12.311927 771.77887 1306.4799 4294967295
-71.14312 778.21985 1305.3706 4289636835
7.359633 778.21985 1305.3706 4294967295
-71.14312 780.09534 1306.952 4289506019
9.8128443 780.09534 1306.952 4294967295
-70.877068 787.43555 1306.6008 4289244897
7.3321099 787.43555 1306.6008 4294967295
-70.611008 794.74066 1306.2202 4289506017
7.3045874 794.74066 1306.2202 4294967295
-75.480736 796.60217 1307.7898 4289308623
-73.045868 796.60217 1307.7898 4289177053
-70.611008 796.60217 1307.7898 4289506017
-72.715599 803.46051 1305.7245 4289570788
7.2715597 803.46051 1305.7245 4294967295
9.6954126 805.3136 1307.2869 4294442239
9.6587152 811.61151 1306.057 4294114559
12.073395 811.61151 1306.057 4294180351
13.280734 813.45758 1307.6135 4294245631
-76.976151 820.63989 1307.1294 4289373917
-72.165138 821.55945 1307.9047 4289373666
7.2165136 819.7204 1306.354 4294638330
9.6220188 820.63989 1307.1294 4293784831
12.027523 820.63989 1307.1294 4293850623
-74.28624 826.87122 1305.8433 4289177315
-70.691742 826.87122 1305.8433 4289309154
-67.097244 826.87122 1305.8433 4288718317
-64.70092 826.87122 1305.8433 4289178611
7.1889906 826.87122 1305.8433 4294046193
-66.84037 833.987 1305.303 4288980968
-64.453209 833.987 1305.303 4289309933
7.161468 833.987 1305.303 4294046193
-69.227524 835.81201 1306.8418 4289308132
-66.84037 835.81201 1306.8418 4288784609
-64.453209 835.81201 1306.8418 4289245160
9.548624 835.81201 1306.8418 4293454847
-66.634865 841.47369 1306.3834 4289113317
-64.255043 841.47369 1306.3834 4289179367
9.5192661 841.47369 1306.3834 4293455615
-69.014679 843.29309 1307.9175 4289243622
-66.634865 843.29309 1307.9175 4288850917
-64.255043 843.29309 1307.9175 4288982503
10.709174 843.29309 1307.9175 4293390335
-66.377983 847.61316 1305.0199 4288849898
-64.007339 847.61316 1305.0199 4289047276
-61.636696 847.61316 1305.0199 4288850663
-59.266056 847.61316 1305.0199 4289048299
7.1119266 847.61316 1305.0199 4294243572
9.4825687 847.61316 1305.0199 4293455615
-71.119263 849.42554 1306.5481 4289046752
-67.563309 849.42554 1306.5481 4288915425
-64.007339 849.42554 1306.5481 4289047526
7.1119266 849.42554 1306.5481 4294177779
9.4825687 849.42554 1306.5481 4293455615
-73.205505 856.43256 1305.916 4289111259
-70.84404 856.43256 1305.916 4289111260
-67.301834 856.43256 1305.916 4289111775
-63.759632 856.43256 1305.916 4289243876
4.7229357 855.52991 1305.1549 4294967295
7.0844035 856.43256 1305.916 4294046193
-76.449539 863.40454 1305.2545 4288848084
-72.921104 863.40454 1305.2545 4288979419
-70.56881 863.40454 1305.2545 4288979421
-68.216515 863.40454 1305.2545 4289045214
-64.688072 863.40454 1305.2545 4288980454
4.704587 863.40454 1305.2545 4294967295
7.056881 863.40454 1305.2545 4293914607
-76.449539 865.20288 1306.7708 4288651475
-70.56881 865.20288 1306.7708 4288849118
9.409174 865.20288 1306.7708 4293127167
-77.322937 871.23706 1305.3186 4288782544
-73.808258 871.23706 1305.3186 4288650454
-70.293579 871.23706 1305.3186 4288979419
-67.950462 871.23706 1305.3186 4289177055
-63.264221 871.23706 1305.3186 4289375465
4.6862388 871.23706 1305.3186 4294967295
7.0293579 871.23706 1305.3186 4293914607
10.544037 871.23706 1305.3186 4293126399
-74.97982 873.02844 1306.829 4288650709
-70.293579 873.02844 1306.829 4288717530
7.0293579 873.02844 1306.829 4293651435
10.544037 873.02844 1306.829 4293060607
14.058716 873.02844 1306.829 4293323263
-72.409172 878.54431 1306.2477 4288586966
-70.073395 878.54431 1306.2477 4288520919
-67.737617 878.54431 1306.2477 4288849883
-64.233948 878.54431 1306.2477 4288784609
-60.730274 878.54431 1306.2477 4288718816
-58.394497 878.54431 1306.2477 4289113317
-56.058716 878.54431 1306.2477 4289773567
2.3357799 878.54431 1306.2477 4294967295
4.6715598 878.54431 1306.2477 4294967295
7.0073395 878.54431 1306.2477 4293585642
9.3431196 878.54431 1306.2477 4293060607
-72.409172 880.33002 1307.7534 4288390355
-70.073395 880.33002 1307.7534 4288191956
-67.737617 880.33002 1307.7534 4288849630
-64.233948 880.33002 1307.7534 4288718816
-60.730274 880.33002 1307.7534 4288323804
2.3357799 880.33002 1307.7534 4294967295
4.6715598 880.33002 1307.7534 4294967295
7.0073395 880.33002 1307.7534 4293585642
9.3431196 880.33002 1307.7534 4292995327
-72.124771 886.29688 1306.2443 4288258514
-69.798164 886.29688 1306.2443 4288256981
-67.471558 886.29688 1306.2443 4288585947
-65.144951 886.29688 1306.2443 4288323804
-61.655045 886.29688 1306.2443 4288389854
-58.165138 886.29688 1306.2443 4288719077
-55.838531 886.29688 1306.2443 4289510143
1.1633028 886.29688 1306.2443 4294967295
4.6532111 886.29688 1306.2443 4294967295
-74.451378 888.07556 1307.744 4288388817
-69.798164 888.07556 1307.744 4288191704
-67.471558 888.07556 1307.744 4288586462
-65.144951 888.07556 1307.744 4288389853
-61.655045 888.07556 1307.744 4288455391
2.3266056 888.07556 1307.744 4294967295
4.6532111 888.07556 1307.744 4294967295
-64.888077 895.77905 1307.6993 4288257747
-60.253212 894.89319 1306.9524 4288258013
2.3174312 894.00739 1306.2054 4294967295
4.6348624 894.89319 1306.9524 4294967295
6.9522934 895.77905 1307.6993 4293585642
-60.062386 899.43909 1305.5532 4288257749
1.1550459 899.43909 1305.5532 4294967295
-64.682571 901.2052 1307.0424 4288848087
-62.372478 901.2052 1307.0424 4288650709
4.6201835 901.2052 1307.0424 4294967295
6.9302754 901.2052 1307.0424 4293454056
-64.42569 908.83569 1306.936 4288520406
-62.124771 907.95618 1306.1945 4288323026
-59.823853 907.95618 1306.1945 4287665624
2.3009174 907.07666 1305.4529 4294967295
4.6018348 907.95618 1306.1945 4294967295
6.9027524 908.83569 1306.936 4293585642
-61.877064 914.67212 1305.317 4288124864
-59.58532 914.67212 1305.317 4288388315
4.5834861 914.67212 1305.317 4294967295
-61.877064 916.42419 1306.7943 4291084783
-59.58532 916.42419 1306.7943 4292399096
6.8752294 916.42419 1306.7943 4290756543
-61.678898 922.63934 1306.8027 4292336126
-59.394497 921.76611 1306.0664 4292271359
4.5688071 922.63934 1306.8027 4294967295
-61.431194 929.28162 1305.8632 4291612411
-59.155964 929.28162 1305.8632 4291546879
0 929.28162 1305.8632 4294967295
-61.431194 931.02106 1307.3298 4291546879
-59.155964 931.02106 1307.3298 4291547133
-45.504585 931.02106 1307.3298 4292207103
-43.229359 931.02106 1307.3298 4292733439
-40.954128 931.02106 1307.3298 4292930559
-38.678898 931.02106 1307.3298 4292930559
-2.2752295 931.02106 1307.3298 4294967295
-56.697247 934.57031 1305.0902 4292073727
-52.161469 934.57031 1305.0902 4292138751
-28.348625 934.57031 1305.0902 4292929535
-24.946789 934.57031 1305.0902 4293126911
-22.6789 934.57031 1305.0902 4293192959
-19.277065 934.57031 1305.0902 4294441983
-15.875229 934.57031 1305.0902 4294967295
-13.60734 934.57031 1305.0902 4294967295
-10.205505 934.57031 1305.0902 4294967295
-6.8036699 934.57031 1305.0902 4294967295
-71.994499 758.26904 1309.4771 4289506780
9.930275 758.26904 1309.4771 4294967295
13.654128 758.26904 1309.4771 4294967295
-71.675232 767.19928 1309.1587 4289441256
14.829358 767.19928 1309.1587 4294967295
-74.14679 769.08881 1310.7518 4289439970
14.829358 769.08881 1310.7518 4294967295
-71.409172 773.66138 1308.0671 4289900523
9.8495417 773.66138 1308.0671 4294967295
12.311927 773.66138 1308.0671 4294967295
-73.871559 775.54388 1309.6545 4289571042
9.8495417 775.54388 1309.6545 4294967295
12.311927 775.54388 1309.6545 4294967295
-73.596329 781.97083 1308.5333 4289309921
9.8128443 781.97083 1308.5333 4294901759
12.266055 781.97083 1308.5333 4294901759
-73.596329 783.84631 1310.1147 4289113056
9.8128443 783.84631 1310.1147 4294967295
12.266055 783.84631 1310.1147 4294967295
-75.765137 790.23828 1308.9641 4289507555
-73.321098 790.23828 1308.9641 4289309917
-75.765137 792.10675 1310.5396 4289504982
-73.321098 792.10675 1310.5396 4289111259
9.7761469 792.10675 1310.5396 4294574079
-73.045868 798.46362 1309.3594 4289506019
9.7394495 799.39435 1310.144 4294508031
12.174312 800.32507 1310.9288 4294573823
13.735168 807.78436 1309.3701 4294311167
16.966972 809.01965 1310.4117 4294443007
13.280734 815.30359 1309.17 4294047999
14.488073 817.14966 1310.7266 4293850623
16.902752 817.14966 1310.7266 4293324028
-79.381653 823.39844 1309.4553 4289175517
-76.976151 823.39844 1309.4553 4289045216
9.6220188 823.39844 1309.4553 4293718783
12.027523 823.39844 1309.4553 4293850623
-76.682571 829.61926 1308.1604 4289177307
-74.28624 829.61926 1308.1604 4289308636
-70.691742 829.61926 1308.1604 4289506017
-64.70092 829.61926 1308.1604 4289178363
9.5853214 829.61926 1308.1604 4293520639
-76.682571 831.45123 1309.7051 4289109976
-74.28624 831.45123 1309.7051 4289241562
-70.691742 831.45123 1309.7051 4289176800
9.5853214 831.45123 1309.7051 4293323519
-70.421097 838.54944 1309.1499 4288914918
11.93578 839.46198 1309.9193 4293652735
14.322936 839.46198 1309.9193 4293652223
-70.20459 845.11249 1309.4515 4289112293
11.899082 845.11249 1309.4515 4293652735
14.278899 845.11249 1309.4515 4293521407
-76.154129 846.93188 1310.9856 4288979419
-73.774315 846.93188 1310.9856 4289045468
11.899082 846.93188 1310.9856 4293652735
14.278899 846.93188 1310.9856 4293521407
16.658716 846.93188 1310.9856 4293455615
19.038532 846.93188 1310.9856 4293323775
-73.489906 851.23792 1308.0762 4288979423
-71.119263 851.23792 1308.0762 4289047004
-67.563309 851.23792 1308.0762 4289243875
-64.007339 851.23792 1308.0762 4289309415
7.1119266 851.23792 1308.0762 4294046193
10.667891 851.23792 1308.0762 4293455871
-78.231194 853.05029 1309.6044 4288978906
-75.86055 853.05029 1309.6044 4288782040
10.667891 853.05029 1309.6044 4293586943
14.223853 853.05029 1309.6044 4293060607
-76.747711 859.14062 1308.1995 4288979927
10.626606 860.04333 1308.9606 4293323775
14.168807 860.94598 1309.7217 4293586431
-77.625687 867.00122 1308.2871 4289177555
-70.56881 867.00122 1308.2871 4288979419
10.585321 867.00122 1308.2871 4293126399
14.113762 868.79956 1309.8035 4293191423
10.544037 874.8197 1308.3394 4293060607
14.058716 874.8197 1308.3394 4293323263
16.401834 874.8197 1308.3394 4292994046
11.715596 876.61108 1309.8499 4293257727
14.058716 876.61108 1309.8499 4293060607
16.401834 876.61108 1309.8499 4292731643
-72.409172 882.11572 1309.259 4288586962
-70.073395 882.11572 1309.259 4288388827
-67.737617 882.11572 1309.259 4288718048
-63.066055 882.11572 1309.259 4288718816
4.6715598 882.11572 1309.259 4294967295
7.0073395 883.00854 1310.0118 4293585642
10.511009 883.00854 1310.0118 4293061119
14.014679 883.90143 1310.7646 4292467967
-74.451378 889.85425 1309.2438 4288650962
-69.798164 889.85425 1309.2438 4288191956
-67.471558 889.85425 1309.2438 4288718300
-65.144951 889.85425 1309.2438 4288455898
-61.655045 889.85425 1309.2438 4288586974
4.6532111 889.85425 1309.2438 4294967295
6.9798164 889.85425 1309.2438 4293914607
-74.451378 891.63293 1310.7435 4288650960
-69.798164 891.63293 1310.7435 4288388565
-67.471558 891.63293 1310.7435 4289046752
-65.144951 891.63293 1310.7435 4288586966
-62.818348 891.63293 1310.7435 4288652759
6.9798164 891.63293 1310.7435 4293651435
9.3064222 891.63293 1310.7435 4292995327
-70.681656 899.32251 1310.687 4288584401
-67.205505 898.43665 1309.9401 4288782808
-64.888077 897.55078 1309.1931 4288717782
-62.570641 897.55078 1309.1931 4288849368
4.6348624 897.55078 1309.1931 4294967295
6.9522934 897.55078 1309.1931 4293519849
10.042202 898.73193 1310.1891 4292731646
-66.992661 902.97125 1308.5315 4288782038
-64.682571 902.97125 1308.5315 4288848087
-62.372478 902.97125 1308.5315 4288584915
4.6201835 902.97125 1308.5315 4294967295
6.9302754 902.97125 1308.5315 4293322470
9.2403669 902.97125 1308.5315 4292600575
-70.457794 904.73737 1310.0205 4288256719
-66.992661 904.73737 1310.0205 4288586453
-64.682571 904.73737 1310.0205 4288586199
6.9302754 904.73737 1310.0205 4293454056
10.395412 904.73737 1310.0205 4292732159
13.860551 904.73737 1310.0205 4292731135
-69.027519 910.59479 1308.4192 4288453325
-66.726608 910.59479 1308.4192 4288782290
-64.42569 910.59479 1308.4192 4287994313
-62.124771 910.59479 1308.4192 4287928264
6.9027524 910.59479 1308.4192 4293783021
10.354128 910.59479 1308.4192 4293323775
-73.629356 912.35388 1309.9025 4287928266
-69.027519 912.35388 1309.9025 4287928014
-66.726608 912.35388 1309.9025 4288520408
-64.42569 912.35388 1309.9025 4288453829
6.9027524 912.35388 1309.9025 4293914607
10.354128 912.35388 1309.9025 4292994815
13.805505 912.35388 1309.9025 4292994295
-66.460548 919.92834 1309.7489 4292468223
-64.168808 919.05231 1309.0103 4292072697
-61.877064 918.17627 1308.2716 4292927231
-59.58532 918.17627 1308.2716 4293190399
6.8752294 919.05231 1309.0103 4289506476
9.1669722 919.92834 1309.7489 4284313010
-61.678898 925.25903 1309.0115 4291612924
4.5688071 925.25903 1309.0115 4294967295
-63.963303 927.00549 1310.484 4291678204
2.2844036 927.00549 1310.484 4294967295
-61.431194 932.7605 1308.7964 4291810047
-59.155964 932.7605 1308.7964 4291810556
-54.605503 932.7605 1308.7964 4291941119
-50.055046 932.7605 1308.7964 4291941631
-47.779816 932.7605 1308.7964 4292599551
-36.403671 932.7605 1308.7964 4293192703
-34.128441 932.7605 1308.7964 4293192703
-31.85321 932.7605 1308.7964 4293061119
-4.5504589 932.7605 1308.7964 4294967295
-2.2752295 932.7605 1308.7964 4294967295
-59.155964 934.49994 1310.2631 4291482106
-56.880733 934.49994 1310.2631 4291876863
-52.330276 934.49994 1310.2631 4291744767
-28.440367 934.49994 1310.2631 4293192959
-25.027523 934.49994 1310.2631 4293192959
-22.752293 934.49994 1310.2631 4292732159
-19.339451 934.49994 1310.2631 4293126399
-13.651376 934.49994 1310.2631 4293258237
-10.238532 934.49994 1310.2631 4294376703
-6.8256879 934.49994 1310.2631 4294967295
-4.5504589 934.49994 1310.2631 4294967295
22.425688 755.5509 1313.7253 4294967295
-74.477066 760.16699 1311.0774 4289374427
14.895412 760.16699 1311.0774 4294967295
14.895412 762.06494 1312.6776 4294967295
17.377981 762.06494 1312.6776 4294901759
14.829358 770.97833 1312.3451 4294967295
14.829358 772.86786 1313.9382 4294967295
-73.871559 777.42639 1311.2418 4289374177
13.543119 778.36768 1312.0354 4294770687
-76.049538 785.7218 1311.6962 4288916447
-73.596329 785.7218 1311.6962 4289047774
9.8128443 785.7218 1311.6962 4294770687
13.492661 785.7218 1311.6962 4294770687
9.8128443 787.59735 1313.2775 4294901759
13.492661 787.59735 1313.2775 4294770687
9.7761469 793.97522 1312.115 4294574079
12.220183 793.97522 1312.115 4294901759
13.442202 795.84375 1313.6904 4294770687
13.391743 802.18652 1312.4984 4294310655
16.966972 811.79932 1312.7554 4294638847
14.488073 818.99573 1312.2831 4293652223
16.902752 818.99573 1312.2831 4293652223
14.488073 820.84174 1313.8396 4294047231
16.902752 820.84174 1313.8396 4294178815
-79.381653 825.23749 1311.006 4289110489
-76.976151 825.23749 1311.006 4288980705
9.6220188 825.23749 1311.006 4293389823
12.829358 826.46344 1312.0397 4293718271
-76.682571 833.28326 1311.2498 4289176282
-74.28624 833.28326 1311.2498 4289110489
-71.889908 833.28326 1311.2498 4288979423
11.981651 833.28326 1311.2498 4293652223
-76.682571 835.1153 1312.7944 4289177307
-74.28624 835.1153 1312.7944 4289111513
11.981651 835.1153 1312.7944 4293652735
14.377981 835.1153 1312.7944 4293718271
16.774311 835.1153 1312.7944 4293257724
-71.614677 841.28699 1311.4581 4288388313
14.322936 841.28699 1311.4581 4293718271
16.710093 841.28699 1311.4581 4293454846
19.097248 841.28699 1311.4581 4293454591
-74.001831 843.112 1312.9969 4288849118
16.710093 843.112 1312.9969 4293455615
19.097248 843.112 1312.9969 4293718015
21.484404 843.112 1312.9969 4293981183
-78.533943 848.75128 1312.5198 4288913115
-76.154129 848.75128 1312.5198 4288847581
14.278899 848.75128 1312.5198 4293455615
16.658716 848.75128 1312.5198 4293521407
19.038532 848.75128 1312.5198 4293323775
21.418348 848.75128 1312.5198 4293323775
-78.231194 854.86267 1311.1324 4289177053
-75.86055 854.86267 1311.1324 4289111513
10.667891 854.86267 1311.1324 4293587455
14.223853 854.86267 1311.1324 4293323263
16.594496 854.86267 1311.1324 4293454591
14.223853 856.67505 1312.6606 4293651711
16.594496 856.67505 1312.6606 4293651711
11.80734 862.75134 1311.2439 4293061375
14.168807 862.75134 1311.2439 4293454591
14.168807 864.5567 1312.7661 4293323263
16.530275 864.5567 1312.7661 4293454591
16.466055 870.5979 1311.3197 4293257471
18.818348 872.3963 1312.8361 4293124095
11.715596 878.4024 1311.3602 4293258495
14.058716 878.4024 1311.3602 4293191935
16.401834 878.4024 1311.3602 4292994815
14.058716 880.19373 1312.8706 4293191935
16.401834 880.19373 1312.8706 4293191935
18.744955 880.19373 1312.8706 4293059583
-72.409172 886.58008 1313.0232 4288454097
7.0073395 885.68719 1312.2704 4293980400
10.511009 886.58008 1313.0232 4292995327
14.014679 886.58008 1313.0232 4292534271
16.350458 887.4729 1313.776 4292600319
-73.288071 893.41168 1312.2434 4288454611
-69.798164 893.41168 1312.2434 4288388819
-67.471558 893.41168 1312.2434 4288717528
-62.818348 893.41168 1312.2434 4288586712
10.469725 893.41168 1312.2434 4292863743
-73.288071 895.19043 1313.7432 4288519122
-69.798164 895.19043 1313.7432 4288388565
11.633027 895.19043 1313.7432 4292995327
13.959633 895.19043 1313.7432 4292797951
-70.681656 901.09418 1312.1809 4288519122
11.587156 901.09418 1312.1809 4292732159
13.904587 901.09418 1312.1809 4292533759
16.222019 902.86584 1313.6747 4292796927
18.53945 902.86584 1313.6747 4292993535
-70.842812 907.0921 1312.006 4288256719
-66.992661 906.50342 1311.5096 4288586453
10.395412 906.50342 1311.5096 4292863487
13.860551 907.38647 1312.2542 4293125887
16.170643 908.26953 1312.9988 4292665855
18.480734 908.26953 1312.9988 4291022591
-69.027519 914.11292 1311.3856 4286219179
-66.726608 914.11292 1311.3856 4288390605
-64.42569 914.11292 1311.3856 4289768924
10.354128 914.11292 1311.3856 4288322021
13.805505 914.11292 1311.3856 4287595974
-69.027519 915.87201 1312.8689 4287730876
-66.726608 915.87201 1312.8689 4289967581
10.354128 915.87201 1312.8689 4283657704
13.805505 915.87201 1312.8689 4284703921
16.106422 915.87201 1312.8689 4285296058
18.407339 915.87201 1312.8689 4286673584
-66.460548 922.5564 1311.9648 4292269823
-64.168808 922.5564 1311.9648 4292138751
6.8752294 922.5564 1311.9648 4288585374
9.1669722 921.68036 1311.2262 4284706992
-63.963303 928.75195 1311.9565 4291283964
1.1422018 928.75195 1311.9565 4294967295
-63.963303 930.49841 1313.4292 4291283711
-45.688072 930.49841 1313.4292 4292534271
-43.403671 930.49841 1313.4292 4292994815
-41.119267 930.49841 1313.4292 4293126911
-38.834862 930.49841 1313.4292 4293126911
-59.155964 937.97876 1313.1964 4291743227
-6.8256879 936.23938 1311.7297 4294573823
17.442202 757.45593 1315.3315 4294967295
19.933945 757.45593 1315.3315 4294967295
22.425688 757.45593 1315.3315 4294967295
19.933945 759.36084 1316.9377 4294508031
22.425688 759.36084 1316.9377 4294639615
24.917431 759.36084 1316.9377 4294245119
-74.477066 763.96289 1314.278 4289178083
17.377981 763.96289 1314.278 4294967295
19.86055 763.96289 1314.278 4294574079
17.377981 765.86084 1315.8783 4294901759
19.86055 765.86084 1315.8783 4294574079
14.829358 774.75739 1315.5315 4294770687
17.300917 774.75739 1315.5315 4294770687
14.774312 781.19141 1314.4164 4294639615
17.236698 781.19141 1314.4164 4294639615
17.236698 783.07397 1316.0037 4294508287
19.699083 783.07397 1316.0037 4294310911
22.161469 783.07397 1316.0037 4294310911
24.623854 783.07397 1316.0037 4294179071
28.317432 783.07397 1316.0037 4294047487
32.011009 783.07397 1316.0037 4293981439
13.901528 790.09796 1315.386 4294639615
17.172478 791.34833 1316.4402 4294311167
19.625689 791.34833 1316.4402 4294442239
26.985321 791.34833 1316.4402 4294179071
29.438532 791.34833 1316.4402 4294047487
14.66422 797.71222 1315.2659 4294639615
17.108257 797.71222 1315.2659 4294770687
21.99633 797.71222 1315.2659 4294179071
26.884403 797.71222 1315.2659 4294508031
29.32844 797.71222 1315.2659 4294179071
17.108257 799.58069 1316.8413 4294508031
21.99633 799.58069 1316.8413 4294442239
25.662384 799.58069 1316.8413 4294836223
29.32844 799.58069 1316.8413 4294967295
17.044037 804.04803 1314.068 4294639615
19.478899 805.90955 1315.6376 4294639615
19.390825 814.57886 1315.0991 4292339455
19.390825 816.43188 1316.6616 4294046463
14.488073 822.68774 1315.3962 4293916415
16.902752 823.61078 1316.1746 4293652735
19.31743 823.61078 1316.1746 4293324287
21.732111 824.53381 1316.9528 4293456127
13.631192 829.52856 1314.6241 4293586687
16.838531 829.83508 1314.8826 4293455103
19.244038 830.75458 1315.6578 4293520639
31.271559 830.75458 1315.6578 4293456127
-76.682571 836.94727 1314.3391 4289111513
-74.28624 836.94727 1314.3391 4289308636
16.774311 836.94727 1314.3391 4293191677
19.170643 836.94727 1314.3391 4293257471
21.566973 836.94727 1314.3391 4293454591
-76.682571 838.7793 1315.8839 4288454359
-74.28624 838.7793 1315.8839 4288454359
21.566973 838.7793 1315.8839 4293586431
26.359632 838.7793 1315.8839 4293389567
28.755962 838.7793 1315.8839 4293191935
22.677982 844.93701 1314.5358 4293257727
26.258715 844.93701 1314.5358 4293520383
28.645872 844.93701 1314.5358 4293191423
31.033028 844.93701 1314.5358 4293191423
23.871559 846.76196 1316.0745 4293454591
26.258715 846.76196 1316.0745 4293718015
28.645872 846.76196 1316.0745 4293257471
31.033028 846.76196 1316.0745 4293191679
16.658716 850.57068 1314.0537 4293257727
19.038532 850.57068 1314.0537 4293389567
21.418348 850.57068 1314.0537 4293323775
19.038532 852.39001 1315.5879 4293454847
22.608257 852.39001 1315.5879 4293257727
16.594496 859.39355 1314.9529 4293454847
18.965137 859.39355 1314.9529 4293191935
16.530275 866.36206 1314.2883 4293191423
18.891743 866.36206 1314.2883 4293191423
18.891743 868.16742 1315.8105 4293191423
21.25321 868.16742 1315.8105 4293191423
18.818348 875.09381 1315.1106 4292927999
21.170643 875.99298 1315.8687 4292993791
16.401834 881.98505 1314.381 4292731135
18.744955 881.98505 1314.381 4292862975
16.401834 883.77643 1315.8915 4292796927
18.744955 883.77643 1315.8915 4292796415
21.088074 883.77643 1315.8915 4292730623
-72.409172 889.25861 1315.2817 4288519374
11.678899 889.25861 1315.2817 4293192703
14.014679 889.25861 1315.2817 4292600319
16.350458 889.25861 1315.2817 4292534527
14.014679 891.04437 1316.7874 4292534271
16.350458 891.04437 1316.7874 4292666111
18.686239 891.04437 1316.7874 4292796415
13.959633 896.96912 1315.2429 4292796927
16.286238 898.7478 1316.7427 4292533759
18.612844 898.7478 1316.7427 4292730623
16.222019 904.63757 1315.1686 4293586175
18.53945 904.63757 1315.1686 4293256703
-71.612846 910.91864 1315.2324 4287796934
16.170643 910.91864 1315.2324 4289439954
19.63578 910.91864 1315.2324 4288387269
23.100918 911.8017 1315.9771 4287200682
-69.027519 917.63104 1314.3521 4291218157
11.504587 917.63104 1314.3521 4285299905
13.805505 917.63104 1314.3521 4286870699
16.106422 917.63104 1314.3521 4287199921
18.407339 917.63104 1314.3521 4287001520
-69.027519 919.39014 1315.8352 4291874559
11.504587 919.39014 1315.8352 4285825216
16.106422 919.39014 1315.8352 4287069879
-67.606422 926.06055 1314.9194 4291283453
4.5834861 926.06049 1314.9194 4294967295
6.8752294 926.06049 1314.9194 4288848546
9.1669722 926.06049 1314.9194 4284901552
-66.247704 932.24481 1314.9017 4291479807
-63.963303 932.24481 1314.9017 4291086847
-61.678898 932.24481 1314.9017 4291547391
-54.825687 932.24481 1314.9017 4291678975
-50.256882 932.24481 1314.9017 4291678207
-37.692657 932.24481 1314.9017 4292534527
-34.266056 932.24481 1314.9017 4292929791
-31.981651 932.24481 1314.9017 4293192703
-15.990826 932.24481 1314.9017 4293586687
-2.2844036 932.24481 1314.9017 4294967295
-66.247704 933.99127 1316.3743 4291807478
-63.963303 933.99127 1316.3743 4291677183
-61.678898 933.99127 1316.3743 4292071679
-58.252296 933.99127 1316.3743 4292007418
-52.541283 933.99127 1316.3743 4292270079
-36.550457 933.99127 1316.3743 4292534271
-28.555046 933.99127 1316.3743 4293586687
-25.128441 933.99127 1316.3743 4293521151
-22.844036 933.99127 1316.3743 4292995327
-18.275229 933.99127 1316.3743 4293257471
-13.706422 933.99127 1316.3743 4293520639
-10.279816 933.99127 1316.3743 4294376191
-4.5688071 933.99127 1316.3743 4294967295
-2.2844036 933.99127 1316.3743 4294967295
22.425688 761.26581 1318.5439 4294770687
24.917431 761.26581 1318.5439 4294770687
-74.477066 767.75873 1317.4785 4289505765
17.377981 767.75873 1317.4785 4294901759
19.86055 767.75873 1317.4785 4294574079
22.343119 767.75873 1317.4785 4294639615
24.825687 767.75873 1317.4785 4294441727
17.377981 769.65668 1319.0789 4294901759
19.86055 769.65668 1319.0789 4294508031
22.343119 769.65668 1319.0789 4294442239
24.825687 769.65668 1319.0789 4294244863
17.300917 776.64697 1317.1246 4294574079
19.772476 776.64697 1317.1246 4294442239
19.772476 778.5365 1318.7179 4294442239
22.244038 778.5365 1318.7179 4294442239
24.715597 778.5365 1318.7179 4294179071
28.422935 778.5365 1318.7179 4293981695
32.130276 778.5365 1318.7179 4294113023
17.236698 784.95642 1317.5909 4294442239
19.699083 784.95642 1317.5909 4294310655
22.161469 784.95642 1317.5909 4294179071
24.623854 784.95642 1317.5909 4294244863
28.317432 784.95642 1317.5909 4294376447
32.011009 784.95642 1317.5909 4294047487
17.236698 786.83899 1319.1782 4294442239
19.699083 786.83899 1319.1782 4294442239
22.161469 786.83899 1319.1782 4294310655
24.623854 786.83899 1319.1782 4294244863
28.317432 786.83899 1319.1782 4294244863
17.172478 793.22382 1318.0216 4294704895
19.625689 793.22382 1318.0216 4294179071
22.078899 793.22382 1318.0216 4294179071
25.758717 793.22382 1318.0216 4294047231
29.438532 793.22382 1318.0216 4294047231
19.625689 795.0993 1319.603 4294179071
24.53211 795.0993 1319.603 4294244863
19.552294 801.44922 1318.4169 4294508031
21.99633 802.38342 1319.2046 4294244607
25.662384 802.38342 1319.2046 4293125365
29.32844 802.38342 1319.2046 4290169078
19.478899 808.70172 1317.9918 4292275711
21.913761 809.63245 1318.7766 4285962433
19.390825 818.28497 1318.224 4293981183
21.814678 820.13806 1319.7865 4293521919
19.31743 826.37988 1318.5093 4293455615
21.732111 826.37988 1318.5093 4293389567
26.561468 826.37988 1318.5093 4293192703
28.976147 826.37988 1318.5093 4293192703
31.390825 826.37988 1318.5093 4293192703
19.244038 832.59357 1317.2084 4293322239
21.649542 832.59357 1317.2084 4293585663
26.46055 832.59357 1317.2084 4293454591
28.866055 832.59357 1317.2084 4292995327
31.271559 832.59357 1317.2084 4293192703
25.257797 834.43262 1318.759 4293454847
28.866055 834.43262 1318.759 4293257983
-79.078896 841.52734 1318.2009 4288848601
-76.682571 840.61133 1317.4286 4288717532
23.963303 840.61133 1317.4286 4293586431
26.359632 840.61133 1317.4286 4293520639
28.755962 840.61133 1317.4286 4293192191
23.871559 848.58698 1317.6133 4293192191
26.258715 848.58698 1317.6133 4293323775
28.645872 848.58698 1317.6133 4293323775
31.033028 848.58698 1317.6133 4293323775
26.258715 850.41199 1319.1521 4293191935
28.645872 850.41199 1319.1521 4293520639
31.033028 850.41199 1319.1521 4293652223
19.038532 854.20941 1317.1219 4293388287
22.608257 854.20941 1317.1219 4293191679
22.608257 856.02881 1318.656 4293389055
26.177982 856.02881 1318.656 4293257983
28.557798 856.02881 1318.656 4292928767
18.965137 862.11218 1317.2451 4293323775
22.125994 863.3205 1318.2638 4292994303
26.077065 863.92456 1318.7732 4292731135
21.25321 869.97278 1317.3328 4293321471
22.433945 871.77814 1318.8551 4292862207
21.170643 877.79132 1317.385 4293059583
22.34679 879.58966 1318.9014 4292731135
25.875229 879.58966 1318.9014 4292730623
18.744955 886.46338 1318.157 4292730623
21.088074 887.35907 1318.9122 4292730623
16.350458 892.83008 1318.2931 4292995071
18.686239 892.83008 1318.2931 4292796415
16.350458 894.61578 1319.7987 4292599807
18.686239 894.61578 1319.7987 4292664575
-71.612846 913.56775 1317.4662 4287270334
20.790825 913.56775 1317.4662 4287002549
23.100918 913.56775 1317.4662 4286673558
25.411009 913.56775 1317.4662 4286673558
-71.612846 915.33386 1318.9552 4290166248
20.790825 915.33386 1318.9552 4286935727
23.100918 915.33386 1318.9552 4286672532
25.411009 915.33386 1318.9552 4286803861
-75.930275 922.02869 1318.0601 4291546876
-73.629356 922.90826 1318.8016 4291481077
-70.561462 921.73553 1317.8129 4291349750
10.737615 921.73553 1317.8129 4285954489
13.805505 922.90826 1318.8016 4286609828
16.106422 922.90826 1318.8016 4286873000
-67.606422 928.6886 1317.1354 4291348479
1.1458715 928.6886 1317.1354 4294967295
4.5834861 928.6886 1317.1354 4294967295
6.8752294 928.6886 1317.1354 4288980132
-68.752296 930.44067 1318.6127 4291282174
-48.126606 930.44067 1318.6127 4291941375
-45.834862 930.44067 1318.6127 4292006911
-43.543118 930.44067 1318.6127 4292072703
-41.251377 930.44067 1318.6127 4292007679
1.1458715 930.44067 1318.6127 4294967295
4.5834861 930.44067 1318.6127 4294967295
-63.963303 935.73773 1317.8468 4291479287
-61.678898 935.73773 1317.8468 4292005631
27.510092 758.56879 1322.8102 4294901759
22.425688 763.17078 1320.1503 4294639615
24.917431 763.17078 1320.1503 4294441727
28.655045 765.07574 1321.7565 4294310143
19.86055 771.55463 1320.6792 4294442239
22.343119 772.5036 1321.4792 4294245119
24.825687 772.5036 1321.4792 4294113279
28.13578 772.81989 1321.746 4294047487
32.273396 773.45258 1322.2794 4294113023
22.161469 788.7215 1320.7655 4294442239
24.623854 788.7215 1320.7655 4294244863
19.625689 796.97485 1321.1843 4294179071
21.99633 805.18616 1321.5677 4291614964
25.662384 805.18616 1321.5677 4284779515
29.32844 805.18616 1321.5677 4280573878
21.913761 811.4939 1320.3462 4287799747
21.913761 813.35541 1321.9156 4294243839
25.566055 813.35541 1321.9156 4292994300
29.218349 813.35541 1321.9156 4286887160
31.653212 813.35541 1321.9156 4282610615
25.450459 821.99109 1321.3489 4293521919
29.086239 821.99109 1321.3489 4293718527
31.510092 821.99109 1321.3489 4294113279
24.238533 823.84412 1322.9114 4292995327
21.732111 828.22589 1320.0658 4293718015
24.951683 828.84125 1320.5846 4293455359
28.976147 828.22589 1320.0658 4293390079
24.055046 836.27161 1320.3097 4293389567
26.258715 852.237 1320.6909 4292994815
28.645872 852.237 1320.6909 4293059583
31.033028 853.14954 1321.4603 4292994303
22.608257 857.84821 1320.1901 4293126399
26.177982 857.84821 1320.1901 4292995071
23.798164 859.6676 1321.7241 4292994559
26.177982 859.6676 1321.7241 4292994559
28.557798 859.6676 1321.7241 4292928767
30.937614 859.6676 1321.7241 4292862975
33.317432 859.6676 1321.7241 4292534271
23.706423 865.73688 1320.3014 4293059583
26.077065 865.73688 1320.3014 4293125375
23.706423 867.54926 1321.8295 4293124863
26.077065 867.54926 1321.8295 4292993279
28.447706 867.54926 1321.8295 4292533759
23.614679 874.48621 1321.1384 4292796415
25.976147 874.48621 1321.1384 4292599039
28.337614 875.38885 1321.8995 4292401919
23.522936 881.38806 1320.4177 4292796415
25.875229 881.38806 1320.4177 4293125119
22.34679 883.1864 1321.934 4292730367
25.875229 883.1864 1321.934 4292796159
21.869112 890.34467 1321.4296 4292599295
-76.475227 911.72437 1321.1439 4287861442
-74.157799 911.72437 1321.1439 4287599556
-74.157799 913.49603 1322.6378 4288850131
-73.922935 917.09991 1320.4443 4290559975
-71.612846 917.09991 1320.4443 4291349234
13.860551 917.09991 1320.4443 4286872244
19.63578 917.09991 1320.4443 4287001520
23.100918 917.09991 1320.4443 4286673055
25.411009 917.09991 1320.4443 4286541725
-73.922935 918.86603 1321.9335 4291481588
13.860551 918.86603 1321.9335 4286872494
16.170643 918.86603 1321.9335 4287004336
19.63578 918.86603 1321.9335 4286476459
23.100918 918.86603 1321.9335 4286475928
25.411009 918.86603 1321.9335 4286410135
-73.629356 925.54688 1321.0265 4290954478
-71.328438 925.54688 1321.0265 4291020272
10.737615 925.84003 1321.2737 4285425847
13.805505 925.54688 1321.0265 4286411682
16.106422 925.54688 1321.0265 4286674854
18.407339 926.42639 1321.7681 4286213026
36.814678 926.42639 1321.7681 4286539125
-55.001835 932.19275 1320.09 4292270079
-49.272476 932.19275 1320.09 4291810815
-45.834862 932.19275 1320.09 4291941631
-43.543118 932.19275 1320.09 4291941631
-41.251377 932.19275 1320.09 4291745023
-38.959633 932.19275 1320.09 4292402943
-34.376148 932.19275 1320.09 4293126655
-32.084404 932.19275 1320.09 4293454591
-20.625689 932.19275 1320.09 4292797951
-16.042202 932.19275 1320.09 4293586431
1.1458715 932.19275 1320.09 4294967295
-57.293579 933.94476 1321.5673 4292203775
-55.001835 933.94476 1321.5673 4292073215
-52.710091 933.94476 1321.5673 4292270591
-50.41835 933.94476 1321.5673 4292074495
-37.813759 933.94476 1321.5673 4291877119
-34.376148 933.94476 1321.5673 4292534015
-32.084404 933.94476 1321.5673 4292335615
-28.64679 933.94476 1321.5673 4292796671
-25.209175 933.94476 1321.5673 4293323519
-22.917431 933.94476 1321.5673 4293323775
-19.479816 933.94476 1321.5673 4293257983
-16.042202 933.94476 1321.5673 4293323775
-13.750459 933.94476 1321.5673 4293125631
-10.312843 933.94476 1321.5673 4293126143
-6.8752294 933.94476 1321.5673 4292929023
-4.5834861 933.94476 1321.5673 4292995070
-2.291743 933.94476 1321.5673 4293455615
2.291743 933.94476 1321.5673 4294770175
27.510092 760.48071 1324.4222 4294375935
28.655045 766.98071 1323.3627 4294376191
29.900917 768.88562 1324.9689 4294375679
25.662384 807.98889 1323.9309 4279132639
29.32844 807.98889 1323.9309 4282673069
31.772476 808.9231 1324.7186 4282477748
21.913761 815.21686 1323.4852 4294441727
25.566055 815.21686 1323.4852 4293981437
29.218349 815.21686 1323.4852 4289904639
31.653212 815.21686 1323.4852 4287141353
25.566055 817.07837 1325.0548 4293784319
29.218349 817.07837 1325.0548 4293521151
31.653212 817.07837 1325.0548 4293652479
28.645872 855.88696 1323.7686 4292797951
31.033028 855.88696 1323.7686 4292797951
28.557798 862.39673 1324.0251 4292665343
30.937614 862.39673 1324.0251 4292731135
33.317432 863.3064 1324.7922 4292402687
26.077065 869.36163 1323.3577 4292730623
28.447706 869.36163 1323.3577 4292598783
30.818348 869.36163 1323.3577 4292730623
34.374313 869.36163 1323.3577 4292533503
28.447706 871.17401 1324.8859 4292270079
30.818348 871.17401 1324.8859 4292533503
34.374313 871.17401 1324.8859 4292468223
28.337614 878.09692 1324.1829 4292599551
30.699083 878.09692 1324.1829 4292731135
34.241287 877.19421 1323.4218 4292402431
23.522936 884.98474 1323.4503 4292664575
25.875229 884.98474 1323.4503 4292796159
28.227524 884.98474 1323.4503 4292534271
23.522936 886.78308 1324.9667 4292598783
25.875229 886.78308 1324.9667 4292861951
28.227524 886.78308 1324.9667 4292600063
22.259632 892.73303 1323.4435 4292796159
22.259632 894.52441 1324.9539 4293190655
30.46055 894.52441 1324.9539 4293454079
22.189907 899.97296 1324.3158 4292534015
22.189907 901.75867 1325.8214 4288063463
25.693579 901.75867 1325.8214 4285959633
-74.451378 907.64136 1324.2415 4287862725
-76.475227 915.2677 1324.1316 4289441506
27.809174 915.2677 1324.1316 4286410900
19.63578 920.63214 1323.4226 4286344871
23.100918 920.63214 1323.4226 4286147983
25.411009 920.63214 1323.4226 4286147983
34.651375 920.63214 1323.4226 4286081674
36.961468 920.63214 1323.4226 4286408838
19.63578 922.39819 1324.9117 4286279333
23.100918 922.39819 1324.9117 4286213776
25.411009 922.39819 1324.9117 4286147983
31.186239 922.39819 1324.9117 4286015371
4.6018348 929.94458 1324.7345 4294967295
6.9027524 929.06506 1323.9929 4288716960
10.354128 929.065 1323.9928 4285687473
13.805505 929.06506 1323.9929 4286344861
16.106422 929.06506 1323.9929 4286542497
18.407339 929.06506 1323.9929 4286080919
36.814678 928.18549 1323.2512 4286013303
-36.667889 935.69684 1323.0446 4292007423
-32.084404 935.69684 1323.0446 4292468223
-29.79266 935.69684 1323.0446 4292468223
-10.312843 935.69684 1323.0446 4293191935
-6.8752294 935.69684 1323.0446 4293323263
-4.5834861 935.69684 1323.0446 4293454591
-2.291743 935.69684 1323.0446 4293652223
-6.8752294 937.44885 1324.5219 4293323263
-4.5834861 937.44885 1324.5219 4293256703
-2.291743 937.44885 1324.5219 4291875065
33.420185 859.53699 1326.8461 4292731135
30.937614 865.12573 1326.3263 4292533759
33.317432 865.12573 1326.3263 4292467711
30.818348 872.98639 1326.4139 4292730879
34.374313 872.98639 1326.4139 4292468479
28.337614 880.80493 1326.4663 4292402431
30.699083 880.80493 1326.4663 4292534015
37.783485 880.80493 1326.4663 4292007679
30.699083 882.61029 1327.9885 4292534271
34.241287 882.61029 1327.9885 4292731647
37.783485 882.61029 1327.9885 4292335871
25.875229 889.48059 1327.2411 4292928255
28.227524 889.48059 1327.2411 4292600319
31.755962 889.48059 1327.2411 4292796927
35.284405 888.58142 1326.4829 4292796159
37.636696 888.58142 1326.4829 4293059327
22.259632 896.31573 1326.4642 4293256447
25.774311 896.31573 1326.4642 4292598271
28.117432 896.31573 1326.4642 4291480319
30.46055 896.31573 1326.4642 4289243359
25.774311 898.10706 1327.9746 4290100457
28.117432 898.10706 1327.9746 4288257774
31.632111 898.10706 1327.9746 4285692855
-77.080734 905.33014 1328.8328 4288190659
23.357798 903.54443 1327.3271 4287930306
25.693579 904.43726 1328.08 4287335090
28.029358 905.33014 1328.8328 4287134124
-76.777985 911.19879 1327.241 4288124616
27.809174 919.69696 1327.8662 4285884304
31.285322 918.8111 1327.1194 4286279059
20.790825 925.04736 1327.1454 4286147486
23.100918 925.04736 1327.1454 4286147984
25.411009 925.04736 1327.1454 4286016141
31.186239 925.04736 1327.1454 4285490054
34.651375 925.04736 1327.1454 4285818244
-48.319267 931.70361 1326.2177 4291679743
-46.018349 931.70361 1326.2177 4291415551
-43.71743 931.70361 1326.2177 4291547135
-41.416515 931.70361 1326.2177 4291088383
0 931.70361 1326.2177 4294243839
4.6018348 931.70361 1326.2177 4294439423
6.9027524 931.70361 1326.2177 4287399594
10.354128 931.70361 1326.2177 4285426854
13.805505 931.70361 1326.2177 4285949082
16.106422 931.70361 1326.2177 4286212254
-49.469727 933.46271 1327.7009 4292401663
-46.018349 933.46271 1327.7009 4291743999
-43.71743 933.46271 1327.7009 4291743999
-40.266056 933.46271 1327.7009 4291678719
-34.51376 933.46271 1327.7009 4292533759
-27.61101 933.46271 1327.7009 4292666111
-25.310091 933.46271 1327.7009 4293192703
-23.009174 933.46271 1327.7009 4293389567
-19.557798 933.46271 1327.7009 4293718271
-16.106422 933.46271 1327.7009 4293718015
-13.805505 933.46271 1327.7009 4293192191
1.1504587 933.46271 1327.7009 4293125375
4.6018348 933.46271 1327.7009 4291743729
34.51376 933.46271 1327.7009 4286276739
32.511925 766.21667 1329.2587 4294441727
34.374313 877.51733 1330.2344 4292468991
37.930275 876.61115 1329.4702 4292401919
30.699083 884.41565 1329.5107 4292468479
34.241287 884.41565 1329.5107 4292598783
37.783485 884.41565 1329.5107 4292796159
25.875229 892.1781 1329.5156 4293321983
28.227524 892.1781 1329.5156 4293190911
32.93211 893.97644 1331.032 4288057556
28.117432 899.89844 1329.4851 4286613713
31.632111 899.89844 1329.4851 4286811332
28.117432 901.68976 1330.9955 4287599054
31.632111 901.68976 1330.9955 4288057805
28.029358 908.00873 1331.0913 4286476180
27.919266 914.75623 1330.2405 4286081935
27.809174 922.35449 1330.1071 4285687441
27.809174 924.12622 1331.601 4285293448
20.020796 928.87384 1330.3717 4286211988
23.100918 928.57947 1330.1235 4285884042
31.571253 928.87384 1330.3717 4285948291
34.651375 928.57947 1330.1235 4286079362
36.961468 927.69647 1329.379 4286078844
-40.266056 935.2218 1329.1841 4290821625
-36.814678 935.2218 1329.1841 4291413759
-34.51376 935.2218 1329.1841 4294045439
-32.212845 935.2218 1329.1841 4294377471
-28.761467 935.2218 1329.1841 4293719551
-25.310091 935.2218 1329.1841 4293456127
-23.009174 935.2218 1329.1841 4293127167
-20.708258 935.2218 1329.1841 4293390079
-10.354128 935.2218 1329.1841 4293191679
1.1504587 935.2218 1329.1841 4288389098
4.6018348 935.2218 1329.1841 4285426893
34.51376 935.2218 1329.1841 4285685115
-36.814678 936.98083 1330.6672 4291218170
-34.51376 936.98083 1330.6672 4293981183
-32.212845 936.98083 1330.6672 4294967295
-10.354128 936.98083 1330.6672 4293651967
-6.9027524 936.98083 1330.6672 4293059583
-4.6018348 936.98083 1330.6672 4291940607
-2.3009174 936.98083 1330.6672 4289308904
34.634865 889.22998 1333.5699 4292861691
37.783485 888.92908 1333.3163 4291414515
40.144955 889.83179 1334.0774 4288650438
35.284405 895.77478 1332.5482 4283917710
37.636696 895.77478 1332.5482 4284966553
39.988991 895.77478 1332.5482 4285097882
35.284405 897.57312 1334.0646 4286877109
37.636696 897.57312 1334.0646 4287400887
30.46055 904.37677 1333.2611 4286739358
31.533028 910.68732 1333.3499 4286213521
31.533028 912.47302 1334.8555 4286279057
35.036697 912.47302 1334.8555 4286278799
25.491743 925.89789 1333.0947 4285621638
27.809174 925.89789 1333.0947 4285489798
30.126606 925.89789 1333.0947 4285489798
25.491743 927.66962 1334.5886 4285817736
27.809174 927.66962 1334.5886 4285817734
-48.511925 932.99469 1333.8464 4290558710
-46.201836 932.99469 1333.8464 4289703660
-43.891743 932.99469 1333.8464 4290098418
-18.480734 932.99469 1333.8464 4293191423
-16.170643 932.99469 1333.8464 4293191423
-13.860551 932.99469 1333.8464 4293060607
6.9302754 932.11169 1333.1018 4285690290
10.395412 932.11163 1333.1018 4285492635
13.860551 932.11169 1333.1018 4286147229
16.170643 932.11169 1333.1018 4286147229
19.63578 932.11163 1333.1018 4286276750
23.100918 931.22864 1332.3573 4286144648
25.411009 932.11169 1333.1018 4286209928
27.721102 932.11169 1333.1018 4286275973
31.186239 932.11169 1333.1018 4286013312
-36.814678 938.73993 1332.1505 4291678719
-9.2036695 938.73993 1332.1505 4289969151
-6.9027524 938.73993 1332.1505 4287337440
-4.6018348 938.73993 1332.1505 4286740685
-2.3009174 938.73993 1332.1505 4285951426
-4.6018348 940.49896 1333.6337 4285098654
-2.3009174 940.49896 1333.6337 4285427619
35.42202 891.63708 1335.5996 4285030822
37.783485 891.63708 1335.5996 4285683877
