# .PCD v0.7 - Point Cloud Data file format
VERSION 0.7
FIELDS x y z rgb
SIZE 4 4 4 4
TYPE F F F U
COUNT 1 1 1 1
WIDTH 1166
HEIGHT 1
VIEWPOINT 0 0 0 1 0 0 0
POINTS 1166
DATA ascii
32.044037 792.56909 803.41382 4294967295
34.6422 792.56909 803.41382 4294967295
37.240368 792.56909 803.41382 4294967295
40.704586 792.56909 803.41382 4294967295
43.302753 792.56909 803.41382 4294967295
45.034863 792.56909 803.41382 4294967295
-12.099083 795.3761 803.16455 4293055210
-10.370643 795.3761 803.16455 4293054949
-7.7779818 795.3761 803.16455 4293054951
-4.3211012 795.3761 803.16455 4292857833
-1.7284404 795.3761 803.16455 4293450742
3.4568808 795.3761 803.16455 4293516787
6.9137616 795.3761 803.16455 4293648114
25.926605 795.3761 803.16455 4294967295
28.519266 795.3761 803.16455 4294967295
31.976147 795.3761 803.16455 4294967295
34.568806 795.3761 803.16455 4294967295
37.161469 795.3761 803.16455 4294967295
40.618347 795.3761 803.16455 4294967295
43.21101 795.3761 803.16455 4294967295
-16.367889 800.23474 803.33704 4292398304
-12.634862 799.79572 802.9668 4292726243
-10.337615 799.57617 802.78174 4292725733
-7.753211 799.57617 802.78174 4292989417
-4.3073397 799.57617 802.78174 4293055977
-1.7229358 799.57617 802.78174 4293451249
8.6146793 800.23474 803.33704 4293517296
10.337615 800.23474 803.33704 4293583091
29.289907 800.23474 803.33704 4294967295
31.874311 800.23474 803.33704 4294967295
-12.034863 803.02637 803.07483 4292529636
-10.315597 803.02637 803.07483 4292725988
-7.7366972 803.02637 803.07483 4292726244
-5.1577983 803.02637 803.07483 4293187052
-1.7192661 803.02637 803.07483 4293252843
-11.13945 807.85828 803.22485 4292596195
-7.7119265 807.85828 803.22485 4292793831
-13.636697 815.4397 803.07727 4292397536
-11.079817 815.4397 803.07727 4292727011
-7.6706419 815.4397 803.07727 4292727010
-4.2614679 815.4397 803.07727 4292923878
-1.7045871 815.4397 803.07727 4293516015
-15.308257 819.50085 803.8855 4292462811
-13.60734 819.50085 803.8855 4292462811
-11.906422 819.50085 803.8855 4292594398
-3.401835 819.50085 803.8855 4292857315
-1.7009175 819.50085 803.8855 4292857315
-16.106422 824.27527 803.98706 4292331480
-13.563303 824.27527 803.98706 4292528856
-8.4770641 824.27527 803.98706 4292594648
-4.2385321 824.27527 803.98706 4292791776
-1.6954129 824.27527 803.98706 4292857569
11.86789 824.27527 803.98706 4293581556
13.563303 824.27527 803.98706 4293777904
16.106422 824.27527 803.98706 4294042100
19.497248 824.27527 803.98706 4294306298
22.888073 824.27527 803.98706 4294966015
25.431192 824.27527 803.98706 4294967295
38.14679 824.27527 803.98706 4294967295
40.689907 824.27527 803.98706 4294967295
-8.4587154 827.01782 803.68335 4292594648
-4.2293577 827.01782 803.68335 4292857569
-1.6917431 827.01782 803.68335 4293054949
-8.4311924 830.47644 802.67554 4292660445
-4.2155962 830.47644 802.67554 4292923362
-1.6862385 830.47644 802.67554 4293318120
-13.489908 831.76556 803.76245 4292199642
-10.96055 831.76556 803.76245 4292594399
-7.5880733 831.76556 803.76245 4292792032
-4.2155962 831.76556 803.76245 4292660190
-1.6862385 831.76556 803.76245 4292856802
1.6862385 831.76556 803.76245 4292856543
11.80367 831.76556 803.76245 4293581295
-8.4128437 834.49268 803.4458 4293055203
-3.3651376 834.49268 803.4458 4292659422
-1.6825688 834.49268 803.4458 4292856802
-18.346788 846.61987 803.20703 4292395219
-16.6789 846.61987 803.20703 4292067542
63.379818 846.61987 803.20703 4294967295
63.240368 849.95227 803.40063 4294967295
62.891743 857.92999 803.58716 4294967295
62.403671 869.14191 803.88452 4294967295
63.902752 871.16406 802.97357 4294967295
58.082569 748.42413 805.43286 4294967295
-33.851376 752.08203 804.5929 4293716223
-31.178898 752.08203 804.5929 4293781247
0 752.08203 804.5929 4293254399
3.5633028 752.08203 804.5929 4292269055
8.9082565 752.08203 804.5929 4291612143
10.689908 752.08203 804.5929 4291612145
13.362385 752.08203 804.5929 4291282668
16.925688 752.08203 804.5929 4290164950
19.598166 752.08203 804.5929 4292863481
22.270641 752.08203 804.5929 4294572287
25.833946 752.08203 804.5929 4294967295
30.288073 752.08203 804.5929 4294967295
46.322937 752.08203 804.5929 4294967295
48.995415 752.08203 804.5929 4294967295
52.558716 752.08203 804.5929 4294967295
55.231194 752.08203 804.5929 4294967295
57.903671 752.08203 804.5929 4294967295
60.576145 752.08203 804.5929 4294967295
-33.851376 753.44409 805.74146 4278190157
-32.069725 753.44409 805.74146 4278190157
52.558716 753.44409 805.74146 4294967295
55.231194 753.44409 805.74146 4294967295
57.903671 753.44409 805.74146 4294967295
60.576145 753.44409 805.74146 4294967295
-33.746788 757.76819 805.46332 4286739584
-31.378593 757.54193 805.27246 4283976538
21.313761 757.08929 804.89087 4289505234
52.692356 757.54193 805.27246 4294967295
55.948624 757.08929 804.89087 4294967295
58.612843 757.08929 804.89087 4294967295
60.388992 757.08929 804.89087 4294967295
-30.132111 759.96643 804.70068 4293119962
-23.042202 759.96643 804.70068 4292528856
0 759.96643 804.70068 4292989919
3.5449541 759.96643 804.70068 4292990173
10.634862 759.96643 804.70068 4292989921
13.293577 759.96643 804.70068 4292726750
16.838531 759.96643 804.70068 4292990424
19.497248 759.96643 804.70068 4293846490
21.86055 760.41815 805.08154 4294568954
25.700916 759.96643 804.70068 4294967295
30.132111 759.96643 804.70068 4294967295
52.288074 760.64392 805.27197 4294967295
55.833027 760.64398 805.27197 4294967295
58.491745 760.64392 805.27197 4294967295
60.264221 760.64392 805.27197 4294967295
-30.038532 764.94708 804.9762 4292596196
8.8348627 764.94708 804.9762 4293713648
10.601835 764.94708 804.9762 4293713394
13.252294 764.94708 804.9762 4294174202
16.78624 764.94708 804.9762 4293845492
19.436697 764.94708 804.9762 4294239990
22.087156 764.94708 804.9762 4294636798
25.621101 764.94708 804.9762 4294967295
35.339451 764.94708 804.9762 4294967295
38.873394 764.94708 804.9762 4294967295
40.640366 764.94708 804.9762 4294967295
43.290825 764.94708 804.9762 4294967295
46.824768 764.94708 804.9762 4294967295
49.475231 764.94708 804.9762 4294967295
52.125687 764.94708 804.9762 4294967295
55.65963 764.94708 804.9762 4294967295
58.310093 764.94708 804.9762 4294967295
61.150459 762.67657 806.98584 4294967295
52.125687 766.29791 806.11523 4294967295
55.65963 766.29791 806.11523 4294967295
58.310093 766.29791 806.11523 4294967295
60.077065 766.29791 806.11523 4294967295
-33.467892 768.56421 804.10205 4292726240
-31.706423 769.23755 804.66974 4292463586
-29.357798 769.01312 804.48047 4292727268
-25.541285 768.56421 804.10205 4292924899
-22.899082 768.56421 804.10205 4293187302
-12.330276 768.56421 804.10205 4292727783
-10.568808 768.56421 804.10205 4293056745
0.88073397 769.23755 804.66968 4293451761
4.697248 769.01312 804.48047 4293583091
7.9266057 768.56421 804.10205 4293714677
10.568808 768.56421 804.10205 4293977334
13.21101 768.56421 804.10205 4294042616
17.027525 769.01312 804.48047 4293845495
19.376146 769.23755 804.66974 4294306044
22.018349 769.23755 804.66974 4294703102
25.247705 769.01312 804.48047 4294967295
29.06422 768.56421 804.10205 4294967295
31.706423 768.56421 804.10205 4294967295
34.348625 768.56421 804.10205 4294967295
37.871559 769.23755 804.66968 4294967295
40.51376 769.23755 804.66974 4294967295
43.155968 769.23755 804.66974 4294967295
46.678894 769.23755 804.66968 4294967295
49.321102 768.56421 804.10205 4294967295
51.963303 769.91089 805.23743 4294967295
55.486237 769.91089 805.23743 4294967295
59.009174 769.91089 805.23743 4294967295
-33.363304 773.51544 804.35266 4292398050
-31.60734 773.51544 804.35266 4292398052
-28.973394 773.51544 804.35266 4292595173
-25.461468 773.51544 804.35266 4292726245
-21.949541 773.51544 804.35266 4292857830
0.87798166 773.51544 804.35266 4293451503
4.3899083 773.51544 804.35266 4293648882
7.0238533 773.51544 804.35266 4293846513
21.949541 773.51544 804.35266 4294834943
24.583487 773.51544 804.35266 4294967295
31.60734 773.51544 804.35266 4294967295
34.241287 773.51544 804.35266 4294967295
37.753212 773.51544 804.35266 4294967295
40.387157 773.51544 804.35266 4294967295
43.021103 773.51544 804.35266 4294967295
46.533028 773.51544 804.35266 4294967295
50.044952 773.51544 804.35266 4294967295
52.678898 773.51544 804.35266 4294967295
55.312843 773.51544 804.35266 4294967295
58.824768 773.51544 804.35266 4294967295
-28.912844 776.36035 804.13525 4292529379
-25.408257 776.36035 804.13525 4292660708
-21.903669 776.36035 804.13525 4292726501
-19.275229 776.36035 804.13525 4292989417
-17.522936 776.36035 804.13525 4292728037
-4.380734 776.36035 804.13525 4292990440
-1.7522936 776.36035 804.13525 4293187563
0.87614679 775.60913 804.80994 4293187563
4.380734 776.36035 804.13525 4293254128
7.0091743 776.36035 804.13525 4293517296
16.64679 776.36035 804.13525 4293912055
19.275229 776.36035 804.13525 4294636031
21.903669 776.36035 804.13525 4294769663
25.408257 776.36035 804.13525 4294967295
28.912844 776.36035 804.13525 4294967295
31.541285 776.36035 804.13525 4294967295
34.169724 776.36035 804.13525 4294967295
37.674309 776.36035 804.13525 4294967295
40.387157 774.85785 805.48462 4294967295
42.977066 775.60913 804.80994 4294967295
46.483486 775.60913 804.80994 4294967295
49.940369 776.36035 804.13525 4294967295
52.568806 776.36035 804.13525 4294967295
55.19725 776.36035 804.13525 4294967295
58.701836 776.36035 804.13525 4294967295
61.330276 776.36035 804.13525 4294967295
-28.036697 777.69995 805.26489 4292398050
-25.408257 777.69995 805.26489 4292529378
-22.779816 777.69995 805.26489 4292594913
0 777.69995 805.26489 4293253356
45.559631 777.69995 805.26489 4294967295
50.816513 777.69995 805.26489 4294967295
52.568806 777.69995 805.26489 4294967295
55.19725 777.69995 805.26489 4294967295
-25.328442 781.28485 804.36353 4292464352
-22.708258 781.28485 804.36353 4292464095
0.87339449 781.28485 804.36353 4293122540
4.3669724 781.28485 804.36353 4293123058
7.8605504 781.28485 804.36353 4293123823
10.480734 781.28485 804.36353 4292925161
13.100918 781.28485 804.36353 4293780469
16.594496 781.28485 804.36353 4293912312
20.088074 781.28485 804.36353 4294505471
22.708258 781.28485 804.36353 4294967295
25.328442 781.28485 804.36353 4294967295
27.948624 781.28485 804.36353 4294967295
31.442202 781.28485 804.36353 4294967295
34.93578 781.28485 804.36353 4294967295
36.682568 781.28485 804.36353 4294967295
46.289909 781.28485 804.36353 4294967295
49.783485 781.28485 804.36353 4294967295
52.403671 781.95258 804.92651 4294967295
55.023853 781.95258 804.92651 4294967295
58.517429 781.95258 804.92651 4294967295
62.011009 781.95258 804.92651 4294967295
-36.605503 784.7807 804.69501 4292199644
-33.119267 784.7807 804.69501 4292462561
-31.376146 784.11438 804.13318 4292398050
-29.051987 784.55859 804.50775 4292398047
-25.27523 784.78064 804.69507 4292464094
-22.660551 784.11438 804.13318 4292464095
-20.045872 784.11438 804.13318 4292660706
-16.559633 784.11438 804.13318 4292792546
-13.073395 784.11438 804.13318 4292530149
-10.458715 784.11438 804.13318 4292661989
-7.8440366 784.11438 804.13318 4292859366
0.87155962 784.78064 804.69507 4293383918
4.6483178 784.55859 804.50775 4293581299
7.8440366 784.7807 804.69501 4293450483
10.458715 784.7807 804.69501 4293516782
13.073395 784.7807 804.69501 4293846259
16.559633 784.78064 804.69507 4293978360
20.045872 784.78064 804.69507 4294373887
22.660551 784.7807 804.69501 4294967295
25.27523 784.7807 804.69501 4294967295
28.470947 784.55859 804.50775 4294967295
31.376146 784.7807 804.69501 4294967295
33.990826 784.11438 804.13318 4294967295
37.477066 784.11438 804.13318 4294967295
41.834862 784.11438 804.13318 4294967295
43.57798 784.11438 804.13318 4294967295
46.483181 784.55859 804.50775 4294967295
49.678898 784.7807 804.69501 4294967295
52.293579 785.44702 805.25684 4294967295
54.908257 785.44702 805.25684 4294967295
58.455048 784.70142 805.93616 4294967295
61.946789 784.70142 805.93616 4294967295
-37.477066 786.7796 806.38049 4292199642
10.458715 786.7796 806.38049 4293779441
13.073395 786.7796 806.38049 4293976822
16.559633 786.7796 806.38049 4294043642
20.045872 786.7796 806.38049 4294242559
50.550457 786.7796 806.38049 4294967295
52.293579 786.7796 806.38049 4294967295
54.908257 786.7796 806.38049 4294967295
58.394493 786.7796 806.38049 4294967295
61.880733 786.7796 806.38049 4294967295
-33.883484 790.34064 805.45898 4292199386
-31.277063 790.34064 805.45898 4292330969
-28.844402 790.07501 805.23499 4292265434
-25.195414 789.67645 804.89893 4292332511
-22.588991 789.67651 804.89893 4292333279
-19.982569 789.01227 804.33887 4292594913
-16.507339 789.01227 804.33887 4292660195
-13.321712 789.45508 804.71222 4292660712
-10.425688 789.01227 804.33887 4292924646
-7.8192658 789.01227 804.33887 4293187559
0.86880732 789.01227 804.33887 4293582064
4.3440366 789.01227 804.33887 4293516015
8.1088686 789.45508 804.71222 4293516019
10.425688 790.3407 805.45898 4293844466
13.03211 790.3407 805.45898 4294042359
16.507339 790.3407 805.45898 4294372606
19.982569 790.3407 805.45898 4294373887
22.588991 789.67651 804.89893 4294967295
25.195412 789.01227 804.33887 4294967295
28.670643 789.01227 804.33887 4294967295
31.277063 789.01227 804.33887 4294967295
34.752293 789.01227 804.33887 4294967295
37.358719 789.01227 804.33887 4294967295
41.702751 789.01227 804.33887 4294967295
43.440369 789.01227 804.33887 4294967295
46.336391 789.45508 804.71222 4294967295
49.522018 790.3407 805.45898 4294967295
52.707642 791.22626 806.20563 4294967295
55.603668 791.66907 806.57898 4294967295
-27.713762 793.89331 804.5304 4292265948
-25.115597 793.89331 804.5304 4292463840
-22.517431 793.89331 804.5304 4292464097
-19.919266 793.89331 804.5304 4292792546
-16.455046 793.89331 804.5304 4292725986
-13.856881 793.89331 804.5304 4292726501
0.86605507 793.89331 804.5304 4293122542
5.1963301 793.89331 804.5304 4293516787
8.6605501 793.89331 804.5304 4293779957
10.39266 793.89331 804.5304 4293845237
12.990826 793.89331 804.5304 4293911031
16.455046 793.89331 804.5304 4294569724
19.919266 793.89331 804.5304 4294373629
22.517431 793.89331 804.5304 4294967295
24.249542 793.89331 804.5304 4294967295
45.900917 793.89331 804.5304 4294967295
48.499084 793.89331 804.5304 4294967295
-34.6422 795.21753 805.64685 4292067542
-31.75535 796.10034 806.3913 4292199896
-28.868502 795.65894 806.01904 4292397274
-25.115597 795.21753 805.64685 4292463583
-22.517431 795.21753 805.64685 4292398304
-19.877064 796.69751 804.27869 4292529120
-16.420183 796.69751 804.27869 4292463583
-13.827523 796.69751 804.27869 4292857315
0.8642202 796.69751 804.27869 4293056747
4.3211012 796.69751 804.27869 4293516531
7.7779818 796.69751 804.27869 4293583089
10.370643 796.69751 804.27869 4293714678
12.963303 796.69751 804.27869 4293517043
16.420183 796.69751 804.27869 4294175485
19.877064 796.69751 804.27869 4294242558
22.469725 796.69751 804.27869 4294967295
25.062386 796.69751 804.27869 4294967295
28.519266 796.69751 804.27869 4294967295
31.976147 796.69751 804.27869 4294967295
34.568806 796.69751 804.27869 4294967295
37.161469 796.69751 804.27869 4294967295
40.618347 796.69751 804.27869 4294967295
44.07523 796.69751 804.27869 4294967295
46.667889 796.69751 804.27869 4294967295
49.365139 795.21753 805.64685 4294967295
52.829357 795.21753 805.64685 4294967295
55.427525 796.54175 806.76343 4294967295
58.025688 796.54175 806.76343 4294967295
60.623852 796.54175 806.76343 4294967295
-36.297249 798.01892 805.39282 4292198869
-34.568806 798.01892 805.39282 4292068055
-31.976147 799.34033 806.50708 4292069079
-28.231194 798.8999 806.13568 4292200664
-25.062386 798.67963 805.94995 4292529116
-22.469725 798.67963 805.94995 4292463068
-19.877064 798.01892 805.39282 4292529120
0.8642202 798.01892 805.39282 4293319406
4.3211012 798.01892 805.39282 4293385712
6.9137616 798.01892 805.39282 4293583345
12.963303 798.01892 805.39282 4293583092
16.420183 798.01892 805.39282 4294306813
19.877064 798.01892 805.39282 4294504959
22.469725 798.01892 805.39282 4294967295
25.062386 798.01892 805.39282 4294967295
27.655046 798.01892 805.39282 4294967295
34.568806 798.01892 805.39282 4294967295
37.161469 798.01892 805.39282 4294967295
40.618347 798.01892 805.39282 4294967295
44.3633 798.45941 805.76422 4294967295
46.667889 798.67963 805.94995 4294967295
49.260551 798.67963 805.94995 4294967295
52.71743 798.01892 805.39282 4294967295
55.310093 799.34033 806.50708 4294967295
57.902752 799.34033 806.50708 4294967295
60.495415 799.34033 806.50708 4294967295
-36.181652 802.21057 805.00305 4292199126
-34.458717 802.21057 805.00305 4291936724
-31.874311 802.86914 805.55835 4292003028
-28.42844 802.86914 805.55835 4291872212
-24.982569 802.86914 805.55835 4292003545
-22.398165 802.86914 805.55835 4292069339
-19.813763 802.21057 805.00305 4292200157
-16.367889 801.55194 804.44775 4292464097
-13.783486 801.55194 804.44775 4292463843
-3.4458716 801.55194 804.44775 4293384686
0.8614679 802.21057 805.00305 4293252846
4.3073397 802.21057 805.00305 4293385198
7.7532115 802.21057 805.00305 4293517041
10.337615 802.21057 805.00305 4293254381
12.922018 802.21057 805.00305 4293583091
16.367889 802.21057 805.00305 4294175485
19.813763 802.21057 805.00305 4294504703
22.398165 802.21057 805.00305 4294967295
24.982571 802.21057 805.00305 4294967295
28.42844 802.21057 805.00305 4294967295
31.874311 802.21057 805.00305 4294967295
34.458717 802.21057 805.00305 4294967295
37.043121 802.21057 805.00305 4294967295
40.488991 802.21057 805.00305 4294967295
43.647705 802.43011 805.18817 4294967295
46.519264 802.86914 805.55835 4294967295
49.103668 802.86914 805.55835 4294967295
52.549541 802.21057 805.00305 4294967295
55.133945 802.86914 805.55835 4294967295
58.579815 802.86914 805.55835 4294967295
60.302753 802.86914 805.55835 4294967295
-36.181652 804.18634 806.66895 4292198610
-34.42202 805.57794 806.5343 4292001747
-31.840366 805.57794 806.5343 4292133844
-28.398165 805.57794 806.5343 4291739603
-24.955963 805.57794 806.5343 4291805399
-22.374311 805.57794 806.5343 4292068826
-20.072784 805.6037 806.11993 4292068569
-16.333027 804.99792 804.7373 4292331747
-13.181041 804.77887 804.55255 4292530146
-10.315597 804.34076 804.18311 4292726501
-7.7366972 804.34076 804.18311 4293055721
-4.2981653 804.99792 804.7373 4293055976
-1.7192661 804.99792 804.73724 4293121258
0.86055046 805.57794 806.5343 4293252589
4.3027525 805.57794 806.5343 4293318892
7.7449541 805.57794 806.5343 4293385200
10.326606 805.57794 806.5343 4293385711
12.900918 805.94513 806.18994 4293649141
16.333027 806.31232 805.84552 4294241276
19.498472 805.6037 806.11993 4294439166
22.350458 805.65515 805.29138 4294967295
24.642813 806.09326 805.66083 4294967295
28.081345 806.09326 805.66083 4294967295
31.806421 805.65515 805.29138 4294967295
34.385323 805.65515 805.29138 4294967295
36.964218 805.65515 805.29138 4294967295
40.402752 805.65515 805.29138 4294967295
43.841286 805.65515 805.29138 4294967295
46.420185 805.65515 805.29138 4294967295
49.321102 805.6037 806.11993 4294967295
52.437614 805.65515 805.29138 4294967295
56.20306 805.6037 806.11993 4294967295
58.455048 805.65515 805.29138 4294967295
61.033943 805.65515 805.29138 4294967295
-18.851376 809.16846 804.32959 4292200155
-16.280735 809.16846 804.32959 4292529122
-13.710092 809.16846 804.32959 4292595935
-11.13945 809.16846 804.32959 4292661729
-7.7119265 809.16846 804.32959 4292662244
-4.2844038 809.16846 804.32959 4292859366
-1.7137614 809.16846 804.32959 4292990439
20.565138 809.16846 804.32959 4294570495
22.278898 809.16846 804.32959 4294967295
25.706423 809.16846 804.32959 4294967295
29.133945 809.16846 804.32959 4294967295
31.704586 809.16846 804.32959 4294967295
35.132111 809.16846 804.32959 4294967295
37.702751 809.16846 804.32959 4294967295
40.273396 809.16846 804.32959 4294967295
43.700916 809.16846 804.32959 4294967295
47.128441 809.16846 804.32959 4294967295
52.269726 809.16846 804.32959 4294967295
54.840366 809.16846 804.32959 4294967295
59.124771 809.16846 804.32959 4294967295
61.695412 809.16846 804.32959 4294967295
-30.847706 811.78882 806.53906 4292001999
-28.277065 811.78882 806.53906 4292067793
-25.706423 811.78882 806.53906 4292001745
-23.13578 811.13373 805.98669 4292133335
-19.993883 810.91534 805.80255 4292200407
-16.262386 811.21021 804.74316 4292397020
-13.680734 811.94177 804.052 4292135130
-11.115597 811.94177 804.052 4292661730
-7.6954126 811.94177 804.052 4292596195
-4.2752295 811.94177 804.052 4292727525
-1.7100917 811.94177 804.052 4292990439
0.85688072 810.47864 805.43433 4292990184
4.2844038 810.47864 805.43433 4293056745
7.7119265 811.13367 805.98669 4293121771
11.13945 811.13367 805.98669 4293252847
13.710092 811.13373 805.98669 4293450995
16.280735 810.47864 805.43433 4293780215
19.686237 811.21021 804.74316 4294307071
23.111927 811.21021 804.74316 4294967039
25.651377 811.94177 804.052 4294967295
28.277065 810.47864 805.43433 4294967295
31.669725 811.21021 804.74316 4294967295
35.056881 811.94177 804.052 4294967295
37.622017 811.94177 804.052 4294967295
40.229359 811.21021 804.74316 4294967295
43.700916 810.47864 805.43433 4294967295
47.128441 810.47864 805.43433 4294967295
49.699081 810.47864 805.43433 4294967295
52.157799 811.94177 804.052 4294967295
55.57798 811.94177 804.052 4294967295
59.062386 811.21021 804.74316 4294967295
61.563301 811.94177 804.052 4294967295
63.273396 811.94177 804.052 4294967295
-25.651377 814.55658 806.25671 4292200407
-23.086239 814.55658 806.25671 4292200923
-18.811008 813.24915 805.1543 4292331993
-16.245872 813.24915 805.1543 4292397018
0.57003057 813.68488 805.52179 4292990183
4.560245 813.685 805.52179 4292925414
7.6954126 814.55658 806.25671 4292858601
11.115597 814.55658 806.25671 4293317871
13.680734 814.55658 806.25671 4293384945
16.245872 813.90289 805.70557 4293714167
19.381039 813.685 805.52179 4294372607
23.086239 813.90283 805.70557 4294966783
25.651377 813.24915 805.1543 4294967295
28.216513 813.90283 805.70551 4294967295
31.351683 813.68488 805.52179 4294967295
35.056881 813.24915 805.1543 4294967295
37.622017 813.24915 805.1543 4294967295
40.187157 813.24915 805.1543 4294967295
43.607338 813.24915 805.1543 4294967295
47.027523 813.90289 805.70557 4294967295
49.592659 813.90283 805.70551 4294967295
52.157799 813.90283 805.70557 4294967295
55.57798 813.90283 805.70557 4294967295
58.998169 813.90283 805.70551 4294967295
61.563301 813.90283 805.70551 4294967295
63.273396 814.55658 806.25671 4294967295
-27.273394 818.04608 805.2749 4292134614
-25.568808 818.04608 805.2749 4292397786
-23.011927 818.04608 805.2749 4292463581
-19.602753 817.39453 804.72546 4292200663
-16.477676 817.17731 804.5423 4292331483
-13.636697 816.74292 804.17603 4292528604
-10.795719 817.17731 804.5423 4292594398
-7.6706419 817.39453 804.72546 4292660449
-4.5455656 817.17731 804.5423 4292857828
-1.7045871 816.74292 804.17603 4292792546
1.1363914 817.61163 804.90863 4292923623
3.97737 817.61176 804.90863 4292793829
7.6706419 818.04608 805.2749 4292858601
11.079817 818.04608 805.2749 4293317873
13.636697 818.04608 805.2749 4293515500
16.193579 818.04608 805.2749 4293911029
19.88685 817.61176 804.90863 4294372350
23.011927 818.04608 805.2749 4294899711
25.568808 817.39453 804.72546 4294967295
28.125687 818.04608 805.2749 4294967295
31.818962 817.61176 804.90863 4294967295
34.944038 817.39453 804.72546 4294967295
37.500916 817.39453 804.72546 4294967295
40.0578 817.39453 804.72546 4294967295
43.466972 817.39453 804.72546 4294967295
46.876144 818.04608 805.2749 4294967295
49.433029 818.04608 805.2749 4294967295
51.989906 818.04608 805.2749 4294967295
55.399082 818.04608 805.2749 4294967295
-37.420185 820.80121 804.98193 4291934419
-34.905502 820.0752 805.6778 4292132307
-31.534863 819.34924 806.37366 4292199118
-28.125687 819.34924 806.37366 4292068559
-25.568808 819.34924 806.37366 4292069589
-22.962385 820.80121 804.98193 4292002263
-19.560551 820.80121 804.98193 4292133331
-16.158716 820.80121 804.98193 4292528858
-13.60734 820.80121 804.98193 4292528858
-11.055964 820.80121 804.98193 4292594651
-7.6541286 820.80121 804.98193 4292660445
-4.2522936 820.80121 804.98193 4292791776
-1.7009175 820.80121 804.98193 4292857569
0.85229355 819.34924 806.37366 4292791779
4.2577982 820.0752 805.6778 4292858855
7.6706419 819.34924 806.37366 4292858600
11.055964 820.80121 804.98193 4293383664
13.60734 820.80121 804.98193 4293712111
16.158716 820.80121 804.98193 4294173432
19.560551 820.80121 804.98193 4294437374
22.962385 820.80121 804.98193 4294964735
25.513762 820.80121 804.98193 4294967295
28.125687 819.34924 806.37366 4294967295
31.466972 820.80121 804.98193 4294967295
34.868805 820.80121 804.98193 4294967295
37.420185 820.80121 804.98193 4294967295
39.971558 820.80121 804.98193 4294967295
43.373394 820.80121 804.98193 4294967295
46.826607 820.0752 805.6778 4294967295
49.433029 819.34924 806.37366 4294967295
51.989906 819.34924 806.37366 4294967295
55.399082 819.34924 806.37366 4294967295
-37.420185 822.10156 806.07837 4292000473
-35.719265 822.10156 806.07837 4291803351
-27.21468 822.10156 806.07837 4292134353
-25.513762 822.10156 806.07837 4292265939
-22.962385 822.10156 806.07837 4292331475
-19.560551 822.10156 806.07837 4292199122
-11.055964 822.10156 806.07837 4292463062
-6.8036699 822.10156 806.07837 4292660191
0.85045874 822.10156 806.07837 4292857572
4.2522936 822.10156 806.07837 4292989671
7.6541286 822.10156 806.07837 4292858601
10.205504 822.10156 806.07837 4293186798
28.065138 822.10156 806.07837 4294967295
31.466972 822.10156 806.07837 4294967295
34.868805 822.10156 806.07837 4294967295
43.373394 822.10156 806.07837 4294967295
46.77523 822.10156 806.07837 4294967295
49.326607 822.10156 806.07837 4294967295
-27.126606 826.86761 806.17273 4291869394
-25.431192 826.86761 806.17273 4292000723
-22.888073 826.21954 805.62634 4292002260
-19.497248 825.57141 805.07983 4292198610
-16.106422 825.57141 805.07983 4292461782
-13.563303 825.57141 805.07983 4292594650
-11.020184 825.57141 805.07983 4292594649
-6.7816515 825.57141 805.07983 4292726240
0.84770644 825.57141 805.07983 4293185764
4.2385321 825.57141 805.07983 4292858341
7.6293578 825.57141 805.07983 4292727012
11.020184 825.57141 805.07983 4293450478
13.563303 825.57141 805.07983 4293647088
16.106422 825.57141 805.07983 4294042103
19.497248 825.57141 805.07983 4294437374
22.888073 825.57141 805.07983 4294965759
25.431192 825.57141 805.07983 4294967295
28.256882 826.00348 805.44415 4294967295
31.365139 825.57141 805.07983 4294967295
34.755962 825.57141 805.07983 4294967295
38.14679 825.57141 805.07983 4294967295
40.689907 825.57141 805.07983 4294967295
43.515594 826.00342 805.44415 4294967295
46.341282 826.43555 805.80841 4294967295
50.014679 826.86761 806.17273 4294967295
-34.680733 830.25116 806.40967 4292197584
-31.297249 830.89783 806.95496 4292328911
-27.631805 830.46674 806.59149 4292329683
-25.376146 830.25116 806.40967 4292132561
-22.838531 829.60449 805.86438 4292264151
-19.455046 828.95776 805.31915 4292395739
-16.07156 828.95776 805.31915 4292528345
-13.533945 828.31116 804.77393 4292528858
-10.99633 828.31116 804.77393 4292660445
-6.7669725 828.31116 804.77393 4292857569
0.56391436 828.74225 805.13739 4293186018
4.2293577 828.95782 805.31909 4293053665
7.612844 828.95782 805.31909 4293053923
10.714374 828.74225 805.13739 4293252330
13.533945 828.95782 805.31915 4293450735
16.07156 828.95776 805.31915 4293977337
19.455046 828.95776 805.31915 4294241021
22.838531 828.95776 805.31915 4294966527
25.376146 828.95782 805.31915 4294967295
27.631805 829.17334 805.50092 4294967295
31.297249 828.95782 805.31909 4294967295
34.849907 829.34583 805.6463 4294967295
38.233395 829.34583 805.6463 4294967295
40.601833 829.60449 805.86444 4294967295
42.970276 829.86316 806.08252 4294967295
46.240978 830.46674 806.59149 4294967295
49.624466 830.46674 806.59149 4294967295
52.444038 830.89783 806.95496 4294967295
54.13578 830.89783 806.95496 4294967295
-22.764221 833.05475 804.84949 4292592603
-19.391743 833.05475 804.84949 4292790495
-16.019266 833.05475 804.84949 4292725720
-13.489908 833.05475 804.84949 4292594402
-10.96055 833.05475 804.84949 4292725985
-6.7449541 833.05475 804.84949 4292857567
-5.0587158 833.05475 804.84949 4292726238
0.84311926 833.05475 804.84949 4292790750
4.2155962 833.05475 804.84949 4293053668
7.5880733 833.05475 804.84949 4293120225
10.96055 833.05475 804.84949 4293252589
13.489908 833.05475 804.84949 4293516013
16.019266 833.05475 804.84949 4294108921
19.391743 833.05475 804.84949 4294241277
22.764221 833.05475 804.84949 4294966783
26.136696 833.05475 804.84949 4294967295
28.666056 833.05475 804.84949 4294967295
31.195412 833.05475 804.84949 4294967295
33.72477 833.05475 804.84949 4294967295
37.097248 833.05475 804.84949 4294967295
-33.72477 834.34387 805.9364 4292525009
-25.293577 834.34387 805.9364 4292132302
-22.764221 834.34387 805.9364 4292328915
-19.391743 834.34387 805.9364 4292131285
-16.019266 834.34387 805.9364 4292461531
-13.46055 835.77899 804.5304 4292528604
-10.936697 835.77899 804.5304 4292659934
-7.5788989 835.0614 805.2334 4292922849
-4.2064219 835.77899 804.5304 4292725214
-1.6825688 835.77899 804.5304 4292856543
0.84311926 834.34387 805.9364 4292724702
4.2155962 834.34387 805.9364 4292922079
7.5880733 834.34387 805.9364 4292989157
10.96055 834.34387 805.9364 4293252330
13.489908 834.34387 805.9364 4293319404
16.019266 834.34387 805.9364 4293714421
19.391743 834.34387 805.9364 4293978108
22.764221 834.34387 805.9364 4294899711
26.136696 834.34387 805.9364 4294967295
28.666056 834.34387 805.9364 4294967295
31.195412 834.34387 805.9364 4294967295
34.56789 834.34387 805.9364 4294967295
37.940369 834.34387 805.9364 4294967295
-33.651375 838.35168 806.69958 4291344335
-25.238533 838.35168 806.69958 4292198608
-22.43425 837.92285 806.33807 4292264149
-19.629969 837.49414 805.97656 4292198100
-15.984404 837.06531 805.61499 4292396248
-13.46055 837.06531 805.61499 4292462809
-10.936697 837.06531 805.61499 4292396762
-7.5715594 837.06531 805.61499 4292790754
-4.4868503 837.49414 805.97656 4292659680
-1.6825688 837.06531 805.61499 4292791263
0.84128439 838.35168 806.69958 4292133849
4.2064219 838.35168 806.69958 4292528091
7.5715594 838.35168 806.69958 4293053670
10.936697 837.7085 806.15735 4293449449
13.46055 837.7085 806.15729 4293252584
15.984404 837.7085 806.15735 4293582066
19.349541 837.7085 806.15735 4294043645
22.71468 837.7085 806.15729 4294965503
26.079817 838.35168 806.69958 4294967295
28.60367 838.35168 806.69958 4294967295
31.127522 838.35168 806.69958 4294967295
33.651375 838.35168 806.69958 4294967295
-21.801834 841.77808 805.66455 4292657878
-19.28624 841.13696 805.12402 4292199123
-15.93211 840.49591 804.5835 4292329944
-13.416513 840.49591 804.5835 4292462298
-10.900917 840.49591 804.5835 4292396762
-7.2672782 840.92334 804.94385 4292528606
-3.9131496 841.35065 805.3042 4292659677
-1.6770642 841.13696 805.12402 4292724958
0.83853209 841.77808 805.66455 4292593632
3.3541284 841.77808 805.66455 4292594400
7.5467887 841.77808 805.66455 4292922343
10.900917 841.77808 805.66455 4293318118
13.416513 841.77808 805.66455 4293187304
15.93211 841.77808 805.66455 4293582068
19.28624 841.77808 805.66455 4294043132
22.640366 841.77808 805.66455 4294965247
25.155964 841.77808 805.66455 4294967295
-25.128441 844.41174 806.57727 4292131280
-22.603668 844.7677 806.22339 4292131535
-19.244038 843.84436 804.79083 4292395988
-15.61835 843.63116 804.61102 4292264920
-13.387156 843.84436 804.79083 4292396761
-10.877064 843.84436 804.79077 4292330970
-7.809175 844.05762 804.97064 4292397020
-4.183486 844.48401 805.3302 4292527835
-1.6733944 844.48401 805.3302 4292593116
0.83669722 844.7677 806.22339 4292461527
4.1862383 844.76776 806.22345 4292856545
7.5348625 844.76776 806.22345 4293054696
10.877064 845.12372 805.86957 4293187303
13.387156 845.12366 805.86957 4293253101
15.906423 844.7677 806.22339 4293581809
19.265139 844.41174 806.57727 4293779446
22.603668 844.76776 806.22345 4294833151
25.966053 844.4118 806.57727 4294967295
28.478899 844.41174 806.57727 4294967295
30.991743 844.41174 806.57727 4294967295
34.379814 843.06018 806.74561 4294967295
37.733944 843.06018 806.74561 4294967295
58.633026 844.41174 806.57727 4294967295
60.844036 844.43585 806.16162 4294967295
63.588989 843.20471 804.25146 4294967295
-19.180733 847.89502 804.2821 4292263638
-15.844954 847.89502 804.2821 4292461782
-13.34312 847.89502 804.2821 4292330710
-10.841284 847.89502 804.2821 4292264663
-7.5055046 847.89502 804.2821 4292462555
-4.1697249 847.89502 804.2821 4292593629
-1.66789 847.89502 804.2821 4292593116
61.711926 847.89502 804.2821 4294967295
-25.018349 850.44525 806.43237 4292000466
-22.504587 850.16156 805.53918 4292263887
-19.159632 850.51538 805.18353 4292198355
-16.110704 850.06696 805.24146 4292329942
-13.878288 850.96387 805.12567 4292329942
-10.835779 850.16156 805.53918 4292396246
-7.5009179 850.16156 805.53918 4292199893
-4.1697249 849.80768 805.89484 4292331225
-1.6660551 850.51538 805.18353 4292462555
0.83394498 850.44525 806.43237 4292594651
4.1697249 850.44525 806.43237 4292725984
7.5055046 850.44525 806.43237 4292923365
10.841284 850.44525 806.43237 4293120237
13.34312 850.44525 806.43237 4293252845
15.566974 850.0202 806.07404 4293516272
19.180733 850.44525 806.43237 4294371835
22.794495 850.0202 806.07404 4294767359
25.574312 850.0202 806.07404 4294967295
28.354128 850.44525 806.43237 4294967295
30.855965 850.44525 806.43237 4294967295
48.368809 850.44525 806.43237 4294967295
55.040367 850.44525 806.43237 4294967295
58.376148 850.44525 806.43237 4294967295
60.877983 849.80768 805.89484 4294967295
63.240368 851.86072 805.00977 4294967295
-24.963303 853.13306 806.08264 4292066255
-22.466972 853.13306 806.08264 4292132815
-19.138531 853.13306 806.08264 4292198610
-16.642202 853.13306 806.08264 4292329174
-14.145872 853.13306 806.08264 4292526810
-10.81743 853.13306 806.08264 4292724442
-7.4889908 853.13306 806.08264 4292264661
-4.1605506 853.13306 806.08264 4292462811
-1.6642202 853.13306 806.08264 4292595165
14.977982 853.13306 806.08264 4293647088
23.299082 853.13306 806.08264 4294570239
25.795414 853.13306 806.08264 4294967295
59.911926 853.13306 806.08264 4294967295
61.576145 853.13306 806.08264 4294967295
63.100918 854.54572 804.65771 4294967295
-24.908257 857.08472 806.79846 4292328913
-22.417431 856.44995 806.26331 4292197582
-19.096329 855.81525 805.72815 4292132815
-16.605505 856.44995 806.26331 4292066771
-14.114679 857.08472 806.79846 4292330456
-10.793578 857.08472 806.79846 4292330457
-7.472477 857.08472 806.79846 4292265176
-4.1513762 857.08472 806.79846 4292529116
-1.6605505 857.08472 806.79846 4292529372
4.9816513 857.08472 806.79846 4292660193
7.472477 857.08472 806.79846 4292725729
10.793578 857.08472 806.79846 4292857574
14.114679 857.08472 806.79846 4293383914
16.605505 857.08472 806.79846 4293646570
19.096329 857.08472 806.79846 4293976308
22.694189 856.66156 806.44171 4294569727
25.461775 856.66156 806.44171 4294967295
28.229359 857.08472 806.79846 4294967295
44.834862 857.08472 806.79846 4294967295
48.986237 857.08472 806.79846 4294967295
52.307343 857.08472 806.79846 4294967295
55.628441 857.08472 806.79846 4294967295
58.949539 856.44995 806.26331 4294967295
61.440369 855.81525 805.72815 4294967295
-22.067278 860.03888 805.3653 4292065999
-18.757187 859.61713 805.0097 4292263887
-16.550459 860.46063 805.72095 4292066772
-14.06789 860.46063 805.72095 4292132822
-10.757798 860.46063 805.72095 4292264665
-7.4477062 860.46063 805.72095 4292199643
-4.1376147 860.46063 805.72095 4292397534
-1.6550459 860.46063 805.72095 4292397788
11.585321 860.46063 805.72095 4292989671
14.06789 860.46063 805.72095 4293383914
16.550459 860.46063 805.72095 4293581293
19.033028 860.46063 805.72095 4293910774
22.343121 860.46063 805.72095 4294569471
25.65321 860.46063 805.72095 4294966783
56.271561 860.46063 805.72095 4294967295
59.029968 860.03888 805.3653 4294967295
62.06422 859.19531 804.65405 4294967295
-28.13578 861.72589 806.78772 4291606471
-25.65321 861.72589 806.78772 4291801803
-22.293579 863.12732 805.35327 4291868875
-19.266054 862.70654 804.99847 4292132301
-16.513762 863.12732 805.35327 4292198097
-14.036697 863.12732 805.35327 4292198356
-10.733945 863.12732 805.35327 4292264921
-7.4403667 862.42664 806.0705 4292068312
-4.1284404 863.12732 805.35327 4292266203
-1.6513761 863.12732 805.35327 4292397788
0 861.72589 806.78772 4292528604
4.1376147 861.72589 806.78772 4292068569
7.4477062 861.72589 806.78772 4292659423
10.757798 861.72589 806.78772 4292989669
14.051376 862.42664 806.0705 4293384427
16.513762 863.12732 805.35327 4293778669
19.012844 862.42664 806.0705 4293845492
22.343121 861.72589 806.78772 4294504191
25.65321 861.72589 806.78772 4294967039
28.963303 861.72589 806.78772 4294967295
33.92844 861.72589 806.78772 4294967295
36.411011 861.72589 806.78772 4294967295
40.548622 861.72589 806.78772 4294967295
43.858715 861.72589 806.78772 4294967295
47.168808 861.72589 806.78772 4294967295
49.651375 861.72589 806.78772 4294967295
52.133945 861.72589 806.78772 4294967039
55.444038 861.72589 806.78772 4294967295
58.688072 862.42664 806.0705 4294967295
61.926605 862.49609 804.82104 4294967295
-25.596329 864.38983 806.41785 4291802833
-22.293579 864.38983 806.41785 4291804107
-18.948624 865.78845 804.98108 4291935689
-16.513762 864.38983 806.41785 4292132817
-14.036697 864.38983 806.41785 4292198868
-10.733945 864.38983 806.41785 4292264919
-7.4311924 864.38983 806.41785 4292133591
-4.1284404 864.38983 806.41785 4292199898
-1.6513761 864.38983 806.41785 4292331741
7.4311924 864.38983 806.41785 4292792031
10.733945 864.38983 806.41785 4293252582
14.036697 864.38983 806.41785 4293582310
16.513762 864.38983 806.41785 4293647851
18.990826 864.38983 806.41785 4293911283
22.293579 864.38983 806.41785 4294504191
25.596329 864.38983 806.41785 4294966783
49.541283 864.38983 806.41785 4294967295
52.844036 864.38983 806.41785 4294967039
56.14679 864.38983 806.41785 4294967295
58.623856 864.38983 806.41785 4294967295
61.78899 865.78845 804.98108 4294967295
-21.420183 867.04816 806.04321 4291869900
-18.948624 867.04816 806.04321 4291935436
-16.477064 867.04816 806.04321 4292198610
-14.005505 867.04816 806.04321 4292198610
-10.710092 867.04816 806.04321 4292264660
-7.4146786 867.04816 806.04321 4292330456
-4.119266 867.04816 806.04321 4292265177
-1.6477064 867.04816 806.04321 4292528604
10.710092 867.04816 806.04321 4292989153
14.005505 867.04816 806.04321 4293449707
16.477064 867.04816 806.04321 4293252843
18.124771 867.04816 806.04321 4293779443
59.317432 867.04816 806.04321 4294967295
60.965137 867.04816 806.04321 4294967295
-21.348623 871.65283 806.00171 4291870157
-18.885323 871.65283 806.00171 4291935436
-16.422018 871.65283 806.00171 4291869648
-13.958715 871.65283 806.00171 4292264404
-10.400612 871.23438 805.64886 4292264917
-7.3899078 871.65283 806.00171 4292330711
-4.1055045 871.65283 806.00171 4292396760
-1.6422018 871.02515 805.47241 4292594653
4.1055045 871.65283 806.00171 4292462812
7.6636086 871.23438 805.64886 4292792027
10.674313 871.02515 805.47241 4292857313
13.958715 871.02515 805.47241 4293251563
16.422018 871.02515 805.47241 4293186797
18.611622 871.23438 805.64886 4293582066
21.348623 871.65283 806.00171 4293977847
61.308868 870.81592 805.29596 4294967295
-22.120182 875.54846 806.67029 4291738059
-18.843121 874.92212 806.14221 4291673037
-16.385321 874.29578 805.61414 4291869394
-13.927523 874.92212 806.14221 4292133332
-10.650459 874.92212 806.14221 4292396246
-7.3733945 875.54846 806.67029 4292265944
-4.0963306 875.54846 806.67029 4292594907
-1.6385322 874.92212 806.14221 4292528856
4.0963306 875.54846 806.67029 4292529118
7.3733945 875.54846 806.67029 4292726751
10.650459 874.92212 806.14221 4292857570
13.927523 874.92212 806.14221 4292922853
16.385321 874.92212 806.14221 4292595426
18.57003 875.13086 806.31818 4293253355
21.847094 875.13086 806.31818 4293911542
25.397247 875.54846 806.67029 4294964735
28.674313 875.54846 806.67029 4294967295
31.951376 875.54846 806.67029 4294967295
34.409176 875.54846 806.67029 4294967295
36.866974 875.54846 806.67029 4294966783
39.324772 875.54846 806.67029 4294967295
61.854588 874.60901 805.87817 4294967039
63.902752 874.29572 805.61407 4294967295
-19.618349 878.18292 806.27551 4291476689
-16.893578 877.7663 805.92426 4291870674
-13.623853 877.7663 805.92426 4292132820
-10.354129 877.7663 805.92426 4292330712
-7.3568807 878.18292 806.27551 4292330966
-4.0871563 878.18292 806.27551 4292594651
-1.6348624 878.18292 806.27551 4292594650
-19.552294 882.74695 806.19971 4291936206
-17.108257 882.74695 806.19971 4292001487
-13.849541 882.74695 806.19971 4292198356
-10.590826 882.74695 806.19971 4292395993
-7.3321099 882.74695 806.19971 4292396252
-4.8880734 882.74695 806.19971 4292396255
-4.8770642 886.60883 806.83997 4292659924
-4.0550461 889.21948 806.42505 4292462040
-6.4660549 893.74286 806.31494 4292593116
-4.0412846 893.74286 806.31494 4292527323
-1.6165137 893.74286 806.31494 4292658909
-35.743118 752.52307 808.88892 4280161824
-35.633026 756.16827 808.03833 4292923099
-36.605503 788.11224 807.50403 4292134612
54.908257 788.11224 807.50403 4294967295
58.394493 788.11224 807.50403 4294967295
61.880733 788.11224 807.50403 4294967295
-36.605503 789.44489 808.62769 4292199892
58.394493 789.44489 808.62769 4294967295
61.009174 789.44489 808.62769 4294967295
-33.014679 792.9975 807.6991 4292330458
55.603668 792.9975 807.6991 4294967295
58.210091 792.9975 807.6991 4294967295
60.816513 792.9975 807.6991 4294967295
57.038532 800.66174 807.62122 4294967295
-36.181652 805.50354 807.77966 4292066768
-36.104588 808.94116 808.06207 4291672524
-34.385323 808.94116 808.06207 4291803856
-32.092968 808.72211 807.87738 4291935696
-28.367889 808.28394 807.50793 4291870159
-25.78899 808.28394 807.50793 4292000977
-36.104588 810.91272 809.72449 4291607243
-34.796329 814.94232 807.45392 4291738572
-31.670643 814.48151 807.50134 4292133587
-28.541895 814.02069 807.54883 4292133844
58.998165 815.86395 807.35901 4294967295
61.563301 815.86395 807.35901 4294967295
63.273396 815.86395 807.35901 4294967295
58.998165 817.82501 809.01257 4294967295
61.563301 817.82501 809.01257 4294967295
63.273396 817.82501 809.01257 4294967295
-34.091743 820.6524 807.47253 4292132302
-31.534863 820.6524 807.47253 4292001479
-28.977982 820.6524 807.47253 4292133315
52.274006 821.08673 807.83881 4294967295
55.399082 821.30396 808.02191 4294967295
58.808258 821.95557 808.57129 4294967295
61.365139 821.95557 808.57129 4294967295
63.069725 821.95557 808.57129 4294967295
-37.420185 824.05212 807.72302 4291803344
-34.868805 824.05206 807.72302 4291737293
-31.466972 824.05206 807.72302 4292066509
-28.348623 823.83539 807.54028 4291935435
-25.513762 823.40192 807.1748 4291870159
47.625687 823.40192 807.1748 4294967295
49.326607 823.40192 807.1748 4294967295
51.877983 824.05212 807.72302 4294967295
55.279816 824.70227 808.27124 4294967295
58.745872 823.98047 808.97064 4294967295
61.233028 824.70227 808.27124 4294967295
63.069725 823.25873 809.67004 4294967295
-37.420185 826.00269 809.36768 4291736522
59.532108 826.00269 809.36768 4294967295
62.933945 826.00269 809.36768 4294967295
-31.365139 828.16376 807.26562 4292132560
-28.822018 828.16376 807.26562 4292198095
47.471561 828.16376 807.26562 4294967295
50.862385 828.16376 807.26562 4294967295
52.557796 828.16376 807.26562 4294967295
55.383484 828.59576 807.62988 4294967295
58.491745 829.4599 808.35852 4294967295
61.882568 829.4599 808.35852 4294967295
-35.526604 832.19122 808.04541 4292328911
-31.297249 832.19122 808.04541 4292591316
-27.913761 832.19122 808.04541 4292197584
40.601833 832.19122 808.04541 4294967295
43.421406 832.62231 808.40894 4294967295
46.522934 832.83789 808.5907 4294967295
50.188381 832.62231 808.40894 4294967295
52.444038 832.83789 808.5907 4294967295
55.263611 832.62231 808.40894 4294967295
58.083179 833.05347 808.77246 4294967295
61.466663 833.05347 808.77246 4294967295
-34.84893 836.06274 807.38574 4291803085
-31.195412 836.27759 807.56689 4292198360
-28.666056 836.27759 807.56689 4292132310
-26.417738 836.06274 807.38574 4291869388
-23.60734 835.633 807.02344 4292329428
0.84311926 835.633 807.02344 4292593631
4.2155962 835.633 807.02344 4292528859
7.5880733 835.633 807.02344 4292923113
26.136696 835.633 807.02344 4294967295
28.666056 835.633 807.02344 4294967295
31.195412 835.633 807.02344 4294967295
34.84893 836.06274 807.38574 4294967295
37.940369 836.27759 807.56689 4294967295
40.469727 836.27759 807.56689 4294967295
42.718044 836.49243 807.74805 4294967295
46.371559 836.92218 808.11035 4294967295
49.462994 836.49243 807.74805 4294967295
53.397552 836.49243 807.74805 4294967295
55.64587 836.92218 808.11035 4294967295
58.175232 836.92218 808.11035 4294967295
61.547707 836.92218 808.11035 4294967295
-33.651375 839.638 807.78418 4291671760
-31.195412 838.2113 809.19739 4292132563
-28.60367 839.638 807.78418 4292396244
-26.109175 838.92468 808.49078 4292198608
-23.555964 839.638 807.78418 4292394706
5.0477066 839.638 807.78418 4292594400
26.921101 839.638 807.78418 4294967295
28.60367 839.638 807.78418 4294967295
31.127522 839.638 807.78418 4294967295
34.492661 839.638 807.78418 4294967295
37.857796 839.638 807.78418 4294967295
40.381653 839.638 807.78418 4294967295
42.999084 838.2113 809.19739 4294967295
46.371559 838.2113 809.19739 4294967295
49.744034 838.2113 809.19739 4294967295
53.0578 838.92468 808.49078 4294967295
55.524769 839.638 807.78418 4294967295
58.048622 839.638 807.78418 4294967295
61.413761 839.638 807.78418 4294967295
-34.212231 841.35321 809.23029 4291736521
-31.127523 841.5675 809.41113 4291802827
-28.60367 840.92438 808.86877 4291999948
-26.921101 840.92438 808.86877 4292131278
40.381653 840.92438 808.86877 4294967295
42.905502 840.92438 808.86877 4294967295
45.990215 841.35321 809.23029 4294967295
49.63578 840.92438 808.86877 4294967295
53.000916 840.92438 808.86877 4294967295
55.524769 840.92438 808.86877 4294967295
57.20734 840.92438 808.86877 4294967295
-31.025688 845.62445 808.90771 4291738059
-28.510092 844.9834 808.36719 4291803596
-26.833027 844.9834 808.36719 4291802829
34.379814 844.34229 807.82666 4294967295
37.733944 844.34229 807.82666 4294967295
41.088074 844.34229 807.82666 4294967295
43.603668 844.34229 807.82666 4294967295
46.957798 844.34229 807.82666 4294967295
49.473396 844.34229 807.82666 4294967295
52.827522 844.34229 807.82666 4294967295
55.343121 844.34229 807.82666 4294967295
57.020184 844.34229 807.82666 4294967295
-30.990826 847.61426 809.27753 4291868619
-28.447706 848.32202 808.56628 4291868875
-25.937614 847.68237 808.02692 4291934415
0.83669722 847.04266 807.48755 4292461782
4.183486 847.04266 807.48755 4292791008
7.5302753 847.04266 807.48755 4292923110
10.877064 847.04266 807.48755 4293054696
13.387156 847.04266 807.48755 4293056236
16.733946 847.04266 807.48755 4293779955
19.244038 847.04266 807.48755 4294108920
21.754128 847.04266 807.48755 4294832639
26.774311 847.04266 807.48755 4294967295
28.447706 847.04266 807.48755 4294967295
30.957798 847.04266 807.48755 4294967295
34.304588 847.68237 808.02692 4294967295
37.651379 847.68237 808.02698 4294967039
40.998165 847.68237 808.02692 4294967295
43.508255 847.68237 808.02692 4294967295
46.018349 847.68237 808.02692 4294967295
49.644032 847.46918 807.84717 4294967295
52.711926 847.68237 808.02692 4294967295
56.337616 847.46906 807.84717 4294967295
58.568806 847.04266 807.48755 4294967295
-30.957798 849.60132 809.64502 4291868620
-28.354128 851.72034 807.50757 4291934668
-26.686239 851.72034 807.50757 4292000462
0.83394498 851.72034 807.50757 4292463581
4.1697249 851.72034 807.50757 4292791009
7.5055046 851.72034 807.50757 4292922851
10.841284 851.72034 807.50757 4293119978
13.34312 851.72034 807.50757 4293383915
16.6789 851.72034 807.50757 4293515754
19.180733 851.72034 807.50757 4294239993
21.68257 851.72034 807.50757 4294504191
28.354128 851.72034 807.50757 4294967295
30.855965 851.72034 807.50757 4294967295
34.191742 851.72034 807.50757 4294967295
37.527523 851.72034 807.50757 4294967295
