# .PCD v0.7 - Point Cloud Data file format
VERSION 0.7
FIELDS x y z rgb
SIZE 4 4 4 4
TYPE F F F U
COUNT 1 1 1 1
WIDTH 1164
HEIGHT 1
VIEWPOINT 0 0 0 1 0 0 0
POINTS 1164
DATA ascii
0.85229355 832.38092 817.36176 4292790751
4.0910091 832.1203 817.14197 4293120488
7.6706414 832.38092 817.36163 4293318889
11.079817 831.72937 816.81232 4293778931
13.636697 831.07776 816.26294 4293779443
16.193577 831.72937 816.81232 4294042103
19.602753 831.72937 816.81238 4294372092
23.011929 831.72937 816.81238 4294702079
25.568808 831.72937 816.81232 4294899455
28.125687 831.72937 816.81232 4294901503
31.534863 831.72937 816.81232 4294967295
34.944035 832.38092 817.36176 4294769916
37.500916 831.72937 816.81232 4294572029
40.0578 831.72931 816.81238 4294967039
43.466972 833.03253 817.91107 4294967295
46.592052 832.81537 817.72797 4294967295
49.433029 831.72937 816.81232 4294967295
51.98991 833.03253 817.91107 4294967295
55.228626 832.6416 817.58142 4294967295
58.978718 832.6416 817.58142 4294967039
61.365139 832.38092 817.36163 4294967295
63.495872 832.05518 817.08698 4294967295
-22.962385 836.40558 818.13916 4291669963
-19.560551 835.75543 817.59094 4291606214
-16.158716 835.75543 817.59094 4291540669
-13.60734 835.75537 817.59094 4291671237
-11.055964 835.75537 817.59094 4291538879
-7.6541281 835.75537 817.59094 4291604159
-4.2522936 835.75543 817.59094 4292064713
-1.7009175 835.75537 817.59094 4292328656
5.1027522 835.75537 817.59094 4293317869
7.6541286 836.40558 818.13916 4293252327
11.055964 835.75543 817.59094 4293515248
13.60734 835.10522 817.04272 4293647603
16.442202 835.53864 817.4082 4293977335
19.560551 835.75537 817.59094 4294109176
22.962385 835.10522 817.04272 4294635519
25.513762 835.10522 817.04272 4294964735
28.065136 835.75543 817.59094 4294900991
31.466972 835.75543 817.59094 4294967295
34.868805 836.40558 818.13916 4294704123
37.420185 835.75537 817.59094 4294636541
39.971558 835.10522 817.04272 4294967039
44.223854 836.40558 818.13916 4294966271
47.625687 835.10522 817.04272 4294967295
49.326607 835.10522 817.04272 4294967295
51.877983 836.40558 818.13916 4294967295
55.279816 836.40558 818.13916 4294966783
58.681648 836.40558 818.13916 4294967295
62.083488 836.40558 818.13916 4294967295
-22.040367 839.82916 817.10168 4291867858
-19.497248 839.82916 817.10168 4291671497
-6.7816515 839.82916 817.10168 4291932107
-4.2385321 839.82916 817.10168 4291933131
5.0862384 839.82916 817.10168 4293120994
7.6293578 839.82916 817.10168 4293317353
11.020184 839.82916 817.10168 4293515249
13.563303 839.18109 816.55524 4293581808
15.823853 839.39716 816.73737 4293779442
19.497248 839.82916 817.10168 4294239994
22.888073 839.18109 816.55524 4294898943
25.431192 838.53302 816.00879 4294965247
27.974312 839.82916 817.10168 4294966271
32.212845 839.82916 817.10168 4294967295
34.755962 839.82916 817.10168 4294638330
38.14679 839.18109 816.55524 4294768379
40.689907 838.53302 816.00879 4294965503
43.233028 839.18109 816.55524 4294966015
46.623856 838.53302 816.00879 4294967295
50.014679 839.18109 816.55524 4294967295
52.557796 839.82916 817.10168 4294967295
55.100918 839.82916 817.10168 4294967295
57.644035 839.82916 817.10168 4294967295
64.42569 838.53302 816.00879 4294967295
-22.888073 841.12531 818.19458 4291736522
-19.497248 841.12531 818.19458 4291736522
-16.106422 841.12531 818.19458 4291933126
-10.172477 841.12531 818.19458 4291802056
-7.6293578 841.12531 818.19458 4291998665
-4.2385321 841.12531 818.19458 4292327886
-1.6954129 841.12531 818.19458 4292723669
4.2385321 841.12531 818.19458 4292857823
7.6293578 841.12531 818.19458 4293382632
11.007339 841.83167 817.48212 4293448428
13.533945 842.53802 816.76965 4293647088
16.07156 842.53802 816.76965 4293712624
19.475229 841.83167 817.48212 4294042105
22.838531 842.53802 816.76965 4294503678
25.376146 842.53802 816.76965 4294898943
27.913761 842.53802 816.76965 4294966271
31.297249 842.53802 816.76965 4294967295
34.680733 842.53802 816.76965 4294704123
38.06422 842.53802 816.76965 4294636281
40.601833 842.53802 816.76965 4294767615
43.13945 842.53802 816.76965 4294966527
46.522934 842.53802 816.76965 4294899711
49.906422 842.53802 816.76965 4294965759
52.444038 842.53802 816.76965 4294967295
54.981651 842.53802 816.76965 4294966271
58.365135 842.53802 816.76965 4294966271
61.882568 841.12531 818.19458 4294967039
65.132111 842.53802 816.76965 4294967039
67.816513 841.12531 818.19458 4294967295
-22.556574 844.6936 818.58716 4291670729
-19.737001 844.6936 818.58716 4291736264
-16.07156 845.12469 818.95068 4291738057
-13.533945 845.12469 818.95068 4291804104
-10.714374 844.6936 818.58716 4291803336
-7.8948007 844.26245 818.22363 4291934410
-4.2293577 843.83136 817.86011 4292460755
-1.6917431 843.83136 817.86011 4292789975
0.84587157 845.12469 818.95068 4292592605
4.2293577 844.47803 818.4054 4292857310
7.612844 844.47803 818.4054 4293054182
10.714374 844.26245 818.22363 4293251821
13.533945 843.83136 817.86011 4293515502
16.07156 843.83136 817.86011 4293712624
19.173088 844.26245 818.22363 4294107640
22.838531 843.83136 817.86011 4294766591
27.913761 843.83136 817.86011 4294966271
31.297249 843.83136 817.86011 4294967295
34.680733 843.83136 817.86011 4294769916
38.06422 843.83136 817.86011 4294768894
40.601833 843.83136 817.86011 4294965759
43.13945 843.83136 817.86011 4294966783
46.522934 843.83136 817.86011 4294899711
50.752293 843.83136 817.86011 4294966271
52.444038 843.83136 817.86011 4294967295
54.981651 843.83136 817.86011 4294966015
58.365135 843.83136 817.86011 4294966015
61.748623 845.12469 818.95068 4294966271
65.132111 844.47803 818.4054 4294966527
-22.764221 848.52448 817.89319 4291670731
-19.391743 848.52448 817.89319 4291736011
-16.019266 848.52448 817.89319 4292000459
-13.489908 848.52448 817.89319 4291869898
-10.96055 848.52448 817.89319 4291935435
-7.3070335 848.09473 817.53082 4291935183
-4.2155962 847.87988 817.34967 4292329942
-1.6862385 847.87988 817.34967 4292132562
4.2155962 848.52448 817.89319 4292989407
7.5880733 848.52448 817.89319 4293252327
11.24159 848.09473 817.53082 4293449962
13.489908 847.87988 817.34967 4293646571
16.019266 847.87988 817.34967 4293778417
19.672783 848.09473 817.53082 4294042616
22.764219 847.87988 817.34961 4294306044
26.136698 847.87988 817.34967 4294767103
28.666056 847.87988 817.34967 4294964991
31.195414 847.87988 817.34967 4294967295
34.56789 847.87988 817.34961 4294704122
37.940369 847.87988 817.34961 4294702334
40.469727 847.87988 817.34967 4294833407
42.999084 847.87988 817.34961 4294964991
46.371559 847.87988 817.34961 4294965247
49.744038 847.87988 817.34967 4294964991
53.116516 847.23529 816.80615 4294965247
55.64587 847.23529 816.80615 4294966271
58.175232 847.23529 816.80615 4294966783
61.547707 848.52448 817.89319 4294967295
64.077065 848.52448 817.89319 4294966271
-33.72477 849.8136 818.9801 4291998917
-30.352293 849.8136 818.9801 4291737546
-26.136696 849.8136 818.9801 4291736774
-22.740368 850.51434 818.26288 4291867849
-19.349541 851.21509 817.54565 4291801286
-16.000917 850.51434 818.26288 4291802569
-13.489908 849.8136 818.9801 4291672264
-10.936697 851.21509 817.54565 4291869643
-7.5807338 850.51434 818.26288 4291803852
-4.2064219 851.21509 817.54565 4292198611
-1.6825688 851.21509 817.54565 4292264403
0.84311926 849.8136 818.9801 4292462044
4.2155962 849.8136 818.9801 4292858591
7.5880733 849.8136 818.9801 4293186532
10.96055 849.8136 818.9801 4293120742
13.46055 851.21509 817.54565 4293185507
15.984404 851.21509 817.54565 4293712112
19.371559 850.51434 818.26288 4293581296
22.71468 851.21509 817.54565 4294108409
26.079817 851.21509 817.54565 4294503423
28.60367 851.21509 817.54565 4294965503
31.127522 851.21509 817.54565 4294967295
34.492661 851.21509 817.54565 4294769916
37.900002 850.51434 818.26288 4294702077
40.381653 851.21509 817.54565 4294636286
42.905502 851.21509 817.54565 4294899199
46.270645 851.21509 817.54565 4294832894
49.63578 851.21509 817.54565 4294964223
53.281342 850.35748 816.82257 4294965247
55.524769 849.92871 816.46106 4294967295
57.768192 850.35748 816.82257 4294966783
61.481651 850.51434 818.26288 4294965503
64.077065 849.8136 818.9801 4294702335
-22.71468 852.5014 818.63025 4292131271
-19.349541 852.5014 818.63025 4291670216
-15.984404 852.5014 818.63025 4291802567
-13.46055 852.5014 818.63025 4291605958
-10.917431 853.55042 817.55273 4291934923
-7.5715594 852.5014 818.63025 4291934413
-4.1926603 854.59937 816.47522 4292263634
-1.6770642 854.59937 816.47522 4292198608
0.84128439 852.5014 818.63025 4292397270
4.2064219 852.5014 818.63025 4292792798
7.5715594 852.5014 818.63025 4293121763
10.936697 852.5014 818.63025 4293318120
13.416513 854.59937 816.47522 4293119975
15.93211 854.59937 816.47522 4293646578
19.319267 853.55042 817.55273 4293713139
22.676147 853.55042 817.55273 4294042870
25.994495 854.59937 816.47522 4294306556
28.510092 854.59937 816.47522 4294966015
31.077982 853.55042 817.55273 4294967295
34.379814 854.59937 816.47522 4294770171
37.797249 853.55042 817.55273 4294768125
40.381653 852.5014 818.63025 4294767102
42.833946 853.55042 817.55273 4294833406
46.119267 854.59937 816.47522 4294965246
49.473396 854.59937 816.47522 4294899455
53.666054 854.59937 816.47522 4294832893
57.020184 854.59937 816.47522 4294965247
61.314682 853.55042 817.55273 4294966015
63.937614 852.5014 818.63025 4294966527
-22.640366 857.16364 818.63733 4291539649
-19.28624 855.88147 817.55627 4291604676
-15.652599 856.30884 817.91669 4291670980
-13.416513 856.52258 818.0968 4291605437
-10.900917 855.88147 817.55627 4291868869
-7.8262992 856.30884 817.91669 4291868361
-4.1889906 856.57935 816.83667 4292197840
-1.6733944 857.27728 816.11707 4292330195
0.83853209 855.88147 817.55627 4292331478
4.1926603 855.88147 817.55627 4292792544
7.5467887 855.88147 817.55627 4292989921
10.900917 855.88147 817.55627 4293186789
13.387156 857.27728 816.11707 4292923362
15.897248 857.27728 816.11707 4293449964
19.28624 855.88147 817.55627 4293713650
22.640366 855.88147 817.55627 4293911028
25.994495 855.88147 817.55627 4294174971
28.510092 855.88147 817.55627 4294965503
31.025688 855.88147 817.55627 4294967295
34.379814 855.88147 817.55627 4294901502
37.733944 855.88147 817.55627 4294569721
41.367584 856.3089 817.91669 4294833150
43.603668 855.88147 817.55627 4294965247
46.06789 856.57935 816.83667 4294965759
49.365135 857.27728 816.11707 4294833919
52.711926 857.27728 816.11707 4294767614
56.058716 857.27728 816.11707 4294964991
58.568806 857.27728 816.11707 4294967039
61.078899 857.27728 816.11707 4294966527
64.566971 855.88147 817.55627 4294966783
-22.590824 859.83594 818.27454 4291670983
-19.244038 859.19629 817.73511 4291670982
-16.176147 859.40948 817.91498 4291670981
-13.387156 859.83594 818.27454 4291737024
-10.877064 859.19629 817.73517 4291671233
-7.2513757 859.40948 817.91498 4291736266
-4.183486 858.55658 817.1958 4292000719
0.83669722 859.19629 817.73517 4292331478
3.9045868 858.98309 817.55536 4292660702
7.5302753 858.55658 817.1958 4292989919
10.877064 858.55658 817.1958 4293318375
13.387156 858.55658 817.1958 4293187302
15.060551 858.55658 817.1958 4293187302
19.244038 858.55658 817.1958 4293779694
22.590824 858.55658 817.1958 4293977075
25.937614 858.55658 817.1958 4294174971
28.447706 858.55658 817.1958 4294965247
30.957798 858.55658 817.1958 4294967039
34.304588 858.55658 817.1958 4294967295
37.930275 858.98309 817.55536 4294833149
40.719265 859.40948 817.91498 4294899455
43.508255 859.19629 817.73517 4294965759
46.018349 859.19629 817.73517 4294966783
49.365135 859.19629 817.73511 4294965759
52.711926 858.55658 817.1958 4294965759
56.058716 858.55658 817.1958 4294966015
58.568806 858.55658 817.1958 4294967039
61.078899 858.55658 817.1958 4294966015
64.42569 858.55658 817.1958 4294965503
-21.68257 863.19641 817.18384 4291605704
-19.180733 863.19641 817.18384 4291670729
-15.844954 863.19641 817.18384 4291670477
-10.841284 863.19641 817.18384 4291670982
-6.6715598 863.19641 817.18384 4291540428
-4.1697249 862.55884 816.64636 4291934928
-1.66789 862.55884 816.6463 4292198866
0 863.19641 817.18384 4292002512
5.0036697 862.55884 816.6463 4292792546
7.5055046 862.55884 816.6463 4292727006
10.841284 862.55884 816.6463 4293055205
13.34312 862.55884 816.6463 4293121509
15.566974 862.34637 816.4671 4293121509
19.180733 862.55884 816.6463 4293515757
22.516514 862.55884 816.6463 4293713650
25.852295 862.55884 816.6463 4294109180
28.354128 862.55884 816.6463 4294833151
30.855965 862.55884 816.6463 4294966783
34.191742 862.55884 816.64636 4294967295
37.249542 862.7713 816.8255 4294965247
40.863304 863.19641 817.18384 4294966015
43.365139 863.19641 817.18384 4294965759
45.866974 863.19641 817.18384 4294966783
49.202751 863.19641 817.18384 4294966271
52.538532 862.55884 816.6463 4294966015
55.874313 862.55884 816.6463 4294966015
58.376148 862.55884 816.6463 4294965759
60.877983 862.55884 816.6463 4294966527
64.21376 861.92126 816.10876 4294964991
-36.693577 864.4715 818.25903 4291671749
-25.018349 864.4715 818.25903 4291671751
-22.516514 864.4715 818.25903 4291540426
-19.180733 864.4715 818.25903 4291343815
-15.844954 864.4715 818.25903 4291605706
-13.34312 864.4715 818.25903 4291539651
-10.841284 864.4715 818.25903 4291671747
-7.5055046 864.4715 818.25903 4291606470
-4.1660552 865.16382 817.53473 4291738316
-1.6642202 865.85614 816.81042 4292264915
0.83394498 864.4715 818.25903 4292462044
4.1697249 864.4715 818.25903 4292660704
7.5055046 864.4715 818.25903 4292726751
10.841284 864.4715 818.25903 4292660704
14.160551 865.16382 817.53473 4292792294
16.642202 865.85614 816.81042 4293056999
19.138531 865.85614 816.81042 4293583344
22.466972 865.85614 816.81042 4293319917
25.795414 865.85614 816.81042 4294043643
29.123852 865.85614 816.81042 4294635519
31.620184 865.85614 816.81042 4294967295
34.116516 865.85614 816.81042 4294967295
37.487156 865.16382 817.53473 4294834175
40.863304 864.4715 818.25903 4294966015
43.365139 864.4715 818.25903 4294964479
45.866974 864.4715 818.25903 4294965503
49.202751 864.4715 818.25903 4294965247
52.538532 864.4715 818.25903 4294966015
55.874313 864.4715 818.25903 4294966783
58.376148 864.4715 818.25903 4294966783
60.877983 864.4715 818.25903 4294967039
63.240368 865.85614 816.81042 4294966271
-22.189604 867.97662 818.59833 4291540681
-19.138531 867.76465 818.41956 4291409096
-16.642202 867.76459 818.41956 4291672263
-14.423242 867.97662 818.59833 4291409348
-10.81743 868.40076 818.95593 4291410117
-7.2116208 867.97662 818.59833 4291344326
-4.1605506 867.76465 818.41956 4291541962
-1.6642202 867.76459 818.41956 4292003026
0 868.40076 818.95593 4291871957
11.649541 868.40076 818.95593 4292726240
14.145872 867.76459 818.41956 4293054696
16.642202 867.76459 818.41956 4292990181
19.11743 868.4541 817.69293 4293582830
22.430275 868.79956 817.3302 4293385708
25.738533 869.14502 816.96747 4293977850
29.076145 868.79956 817.3302 4294635775
31.550459 868.51025 816.43225 4294967295
34.078903 868.4541 817.69293 4294967295
37.403667 868.4541 817.69299 4294900734
40.466663 868.43634 818.11395 4294966015
44.101837 868.40076 818.95593 4294966783
46.598164 868.40076 818.95593 4294967039
49.094498 868.40076 818.95593 4294966015
52.422935 868.40076 818.95593 4294966015
55.751377 867.76459 818.41956 4294966783
59.046791 868.10938 818.05627 4294965503
61.576145 867.76459 818.41956 4294964991
63.700916 868.47284 817.27271 4294965247
-6.6422019 871.04926 818.57312 4291475149
-4.1513762 871.04926 818.57312 4291870672
-1.6605505 871.04926 818.57312 4292397268
14.944954 871.04926 818.57312 4292857315
16.605505 871.04926 818.57312 4292923110
18.266054 871.04926 818.57312 4293778419
22.417431 871.04926 818.57312 4293517038
40.683487 871.04926 818.57312 4294966271
43.174313 871.04926 818.57312 4294966527
55.628441 871.04926 818.57312 4294966783
58.949539 871.04926 818.57312 4294899455
61.440369 871.04926 818.57312 4294966527
63.100918 871.04926 818.57312 4294965759
-16.550459 875.64417 818.52332 4291343813
-14.06789 875.64417 818.52332 4291475653
-11.585321 875.64417 818.52332 4291804616
-7.4477062 875.64417 818.52332 4291540677
-4.1376147 875.64417 818.52332 4291672009
10.757798 875.64417 818.52332 4292726753
14.06789 875.64417 818.52332 4292726499
16.550459 875.64417 818.52332 4292792292
19.198532 874.63196 817.6698 4293253099
22.343121 875.01147 817.98987 4293318637
25.487707 874.12579 817.24304 4293846008
28.963303 873.74622 816.92297 4294636287
31.445871 873.74622 816.92297 4294967295
33.92844 874.37885 817.45648 4294967295
37.238533 874.37891 817.45648 4294900734
40.272781 875.22241 818.16766 4294966271
43.858715 875.64417 818.52332 4294967039
47.168808 875.64417 818.52332 4294965247
49.651375 875.64417 818.52332 4294966271
52.133945 875.64417 818.52332 4294967295
55.444038 875.64417 818.52332 4294966527
58.754128 875.01147 817.98987 4294833406
61.78838 874.8006 817.81201 4294965503
64.546791 873.74622 816.92297 4294965759
-14.036697 878.27722 818.12732 4291279045
-11.559633 878.27722 818.12732 4291411145
-7.4311924 878.27722 818.12732 4291344326
-4.1284404 878.27722 818.12732 4291541705
-1.6513761 878.27722 818.12732 4291936719
18.990826 878.27722 818.12732 4293056233
23.119267 878.27722 818.12732 4293188334
25.871559 877.85645 817.77246 4293649394
28.899082 877.64594 817.59509 4294570749
31.376146 877.646 817.59509 4294967295
33.85321 878.27722 818.12732 4294967295
37.155964 878.27722 818.12732 4294966526
39.633026 878.27722 818.12732 4294965247
42.93578 878.27722 818.12732 4294966783
55.321102 878.27722 818.12732 4294900479
58.623856 878.27722 818.12732 4294636542
62.201832 877.85645 817.77246 4294899199
64.403671 877.646 817.59509 4294964991
-6.5908256 882.16437 818.78882 4291870157
-4.119266 882.16437 818.78882 4291541195
-1.6477064 882.16437 818.78882 4292198871
4.119266 882.16437 818.78882 4292594399
7.4146786 882.16437 818.78882 4292528861
10.710092 882.16437 818.78882 4292857569
13.181651 882.16437 818.78882 4292660191
34.601833 882.16437 818.78882 4294967295
37.073395 882.16437 818.78882 4294835709
58.493576 882.16437 818.78882 4294504955
61.78899 882.16437 818.78882 4294965759
65.084404 882.16437 818.78882 4294966271
-4.1055045 886.71857 818.70471 4291541193
-1.6422018 886.71857 818.70471 4292395990
4.1055045 886.71857 818.70471 4292922336
7.3899083 886.09082 818.17542 4292791775
10.674313 886.71857 818.70471 4292724705
13.958715 886.71857 818.70471 4292791261
16.422018 886.71857 818.70471 4293053665
18.885323 886.71857 818.70471 4293054435
22.169724 886.71857 818.70471 4293450222
25.454128 886.71857 818.70471 4293516785
28.738533 886.71857 818.70471 4294503679
32.022934 886.71857 818.70471 4294967295
34.48624 886.71857 818.70471 4294967295
36.949539 886.71857 818.70471 4294835709
40.233948 886.71857 818.70471 4294636029
42.697247 886.71857 818.70471 4294964479
50.908257 886.71857 818.70471 4294897918
52.550457 886.71857 818.70471 4294897405
55.013763 886.71857 818.70471 4294766332
58.298164 886.09082 818.17542 4294832382
61.582569 885.46313 817.64612 4294965503
64.593269 886.30005 818.35187 4294899710
67.330276 886.71857 818.70471 4294965759
-1.6385322 889.32782 818.2887 4292659159
7.3733945 889.32782 818.2887 4292791263
9.831193 889.32782 818.2887 4292988390
18.023853 889.32782 818.2887 4292726238
31.132111 889.32782 818.2887 4294967295
34.409176 889.32782 818.2887 4294967295
52.433029 889.32782 818.2887 4294766335
54.890823 889.32782 818.2887 4294700540
58.440979 888.91022 817.93671 4294898431
61.444954 888.70148 817.76062 4294702076
64.722015 889.32782 818.2887 4294899454
67.179817 889.32782 818.2887 4294967039
-9.8091745 893.18134 818.92188 4291671751
-1.6348624 893.18134 818.92188 4292395221
49.863304 893.18134 818.92188 4294701309
53.405502 892.76471 818.57056 4294898687
55.58532 892.5564 818.3949 4294634747
58.037613 892.5564 818.3949 4294767102
61.307343 892.5564 818.3949 4294899454
63.759632 893.18134 818.92188 4294967295
22.811008 897.69489 818.80347 4293253356
24.440367 897.69489 818.80347 4293779957
50.51009 897.69489 818.80347 4294569466
52.954128 897.69489 818.80347 4294898174
55.398167 897.69489 818.80347 4294963198
57.842201 897.69489 818.80347 4294963967
61.915596 897.69489 818.80347 4294966015
17.842201 904.10004 818.97205 4292527069
19.46422 904.10004 818.97205 4292396764
21.897247 904.10004 818.97205 4292594399
24.330275 904.10004 818.97205 4292989155
27.574312 904.10004 818.97205 4293976818
30.818348 904.10004 818.97205 4294964991
47.038532 904.10004 818.97205 4294897916
49.471558 904.10004 818.97205 4294766332
53.526604 904.10004 818.97205 4294963967
58.392662 904.10004 818.97205 4294965246
60.825687 904.10004 818.97205 4294966271
63.258717 904.10004 818.97205 4294966783
22.631193 908.57288 818.81934 4292660191
24.247707 908.57288 818.81934 4292989155
28.28899 908.57288 818.81934 4293517296
-34.130276 757.64429 819.74719 4292331991
-32.333946 756.95764 819.16821 4292265685
-34.241287 790.96729 819.06763 4291410121
-31.60734 790.96729 819.06763 4291673811
-28.095413 790.96729 819.06763 4291869646
-36.875229 792.30969 820.19946 4291606739
-34.241287 792.9809 820.7655 4291606730
-31.541285 795.78516 820.51385 4291736522
-28.620794 796.00848 820.70215 4291737289
-28.822018 799.98096 820.12756 4292066510
-26.201836 798.64551 819.00146 4292066255
-31.442202 801.31641 821.25354 4291804364
-28.761467 802.77118 819.86414 4291936206
-31.376146 804.10382 820.98779 4291543245
-31.277063 808.93854 821.14026 4291738057
-29.53945 808.27429 820.5802 4291804363
-34.458717 820.65137 820.55182 4291672265
-31.874311 819.99274 819.99646 4291474886
-29.289907 819.99274 819.99646 4291540676
-34.385323 824.05664 820.80701 4291738059
-31.806423 823.39941 820.25293 4291672008
-28.654434 823.18036 820.06818 4291605959
-25.78899 822.74225 819.69885 4291473604
-36.104588 825.37103 821.91528 4291804104
-34.385323 825.37103 821.91528 4292000464
-31.806421 825.37103 821.91528 4291868875
-28.323853 826.44104 820.85547 4291671495
-30.847706 828.82129 820.90027 4292064971
-28.247707 829.5332 820.19257 4291802313
-28.216515 832.20618 821.13843 4291868107
-28.125687 835.63892 820.1087 4291998667
-25.568808 834.9873 819.55933 4292129481
0.85229355 834.9873 819.55933 4292658910
3.4091742 834.9873 819.55933 4293054951
-30.68257 837.59363 821.75684 4291932874
-27.802446 838.10199 820.44147 4291999178
-25.513762 838.35614 819.78381 4291867591
-23.812843 837.70593 819.2356 4291802065
-16.158716 837.70593 819.2356 4291736263
-13.60734 838.35614 819.78381 4291867594
-11.33945 838.1394 819.60107 4291669959
-8.5045872 837.70593 819.2356 4291932620
-1.7009175 837.70593 819.2356 4292657878
0.85045874 838.35614 819.78381 4292659936
3.401835 837.70593 819.2356 4292989407
59.532108 837.70593 819.2356 4294967295
62.083488 837.70593 819.2356 4294967295
-28.021101 841.36414 820.35791 4291736518
-25.431192 842.42151 819.28735 4291736261
-23.735781 842.42151 819.28735 4291736522
-18.649542 842.42151 819.28735 4291736776
-16.106422 842.42151 819.28735 4291934407
-13.563303 842.42151 819.28735 4291869379
-11.86789 842.42151 819.28735 4291672001
0.84770644 842.42151 819.28735 4292593884
61.882568 842.42151 819.28735 4294966783
67.816513 842.42151 819.28735 4294967295
-30.517431 845.01379 821.47314 4291670729
-27.974312 844.36572 820.9267 4291670983
-25.431192 843.71765 820.38025 4291736774
67.816513 843.71765 820.38025 4294967295
-27.913761 847.06476 820.58643 4291605447
-25.376146 846.41809 820.04114 4291868362
0.84587157 846.41809 820.04114 4292592862
65.977982 847.06476 820.58643 4294966527
67.669724 847.06476 820.58643 4294967039
-31.195412 851.10272 820.06714 4291999172
-26.136696 851.10272 820.06714 4291998915
65.763306 851.10272 820.06714 4294966527
-31.195412 852.39185 821.15405 4291998663
-28.666056 852.39185 821.15405 4292129733
-26.136696 852.39185 821.15405 4291867329
-22.71468 853.78772 819.71484 4291670467
-30.286238 856.36041 821.88416 4291802054
-28.60367 855.71729 821.34186 4291867334
-26.079817 855.71722 821.34192 4291802049
-28.510092 859.72791 820.79944 4291867849
-38.572475 861.01001 821.88049 4291868360
-35.141285 863.03424 820.97125 4291605699
-28.447706 862.39459 820.43188 4291737544
-26.216513 861.54169 819.71271 4291737030
-23.427523 861.11523 819.35315 4291605704
-13.387156 861.11523 819.35315 4291670981
-8.3669729 861.11523 819.35315 4291736776
1.6733944 861.11523 819.35315 4292660443
3.3467889 861.11523 819.35315 4292660704
-36.693577 865.74664 819.33411 4291736772
-28.354128 865.74664 819.33411 4291672264
-25.852295 865.74664 819.33411 4291606471
-23.350458 865.74664 819.33411 4291671760
-13.34312 865.74664 819.33411 4291540163
-10.841284 865.74664 819.33411 4291606721
-8.3394499 865.74664 819.33411 4291606973
0.83394498 865.74664 819.33411 4292397280
4.1697249 865.74664 819.33411 4292595165
7.5055046 865.74664 819.33411 4292660447
10.841284 865.74664 819.33411 4292660193
41.697247 865.74664 819.33411 4294966015
43.365139 865.74664 819.33411 4294966271
45.866974 865.74664 819.33411 4294966783
49.202751 865.74664 819.33411 4294966015
52.538532 865.74664 819.33411 4294966271
-33.3578 868.29688 821.4845 4291343815
-30.577982 867.87183 821.12616 4291475398
-28.354128 867.6593 820.9469 4291606726
-25.823854 868.34741 820.21899 4291606469
-22.466972 869.6731 820.02869 4291672770
-19.138531 869.6731 820.02869 4291606471
-16.642202 869.6731 820.02869 4291672264
-14.145872 869.6731 820.02869 4291474887
-10.81743 869.6731 820.02869 4291606217
-8.3211012 869.6731 820.02869 4291540424
1.1107033 868.78931 820.15558 4292266456
4.1651378 868.34741 820.21899 4292660447
7.4972477 868.34741 820.21899 4292660447
10.5474 868.78931 820.15558 4292726236
13.313762 869.6731 820.02869 4292923364
44.933945 869.6731 820.02869 4294966527
46.598164 869.6731 820.02869 4294966015
49.094498 869.6731 820.02869 4294965759
52.422935 869.6731 820.02869 4294966527
-28.291742 870.94537 821.10156 4291344583
-25.795414 870.94537 821.10156 4291606471
-22.466972 870.94537 821.10156 4291736776
-19.118347 871.63208 820.3725 4291671751
-16.605505 872.31879 819.64343 4291606471
-14.114679 872.31879 819.64343 4291540420
-10.793578 872.31879 819.64343 4291803334
-7.472477 872.31879 819.64343 4291606216
-4.1513762 872.31879 819.64343 4291803852
-1.6605505 872.31879 819.64343 4292132815
0.83211011 870.94537 821.10156 4292264149
4.1605506 870.94537 821.10156 4292528605
7.4889908 870.94537 821.10156 4292725983
10.793578 872.31879 819.64343 4292726751
14.114679 872.31879 819.64343 4292923364
16.605505 872.31879 819.64343 4292989157
41.51376 872.31879 819.64343 4294966527
44.004585 872.31879 819.64343 4294967039
46.495415 872.31879 819.64343 4294964479
48.986237 872.31879 819.64343 4294965247
52.307343 872.31879 819.64343 4294965503
55.628441 872.31879 819.64343 4294967039
-24.908257 874.85779 821.7843 4291736774
-22.417431 874.22308 821.24908 4291474381
-19.096329 873.58832 820.71387 4291343815
-9.9633026 873.58832 820.71387 4291672514
-1.6605505 873.58832 820.71387 4292067020
0.83027524 873.58832 820.71387 4292329692
4.1513762 873.58832 820.71387 4292528858
7.472477 873.58832 820.71387 4292725729
-22.343121 878.17474 820.65698 4291409610
-19.033028 877.54211 820.12354 4291212999
-16.550459 876.90948 819.59009 4291147201
-9.930275 876.90948 819.59009 4291476166
0.82752293 876.90948 819.59009 4292396505
4.1376147 876.90948 819.59009 4292659423
7.4477062 876.90948 819.59009 4292660447
10.757798 876.90948 819.59009 4292660704
14.06789 876.90948 819.59009 4292858339
16.550459 876.90948 819.59009 4292793828
21.515596 876.90948 819.59009 4293252845
41.376148 876.90948 819.59009 4294966527
44.686237 876.90948 819.59009 4294966783
47.168808 876.90948 819.59009 4294965247
49.651375 876.90948 819.59009 4294964991
52.133945 876.90948 819.59009 4294965503
-24.825687 879.44006 821.72388 4291409608
-22.343121 879.44006 821.72388 4291212483
-18.990826 880.80219 820.25635 4291409608
-16.513762 880.1709 819.72406 4291278785
-14.036697 880.17096 819.72406 4291475396
-10.733945 880.17096 819.72406 4291672264
-7.7064223 879.96045 819.54663 4291672776
-4.1284404 879.53967 819.19177 4291541709
-1.6513761 879.53967 819.19177 4292068055
0.82568806 880.1709 819.72412 4292396246
4.1284404 879.53967 819.19177 4292594402
7.4311924 879.53967 819.19177 4292660191
10.733945 879.53967 819.19177 4292923617
14.311927 879.96045 819.54663 4293055202
16.513762 880.1709 819.72406 4292989410
18.990826 880.1709 819.72412 4293187047
22.293577 880.1709 819.72412 4293319149
25.596329 880.17096 819.72406 4293977591
28.899082 880.1709 819.72412 4294767615
31.376146 880.1709 819.72406 4294967295
33.577984 879.96051 819.54663 4294967295
37.155964 879.53967 819.19177 4294835197
40.458717 880.1709 819.72412 4294966015
43.761467 880.1709 819.72412 4294966015
47.06422 880.17096 819.72406 4294966015
49.541283 880.1709 819.72406 4294966271
52.018349 880.1709 819.72406 4294833662
55.321102 880.17096 819.72406 4294966015
58.623856 879.53967 819.19177 4294636543
61.926605 879.53967 819.19177 4294899711
64.403671 879.53967 819.19177 4294967039
66.055046 879.53967 819.19177 4294966271
-24.770641 882.0647 821.3208 4291869900
-22.002447 882.93774 821.18488 4291672776
-18.969725 883.37427 821.11694 4291607241
-16.477064 884.05396 820.38202 4291541447
-14.005505 884.05389 820.38208 4291541191
-10.710092 884.05389 820.38208 4291606728
-7.4146786 884.05396 820.38202 4291672521
-4.119266 883.42407 819.85095 4291606731
-1.6477064 883.42407 819.85095 4292329945
0.82385319 884.05389 820.38208 4292461528
4.119266 883.42407 819.85095 4292988387
10.710092 883.42407 819.85095 4292594398
14.005505 883.42407 819.85095 4292725213
16.477064 883.42407 819.85095 4292857569
18.948624 883.42407 819.85095 4293449453
22.244038 883.42407 819.85095 4293713394
25.53945 883.42407 819.85095 4293780212
28.834862 883.42407 819.85095 4294570239
32.130276 883.42407 819.85095 4294967295
34.601833 883.42407 819.85095 4294967295
37.073395 883.42407 819.85095 4294967295
40.368805 883.42407 819.85095 4294965247
43.971863 883.39087 820.69501 4294964991
47.011925 883.37427 821.11694 4294964991
49.486237 883.37427 821.11694 4294964223
51.959633 882.74438 820.58588 4294701310
55.198166 883.42407 819.85095 4294965247
57.669724 883.42407 819.85095 4294964990
65.908257 883.42407 819.85095 4294965759
67.555962 883.42407 819.85095 4294965759
-24.715597 885.94342 821.97522 4291671751
-22.244038 885.94342 821.97522 4291606471
-18.948624 885.94342 821.97522 4291673031
-16.422018 887.97406 819.76331 4291475401
-13.980734 886.95874 820.86926 4291541190
-10.674313 887.97406 819.76331 4291672518
-7.3899078 887.97406 819.76331 4291869898
-4.1055045 887.97406 819.76331 4291738311
0.82110089 887.97406 819.76331 4292659157
4.1055045 887.97406 819.76331 4292791263
11.495413 887.97406 819.76331 4293383148
13.958715 887.97406 819.76331 4292988894
16.422018 887.97406 819.76331 4292923360
19.706423 887.97406 819.76331 4292726238
22.169724 887.97406 819.76331 4293450477
25.454128 887.97406 819.76331 4293451248
28.738533 887.97406 819.76331 4294635775
32.844036 887.97406 819.76331 4294967295
36.949539 887.97406 819.76331 4294835709
40.233948 887.97406 819.76331 4294701822
43.518349 887.97406 819.76331 4294898943
46.80275 887.97406 819.76331 4294964733
50.087158 887.97406 819.76331 4294635259
-24.633028 890.48499 821.88049 4291802315
-22.169724 889.8573 821.3512 4291737031
-18.885323 889.22955 820.8219 4291606471
-16.422018 889.22955 820.8219 4291672264
-13.958715 889.22955 820.8219 4291474629
-10.663303 889.90503 820.08344 4291605958
-7.3899078 889.22955 820.8219 4292000971
-4.0963306 890.58051 819.34497 4291935178
-1.6385322 890.58051 819.34497 4292461265
0.82110089 889.22955 820.8219 4292527575
4.0963306 890.58051 819.34497 4292660445
7.3733945 890.58051 819.34497 4292660447
10.650459 890.58051 819.34497 4293054179
13.927523 890.58051 819.34497 4292923616
16.385321 890.58051 819.34497 4292792544
18.843121 890.58051 819.34497 4292792799
22.120182 890.58051 819.34497 4293516525
25.397247 890.58051 819.34497 4293582576
28.674313 890.58051 819.34497 4294174716
31.951376 890.58051 819.34497 4294967295
34.409176 890.58051 819.34497 4294967295
36.866974 890.58051 819.34497 4294769916
40.144035 890.58051 819.34497 4294702077
43.421101 890.58051 819.34497 4294833406
46.698166 890.58051 819.34497 4294832634
49.975227 890.58051 819.34497 4294569723
52.433029 890.58051 819.34497 4294832895
64.722015 890.58051 819.34497 4294965247
67.999084 890.58051 819.34497 4294965247
-21.300917 892.45953 820.92932 4291736774
-18.843121 892.45953 820.92932 4291539912
-16.385321 891.83319 820.40125 4291343815
-13.927523 891.83319 820.40125 4291277506
-11.469725 891.83319 820.40125 4291605956
-7.373395 892.45953 820.92932 4291804105
-4.0963306 891.83319 820.40125 4291869388
0.81926608 892.45953 820.92932 4292461785
4.0963306 892.45953 820.92932 4292726234
7.3733945 892.45953 820.92932 4292594140
10.650459 892.45953 820.92932 4292725728
13.927523 892.45953 820.92932 4292725980
16.385321 891.83319 820.40125 4292726753
18.843121 891.83319 820.40125 4292924131
22.120182 891.83319 820.40125 4293319403
25.397247 891.83319 820.40125 4293911541
28.674313 891.83319 820.40125 4294240765
31.951376 891.83319 820.40125 4294967295
34.409176 892.45953 820.92932 4294967295
36.866974 891.83319 820.40125 4294704122
40.144035 892.45953 820.92932 4294701562
43.421101 892.45953 820.92932 4294899197
46.698166 891.83319 820.40125 4294899192
65.541283 892.45953 820.92932 4294966271
68.272179 892.25073 820.75323 4294965759
-16.893578 895.26447 820.67822 4291474378
-13.896331 895.05615 820.50256 4291475145
-10.626606 895.05615 820.50262 4291606473
-7.3568807 895.68109 821.02954 4291869646
-4.0871563 895.05615 820.50256 4291869389
-1.6348624 895.05615 820.50262 4292461273
1.6348624 895.68109 821.02954 4292593114
4.9045873 895.68109 821.02954 4293120475
7.3568807 895.68109 821.02954 4292791261
13.89633 895.68109 821.02954 4292528857
17.166054 895.05615 820.50262 4292791777
19.618349 895.05615 820.50262 4292596189
21.798164 894.84784 820.32697 4293056742
25.612844 894.84784 820.32697 4293714674
28.61009 895.05615 820.50256 4294109434
31.879816 895.05615 820.50256 4294967039
35.42202 895.26447 820.67822 4294967295
37.601833 895.05615 820.50262 4294177778
40.054131 895.68109 821.02954 4294701050
43.323853 895.68109 821.02954 4294964479
46.593578 895.05615 820.50256 4294965242
49.590824 894.84784 820.32697 4294569466
53.133026 894.43121 819.97571 4294963455
55.58532 894.43121 819.97571 4294831611
58.037613 894.43121 819.97571 4294832382
61.034863 894.84784 820.32697 4294965759
64.304588 895.26447 820.67822 4294966271
67.029358 894.43121 819.97571 4294965759
-16.293577 898.94055 819.85376 4291606217
-13.849541 898.94055 819.85376 4291606217
-9.7761469 898.94055 819.85376 4291671753
-3.2587156 898.94055 819.85376 4291934417
-1.6293578 898.94055 819.85376 4292526810
17.108257 898.94055 819.85376 4292594654
19.552294 898.94055 819.85376 4292726238
21.99633 898.94055 819.85376 4293055461
25.255047 898.94055 819.85376 4293516781
28.513762 898.94055 819.85376 4294043640
31.772476 898.94055 819.85376 4294966527
34.216515 898.94055 819.85376 4294967295
40.733944 898.94055 819.85376 4294898170
42.363304 898.94055 819.85376 4294766589
46.436699 898.94055 819.85376 4294767354
49.695412 898.94055 819.85376 4294635770
52.954128 898.94055 819.85376 4294964991
55.398167 898.94055 819.85376 4294963455
57.842201 898.94055 819.85376 4294963966
61.100918 898.94055 819.85376 4294964478
63.544952 898.94055 819.85376 4294965503
-21.181652 901.43182 821.95435 4291738311
-19.552294 901.43182 821.95435 4291672516
-17.108257 900.80896 821.4292 4291606725
-13.833944 901.47601 820.68372 4291605959
-10.578898 901.47607 820.68365 4291869130
-7.3238535 901.47601 820.68372 4291737797
-4.0715599 901.14258 821.05646 4291869385
-1.6275229 901.47607 820.68365 4292461271
0.81467891 901.43182 821.95435 4292330196
4.0733948 901.43182 821.95435 4292593114
7.5975533 901.46124 821.10724 4292593632
10.846484 901.90601 820.61017 4292791518
13.833945 901.47601 820.68372 4292658653
16.798777 901.93732 819.76465 4292462303
19.508257 901.52307 819.41528 4292660191
21.946789 901.52307 819.41528 4293054948
25.469114 901.93732 819.76465 4293450730
28.72049 901.93732 819.76465 4293977333
31.971863 901.93732 819.76465 4294966527
34.991745 901.47607 820.68365 4294967295
37.433029 901.47607 820.68365 4293914606
39.87431 901.47601 820.68372 4294569718
43.129356 901.47607 820.68365 4294569465
46.095409 901.4917 820.26093 4294766843
49.583488 901.52307 819.41528 4294833149
52.563915 901.93732 819.76465 4294898685
56.086239 902.14453 819.93927 4294899455
58.524769 901.52307 819.41528 4294965759
60.963303 901.52307 819.41528 4294966015
64.485626 901.93732 819.76465 4294899966
66.653214 902.14453 819.93927 4294965247
-21.133945 904.00879 821.51111 4291672516
-17.069725 904.00879 821.51111 4291672007
-13.818348 904.00879 821.51111 4291737544
-10.566973 904.00879 821.51111 4291869387
-7.3155961 904.00879 821.51111 4291869644
-4.0642204 904.00879 821.51111 4291869133
-1.6256881 904.00879 821.51111 4292066259
4.0642204 904.00879 821.51111 4292593881
7.3064222 904.67444 820.76434 4292791263
10.566973 904.00879 821.51111 4292988122
13.803669 904.67444 820.76434 4292723939
17.031193 905.34009 820.01758 4292592867
19.46422 905.34009 820.01758 4292528606
21.897247 905.34009 820.01758 4292791778
25.141285 905.34009 820.01758 4292792291
28.385323 905.34009 820.01758 4293779956
31.629358 905.34009 820.01758 4294965759
34.873394 905.34009 820.01758 4294967295
38.117432 905.34009 820.01758 4294044911
40.550457 905.34009 820.01758 4294964733
42.983486 905.34009 820.01758 4294635000
46.227524 905.34009 820.01758 4294701304
49.471558 905.34009 820.01758 4294635002
52.715595 905.34009 820.01758 4294832383
55.959633 905.34009 820.01758 4294899199
58.392662 905.34009 820.01758 4294964991
60.825687 905.34009 820.01758 4294966271
64.14312 904.67444 820.76434 4294966015
66.653214 904.00879 821.51111 4294965501
-13.787156 906.58014 821.06311 4291672006
-10.543119 906.58014 821.06311 4291606213
-7.2990828 906.58014 821.06311 4291934921
-3.2440367 906.58014 821.06311 4291934670
-1.6220183 906.58014 821.06311 4292395221
4.0550461 906.58014 821.06311 4292396505
7.2990828 906.58014 821.06311 4292658393
10.543119 906.58014 821.06311 4292789466
13.787156 906.58014 821.06311 4292789473
17.031193 906.58014 821.06311 4292527069
19.46422 906.58014 821.06311 4292462809
21.086239 906.58014 821.06311 4292726238
25.952293 906.58014 821.06311 4292530655
31.629358 906.58014 821.06311 4294966015
34.873394 906.58014 821.06311 4294967295
38.117432 906.58014 821.06311 4294044399
40.550457 906.58014 821.06311 4294766840
42.983486 906.58014 821.06311 4294635513
46.227524 906.58014 821.06311 4294898170
49.471558 906.58014 821.06311 4294569209
52.715595 906.58014 821.06311 4294635516
55.959633 906.58014 821.06311 4294898687
58.392662 906.58014 821.06311 4294832895
60.825687 906.58014 821.06311 4294964991
63.258717 906.58014 821.06311 4294966271
-17.781651 911.04456 820.90332 4291409606
-13.740367 911.04456 820.90332 4291475397
-10.507339 911.04456 820.90332 4291673032
-8.0825691 911.04456 820.90332 4291541959
-4.8495412 910.42664 820.38232 4292001227
-1.6165137 910.42664 820.38232 4292461011
0 911.04456 820.90332 4292132302
4.0412846 911.04456 820.90332 4292133847
7.274312 910.42664 820.38232 4292856280
10.507339 910.42664 820.38232 4292723672
13.740366 910.42664 820.38232 4292658908
16.973394 910.42664 820.38232 4292462045
19.398165 910.42664 820.38232 4292265686
21.822937 910.42664 820.38232 4292660187
25.055964 910.42664 820.38232 4292989666
28.28899 910.42664 820.38232 4293385453
31.522018 910.42664 820.38232 4294768639
34.485626 910.63263 820.55597 4294967295
38.257492 910.63263 820.55597 4294175731
40.412846 910.42664 820.38232 4294832893
42.837616 910.42664 820.38232 4294898171
46.070641 910.42664 820.38232 4294897403
49.303673 910.42664 820.38232 4294831612
52.536697 910.42664 820.38232 4294832380
55.769722 910.42664 820.38232 4294898942
58.733337 910.63263 820.55597 4294964223
61.427525 911.04456 820.90332 4294963711
63.044037 911.04456 820.90332 4294964991
-25.86422 912.2804 821.94543 4291736522
-17.229359 913.13153 821.79102 4291672006
-13.72477 913.55701 821.71375 4291869129
-10.483486 914.21704 820.96216 4291804362
-7.1031189 913.31903 821.25146 4291804362
-3.8730278 913.58313 820.95099 4292132301
-1.612844 914.21704 820.96222 4292461010
0.80825686 912.2804 821.94543 4292461012
4.0412846 912.2804 821.94543 4292199892
7.2660551 913.55695 821.71375 4292790231
10.495413 913.55701 821.71375 4292790487
13.724771 913.55701 821.71375 4292593621
16.954128 913.55695 821.71375 4292461533
19.90642 913.98248 821.63654 4292330712
22.075232 913.13153 821.79102 4292200409
25.027523 913.55701 821.71375 4292200409
27.998777 913.13153 821.79102 4293319146
31.522018 912.2804 821.94543 4294767871
34.997555 913.13141 821.79102 4294967295
37.944954 913.55701 821.71375 4294439157
41.150459 913.88696 821.33801 4294766586
43.546787 914.21704 820.96222 4294832381
45.697247 914.01154 820.78888 4294897916
49.460552 914.01154 820.78888 4294897148
52.686237 914.01154 820.78888 4294898686
55.674313 913.88696 821.33801 4294965503
58.689301 913.13141 821.79102 4294964735
61.872173 913.98248 821.63654 4294964990
63.044037 912.2804 821.94543 4294965759
14.482569 917.3811 821.01404 4292265419
17.700918 917.3811 821.01404 4292264917
19.310091 917.3811 821.01404 4292264151
46.129665 916.97101 820.66827 4294898172
48.811626 916.97101 820.66827 4294963708
52.029968 916.97101 820.66827 4294832895
55.516514 917.3811 821.01404 4294965503
57.930275 917.3811 821.01404 4294964990
61.953209 917.3811 821.01404 4294964990
46.559631 919.92291 820.54126 4294832893
-10.43578 921.15033 821.57617 4291934668
-8.027523 921.15033 821.57617 4291803850
17.660551 921.15033 821.57617 4292265689
40.940369 921.15033 821.57617 4294701304
44.151375 921.15033 821.57617 4294964733
46.559631 921.15033 821.57617 4294898940
52.178902 921.15033 821.57617 4294899199
55.389908 921.15033 821.57617 4294965247
57.798164 921.15033 821.57617 4294965247
61.811928 921.15033 821.57617 4294897405
-37.871559 791.4574 823.40491 4291671750
-36.990826 792.80408 824.54041 4291934920
-34.241287 794.99463 822.46338 4291738057
-34.5107 797.27032 823.51019 4291738060
-31.541285 797.79462 822.20813 4292066255
-33.293579 799.13428 823.33765 4291738318
-33.188992 803.31958 822.9425 4292133846
-33.990826 806.76904 823.23499 4292198611
-31.376146 805.4364 822.11133 4291936719
-34.862385 808.10168 824.35864 4292133065
-36.104588 826.68542 823.02356 4291803850
-34.385323 827.34265 823.5777 4291869389
-32.092968 827.56171 823.76239 4291934412
-29.133945 830.13147 822.005 4291999180
-31.704586 832.09674 823.66211 4291737288
-34.201836 836.78198 824.99658 4291801535
-31.636698 835.47461 823.89423 4291801798
-30.68257 838.89679 822.85571 4291736776
-30.616514 841.60706 822.5249 4291407813
-28.915596 841.60706 822.5249 4291670729
-34.755962 847.60608 823.65894 4291933636
-34.680733 850.94482 823.85803 4291868616
-28.759632 849.00476 822.22217 4292064964
-37.097248 854.97015 823.328 4291672262
-34.56789 854.97015 823.328 4291671496
-31.476454 854.11066 822.60333 4291801801
-37.857796 857.64673 822.96875 4291605701
-34.529358 856.953 823.69183 4291605701
-31.127522 857.64673 822.96875 4291802312
-31.127522 858.93311 824.05334 4291671751
-38.572475 863.57428 824.0426 4291539397
-31.025688 862.93323 823.50208 4291671752
-36.814678 865.5929 823.1286 4291408324
-35.141285 865.5929 823.1286 4291474116
-34.191742 869.57196 822.55957 4291213253
-30.855965 869.57196 822.55957 4291278791
-33.913761 871.27216 823.99316 4291540932
-30.855965 871.48462 824.17236 4291474884
-28.291742 872.21771 822.17432 4291540678
-25.795414 872.21771 822.17432 4291605704
-31.620184 874.76233 824.31982 4291736776
-28.846481 874.3382 823.96222 4291474111
-26.627523 874.12616 823.78345 4291671238
-28.782875 878.24316 824.63885 4291539905
-25.738533 876.76208 823.38995 4291540679
-28.13578 881.97064 823.85767 4291606723
-26.480734 881.33801 823.32422 4291540678
-28.899082 884.58966 823.44983 4291606721
-25.596329 883.95837 822.9176 4291606215
-23.119267 883.32715 822.38538 4291607241
-28.834862 887.20312 823.03735 4291605956
-25.53945 887.20312 823.03735 4291736774
-23.06789 887.20312 823.03735 4291605958
-28.834862 888.46283 824.09949 4291605958
-26.363302 888.46283 824.09949 4291802315
-28.738533 892.36829 823.46838 4291541188
-25.727829 892.159 823.29199 4291802822
-22.990826 891.74048 822.93909 4291868360
-28.674313 896.21753 824.0979 4291540929
-25.397249 895.59119 823.56982 4291672003
-22.108257 895.2998 822.67017 4291671493
-19.640368 895.6347 822.29852 4291605964
-17.983486 896.93091 822.08337 4291606217
-11.444036 896.93091 822.08337 4291737546
-7.3568807 896.93091 822.08337 4291869643
-4.9045873 896.93091 822.08337 4291607493
0.54495412 896.06671 822.22681 4292329941
3.8171256 896.06671 822.22681 4292857050
7.3568807 896.93091 822.08337 4292790750
10.638533 895.63464 822.29852 4292792029
13.89633 896.93091 822.08337 4292594652
35.966972 896.93091 822.08337 4294967295
37.601833 896.93091 822.08337 4294046193
39.236698 896.93091 822.08337 4294240240
44.141285 896.93091 822.08337 4294766589
65.394493 896.93091 822.08337 4294964735
67.104584 895.6347 822.29852 4294965759
-28.610092 899.43066 824.19104 4291606210
-25.067888 899.01398 823.83978 4291671492
-22.343119 898.59741 823.48846 4291672517
-19.618349 898.18079 823.13721 4291672514
0.81743121 898.18079 823.13721 4292330197
4.0871563 898.18079 823.13721 4292791513
6.5394497 898.18079 823.13721 4292791011
9.8091745 898.18079 823.13721 4292791263
-25.255047 902.67749 823.00464 4291605188
-22.811008 902.67749 823.00464 4291672516
-19.552294 902.67749 823.00464 4291672262
0.81467891 902.67749 823.00464 4292329944
-27.636698 905.25165 822.55908 4291474120
-25.198166 905.25165 822.55908 4291539649
-21.946789 905.25165 822.55908 4291540164
-19.508257 905.25165 822.55908 4291540678
-17.069725 905.25165 822.55908 4291672264
-4.8770642 905.25165 822.55908 4292000714
0.81284404 905.25165 822.55908 4292330710
65.027519 905.25165 822.55908 4294966783
66.653214 905.25165 822.55908 4294965503
-28.449541 907.11584 824.13098 4291737034
-25.198166 906.49445 823.60706 4291671751
-22.201834 907.35065 823.45685 4291475142
-19.508257 906.49445 823.60706 4291409095
-17.031193 907.82019 822.10876 4291540679
-13.787156 907.82019 822.10876 4291540421
-10.543119 907.82019 822.10876 4291606213
-7.2990828 907.82019 822.10876 4291804106
-3.2440367 907.82019 822.10876 4292066255
0.81100917 907.82019 822.10876 4292330195
4.0550461 907.82019 822.10876 4292330458
35.684402 907.82019 822.10876 4294967295
37.306423 907.82019 822.10876 4294112240
60.825687 907.82019 822.10876 4294965503
64.069725 907.82019 822.10876 4294966271
66.502754 907.82019 822.10876 4294965503
-29.196331 910.30029 824.19983 4291670983
-24.870947 909.47363 823.50275 4291868618
-21.626913 909.88696 823.85132 4291606726
-19.46422 909.6803 823.67706 4291540935
-16.220184 909.06024 823.1543 4291475655
1.6220183 909.06024 823.1543 4292461267
64.880737 909.6803 823.67706 4294898943
66.502754 909.6803 823.67706 4294964735
-28.28899 914.75208 824.02942 4291605958
-25.055965 914.13416 823.50842 4291670985
-22.092356 913.92822 823.33478 4291934666
-19.398165 913.51624 822.98743 4291869125
-16.165138 913.51624 822.98743 4291802567
0.80825686 913.51624 822.98743 4292462035
4.0412846 913.51624 822.98743 4292527573
29.097248 913.51624 822.98743 4293056236
31.522018 913.51624 822.98743 4294372350
33.946789 913.51624 822.98743 4294967295
59.811008 913.51624 822.98743 4294965247
64.660553 914.75208 824.02942 4294898170
67.08532 914.13416 823.50842 4294767099
-24.999083 917.29962 823.5614 4291540165
-22.579817 917.29962 823.5614 4291341766
-19.891741 916.4776 822.86835 4291803077
-16.666056 916.4776 822.86835 4291802821
-13.440366 916.4776 822.86835 4291934408
-10.483486 916.06659 822.52173 4291869385
-7.2577982 916.68311 823.04156 4291803850
-4.0321102 916.68311 823.04163 4291803851
-1.612844 916.06659 822.52173 4292790750
