# .PCD v0.7 - Point Cloud Data file format
VERSION 0.7
FIELDS x y z rgb
SIZE 4 4 4 4
TYPE F F F U
COUNT 1 1 1 1
WIDTH 1152
HEIGHT 1
VIEWPOINT 0 0 0 1 0 0 0
POINTS 1152
DATA ascii
-37.813759 895.39954 1289.0669 4294967295
-34.376148 895.39954 1289.0669 4294967295
-32.084404 895.39954 1289.0669 4294967295
-28.64679 895.39954 1289.0669 4294967295
-25.209175 895.39954 1289.0669 4294967295
-22.917431 895.39954 1289.0669 4294967295
-19.479816 895.39954 1289.0669 4294967295
-41.119267 902.55524 1289.8682 4294967295
-37.692657 902.55524 1289.8682 4294967295
-34.266056 902.55524 1289.8682 4294967295
-31.981651 902.55524 1289.8682 4294967295
-28.555046 901.68201 1289.1318 4294967295
-25.128441 901.68201 1289.1318 4294967295
-22.844036 901.68201 1289.1318 4294967295
-19.417431 902.55524 1289.8682 4294967295
-40.954128 908.40845 1288.2634 4294967295
-37.541283 908.40845 1288.2634 4294967295
-34.128441 908.40845 1288.2634 4294967295
-31.85321 908.40845 1288.2634 4294967295
-27.302752 908.40845 1288.2634 4294967295
-25.027523 908.40845 1288.2634 4294967295
-22.752293 908.40845 1288.2634 4294967295
-20.477064 908.40845 1288.2634 4294967295
-43.229359 910.14789 1289.7301 4294967295
-40.954128 910.14789 1289.7301 4294967295
-18.201836 910.14789 1289.7301 4294967295
-43.089909 913.7644 1287.5472 4294967295
-40.822018 913.7644 1287.5472 4294967295
-37.420181 913.7644 1287.5472 4294967295
-34.018349 913.7644 1287.5472 4294967295
-31.750458 913.7644 1287.5472 4294967295
-28.348625 913.7644 1287.5472 4294967295
-24.946789 913.7644 1287.5472 4294967295
-22.6789 913.7644 1287.5472 4294967295
-20.411009 913.7644 1287.5472 4294967295
-43.089909 915.49823 1289.0092 4294967295
-40.822018 915.49823 1289.0092 4294967295
-37.420181 915.49823 1289.0092 4294967295
-34.018349 915.49823 1289.0092 4294967295
-31.750458 915.49823 1289.0092 4294967295
-29.482569 915.49823 1289.0092 4294967295
-24.946789 915.49823 1289.0092 4294967295
-22.6789 915.49823 1289.0092 4294967295
-19.277065 915.49823 1289.0092 4294967295
-15.875229 915.49823 1289.0092 4294967295
-40.689907 920.82611 1288.2694 4294967295
-37.299084 920.82611 1288.2694 4294967295
-33.908257 920.82611 1288.2694 4294967295
-31.647707 920.82611 1288.2694 4294967295
-28.256882 920.82611 1288.2694 4294967295
-24.866055 920.82611 1288.2694 4294967295
-22.605505 920.82611 1288.2694 4294967295
-42.950459 922.55432 1289.7266 4294967295
-40.689907 922.55432 1289.7266 4294967295
-37.299084 922.55432 1289.7266 4294967295
-33.908257 922.55432 1289.7266 4294967295
-31.647707 922.55432 1289.7266 4294967295
-28.256882 922.55432 1289.7266 4294967295
-24.866055 922.55432 1289.7266 4294967295
-22.605505 922.55432 1289.7266 4294967295
-29.267889 930.03619 1289.4949 4294967295
-61.559631 754.83624 1292.1943 4290034923
-59.097248 754.83624 1292.1943 4292203263
-12.311927 754.83624 1292.1943 4294967295
-61.330276 761.34033 1291.1383 4290035442
-58.877064 761.34033 1291.1383 4292137727
-9.8128443 761.34033 1291.1383 4291615711
-61.330276 763.21582 1292.7196 4289837808
-9.8128443 763.21582 1292.7196 4294967295
-7.359633 763.21582 1292.7196 4294967295
-58.656879 767.81641 1290.0586 4292400383
-56.212845 767.81641 1290.0586 4294967295
-52.546791 767.81641 1290.0586 4294967295
-48.880733 767.81641 1290.0586 4294967295
-13.442202 767.81641 1290.0586 4294967295
-9.7761469 767.81641 1290.0586 4294967295
-58.656879 769.68494 1291.634 4292532223
-56.212845 769.68494 1291.634 4294967295
-52.546791 769.68494 1291.634 4294967295
-12.220183 769.68494 1291.634 4294967295
-9.7761469 769.68494 1291.634 4294967295
-58.436699 776.12592 1290.5248 4293123839
-56.001835 776.12592 1290.5248 4294967295
-53.566971 776.12592 1290.5248 4294967295
-14.609175 776.12592 1290.5248 4294967295
-58.436699 777.98743 1292.0944 4293255679
-56.001835 777.98743 1292.0944 4294967295
-53.566971 777.98743 1292.0944 4294967295
-13.391743 777.98743 1292.0944 4294967295
-9.7394495 777.98743 1292.0944 4294967295
-55.748623 784.92993 1290.1 4294967295
-53.324772 784.92993 1290.1 4294967295
-16.966972 784.92993 1290.1 4294967295
-14.543119 784.92993 1290.1 4294967295
-58.172478 786.78302 1291.6624 4293781759
-55.748623 786.78302 1291.6624 4294967295
-16.966972 786.78302 1291.6624 4294967295
-14.543119 786.78302 1291.6624 4294967295
-57.952293 794.0741 1291.2698 4294176767
-55.537613 793.15112 1290.4916 4294967295
-19.31743 793.15112 1290.4916 4294967295
-16.902752 794.99713 1292.0481 4294967295
-60.137615 803.16913 1292.3984 4290824447
-57.732109 802.24963 1291.6232 4294176767
-55.326607 802.24963 1291.6232 4294967295
-52.921101 801.33008 1290.8479 4294967295
-16.838531 801.33008 1290.8479 4294967295
-14.433027 802.24963 1291.6232 4294967295
-57.511925 809.46704 1291.1686 4293716479
-55.115597 809.46704 1291.1686 4294967295
-52.719265 809.46704 1291.1686 4294967295
-50.322937 809.46704 1291.1686 4294967295
-16.774311 809.46704 1291.1686 4294967295
-14.377981 809.46704 1291.1686 4294967295
-57.511925 811.29907 1292.7133 4293650687
-55.115597 811.29907 1292.7133 4294967295
-52.719265 811.29907 1292.7133 4294967295
-50.322937 811.29907 1292.7133 4294967295
-16.774311 811.29907 1292.7133 4294967295
-14.377981 811.29907 1292.7133 4294967295
-52.517429 817.56201 1291.4539 4294967295
-50.130276 817.56201 1291.4539 4294967295
-16.710093 817.56201 1291.4539 4294967295
-57.291744 819.38696 1292.9927 4293584127
-54.904587 819.38696 1292.9927 4294967295
-52.517429 819.38696 1292.9927 4294967295
-16.710093 819.38696 1292.9927 4294967295
-54.735779 823.27979 1291.0428 4294967295
-52.355965 823.27979 1291.0428 4294967295
-49.976147 823.27979 1291.0428 4294967295
-47.596329 823.27979 1291.0428 4294967295
-19.038532 823.27979 1291.0428 4294967295
-57.115597 825.09918 1292.5769 4293979135
-54.735779 825.09918 1292.5769 4294967295
-16.658716 825.09918 1292.5769 4294967295
-55.314983 832.51001 1292.2853 4294374911
-52.154129 832.20795 1292.0306 4294967295
-49.783485 831.30176 1291.2666 4294967295
-16.594496 831.30176 1291.2666 4294967295
-14.223853 832.20795 1292.0306 4294967295
-11.853211 833.11414 1292.7947 4294967295
-51.952293 839.28162 1291.4548 4294967295
-49.590824 839.28162 1291.4548 4294967295
-47.229359 839.28162 1291.4548 4294967295
-44.867889 839.28162 1291.4548 4294967295
-21.25321 839.28162 1291.4548 4294967295
-18.891743 839.28162 1291.4548 4294967295
-16.530275 839.28162 1291.4548 4294967295
-14.168807 839.28162 1291.4548 4294967295
-51.952293 841.08698 1292.9771 4294967295
-49.590824 841.08698 1292.9771 4294967295
-47.229359 841.08698 1292.9771 4294967295
-44.867889 841.08698 1292.9771 4294967295
-16.530275 841.08698 1292.9771 4294967295
-14.168807 841.08698 1292.9771 4294967295
-11.80734 841.08698 1292.9771 4294967295
-47.045872 845.42102 1290.0913 4294967295
-44.693577 845.42102 1290.0913 4294967295
-22.34679 845.42102 1290.0913 4294967295
-18.818348 845.42102 1290.0913 4294967295
-47.045872 847.21942 1291.6075 4294967295
-44.693577 847.21942 1291.6075 4294967295
-22.34679 847.21942 1291.6075 4294967295
-18.818348 847.21942 1291.6075 4294967295
-46.862385 853.32373 1290.2145 4294967295
-44.519264 853.32373 1290.2145 4294967295
-22.259632 853.32373 1290.2145 4294967295
-49.205505 855.11505 1291.7249 4294967295
-49.051376 860.68701 1291.1909 4294967295
-46.715595 860.68701 1291.1909 4294967295
-18.686239 860.68701 1291.1909 4294967295
-49.051376 862.47278 1292.6965 4294967295
-46.715595 862.47278 1292.6965 4294967295
-44.379818 862.47278 1292.6965 4294967295
-18.686239 862.47278 1292.6965 4294967295
-48.858715 868.50977 1291.2467 4294967295
-46.532108 868.50977 1291.2467 4294967295
-44.205505 868.50977 1291.2467 4294967295
-16.286238 868.50977 1291.2467 4294967295
-48.858715 870.28845 1292.7465 4294967295
-46.532108 870.28845 1292.7465 4294967295
-16.286238 870.28845 1292.7465 4294967295
-48.666054 877.17627 1292.0139 4294967295
-46.348625 876.29041 1291.267 4294967295
-18.53945 877.17627 1292.0139 4294967295
-48.511925 881.77826 1290.6621 4294967295
-19.63578 881.77826 1290.6621 4294967295
-48.511925 883.54431 1292.1511 4294967295
-18.480734 883.54431 1292.1511 4294967295
-48.319267 889.48596 1290.6208 4294967295
-46.018349 889.48596 1290.6208 4294967295
-43.71743 889.48596 1290.6208 4294967295
-40.266056 889.48596 1290.6208 4294967295
-36.814678 889.48596 1290.6208 4294967295
-25.310091 889.48596 1290.6208 4294967295
-19.557798 889.48596 1290.6208 4294967295
-48.319267 891.245 1292.104 4294967295
-46.018349 891.245 1292.104 4294967295
-18.407339 891.245 1292.104 4294967295
-45.834862 898.90363 1292.0215 4294967295
-43.543118 898.02759 1291.2828 4294967295
-41.251377 898.02759 1291.2828 4294967295
-37.813759 898.02759 1291.2828 4294967295
-34.376148 898.02759 1291.2828 4294967295
-32.084404 898.02759 1291.2828 4294967295
-28.64679 897.15161 1290.5442 4294967295
-25.209175 897.15161 1290.5442 4294967295
-22.917431 897.15161 1290.5442 4294967295
-19.479816 898.02759 1291.2828 4294967295
-16.042202 898.90363 1292.0215 4294967295
-43.403671 904.3017 1291.3408 4294967295
-41.119267 904.3017 1291.3408 4294967295
-37.692657 904.3017 1291.3408 4294967295
-34.266056 904.3017 1291.3408 4294967295
-19.417431 904.3017 1291.3408 4294967295
-15.990826 904.3017 1291.3408 4294967295
-46.830276 906.04816 1292.8134 4294967295
-43.403671 906.04816 1292.8134 4294967295
-18.275229 906.04816 1292.8134 4294967295
-15.990826 906.04816 1292.8134 4294967295
-13.706422 906.04816 1292.8134 4294967295
-46.6422 911.88733 1291.1967 4294967295
-18.201836 911.88733 1291.1967 4294967295
-15.926605 911.88733 1291.1967 4294967295
-52.330276 913.62671 1292.6633 4294967295
-50.055046 913.62671 1292.6633 4294967295
-46.6422 913.62671 1292.6633 4294967295
-46.491745 917.23206 1290.4711 4294967295
-43.089909 917.23206 1290.4711 4294967295
-40.822018 917.23206 1290.4711 4294967295
-38.554127 917.23206 1290.4711 4294967295
-18.14312 917.23206 1290.4711 4294967295
-15.875229 917.23206 1290.4711 4294967295
-46.491745 918.96588 1291.933 4294967295
-43.089909 918.96588 1291.933 4294967295
-19.277065 918.96588 1291.933 4294967295
-42.950459 925.14661 1291.9124 4294967295
-40.689907 925.14661 1291.9124 4294967295
-37.299084 925.14661 1291.9124 4294967295
-33.908257 925.14661 1291.9124 4294967295
-31.647707 925.14661 1291.9124 4294967295
-28.256882 925.14661 1291.9122 4294967295
-24.866055 925.14661 1291.9124 4294967295
-22.605505 925.14661 1291.9124 4294967295
-20.344954 925.14661 1291.9124 4294967295
-31.519266 931.75739 1290.9462 4294967295
-29.267889 931.75739 1290.9462 4294967295
-27.016514 933.47858 1292.3975 4294967295
-22.513762 933.47858 1292.3975 4294967295
-64.022018 758.60126 1295.3689 4289245925
-61.559631 756.71875 1293.7816 4289969648
-9.8495417 756.71875 1293.7816 4293123796
-7.387156 758.60126 1295.3689 4294967295
-67.463303 766.9668 1295.8823 4289770470
-63.783485 766.02905 1295.0917 4289113058
-61.330276 766.02905 1295.0917 4290165746
-7.359633 766.02905 1295.0917 4294967295
-64.359627 772.79907 1294.2598 4289442531
-61.100918 772.48767 1293.9972 4290363887
-58.656879 771.55341 1293.2095 4292794879
-12.220183 772.48767 1293.9972 4294967295
-9.7761469 772.48767 1293.9972 4294967295
-7.3321099 772.48767 1293.9972 4294967295
-58.436699 779.84888 1293.6639 4293583615
-56.001835 779.84888 1293.6639 4294967295
-12.174312 779.84888 1293.6639 4294967295
-9.7394495 779.84888 1293.6639 4294967295
-63.306423 781.71033 1295.2334 4289245412
-60.871559 781.71033 1295.2334 4290955773
-58.436699 781.71033 1295.2334 4293649919
-12.174312 781.71033 1295.2334 4294967295
-9.7394495 781.71033 1295.2334 4294967295
-58.172478 788.63611 1293.2249 4294044927
-14.543119 788.63611 1293.2249 4294967295
-60.596329 790.48914 1294.7874 4291087359
-16.966972 790.48914 1294.7874 4294967295
-14.543119 790.48914 1294.7874 4294967295
-60.366974 796.8432 1293.6047 4291217919
-57.952293 796.8432 1293.6047 4294242559
-14.488073 796.8432 1293.6047 4294967295
-61.57431 798.68921 1295.1613 4289969138
-60.137615 805.92767 1294.7244 4290824191
-57.732109 805.00818 1293.9491 4293979135
-12.027523 805.92767 1294.7244 4294967295
-57.511925 814.04712 1295.0303 4293650431
-55.115597 814.04712 1295.0303 4294967295
-52.719265 813.1311 1294.2579 4294967295
-14.377981 814.04712 1295.0303 4294967295
-11.981651 814.96313 1295.8027 4294967295
-57.291744 821.21198 1294.5314 4293650687
-16.710093 821.21198 1294.5314 4294967295
-14.322936 821.21198 1294.5314 4294967295
-57.115597 826.91858 1294.111 4293650431
-14.278899 826.91858 1294.111 4294967295
-57.115597 828.73798 1295.645 4293321471
-11.899082 828.73798 1295.645 4294967295
-59.266056 836.73889 1295.851 4290627583
-55.710091 835.8327 1295.0869 4294111487
-14.223853 834.92651 1294.3229 4294967295
-11.062997 836.13477 1295.3417 4294967295
-54.313763 842.89233 1294.4993 4294967295
-51.952293 842.89233 1294.4993 4294967295
-49.590824 842.89233 1294.4993 4294967295
-16.530275 842.89233 1294.4993 4294967295
-14.168807 842.89233 1294.4993 4294967295
-11.80734 842.89233 1294.4993 4294967295
-51.750458 850.8161 1294.6403 4294967295
-49.398167 849.91693 1293.8821 4294967295
-47.045872 849.01776 1293.1239 4294967295
-44.693577 849.01776 1293.1239 4294967295
-18.818348 849.91693 1293.8821 4294967295
-16.466055 849.91693 1293.8821 4294967295
-14.113762 849.91693 1293.8821 4294967295
-11.761468 850.8161 1294.6403 4294967295
-51.548622 856.90637 1293.2354 4294967295
-18.744955 856.90637 1293.2354 4294967295
-16.401834 856.90637 1293.2354 4294967295
-51.548622 858.69775 1294.7457 4294967295
-16.401834 858.69775 1294.7457 4294967295
-52.165752 865.44897 1295.2061 4294967295
-49.051376 864.25848 1294.2023 4294967295
-16.350458 864.25848 1294.2023 4294967295
-14.014679 866.04419 1295.708 4294967295
-11.678899 866.04419 1295.708 4294967295
-51.185322 872.06714 1294.2462 4294967295
-48.858715 872.06714 1294.2462 4294967295
-46.532108 872.06714 1294.2462 4294967295
-16.286238 872.06714 1294.2462 4294967295
-51.185322 873.84589 1295.746 4294967295
-16.286238 873.84589 1295.746 4294967295
-13.959633 873.84589 1295.746 4294967295
-81.110092 881.60553 1295.7485 4288782028
-50.983486 880.71967 1295.0016 4294967295
-16.222019 880.71967 1295.0016 4294967295
-50.051987 885.89911 1294.1366 4294967295
-18.480734 885.31042 1293.6403 4294967295
-49.469727 893.00409 1293.5872 4294967295
-16.106422 893.00409 1293.5872 4294967295
-49.469727 894.76312 1295.0704 4294967295
-46.018349 894.76312 1295.0704 4294967295
-16.106422 894.76312 1295.0704 4294967295
-13.805505 894.76312 1295.0704 4294967295
-48.890518 901.82373 1294.4836 4294967295
-45.834862 901.53168 1294.2374 4294967295
-43.543118 900.65564 1293.4988 4294967295
-16.042202 900.65564 1293.4988 4294967295
-13.750459 902.40771 1294.9761 4294967295
-50.256882 907.79456 1294.2859 4294967295
-46.830276 907.79456 1294.2859 4294967295
-15.990826 907.79456 1294.2859 4294967295
-13.706422 907.79456 1294.2859 4294967295
-50.256882 909.54102 1295.7584 4294967295
-13.706422 909.54102 1295.7584 4294967295
-52.330276 916.2359 1294.8633 4294967295
-50.055046 916.2359 1294.8633 4294967295
-15.926605 917.10559 1295.5967 4294967295
-13.651376 917.10559 1295.5967 4294967295
-49.893578 920.69971 1293.3949 4294967295
-46.491745 920.69971 1293.3949 4294967295
-19.277065 920.69971 1293.3949 4294967295
-15.875229 920.69971 1293.3949 4294967295
-49.893578 922.43353 1294.8568 4294967295
-46.491745 922.43353 1294.8568 4294967295
-18.14312 922.43353 1294.8568 4294967295
-15.875229 922.43353 1294.8568 4294967295
-45.21101 928.60303 1294.8267 4294967295
-42.950459 928.60303 1294.8267 4294967295
-40.689907 928.60303 1294.8267 4294967295
-37.299084 928.60309 1294.8267 4294967295
-33.908257 928.60303 1294.8267 4294967295
-31.647707 927.73895 1294.0981 4294967295
-27.126606 928.60303 1294.8267 4294967295
-24.866055 928.60303 1294.8267 4294967295
-22.605505 928.60303 1294.8267 4294967295
-19.591438 928.89111 1295.0695 4294967295
-27.016514 935.19983 1293.8488 4294967295
-22.513762 935.19983 1293.8488 4294967295
-33.770641 936.92102 1295.3 4294967295
-31.519266 936.92102 1295.3 4294967295
-28.1422 936.92102 1295.3 4294967295
-24.765137 936.92102 1295.3 4294967295
-22.513762 936.92102 1295.3 4294967295
-7.4146791 753.9726 1298.0062 4294967295
-4.943119 753.9726 1298.0062 4294967295
-66.484406 760.48376 1296.9562 4290033129
-64.022018 760.48376 1296.9562 4289048548
-4.9247708 760.48376 1296.9562 4294967295
-67.715599 762.36627 1298.5435 4289901539
-4.9247708 762.36627 1298.5435 4294967295
-67.463303 768.84229 1297.4637 4290032874
-4.9064221 768.84229 1297.4637 4294967295
-68.433029 775.29034 1296.3604 4289901288
-64.766968 775.29034 1296.3604 4289639141
-61.100918 775.29034 1296.3604 4290429681
-7.3321099 775.29034 1296.3604 4294967295
-4.8880734 775.29034 1296.3604 4294967295
-68.433029 777.15887 1297.9358 4289770472
-64.766968 777.15887 1297.9358 4289442020
-61.100918 777.15887 1297.9358 4290495222
-7.3321099 777.15887 1297.9358 4294967295
-4.8880734 777.15887 1297.9358 4294967295
-64.118042 784.81281 1297.8494 4289178852
-60.871559 784.50256 1297.5878 4291087358
-12.174312 784.50256 1297.5878 4294967295
-9.7394495 784.50256 1297.5878 4294967295
-7.3045874 785.43329 1298.3726 4294967295
-63.020184 793.26868 1297.131 4289047016
-60.596329 792.34216 1296.3497 4291021311
-13.331193 793.26868 1297.131 4294967295
-9.6954126 794.19525 1297.9122 4294967295
-62.781651 800.53528 1296.7178 4288850411
-12.073395 800.53528 1296.7178 4294967295
-62.781651 802.38135 1298.2743 4288850413
-9.6587152 802.38135 1298.2743 4294967295
-7.2440367 802.38135 1298.2743 4294967295
-61.340366 808.68622 1297.0503 4289838323
-12.027523 808.68622 1297.0503 4294967295
-9.6220188 808.68622 1297.0503 4294967295
-7.2165136 808.68622 1297.0503 4294967295
-61.340366 810.52527 1298.601 4289772530
-12.027523 810.52527 1298.601 4294967295
-9.6220188 810.52527 1298.601 4294967295
-7.2165136 810.52527 1298.601 4294967295
-62.304588 818.62714 1298.8921 4288654054
-59.908257 817.71118 1298.1198 4290824959
-14.377981 816.79517 1297.3474 4294967295
-10.783486 817.71118 1298.1198 4294967295
-7.1889906 818.62714 1298.8921 4294967295
-59.678898 823.94946 1296.8396 4290495999
-14.322936 823.03699 1296.0702 4294967295
-11.93578 823.94946 1296.8396 4294967295
-59.495415 830.55737 1297.1791 4290890751
-61.875229 832.37677 1298.7131 4288128741
-59.495415 832.37677 1298.7131 4290497279
-9.5192661 832.37677 1298.7131 4294967295
-55.710091 838.55127 1297.3792 4294243071
-9.4825687 838.55127 1297.3792 4294967295
-61.636696 840.36365 1298.9072 4288193762
-59.266056 840.36365 1298.9072 4290562559
-56.895412 840.36365 1298.9072 4293584639
-9.4825687 840.36365 1298.9072 4294967295
-7.1119266 840.36365 1298.9072 4294967295
-54.313763 844.69769 1296.0215 4294967295
-51.952293 844.69769 1296.0215 4294967295
-49.590824 844.69769 1296.0215 4294967295
-16.530275 844.69769 1296.0215 4294967295
-14.168807 844.69769 1296.0215 4294967295
-10.626606 844.69769 1296.0215 4294967295
-55.494495 846.50305 1297.5438 4294177535
-51.952293 846.50305 1297.5438 4294967295
-10.626606 846.50305 1297.5438 4294967295
-54.886852 853.81329 1297.1674 4294506495
-51.750458 852.61444 1296.1565 4294967295
-18.818348 852.61444 1296.1565 4294967295
-16.466055 852.61444 1296.1565 4294967295
-14.113762 853.51361 1296.9147 4294967295
-10.97737 853.81329 1297.1674 4294967295
-52.720184 860.48901 1296.2561 4294967295
-16.401834 860.48901 1296.2561 4294967295
-56.234863 862.2804 1297.7666 4293189631
-53.891743 862.2804 1297.7666 4294967295
-14.058716 862.2804 1297.7666 4294967295
-79.416512 869.61566 1298.7192 4288979923
-77.080734 869.61566 1298.7192 4289045716
-74.744957 869.61566 1298.7192 4289045464
-56.058716 869.61566 1298.7192 4292664063
-52.94434 868.42511 1297.7155 4294967295
-14.014679 868.72278 1297.9664 4294967295
-11.678899 868.72278 1297.9664 4294967295
-52.348625 875.62457 1297.2457 4294967295
-16.286238 875.62457 1297.2457 4294967295
-13.959633 875.62457 1297.2457 4294967295
-58.165138 877.40332 1298.7455 4289904637
-55.838531 877.40332 1298.7455 4293124863
-53.511925 877.40332 1298.7455 4294967295
-13.959633 877.40332 1298.7455 4294967295
-11.633027 877.40332 1298.7455 4294967295
-81.110092 883.3772 1297.2424 4288519372
-53.300919 883.3772 1297.2424 4294967295
-16.222019 883.3772 1297.2424 4294967295
-13.904587 883.3772 1297.2424 4294967295
-53.300919 885.14893 1298.7362 4294967295
-16.222019 885.14893 1298.7362 4294967295
-13.904587 885.14893 1298.7362 4294967295
-53.132111 890.60864 1298.1077 4294967295
-50.822018 888.84259 1296.6185 4294967295
-16.170643 888.84259 1296.6185 4294967295
-13.860551 889.72559 1297.363 4294967295
-11.550459 890.60864 1298.1077 4294967295
-49.469727 896.52222 1296.5536 4294967295
-13.805505 896.52222 1296.5536 4294967295
-52.921101 898.28125 1298.0369 4294967295
-50.620182 898.28125 1298.0369 4294967295
-13.805505 898.28125 1298.0369 4294967295
-11.504587 898.28125 1298.0369 4294967295
-52.710091 905.03583 1297.192 4294967295
-50.41835 904.15979 1296.4534 4294967295
-11.458715 905.03583 1297.192 4294967295
-13.706422 911.28748 1297.231 4294967295
-13.706422 913.03394 1298.7036 4294967295
-54.605503 920.58447 1298.5299 4292271103
-52.330276 919.71472 1297.7966 4294967295
-13.651376 919.71472 1297.7966 4294967295
-11.376146 920.58447 1298.5299 4294967295
-52.161469 925.0343 1297.0497 4294113791
-49.893578 925.0343 1297.0497 4294442495
-46.869724 924.7453 1296.806 4294967295
-18.14312 925.0343 1297.0497 4294967295
-15.875229 925.0343 1297.0497 4294967295
-13.60734 924.16736 1296.3187 4294967295
-45.21101 931.19537 1297.0125 4294967295
-42.950459 932.05945 1297.7411 4294967295
-40.689907 932.05945 1297.7411 4294967295
-37.299084 932.05951 1297.7411 4294967295
-33.908257 932.05945 1297.7411 4294967295
-31.647707 932.05945 1297.7411 4294967295
-29.387156 932.05945 1297.7411 4294967295
-24.866055 932.05945 1297.7411 4294967295
-19.21468 932.05945 1297.7411 4294967295
-15.823853 932.92358 1298.4697 4294967295
-33.770641 938.64221 1296.7512 4294967295
-31.519266 938.64221 1296.7512 4294967295
-31.519266 940.3634 1298.2025 4293456127
-66.732109 755.86212 1299.5995 4290098668
-4.943119 755.86212 1299.5995 4294967295
-2.4715595 755.86212 1299.5995 4294967295
-69.203667 757.75165 1301.1926 4289967079
-2.4715595 757.75165 1301.1926 4294967295
0 757.75165 1301.1926 4294967295
-4.9247708 764.24878 1300.1307 4294967295
-2.4623854 764.24878 1300.1307 4294967295
-71.409172 766.13135 1301.718 4289770209
-2.4623854 766.13135 1301.718 4294967295
-71.14312 770.71783 1299.0452 4289770209
-68.689911 770.71783 1299.0452 4289770472
-4.9064221 770.71783 1299.0452 4294967295
-2.4532111 770.71783 1299.0452 4294967295
-73.596329 772.59332 1300.6265 4289834978
-71.14312 772.59332 1300.6265 4289901027
-2.4532111 772.59332 1300.6265 4294967295
-68.433029 779.02734 1299.5114 4290033129
-65.988991 779.02734 1299.5114 4290164715
-7.3321099 779.02734 1299.5114 4294967295
-4.8880734 779.02734 1299.5114 4294967295
-2.4440367 779.02734 1299.5114 4294967295
-68.433029 780.89581 1301.0868 4290032875
-65.988991 780.89581 1301.0868 4289703910
-7.3321099 780.89581 1301.0868 4294967295
-4.8880734 780.89581 1301.0868 4294967295
-2.4440367 780.89581 1301.0868 4294967295
0 780.89581 1301.0868 4294967295
-64.523857 787.2948 1299.942 4289179367
-12.174312 787.2948 1299.942 4294967295
-9.7394495 787.2948 1299.942 4294967295
-7.3045874 787.2948 1299.942 4294967295
-4.8697248 787.2948 1299.942 4294967295
-68.176147 789.15625 1301.5116 4289507301
-65.741287 789.15625 1301.5116 4289902059
-12.174312 789.15625 1301.5116 4294967295
-9.7394495 789.15625 1301.5116 4294967295
-7.3045874 789.15625 1301.5116 4294967295
-4.8697248 789.15625 1301.5116 4294967295
-2.4348624 789.15625 1301.5116 4294967295
-65.444038 796.97485 1300.2559 4289572840
-12.119267 796.04828 1299.4746 4294967295
-9.6954126 796.97485 1300.2559 4294967295
-7.2715597 797.90137 1301.0371 4294967295
-65.196327 806.07336 1301.3873 4289310955
-62.781651 804.22736 1299.8308 4288916458
-9.6587152 804.22736 1299.8308 4294967295
-7.2440367 804.22736 1299.8308 4294967295
-4.8293576 806.07336 1301.3873 4294967295
-61.340366 812.36426 1300.1516 4289837810
-9.6220188 812.36426 1300.1516 4294967295
-7.2165136 812.36426 1300.1516 4294967295
-4.8110094 812.36426 1300.1516 4294967295
-64.948624 814.20331 1301.7021 4289310449
-62.543118 814.20331 1301.7021 4288784870
-7.2165136 814.20331 1301.7021 4294967295
-4.8110094 814.20331 1301.7021 4294967295
-62.304588 820.45917 1300.4368 4288521954
-9.5853214 820.45917 1300.4368 4294967295
-7.1889906 820.45917 1300.4368 4294967295
-4.7926607 820.45917 1300.4368 4294967295
-62.304588 822.2912 1301.9814 4288456418
-9.5853214 822.2912 1301.9814 4294967295
-7.1889906 822.2912 1301.9814 4294967295
-4.7926607 822.2912 1301.9814 4294967295
-59.678898 826.68701 1299.1478 4290758655
-9.548624 826.68701 1299.1478 4294967295
-9.548624 828.51196 1300.6866 4294967295
-7.161468 828.51196 1300.6866 4294967295
-61.875229 835.10583 1301.0142 4288390372
-59.495415 836.0155 1301.7812 4290758655
-7.1394496 835.10583 1301.0142 4294967295
-61.636696 842.17603 1300.4354 4288062948
-59.266056 842.17603 1300.4354 4290431487
-56.895412 842.17603 1300.4354 4293453311
-7.1119266 842.17603 1300.4354 4294967295
-64.007339 843.9884 1301.9636 4289047524
-61.636696 843.9884 1301.9636 4288062694
-59.266056 843.9884 1301.9636 4290365439
-7.1119266 843.9884 1301.9636 4294967295
-61.398167 848.30841 1299.066 4288259307
-59.036697 848.30841 1299.066 4290364927
-55.494495 848.30841 1299.066 4294243071
-9.4458714 848.30841 1299.066 4294967295
-7.0844035 848.30841 1299.066 4294967295
-61.398167 850.11377 1300.5883 4288325102
-59.036697 850.11377 1300.5883 4290298879
-56.675228 850.11377 1300.5883 4293584639
-9.4458714 850.11377 1300.5883 4294967295
-7.0844035 850.11377 1300.5883 4294967295
-58.807339 856.21118 1299.1892 4290561279
-55.2789 856.21118 1299.1892 4294177279
-14.113762 856.21118 1299.1892 4294967295
-11.761468 856.21118 1299.1892 4294967295
-61.159634 858.00952 1300.7056 4288587505
-58.807339 858.00952 1300.7056 4290298111
-56.455048 858.00952 1300.7056 4293123839
-14.113762 858.00952 1300.7056 4294967295
-11.761468 858.00952 1300.7056 4294967295
-63.264221 865.86304 1300.7874 4289243876
-60.921101 864.96741 1300.0322 4288521195
-58.57798 864.96741 1300.0322 4290231807
-56.234863 864.96741 1300.0322 4293123583
-9.3724775 865.86304 1300.7874 4294967295
-74.744957 871.40137 1300.225 4288586453
-60.730274 871.40137 1300.225 4288324837
-58.394497 871.40137 1300.225 4290167039
-56.058716 871.40137 1300.225 4292927231
-53.722935 871.40137 1300.225 4294967295
-10.511009 871.40137 1300.225 4294967295
-7.0073395 871.40137 1300.225 4294967295
-79.416512 873.18713 1301.7306 4288520658
-77.080734 873.18713 1301.7306 4288520658
-73.577065 873.18713 1301.7306 4288586710
-60.730274 873.18713 1301.7306 4288062433
-58.394497 873.18713 1301.7306 4290102015
-56.058716 873.18713 1301.7306 4293124863
-10.511009 873.18713 1301.7306 4294967295
-7.0073395 873.18713 1301.7306 4294967295
-58.165138 880.07135 1300.9951 4290101502
-55.838531 880.07135 1300.9951 4293190143
-53.511925 879.18201 1300.2452 4294967295
-13.959633 879.18201 1300.2452 4294967295
-10.857491 880.36786 1301.2451 4294967295
-53.300919 886.92059 1300.2301 4294967295
-11.587156 886.92059 1300.2301 4294967295
-57.93578 888.69226 1301.7239 4289578236
-55.618347 888.69226 1301.7239 4292664575
-53.132111 892.37476 1299.5967 4294967295
-11.550459 892.37476 1299.5967 4294967295
-53.132111 894.14087 1301.0858 4294967295
-11.550459 894.14087 1301.0858 4294967295
-55.222019 901.79944 1301.0032 4293848831
-52.921101 900.04034 1299.52 4294967295
-10.354128 900.91992 1300.2616 4294967295
-52.710091 907.66394 1299.408 4294967295
-10.312843 907.66394 1299.408 4294967295
-55.001835 909.41602 1300.8851 4293059327
-10.312843 909.41602 1300.8851 4294967295
-54.825687 914.78033 1300.1761 4292335871
-11.422018 914.78033 1300.1761 4294967295
-54.825687 916.52679 1301.6487 4292270847
-11.422018 916.52679 1301.6487 4294967295
-54.605503 922.32391 1299.9966 4291746303
-11.376146 922.32391 1299.9966 4294967295
-55.743118 924.06335 1301.4633 4291417343
-13.651376 924.06335 1301.4633 4294967295
-11.376146 924.06335 1301.4633 4294967295
-54.429359 928.50189 1299.9735 4290693629
-52.161469 928.50189 1299.9735 4293062143
-49.893578 928.50189 1299.9735 4294311423
-47.625687 928.50189 1299.9735 4294967295
-15.875229 928.50189 1299.9735 4294967295
-13.60734 928.50189 1299.9735 4294967295
-42.950459 934.65179 1299.9269 4294967295
-40.689907 934.65179 1299.9269 4294967295
-37.299084 934.65179 1299.9269 4293981688
-19.21468 934.65179 1299.9269 4294967295
-40.689907 936.38 1301.384 4294967295
-37.299084 936.38 1301.384 4293390069
-28.256882 936.38 1301.384 4294967295
-24.866055 936.38 1301.384 4294967295
-22.605505 936.38 1301.384 4294967295
-19.21468 936.38 1301.384 4294967295
-71.675232 761.5307 1304.379 4290033127
-2.4715595 759.64117 1302.7859 4294967295
0 760.58594 1303.5825 4294967295
-76.333946 769.89636 1304.8926 4289769939
-73.871559 768.01379 1303.3053 4289770209
0 768.95508 1304.0989 4294967295
-73.596329 775.40662 1302.9985 4289835236
-71.14312 775.40662 1302.9985 4290032871
-2.4532111 774.46881 1302.2079 4294967295
0 775.40662 1302.9985 4294967295
-70.877068 782.76428 1302.6622 4289900523
-68.433029 782.76428 1302.6622 4289638380
-4.8880734 782.76428 1302.6622 4294967295
-2.4440367 782.76428 1302.6622 4294967295
0 782.76428 1302.6622 4294967295
-70.877068 784.63281 1304.2377 4289834730
-68.433029 784.63281 1304.2377 4289310953
-2.4440367 784.63281 1304.2377 4294967295
0 784.63281 1304.2377 4294967295
-68.176147 791.0177 1303.0812 4289638117
-65.741287 791.0177 1303.0812 4289638117
-7.3045874 791.0177 1303.0812 4294967295
-4.8697248 791.0177 1303.0812 4294967295
-2.4348624 791.0177 1303.0812 4294967295
0 791.0177 1303.0812 4294967295
-70.611008 792.87921 1304.6508 4289834982
-68.176147 792.87921 1304.6508 4289638121
-7.3045874 792.87921 1304.6508 4294967295
-4.8697248 792.87921 1304.6508 4294967295
-2.4348624 792.87921 1304.6508 4294967295
0 792.87921 1304.6508 4294967295
-65.444038 799.75439 1302.5996 4289441769
-4.8477063 799.75439 1302.5996 4294967295
-65.444038 801.60742 1304.162 4289114090
-4.8477063 801.60742 1304.162 4294967295
-2.4238532 801.60742 1304.162 4294967295
-65.196327 808.84247 1303.7222 4289441772
-4.8293576 807.91943 1302.9438 4294967295
-2.4146788 808.84247 1303.7222 4294967295
-69.759636 817.88135 1304.8035 4289637869
-67.354126 816.96185 1304.0281 4289244142
-64.948624 816.96185 1304.0281 4289244399
-4.8110094 816.04236 1303.2528 4294967295
-2.4055047 816.96185 1304.0281 4294967295
-64.70092 824.12317 1303.5262 4289177829
-62.304588 824.12317 1303.5262 4288587748
-7.1889906 824.12317 1303.5262 4294967295
-4.7926607 824.12317 1303.5262 4294967295
-7.161468 830.33698 1302.2253 4294967295
-4.774312 830.33698 1302.2253 4294967295
-4.774312 832.16199 1303.7642 4294967295
-64.255043 839.6543 1304.8494 4288785122
-4.7596331 839.6543 1304.8494 4294967295
-66.377983 845.80078 1303.4917 4288718816
-64.007339 845.80078 1303.4917 4289047524
-4.7412844 845.80078 1303.4917 4294967295
-63.759632 851.91919 1302.1105 4289178083
-61.398167 851.91919 1302.1105 4288193262
-59.036697 851.91919 1302.1105 4290364671
-7.0844035 851.91919 1302.1105 4294967295
-66.121101 853.72449 1303.6327 4289046500
-63.759632 853.72449 1303.6327 4289177829
-61.398167 853.72449 1303.6327 4288455921
-9.4458714 853.72449 1303.6327 4294967295
-7.0844035 853.72449 1303.6327 4294967295
-63.511925 859.80786 1302.2218 4289243622
-61.159634 859.80786 1302.2218 4288587246
-58.807339 859.80786 1302.2218 4290297599
-10.585321 859.80786 1302.2218 4294967295
-64.688072 861.6062 1303.7382 4289046498
-9.409174 861.6062 1303.7382 4294967295
-7.056881 861.6062 1303.7382 4294967295
-79.666054 869.44574 1303.8081 4288914130
-77.322937 869.44574 1303.8081 4288914130
-72.636696 868.55005 1303.053 4288914391
-70.293579 869.44574 1303.8081 4289045216
-67.950462 869.44574 1303.8081 4289308132
-64.045258 868.84863 1303.3047 4289177828
-60.921101 867.65442 1302.2977 4288259559
-58.57798 867.65442 1302.2977 4289838591
-9.3724775 867.65442 1302.2977 4294967295
-7.0293579 867.65442 1302.2977 4294967295
-4.6862388 869.44574 1303.8081 4294967295
-81.752296 874.97284 1303.2363 4288585415
-79.416512 874.97284 1303.2363 4288650960
-77.080734 874.97284 1303.2363 4288782290
-73.577065 874.97284 1303.2363 4288717785
-64.233948 874.97284 1303.2363 4288850402
-60.730274 874.97284 1303.2363 4287930847
-9.3431196 874.97284 1303.2363 4294967295
-7.0073395 874.97284 1303.2363 4294967295
-79.416512 876.75854 1304.7419 4288847570
-77.080734 876.75854 1304.7419 4288847570
-73.577065 876.75854 1304.7419 4288586453
-64.233948 876.75854 1304.7419 4288652769
-60.730274 876.75854 1304.7419 4287864540
-9.3431196 876.75854 1304.7419 4294967295
-7.0073395 876.75854 1304.7419 4294967295
-82.594498 883.62878 1303.9946 4288322506
-60.491745 883.62878 1303.9946 4287668698
-58.165138 883.62878 1303.9946 4289839867
-55.838531 883.62878 1303.9946 4292862207
-10.081958 883.33234 1303.7446 4294967295
-57.93578 890.46399 1303.2178 4289775359
-55.618347 890.46399 1303.2178 4293059583
-57.93578 892.23566 1304.7117 4289381375
-55.618347 892.23566 1304.7117 4293323007
-9.2697248 892.23566 1304.7117 4294967295
-55.442204 895.90692 1302.575 4293520127
-57.752293 897.67303 1304.0641 4290365439
-55.442204 897.67303 1304.0641 4293914111
-9.2403669 897.67303 1304.0641 4294967295
-58.289906 904.14484 1302.9808 4289511920
-55.222019 904.43799 1303.228 4293783039
-9.2036695 903.55847 1302.4865 4294967295
-6.9027524 905.31757 1303.9696 4294967295
-57.293579 911.16803 1302.3624 4289576701
-55.001835 911.16803 1302.3624 4292533503
-10.312843 911.16803 1302.3624 4294967295
-57.293579 912.92004 1303.8397 4289313013
-9.1669722 912.92004 1303.8397 4294967295
-57.871563 919.4375 1304.1029 4290231787
-9.1376143 919.14648 1303.8574 4294967295
-56.880733 925.80273 1302.9298 4291350270
-11.376146 925.80273 1302.9298 4294967295
-59.155964 927.54224 1304.3965 4288324310
-56.880733 927.54224 1304.3965 4290100464
-11.376146 927.54224 1304.3965 4294967295
-55.185322 931.6806 1302.6537 4289575665
-52.161469 931.96954 1302.8973 4292997119
-49.893578 931.96954 1302.8973 4293982975
-46.491745 931.96954 1302.8973 4294967295
-15.875229 932.83643 1303.6283 4294967295
-13.60734 931.96954 1302.8973 4294967295
-37.299084 938.10822 1302.8412 4291942636
-33.908257 938.10822 1302.8412 4293061375
-28.256882 938.10822 1302.8412 4294705151
-24.866055 938.10822 1302.8412 4294967295
-22.605505 938.10822 1302.8412 4294967295
-20.344954 938.10822 1302.8412 4294967295
-37.299084 939.83643 1304.2983 4292205808
-33.908257 939.83643 1304.2983 4292798719
-31.647707 939.83643 1304.2983 4293455615
-28.256882 939.83643 1304.2983 4294573311
-24.866055 939.83643 1304.2983 4294967295
-22.605505 939.83643 1304.2983 4294967295
-33.770641 945.52698 1302.5563 4292797695
-71.994499 754.47314 1306.2765 4289770731
-71.994499 756.37109 1307.8767 4289901807
2.4825687 756.37109 1307.8767 4294967295
-74.14679 763.42023 1305.9723 4289770209
0 763.42023 1305.9723 4294967295
-76.333946 771.77887 1306.4799 4289704666
-73.596329 778.21985 1305.3706 4289571812
-71.14312 778.21985 1305.3706 4290032363
-76.049538 780.09534 1306.952 4289506267
-73.596329 780.09534 1306.952 4289571559
2.4532111 780.09534 1306.952 4294967295
-75.765137 788.36975 1307.3887 4289310432
-73.321098 787.43555 1306.6008 4289703396
-70.877068 787.43555 1306.6008 4289834981
0 786.50128 1305.8131 4294967295
-73.045868 794.74066 1306.2202 4289506530
-70.611008 794.74066 1306.2202 4289901288
-68.176147 794.74066 1306.2202 4289507816
-4.8697248 794.74066 1306.2202 4294967295
-2.4348624 794.74066 1306.2202 4294967295
0 794.74066 1306.2202 4294967295
-76.698166 796.60217 1307.7898 4289440224
-73.045868 796.60217 1307.7898 4289441510
-70.611008 796.60217 1307.7898 4289967854
-68.176147 796.60217 1307.7898 4289375976
-2.4348624 796.60217 1307.7898 4294967295
0 796.60217 1307.7898 4294967295
-67.867889 803.46051 1305.7245 4289310955
-2.4238532 803.46051 1305.7245 4294967295
-67.867889 805.3136 1307.2869 4289507564
0 805.3136 1307.2869 4294967295
-67.611008 811.61151 1306.057 4289310449
-2.4146788 811.61151 1306.057 4294967295
0 811.61151 1306.057 4294770687
-74.855049 813.45758 1307.6135 4289046750
-70.025688 813.45758 1307.6135 4289637615
0 813.45758 1307.6135 4294770687
-69.759636 820.63989 1307.1294 4289703917
-67.354126 820.63989 1307.1294 4289178597
-64.948624 819.7204 1306.354 4288850400
-2.4055047 820.63989 1307.1294 4294967295
0 820.63989 1307.1294 4294377471
-69.493576 827.78723 1306.6156 4289243876
-67.097244 826.87122 1305.8433 4289178089
-64.70092 826.87122 1305.8433 4289112296
-62.304588 825.9552 1305.0709 4288522216
-4.7926607 825.9552 1305.0709 4294967295
-2.3963304 826.87122 1305.8433 4294967295
-81.1633 833.987 1305.303 4289374427
-4.774312 833.987 1305.303 4294967295
-4.774312 835.81201 1306.8418 4294967295
-66.634865 841.47369 1306.3834 4289113317
-4.7596331 841.47369 1306.3834 4294967295
-69.014679 843.29309 1307.9175 4289113821
-67.563309 847.61316 1305.0199 4289244641
-64.007339 847.61316 1305.0199 4289113571
-4.7412844 847.61316 1305.0199 4294967295
-67.563309 849.42554 1306.5481 4289177567
-4.7412844 849.42554 1306.5481 4294967295
-2.3706422 849.42554 1306.5481 4294967295
-73.205505 857.33521 1306.6772 4289439972
-70.84404 857.33521 1306.6772 4289308636
-67.301834 856.43256 1305.916 4289177567
-63.759632 855.52991 1305.1549 4289243876
-9.4458714 855.52991 1305.1549 4294967295
-7.0844035 856.43256 1305.916 4294967295
-4.7229357 857.33521 1306.6772 4294967295
-76.449539 863.40454 1305.2545 4289045719
-72.921104 863.40454 1305.2545 4288913878
-70.56881 863.40454 1305.2545 4289176030
-68.216515 863.40454 1305.2545 4289307873
-65.86422 863.40454 1305.2545 4288980705
-7.056881 863.40454 1305.2545 4294967295
-70.56881 865.20288 1306.7708 4289372896
-68.216515 865.20288 1306.7708 4289438689
-65.86422 865.20288 1306.7708 4289178083
-4.704587 865.20288 1306.7708 4294967295
-70.293579 871.23706 1305.3186 4288849883
-67.950462 871.23706 1305.3186 4288981470
-64.435776 871.23706 1305.3186 4288850404
-4.6862388 871.23706 1305.3186 4294967295
-70.293579 873.02844 1306.829 4288718298
-67.950462 873.02844 1306.829 4289047263
-4.6862388 873.02844 1306.829 4294967295
-79.416512 878.54431 1306.2477 4288454864
-73.577065 878.54431 1306.2477 4288782292
-64.233948 878.54431 1306.2477 4288718564
-60.730274 878.54431 1306.2477 4287865053
-7.0073395 878.54431 1306.2477 4294967295
-79.416512 880.33002 1307.7534 4288126413
-74.744957 880.33002 1307.7534 4288453327
-64.233948 880.33002 1307.7534 4288653023
-7.0073395 880.33002 1307.7534 4294967295
-4.6715598 880.33002 1307.7534 4294967295
-81.43119 886.29688 1306.2443 4288453316
-60.491745 886.29688 1306.2443 4287604446
-9.3064222 886.29688 1306.2443 4294967295
-6.9798164 886.29688 1306.2443 4294967295
-81.43119 888.07556 1307.744 4288387521
-65.144951 888.07556 1307.744 4288127960
-61.655045 888.07556 1307.744 4287997662
-9.3064222 888.07556 1307.744 4294967295
-6.9798164 888.07556 1307.744 4294967295
-64.888077 895.77905 1307.6993 4288520921
-60.253212 895.77905 1307.6993 4287207121
-57.93578 894.00739 1306.2054 4289708541
-9.2697248 894.00739 1306.2054 4294967295
-6.9522934 895.77905 1307.6993 4294967295
-60.062386 899.43909 1305.5532 4287340243
-57.752293 899.43909 1305.5532 4290958847
-62.372478 901.2052 1307.0424 4288454872
-6.9302754 901.2052 1307.0424 4294967295
-62.124771 907.07666 1305.4529 4288388819
-59.056881 907.66302 1305.9473 4287997665
-6.9027524 907.95618 1306.1945 4294967295
-4.6018348 908.83569 1306.936 4294967295
-58.439449 914.67212 1305.317 4288719581
-9.1669722 914.67212 1305.317 4294967295
-6.8752294 914.67212 1305.317 4294967295
-61.877064 916.42419 1306.7943 4288914130
-59.58532 916.42419 1306.7943 4288980436
-6.8752294 916.42419 1306.7943 4294967295
-61.678898 923.51257 1307.5389 4290164181
-59.394497 922.63934 1306.8027 4289574372
-9.1376143 922.63934 1306.8027 4294967295
-61.431194 929.28162 1305.8632 4288979662
-59.155964 929.28162 1305.8632 4288324310
-11.376146 929.28162 1305.8632 4294967295
-59.155964 931.02106 1307.3298 4288127428
-56.880733 931.02106 1307.3298 4289640667
-11.376146 931.02106 1307.3298 4294967295
-49.893578 934.57031 1305.0902 4294048255
-46.491745 934.57031 1305.0902 4294967295
-43.089909 934.57031 1305.0902 4294967295
-15.875229 934.57031 1305.0902 4294967295
-45.3578 936.30408 1306.5521 4294967295
-43.089909 936.30408 1306.5521 4294967295
-40.822018 936.30408 1306.5521 4294967295
-18.14312 936.30408 1306.5521 4294967295
-15.875229 936.30408 1306.5521 4294967295
-36.168808 941.56458 1305.7556 4292139519
-33.908257 941.56458 1305.7556 4292468479
-31.647707 941.56458 1305.7556 4292402687
-28.256882 941.56458 1305.7556 4292797695
-24.866055 941.56458 1305.7556 4293652735
-22.605505 941.56458 1305.7556 4293652991
-36.168808 943.29285 1307.2128 4292271103
-31.647707 943.29285 1307.2128 4292271359
-28.256882 943.29285 1307.2128 4292731647
-24.866055 943.29285 1307.2128 4293455103
-74.477066 758.26904 1309.4771 4289769955
2.4825687 758.26904 1309.4771 4294967295
4.9651375 758.26904 1309.4771 4294967295
2.4715595 767.19928 1309.1587 4294967295
2.4715595 769.08881 1310.7518 4294967295
4.943119 769.08881 1310.7518 4294967295
-76.333946 773.66138 1308.0671 4289967070
2.4623854 773.66138 1308.0671 4294967295
2.4623854 775.54388 1309.6545 4294967295
4.9247708 775.54388 1309.6545 4294967295
-76.049538 781.97083 1308.5333 4289572062
-73.596329 781.97083 1308.5333 4289505765
2.4532111 781.97083 1308.5333 4294967295
-78.502754 783.84631 1310.1147 4289440735
-76.049538 783.84631 1310.1147 4289506528
2.4532111 783.84631 1310.1147 4294967295
4.9064221 783.84631 1310.1147 4294967295
-75.765137 790.23828 1308.9641 4289375460
-73.321098 790.23828 1308.9641 4289571810
-75.765137 792.10675 1310.5396 4289571810
-76.292358 799.08417 1309.8824 4289112541
-73.045868 799.39435 1310.144 4289375460
-70.611008 799.39435 1310.144 4289572839
-68.176147 798.46362 1309.3594 4288784868
0 799.39435 1310.144 4294967295
-75.13945 809.01965 1310.4117 4289047517
-70.29174 809.01965 1310.4117 4289507051
-67.867889 807.16663 1308.8494 4289441517
0 807.16663 1308.8494 4294967295
-73.647705 815.30359 1309.17 4289242850
0 815.30359 1309.17 4294836223
-79.684402 817.14966 1310.7266 4289439459
-77.269722 817.14966 1310.7266 4289178079
-73.647705 817.14966 1310.7266 4289046240
-79.381653 823.39844 1309.4553 4289177057
-76.976151 823.39844 1309.4553 4288980707
-73.367889 823.39844 1309.4553 4289375462
-69.759636 823.39844 1309.4553 4289375460
0 823.39844 1309.4553 4294311935
-81.475227 829.61926 1308.1604 4288981209
-79.078896 829.61926 1308.1604 4289047002
-69.493576 829.61926 1308.1604 4289177829
-67.097244 829.61926 1308.1604 4289177831
-64.70092 829.61926 1308.1604 4289243624
-2.3963304 829.61926 1308.1604 4294967295
-79.078896 831.45123 1309.7051 4289440476
-69.493576 831.45123 1309.7051 4289309669
-67.097244 831.45123 1309.7051 4289243622
-64.70092 831.45123 1309.7051 4289243622
-2.3963304 831.45123 1309.7051 4294967295
-81.1633 837.63696 1308.3806 4288915415
-78.776146 838.54944 1309.1499 4288849622
-76.388992 837.63696 1308.3806 4289045718
-69.227524 838.54944 1309.1499 4289178847
-66.84037 837.63696 1308.3806 4288982501
-2.387156 839.46198 1309.9193 4294967295
-2.3798165 845.11249 1309.4515 4294967295
0 846.93188 1310.9856 4293653759
-68.748627 851.23792 1308.0762 4289308636
-4.7412844 851.23792 1308.0762 4294967295
-73.489906 853.05029 1309.6044 4289374431
-71.119263 853.05029 1309.6044 4289308636
-4.7412844 853.05029 1309.6044 4294967295
-2.3706422 853.05029 1309.6044 4294967295
-75.566971 859.14062 1308.1995 4288584915
-73.205505 859.14062 1308.1995 4289045466
-70.84404 859.14062 1308.1995 4289307873
-68.482567 859.14062 1308.1995 4289307873
-4.7229357 860.04333 1308.9606 4294967295
-2.3522935 867.90039 1309.0453 4294967295
-70.293579 874.8197 1308.3394 4288586460
-67.950462 874.8197 1308.3394 4288718302
-4.6862388 874.8197 1308.3394 4294967295
-2.3431194 874.8197 1308.3394 4294967295
-77.322937 876.61108 1309.8499 4288520658
-70.293579 876.61108 1309.8499 4288519902
-67.950462 876.61108 1309.8499 4288848866
-4.6862388 876.61108 1309.8499 4294967295
-2.3431194 876.61108 1309.8499 4294967295
-74.744957 883.00854 1310.0118 4288584914
-70.073395 883.00854 1310.0118 4288389074
-67.737617 883.90143 1310.7646 4288586453
-64.233948 883.00854 1310.0118 4288521949
-7.0073395 882.11572 1309.259 4294967295
-4.6715598 883.00854 1310.0118 4294967295
-65.144951 889.85425 1309.2438 4287996890
-61.655045 889.85425 1309.2438 4287472090
-6.9798164 889.85425 1309.2438 4294967295
-67.471558 891.63293 1310.7435 4288520917
-65.144951 891.63293 1310.7435 4288324571
-61.655045 891.63293 1310.7435 4287667671
-6.9798164 891.63293 1310.7435 4294967295
-4.6532111 891.63293 1310.7435 4294967295
-64.888077 899.32251 1310.687 4288257749
-62.570641 897.55078 1309.1931 4288454874
-6.9522934 897.55078 1309.1931 4294967295
-4.6348624 898.43665 1309.9401 4294967295
-2.3174312 899.32251 1310.687 4294967295
-61.21743 902.97125 1308.5315 4287733459
-4.6201835 902.97125 1308.5315 4294967295
-4.6201835 904.73737 1310.0205 4294967295
-2.3100917 904.73737 1310.0205 4294967295
-62.124771 910.59479 1308.4192 4288060368
-59.823853 910.59479 1308.4192 4286944465
-6.9027524 910.59479 1308.4192 4294967295
-4.6018348 910.59479 1308.4192 4294967295
-62.124771 912.35388 1309.9025 4288520406
-4.6018348 912.35388 1309.9025 4294967295
-2.3009174 912.35388 1309.9025 4294967295
-64.168808 919.92834 1309.7489 4289308877
-61.877064 919.05231 1309.0103 4289637845
-6.8752294 919.05231 1309.0103 4294967295
-4.5834861 919.05231 1309.0103 4294967295
-61.678898 925.25903 1309.0115 4289110989
-9.1376143 925.25903 1309.0115 4294967295
-66.247704 927.00549 1310.484 4288123833
-63.963303 927.00549 1310.484 4287992767
-9.1376143 927.00549 1310.484 4294967295
-59.155964 932.7605 1308.7964 4288650958
-55.743118 932.7605 1308.7964 4289967857
-52.330276 932.7605 1308.7964 4293192703
-13.651376 932.7605 1308.7964 4294967295
-11.376146 932.7605 1308.7964 4294967295
-55.743118 934.49994 1310.2631 4291742187
-52.330276 934.49994 1310.2631 4292664063
-50.055046 934.49994 1310.2631 4292206591
-47.779816 934.49994 1310.2631 4293917183
-13.651376 934.49994 1310.2631 4294967295
-11.376146 934.49994 1310.2631 4294967295
-43.089909 938.0379 1308.014 4294967295
-40.822018 938.0379 1308.014 4294967295
-19.277065 938.0379 1308.014 4294967295
-15.875229 938.0379 1308.014 4294967295
-40.822018 940.63867 1310.2069 4293455103
-38.554127 940.63867 1310.2069 4292467960
-22.6789 941.50555 1310.9379 4293718271
-19.277065 940.63867 1310.2069 4294376447
-33.908257 945.02106 1308.6699 4292534015
-31.647707 945.02106 1308.6699 4292402431
-24.866055 945.02106 1308.6699 4292929279
-77.244034 755.5509 1313.7253 4289704162
7.4752293 754.59845 1312.9222 4294967295
-76.959633 760.16699 1311.0774 4289901538
2.4825687 760.16699 1311.0774 4294967295
4.9651375 760.16699 1311.0774 4294967295
-76.959633 762.06494 1312.6776 4289770459
2.4825687 762.06494 1312.6776 4294967295
4.9651375 762.06494 1312.6776 4294967295
7.4477062 762.06494 1312.6776 4294967295
4.943119 770.97833 1312.3451 4294967295
-76.618347 772.86786 1313.9382 4289703132
7.4146791 772.86786 1313.9382 4294967295
-78.796333 779.3089 1312.8291 4289506269
4.9247708 778.36768 1312.0354 4294836223
7.387156 778.36768 1312.0354 4294836223
2.4532111 785.7218 1311.6962 4294967295
4.9064221 785.7218 1311.6962 4294639615
2.4532111 787.59735 1313.2775 4294967295
4.9064221 787.59735 1313.2775 4294705151
7.359633 787.59735 1313.2775 4294770687
2.4440367 793.97522 1312.115 4294639615
2.4440367 795.84375 1313.6904 4294836223
-75.480736 802.18652 1312.4984 4289309919
-73.045868 802.18652 1312.4984 4289309669
-70.611008 802.18652 1312.4984 4289638634
-77.563301 812.72583 1313.5366 4289440224
-77.269722 818.99573 1312.2831 4289046498
-73.647705 818.99573 1312.2831 4288980706
