# .PCD v0.7 - Point Cloud Data file format
VERSION 0.7
FIELDS x y z rgb
SIZE 4 4 4 4
TYPE F F F U
COUNT 1 1 1 1
WIDTH 1166
HEIGHT 1
VIEWPOINT 0 0 0 1 0 0 0
POINTS 1166
DATA ascii
-4.8697248 779.84888 1293.6639 4294967295
-2.4348624 779.84888 1293.6639 4294967295
0 779.84888 1293.6639 4294967295
-58.436699 781.71033 1295.2334 4294967295
-56.001835 781.71033 1295.2334 4294967295
-2.4348624 781.71033 1295.2334 4294967295
0 781.71033 1295.2334 4294967295
-58.172478 788.63611 1293.2249 4294967295
-2.4238532 788.63611 1293.2249 4294967295
0 788.63611 1293.2249 4294967295
-60.596329 790.48914 1294.7874 4294967295
-57.952293 796.8432 1293.6047 4294967295
-2.4146788 796.8432 1293.6047 4294967295
0 796.8432 1293.6047 4294967295
-60.366974 798.68921 1295.1613 4294967295
-57.952293 798.68921 1295.1613 4294967295
-2.4146788 798.68921 1295.1613 4294967295
0 798.68921 1295.1613 4294967295
-60.137615 805.92767 1294.7244 4294967295
-57.732109 805.00818 1293.9491 4294967295
-4.8110094 805.92767 1294.7244 4294967295
-2.4055047 805.92767 1294.7244 4294967295
0 805.92767 1294.7244 4294967295
-58.310699 814.35248 1295.2877 4294967295
-55.115597 813.1311 1294.2579 4294967295
-52.719265 813.1311 1294.2579 4294967295
-10.384098 813.74176 1294.7728 4294967295
-7.1889906 814.04712 1295.0303 4294967295
-4.7926607 814.04712 1295.0303 4294967295
-2.3963304 814.96313 1295.8027 4294967295
0 814.96313 1295.8027 4294967295
-59.678898 821.21198 1294.5314 4294967295
-10.742202 821.21198 1294.5314 4294967295
-7.161468 821.21198 1294.5314 4294967295
-4.774312 821.21198 1294.5314 4294967295
-57.115597 826.91858 1294.111 4294967295
-11.899082 826.91858 1294.111 4294967295
-9.5192661 828.73798 1295.645 4294967295
-56.895412 835.8327 1295.0869 4294967295
-14.223853 834.92651 1294.3229 4294967295
-10.667891 835.83264 1295.0869 4294967295
-7.1119266 836.73889 1295.851 4294967295
-4.7412844 836.73889 1295.851 4294967295
-55.494495 842.89233 1294.4993 4294967295
-28.337614 842.89233 1294.4993 4294967295
-25.976147 842.89233 1294.4993 4294967295
-22.433945 842.89233 1294.4993 4294967295
-18.891743 842.89233 1294.4993 4294967295
-16.530275 842.89233 1294.4993 4294967295
-14.168807 842.89233 1294.4993 4294967295
-10.626606 842.89233 1294.4993 4294967295
-7.0844035 842.89233 1294.4993 4294967295
-55.2789 849.91693 1293.8821 4294967295
-51.750458 849.01776 1293.1239 4294967295
-30.579817 849.01776 1293.1239 4294967295
-28.227524 849.91693 1293.8821 4294967295
-25.875229 849.91693 1293.8821 4294967295
-22.34679 850.8161 1294.6403 4294967295
-14.113762 850.8161 1294.6403 4294967295
-56.234863 856.90637 1293.2354 4294967295
-30.46055 856.90637 1293.2354 4294967295
-28.117432 856.90637 1293.2354 4294967295
-25.774311 856.90637 1293.2354 4294967295
-22.259632 856.90637 1293.2354 4294967295
-16.401834 856.90637 1293.2354 4294967295
-14.058716 856.90637 1293.2354 4294967295
-11.715596 856.90637 1293.2354 4294967295
-56.234863 858.69775 1294.7457 4294967295
-28.117432 858.69775 1294.7457 4294967295
-22.259632 858.69775 1294.7457 4294967295
-18.744955 858.69775 1294.7457 4294967295
-16.401834 858.69775 1294.7457 4294967295
-14.058716 858.69775 1294.7457 4294967295
-11.715596 858.69775 1294.7457 4294967295
-56.058716 864.25848 1294.2023 4294967295
-52.555046 865.15131 1294.9551 4294967295
-21.800611 864.8537 1294.7042 4294967295
-18.686239 865.15137 1294.9551 4294967295
-16.350458 865.15137 1294.9551 4294967295
-14.014679 865.15137 1294.9551 4294967295
-10.511009 865.15137 1294.9551 4294967295
-7.0073395 866.04419 1295.708 4294967295
-4.6715598 866.04419 1295.708 4294967295
-48.858715 872.06714 1294.2462 4294967295
-46.532108 872.06714 1294.2462 4294967295
-25.592661 872.06714 1294.2462 4294967295
-23.266054 872.06714 1294.2462 4294967295
-19.776146 872.06714 1294.2462 4294967295
-16.286238 872.06714 1294.2462 4294967295
-13.959633 872.06714 1294.2462 4294967295
-11.633027 872.06714 1294.2462 4294967295
-51.185322 873.84589 1295.746 4294967295
-48.858715 873.84589 1295.746 4294967295
-19.776146 873.84589 1295.746 4294967295
-16.286238 873.84589 1295.746 4294967295
-13.959633 873.84589 1295.746 4294967295
-10.469725 873.84589 1295.746 4294967295
-50.21101 880.42438 1294.7526 4294967295
-19.698166 880.71967 1295.0016 4294967295
-16.222019 880.71967 1295.0016 4294967295
-13.904587 881.60553 1295.7485 4294967295
-50.822018 885.31042 1293.6403 4294967295
-25.411009 886.19348 1294.3848 4294967295
-23.100918 886.19348 1294.3848 4294967295
-19.63578 886.19348 1294.3848 4294967295
-16.170643 887.07654 1295.1294 4294967295
-52.921101 893.00409 1293.5872 4294967295
-50.620182 893.00409 1293.5872 4294967295
-46.018349 893.00409 1293.5872 4294967295
-43.71743 893.00409 1293.5872 4294967295
-34.51376 893.00409 1293.5872 4294967295
-32.212845 893.00409 1293.5872 4294967295
-28.761467 893.00409 1293.5872 4294967295
-25.310091 893.00409 1293.5872 4294967295
-23.009174 893.00409 1293.5872 4294967295
-20.708258 893.00409 1293.5872 4294967295
-52.921101 894.76312 1295.0704 4294967295
-46.018349 894.76312 1295.0704 4294967295
-36.814678 894.76312 1295.0704 4294967295
-32.212845 894.76312 1295.0704 4294967295
-28.761467 894.76312 1295.0704 4294967295
-25.310091 894.76312 1295.0704 4294967295
-23.009174 894.76312 1295.0704 4294967295
-19.557798 894.76312 1295.0704 4294967295
-16.106422 894.76312 1295.0704 4294967295
-13.805505 894.76312 1295.0704 4294967295
-11.504587 894.76312 1295.0704 4294967295
-52.710091 901.53168 1294.2374 4294967295
-45.834862 901.53168 1294.2374 4294967295
-43.543118 900.65564 1293.4988 4294967295
-41.251377 900.65564 1293.4988 4294967295
-37.431805 901.23969 1293.9912 4294967295
-34.376148 901.53168 1294.2374 4294967295
-32.084404 901.53168 1294.2374 4294967295
-28.64679 901.53168 1294.2374 4294967295
-25.209175 901.53168 1294.2374 4294967295
-22.917431 901.53168 1294.2374 4294967295
-19.479816 902.40771 1294.9761 4294967295
-16.042202 902.40771 1294.9761 4294967295
-52.541283 907.79456 1294.2859 4294967295
-50.256882 907.79456 1294.2859 4294967295
-34.266056 907.79456 1294.2859 4294967295
-28.555046 907.79456 1294.2859 4294967295
-25.128441 907.79456 1294.2859 4294967295
-22.844036 907.79456 1294.2859 4294967295
-19.417431 907.79456 1294.2859 4294967295
-15.990826 907.79456 1294.2859 4294967295
-52.541283 909.54102 1295.7584 4294967295
-50.256882 909.54102 1295.7584 4294967295
-18.275229 909.54102 1295.7584 4294967295
-15.990826 909.54102 1295.7584 4294967295
-13.706422 909.54102 1295.7584 4294967295
-52.330276 915.36621 1294.13 4294967295
-50.055046 915.36621 1294.13 4294967295
-25.027523 915.36621 1294.13 4294967295
-22.752293 915.36621 1294.13 4294967295
-19.339451 916.23584 1294.8633 4294967295
-15.926605 916.2359 1294.8633 4294967295
-52.161469 920.69971 1293.3949 4294967295
-49.893578 920.69971 1293.3949 4294967295
-46.491745 920.69971 1293.3949 4294967295
-34.018349 920.69971 1293.3949 4294967295
-31.750458 920.69971 1293.3949 4294967295
-28.348625 920.69971 1293.3949 4294967295
-24.946789 920.69971 1293.3949 4294967295
-22.6789 920.69971 1293.3949 4294967295
-52.161469 922.43353 1294.8568 4294967295
-49.893578 922.43353 1294.8568 4294967295
-34.018349 922.43353 1294.8568 4294967295
-31.750458 922.43353 1294.8568 4294967295
-28.348625 922.43353 1294.8568 4294967295
-24.946789 922.43353 1294.8568 4294967295
-22.6789 922.43353 1294.8568 4294967295
-20.411009 922.43353 1294.8568 4294967295
-49.732109 928.60303 1294.8267 4294770687
-46.341286 928.60309 1294.8267 4294836223
-42.950459 928.60303 1294.8267 4294901759
-40.689907 928.60303 1294.8267 4294967295
-36.922325 928.315 1294.5839 4294967295
-33.908257 928.60303 1294.8267 4294967295
-31.647707 928.60303 1294.8267 4294967295
-33.770641 935.19983 1293.8488 4294967295
-33.770641 936.92102 1295.3 4293061631
-61.559631 760.48376 1296.9562 4294967295
2.4623854 760.48376 1296.9562 4294967295
4.9247708 760.48376 1296.9562 4294967295
-61.559631 762.36627 1298.5435 4294967295
4.9247708 762.36627 1298.5435 4294967295
7.387156 762.36627 1298.5435 4294967295
-58.877064 768.84229 1297.4637 4294967295
2.4532111 768.84229 1297.4637 4294967295
4.9064221 768.84229 1297.4637 4294967295
7.359633 768.84229 1297.4637 4294967295
2.4440367 775.29034 1296.3604 4294967295
-61.100918 777.15887 1297.9358 4294967295
2.4440367 777.15887 1297.9358 4294967295
4.8880734 777.15887 1297.9358 4294967295
-60.871559 785.43329 1298.3726 4294967295
-58.436699 783.57184 1296.803 4294967295
2.4348624 784.50256 1297.5878 4294967295
4.8697248 785.43329 1298.3726 4294967295
-60.596329 793.26868 1297.131 4294967295
2.4238532 793.26868 1297.131 4294967295
-60.366974 800.53528 1296.7178 4294967295
2.4146788 802.38135 1298.2743 4294967295
-61.340366 808.68622 1297.0503 4294967295
-2.4055047 808.68622 1297.0503 4294967295
0 808.68622 1297.0503 4294967295
-61.340366 810.52527 1298.601 4294967295
-2.4055047 810.52527 1298.601 4294967295
0 810.52527 1298.601 4294967295
-70.691742 818.62714 1298.8921 4291091453
-62.304588 817.71118 1298.1198 4294967295
-59.908257 816.79517 1297.3474 4294967295
-7.1889906 816.79517 1297.3474 4294967295
-4.7926607 816.79517 1297.3474 4294967295
-2.3963304 817.71118 1298.1198 4294967295
0 817.71118 1298.1198 4294967295
-59.678898 823.94946 1296.8396 4294967295
-10.344342 823.64532 1296.5831 4294967295
-7.161468 823.94946 1296.8396 4294967295
-4.774312 823.94946 1296.8396 4294967295
-9.5192661 830.55737 1297.1791 4294967295
-7.1394496 830.55737 1297.1791 4294967295
-4.7596331 830.55737 1297.1791 4294967295
-59.495415 832.37677 1298.7131 4294967295
-7.1394496 832.37677 1298.7131 4294967295
-4.7596331 832.37677 1298.7131 4294967295
-59.266056 838.55127 1297.3792 4294967295
-9.4825687 838.55127 1297.3792 4294967295
-7.1119266 838.55127 1297.3792 4294967295
-4.7412844 838.55127 1297.3792 4294967295
-59.266056 840.36365 1298.9072 4294967295
-4.7412844 840.36365 1298.9072 4294967295
-2.3706422 840.36365 1298.9072 4294967295
-56.675228 844.69769 1296.0215 4294967295
-22.433945 844.69769 1296.0215 4294967295
-18.891743 844.69769 1296.0215 4294967295
-16.530275 844.69769 1296.0215 4294967295
-14.168807 844.69769 1296.0215 4294967295
-10.626606 844.69769 1296.0215 4294967295
-7.0844035 844.69769 1296.0215 4294967295
-4.7229357 844.69769 1296.0215 4294967295
-59.036697 846.50305 1297.5438 4294967295
-56.675228 846.50305 1297.5438 4294967295
-22.433945 846.50305 1297.5438 4294967295
-18.891743 846.50305 1297.5438 4294967295
-16.530275 846.50305 1297.5438 4294967295
-14.168807 846.50305 1297.5438 4294967295
-10.626606 846.50305 1297.5438 4294967295
-7.0844035 846.50305 1297.5438 4294967295
-4.7229357 846.50305 1297.5438 4294967295
-2.3614678 846.50305 1297.5438 4294967295
0 846.50305 1297.5438 4294967295
-58.807339 853.51361 1296.9147 4294967295
-22.34679 852.61444 1296.1565 4294967295
-18.818348 853.51361 1296.9147 4294967295
-16.466055 852.61444 1296.1565 4294967295
-14.113762 852.61444 1296.1565 4294967295
-10.193272 853.21387 1296.662 4294967295
-7.056881 853.51361 1296.9147 4294967295
-4.704587 853.51361 1296.9147 4294967295
-2.3522935 853.51361 1296.9147 4294967295
0 854.41278 1297.6729 4294967295
-22.259632 860.48901 1296.2561 4294967295
-18.744955 860.48901 1296.2561 4294967295
-16.401834 860.48901 1296.2561 4294967295
-10.544037 860.48901 1296.2561 4294967295
-7.0293579 860.48901 1296.2561 4294967295
-7.0293579 862.2804 1297.7666 4294967295
-4.6862388 862.2804 1297.7666 4294967295
-2.3431194 862.2804 1297.7666 4294967295
0 862.2804 1297.7666 4294967295
-52.555046 868.72278 1297.9664 4294967295
-16.350458 867.82996 1297.2136 4294967295
-14.014679 867.82996 1297.2136 4294967295
-10.121713 868.42511 1297.7155 4294967295
-7.0073395 868.72278 1297.9664 4294967295
-4.6715598 868.72278 1297.9664 4294967295
-2.3357799 868.72278 1297.9664 4294967295
0 868.72278 1297.9664 4294967295
-51.185322 875.62457 1297.2457 4294967295
-18.612844 875.62457 1297.2457 4294967295
-16.286238 875.62457 1297.2457 4294967295
-13.959633 875.62457 1297.2457 4294967295
-10.469725 875.62457 1297.2457 4294967295
-6.9798164 875.62457 1297.2457 4294967295
-53.511925 877.40332 1298.7455 4294967295
-18.612844 877.40332 1298.7455 4294967295
-13.959633 877.40332 1298.7455 4294967295
-10.469725 877.40332 1298.7455 4294967295
-6.9798164 877.40332 1298.7455 4294967295
-4.6532111 877.40332 1298.7455 4294967295
-16.222019 883.3772 1297.2424 4294967295
-13.904587 883.3772 1297.2424 4294967295
-10.42844 883.3772 1297.2424 4294967295
-6.9522934 883.3772 1297.2424 4294967295
-53.300919 885.14893 1298.7362 4294967295
-13.904587 885.14893 1298.7362 4294967295
-10.42844 885.14893 1298.7362 4294967295
-6.9522934 885.14893 1298.7362 4294967295
-53.132111 888.84259 1296.6185 4294967295
-19.250765 889.43121 1297.1149 4294967295
-16.170643 889.72559 1297.363 4294967295
-13.860551 889.72559 1297.363 4294967295
-10.780429 890.01996 1297.6113 4294967295
-6.9302754 890.60864 1298.1077 4294967295
-52.921101 896.52222 1296.5536 4294967295
-32.212845 896.52222 1296.5536 4294967295
-28.761467 896.52222 1296.5536 4294967295
-25.310091 896.52222 1296.5536 4294967295
-23.009174 896.52222 1296.5536 4294967295
-19.557798 896.52222 1296.5536 4294967295
-16.106422 896.52222 1296.5536 4294967295
-13.805505 896.52222 1296.5536 4294967295
-11.504587 896.52222 1296.5536 4294967295
-6.9027524 896.52222 1296.5536 4294967295
-55.222019 898.28125 1298.0369 4294967295
-19.557798 898.28125 1298.0369 4294967295
-16.106422 898.28125 1298.0369 4294967295
-13.805505 898.28125 1298.0369 4294967295
-10.354128 898.28125 1298.0369 4294967295
-55.001835 905.03583 1297.192 4294967295
-19.479816 904.15979 1296.4534 4294967295
-16.042202 904.15979 1296.4534 4294967295
-13.750459 905.03583 1297.192 4294967295
-11.458715 905.91187 1297.9307 4294967295
-52.541283 911.28748 1297.231 4294967295
-15.990826 911.28748 1297.231 4294967295
-13.706422 911.28748 1297.231 4294967295
-11.422018 911.28748 1297.231 4294967295
-54.825687 913.03394 1298.7036 4294967295
-13.706422 913.03394 1298.7036 4294967295
-10.279816 913.03394 1298.7036 4294967295
-55.363911 920.00464 1298.041 4294967295
-18.960245 919.4248 1297.5521 4294967295
-15.926605 919.71472 1297.7966 4294967295
-13.651376 919.71472 1297.7966 4294967295
-11.376146 920.58447 1298.5299 4294967295
-54.429359 925.0343 1297.0497 4294836223
-52.161469 925.0343 1297.0497 4294770687
-34.018349 924.16736 1296.3187 4294967295
-31.750458 924.16736 1296.3187 4294967295
-28.348623 925.03424 1297.0497 4294967295
-24.946789 925.0343 1297.0497 4294967295
-22.6789 925.0343 1297.0497 4294967295
-19.277065 925.03424 1297.0497 4294967295
-49.732109 932.05945 1297.7411 4294967295
-46.341286 932.05945 1297.7411 4293851903
-42.950459 932.92358 1298.4697 4293589759
-40.689907 932.92358 1298.4697 4294574079
-36.922325 932.34747 1297.984 4294967295
-33.908257 931.19537 1297.0125 4294967295
-31.647707 932.05945 1297.7411 4294967295
-28.633638 932.34747 1297.984 4294967295
-22.605505 932.92358 1298.4697 4294967295
-33.770641 938.64221 1296.7512 4292798719
-31.519266 938.64221 1296.7512 4293061631
-38.273396 940.3634 1298.2025 4291616511
-33.770641 940.3634 1298.2025 4291615487
-31.519266 940.3634 1298.2025 4291287295
-64.260551 755.86212 1299.5995 4294967295
-61.78899 755.86212 1299.5995 4294967295
4.943119 755.86212 1299.5995 4294967295
7.4146791 755.86212 1299.5995 4294967295
-64.260551 757.75165 1301.1926 4294967295
7.4146791 757.75165 1301.1926 4294967295
9.8862381 757.75165 1301.1926 4294967295
-61.559631 764.24878 1300.1307 4294967295
7.387156 764.24878 1300.1307 4294967295
9.8495417 764.24878 1300.1307 4294967295
-64.022018 766.13135 1301.718 4294967295
-61.559631 766.13135 1301.718 4294967295
9.8495417 766.13135 1301.718 4294967295
12.311927 766.13135 1301.718 4294967295
-61.330276 770.71783 1299.0452 4294967295
4.9064221 770.71783 1299.0452 4294967295
7.359633 770.71783 1299.0452 4294967295
-61.330276 772.59332 1300.6265 4294967295
4.9064221 772.59332 1300.6265 4294967295
7.359633 772.59332 1300.6265 4294967295
9.8128443 772.59332 1300.6265 4294967295
-61.100918 779.02734 1299.5114 4294967295
2.4440367 779.02734 1299.5114 4294967295
4.8880734 779.02734 1299.5114 4294967295
-61.100918 780.89581 1301.0868 4294967295
4.8880734 780.89581 1301.0868 4294967295
7.3321099 780.89581 1301.0868 4294967295
2.4348624 787.2948 1299.942 4294967295
4.8697248 787.2948 1299.942 4294967295
7.3045874 787.2948 1299.942 4294967295
-64.523857 789.15625 1301.5116 4294967295
4.8697248 789.15625 1301.5116 4294967295
7.3045874 789.15625 1301.5116 4294967295
-63.020184 797.90137 1301.0371 4294967295
2.4238532 796.97485 1300.2559 4294967295
4.8477063 797.90137 1301.0371 4294967295
7.2715597 797.90137 1301.0371 4294967295
-67.611008 806.07336 1301.3873 4294967295
-65.196327 806.07336 1301.3873 4294967295
-62.781651 804.22736 1299.8308 4294967295
2.4146788 805.15039 1300.6091 4294967295
4.8293576 805.15039 1300.6091 4294967295
-62.543118 812.36426 1300.1516 4294967295
2.4055047 812.36426 1300.1516 4294967295
-69.759636 814.20331 1301.7021 4293853183
-67.354126 814.20331 1301.7021 4294967295
-64.948624 814.20331 1301.7021 4294967295
2.4055047 814.20331 1301.7021 4294967295
4.8110094 814.20331 1301.7021 4294967295
7.2165136 814.20331 1301.7021 4294836223
-62.304588 820.45917 1300.4368 4294967295
-2.3963304 820.45917 1300.4368 4294967295
0 820.45917 1300.4368 4294967295
-69.493576 822.2912 1301.9814 4293918719
-62.304588 822.2912 1301.9814 4294967295
-2.3963304 822.2912 1301.9814 4294967295
0 822.2912 1301.9814 4294967295
-59.678898 826.68701 1299.1478 4294967295
-7.161468 826.68701 1299.1478 4294967295
-4.774312 826.68701 1299.1478 4294967295
-2.387156 826.68701 1299.1478 4294967295
-59.678898 828.51196 1300.6866 4294967295
-2.387156 828.51196 1300.6866 4294967295
0 828.51196 1300.6866 4294967295
-61.875229 836.0155 1301.7812 4294967295
-59.495415 834.19617 1300.2472 4294967295
-2.3798165 836.0155 1301.7812 4294967295
0 836.0155 1301.7812 4294967295
-59.266056 842.17603 1300.4354 4294967295
-2.3706422 842.17603 1300.4354 4294967295
0 842.17603 1300.4354 4294967295
-61.636696 843.9884 1301.9636 4294967295
-59.036697 848.30841 1299.066 4294967295
-18.891743 848.30841 1299.066 4294967295
-16.530275 848.30841 1299.066 4294967295
-10.626606 848.30841 1299.066 4294967295
-7.0844035 848.30841 1299.066 4294967295
-4.7229357 848.30841 1299.066 4294967295
-2.3614678 848.30841 1299.066 4294967295
0 848.30841 1299.066 4294967295
-61.398167 850.11377 1300.5883 4294967295
0 850.11377 1300.5883 4294967295
-58.807339 856.21118 1299.1892 4294967295
-9.409174 856.21118 1299.1892 4294967295
-7.056881 856.21118 1299.1892 4294967295
-4.704587 856.21118 1299.1892 4294967295
-2.3522935 856.21118 1299.1892 4294967295
0 856.21118 1299.1892 4294967295
-4.704587 858.00952 1300.7056 4294967295
-2.3522935 858.00952 1300.7056 4294967295
0 858.00952 1300.7056 4294967295
-56.234863 864.96741 1300.0322 4294967295
-2.3431194 864.07172 1299.277 4294967295
0 864.07172 1299.277 4294967295
-53.722935 871.40137 1300.225 4294967295
-7.0073395 871.40137 1300.225 4294967295
-4.6715598 871.40137 1300.225 4294967295
-2.3357799 871.40137 1300.225 4294967295
0 871.40137 1300.225 4294967295
-56.058716 873.18713 1301.7306 4294967295
-53.722935 873.18713 1301.7306 4294967295
-4.6715598 873.18713 1301.7306 4294967295
-2.3357799 873.18713 1301.7306 4294967295
0 873.18713 1301.7306 4294967295
-55.838531 880.96069 1301.745 4294967295
-53.511925 880.07135 1300.9951 4294967295
-10.469725 879.18201 1300.2452 4294967295
-6.9798164 879.18201 1300.2452 4294967295
-4.6532111 880.07135 1300.9951 4294967295
-2.3266056 880.96069 1301.745 4294967295
0 880.96069 1301.745 4294967295
-9.2697248 886.92059 1300.2301 4294967295
-6.9522934 886.92059 1300.2301 4294967295
-4.6348624 886.92059 1300.2301 4294967295
-55.618347 888.69226 1301.7239 4294967295
-4.6348624 888.69226 1301.7239 4294967295
-2.3174312 888.69226 1301.7239 4294967295
-55.442204 892.37476 1299.5967 4294967295
-9.2403669 892.37476 1299.5967 4294967295
-6.9302754 892.37476 1299.5967 4294967295
-55.442204 894.14087 1301.0858 4294967295
-9.2403669 894.14087 1301.0858 4294967295
-57.522934 901.79944 1301.0032 4294967295
-55.222019 900.04034 1299.52 4294967295
-13.805505 900.04034 1299.52 4294967295
-10.354128 900.91992 1300.2616 4294967295
-55.001835 907.66394 1299.408 4294967295
-11.458715 907.66394 1299.408 4294967295
-57.293579 909.41602 1300.8851 4294967295
-55.001835 909.41602 1300.8851 4294967295
-9.1669722 909.41602 1300.8851 4294967295
-6.8752294 909.41602 1300.8851 4294967295
-57.110092 914.78033 1300.1761 4294967295
-54.825687 914.78033 1300.1761 4294967295
-13.706422 914.78033 1300.1761 4294967295
-10.279816 914.78033 1300.1761 4294967295
-6.8532109 914.78033 1300.1761 4294967295
-57.110092 916.52679 1301.6487 4294967295
-10.279816 916.52679 1301.6487 4294967295
-6.8532109 916.52679 1301.6487 4294967295
-56.880733 922.32391 1299.9966 4294967295
-15.926605 922.32391 1299.9966 4294967295
-13.651376 922.32391 1299.9966 4294967295
-10.238532 922.32391 1299.9966 4294967295
-6.8256879 922.32391 1299.9966 4294967295
-56.880733 924.06335 1301.4633 4294377471
-15.926605 924.06335 1301.4633 4294967295
-13.651376 924.06335 1301.4633 4294967295
-10.238532 924.06335 1301.4633 4294967295
-6.8256879 924.06335 1301.4633 4294967295
-55.563301 928.50189 1299.9735 4294246399
-52.161469 928.50189 1299.9735 4294967295
-27.970642 928.21289 1299.7299 4294967295
-24.946789 928.50189 1299.9735 4294967295
-22.6789 928.50189 1299.9735 4294967295
-19.277065 928.50183 1299.9735 4294967295
-15.875229 928.50189 1299.9735 4294967295
-13.60734 928.50189 1299.9735 4294967295
-11.33945 929.36877 1300.7045 4294967295
-46.341286 934.65179 1299.9269 4294311679
-42.950459 934.65179 1299.9269 4292077298
-40.689907 934.65179 1299.9269 4292600319
-37.299084 934.65179 1299.9269 4292600830
-31.647707 934.65179 1299.9269 4293259263
-28.256882 934.65179 1299.9269 4293654271
-24.866055 934.65179 1299.9269 4293983231
-22.605505 934.65179 1299.9269 4293984255
-19.21468 934.65179 1299.9269 4294377471
-45.21101 936.38 1301.384 4292473087
-42.950459 936.38 1301.384 4291420412
-40.689907 936.38 1301.384 4291682047
-37.299084 936.38 1301.384 4292010239
-28.256882 936.38 1301.384 4293390847
-22.605505 936.38 1301.384 4294048511
-20.344954 936.38 1301.384 4294574079
-38.273396 943.80579 1301.1051 4291156223
-33.770641 942.94519 1300.3794 4291549183
-31.519266 942.94519 1300.3794 4291417343
-66.732109 760.58594 1303.5825 4294967295
-64.260551 760.58594 1303.5825 4294967295
9.8862381 759.64117 1302.7859 4294967295
13.181652 760.90088 1303.848 4294967295
-64.022018 768.95508 1304.0989 4294967295
9.8495417 768.01379 1303.3053 4294967295
13.543119 768.95508 1304.0989 4294967295
-63.783485 775.40662 1302.9985 4294967295
7.359633 775.40662 1302.9985 4294967295
9.8128443 775.40662 1302.9985 4294967295
12.266055 775.40662 1302.9985 4294967295
7.3321099 782.76428 1302.6622 4294967295
9.7761469 782.76428 1302.6622 4294967295
12.220183 782.76428 1302.6622 4294967295
-64.766968 784.63281 1304.2377 4294967295
9.7761469 784.63281 1304.2377 4294967295
12.220183 784.63281 1304.2377 4294967295
34.216515 784.63281 1304.2377 4294311935
-64.523857 791.0177 1303.0812 4294967295
4.8697248 791.0177 1303.0812 4294967295
7.3045874 791.0177 1303.0812 4294967295
-68.176147 792.87921 1304.6508 4294967295
-64.523857 792.87921 1304.6508 4294967295
4.8697248 792.87921 1304.6508 4294967295
7.3045874 792.87921 1304.6508 4294967295
4.8477063 799.75439 1302.5996 4294967295
7.2715597 799.75439 1302.5996 4294967295
7.2715597 801.60742 1304.162 4294967295
-67.611008 808.84247 1303.7222 4294967295
-65.196327 808.84247 1303.7222 4294967295
2.4146788 807.91943 1302.9438 4294967295
4.8293576 808.84247 1303.7222 4294967295
7.2440367 808.84247 1303.7222 4294901759
9.6587152 809.7655 1304.5005 4293720575
-72.165138 817.88135 1304.8035 4288460795
-69.759636 817.88135 1304.8035 4293853183
-67.354126 816.96185 1304.0281 4294967295
-64.948624 816.96185 1304.0281 4294967295
2.4055047 816.96185 1304.0281 4294967295
4.8110094 816.96185 1304.0281 4294967295
7.2165136 816.96185 1304.0281 4294967295
9.6220188 817.88135 1304.8035 4293590271
-62.304588 824.12317 1303.5262 4294967295
0 824.12317 1303.5262 4294967295
-62.066055 830.33698 1302.2253 4294967295
-2.387156 830.33698 1302.2253 4294967295
0 830.33698 1302.2253 4294967295
-62.066055 832.16199 1303.7642 4294967295
-2.387156 832.16199 1303.7642 4294967295
0 832.16199 1303.7642 4294967295
-61.875229 838.74463 1304.0823 4294967295
1.1899083 838.74463 1304.0823 4294967295
4.7596331 839.6543 1304.8494 4294967295
-61.636696 845.80078 1303.4917 4294967295
2.3706422 845.80078 1303.4917 4294967295
-61.398167 851.91919 1302.1105 4294967295
-61.398167 853.72449 1303.6327 4294967295
-58.807339 861.6062 1303.7382 4294967295
2.3522935 861.6062 1303.7382 4294967295
-56.234863 868.55005 1303.053 4294967295
2.3431194 868.55005 1303.053 4294967295
-58.394497 874.97284 1303.2363 4294967295
-56.058716 874.97284 1303.2363 4294967295
-2.3357799 874.97284 1303.2363 4294967295
0 874.97284 1303.2363 4294967295
-58.394497 876.75854 1304.7419 4294967295
-56.058716 876.75854 1304.7419 4294967295
-2.3357799 876.75854 1304.7419 4294967295
0 876.75854 1304.7419 4294967295
-58.165138 883.62878 1303.9946 4294967295
-55.838531 883.62878 1303.9946 4294967295
-4.6532111 882.73938 1303.2448 4294967295
-2.3266056 883.62878 1303.9946 4294967295
0 883.62878 1303.9946 4294967295
-57.93578 890.46399 1303.2178 4294967295
-4.6348624 890.46399 1303.2178 4294967295
-2.3174312 890.46399 1303.2178 4294967295
0 890.46399 1303.2178 4294967295
-57.93578 892.23566 1304.7117 4294967295
-4.6348624 892.23566 1304.7117 4294967295
-2.3174312 892.23566 1304.7117 4294967295
0 892.23566 1304.7117 4294967295
-57.752293 895.90692 1302.575 4294967295
-6.9302754 895.90692 1302.575 4294967295
-4.6201835 895.90692 1302.575 4294967295
-57.752293 897.67303 1304.0641 4294967295
-6.9302754 897.67303 1304.0641 4294967295
-4.6201835 897.67303 1304.0641 4294967295
-2.3100917 897.67303 1304.0641 4294967295
-57.522934 904.43799 1303.228 4294967295
-9.2036695 904.43799 1303.228 4294967295
-6.9027524 904.43799 1303.228 4294967295
-4.6018348 904.43799 1303.228 4294967295
-2.3009174 904.43799 1303.228 4294967295
0 905.31757 1303.9696 4294967295
-57.293579 911.16803 1302.3624 4294967295
-6.8752294 911.16803 1302.3624 4294967295
-4.5834861 911.16803 1302.3624 4294967295
-2.291743 911.16803 1302.3624 4294967295
0 911.16803 1302.3624 4294967295
-4.5834861 912.92004 1303.8397 4294967295
-2.291743 912.92004 1303.8397 4294967295
0 912.92004 1303.8397 4294967295
-59.394497 920.01965 1304.5938 4294639615
-9.1376143 918.27325 1303.1212 4294967295
-6.8532109 918.27325 1303.1212 4294967295
-4.5688071 919.14648 1303.8574 4294967295
-2.2844036 920.01965 1304.5938 4294967295
0 920.01965 1304.5938 4294967295
-59.155964 925.80273 1302.9298 4291289343
-10.238532 925.80273 1302.9298 4294967295
-6.8256879 925.80273 1302.9298 4294967295
-59.155964 927.54224 1304.3965 4291224063
-9.1009178 927.54224 1304.3965 4294967295
-6.8256879 927.54224 1304.3965 4294967295
-4.5504589 927.54224 1304.3965 4294967295
0 927.54224 1304.3965 4294967295
-55.185322 931.6806 1302.6537 4294377471
-52.161469 931.96954 1302.8973 4294967295
-49.893578 932.83643 1303.6283 4294967295
-24.946789 931.10266 1302.1664 4294967295
-19.277065 931.10266 1302.1664 4294967295
-15.875229 931.96954 1302.8973 4294836223
-13.60734 931.96954 1302.8973 4294967295
-10.205505 931.96948 1302.8973 4294967295
-6.8036699 931.96954 1302.8973 4294967295
-45.21101 938.10822 1302.8412 4291424511
-42.950459 938.10822 1302.8412 4290569215
-40.689907 938.10822 1302.8412 4291419135
-36.168808 938.10822 1302.8412 4291812607
-28.256882 938.10822 1302.8412 4291945215
-42.950459 939.83643 1304.2983 4291682553
-40.689907 939.83643 1304.2983 4291484927
-37.299084 939.83643 1304.2983 4291747327
-28.256882 939.83643 1304.2983 4292141823
-38.273396 945.52698 1302.5563 4291483903
-33.770641 946.38757 1303.282 4291352063
-31.519266 946.38757 1303.282 4291417343
-69.511925 756.37109 1307.8767 4294967295
14.895412 756.37109 1307.8767 4294967295
17.377981 756.37109 1307.8767 4294967295
19.86055 756.37109 1307.8767 4294967295
-66.732109 763.42023 1305.9723 4294967295
14.829358 763.42023 1305.9723 4294967295
-66.732109 765.30975 1307.5654 4294967295
17.300917 765.30975 1307.5654 4294967295
14.774312 771.77887 1306.4799 4294967295
-63.783485 778.21985 1305.3706 4294967295
9.8128443 778.21985 1305.3706 4294967295
13.492661 778.21985 1305.3706 4294967295
-63.783485 780.09534 1306.952 4294967295
14.719266 780.09534 1306.952 4294967295
17.172478 780.09534 1306.952 4294967295
34.344955 780.09534 1306.952 4294443007
-70.877068 787.43555 1306.6008 4294377471
-68.433029 787.43555 1306.6008 4294967295
9.7761469 787.43555 1306.6008 4294967295
13.442202 787.43549 1306.6008 4294967295
17.108257 788.36975 1307.3887 4294967295
34.216515 787.43555 1306.6008 4294377471
-65.741287 794.74066 1306.2202 4294967295
9.7394495 794.74066 1306.2202 4294246399
12.174312 794.74066 1306.2202 4294246399
-63.306423 796.60217 1307.7898 4294967295
9.7394495 796.60217 1307.7898 4294246399
12.174312 796.60217 1307.7898 4294377471
7.2715597 803.46051 1305.7245 4294901759
9.6954126 805.3136 1307.2869 4293786623
9.6587152 811.61151 1306.057 4293327103
13.280734 811.61151 1306.057 4293195263
9.6587152 813.45758 1307.6135 4293458943
13.280734 813.45758 1307.6135 4293392639
16.902752 813.45758 1307.6135 4293260799
-72.966972 820.94647 1307.3878 4288526064
-69.759636 821.55945 1307.9047 4293918719
-67.354126 820.63989 1307.1294 4294967295
-64.948624 820.63989 1307.1294 4294967295
2.4055047 820.63989 1307.1294 4294967295
4.8110094 820.63989 1307.1294 4294967295
7.2165136 820.63989 1307.1294 4294967295
9.6220188 820.63989 1307.1294 4293458943
-62.304588 825.9552 1305.0709 4294967295
-66.84037 833.987 1305.303 4294967295
-66.84037 835.81201 1306.8418 4294967295
-64.453209 835.81201 1306.8418 4294967295
2.387156 835.81201 1306.8418 4294967295
4.774312 835.81201 1306.8418 4294967295
-64.255043 841.47369 1306.3834 4294967295
2.3798165 841.47369 1306.3834 4294967295
4.7596331 841.47369 1306.3834 4294967295
7.1394496 841.47369 1306.3834 4294967295
-66.634865 843.29309 1307.9175 4294967295
-64.255043 843.29309 1307.9175 4294967295
4.7596331 843.29309 1307.9175 4294967295
7.1394496 843.29309 1307.9175 4294967295
9.5192661 843.29309 1307.9175 4293195007
-66.377983 847.61316 1305.0199 4294967295
-64.007339 847.61316 1305.0199 4294967295
2.3706422 847.61316 1305.0199 4294967295
4.7412844 847.61316 1305.0199 4294967295
-66.377983 849.42554 1306.5481 4294967295
-64.007339 849.42554 1306.5481 4294967295
2.3706422 849.42554 1306.5481 4294967295
4.7412844 849.42554 1306.5481 4294967295
-61.398167 856.43256 1305.916 4294967295
-59.036697 856.43256 1305.916 4294967295
2.3614678 856.43256 1305.916 4294967295
-58.807339 863.40454 1305.2545 4294967295
2.3522935 863.40454 1305.2545 4294967295
-58.807339 865.20288 1306.7708 4294967295
4.704587 865.20288 1306.7708 4294967295
7.056881 865.20288 1306.7708 4294967295
-58.57798 871.23706 1305.3186 4294967295
2.3431194 871.23706 1305.3186 4294967295
4.6862388 871.23706 1305.3186 4294967295
7.0293579 871.23706 1305.3186 4294967295
2.3431194 873.02844 1306.829 4294967295
4.6862388 873.02844 1306.829 4294967295
7.0293579 873.02844 1306.829 4294967295
-58.394497 878.54431 1306.2477 4294967295
2.3357799 878.54431 1306.2477 4294967295
-60.730274 880.33002 1307.7534 4294967295
2.3357799 880.33002 1307.7534 4294967295
4.6715598 880.33002 1307.7534 4294967295
-60.491745 886.29688 1306.2443 4294967295
-58.165138 886.29688 1306.2443 4294967295
0 886.29688 1306.2443 4294967295
-60.491745 888.07556 1307.744 4294967295
2.3266056 888.07556 1307.744 4294967295
-60.253212 894.89319 1306.9524 4294836223
-2.3174312 894.00739 1306.2054 4294967295
0 894.89319 1306.9524 4294967295
-60.062386 899.43909 1305.5532 4294967295
-6.9302754 899.43909 1305.5532 4294967295
-4.6201835 899.43909 1305.5532 4294967295
-2.3100917 899.43909 1305.5532 4294967295
-60.062386 901.2052 1307.0424 4294705151
0 901.2052 1307.0424 4294967295
-59.823853 907.95618 1306.1945 4294967295
-4.6018348 907.07666 1305.4529 4294967295
-2.3009174 907.07666 1305.4529 4294967295
0 907.07666 1305.4529 4294967295
-4.5834861 914.67212 1305.317 4294967295
-2.291743 914.67212 1305.317 4294967295
0 914.67212 1305.317 4294967295
-59.58532 916.42419 1306.7943 4294639615
-2.291743 916.42419 1306.7943 4294967295
1.1458715 916.42419 1306.7943 4294967295
-59.394497 921.76611 1306.0664 4292207871
-4.5688071 922.63934 1306.8027 4294967295
-2.2844036 922.63934 1306.8027 4294967295
0 922.63934 1306.8027 4294967295
-59.155964 929.28162 1305.8632 4291026431
-4.5504589 929.28162 1305.8632 4294967295
0 929.28162 1305.8632 4294967295
-56.880733 931.02106 1307.3298 4293525503
-4.5504589 931.02106 1307.3298 4294967295
-52.161469 934.57031 1305.0902 4294967295
-49.893578 934.57031 1305.0902 4294967295
-47.625687 934.57031 1305.0902 4294967295
-24.946789 934.57031 1305.0902 4293785855
-18.14312 934.57031 1305.0902 4294508543
-15.875229 934.57031 1305.0902 4294639615
-13.60734 934.57031 1305.0902 4294967295
-10.205505 934.57031 1305.0902 4294967295
-6.8036699 934.57031 1305.0902 4294967295
-49.893578 936.30408 1306.5521 4294967295
-47.625687 936.30408 1306.5521 4294967295
-24.946789 936.30408 1306.5521 4292076799
-22.6789 936.30408 1306.5521 4291812863
-19.277065 936.30408 1306.5521 4292470015
-42.950459 941.56458 1305.7556 4291877375
-40.689907 941.56458 1305.7556 4291090431
-36.168808 941.56458 1305.7556 4291483391
-28.256882 941.56458 1305.7556 4291680511
-40.689907 943.29285 1307.2128 4291549695
-36.168808 943.29285 1307.2128 4291549183
-29.387156 943.29285 1307.2128 4291549183
-33.770641 948.96936 1305.4589 4291614719
-31.519266 948.96936 1305.4589 4291614463
-69.511925 758.26904 1309.4771 4294967295
17.377981 758.26904 1309.4771 4294967295
19.86055 758.26904 1309.4771 4294967295
22.343119 758.26904 1309.4771 4294967295
24.825687 758.26904 1309.4771 4294967295
-66.732109 767.19928 1309.1587 4294967295
17.300917 767.19928 1309.1587 4294967295
27.187157 767.19928 1309.1587 4294967295
-66.732109 769.08881 1310.7518 4294967295
17.300917 769.08881 1310.7518 4294967295
19.772476 769.08881 1310.7518 4294967295
24.715597 769.08881 1310.7518 4294967295
28.422935 769.08881 1310.7518 4294836223
34.601833 769.08881 1310.7518 4294311935
-66.484406 773.66138 1308.0671 4294967295
14.774312 773.66138 1308.0671 4294967295
17.236698 773.66138 1308.0671 4294967295
-66.484406 775.54388 1309.6545 4294967295
17.236698 775.54388 1309.6545 4294967295
27.086239 775.54388 1309.6545 4294967295
34.473396 775.54388 1309.6545 4294311935
-71.14312 781.97083 1308.5333 4293459967
-68.689911 781.97083 1308.5333 4294967295
14.719266 781.97083 1308.5333 4294967295
17.172478 781.97083 1308.5333 4294967295
19.625689 781.97083 1308.5333 4294967295
26.985321 781.97083 1308.5333 4294836223
29.438532 781.97083 1308.5333 4294836223
31.891743 781.97083 1308.5333 4294639615
17.172478 783.84631 1310.1147 4294967295
19.625689 783.84631 1310.1147 4294967295
22.078899 783.84631 1310.1147 4294967295
25.758717 783.84631 1310.1147 4294770687
29.438532 783.84631 1310.1147 4294705151
31.891743 783.84631 1310.1147 4294705151
9.7761469 790.23828 1308.9641 4294770687
13.442202 790.23828 1308.9641 4294836223
17.108257 790.23828 1308.9641 4294967295
31.772476 790.23828 1308.9641 4294639615
34.216515 790.23828 1308.9641 4294311935
-68.433029 792.10675 1310.5396 4294967295
14.66422 792.10675 1310.5396 4293852415
17.108257 792.10675 1310.5396 4293984255
19.552294 792.10675 1310.5396 4294180863
31.772476 792.10675 1310.5396 4294508543
34.216515 792.10675 1310.5396 4294180863
36.660549 792.10675 1310.5396 4294246399
9.7394495 799.39435 1310.144 4293720575
13.391743 799.39435 1310.144 4293720575
17.044037 799.39435 1310.144 4293983231
34.088074 800.32507 1310.9288 4293852415
36.522934 799.39435 1310.144 4293983743
13.331193 807.16663 1308.8494 4293523455
16.966972 808.09314 1309.6306 4293523455
36.3578 809.01965 1310.4117 4293457919
13.280734 815.30359 1309.17 4293392639
16.902752 815.30359 1309.17 4293457919
36.220184 815.30359 1309.17 4293457151
13.280734 817.14966 1310.7266 4293523967
16.902752 817.14966 1310.7266 4293589247
19.31743 817.14966 1310.7266 4293457407
21.732111 817.14966 1310.7266 4293391615
33.805504 817.14966 1310.7266 4293457407
37.427521 817.14966 1310.7266 4293391359
-73.367889 823.39844 1309.4553 4288460011
-69.759636 823.39844 1309.4553 4293853183
-67.354126 823.39844 1309.4553 4294967295
-64.948624 823.39844 1309.4553 4294967295
2.4055047 823.39844 1309.4553 4294967295
4.8110094 823.39844 1309.4553 4294967295
7.2165136 823.39844 1309.4553 4294967295
9.6220188 823.39844 1309.4553 4293655807
13.230275 823.39844 1309.4553 4293655295
-67.097244 829.61926 1308.1604 4294967295
2.3963304 829.61926 1308.1604 4294967295
4.7926607 829.61926 1308.1604 4294967295
7.1889906 829.61926 1308.1604 4294967295
-70.691742 831.45123 1309.7051 4290961407
-64.70092 831.45123 1309.7051 4294967295
2.3963304 831.45123 1309.7051 4294967295
4.7926607 831.45123 1309.7051 4294967295
7.1889906 831.45123 1309.7051 4294967295
9.5853214 831.45123 1309.7051 4293722111
-66.84037 839.46198 1309.9193 4294967295
7.161468 837.63696 1308.3806 4294967295
9.548624 838.54944 1309.1499 4293392383
14.322936 839.46198 1309.9193 4293325567
7.1394496 845.11249 1309.4515 4294967295
9.5192661 845.11249 1309.4515 4292932095
7.1394496 846.93188 1310.9856 4294573050
10.709174 846.93188 1310.9856 4291420926
14.278899 846.93188 1310.9856 4292206847
-66.377983 851.23792 1308.0762 4294967295
-64.007339 851.23792 1308.0762 4294967295
2.3706422 851.23792 1308.0762 4294967295
4.7412844 851.23792 1308.0762 4294967295
-66.377983 853.05029 1309.6044 4294967295
-64.007339 853.05029 1309.6044 4294967295
4.7412844 853.05029 1309.6044 4294967295
7.1119266 853.05029 1309.6044 4294836223
9.4825687 853.05029 1309.6044 4292997119
-66.121101 860.94598 1309.7217 4294967295
-63.759632 860.04333 1308.9606 4294967295
-61.398167 860.04333 1308.9606 4294967295
4.7229357 860.04333 1308.9606 4294967295
7.0844035 860.04333 1308.9606 4294967295
-61.159634 868.79956 1309.8035 4294967295
-58.807339 867.00122 1308.2871 4294967295
4.704587 867.00122 1308.2871 4294967295
7.056881 867.00122 1308.2871 4294967295
10.585321 868.79956 1309.8035 4292406525
14.113762 868.79956 1309.8035 4292537087
-60.921101 874.8197 1308.3394 4294967295
2.3431194 874.8197 1308.3394 4294967295
4.6862388 874.8197 1308.3394 4294967295
7.0293579 874.8197 1308.3394 4294967295
10.544037 874.8197 1308.3394 4292406270
-63.264221 876.61108 1309.8499 4294967295
-60.921101 876.61108 1309.8499 4294967295
4.6862388 876.61108 1309.8499 4294967295
7.0293579 876.61108 1309.8499 4294967295
9.3724775 876.61108 1309.8499 4292735487
-70.073395 883.90143 1310.7646 4290697215
-63.844646 883.30615 1310.2628 4294967295
-60.730274 882.11572 1309.259 4294967295
2.3357799 883.00854 1310.0118 4294967295
4.6715598 883.00854 1310.0118 4294967295
7.0073395 883.00854 1310.0118 4294967295
10.511009 883.90143 1310.7646 4292799993
-65.144951 889.85425 1309.2438 4294705151
-61.655045 889.85425 1309.2438 4294967295
2.3266056 889.85425 1309.2438 4294967295
4.6532111 889.85425 1309.2438 4294967295
-65.144951 891.63293 1310.7435 4294705151
-62.818348 891.63293 1310.7435 4294967295
2.3266056 891.63293 1310.7435 4294967295
4.6532111 891.63293 1310.7435 4294967295
-64.888077 899.32251 1310.687 4294311935
-62.570641 897.55078 1309.1931 4294967295
1.1587156 898.43665 1309.9401 4294967295
4.6348624 899.32251 1310.687 4294967295
-60.062386 902.97125 1308.5315 4294967295
-62.372478 904.73737 1310.0205 4294967295
2.3100917 904.73737 1310.0205 4294967295
4.6201835 904.73737 1310.0205 4294967295
-59.823853 910.59479 1308.4192 4294901759
2.3009174 910.59479 1308.4192 4294967295
4.6018348 910.59479 1308.4192 4294967295
-59.823853 912.35388 1309.9025 4294967295
2.3009174 912.35388 1309.9025 4294967295
4.6018348 912.35388 1309.9025 4294967295
-61.877064 919.92834 1309.7489 4290892287
2.291743 919.05231 1309.0103 4294967295
4.5834861 919.05231 1309.0103 4294967295
-2.2844036 925.25903 1309.0115 4294967295
-2.2844036 927.00549 1310.484 4294967295
2.2844036 927.00549 1310.484 4294967295
-55.743118 932.7605 1308.7964 4294508543
-54.605503 934.49994 1310.2631 4292208895
-52.330276 934.49994 1310.2631 4294967295
-15.926605 934.49994 1310.2631 4292798463
-9.1009178 934.49994 1310.2631 4292799999
-6.8256879 934.49994 1310.2631 4292997119
-46.491745 938.0379 1308.014 4293523199
-24.946789 938.0379 1308.014 4292536063
-22.6789 938.0379 1308.014 4292009471
-46.113758 940.34967 1309.9633 4292338175
-43.089909 941.50555 1310.9379 4291877887
-27.21468 941.50555 1310.9379 4291549439
-24.946789 939.77173 1309.476 4291878399
-40.689907 945.88513 1309.3984 4291088636
-37.299084 945.88513 1309.3984 4291220477
-29.387156 945.88513 1309.3984 4291548927
-72.260551 755.5509 1313.7253 4293001215
-69.511925 760.16699 1311.0774 4294967295
17.377981 760.16699 1311.0774 4294967295
19.86055 760.16699 1311.0774 4294967295
22.343119 760.16699 1311.0774 4294967295
24.825687 760.16699 1311.0774 4294967295
27.308256 760.16699 1311.0774 4294770687
-69.511925 762.06494 1312.6776 4294967295
19.86055 762.06494 1312.6776 4294967295
22.343119 762.06494 1312.6776 4294967295
24.825687 762.06494 1312.6776 4294967295
28.549541 762.06494 1312.6776 4294508543
-69.203667 770.97833 1312.3451 4294967295
19.772476 770.97833 1312.3451 4294967295
22.244038 770.97833 1312.3451 4294967295
24.715597 770.97833 1312.3451 4294967295
28.422935 770.97833 1312.3451 4294705151
32.130276 770.97833 1312.3451 4294639615
34.601833 770.97833 1312.3451 4294311935
-69.203667 772.86786 1313.9382 4294967295
19.772476 772.86786 1313.9382 4294836223
22.244038 772.86786 1313.9382 4294967295
24.715597 772.86786 1313.9382 4294967295
29.658716 772.86786 1313.9382 4294574079
32.130276 772.86786 1313.9382 4294574079
-66.484406 777.42639 1311.2418 4294967295
19.699083 777.42639 1311.2418 4294967295
22.161469 778.36768 1312.0354 4294901759
24.623854 778.36768 1312.0354 4294705151
28.317432 777.42639 1311.2418 4294770687
32.011009 777.42639 1311.2418 4294508543
19.625689 785.7218 1311.6962 4294639615
22.078899 785.7218 1311.6962 4294705151
25.758717 785.7218 1311.6962 4294770687
29.438532 785.7218 1311.6962 4294246399
31.891743 785.7218 1311.6962 4294311935
19.625689 787.59735 1313.2775 4294705151
22.078899 787.59735 1313.2775 4294705151
25.758717 787.59735 1313.2775 4294836223
29.438532 787.59735 1313.2775 4294639615
-68.433029 793.97522 1312.115 4294967295
-65.988991 793.97522 1312.115 4294967295
14.66422 793.97522 1312.115 4294049279
17.108257 793.97522 1312.115 4294115071
19.552294 793.97522 1312.115 4294180863
25.662384 793.97522 1312.115 4294180607
29.32844 793.97522 1312.115 4294311935
31.772476 793.97522 1312.115 4294443007
34.216515 793.97522 1312.115 4294180863
-68.433029 795.84375 1313.6904 4294967295
-65.988991 795.84375 1313.6904 4294967295
19.552294 795.84375 1313.6904 4294049023
21.99633 795.84375 1313.6904 4293983231
25.662384 795.84375 1313.6904 4294114559
29.32844 795.84375 1313.6904 4293916927
31.772476 795.84375 1313.6904 4294048511
34.216515 795.84375 1313.6904 4294115071
13.391743 802.18652 1312.4984 4293655039
17.044037 802.18652 1312.4984 4293720575
19.478899 802.18652 1312.4984 4293391615
29.218349 802.18652 1312.4984 4293720575
34.088074 802.18652 1312.4984 4293720575
36.522934 802.18652 1312.4984 4293786623
19.390825 811.79932 1312.7554 4293523455
21.814678 812.72583 1313.5366 4293523455
25.450459 812.72583 1313.5366 4293194495
29.086239 812.72583 1313.5366 4293589247
31.510092 812.72583 1313.5366 4293523455
33.933945 812.72583 1313.5366 4293259775
36.3578 810.87274 1311.9742 4293523199
13.280734 818.99573 1312.2831 4293589759
16.902752 818.99573 1312.2831 4293720575
19.31743 818.99573 1312.2831 4293195263
21.732111 818.99573 1312.2831 4293129471
26.561468 818.99573 1312.2831 4293260543
28.976147 818.99573 1312.2831 4293325567
31.390825 818.99573 1312.2831 4293259775
33.805504 818.99573 1312.2831 4293325567
36.220184 818.99573 1312.2831 4293259775
16.902752 820.84174 1313.8396 4293720575
19.31743 820.84174 1313.8396 4293457407
21.732111 820.84174 1313.8396 4293720575
25.35413 820.84174 1313.8396 4293523455
28.976147 820.84174 1313.8396 4293128447
31.390825 820.84174 1313.8396 4293128447
33.805504 820.84174 1313.8396 4293259775
-73.367889 827.07648 1312.5565 4288460529
-69.759636 826.15698 1311.7812 4293853183
-67.354126 825.23749 1311.006 4294967295
-64.948624 826.15698 1311.7812 4294967295
2.4055047 825.23749 1311.006 4294967295
4.8110094 825.23749 1311.006 4294967295
7.2165136 825.23749 1311.006 4294967295
9.6220188 826.15698 1311.7812 4293787391
13.230276 826.15698 1311.7812 4293523967
16.838531 826.15698 1311.7812 4293655039
19.244038 826.15698 1311.7812 4293260287
21.649542 826.15698 1311.7812 4293720831
25.257797 827.07648 1312.5565 4293325823
28.866055 827.07648 1312.5565 4293259775
31.271559 827.07648 1312.5565 4293391359
33.677063 827.07648 1312.5565 4293128959
-74.28624 833.28326 1311.2498 4288062433
-70.691742 833.28326 1311.2498 4291092479
7.1889906 833.28326 1311.2498 4294967295
10.783486 833.28326 1311.2498 4293655807
14.377981 833.28326 1311.2498 4293391615
35.944954 833.28326 1311.2498 4293194751
-69.493576 835.1153 1312.7944 4293984255
-67.097244 835.1153 1312.7944 4294967295
-64.70092 835.1153 1312.7944 4294967295
11.981651 835.1153 1312.7944 4293129470
14.377981 835.1153 1312.7944 4293325823
16.774311 835.1153 1312.7944 4293457407
35.944954 835.1153 1312.7944 4293128959
11.93578 841.28699 1311.4581 4293063167
14.322936 841.28699 1311.4581 4293391615
16.710093 841.28699 1311.4581 4293391615
-70.421097 843.112 1312.9969 4292011007
11.93578 843.112 1312.9969 4292932095
14.322936 843.112 1312.9969 4293457407
7.1394496 848.75128 1312.5198 4294507257
10.709174 848.75128 1312.5198 4291550971
14.278899 848.75128 1312.5198 4291287551
16.658716 848.75128 1312.5198 4291353343
-66.377983 854.86267 1311.1324 4294967295
-64.007339 854.86267 1311.1324 4294967295
4.7412844 854.86267 1311.1324 4294967295
7.1119266 854.86267 1311.1324 4294967295
10.667891 854.86267 1311.1324 4292734719
14.223853 854.86267 1311.1324 4293062911
-73.489906 856.67505 1312.6606 4288589796
-71.119263 856.67505 1312.6606 4289645567
-67.563309 856.67505 1312.6606 4294639615
10.667891 856.67505 1312.6606 4292669695
14.223853 856.67505 1312.6606 4293325567
16.594496 856.67505 1312.6606 4292996607
18.965137 856.67505 1312.6606 4292800255
-63.759632 862.75134 1311.2439 4294967295
-61.398167 862.75134 1311.2439 4294967295
10.626606 862.75134 1311.2439 4292603899
14.168807 862.75134 1311.2439 4292406015
-66.121101 864.5567 1312.7661 4294967295
-63.759632 864.5567 1312.7661 4294967295
-61.398167 864.5567 1312.7661 4294967295
10.626606 864.5567 1312.7661 4292340732
14.168807 864.5567 1312.7661 4292406015
16.530275 864.5567 1312.7661 4292537599
18.891743 864.5567 1312.7661 4292339967
-64.296021 871.79681 1312.3306 4294967295
-61.159634 870.5979 1311.3197 4294967295
10.585321 870.5979 1311.3197 4292406270
14.113762 871.49707 1312.0779 4292602111
16.466055 871.49707 1312.0779 4292667903
18.818348 872.3963 1312.8361 4292207103
-63.264221 878.4024 1311.3602 4294967295
7.0293579 878.4024 1311.3602 4294967295
10.544037 878.4024 1311.3602 4292472061
-67.950462 880.19373 1312.8706 4294705151
-65.607338 880.19373 1312.8706 4294967295
10.544037 880.19373 1312.8706 4292734716
14.058716 880.19373 1312.8706 4292076287
16.401834 880.19373 1312.8706 4292404991
18.744955 880.19373 1312.8706 4292338943
-73.187767 886.28247 1312.7723 4288132070
-70.073395 886.58008 1313.0232 4291025919
-67.737617 886.58008 1313.0232 4294311935
-64.233948 885.68719 1312.2704 4294967295
4.6715598 885.68719 1312.2704 4294967295
7.0073395 886.58008 1313.0232 4294967295
10.511009 886.58008 1313.0232 4292734456
-67.471558 893.41168 1312.2434 4294574079
-65.144951 893.41168 1312.2434 4294967295
-62.818348 893.41168 1312.2434 4294967295
