# .PCD v0.7 - Point Cloud Data file format
VERSION 0.7
FIELDS x y z rgb
SIZE 4 4 4 4
TYPE F F F U
COUNT 1 1 1 1
WIDTH 1177
HEIGHT 1
VIEWPOINT 0 0 0 1 0 0 0
POINTS 1177
DATA ascii
52.557796 821.68298 801.80127 4294967295
54.253212 821.68298 801.80127 4294967295
1.6954129 822.97913 802.89417 4294967295
3.3834863 824.43109 801.50232 4294967295
49.906422 824.43109 801.50232 4294967295
52.557796 822.97913 802.89417 4294967295
54.253212 823.6272 803.44061 4294967295
1.6917431 826.37109 803.13812 4294967295
3.3834863 826.37109 803.13812 4294967295
50.752293 825.72443 802.5929 4294967295
52.444038 826.37109 803.13812 4294967295
54.13578 827.01782 803.68335 4294967295
4.2155962 829.83191 802.13202 4294967295
50.025074 829.617 801.95087 4294967295
52.273396 830.47644 802.67554 4294967295
1.6862385 831.76556 803.76245 4294967295
4.4868503 832.77753 801.99969 4294967295
49.63578 832.56311 801.81891 4294967295
53.116516 831.76556 803.76245 4294967295
4.1981649 835.57111 802.39307 4294967295
49.555962 835.57111 802.39307 4294967295
52.159634 834.49268 803.4458 4294967295
4.1926603 838.57275 802.96191 4294967295
46.855045 839.36676 801.01538 4294967295
49.420181 838.64917 801.71838 4294967295
52.548016 838.78644 803.14209 4294967295
55.343121 839.21381 803.50244 4294967295
5.0201836 841.28577 802.63348 4294967295
49.644032 841.07251 802.45367 4294967295
52.711926 841.92542 803.17285 4294967295
55.222019 841.92542 803.17285 4294967295
5.0036697 845.34473 802.13184 4294967295
46.144955 844.49463 801.41504 4294967295
48.368809 844.70715 801.59424 4294967295
5.0036697 846.61987 803.20703 4294967295
46.598164 848.04376 801.7915 4294967295
49.149544 847.33179 802.49927 4294967295
52.538532 846.61987 803.20703 4294967295
4.9926605 849.95227 803.40063 4294967295
6.6422019 850.73718 801.44641 4294967295
44.834862 850.73718 801.44641 4294967295
46.495415 850.73718 801.44641 4294967295
49.094498 849.95227 803.40063 4294967295
4.9816513 853.27625 803.58728 4294967295
6.6422019 852.00671 802.51685 4294967295
48.986237 852.64148 803.05206 4294967295
4.9651375 857.92999 803.58716 4294967295
6.6201835 856.0321 801.98688 4294967295
47.168808 855.39941 801.45349 4294967295
49.651375 857.29736 803.05371 4294967295
51.306423 857.92999 803.58716 4294967295
7.1559634 859.33984 802.15985 4294967295
47.229359 859.08728 801.9469 4294967295
49.541283 860.60236 803.22437 4294967295
6.5908256 863.2691 802.85681 4294967295
46.959633 862.63928 802.32574 4294967295
49.431194 863.2691 802.85681 4294967295
4.943119 864.52881 803.91895 4294967295
6.5688071 866.63098 801.76733 4294967295
47.623852 866.63098 801.76733 4294967295
49.266056 866.63098 801.76733 4294967295
51.902752 864.52881 803.91895 4294967295
4.3792052 868.72339 803.53168 4294967295
7.3807335 868.58575 802.1076 4294967295
46.698166 869.2851 801.38928 4294967295
50.032112 868.58575 802.1076 4294967295
52.550457 867.88641 802.82593 4294967295
55.013763 869.14191 803.88452 4294967295
4.9155965 871.79041 803.50171 4294967295
7.0941901 871.42059 802.31781 4294967295
40.871559 871.93359 801.00623 4294967295
43.323853 871.93359 801.00623 4294967295
46.64679 871.23572 801.72583 4294967295
50.248318 870.95532 802.79755 4294967295
52.433029 871.16406 802.97357 4294967295
54.890823 871.79041 803.50171 4294967295
7.6293578 874.01678 802.7627 4294967295
44.141285 873.18347 802.06018 4294967295
46.866058 873.6001 802.41144 4294967295
49.045872 873.80841 802.5871 4294967295
8.1467886 877.76434 801.99854 4294967295
46.436699 877.76434 801.99854 4294967295
8.1376143 880.32373 802.84851 4294967295
9.7541285 880.39459 801.60022 4294967295
43.893578 880.39459 801.60022 4294967295
46.638535 880.34735 802.43243 4294967295
48.825687 880.32373 802.84851 4294967295
8.1284399 882.88025 803.69617 4294967295
9.73211 883.63928 801.72003 4294967295
43.794495 883.01929 801.19727 4294967295
45.957188 883.84595 801.89429 4294967295
49.583488 882.88025 803.69617 4294967295
10.523853 886.53149 802.19659 4294967295
46.070641 887.56366 801.10486 4294967295
48.660549 885.49933 803.28833 4294967295
9.6990824 890.03534 803.18896 4294967295
46.878899 888.7995 802.14685 4294967295
49.303673 889.41742 802.66791 4294967295
10.483486 892.02246 802.24835 4294967295
46.772476 891.40594 801.72852 4294967295
49.460552 892.63898 802.76825 4294967295
51.611008 893.87201 803.80786 4294967295
10.191437 895.237 802.34259 4294967295
46.666054 894.00677 801.3053 4294967295
48.811619 895.237 802.34259 4294967295
9.6330271 899.05676 802.94739 4294967295
46.559631 897.82935 801.91248 4294967295
48.700306 898.64764 802.60236 4294967295
9.6000004 902.31903 801.77393 4294967295
46.400002 902.31903 801.77393 4294967295
48.799999 902.31903 801.77393 4294967295
51.376148 900.28418 803.9823 4294967295
9.6000004 904.15381 803.32098 4294967295
47.091743 904.896 801.33069 4294967295
49.599998 903.54224 802.8053 4294967295
52 904.76544 803.83667 4294967295
54.400002 904.76544 803.83667 4294967295
10.363302 908.01093 802.64911 4294967295
49.429359 907.4007 802.13458 4294967295
51.082569 907.33685 803.38879 4294967295
11.148623 910.51135 803.4494 4294967295
12.711926 911.24786 801.45435 4294967295
46.875229 911.24786 801.45435 4294967295
50.168808 909.90259 802.93604 4294967295
52.557796 911.12018 803.96277 4294967295
54.150459 911.12018 803.96277 4294967295
11.122936 913.67749 803.50293 4294967295
12.711926 912.46271 802.47864 4294967295
50.053211 913.07007 802.99072 4294967295
52.436699 913.67749 803.50293 4294967295
12.682569 915.62317 802.52747 4294967295
44.28624 917.56616 801.54968 4294967295
46.712845 916.29169 801.78308 4294967295
49.144955 916.22919 803.03845 4294967295
47.449543 918.77533 802.56921 4294967295
49.031193 919.9845 803.58875 4294967295
14.185321 922.58398 801.85645 4294967295
44.132111 921.98151 801.34839 4294967295
46.759022 922.38312 801.68707 4294967295
14.185321 924.39142 803.38049 4294967295
16.773088 926.11786 802.22003 4294967295
19.393883 926.51855 802.55792 4294967295
22.800919 926.91931 802.89575 4294967295
25.945873 926.91931 802.89575 4294967295
29.090824 926.91931 802.89575 4294967295
31.449541 926.91931 802.89575 4294967295
33.808258 926.31824 802.38904 4294967295
36.953209 926.31824 802.38904 4294967295
40.098167 926.31824 802.38904 4294967295
43.243118 926.31824 802.38898 4294967295
46.162689 925.67596 802.71948 4294967295
48.86055 924.39142 803.38049 4294967295
20.442202 928.12152 803.90942 4294967295
22.800919 928.12152 803.90942 4294967295
25.945873 928.12152 803.90942 4294967295
29.090824 928.12152 803.90942 4294967295
31.449541 928.12152 803.90942 4294967295
33.022018 928.12152 803.90942 4294967295
57.78471 747.96875 805.04883 4294967295
61.656879 749.1073 806.00885 4294967295
-3.5633028 752.08203 804.5929 4294967295
55.231194 752.08203 804.5929 4294967295
57.903671 752.08203 804.5929 4294967295
60.576145 752.08203 804.5929 4294967295
-5.344954 754.80615 806.88989 4294967295
58.794495 753.44409 805.74146 4294967295
61.763916 753.89813 806.12427 4294967295
65.030273 754.80615 806.88989 4294967295
-4.4403667 757.76819 805.46332 4294967295
56.836697 757.08929 804.89087 4294967295
58.612843 757.08929 804.89087 4294967295
60.981037 757.99457 805.65411 4294967295
63.941284 758.44714 806.03577 4294967295
56.128437 760.41815 805.08154 4294967295
58.491745 760.64392 805.27197 4294967295
61.150459 761.32147 805.84326 4294967295
56.543118 764.94708 804.9762 4294967295
58.310093 764.94708 804.9762 4294967295
60.960548 764.94708 804.9762 4294967295
63.809174 762.67657 806.98584 4294967295
-5.3009176 766.29791 806.11523 4294967295
-3.5229359 768.56421 804.10205 4294967295
55.486237 768.56421 804.10205 4294967295
59.009174 768.56421 804.10205 4294967295
61.651375 768.56421 804.10205 4294967295
-4.3981652 772.38647 805.36279 4294967295
-3.5119267 775.52905 806.05054 4294967295
-3.5045872 779.03961 806.39441 4294967295
63.666668 778.59308 806.01788 4294967295
-3.493578 782.6203 805.4895 4294967295
-1.746789 781.28485 804.36353 4294967295
55.897247 781.28485 804.36353 4294967295
58.517433 781.28485 804.36353 4294967295
61.137615 781.95258 804.92651 4294967295
-3.493578 783.95575 806.61548 4294967295
-1.7431192 784.11438 804.13318 4294967295
55.779816 784.11438 804.13318 4294967295
58.394493 784.78064 804.69507 4294967295
61.009174 785.44702 805.25684 4294967295
-3.4862385 786.7796 806.38049 4294967295
59.266056 786.7796 806.38049 4294967295
61.009174 786.7796 806.38049 4294967295
-3.4752293 790.3407 805.45898 4294967295
-1.7376146 789.01227 804.33887 4294967295
55.603668 789.67651 804.89893 4294967295
58.036335 790.60632 805.68298 4294967295
-3.4642203 793.89331 804.5304 4294967295
55.427525 793.89331 804.5304 4294967295
-4.3266053 796.61963 805.52106 4294967295
-1.7284404 796.69751 804.27869 4294967295
0 796.69751 804.27869 4294967295
55.310093 796.69751 804.27869 4294967295
58.025688 795.21753 805.64685 4294967295
61.201221 796.10034 806.3913 4294967295
-3.4568808 798.67963 805.94995 4294967295
55.310093 798.01892 805.39282 4294967295
58.190826 798.45941 805.76422 4294967295
61.359634 799.34033 806.50708 4294967295
-3.4458716 802.86914 805.55835 4294967295
-1.7229358 802.21057 805.00305 4294967295
0 801.55194 804.44775 4294967295
56.282574 801.99103 804.81793 4294967295
58.579815 802.86914 805.55835 4294967295
61.164223 802.86914 805.55835 4294967295
-3.4458716 804.18634 806.66895 4294967295
-1.7192661 805.65515 805.29138 4294967295
0 804.99792 804.73724 4294967295
55.876144 804.99792 804.73724 4294967295
58.455048 805.65515 805.29138 4294967295
61.098167 804.92078 805.98016 4294967295
63.612843 805.65515 805.29138 4294967295
-1.7137614 809.16846 804.32959 4294967295
0 809.16846 804.32959 4294967295
56.554127 809.16846 804.32959 4294967295
59.124771 809.16846 804.32959 4294967295
61.695412 809.16846 804.32959 4294967295
63.409176 809.16846 804.32959 4294967295
-1.7100917 811.94177 804.052 4294967295
0 811.94177 804.052 4294967295
56.433029 811.94177 804.052 4294967295
59.124771 810.47864 805.43433 4294967295
61.695412 810.47864 805.43433 4294967295
64.266052 810.47864 805.43433 4294967295
56.433029 813.24915 805.1543 4294967295
58.998165 813.90283 805.70551 4294967295
61.563301 813.90283 805.70551 4294967295
64.128441 813.90283 805.70551 4294967295
66.693581 814.55658 806.25671 4294967295
-1.7045871 817.39453 804.72546 4294967295
0 817.39453 804.72546 4294967295
56.251377 817.39453 804.72546 4294967295
57.955963 818.04608 805.2749 4294967295
64.774315 818.04608 805.2749 4294967295
-1.7009175 820.80121 804.98193 4294967295
0 820.80121 804.98193 4294967295
56.130276 820.80121 804.98193 4294967295
58.808258 819.34924 806.37366 4294967295
64.774315 819.34924 806.37366 4294967295
-1.7009175 822.10156 806.07837 4294967295
0 822.10156 806.07837 4294967295
56.130276 822.10156 806.07837 4294967295
57.831192 822.10156 806.07837 4294967295
0 826.86761 806.17273 4294967295
55.948624 825.57141 805.07983 4294967295
58.491745 826.21948 805.62628 4294967295
-1.6917431 830.89783 806.95496 4294967295
0.84587157 829.60449 805.86444 4294967295
55.263611 828.74225 805.13739 4294967295
57.9422 829.92786 806.13708 4294967295
61.748623 830.89783 806.95496 4294967295
64.28624 830.89783 806.95496 4294967295
1.6862385 833.05475 804.84949 4294967295
53.959633 833.05475 804.84949 4294967295
55.64587 833.05475 804.84949 4294967295
1.6862385 834.34387 805.9364 4294967295
3.3651376 835.77899 804.5304 4294967295
53.842201 835.77899 804.5304 4294967295
55.64587 834.34387 805.9364 4294967295
57.332111 834.34387 805.9364 4294967295
1.6825688 838.35168 806.69958 4294967295
58.048622 837.7085 806.15729 4294967295
60.572475 838.35168 806.69958 4294967295
63.937614 838.35168 806.69958 4294967295
3.3541284 840.49591 804.5835 4294967295
57.020184 841.13696 805.12402 4294967295
1.6770642 843.06018 806.74561 4294967295
3.3467889 843.84436 804.79083 4294967295
50.201836 843.20471 804.25146 4294967295
52.711926 843.20471 804.25146 4294967295
56.058716 844.48401 805.3302 4294967295
58.633026 844.41174 806.57727 4294967295
61.212845 843.06018 806.74561 4294967295
64.240974 843.96124 806.63336 4294967295
67.082565 843.06018 806.74561 4294967295
3.3357799 847.89502 804.2821 4294967295
50.036697 847.89502 804.2821 4294967295
52.538532 847.89502 804.2821 4294967295
55.040367 847.89502 804.2821 4294967295
3.3357799 849.80768 805.89484 4294967295
52.480736 850.51544 805.18359 4294967295
55.874313 849.80768 805.8949 4294967295
58.376148 850.44525 806.43237 4294967295
4.9816513 854.54572 804.65771 4294967295
52.422935 853.13306 806.08264 4294967295
54.919266 853.13306 806.08264 4294967295
53.137615 855.81525 805.72815 4294967295
55.628441 856.44995 806.26331 4294967295
4.1376147 859.828 805.1875 4294967295
52.133945 859.19531 804.65405 4294967295
55.168198 860.03888 805.3653 4294967295
4.1284404 862.49609 804.82104 4294967295
52.018349 861.86481 804.28882 4294967295
55.321102 863.12732 805.35327 4294967295
57.926605 861.72589 806.78772 4294967295
3.3027523 864.38983 806.41785 4294967295
55.198166 865.78845 804.98108 4294967295
57.798164 864.38983 806.41785 4294967295
57.669724 867.04816 806.04321 4294967295
3.2844036 870.3974 804.94312 4294967295
58.024464 871.23438 805.64886 4294967295
3.9324772 874.04523 805.40283 4294967295
6.5394497 875.68323 804.16785 4294967295
50.173702 874.80322 804.29785 4294967295
52.899693 874.80322 804.29785 4294967295
55.16391 873.46063 804.90997 4294967295
57.894806 875.13086 806.31818 4294967295
4.9045873 877.55798 805.7486 4294967295
6.5394497 876.93311 805.22168 4294967295
50.680733 876.93311 805.22168 4294967295
53.133026 877.55798 805.7486 4294967295
55.58532 877.55798 805.7486 4294967295
57.220184 878.18292 806.27551 4294967295
6.5174313 880.87854 804.62427 4294967295
50.51009 880.25568 804.09912 4294967295
52.954128 881.50134 805.14941 4294967295
55.398167 881.50134 805.14941 4294967295
7.3229356 883.43506 805.47192 4294967295
50.396332 884.12311 804.74414 4294967295
52.954128 882.74695 806.19971 4294967295
55.398167 882.74695 806.19971 4294967295
7.586544 886.19452 806.49066 4294967295
9.73211 886.73938 804.33398 4294967295
50.28257 886.73938 804.33398 4294967295
52.745869 887.01611 805.22125 4294967295
55.773701 886.65137 806.00385 4294967295
58.524769 886.60883 806.83997 4294967295
7.2990828 889.21948 806.42505 4294967295
55.959633 889.21948 806.42505 4294967295
8.0825691 892.50702 805.27295 4294967295
52.940826 892.19806 805.01245 4294967295
54.961468 893.12494 805.79395 4294967295
8.0642204 895.10504 804.84753 4294967295
52.417431 895.72156 805.36737 4294967295
54.836697 896.33807 805.88721 4294967295
8.0458717 898.31256 804.93591 4294967295
52.298164 898.31256 804.93591 4294967295
55.580734 898.24939 806.19073 4294967295
58.062386 897.57111 806.92688 4294967295
8.027523 902.12531 805.53467 4294967295
52.178902 901.5116 805.01721 4294967295
55.700306 901.46954 805.8537 4294967295
57.798164 902.73901 806.05212 4294967295
8 905.98865 804.86816 4294967295
52.799999 905.98865 804.86816 4294967295
55.200001 905.98865 804.86816 4294967295
8 907.82349 806.41522 4294967295
9.5779819 908.55725 804.41772 4294967295
52.678898 908.55725 804.41772 4294967295
55.137615 907.88452 805.15863 4294967295
58.400002 907.82349 806.41522 4294967295
9.5779819 910.38782 805.9613 4294967295
55.871559 909.77765 805.44678 4294967295
58.266056 910.99805 806.47583 4294967295
10.33945 914.22388 805.27161 4294967295
50.847706 914.89227 804.52722 4294967295
52.436699 914.89227 804.52722 4294967295
54.915596 913.28088 805.13049 4294967295
10.593272 916.91699 806.23438 4294967295
12.682569 917.44122 804.0603 4294967295
49.937614 917.44122 804.0603 4294967295
52.436699 916.10706 805.55151 4294967295
54.820183 916.71448 806.06366 4294967295
57.203671 917.3219 806.57581 4294967295
11.097248 919.86517 806.10413 4294967295
12.682569 918.6532 805.08228 4294967295
50.730274 919.25916 805.5932 4294967295
52.315598 919.25916 805.5932 4294967295
11.07156 922.40289 805.62781 4294967295
12.653211 922.40289 805.62775 4294967295
50.085629 922.40289 805.62775 4294967295
14.185321 925.59644 804.39648 4294967295
16.549541 926.19891 804.90448 4294967295
18.913761 926.80139 805.41248 4294967295
34.675228 926.80139 805.41248 4294967295
37.039452 926.80139 805.41248 4294967295
40.191742 926.80139 805.41248 4294967295
43.344036 926.80139 805.41248 4294967295
46.759022 926.39972 805.07379 4294967295
48.86055 926.19891 804.90448 4294967295
20.489908 928.00635 806.42847 4294967295
22.85413 928.00635 806.42847 4294967295
26.006422 928.00635 806.42847 4294967295
29.158714 928.00635 806.42847 4294967295
31.522936 928.00635 806.42847 4294967295
33.887154 928.00635 806.42847 4294967295
37.039452 928.00635 806.42847 4294967295
40.191742 928.00635 806.42847 4294967295
43.344036 928.00635 806.42847 4294967295
46.49633 928.00635 806.42847 4294967295
-7.1633029 749.63184 809.06714 4294967295
64.469727 748.26276 807.91272 4294967295
-7.1486239 752.52307 808.88892 4294967295
-5.3614678 751.15674 807.73682 4294967295
64.337616 751.15674 807.73682 4294967295
66.124771 751.15674 807.73682 4294967295
-5.3284402 760.48401 807.75311 4294967295
63.941284 759.80505 807.18066 4294967295
-7.0899081 765.38672 809.271 4294967295
-5.3009176 767.6488 807.25427 4294967295
-7.0678897 769.67505 808.96271 4294967295
-7.0458717 773.95087 808.64392 4294967295
-5.2844038 773.27753 808.07617 4294967295
-7.0458717 775.29749 809.7793 4294967295
-7.0238533 778.88519 808.88037 4294967295
-5.26789 777.54279 807.74841 4294967295
64.092659 778.88519 808.88037 4294967295
-5.2568808 781.04907 808.08875 4294967295
63.958717 781.71893 808.65356 4294967295
-7.0091743 783.05853 809.78308 4294967295
-5.2403669 785.2912 807.74146 4294967295
63.082569 783.05853 809.78308 4294967295
-6.9871559 787.29431 809.43048 4294967295
-5.2293577 788.11224 807.50403 4294967295
61.946789 788.03711 808.74878 4294967295
-5.2293577 789.44489 808.62769 4294967295
61.009174 789.44489 808.62769 4294967295
-5.2128439 792.9975 807.6991 4294967295
-5.1963301 797.86597 807.88 4294967295
-5.1963301 799.19012 808.99646 4294967295
63.952293 800.66174 807.62122 4294967295
-3.4458716 806.16211 808.33496 4294967295
-3.4385321 809.59833 808.61621 4294967295
-3.4385321 810.91272 809.72449 4294967295
-3.4275229 814.40924 808.74841 4294967295
59.85321 815.86395 807.35901 4294967295
61.563301 815.86395 807.35901 4294967295
63.273396 815.86395 807.35901 4294967295
-3.4201834 817.82501 809.01257 4294967295
61.563301 817.17133 808.46143 4294967295
63.273396 817.17133 808.46143 4294967295
-3.4091742 821.95557 808.57129 4294967295
59.660549 820.6524 807.47253 4294967295
61.365139 821.30396 808.02191 4294967295
63.92202 821.30396 808.02191 4294967295
-3.4091742 823.25873 809.67004 4294967295
-1.7009175 824.05212 807.72302 4294967295
0 823.40192 807.1748 4294967295
59.532108 823.40192 807.1748 4294967295
62.083488 824.70227 808.27124 4294967295
64.634865 824.70227 808.27124 4294967295
-3.401835 826.00269 809.36768 4294967295
-3.3908257 830.10797 808.90497 4294967295
-1.6954129 828.16376 807.26562 4294967295
0 828.16376 807.26562 4294967295
59.339451 828.16376 807.26562 4294967295
61.882568 828.16376 807.26562 4294967295
64.42569 828.16376 807.26562 4294967295
-3.3834863 833.48456 809.13599 4294967295
-1.6917431 832.19122 808.04541 4294967295
0 832.19122 808.04541 4294967295
59.21101 832.19122 808.04541 4294967295
61.748623 832.19122 808.04541 4294967295
65.132111 832.83789 808.5907 4294967295
-1.6862385 836.27759 807.56689 4294967295
0.56207949 836.06274 807.38574 4294967295
59.018349 835.633 807.02344 4294967295
61.828747 836.06274 807.38574 4294967295
64.920181 836.27759 807.56689 4294967295
-3.3724771 838.2113 809.19739 4294967295
-1.6825688 839.638 807.78418 4294967295
0.84128439 839.638 807.78418 4294967295
58.889908 839.638 807.78418 4294967295
61.413761 839.638 807.78418 4294967295
64.850464 838.92468 808.49078 4294967295
67.449539 838.2113 809.19739 4294967295
-1.6825688 841.5675 809.41113 4294967295
0 840.92438 808.86877 4294967295
0.55902141 844.76971 808.18701 4294967295
61.212845 844.34229 807.82666 4294967295
65.405502 844.9834 808.36719 4294967295
67.641594 844.76971 808.18701 4294967295
-1.6770642 846.90656 809.98877 4294967295
1.1155963 847.42377 808.68085 4294967295
58.568806 847.04266 807.48755 4294967295
61.078896 847.68237 808.02692 4294967295
64.194496 847.42377 808.68085 4294967295
67.082565 846.90656 809.98877 4294967295
-1.6733944 849.60132 809.64502 4294967295
0.83669722 849.60132 809.64502 4294967295
3.3357799 851.72034 807.50757 4294967295
56.708256 851.72034 807.50757 4294967295
58.376148 851.72034 807.50757 4294967295
61.078899 849.60132 809.64502 4294967295
64.42569 849.60132 809.64502 4294967295
1.66789 853.63306 809.1203 4294967295
3.3284404 854.40533 807.1554 4294967295
56.583485 854.40533 807.1554 4294967295
58.376148 852.99548 808.58276 4294967295
60.600002 853.84552 809.2995 4294967295
63.379818 854.27057 809.65784 4294967295
1.6642202 856.94995 809.3009 4294967295
3.3284404 855.67767 808.22815 4294967295
59.079819 856.31384 808.76453 4294967295
1.6605505 859.62372 808.93933 4294967295
58.949539 858.98901 808.40411 4294967295
59.58165 862.99121 807.85461 4294967295
1.653211 865.58563 808.73419 4294967295
59.449543 865.65228 807.4823 4294967295
62.030273 865.2373 809.0946 4294967295
64.546791 865.52179 809.9884 4294967295
1.6477064 869.5675 808.16748 4294967295
59.317432 868.30786 807.10535 4294967295
61.926605 868.17725 809.61133 4294967295
1.6422018 872.90833 807.0603 4294967295
59.119267 872.90833 807.0603 4294967295
60.965137 870.82721 809.22961 4294967295
1.6422018 874.79156 808.64819 4294967295
1.6385322 878.05377 808.78271 4294967295
3.2770643 876.80115 807.72656 4294967295
58.987156 876.80115 807.72656 4294967295
60.625687 877.42749 808.25464 4294967295
1.6385322 879.30646 809.83899 4294967295
3.9236698 880.43274 808.17255 4294967295
58.037613 880.05774 807.85638 4294967295
61.081348 880.64056 809.21979 4294967295
4.8880734 883.99261 807.25 4294967295
6.5174313 883.99261 807.25 4294967295
57.842201 883.99261 807.25 4294967295
4.3412843 886.5246 808.513 4294967295
58.524769 887.85168 807.88794 4294967295
60.7841 886.5246 808.513 4294967295
4.8770642 889.09454 808.93591 4294967295
6.4880733 890.45953 807.4707 4294967295
56.770641 890.45953 807.4707 4294967295
58.392662 890.45953 807.4707 4294967295
61.234253 889.50879 809.28516 4294967295
4.866055 892.31958 809.039 4294967295
6.4880733 891.69958 808.51624 4294967295
56.770641 891.69958 808.51624 4294967295
58.392662 891.69958 808.51624 4294967295
60.555347 892.52631 809.2132 4294967295
6.4660549 895.59662 807.87805 4294967295
56.57798 894.9787 807.35706 4294967295
59.002754 895.59662 807.87805 4294967295
4.8495412 897.45038 809.44104 4294967295
6.451376 898.80414 807.96643 4294967295
58.868805 898.80414 807.96643 4294967295
61.427525 897.45038 809.44104 4294967295
63.044037 897.45038 809.44104 4294967295
6.4366975 902.00323 808.04779 4294967295
59.539448 901.38812 807.52917 4294967295
61.218349 901.32776 808.78625 4294967295
6.4220185 905.19385 808.12207 4294967295
58.600918 903.96643 807.08716 4294967295
61.883484 904.52124 808.86292 4294967295
6.4220185 906.42126 809.15698 4294967295
61.009174 906.42126 809.15698 4294967295
8 910.2699 808.47797 4294967295
61.599998 910.2699 808.47797 4294967295
7.183486 914.04907 809.04834 4294967295
9.5559635 914.77301 807.04272 4294967295
58.199085 913.49573 807.27374 4294967295
61.192661 913.4389 808.53387 4294967295
7.9633026 916.59937 808.58264 4294967295
58.92844 915.9906 808.06934 4294967295
61.051987 916.80231 808.75372 4294967295
7.9449539 920.35889 809.13641 4294967295
9.5339451 918.53668 807.6001 4294967295
55.085011 918.94159 807.94147 4294967295
57.998165 919.75146 808.62433 4294967295
60.381653 920.96625 809.64856 4294967295
10.146055 922.53156 808.35236 4294967295
53.266785 922.04675 807.94354 4294967295
55.48624 922.89514 808.65894 4294967295
13.444036 924.82129 807.66699 4294967295
16.343731 925.62744 808.34668 4294967295
18.979816 926.03046 808.68652 4294967295
50.085629 925.62744 808.34668 4294967295
52.194496 924.82129 807.66699 4294967295
17.398165 927.23962 809.70605 4294967295
19.770641 927.23962 809.70605 4294967295
22.933945 927.23962 809.70605 4294967295
26.053211 928.22546 808.57526 4294967295
28.469725 927.23962 809.70605 4294967295
30.842201 927.23962 809.70605 4294967295
34.005505 927.23962 809.70605 4294967295
37.168808 927.23962 809.70605 4294967295
40.260551 928.22546 808.57526 4294967295
43.41835 928.22546 808.57526 4294967295
46.658714 927.23962 809.70605 4294967295
49.822018 927.23962 809.70605 4294967295
-8.9541283 752.37006 811.37598 4294967295
-7.7504592 754.29474 811.2547 4294967295
-7.1486239 756.62195 812.34497 4294967295
-8.0174313 760.93555 812.05804 4294967295
-8.8623857 768.09686 811.55615 4294967295
-8.8348627 772.37683 811.24078 4294967295
-8.8073397 776.64417 810.91479 4294967295
-8.340826 781.2345 810.86121 4294967295
-8.7614679 785.73785 812.04211 4294967295
63.082569 784.39819 810.9126 4294967295
-7.8605504 789.96521 811.6825 4294967295
62.884403 789.29749 811.11951 4294967295
-6.972477 792.77643 811.43683 4294967295
-6.9504585 796.98279 811.05945 4294967295
-6.9504585 798.31122 812.17944 4294967295
-5.1963301 800.51434 810.11304 4294967295
-5.1963301 802.50067 811.7879 4294967295
-5.1412845 817.68469 811.51025 4294967295
-5.1302752 821.09344 811.76843 4294967295
-5.1302752 822.40082 812.87085 4294967295
-5.1137614 826.51672 812.41705 4294967295
-5.1027522 829.90375 812.65698 4294967295
-4.2348623 834.71118 811.47827 4294967295
-3.3724771 839.50043 810.2843 4294967295
-3.3724771 841.4342 811.91479 4294967295
-3.3651376 844.78339 812.12268 4294967295
-1.6825688 843.49701 811.03809 4294967295
68.985321 844.1402 811.58038 4294967295
67.082565 848.18872 811.06982 4294967295
-3.3541284 849.47083 812.15088 4294967295
-1.6733944 850.88068 810.72363 4294967295
0 850.88068 810.72363 4294967295
61.915596 850.88068 810.72363 4294967295
64.42569 850.88068 810.72363 4294967295
66.935783 850.88068 810.72363 4294967295
-3.3467889 853.43933 812.88098 4294967295
-1.6733944 852.15997 811.80237 4294967295
0 852.15997 811.80237 4294967295
65.262383 852.15997 811.80237 4294967295
66.935783 852.79968 812.34167 4294967295
-1.66789 856.18323 811.27057 4294967295
0 855.54572 810.73303 4294967295
61.711926 855.54572 810.73303 4294967295
64.491745 855.9707 811.09137 4294967295
-3.3357799 858.09595 812.8833 4294967295
-1.6642202 860.13074 811.98291 4294967295
0.55351681 859.53668 810.61005 4294967295
61.508255 859.55774 810.19171 4294967295
63.748627 859.53668 810.61005 4294967295
66.642204 859.4314 812.70129 4294967295
0 862.79749 811.61542 4294967295
64.761467 862.16272 811.0802 4294967295
66.42202 863.43225 812.15063 4291158015
0 866.78711 811.05518 4294967295
64.546791 866.78711 811.05518 4283192917
66.201836 866.78711 811.05518 4278190212
-1.6550459 868.05237 812.12207 4294967295
0 869.43976 810.67578 4294967295
62.752293 869.43976 810.67578 4294967295
64.403671 869.43976 810.67578 4279375124
66.201836 868.05237 812.12207 4278198272
0 872.08691 810.29175 4294967295
61.858715 871.39459 811.01605 4294967295
64.403671 871.3335 812.27258 4294704123
66.055046 871.96472 812.80481 4294967295
0 873.97644 811.88495 4294967295
62.612843 873.34656 811.35388 4294967295
64.260551 874.60626 812.41602 4294967295
0 877.93024 811.29468 4294967295
62.403671 876.67474 810.23608 4294967295
64.045868 877.93024 811.29468 4294967295
1.0923548 880.51886 811.73334 4294967295
62.264221 880.55914 810.89526 4294967295
65.044037 880.51886 811.73334 4294967295
1.6348624 884.43225 811.5448 4294967295
3.2697248 883.18243 810.49097 4294967295
62.124771 883.18243 810.49097 4294967295
64.304588 884.01562 811.19354 4294967295
1.6348624 885.68213 812.59863 4294967295
3.2587156 887.72961 810.401 4294967295
64.469727 886.70587 811.49982 4294967295
1.6293578 890.22095 812.50159 4294967295
3.2587156 888.97528 811.45129 4294967295
64.359634 888.97528 811.45129 4294967295
66.803673 890.22095 812.50159 4294967295
3.2513762 892.20166 811.55573 4294967295
64.214676 891.58026 811.03174 4294967295
4.0550461 895.41974 811.65295 4294967295
61.636696 894.17969 810.60742 4294967295
64.340065 894.59302 810.95587 4294967295
4.0412846 899.30408 811.00409 4294967295
64.121712 899.09814 810.83038 4294967295
4.3033638 901.64374 811.23273 4294967295
62.900917 901.2702 810.04578 4294967295
64.513763 902.50323 811.08545 4294967295
4.0266056 904.40753 811.38306 4294967295
62.757797 905.0788 810.64099 4294967295
64.366974 905.0788 810.64099 4294967295
4.2911315 907.12915 812.36981 4294967295
6.4220185 908.26245 810.70935 4294967295
62.614677 907.64874 810.19189 4294967295
64.805504 908.02142 811.37811 4294967295
4.0137615 910.10358 812.26172 4294967295
4.8000002 913.93958 811.57208 4294967295
6.4000001 912.10474 810.02502 4294967295
62.400002 912.10474 810.02502 4294967295
64.533333 913.32794 811.0564 4294967295
6.3853211 915.8797 810.5918 4294967295
63.85321 916.48987 811.10632 4294967295
6.3706422 919.64337 811.14923 4294967295
61.582874 918.83173 810.46484 4294967295
64.28746 919.60834 811.9917 4294967295
7.9449539 922.78845 811.185 4294967295
9.5339451 923.39587 811.69714 4294967295
57.998165 922.78845 811.18506 4294967295
61.176147 922.78845 811.18506 4294967295
10.576147 925.08301 811.37567 4294967295
13.475229 925.31915 810.70282 4294967295
15.853211 925.92517 811.21375 4294967295
53.108253 925.31921 810.70288 4294967295
55.48624 925.31915 810.70282 4294967295
57.998165 924.61066 812.72144 4294967295
61.176147 924.61066 812.72144 4294967295
14.26789 927.13715 812.23572 4294967295
16.645872 927.13715 812.23572 4294967295
19.816513 927.13715 812.23572 4294967295
22.987156 927.13715 812.23572 4294967295
26.128441 927.79297 811.48065 4294967295
28.469725 928.44885 810.72559 4294967295
30.878899 927.79297 811.48065 4294967295
34.005505 928.44885 810.72559 4294967295
37.168808 928.44885 810.72559 4294967295
40.332108 928.44885 810.72559 4294967295
43.759022 928.85187 811.06543 4294967295
46.766972 927.13715 812.23572 4294967295
49.937614 927.13715 812.23572 4294967295
53.108257 927.13715 812.23572 4294967295
-10.777982 751.46442 814.53644 4294967295
-8.9541283 755.10828 813.68469 4294967295
-10.744954 757.84644 815.99353 4294967295
-8.9541283 756.47736 814.83911 4294967295
-8.9082565 762.9787 813.78076 4294967295
-10.634862 772.16211 814.98376 4294967295
-10.601835 775.75397 814.08838 4294967295
-10.601835 777.10486 815.22729 4294967295
-10.568808 781.35748 814.88892 4294967295
-10.53578 786.93988 815.67188 4294967295
-8.7614679 787.07751 813.17175 4294967295
-8.7339449 791.96838 813.37146 4294967295
-8.7155962 794.77539 813.12231 4294967295
-8.7155962 796.77435 814.80774 4294967295
-6.9504585 800.30383 813.85962 4294967295
-6.9504585 802.29645 815.53979 4294967295
-5.1963301 805.14911 814.02094 4294967295
-5.1908255 808.52356 815.55811 4294967295
-6.8770642 817.48468 815.26575 4294967295
-6.8550458 822.27032 815.37671 4294967295
-5.1027522 831.2041 813.75342 4294967295
-5.0862384 835.94067 813.823 4294967295
-5.0752292 839.30463 814.04333 4294967295
-5.0752292 841.24463 815.67908 4294967295
-5.0587158 845.30164 815.17572 4294967295
-4.2064219 847.35608 814.29187 4294967295
68.985321 847.35602 814.29181 4294967295
70.667892 847.35602 814.29181 4294967295
72.350456 847.99921 814.83417 4294967295
-3.3541284 850.75299 813.23193 4294967295
-4.1889906 854.01794 814.67688 4294967295
68.15168 853.35693 814.5556 4294967295
70.436699 852.67615 814.85352 4294967295
73.790825 852.67615 814.85352 4284646619
-5.0201836 855.99799 815.03845 4294967295
68.609177 855.99799 815.03845 4294967295
-3.3357799 860.00861 814.49597 4294967295
68.383484 859.37103 813.95837 4288981416
70.051376 860.64618 815.03357 4278195211
-3.3284404 863.31152 814.66479 4294967295
-1.6642202 862.03918 813.59204 4294967295
68.233025 862.67535 814.12842 4278325097
69.897247 863.31152 814.66479 4278190097
-3.3284404 864.5838 815.73767 4294967295
-1.6605505 864.70178 813.22095 4294967295
68.082565 865.97125 814.29138 4278193664
70.573395 865.97125 814.29138 4278322740
-1.6550459 869.31769 813.18896 4294967295
67.142197 868.27924 814.27539 4289571515
70.573395 867.24078 815.36182 4278190164
-1.6550459 870.58301 814.25586 4294967295
67.85688 870.58301 814.25586 4292400598
70.339447 871.21558 814.78931 4287334630
-1.6495413 874.54663 813.67377 4294967295
65.908257 875.86597 813.47815 4294967295
67.155968 873.64813 814.22418 4294967295
69.357796 875.12097 815.46606 4294967295
-1.6477064 877.12561 814.54028 4294967295
67.555962 877.12561 814.54028 4294967295
69.203667 878.38531 815.60242 4294967295
-1.6422018 881.06897 813.94116 4294967295
0 880.44122 813.41187 4294967295
67.877678 881.27814 814.11761 4294967295
-3.2844036 882.95215 815.52893 4294967295
-1.6385322 884.31714 814.06384 4294967295
0 883.6908 813.53577 4294967295
68.076149 883.63464 814.79639 4294967295
-1.6385322 885.56982 815.12012 4294967295
0.81743121 886.93201 813.65259 4294967295
67.999084 885.56982 815.12012 4294967295
-1.6348624 888.80682 815.23334 4294967295
0 888.80682 815.23334 4294967295
68.664223 888.18188 814.70642 4294967295
1.0862385 892.71222 814.60223 4294967295
67.889908 891.88177 813.90204 4294967295
70.062386 893.95789 815.65247 4294967295
1.6256881 895.93018 814.69952 4294967295
3.2513762 894.06592 813.12756 4294967295
67.303482 895.55731 814.38513 4294967295
1.6220183 899.13983 814.78967 4294967295
66.502754 899.13983 814.78967 4294967295
1.6220183 900.37988 815.83533 4294967295
66.502754 900.37988 815.83533 4294967295
1.6165137 904.24744 815.17224 4294967295
3.225688 904.9693 813.16479 4294967295
67.010086 904.29944 813.90802 4294967295
69.510094 904.86536 815.69324 4294967295
1.612844 907.43536 815.24414 4294967295
65.976151 908.76947 813.75293 4294967295
67.662384 907.4859 813.9787 4294967295
69.352295 907.43536 815.24414 4294967295
1.6091744 909.99969 814.79016 4294967295
3.2110093 911.33099 813.29675 4294967295
65.825691 911.33099 813.29675 4294967295
67.58532 909.99969 814.79016 4294967295
69.730888 910.81982 815.48175 4294967295
3.2110093 913.17212 814.84912 4294967295
67.43119 913.17212 814.84912 4294967295
69.036697 913.78583 815.36658 4294967295
4.2666669 916.58984 813.8067 4294967295
65.599998 915.77435 813.11914 4294967295
67.199997 916.99756 814.15051 4294967295
4.2629972 919.06769 815.02393 4294967295
65.449539 920.15112 814.19342 4294967295
67.630577 919.50763 814.52295 4294967295
6.9015288 922.89032 813.88702 4294967295
64.28746 922.45215 814.38965 4294967295
67.84404 921.98175 815.73694 4294967295
7.9633026 924.51379 815.25586 4294967295
10.328441 925.82544 813.74573 4294967295
12.711926 925.82544 813.74573 4294967295
55.614677 925.82544 813.74573 4294967295
57.998165 925.82544 813.74573 4294967295
61.176147 925.82544 813.74573 4294967295
63.706421 924.51379 815.25586 4294967295
11.122936 927.04022 814.77002 4294967295
13.506422 927.64764 815.28223 4294967295
16.674311 927.97485 814.90405 4294967295
19.839451 928.30212 814.52594 4294967295
23.013762 928.30212 814.526 4294967295
25.893578 928.75311 813.59821 4294967295
28.050154 928.28644 814.94873 4294967295
30.949541 928.30212 814.526 4294967295
34.123852 928.30212 814.526 4294967295
37.298164 928.30212 814.52594 4294967295
40.472481 928.30212 814.526 4294967295
43.365139 928.72174 814.44385 4294967295
46.821098 928.30212 814.52594 4294967295
49.995411 928.30212 814.526 4294967295
52.436699 927.64764 815.28217 4294967295
54.820183 927.64764 815.28223 4294967295
57.998165 927.04022 814.77002 4294967295
60.381653 927.04022 814.77002 4294967295
-12.612844 751.25598 818.28473 4294967295
-12.574312 755.58435 818.01025 4294967295
-10.777982 754.21106 816.85229 4294967295
-12.53578 760.58466 818.30225 4294967295
-10.744954 759.21558 817.14783 4294967295
-10.722936 762.0871 816.95312 4294967295
-10.689908 766.38391 816.65198 4294967295
-12.433027 772.70496 818.0575 4294967295
-12.407339 776.22729 818.4115 4294967295
-12.368808 779.80658 817.50537 4294967039
-12.368808 781.15747 818.64441 4294703615
-10.568808 783.37744 816.59216 4294967295
-12.330276 786.0708 818.86304 4293979391
-10.53578 788.28235 816.80371 4294967295
-12.291743 789.62482 817.93567 4293518330
-10.513762 791.09644 816.56042 4294967295
-10.513762 793.10583 818.2547 4294967295
-8.7155962 799.43958 817.05499 4294967295
-7.8330274 802.53174 817.70013 4294967295
-8.1088686 805.39618 818.15332 4294967295
-6.9284406 808.45966 816.81226 4294967295
-6.9137616 811.89374 817.09174 4294967295
-10.337615 818.67554 818.88586 4293122552
-7.7458715 818.07874 817.07465 4294967295
-8.5963306 820.77063 818.03644 4294967295
-7.7119265 824.2356 817.03381 4294967295
-7.4165134 826.71808 817.383 4294967295
-7.6954126 828.93774 818.38257 4294967295
-7.3865438 833.24976 818.09424 4294967295
-6.8036699 836.40558 818.13916 4294967295
-6.7816515 841.12531 818.19458 4294967295
-6.7669725 844.47803 818.4054 4294967295
-5.0477066 849.92871 816.46106 4294967295
72.350456 850.5719 817.00336 4292007124
-6.7302752 852.5014 818.63025 4294967295
70.436699 854.59937 816.47522 4290697727
72.113762 854.59937 816.47522 4278526043
-5.0201836 857.27728 816.11707 4294967295
70.28257 857.27728 816.11707 4278196901
72.113762 855.88147 817.55627 4278191504
-5.0201836 859.19629 817.73517 4294967295
-5.0036697 863.19641 817.18384 4294967295
-4.1660552 865.16382 817.53473 4294967295
-3.3284404 867.76459 818.41956 4294967295
-3.321101 871.04926 818.57312 4294967295
-3.3100917 874.37891 817.45642 4294967295
-3.3027523 877.01471 817.06287 4294967295
-3.2954128 879.64502 816.66455 4294967295
-3.2844036 884.20764 816.58752 4294967295
-3.2844036 886.09082 818.17542 4294967295
-3.2770643 889.32782 818.2887 4294967295
-1.6348624 890.68164 816.81409 4294967295
0 890.68164 816.81409 4294967295
-1.6348624 892.5564 818.3949 4294967295
0 895.20355 816.70276 4294967295
70.062386 895.82642 817.22797 4294967295
-1.6293578 897.69489 818.80347 4294967295
0 898.41589 816.79541 4294967295
68.2789 898.41589 816.79541 4294967295
69.904587 899.03735 817.31934 4294967295
0 901.57007 818.14685 4294967295
70.881958 901.58667 817.72485 4294967295
74.781654 900.28021 818.36731 4294967295
0 904.10004 818.97205 4294967295
71.045868 907.38477 816.50952 4294967295
1.612844 910.51794 817.84326 4294967295
72.57798 910.51794 817.84326 4294967295
70.803673 912.46014 816.86475 4294967295
72.412842 913.69037 817.9021 4294967295
1.6055046 915.62695 816.91895 4294967295
70.107033 915.42236 816.7464 4294967295
3.7333336 920.25952 816.90088 4294967295
68.800003 919.44403 816.21326 4294967295
70.400002 920.05566 816.729 4294967295
4 921.89044 818.27612 4294967295
6.3853211 923.20215 816.76599 4294967295
65.449539 923.20215 816.76599 4294967295
67.84404 923.20215 816.76599 4294967295
70.238533 923.20215 816.76599 4294967295
7.4434247 925.26562 817.63379 4294967295
10.08685 926.54315 816.96698 4294967295
58.132111 926.94904 817.3092 4294967295
61.582874 926.54315 816.96698 4294967295
64.336388 925.26562 817.63379 4294967295
13.537615 928.16663 818.33582 4294967295
16.702751 928.81824 817.57721 4294967295
19.862385 929.46985 816.8186 4294967295
23.040367 929.46985 816.8186 4294967295
25.423853 929.46985 816.8186 4294967295
27.807339 929.46985 816.8186 4294967295
30.985321 929.46985 816.8186 4294967295
34.163303 929.46985 816.8186 4294967295
37.341286 929.46985 816.8186 4294967295
40.519264 929.46985 816.8186 4294967295
43.69725 929.46985 816.8186 4294967295
46.875229 929.46985 816.8186 4294967295
50.111927 928.81824 817.57721 4294967295
52.557796 928.16663 818.33582 4294967295
54.946789 928.16663 818.33582 4294967295
58.132111 928.16663 818.33582 4294967295
61.317429 928.16663 818.33582 4294967295
38.13578 930.68463 817.8429 4294967295
39.72477 930.68463 817.8429 4294967295
44.491745 930.68463 817.8429 4294967295
-16.216515 754.69977 821.18848 4289438135
-14.414679 754.01099 820.60773 4290556622
-13.472477 757.64429 819.74719 4292531937
-13.453211 760.82898 820.47034 4292400609
-13.431192 764.00745 821.18829 4291941339
-16.084404 767.55231 821.56116 4289043377
-12.510092 766.18604 820.40918 4294967295
-14.253211 769.78912 819.52319 4288586934
-16.034863 772.51331 821.82007 4289240490
-14.253211 771.15125 820.67163 4288454835
-14.209174 775.42065 820.34735 4288387504
-14.179816 778.93744 820.69666 4288453299
-13.274312 781.40039 820.81134 4291479514
-14.135779 783.85919 820.92236 4288386991
-12.291743 790.96729 819.06763 4293779957
-12.291743 792.98096 820.76544 4293517033
-10.513762 795.11536 819.9491 4294967039
-10.480734 799.31323 819.56451 4294967295
-13.100918 801.31641 821.25354 4290555076
-10.458715 802.77118 819.86414 4294967295
-10.458715 804.10382 820.98779 4294967295
-10.425688 808.93854 821.14026 4294505215
-8.6880732 807.61011 820.02014 4294967295
-10.39266 812.43225 820.16199 4293714943
-8.6605501 811.77014 819.6037 4294967295
-10.39266 813.75647 821.27844 4293582591
-12.060551 821.30994 821.10718 4290093750
-10.337615 819.99274 819.99646 4292859634
-10.315597 823.39941 820.25293 4292332520
-12.034863 825.37103 821.91528 4289172650
-10.282569 827.51111 819.79565 4291740134
-10.282569 828.82129 820.90027 4291542243
-8.5504589 830.24512 819.48486 4294967295
-10.26055 832.85986 821.68958 4291015636
-8.5229359 834.9873 819.55933 4294967295
-7.6633029 837.64978 820.49622 4294967295
-8.5045872 840.3067 821.42847 4294967295
-6.7669725 847.06476 820.58643 4294967295
-7.5807338 853.08978 820.43445 4294967295
-6.7302752 855.71729 821.34186 4294967295
-6.7082567 861.01001 821.88049 4294967295
-5.0036697 865.74664 819.33411 4294967295
-5.0036697 867.6593 820.9469 4294967295
-4.9926605 870.94537 821.10156 4294967295
-4.9816513 873.58832 820.71387 4294967295
-4.9651375 877.54211 820.12354 4294967295
-4.9541283 880.80219 820.25635 4294967295
-4.9486237 883.37427 821.11694 4294967295
-4.943119 885.94342 821.97522 4294967295
-3.2770643 890.58051 819.34497 4294967295
72.095413 890.58051 819.34497 4294967295
-3.2770643 891.83319 820.40125 4294967295
-1.6385322 893.08588 821.4574 4294967295
72.641594 892.66827 821.10529 4294967295
71.933945 895.68109 821.02954 4294967295
73.56881 895.68109 821.02954 4294967295
-1.6293578 898.94055 819.85376 4294967295
73.321098 898.94055 819.85376 4294967295
-1.6256881 902.14453 819.93927 4294967295
73.968811 902.14453 819.93927 4294967295
-1.6256881 904.00879 821.51111 4294967295
0 905.34009 820.01758 4294967295
72.990829 905.34009 820.01758 4294967295
-1.6220183 906.58014 821.06311 4294967295
0 906.58014 821.06311 4294967295
0 910.42664 820.38232 4294967295
0 912.2804 821.94543 4294967295
1.6091744 916.76599 820.49536 4294967295
1.6055046 921.15033 821.57617 4294967295
4 923.11365 819.3075 4294967295
68 923.11365 819.3075 4294967295
70.400002 923.11365 819.3075 4294967295
72 923.11365 819.3075 4294967295
4 924.94849 820.85455 4294967295
6.927217 925.58673 820.52069 4294967295
10.376146 926.86334 819.85303 4294967295
65.017738 925.58673 820.52069 4294967295
68 924.94849 820.85449 4294967295
70.400002 924.33685 820.33887 4294967295
11.174312 928.08374 820.88196 4294967295
13.834863 928.49054 821.22491 4294967295
17.027523 928.49054 821.22491 4294967295
19.931192 929.34424 820.63672 4294967295
23.120184 929.34424 820.63672 4294967295
25.511927 929.34424 820.63672 4294967295
27.626913 929.3576 820.21191 4294967295
31.092661 929.34424 820.63672 4294967295
34.281651 929.34424 820.63672 4294967295
36.631191 929.38422 819.36243 4294967295
40.940674 929.33087 821.06152 4294967295
43.051376 929.34424 820.63672 4294967295
46.983486 929.38422 819.36243 4294967295
50.168808 929.38422 819.36243 4294967295
52.106419 929.33087 821.06152 4294967295
55.255047 929.3576 820.21191 4294967295
58.266056 928.69397 821.39648 4294967295
61.423855 929.0191 821.0166 4294967295
63.85321 928.08374 820.88196 4294967295
28.667891 930.60181 820.38916 4294967295
37.427521 930.60181 820.38916 4294967295
44.594494 930.60181 820.38916 4294967295
46.983486 930.60181 820.38916 4294967295
49.372478 930.60181 820.38916 4294967295
54.150459 930.60181 820.38916 4294967295
-18.073395 752.44189 823.20874 4290161601
-16.266054 751.06018 822.0437 4289634744
-18.073395 753.82361 824.37378 4290227650
-18.018349 758.83234 824.67297 4290227648
-16.216515 756.76611 822.93073 4289372340
-16.166973 761.07764 822.64197 4289240753
-14.370643 761.07764 822.64197 4289702590
-17.065138 763.13757 824.37891 4289766331
-17.908257 767.43018 824.07422 4290226365
-16.977982 769.60175 823.28918 4289832117
-16.034863 773.87537 822.96851 4289306283
-17.816513 775.23749 824.11707 4290357951
-15.985321 778.13647 822.63721 4289371058
-16.85688 780.9104 823.66815 4289831609
-15.902752 785.21008 822.0614 4289502646
-14.135779 785.21008 822.0614 4288452269
-15.902752 787.23633 823.76996 4289632947
-14.135779 786.56091 823.20044 4288845482
-15.853211 791.4574 823.40491 4289764017
-14.091743 790.78406 822.83722 4289043109
-15.853211 792.80408 824.54041 4289633199
-13.191744 793.89935 823.50189 4290819522
-15.80367 797.0083 824.16119 4289502125
-13.156881 797.0658 822.90167 4290359234
-14.018349 800.47394 824.46729 4288449441
-12.809787 803.54218 823.13019 4290818503
-15.721101 805.32269 824.63159 4290092714
-13.088074 806.0459 823.93329 4289767098
-10.458715 805.4364 822.11133 4294967295
-13.944954 808.10168 824.35864 4288583078
-12.742508 811.5954 823.38037 4290095034
-12.124771 815.08069 822.39502 4290160056
-12.099083 817.84003 822.10547 4290356406
-13.827523 819.82214 823.77679 4288909732
-12.922018 823.28577 822.77307 4289107113
-12.894495 827.34265 823.57764 4289172135
-10.282569 830.13147 822.005 4291213791
-11.13945 832.09674 823.66211 4289567923
-10.26055 836.1283 824.44543 4290358472
-8.5504589 834.16724 822.79187 4294967295
-10.227523 840.19995 823.95447 4290095047
-8.5045872 842.2572 823.07312 4294967295
-10.172477 848.90228 824.75183 4288911790
-8.4770641 846.30994 822.56604 4294967295
-8.4587154 849.00476 822.22217 4294967295
-8.4311924 854.32556 822.78455 4294967295
-7.5807338 856.953 823.69183 4294967295
-8.4128437 858.93311 824.05334 4294967295
-7.5467887 862.93323 823.50208 4294967295
-6.6935778 865.5929 823.1286 4294967295
-6.6935778 867.5119 824.7467 4294967295
-7.5055046 871.48462 824.1723 4294572029
-6.6568809 874.12616 823.78345 4294967295
-6.6422019 878.03156 824.46039 4294967295
-6.6201835 883.23596 824.92444 4294967295
-4.943119 887.20312 823.03735 4294967295
-4.943119 888.46283 824.09949 4294967295
-3.2844036 892.36823 823.46838 4294967295
-3.2770643 895.59119 823.56982 4294967295
-3.2697248 898.80573 823.66412 4294967295
-3.2587156 902.67749 823.00464 4294967295
-3.2587156 903.92316 824.05493 4294967295
-3.2513762 907.7373 824.65491 4294967295
-1.6220183 907.82019 822.10876 4294967295
-1.6220183 909.6803 823.67706 4294967295
-1.6165137 914.13416 823.50842 4294967295
0 913.51624 822.98743 4294967295
-1.612844 917.29962 823.5614 4294967295
0 916.68311 823.04156 4294967295
-1.612844 918.53265 824.60107 4294967295
0.80458719 919.22644 822.56995 4294967295
-1.6091744 921.07178 824.12585 4294967295
0.80275232 922.66504 823.50726 4294967295
70.642204 923.60522 823.646 4294967295
72.247704 922.37781 822.61108 4294967295
0.80275232 924.83264 824.68091 4294967295
4 926.78326 822.40161 4294967295
7.1999998 926.78326 822.40161 4294967295
9.6000004 926.78326 822.40161 4294967295
65.825691 924.83264 824.68091 4294967295
67.43119 924.83264 824.68091 4294967295
69.839447 924.83264 824.68091 4294967295
7.1999998 928.00653 823.43298 4294967295
10.4 928.00653 823.43298 4294967295
13.333333 928.82202 824.12061 4294967295
16.533333 928.82202 824.12061 4294967295
20 929.22974 824.46436 4294967295
22.4 929.22974 824.46436 4294967295
24.799999 929.22974 824.46436 4294967295
28 929.22974 824.46436 4294967295
31.200001 929.22974 824.46436 4294967295
34.400002 929.22974 824.46436 4294967295
41.599998 929.22974 824.46436 4294967295
43.200001 929.22974 824.46436 4294967295
51.200001 929.22974 824.46436 4294967295
56 929.22974 824.46436 4294967295
58.400002 929.22974 824.46436 4294967295
62.400002 929.22974 824.46436 4294967295
