# .PCD v0.7 - Point Cloud Data file format
VERSION 0.7
FIELDS x y z rgb
SIZE 4 4 4 4
TYPE F F F U
COUNT 1 1 1 1
WIDTH 1155
HEIGHT 1
VIEWPOINT 0 0 0 1 0 0 0
POINTS 1155
DATA ascii
-40.144955 855.52991 1305.1549 4288586977
18.891743 855.52991 1305.1549 4289250038
22.433945 856.43256 1305.916 4290299895
-43.517433 863.40454 1305.2545 4288062178
18.818348 863.40454 1305.2545 4292337919
21.170643 863.40454 1305.2545 4292206591
-43.517433 865.20288 1306.7708 4287405274
21.170643 865.20288 1306.7708 4292074751
-49.205505 871.23706 1305.3186 4287730901
-43.347706 871.23706 1305.3186 4288258272
22.259632 871.23706 1305.3186 4291876863
25.774311 871.23706 1305.3186 4291942911
28.117432 871.23706 1305.3186 4291877887
-49.205505 873.02844 1306.829 4287665621
-46.862385 873.02844 1306.829 4287797210
23.431192 873.02844 1306.829 4291746047
25.774311 873.02844 1306.829 4291746047
28.117432 873.02844 1306.829 4291615231
-49.051376 878.54431 1306.2477 4287667155
-43.211929 878.54431 1306.2477 4287797210
-39.708256 878.54431 1306.2477 4288257509
-37.372478 878.54431 1306.2477 4288126693
23.357798 878.54431 1306.2477 4291877887
-49.051376 880.33002 1307.7534 4287667407
-46.715595 880.33002 1307.7534 4287338446
-43.211929 880.33002 1307.7534 4287666389
-39.708256 880.33002 1307.7534 4288126174
-37.372478 880.33002 1307.7534 4288126693
22.189907 880.33002 1307.7534 4291548671
-37.225689 886.29688 1306.2443 4287995104
-34.899082 886.29688 1306.2443 4287929311
18.612844 886.29688 1306.2443 4291088895
-40.715595 888.07556 1307.744 4287798490
-37.225689 888.07556 1307.744 4287864286
-34.899082 888.07556 1307.744 4287864286
-32.572475 888.07556 1307.744 4287009758
20.939449 888.07556 1307.744 4292075007
-44.031193 895.77905 1307.6993 4287533772
-40.555046 895.77905 1307.6993 4287599571
-37.078899 894.00739 1306.2054 4287666907
-34.761467 894.00739 1306.2054 4287798493
20.85688 894.89319 1306.9524 4288059089
-40.426605 899.43909 1305.5532 4287534038
-36.961468 899.43909 1305.5532 4287470044
18.480734 899.43909 1305.5532 4284113306
-46.201836 901.2052 1307.0424 4287533774
-43.891743 901.2052 1307.0424 4287599567
-40.426605 901.2052 1307.0424 4287403987
20.790825 901.2052 1307.0424 4286279845
-46.018349 908.83569 1306.936 4287269582
-43.71743 907.95618 1306.1945 4287533778
-40.64954 907.66302 1305.9473 4287403472
-36.814678 907.07666 1305.4529 4287667159
20.708258 907.95618 1306.1945 4285886882
-41.251377 914.67212 1305.317 4287007694
-37.813759 914.67212 1305.317 4287206349
20.625689 914.67212 1305.317 4287333576
-41.251377 916.42419 1306.7943 4286483389
-37.813759 916.42419 1306.7943 4287470028
22.917431 916.42419 1306.7943 4286015138
-36.550457 922.63934 1306.8027 4290889726
22.844036 922.63934 1306.8027 4285292432
25.128441 922.63934 1306.8027 4284963724
-34.128441 929.28162 1305.8632 4291810559
-31.85321 929.28162 1305.8632 4291679487
-29.577982 929.28162 1305.8632 4291613695
13.651376 929.28162 1305.8632 4285425820
15.926605 929.28162 1305.8632 4285425820
19.339451 929.28162 1305.8632 4284832916
-34.128441 931.02106 1307.3298 4291152639
-31.85321 931.02106 1307.3298 4291283199
-28.440367 931.02106 1307.3298 4291152127
11.376146 931.02106 1307.3298 4284967581
13.651376 931.02106 1307.3298 4285360277
15.926605 931.02106 1307.3298 4285360277
19.339451 931.02106 1307.3298 4284964751
-10.205505 934.57031 1305.0902 4294967295
-6.8036699 934.57031 1305.0902 4294179839
-4.53578 934.57031 1305.0902 4293260031
-2.26789 934.57031 1305.0902 4293260031
2.26789 934.57031 1305.0902 4293719295
4.53578 934.57031 1305.0902 4291415551
6.8036699 934.57031 1305.0902 4283454617
-6.8036699 936.30408 1306.5521 4294836223
-4.53578 936.30408 1306.5521 4294048767
-2.26789 936.30408 1306.5521 4292930558
0 936.30408 1306.5521 4292338175
-52.133945 758.26904 1309.4771 4288916460
-49.651375 758.26904 1309.4771 4288785140
-47.168808 758.26904 1309.4771 4288982263
24.825687 758.26904 1309.4771 4293852415
-54.374313 767.19928 1309.1587 4288522734
-51.902752 767.19928 1309.1587 4288719856
-49.431194 767.19928 1309.1587 4288719860
-54.374313 769.08881 1310.7518 4288522732
-51.902752 769.08881 1310.7518 4288785903
-49.431194 769.08881 1310.7518 4288851951
-49.247707 773.66138 1308.0671 4288917740
-46.78532 773.66138 1308.0671 4288917740
24.623854 773.66138 1308.0671 4293589247
28.317432 773.66138 1308.0671 4293654783
-51.710091 775.54388 1309.6545 4289048558
-49.247707 775.54388 1309.6545 4288917744
29.548624 775.54388 1309.6545 4293786111
-52.744034 781.97083 1308.5333 4288653802
22.078899 781.97083 1308.5333 4293589247
25.758717 781.97083 1308.5333 4293720063
-52.744034 783.84631 1310.1147 4288587759
25.758717 783.84631 1310.1147 4293523455
29.438532 783.84631 1310.1147 4293587967
31.891743 783.84631 1310.1147 4293587967
-56.212845 790.23828 1308.9641 4288915945
-52.546791 790.23828 1308.9641 4288586475
21.99633 790.23828 1308.9641 4293589247
25.662384 790.23828 1308.9641 4293654783
29.32844 790.23828 1308.9641 4294048511
-61.100918 792.10675 1310.5396 4288521700
-58.656879 792.10675 1310.5396 4288849382
-56.212845 792.10675 1310.5396 4288718052
-52.546791 792.10675 1310.5396 4288652007
21.99633 792.10675 1310.5396 4293325823
25.662384 792.10675 1310.5396 4293456639
29.32844 792.10675 1310.5396 4293391103
-56.001835 800.32507 1310.9288 4288848876
-51.132111 799.39435 1310.144 4288849382
-48.697247 799.39435 1310.144 4288587243
-49.285015 808.40204 1309.891 4288258275
-55.537613 815.30359 1309.17 4288453857
-53.122936 815.30359 1309.17 4288518881
-49.500916 815.30359 1309.17 4288915690
-60.366974 817.14966 1310.7266 4288257759
-57.952293 817.14966 1310.7266 4288520417
-55.537613 817.14966 1310.7266 4288586210
-60.137615 823.39844 1309.4553 4288848101
-57.732109 823.39844 1309.4553 4288520669
-55.326607 823.39844 1309.4553 4288586462
-52.921101 823.39844 1309.4553 4288717026
-49.312843 823.39844 1309.4553 4288651492
-57.511925 829.61926 1308.1604 4288191454
-55.115597 829.61926 1308.1604 4288652005
-52.719265 829.61926 1308.1604 4288783071
-50.322937 829.61926 1308.1604 4288914914
-46.728439 829.61926 1308.1604 4288717282
26.359632 829.61926 1308.1604 4291352063
-57.511925 831.45123 1309.7051 4288519135
-55.115597 831.45123 1309.7051 4288584929
-52.719265 831.45123 1309.7051 4288454111
-50.322937 831.45123 1309.7051 4288585697
-57.291744 839.46198 1309.9193 4288125661
-54.904587 839.46198 1309.9193 4288059868
-52.517429 838.54944 1309.1499 4288191966
-50.130276 838.54944 1309.1499 4288389346
-46.947399 838.2453 1308.8934 4288324575
26.258715 837.63696 1308.3806 4290427121
28.645872 838.54944 1309.1499 4290298111
-54.735779 845.11249 1309.4515 4287863770
-52.355965 845.11249 1309.4515 4287732448
-49.976147 845.11249 1309.4515 4287995619
-47.596329 845.11249 1309.4515 4288126943
26.177982 845.11249 1309.4515 4292139519
28.557798 845.11249 1309.4515 4291545855
-54.735779 846.93188 1310.9856 4287798747
-52.355965 846.93188 1310.9856 4287799006
-49.976147 846.93188 1310.9856 4287930849
-47.596329 846.93188 1310.9856 4288258276
-52.154129 851.23792 1308.0762 4287864286
-49.783485 851.23792 1308.0762 4288061665
-46.227524 851.23792 1308.0762 4288257772
-42.671558 851.23792 1308.0762 4288455394
23.706423 851.23792 1308.0762 4284445126
26.077065 851.23792 1308.0762 4284050624
28.447706 851.23792 1308.0762 4284972485
-52.154129 853.05029 1309.6044 4287865053
-49.783485 853.05029 1309.6044 4287930847
-47.412846 853.05029 1309.6044 4287732448
26.077065 853.05029 1309.6044 4290759935
28.447706 853.05029 1309.6044 4291548415
-49.590824 860.94598 1309.7217 4287929048
-47.229359 860.04333 1308.9606 4287797980
-43.687157 859.14062 1308.1995 4287929822
22.827522 859.74243 1308.7069 4292140031
28.337614 860.94598 1309.7217 4292008959
-47.045872 868.79956 1309.8035 4287665623
23.522936 867.00122 1308.2871 4292271615
-51.548622 874.8197 1308.3394 4287665875
-49.205505 874.8197 1308.3394 4287797462
-46.862385 874.8197 1308.3394 4288059864
25.774311 874.8197 1308.3394 4291746559
28.117432 874.8197 1308.3394 4291615743
30.46055 874.8197 1308.3394 4291549951
-51.548622 876.61108 1309.8499 4287601362
-46.862385 876.61108 1309.8499 4287797462
25.774311 876.61108 1309.8499 4291746303
28.117432 876.61108 1309.8499 4291746559
30.46055 876.61108 1309.8499 4291746559
-51.387157 883.90143 1310.7646 4287074243
-49.051376 883.00854 1310.0118 4287797964
-46.715595 883.00854 1310.0118 4287863505
-43.211929 883.00854 1310.0118 4287732181
-39.708256 883.90143 1310.7646 4287864286
22.579203 883.30615 1310.2628 4291615231
-40.715595 889.85425 1309.2438 4287667159
-37.225689 889.85425 1309.2438 4287798493
-34.899082 889.85425 1309.2438 4287798493
20.939449 889.85425 1309.2438 4292337407
23.266054 889.85425 1309.2438 4291088383
-51.185322 891.63293 1310.7435 4287468751
-48.858715 891.63293 1310.7435 4287665873
-46.532108 891.63293 1310.7435 4287534290
-44.205505 891.63293 1310.7435 4287731668
-40.715595 891.63293 1310.7435 4287600853
23.266054 891.63293 1310.7435 4290165730
-49.824768 898.43665 1309.9401 4287140553
-46.348625 897.55078 1309.1931 4287533520
-44.031193 897.55078 1309.1931 4287467727
20.85688 897.55078 1309.1931 4284573857
23.174313 898.43665 1309.9401 4285229215
-48.511925 902.97125 1308.5315 4287271365
-46.201836 902.97125 1308.5315 4287533772
-43.891743 902.97125 1308.5315 4287665358
20.790825 902.97125 1308.5315 4286018473
23.100918 902.97125 1308.5315 4285558433
-48.511925 904.73737 1310.0205 4287206343
-46.201836 904.73737 1310.0205 4286679750
23.100918 904.73737 1310.0205 4285427354
34.651375 904.73737 1310.0205 4285423505
36.961468 904.73737 1310.0205 4285356943
-48.319267 910.59479 1308.4192 4287074243
-46.018349 910.59479 1308.4192 4287531460
-43.71743 910.59479 1308.4192 4287860425
-41.416515 910.59479 1308.4192 4287401418
23.009174 910.59479 1308.4192 4285889199
-48.319267 912.35388 1309.9025 4287007927
-46.018349 912.35388 1309.9025 4287400135
-43.71743 912.35388 1309.9025 4287531977
23.009174 912.35388 1309.9025 4286939073
-45.834862 919.92834 1309.7489 4289309917
-43.543118 919.05231 1309.0103 4288784082
-41.251377 919.05231 1309.0103 4288784340
-38.195717 918.76025 1308.764 4289573858
28.264832 919.3443 1309.2565 4285029767
-36.550457 925.25903 1309.0115 4290693375
22.844036 925.25903 1309.0115 4284897929
25.128441 925.25903 1309.0115 4284897929
28.555046 925.25903 1309.0115 4284701831
31.981651 925.25903 1309.0115 4284701568
-36.550457 927.00549 1310.484 4291415807
22.844036 927.00549 1310.484 4284897677
25.128441 927.00549 1310.484 4284897677
28.555046 927.00549 1310.484 4284636038
31.981651 927.00549 1310.484 4284635777
-25.027523 932.7605 1308.7964 4291021055
-22.752293 932.7605 1308.7964 4290037503
-19.339451 932.7605 1308.7964 4291616511
-15.926605 932.7605 1308.7964 4293984255
-13.651376 932.7605 1308.7964 4294967295
10.238532 932.7605 1308.7964 4284111756
13.651376 932.7605 1308.7964 4285228177
15.926605 932.7605 1308.7964 4285228177
18.201836 932.7605 1308.7964 4284897929
-9.1009178 934.49994 1310.2631 4294967295
2.2752295 934.49994 1310.2631 4291877631
4.5504589 934.49994 1310.2631 4287473919
6.8256879 934.49994 1310.2631 4282539711
10.238532 934.49994 1310.2631 4284767629
13.651376 934.49994 1310.2631 4285358478
15.926605 934.49994 1310.2631 4285358478
0 938.0379 1308.014 4290957567
-57.310093 754.59845 1312.9222 4288784872
-54.818348 754.59845 1312.9222 4288850413
-54.616512 760.16699 1311.0774 4289245673
-52.133945 760.16699 1311.0774 4289245673
-49.651375 760.16699 1311.0774 4288982517
-57.099083 762.06494 1312.6776 4289178599
-54.616512 762.06494 1312.6776 4288917740
-55.610092 770.97833 1312.3451 4288785387
-51.902752 770.97833 1312.3451 4288983537
-55.610092 772.86786 1313.9382 4288785641
-55.403671 778.36768 1312.0354 4288916455
-51.710091 777.42639 1311.2418 4288982503
29.548624 778.36768 1312.0354 4293653759
32.011009 779.3089 1312.8291 4293653503
-56.423855 785.7218 1311.6962 4288587498
-53.970642 785.7218 1311.6962 4288455918
31.891743 785.7218 1311.6962 4293654271
-61.330276 787.59735 1313.2775 4288849900
-58.877064 787.59735 1313.2775 4288850152
-61.100918 793.97522 1312.115 4288652770
-58.656879 793.97522 1312.115 4288718052
-56.212845 793.97522 1312.115 4288718052
-53.768806 793.97522 1312.115 4288717798
-63.544952 795.84375 1313.6904 4287995871
-61.100918 795.84375 1313.6904 4288193251
-58.656879 795.84375 1313.6904 4288717030
-56.212845 795.84375 1313.6904 4288980203
-53.768806 795.84375 1313.6904 4288915175
-58.436699 802.18652 1312.4984 4288717800
-56.001835 802.18652 1312.4984 4288652007
-52.349541 802.18652 1312.4984 4288520419
-48.697247 802.18652 1312.4984 4288455394
-63.020184 812.72583 1313.5366 4288520417
-60.596329 811.79932 1312.7554 4288520674
-58.172478 812.72583 1313.5366 4288453857
-55.748623 810.87274 1311.9742 4288191969
-53.324772 810.87274 1311.9742 4288388075
-50.900917 810.87274 1311.9742 4288980468
-61.57431 818.99573 1312.2831 4288323551
-62.781651 820.84174 1313.8396 4288519135
-60.137615 826.15698 1311.7812 4288452827
-57.511925 833.28326 1311.2498 4288257501
-55.115597 833.28326 1311.2498 4288257501
-50.322937 833.28326 1311.2498 4288191967
-57.511925 835.1153 1312.7944 4288257501
-55.115597 835.1153 1312.7944 4288191452
-57.291744 841.28699 1311.4581 4287994843
-54.904587 841.28699 1311.4581 4287929050
-57.291744 843.112 1312.9969 4287863770
-57.115597 848.75128 1312.5198 4287798747
-54.735779 848.75128 1312.5198 4287864540
-52.154129 854.86267 1311.1324 4288258265
-49.783485 854.86267 1311.1324 4288389851
-47.412846 854.86267 1311.1324 4287864286
26.077065 854.86267 1311.1324 4292798207
28.447706 854.86267 1311.1324 4292928767
-54.524769 856.67505 1312.6606 4288059866
-52.154129 856.67505 1312.6606 4288059864
-49.783485 856.67505 1312.6606 4288059864
26.077065 856.67505 1312.6606 4292271359
28.447706 856.67505 1312.6606 4292008703
-49.590824 862.75134 1311.2439 4288126426
-47.229359 862.75134 1311.2439 4287865051
23.614679 862.75134 1311.2439 4292271615
25.976147 862.75134 1311.2439 4292271615
28.337614 862.75134 1311.2439 4292008959
-54.313763 864.5567 1312.7661 4287797471
-51.952293 864.5567 1312.7661 4287929302
-49.590824 864.5567 1312.7661 4288126424
-47.229359 864.5567 1312.7661 4287995608
-54.102753 871.49707 1312.0779 4287798486
-51.750458 870.5979 1311.3197 4287731414
-52.720184 878.4024 1311.3602 4287601107
25.774311 878.4024 1311.3602 4291613951
28.117432 878.4024 1311.3602 4291351039
30.46055 878.4024 1311.3602 4291613951
-52.720184 880.19373 1312.8706 4287666385
25.774311 880.19373 1312.8706 4291615231
28.117432 880.19373 1312.8706 4291614463
-52.165752 886.28241 1312.7723 4287666386
-49.051376 886.58008 1313.0232 4287469774
-46.715595 886.58008 1313.0232 4287141069
-44.379818 886.58008 1313.0232 4287404241
23.357798 885.68719 1312.2704 4292337663
-52.348625 893.41168 1312.2434 4287337675
-48.858715 893.41168 1312.2434 4287469262
-46.532108 893.41168 1312.2434 4287731407
23.266054 893.41168 1312.2434 4284311982
-53.511925 895.19043 1313.7432 4287469262
25.592661 895.19043 1313.7432 4284834724
-53.300919 901.97998 1312.9277 4287535053
-50.983486 901.97998 1312.9277 4287337672
25.491743 901.97998 1312.9277 4285229721
27.809174 902.86584 1313.6747 4285556373
31.285322 902.86584 1313.6747 4285358224
-53.132111 908.26953 1312.9988 4287337674
-50.051987 907.0921 1312.006 4287271879
23.100918 906.50342 1311.5096 4285033109
25.411009 907.38647 1312.2542 4285165214
34.651375 907.38647 1312.2542 4285361051
-49.469727 914.11292 1311.3856 4287137467
-46.018349 914.11292 1311.3856 4286875317
-43.71743 914.11292 1311.3856 4287138232
25.310091 914.11292 1311.3856 4285752223
27.61101 914.11292 1311.3856 4285489817
-52.921101 915.87201 1312.8689 4286350254
-49.469727 915.87201 1312.8689 4286679233
-46.018349 915.87201 1312.8689 4287008179
29.911926 915.87201 1312.8689 4285161099
32.212845 915.87201 1312.8689 4284832647
-52.710091 923.43243 1312.7035 4290822377
-49.272476 923.43243 1312.7035 4290822391
-45.834862 922.5564 1311.9648 4290626553
-43.543118 922.5564 1311.9648 4290692088
-41.251377 922.5564 1311.9648 4290693109
-38.959633 922.5564 1311.9648 4290758902
28.64679 921.68036 1311.2262 4284963720
32.084404 921.68036 1311.2262 4284897927
-36.550457 928.75195 1311.9565 4290758143
22.844036 928.75195 1311.9565 4284767624
25.128441 928.75195 1311.9565 4284636038
28.555046 928.75195 1311.9565 4284636290
31.981651 928.75195 1311.9565 4284504187
-36.550457 930.49841 1313.4292 4291217663
-34.266056 930.49841 1313.4292 4291481087
-31.981651 930.49841 1313.4292 4290954751
-28.555046 930.49841 1313.4292 4290757631
20.559633 930.49841 1313.4292 4284963722
29.697248 930.49841 1313.4292 4284570495
31.981651 930.49841 1313.4292 4284504184
-6.8256879 936.23938 1311.7297 4294967295
-4.5504589 936.23938 1311.7297 4292537087
-2.2752295 937.10907 1312.4631 4288261862
1.5168196 937.39893 1312.7075 4286021576
4.5504589 937.10907 1312.4631 4286217397
6.8256879 937.10907 1312.4631 4284506779
10.238532 937.10901 1312.4631 4284964750
13.651376 936.23938 1311.7297 4285292685
15.926605 936.23938 1311.7297 4285161099
-58.555962 757.45593 1315.3315 4289113574
-62.293579 759.36084 1316.9377 4289113067
-59.801834 759.36084 1316.9377 4288981220
27.409174 759.36084 1316.9377 4293918207
-58.340366 763.96289 1314.278 4288719077
-62.06422 765.86084 1315.8783 4288785642
-58.340366 765.86084 1315.8783 4288654056
-61.78899 774.75739 1315.5315 4288587494
-59.317432 774.75739 1315.5315 4288652766
-56.845871 774.75739 1315.5315 4288850402
-59.097248 781.19141 1314.4164 4288718825
-56.634861 781.19141 1314.4164 4288850411
-64.022018 783.07397 1316.0037 4288389862
-61.559631 783.07397 1316.0037 4288455655
-59.097248 783.07397 1316.0037 4288389862
-63.783485 790.41058 1315.6495 4288258271
-63.544952 797.71222 1315.2659 4288586723
-61.100918 797.71222 1315.2659 4288652516
-58.656879 797.71222 1315.2659 4288848876
-53.768806 797.71222 1315.2659 4288849382
-64.766968 799.58069 1316.8413 4288455909
-61.100918 799.58069 1316.8413 4288652516
-63.306423 805.90955 1315.6376 4288324321
-60.871559 804.97876 1314.8528 4288258271
-58.436699 804.97876 1314.8528 4288323811
-56.001835 804.97876 1314.8528 4288389604
-52.755352 804.66852 1314.5912 4288258021
-63.020184 814.57886 1315.0991 4288389601
-65.444038 816.43188 1316.6616 4288388829
-62.781651 823.61078 1316.1746 4288321498
-61.340366 829.83508 1314.8826 4288323024
-59.908257 836.94727 1314.3391 4288125911
-62.304588 838.7793 1315.8839 4287995347
-59.908257 838.7793 1315.8839 4288126676
-62.066055 844.93701 1314.5358 4287995095
-58.485321 844.93701 1314.5358 4287864025
-62.066055 846.76196 1316.0745 4288125913
-59.678898 846.76196 1316.0745 4288191706
-58.305504 850.57068 1314.0537 4287995355
-54.735779 850.57068 1314.0537 4287995869
-58.305504 852.39001 1315.5879 4287863258
-54.735779 852.39001 1315.5879 4288126945
-59.266056 860.29974 1315.7169 4287995345
-55.710091 859.39355 1314.9529 4287731675
-52.154129 859.39355 1314.9529 4287994841
26.077065 858.48737 1314.1887 4292139775
-55.494495 866.36206 1314.2883 4287731671
-51.952293 866.36206 1314.2883 4287665108
-59.036697 868.16742 1315.8105 4287404237
-56.675228 868.16742 1315.8105 4287666646
-55.670948 874.79413 1314.8578 4287469521
-53.891743 881.98505 1314.381 4287730133
25.774311 881.98505 1314.381 4292009983
28.117432 881.98505 1314.381 4291811583
30.46055 881.98505 1314.381 4291877631
-56.234863 883.77643 1315.8915 4287533522
25.774311 883.77643 1315.8915 4292600831
28.117432 883.77643 1315.8915 4292206079
-56.058716 889.25861 1315.2817 4287402702
-53.722935 889.25861 1315.2817 4287402702
25.693579 889.25861 1315.2817 4288323526
-56.058716 891.04437 1316.7874 4287337674
25.693579 891.04437 1316.7874 4284311982
28.029358 891.04437 1316.7874 4284702372
30.365137 891.04437 1316.7874 4284768165
-55.838531 896.96912 1315.2429 4287074758
-53.511925 896.96912 1315.2429 4287535309
25.592661 896.96912 1315.2429 4285754781
27.919266 896.96912 1315.2429 4285753499
30.245872 896.96912 1315.2429 4285424535
-55.838531 898.7478 1316.7427 4287074758
27.919266 898.7478 1316.7427 4285753497
31.409174 898.7478 1316.7427 4285424277
34.899082 898.7478 1316.7427 4285424021
37.225689 898.7478 1316.7427 4285292435
-53.300919 904.63757 1315.1686 4287140297
27.809174 904.63757 1315.1686 4284835218
31.285322 904.63757 1315.1686 4284637070
-55.618347 906.40924 1316.6624 4286877123
27.809174 906.40924 1316.6624 4286217130
31.285322 906.40924 1316.6624 4286282924
-55.442204 911.8017 1315.9771 4287334332
-53.132111 910.91864 1315.2324 4287598277
-50.822018 910.03558 1314.4879 4287468478
25.411009 910.03558 1314.4879 4286807486
-52.921101 917.63104 1314.3521 4286548399
-49.469727 917.63104 1314.3521 4288389331
32.212845 917.63104 1314.3521 4284963972
-57.522934 919.39014 1315.8352 4286876360
-55.222019 919.39014 1315.8352 4287337151
-52.921101 919.39014 1315.8352 4288915927
-49.469727 919.39014 1315.8352 4289901802
-55.001835 926.06049 1314.9194 4290693110
-52.710091 926.06049 1314.9194 4290692854
-49.272476 926.06049 1314.9194 4290626301
-45.834862 926.06049 1314.9194 4290495231
-43.543118 926.06049 1314.9194 4290561023
-41.251377 926.06049 1314.9194 4290495487
-38.959633 926.06049 1314.9194 4290956287
-36.550457 932.24481 1314.9017 4289310962
-34.266056 932.24481 1314.9017 4288258274
-31.981651 932.24481 1314.9017 4288256475
-28.555046 932.24481 1314.9017 4287929052
-18.275229 932.24481 1314.9017 4291355391
-15.990826 932.24481 1314.9017 4293787647
-13.706422 932.24481 1314.9017 4294967295
-11.422018 932.24481 1314.9017 4294967295
18.275229 932.24481 1314.9017 4284963720
31.981651 932.24481 1314.9017 4284570234
-9.1376143 933.99127 1316.3743 4294967295
18.275229 933.99127 1316.3743 4285028995
0.7584098 940.29803 1315.1519 4283457957
4.5504589 940.58795 1315.3962 4285031580
6.8256879 940.58795 1315.3962 4284900250
9.1009178 939.71826 1314.663 4285490321
-65.023849 754.74481 1319.5859 4288784357
-62.522934 754.74481 1319.5859 4288915943
-62.293579 761.26581 1318.5439 4289113067
-62.06422 767.75873 1317.4785 4288916458
-59.58165 767.75873 1317.4785 4288850665
-67.029358 769.65668 1319.0789 4288587759
-64.546791 769.65668 1319.0789 4288784618
-62.06422 769.65668 1319.0789 4288718825
-59.58165 769.65668 1319.0789 4288259296
-66.732109 776.64697 1317.1246 4288718823
-64.260551 776.64697 1317.1246 4288653802
-61.78899 776.64697 1317.1246 4288653802
-59.317432 776.64697 1317.1246 4288784870
-69.203667 778.5365 1318.7179 4288521700
-66.732109 778.5365 1318.7179 4288850665
-64.260551 778.5365 1318.7179 4288587498
-61.78899 778.5365 1318.7179 4288587498
-66.484406 784.95642 1317.5909 4288980968
-64.022018 784.95642 1317.5909 4288652520
-71.409172 786.83899 1319.1782 4288783075
-67.715599 786.83899 1319.1782 4288455392
-66.236694 793.22382 1318.0216 4288455909
-67.463303 795.0993 1319.603 4288455403
-68.433029 803.31769 1319.9923 4288257759
-65.174309 802.07202 1318.942 4288455393
-64.929665 808.39142 1317.7302 4288454624
-58.436699 807.771 1317.207 4288257763
-65.444038 818.28497 1318.224 4288257501
-65.444038 820.13806 1319.7865 4287994591
-64.948624 832.59357 1317.2084 4288059864
-61.340366 832.59357 1317.2084 4288125648
-64.948624 834.43262 1318.759 4288258013
-62.543118 834.43262 1318.759 4288125911
-67.097244 841.52734 1318.2009 4287863004
-64.70092 841.52734 1318.2009 4287994333
-62.304588 840.61133 1317.4286 4287863505
-59.908257 840.61133 1317.4286 4287929298
-62.066055 848.58698 1317.6133 4288191706
-62.066055 850.41199 1319.1521 4287929050
-61.875229 854.20941 1317.1219 4287863253
-58.305504 854.20941 1317.1219 4287928791
-61.875229 856.02881 1318.656 4287667155
-59.495415 856.02881 1318.656 4287733204
-61.636696 863.01837 1318.0092 4287337929
-59.266056 863.01837 1318.0092 4287732686
-56.895412 862.11218 1317.2451 4287797471
-85.01284 869.97278 1317.3328 4287730635
-82.651375 869.97278 1317.3328 4287796428
-61.398167 869.97278 1317.3328 4287470798
-59.036697 869.97278 1317.3328 4287470798
-56.675228 869.97278 1317.3328 4287601362
-61.398167 871.77814 1318.8551 4287535307
-59.036697 871.77814 1318.8551 4287601100
-56.455048 877.79132 1317.385 4287665369
-58.807339 879.58966 1318.9014 4287599052
-56.455048 879.58966 1318.9014 4287466961
-58.57798 887.35907 1318.9122 4287206604
-56.234863 885.56775 1317.4019 4287534544
-53.891743 885.56775 1317.4019 4287731666
25.774311 885.56775 1317.4019 4290035705
28.117432 886.46338 1318.157 4287533792
30.46055 886.46338 1318.157 4285757638
-58.394497 892.83008 1318.2931 4287074504
-56.058716 892.83008 1318.2931 4287140297
28.029358 892.83008 1318.2931 4285030812
30.365137 892.83008 1318.2931 4285359777
-63.066055 894.61578 1319.7987 4287401924
-60.730274 894.61578 1319.7987 4287271369
-58.394497 894.61578 1319.7987 4287205320
-60.491745 902.30524 1319.7422 4286942916
-58.165138 901.41589 1318.9923 4287008965
-55.838531 901.41589 1318.9923 4287074503
-57.93578 908.18097 1318.1562 4287072708
-55.618347 908.18097 1318.1562 4287138755
27.809174 908.18097 1318.1562 4286873016
-60.253212 909.95264 1319.6501 4287269058
-57.93578 909.95264 1319.6501 4287203264
31.285322 909.95264 1319.6501 4285555352
-55.442204 913.56775 1317.4662 4286547377
-60.062386 915.33386 1318.9552 4286678717
-57.752293 915.33386 1318.9552 4286678717
-55.442204 915.33386 1318.9552 4286351019
-58.673393 922.02869 1318.0601 4289902060
-55.222019 921.14917 1317.3185 4290230240
-52.710091 928.6886 1317.1354 4290692856
-49.272476 928.6886 1317.1354 4290561018
-45.834862 928.6886 1317.1354 4290692607
-43.543118 928.6886 1317.1354 4290955519
-41.251377 928.6886 1317.1354 4290955519
-38.959633 928.6886 1317.1354 4291087103
22.917431 928.6886 1317.1354 4284702081
27.500917 928.6886 1317.1354 4284570495
-52.710091 930.44067 1318.6127 4290100217
-49.272476 930.44067 1318.6127 4290428666
-45.834862 930.44067 1318.6127 4290362612
-43.543118 930.44067 1318.6127 4290230769
-41.251377 930.44067 1318.6127 4290033908
-38.959633 930.44067 1318.6127 4289770480
-25.209175 930.44067 1318.6127 4288720110
-22.917431 930.44067 1318.6127 4287278311
-20.625689 930.44067 1318.6127 4289910015
20.625689 930.44067 1318.6127 4284963720
22.917431 930.44067 1318.6127 4284702081
-6.8532109 935.73773 1317.8468 4293060581
-4.5688071 935.73773 1317.8468 4288657663
13.706422 935.73773 1317.8468 4285292424
15.990826 935.73773 1317.8468 4285226631
18.275229 935.73773 1317.8468 4284963202
-2.2844036 937.48413 1319.3193 4281295830
11.422018 937.48413 1319.3193 4285358478
13.706422 937.48413 1319.3193 4285424003
15.990826 937.48413 1319.3193 4285095294
18.275229 937.48413 1319.3193 4284963202
0 944.06677 1318.3296 4284768660
4.5504589 944.06677 1318.3296 4284899220
6.8256879 944.93652 1319.063 4284833170
9.1009178 944.93652 1319.063 4285161099
22.6789 950.17468 1318.2474 4284568444
24.946789 950.17468 1318.2474 4284568444
20.411009 951.90851 1319.7094 4284241267
22.6789 951.90851 1319.7094 4284372348
24.946789 951.90851 1319.7094 4284438141
-70.025688 758.56879 1322.8102 4288521700
-67.524773 757.61279 1322.0042 4288587493
-65.023849 757.61279 1322.0042 4288784359
-67.277061 763.17078 1320.1503 4288653550
-64.785324 763.17078 1320.1503 4288719849
29.900917 763.17078 1320.1503 4293720575
-69.768806 765.07574 1321.7565 4288719093
-67.277061 765.07574 1321.7565 4288587507
-64.785324 765.07574 1321.7565 4288850665
-74.477066 773.45258 1322.2794 4288587746
-70.753212 772.5036 1321.4792 4288587748
-67.029358 771.55463 1320.6792 4288521448
-64.546791 771.55463 1320.6792 4288718823
-76.618347 782.31555 1321.9043 4288586973
-74.14679 782.31555 1321.9043 4288652257
-70.439453 781.37079 1321.1077 4288718307
-66.732109 780.42603 1320.311 4288850150
-71.409172 788.7215 1320.7655 4288718312
-67.715599 788.7215 1320.7655 4288784611
-73.871559 790.604 1322.3528 4288390114
-71.409172 790.604 1322.3528 4288521700
-68.946793 790.604 1322.3528 4288587496
-68.689911 796.97485 1321.1843 4287995617
-68.689911 798.85034 1322.7657 4288323808
-68.433029 805.18616 1321.5677 4288519904
-70.611008 811.4939 1320.3462 4288454622
-68.176147 811.4939 1320.3462 4288454109
-65.741287 811.4939 1320.3462 4288585951
-70.611008 813.35541 1321.9156 4288454876
-68.176147 813.35541 1321.9156 4288454622
-70.29174 821.99109 1321.3489 4288192217
-67.867889 821.99109 1321.3489 4288388329
-65.444038 821.99109 1321.3489 4288257000
-84.834862 823.84412 1322.9114 4287929048
-70.29174 823.84412 1322.9114 4288258263
-67.867889 823.84412 1322.9114 4288257759
-65.444038 823.84412 1322.9114 4288191965
-70.025688 830.07196 1321.6223 4288060116
-67.611008 829.14893 1320.844 4288125656
-65.196327 828.22589 1320.0658 4288191704
-69.759636 836.27161 1320.3097 4288258011
-67.354126 836.27161 1320.3097 4287863770
-64.948624 836.27161 1320.3097 4287995356
-69.759636 838.11066 1321.8602 4288323806
-69.493576 844.27539 1320.5181 4287797460
-67.097244 844.27539 1320.5181 4287796698
-64.70092 844.27539 1320.5181 4288059614
-69.493576 846.10736 1322.0627 4287995093
-67.097244 846.10736 1322.0627 4287796950
-64.70092 846.10736 1322.0627 4288125659
-76.388992 854.06201 1322.2297 4287798475
-74.001831 854.06201 1322.2297 4287798475
-70.421097 854.06201 1322.2297 4287731918
-66.84037 853.14954 1321.4603 4287601617
-64.453209 853.14954 1321.4603 4287601361
-66.634865 857.84821 1320.1901 4287601616
-64.255043 857.84821 1320.1901 4287535822
-61.875229 857.84821 1320.1901 4287863759
-66.634865 859.6676 1321.7241 4287863759
-64.255043 859.6676 1321.7241 4287534794
-64.007339 865.73688 1320.3014 4287797464
-61.636696 865.73688 1320.3014 4287404237
-67.563309 867.54926 1321.8295 4287467982
-64.007339 867.54926 1321.8295 4287797464
-63.759632 875.38885 1321.8995 4287403208
-61.398167 874.48621 1321.1384 4287139533
-59.036697 874.48621 1321.1384 4287534034
-58.807339 881.38806 1320.4177 4287402956
30.579817 881.38806 1320.4177 4292337407
-63.511925 883.1864 1321.934 4287141315
-61.159634 883.1864 1321.934 4287076042
-58.807339 883.1864 1321.934 4287076042
32.93211 883.1864 1321.934 4286677450
-63.264221 890.94177 1321.9331 4287205574
-60.921101 890.04608 1321.1779 4287140554
-58.57798 889.15039 1320.4226 4287206347
-63.066055 896.40149 1321.3044 4287205572
-60.730274 896.40149 1321.3044 4287074758
-58.394497 896.40149 1321.3044 4287074758
-63.066055 898.18726 1322.8101 4287336129
-60.730274 898.18726 1322.8101 4287074758
-65.144951 905.86267 1322.7417 4287072706
-61.655045 904.97327 1321.9918 4287007426
-58.165138 904.08392 1321.2419 4286942403
31.409174 905.86267 1322.7417 4287136186
-60.253212 911.72437 1321.1439 4287203264
-57.93578 911.72437 1321.1439 4287137471
-62.570641 913.49603 1322.6378 4287071676
-61.21743 917.09991 1320.4443 4286481342
-62.372478 918.86603 1321.9335 4288059857
-62.124771 925.54688 1321.0265 4290888435
-58.673393 925.54688 1321.0265 4290757622
-55.222019 926.42639 1321.7681 4290692856
25.310091 926.42639 1321.7681 4284570495
-49.272476 932.19275 1320.09 4290428412
-45.834862 932.19275 1320.09 4289902811
-43.543118 932.19275 1320.09 4289376466
-41.251377 932.19275 1320.09 4289048026
-37.813759 932.19275 1320.09 4288718812
-34.376148 932.19275 1320.09 4287797462
-32.084404 932.19275 1320.09 4287140801
-28.64679 932.19275 1320.09 4287207109
-25.209175 932.19275 1320.09 4288654815
-22.917431 932.19275 1320.09 4287802600
-19.479816 932.19275 1320.09 4290697215
-16.042202 932.19275 1320.09 4293853183
-13.750459 932.19275 1320.09 4294967295
-11.458715 932.19275 1320.09 4294967295
20.625689 932.19275 1320.09 4285028995
22.917431 932.19275 1320.09 4284702079
-41.251377 933.94476 1321.5673 4287864268
-37.813759 933.94476 1321.5673 4288192717
-34.376148 933.94476 1321.5673 4288389067
-32.084404 933.94476 1321.5673 4287666623
-28.64679 933.94476 1321.5673 4287470016
-25.209175 933.94476 1321.5673 4288523219
-22.917431 933.94476 1321.5673 4287539673
-19.479816 933.94476 1321.5673 4290631423
-16.042202 933.94476 1321.5673 4293065727
-13.750459 933.94476 1321.5673 4294443007
-10.312843 933.94476 1321.5673 4294967295
20.625689 933.94476 1321.5673 4284963202
22.917431 933.94476 1321.5673 4284701822
32.084404 933.94476 1321.5673 4284700534
-2.2844036 940.10382 1321.5283 4282083759
2.2844036 940.10382 1321.5283 4285229212
6.8532109 940.97705 1322.2645 4284767634
10.279816 940.10382 1321.5283 4284964236
13.706422 940.10382 1321.5283 4285160836
15.990826 940.10382 1321.5283 4285095042
18.275229 940.10382 1321.5283 4284963201
1.1376147 946.67596 1320.5295 4285228187
4.5504589 946.67596 1320.5295 4284898963
6.8256879 946.67596 1320.5295 4284898963
9.1009178 946.67596 1320.5295 4284963720
20.477064 946.67596 1320.5295 4284700536
22.752293 946.67596 1320.5295 4284634237
25.027523 946.67596 1320.5295 4284766080
27.302752 946.67596 1320.5295 4284502653
0 948.41541 1321.9962 4285424275
4.5504589 948.41541 1321.9962 4284701833
6.8256879 948.41541 1321.9962 4284833420
9.1009178 948.41541 1321.9962 4284899463
13.651376 948.41541 1321.9962 4284569728
15.926605 948.41541 1321.9962 4284635777
19.339451 948.41541 1321.9962 4284504441
-72.526604 760.48071 1324.4222 4288784359
-70.025688 760.48071 1324.4222 4288587757
-72.260551 766.98071 1323.3627 4288850917
-69.768806 766.98071 1323.3627 4288653552
-74.752296 768.88562 1324.9689 4288719329
-76.959633 775.35052 1323.8798 4288718562
-74.477066 775.35052 1323.8798 4288652768
-71.994499 775.35052 1323.8798 4288652768
-79.4422 777.24847 1325.48 4288455646
-76.959633 777.24847 1325.48 4288652768
-74.477066 777.24847 1325.48 4288718562
-76.618347 784.20508 1323.4974 4288324319
-74.14679 784.20508 1323.4974 4288585697
-79.089905 786.0946 1325.0907 4288323554
-76.618347 786.0946 1325.0907 4288323554
-74.14679 786.0946 1325.0907 4288455396
-73.871559 793.42773 1324.7336 4288390116
-71.409172 793.42773 1324.7336 4288521703
-71.14312 800.72583 1324.3472 4288389347
-73.596329 802.60132 1325.9285 4288651755
-71.14312 802.60132 1325.9285 4288585962
-73.321098 808.9231 1324.7186 4288454622
-70.877068 807.05463 1323.1432 4288782821
-68.433029 807.05463 1323.1432 4288585951
-70.611008 815.21686 1323.4852 4288324056
-68.176147 815.21686 1323.4852 4288257501
-73.045868 817.07837 1325.0548 4288258265
-70.611008 817.07837 1325.0548 4288258265
-68.176147 817.07837 1325.0548 4288125920
-84.834862 825.6972 1324.4739 4287929050
-82.411011 825.6972 1324.4739 4288256729
-72.715599 825.6972 1324.4739 4288191954
-70.29174 825.6972 1324.4739 4288389333
-72.440369 833.76404 1324.7354 4288192217
-70.025688 831.91797 1323.1788 4288257749
-67.611008 831.91797 1323.1788 4287994841
-73.367889 839.94971 1323.4109 4287929046
-69.759636 839.94971 1323.4109 4287929048
-73.367889 841.78876 1324.9615 4287863508
-70.691742 847.93939 1323.6074 4287864788
-67.097244 847.93939 1323.6074 4287863255
-64.70092 847.93939 1323.6074 4287863255
-76.682571 849.77142 1325.1521 4287666894
-74.28624 849.77142 1325.1521 4287666894
-70.691742 849.77142 1325.1521 4287535053
-81.1633 856.79944 1324.5378 4287403724
-78.776146 856.79944 1324.5378 4287469773
-76.388992 856.79944 1324.5378 4287535307
-74.001831 856.79944 1324.5378 4287469514
-70.421097 856.79944 1324.5378 4287732690
-83.293579 863.3064 1324.7922 4287337674
-80.913765 863.3064 1324.7922 4287533770
-69.807953 862.69995 1324.2809 4287862228
-66.634865 862.39673 1324.0251 4287797717
-64.255043 861.487 1323.2582 4287534542
-82.972481 869.36163 1323.3577 4287730635
-67.563309 869.36163 1323.3577 4287467981
-64.007339 869.36163 1323.3577 4287797462
-82.972481 871.17401 1324.8859 4287337163
-71.119263 871.17401 1324.8859 4287206345
-67.563309 871.17401 1324.8859 4287469260
-64.007339 871.17401 1324.8859 4287403467
-80.289909 878.99957 1324.944 4287335875
-73.205505 878.99957 1324.944 4287401920
-70.84404 878.99957 1324.944 4287205320
-66.908257 878.39777 1324.4365 4287469001
-63.759632 878.09692 1324.1829 4287337413
-61.398167 878.09692 1324.1829 4287402443
33.060551 878.99957 1324.944 4291876095
-63.511925 884.98474 1323.4503 4287009215
-61.159634 884.98474 1323.4503 4287075017
32.93211 884.98474 1323.4503 4283586458
-79.977982 886.78308 1324.9667 4287598272
-64.688072 886.78308 1324.9667 4287074241
32.93211 886.78308 1324.9667 4285358226
-65.607338 892.73303 1323.4435 4287401924
32.803669 892.73303 1323.4435 4285620371
35.14679 892.73303 1323.4435 4285620371
37.48991 892.73303 1323.4435 4285751701
-65.607338 894.52441 1324.9539 4287074243
-64.233948 899.97296 1324.3158 4287074238
-70.073395 901.75867 1325.8214 4287007676
-67.737617 901.75867 1325.8214 4287139518
-65.401833 901.75867 1325.8214 4287008450
-65.144951 907.64136 1324.2415 4287334078
-62.818348 907.64136 1324.2415 4287399872
-65.144951 909.42004 1325.7412 4287203262
-62.818348 909.42004 1325.7412 4287203262
-81.110092 917.03943 1325.6255 4286416563
-78.792664 917.03943 1325.6255 4286152623
-67.205505 917.03943 1325.6255 4286745012
-64.888077 916.15356 1324.8785 4287007169
-64.682571 920.63214 1323.4226 4289046498
-62.372478 920.63214 1323.4226 4289507049
-78.543121 922.39819 1324.9117 4287860926
-64.682571 922.39819 1324.9117 4290427884
-78.231194 928.18549 1323.2512 4290099433
-62.124771 929.06506 1323.9929 4290692852
-58.673393 929.065 1323.9928 4290034681
-55.222019 929.06506 1323.9929 4289902586
-52.921101 929.94458 1324.7345 4290231295
25.310091 929.06506 1323.9929 4284439165
28.761467 929.065 1323.9928 4284308091
-36.667889 935.69684 1323.0446 4288126915
-9.1669722 935.69684 1323.0446 4294967295
-6.8752294 935.69684 1323.0446 4291941844
-4.5834861 935.69684 1323.0446 4282809069
20.625689 935.69684 1323.0446 4284963202
22.917431 935.69684 1323.0446 4284831871
28.64679 935.69684 1323.0446 4284504184
32.084404 935.69684 1323.0446 4284700786
-6.8752294 937.44885 1324.5219 4291483875
-4.5834861 937.44885 1324.5219 4283206084
20.625689 937.44885 1324.5219 4284831873
22.917431 937.44885 1324.5219 4284766078
32.084404 937.44885 1324.5219 4284634478
-6.8752294 939.20093 1325.999 4290101218
-4.5834861 939.20093 1325.999 4283395518
20.625689 939.20093 1325.999 4284766078
22.917431 939.20093 1325.999 4284634239
25.209175 939.20093 1325.999 4284634239
-2.2844036 942.72351 1323.7371 4282741418
2.2844036 942.72351 1323.7371 4285228439
11.422018 943.59674 1324.4734 4284897927
13.706422 943.59674 1324.4734 4284832132
15.990826 943.59674 1324.4734 4284832132
19.036697 943.30566 1324.2279 4284897406
22.844036 942.72351 1323.7371 4284634237
0 950.15479 1323.4629 4285358728
6.8256879 950.15479 1323.4629 4284833668
11.376146 950.15479 1323.4629 4284964735
15.926605 950.15479 1323.4629 4284569982
18.201836 950.15479 1323.4629 4284570232
1.1376147 951.89429 1324.9296 4285030792
4.5504589 951.89429 1324.9296 4284833919
11.376146 951.89429 1324.9296 4284832897
15.926605 951.89429 1324.9296 4284635775
18.201836 951.89429 1324.9296 4284504187
-75.357796 755.33234 1327.9294 4288258276
-75.027519 763.34869 1326.8406 4288719074
-72.526604 762.3927 1326.0344 4288850402
-79.735779 770.79059 1326.5751 4288652766
-77.244034 770.79059 1326.5751 4288718816
-79.735779 772.69556 1328.1813 4288586975
-79.4422 779.14642 1327.0803 4288455644
-79.4422 781.04437 1328.6807 4288258526
-79.089905 787.98413 1326.6838 4288126943
-76.618347 787.98413 1326.6838 4288324321
-79.089905 789.87366 1328.2771 4288390112
-76.618347 789.87366 1328.2771 4288324319
-73.871559 796.25153 1327.1146 4288455394
-71.409172 796.25153 1327.1146 4288652516
-76.333946 798.13403 1328.7019 4288389599
-73.871559 798.13403 1328.7019 4288455396
-73.596329 804.47681 1327.5099 4288717028
-75.765137 812.6601 1327.8696 4288258011
-73.321098 811.72583 1327.0819 4288323545
-85.220184 818.93982 1326.6244 4288390114
-82.785324 818.93982 1326.6244 4288455126
-73.045868 818.93982 1326.6244 4288258011
-82.785324 820.80127 1328.1938 4288452825
-73.045868 820.80127 1328.1938 4288258263
-84.834862 827.55023 1326.0363 4288059866
-82.411011 827.55023 1326.0363 4288059351
-75.13945 827.55023 1326.0363 4288059353
-72.715599 827.55023 1326.0363 4287731407
-84.834862 829.40332 1327.5988 4287994843
-82.411011 829.40332 1327.5988 4288060118
-75.13945 829.40332 1327.5988 4287994073
-72.715599 829.40332 1327.5988 4288126163
-73.647705 835.61011 1326.292 4287929048
-77.269722 837.45612 1327.8484 4287863507
-76.976151 844.54724 1327.2875 4287797711
-73.768806 844.24072 1327.0291 4287797712
-81.475227 851.60339 1326.6968 4287535309
-79.078896 851.60339 1326.6968 4288061653
-82.35688 859.53699 1326.8461 4287141835
-78.776146 859.53699 1326.8461 4287338444
-76.388992 859.53699 1326.8461 4287535046
-74.001831 859.53699 1326.8461 4287403204
-71.614677 859.53699 1326.8461 4287336649
-78.776146 861.362 1328.3849 4287533770
-76.388992 861.362 1328.3849 4287533763
-74.001831 861.362 1328.3849 4287599556
-80.913765 866.03546 1327.0933 4287533513
-76.154129 866.03546 1327.0933 4287534277
-73.774315 866.03546 1327.0933 4287468485
-71.394493 866.03546 1327.0933 4287467466
-82.972481 872.98639 1326.4139 4287533772
-80.601837 872.98639 1326.4139 4287271367
-73.489906 872.98639 1326.4139 4287469755
-71.119263 872.98639 1326.4139 4287469001
-67.563309 872.98639 1326.4139 4287732173
-75.86055 874.79877 1327.9421 4287600319
-73.489906 874.79877 1327.9421 4287337147
-71.119263 874.79877 1327.9421 4287401924
-68.748627 874.79877 1327.9421 4287862475
-73.205505 880.80493 1326.4663 4287467717
-70.84404 880.80493 1326.4663 4287074243
-67.301834 880.80493 1326.4663 4287272390
-80.289909 882.61029 1327.9885 4287270073
-75.566971 882.61029 1327.9885 4287533257
-73.205505 882.61029 1327.9885 4287533257
-70.84404 882.61029 1327.9885 4287467717
-67.301834 882.61029 1327.9885 4287337156
-79.977982 889.48059 1327.2411 4287074242
-75.273392 890.37976 1327.9993 4287074243
-72.921104 890.37976 1327.9993 4287008450
-70.56881 890.37976 1327.9993 4287007678
-68.216515 889.48059 1327.2411 4287401666
-65.86422 888.58142 1326.4829 4287205574
32.93211 888.58142 1326.4829 4285424021
35.284405 888.58142 1326.4829 4285621400
-67.950462 896.31573 1326.4642 4287664065
-65.607338 896.31573 1326.4642 4287401922
-70.293579 898.10706 1327.9746 4287467706
-67.950462 898.10706 1327.9746 4287599035
-72.409172 905.33014 1328.8328 4286876862
-70.073395 904.43726 1328.08 4287334846
-67.737617 904.43726 1328.08 4287269310
-79.104584 911.19879 1327.241 4286876348
-67.471558 911.19879 1327.241 4287137469
-65.144951 911.19879 1327.241 4287137469
-79.104584 912.97748 1328.7407 4286678715
-72.124771 912.97748 1328.7407 4286613172
-69.798164 912.97748 1328.7407 4286612668
-67.471558 912.97748 1328.7407 4286415545
-78.792664 918.8111 1327.1194 4286547628
-69.522934 919.69696 1327.8662 4288324045
-67.205505 919.69696 1327.8662 4289310684
-78.543121 924.16431 1326.4009 4288718552
-69.30275 925.93036 1327.8899 4289641199
-66.992661 925.04736 1327.1454 4290363890
-64.682571 925.04736 1327.1454 4290560497
-62.124771 931.70361 1326.2177 4289968880
-58.673393 931.70361 1326.2177 4290034419
-55.222019 931.70361 1326.2177 4289705974
-52.921101 931.70361 1326.2177 4289113838
-49.469727 931.70361 1326.2177 4288914912
-46.018349 931.70361 1326.2177 4288258261
-43.71743 931.70361 1326.2177 4288192467
25.310091 931.70361 1326.2177 4284635773
28.761467 931.70361 1326.2177 4284569977
-55.222019 933.46271 1327.7009 4289507825
-52.921101 933.46271 1327.7009 4289047274
-49.469727 933.46271 1327.7009 4288258248
-46.018349 933.46271 1327.7009 4288192467
-43.71743 933.46271 1327.7009 4288126674
-40.266056 933.46271 1327.7009 4288126924
-34.51376 933.46271 1327.7009 4288258501
-32.212845 933.46271 1327.7009 4287339200
-28.761467 933.46271 1327.7009 4287141570
-25.310091 933.46271 1327.7009 4288720351
-23.009174 933.46271 1327.7009 4288523236
-19.557798 933.46271 1327.7009 4291155199
-16.106422 933.46271 1327.7009 4293523967
-13.805505 933.46271 1327.7009 4294967295
-11.504587 933.46271 1327.7009 4294967295
25.310091 933.46271 1327.7009 4284700285
-4.5834861 940.953 1327.4763 4282281123
25.209175 940.953 1327.4763 4284634237
28.64679 940.953 1327.4763 4284568444
-4.5834861 942.70508 1328.9536 4284573575
-2.291743 942.70508 1328.9536 4284968333
-4.5688071 947.96283 1328.1548 4284965017
-2.2844036 947.96283 1328.1548 4285096859
2.2844036 947.0896 1327.4185 4285226891
4.5688071 947.96283 1328.1548 4284767874
10.279816 947.0896 1327.4185 4284833409
13.706422 947.96283 1328.1548 4284569982
2.2752295 953.63367 1326.3961 4284767876
4.5504589 953.63367 1326.3961 4284833151
2.2752295 955.37311 1327.8628 4284701831
-75.357796 757.25275 1329.5487 4288257759
-77.869728 759.1731 1331.168 4288719577
-80.029358 766.21667 1329.2587 4288522202
-77.528442 766.21667 1329.2587 4288522202
-79.089905 791.76318 1329.8702 4288259807
-76.618347 791.76318 1329.8702 4288194014
-79.089905 793.65271 1331.4635 4288127708
-76.618347 793.65271 1331.4635 4288127708
-76.333946 800.01654 1330.2892 4288390114
-76.333946 801.89905 1331.8765 4288062687
-76.049538 806.35229 1329.0912 4288127195
-76.049538 808.22784 1330.6726 4288258011
-78.209175 814.52856 1329.4451 4287929561
-75.765137 814.52856 1329.4451 4288127197
-79.431198 816.39709 1331.0205 4288060373
-75.765137 816.39709 1331.0205 4288258013
-80.350456 823.59351 1330.5482 4288322779
-77.103973 823.28326 1330.2866 4288256729
-84.834862 832.18286 1329.9424 4287797718
-82.411011 832.18286 1329.9424 4287863247
-79.98716 833.10944 1330.7236 4287797196
-76.755348 831.87402 1329.682 4287797206
-82.099083 839.30219 1329.405 4287731920
-79.684402 839.30219 1329.405 4287797714
-77.269722 839.30219 1329.405 4287863507
-82.099083 841.14819 1330.9615 4287731918
-79.684402 841.14819 1330.9615 4287797712
-81.787155 847.30579 1329.6134 4287731405
-79.381653 847.30579 1329.6134 4288060370
-78.776146 863.18701 1329.9237 4287533257
-78.776146 865.01202 1331.4624 4287467977
-80.913765 868.76453 1329.3944 4287206345
-76.154129 868.76453 1329.3944 4287273155
-73.774315 868.76453 1329.3944 4287273155
-85.673393 870.58392 1330.9285 4287533772
-78.533943 870.58392 1330.9285 4287534796
-76.154129 870.58392 1330.9285 4287403706
-82.972481 877.51733 1330.2344 4287664583
-79.021416 877.8194 1330.489 4287532737
-75.86055 877.51733 1330.2344 4287533508
-76.747711 884.41565 1329.5107 4287532226
-73.205505 884.41565 1329.5107 4287598022
-70.84404 884.41565 1329.5107 4287663811
-68.482567 884.41565 1329.5107 4287598018
-85.01284 886.22101 1331.033 4286942403
-82.651375 886.22101 1331.033 4287008196
-76.747711 886.22101 1331.033 4287204546
-73.205505 886.22101 1331.033 4287335875
-70.84404 886.22101 1331.033 4287532227
-82.330276 892.1781 1329.5156 4286876612
-79.977982 892.1781 1329.5156 4287008450
-72.921104 893.07727 1330.2738 4287204290
-70.56881 893.07727 1330.2738 4287401150
-68.216515 892.1781 1329.5156 4287401407
-72.636696 899.89844 1329.4851 4287138753
-73.808258 901.68976 1330.9955 4287072962
-79.416512 907.11584 1330.3385 4286876346
-77.080734 908.90161 1331.8441 4286810555
-73.187767 908.30634 1331.3423 4286678968
-70.073395 908.00873 1331.0913 4287203518
-67.737617 907.11584 1330.3385 4287203260
-76.777985 914.75623 1330.2405 4286350002
-73.288071 914.75623 1330.2405 4286218414
-69.798164 914.75623 1330.2405 4286679219
-76.777985 916.53491 1331.7402 4286547628
-73.288071 916.53491 1331.7402 4286679217
-69.522934 922.35449 1330.1071 4290560236
-76.475227 924.12622 1331.601 4290362862
-74.157799 924.12622 1331.601 4290232818
-71.84037 924.12622 1331.601 4290035696
-76.233025 929.46252 1330.8682 4290165998
-73.922935 929.46252 1330.8682 4289837821
-70.072777 928.87384 1330.3717 4289968885
-66.992661 928.57947 1330.1235 4290363125
-64.682571 928.57947 1330.1235 4290232047
-49.469727 935.2218 1329.1841 4288520919
-46.018349 935.2218 1329.1841 4288520406
-43.71743 935.2218 1329.1841 4288849370
-40.266056 935.2218 1329.1841 4288784609
-36.814678 935.2218 1329.1841 4288785111
-34.51376 935.2218 1329.1841 4289179868
-32.212845 935.2218 1329.1841 4288655056
-13.805505 935.2218 1329.1841 4291417087
-10.354128 935.2218 1329.1841 4294311167
25.310091 935.2218 1329.1841 4284634491
28.761467 935.2218 1329.1841 4284568183
-10.354128 936.98083 1330.6672 4292995583
28.761467 936.98083 1330.6672 4284502905
32.212845 936.98083 1330.6672 4284568685
-2.291743 944.45709 1330.4309 4285161878
-4.5688071 949.70923 1329.6273 4284833170
-2.2844036 949.70923 1329.6273 4285030292
