# .PCD v0.7 - Point Cloud Data file format
VERSION 0.7
FIELDS x y z rgb
SIZE 4 4 4 4
TYPE F F F U
COUNT 1 1 1 1
WIDTH 1149
HEIGHT 1
VIEWPOINT 0 0 0 1 0 0 0
POINTS 1149
DATA ascii
-48.858715 859.61621 1283.7478 4294967295
-46.532108 859.61621 1283.7478 4294967295
-40.715595 859.61621 1283.7478 4294967295
-37.225689 859.61621 1283.7478 4294967295
-34.899082 859.61621 1283.7478 4294967295
-32.572475 859.61621 1283.7478 4294967295
-37.078899 865.66028 1282.304 4294967295
-34.761467 865.66028 1282.304 4294967295
-44.031193 867.43195 1283.7977 4294967295
-40.555046 867.43195 1283.7977 4294967295
-37.078899 867.43195 1283.7977 4294967295
-34.761467 867.43195 1283.7977 4294967295
-31.285322 867.43195 1283.7977 4294967295
-27.809174 867.43195 1283.7977 4294967295
-25.491743 867.43195 1283.7977 4294967295
-43.891743 872.06482 1282.4719 4294967295
-40.041592 871.77045 1282.2236 4294967295
-36.961468 872.06482 1282.4719 4294967295
-34.651375 872.06482 1282.4719 4294967295
-31.186237 872.06482 1282.4719 4294967295
-41.416515 878.93152 1281.7216 4294967295
-43.71743 880.69055 1283.2048 4294967295
-40.266056 880.69055 1283.2048 4294967295
-36.814678 880.69055 1283.2048 4294967295
-34.51376 880.69055 1283.2048 4294967295
-32.212845 880.69055 1283.2048 4294967295
-29.911926 880.69055 1283.2048 4294967295
-45.834862 886.63922 1281.6804 4294967295
-43.543118 886.63922 1281.6804 4294967295
-41.251377 886.63922 1281.6804 4294967295
-37.813759 886.63922 1281.6804 4294967295
-34.376148 886.63922 1281.6804 4294967295
-32.084404 886.63922 1281.6804 4294967295
-45.834862 888.3913 1283.1577 4294967295
-43.543118 888.3913 1283.1577 4294967295
-41.251377 888.3913 1283.1577 4294967295
-37.813759 888.3913 1283.1577 4294967295
-34.376148 888.3913 1283.1577 4294967295
-32.084404 888.3913 1283.1577 4294967295
-29.79266 888.3913 1283.1577 4294967295
-45.688072 893.823 1282.5054 4294967295
-43.403671 893.823 1282.5054 4294967295
-41.119267 892.94977 1281.769 4294967295
-37.311924 892.65869 1281.5236 4294967295
-34.266056 892.94977 1281.769 4294967295
-31.981651 893.823 1282.5054 4294967295
-45.688072 895.56946 1283.978 4294967295
-43.403671 895.56946 1283.978 4294967295
-31.981651 895.56946 1283.978 4294967295
-40.954128 901.45068 1282.3969 4294967295
-37.541283 901.45068 1282.3969 4294967295
-34.128441 901.45068 1282.3969 4294967295
-36.403671 903.19019 1283.8635 4294967295
-34.128441 903.19019 1283.8635 4294967295
-45.3578 907.69604 1282.4305 4294967295
-40.822018 906.8291 1281.6996 4294967295
-38.554127 907.69604 1282.4305 4294967295
-42.776146 923.15143 1283.6898 4294967295
-40.524769 921.43024 1282.2385 4294967295
-37.147705 922.29083 1282.9641 4294967295
-33.770641 923.15143 1283.6898 4294967295
-31.519266 923.15143 1283.6898 4294967295
-42.636696 926.72723 1281.4728 4294967295
-40.392662 926.72723 1281.4728 4294967295
-38.148624 926.72723 1281.4728 4294967295
-35.904587 926.72723 1281.4728 4294967295
-42.636696 928.44275 1282.9193 4294967295
-40.392662 928.44275 1282.9193 4294967295
-38.148624 928.44275 1282.9193 4294967295
-35.904587 928.44275 1282.9193 4294967295
-42.462387 935.02551 1281.9296 4294967295
-40.227524 934.1712 1281.2092 4294967295
-52.335163 755.08862 1285.8671 4294967295
-25.758717 754.77606 1285.6034 4293849599
-22.078899 755.71381 1286.3942 4294967295
-56.212845 764.07947 1286.9076 4294967295
-52.13945 763.4566 1286.3824 4294967295
-48.880733 762.21094 1285.3322 4294967295
-29.32844 762.21094 1285.3322 4294967295
-26.069723 763.4566 1286.3824 4294967295
-21.99633 764.07947 1286.9076 4294967295
-19.552294 764.07947 1286.9076 4294967295
-52.349541 769.61078 1285.0314 4294967295
-48.697247 768.68005 1284.2466 4294967295
-31.653212 768.68005 1284.2466 4294967295
-29.218349 769.61078 1285.0314 4294967295
-25.971865 769.92108 1285.293 4294967295
-53.324772 779.37079 1285.4126 4294967295
-50.900917 779.37079 1285.4126 4294967295
-25.450459 779.37079 1285.4126 4294967295
-21.814678 779.37079 1285.4126 4294967295
-19.390825 779.37079 1285.4126 4294967295
-55.748623 781.22388 1286.9751 4294967295
-53.324772 781.22388 1286.9751 4294967295
-21.814678 781.22388 1286.9751 4294967295
-19.390825 781.22388 1286.9751 4294967295
-53.122936 785.76697 1284.2655 4294967295
-50.708256 785.76697 1284.2655 4294967295
-28.976147 785.76697 1284.2655 4294967295
-25.35413 785.76697 1284.2655 4294967295
-21.732111 785.76697 1284.2655 4294967295
-53.122936 787.61298 1285.822 4294967295
-50.708256 787.61298 1285.822 4294967295
-28.976147 787.61298 1285.822 4294967295
-52.921101 793.974 1284.6454 4294967295
-49.312843 793.974 1284.6454 4294967295
-38.488075 793.974 1284.6454 4294967295
-31.271559 793.974 1284.6454 4294967295
-28.866055 793.974 1284.6454 4294967295
-55.326607 795.81299 1286.196 4294967295
-52.921101 795.81299 1286.196 4294967295
-50.515594 795.81299 1286.196 4294967295
-28.866055 795.81299 1286.196 4294967295
-50.322937 803.97107 1286.5344 4294967295
-47.127827 802.74969 1285.5046 4294967295
-43.133945 802.13904 1284.9897 4294967295
-40.737614 802.13904 1284.9897 4294967295
-38.341286 803.05505 1285.7621 4294967295
-34.746788 802.13904 1284.9897 4294967295
-31.152294 803.05505 1285.7621 4294967295
-28.755962 803.97107 1286.5344 4294967295
-26.359632 803.97107 1286.5344 4294967295
-50.130276 812.08698 1286.8374 4294967295
-47.743118 811.17444 1286.0681 4294967295
-40.58165 810.26196 1285.2987 4294967295
-38.194496 810.26196 1285.2987 4294967295
-34.2159 810.8703 1285.8116 4294967295
-31.033028 810.26196 1285.2987 4294967295
-28.645872 812.08698 1286.8374 4294967295
-47.596329 816.00226 1284.9066 4294967295
-42.836697 816.91199 1285.6736 4294967295
-38.077065 816.00226 1284.9066 4294967295
-34.110703 816.6087 1285.418 4294967295
-30.937614 816.91199 1285.6736 4294967295
-28.557798 817.82166 1286.4407 4294967295
-26.177982 817.82166 1286.4407 4294967295
-52.154129 824.05225 1285.1539 4294967295
-49.783485 824.05225 1285.1539 4294967295
-47.412846 824.05225 1285.1539 4294967295
-34.374313 824.05225 1285.1539 4294967295
-30.818348 824.05225 1285.1539 4294967295
-28.447706 824.05225 1285.1539 4294967295
-26.077065 824.05225 1285.1539 4294967295
-54.524769 825.86462 1286.6821 4294967295
-52.154129 825.86462 1286.6821 4294967295
-49.783485 825.86462 1286.6821 4294967295
-47.412846 825.86462 1286.6821 4294967295
-30.818348 825.86462 1286.6821 4294967295
-28.447706 825.86462 1286.6821 4294967295
-26.077065 825.86462 1286.6821 4294967295
-22.521101 825.86462 1286.6821 4294967295
-18.965137 825.86462 1286.6821 4294967295
-51.952293 832.96289 1286.1271 4294967295
-49.590824 832.96289 1286.1271 4294967295
-47.229359 832.06018 1285.366 4294967295
-33.847706 832.66193 1285.8734 4294967295
-30.699083 832.96289 1286.1271 4294967295
-28.337614 832.96289 1286.1271 4294967295
-25.976147 832.96289 1286.1271 4294967295
-22.433945 833.86554 1286.8882 4294967295
-18.891743 833.86554 1286.8882 4294967295
-49.398167 838.22766 1284.026 4294967295
-47.045872 838.22766 1284.026 4294967295
-44.693577 838.22766 1284.026 4294967295
-37.636696 838.22766 1284.026 4294967295
-35.284405 838.22766 1284.026 4294967295
-32.93211 838.22766 1284.026 4294967295
-51.750458 840.026 1285.5424 4294967295
-49.398167 840.026 1285.5424 4294967295
-52.720184 847.94971 1285.6833 4294967295
-49.205505 846.15839 1284.1729 4294967295
-46.862385 846.15839 1284.1729 4294967295
-43.738224 846.75555 1284.6764 4294967295
-39.833027 847.05408 1284.9281 4294967295
-37.48991 847.05408 1284.9281 4294967295
-35.14679 847.05408 1284.9281 4294967295
-32.803669 847.05408 1284.9281 4294967295
-51.387157 853.54419 1285.1682 4294967295
-49.051376 853.54419 1285.1682 4294967295
-46.715595 853.54419 1285.1682 4294967295
-43.211929 853.54419 1285.1682 4294967295
-39.708256 853.54419 1285.1682 4294967295
-31.533028 853.54419 1285.1682 4294967295
-25.693579 853.54419 1285.1682 4294967295
-52.555046 855.3299 1286.6738 4294967295
-44.379818 855.3299 1286.6738 4294967295
-31.533028 855.3299 1286.6738 4294967295
-28.029358 855.3299 1286.6738 4294967295
-25.693579 855.3299 1286.6738 4294967295
-48.858715 862.28424 1285.9976 4294967295
-46.532108 862.28424 1285.9976 4294967295
-44.205505 862.28424 1285.9976 4294967295
-40.715595 863.17358 1286.7474 4294967295
-31.409176 862.2843 1285.9976 4294967295
-27.919266 862.28424 1285.9976 4294967295
-25.592661 862.28424 1285.9976 4294967295
-23.266054 862.28424 1285.9976 4294967295
-19.776146 862.2843 1285.9976 4294967295
-46.348625 869.20361 1285.2916 4294967295
-27.809174 869.20361 1285.2916 4294967295
-25.491743 869.20361 1285.2916 4294967295
-46.348625 870.97534 1286.7854 4294967295
-27.809174 870.97534 1286.7854 4294967295
-25.491743 870.97534 1286.7854 4294967295
-39.271561 874.71393 1284.7056 4294967295
-36.961468 874.71393 1284.7056 4294967295
-34.651375 874.71393 1284.7056 4294967295
-31.186239 874.71393 1284.7056 4294967295
-43.891743 876.47998 1286.1947 4294967295
-39.271561 876.47998 1286.1947 4294967295
-36.961468 876.47998 1286.1947 4294967295
-34.651375 876.47998 1286.1947 4294967295
-31.186239 876.47998 1286.1947 4294967295
-27.721102 876.47998 1286.1947 4294967295
-25.411009 876.47998 1286.1947 4294967295
-48.319267 884.20874 1286.1711 4294967295
-46.018349 882.44965 1284.688 4294967295
-43.71743 882.44965 1284.688 4294967295
-32.212845 882.44965 1284.688 4294967295
-28.761467 883.32922 1285.4296 4294967295
-25.310091 883.32922 1285.4296 4294967295
-23.009174 884.20874 1286.1711 4294967295
-19.557798 884.20874 1286.1711 4294967295
-48.126606 890.14331 1284.635 4294967295
-45.834862 890.14331 1284.635 4294967295
-43.543118 890.14331 1284.635 4294967295
-32.084404 890.14331 1284.635 4294967295
-28.64679 890.14331 1284.635 4294967295
-49.272476 891.89539 1286.1123 4294967295
-28.64679 891.89539 1286.1123 4294967295
-25.209175 891.89539 1286.1123 4294967295
-45.688072 898.18909 1286.1868 4294967295
-43.403671 898.18909 1286.1868 4294967295
-31.981651 898.18909 1286.1868 4294967295
-29.697248 898.18909 1286.1868 4294967295
-43.229359 904.92957 1285.3301 4294967295
-36.403671 904.92957 1285.3301 4294967295
-34.128441 904.92957 1285.3301 4294967295
-47.779816 906.66901 1286.7968 4294967295
-43.229359 906.66901 1286.7968 4294967295
-40.954128 906.66901 1286.7968 4294967295
-36.403671 906.66901 1286.7968 4294967295
-34.128441 906.66901 1286.7968 4294967295
-31.85321 906.66901 1286.7968 4294967295
-40.822018 910.29675 1284.6234 4294967295
-37.420181 910.29675 1284.6234 4294967295
-31.750458 910.29675 1284.6234 4294967295
-47.625687 912.03064 1286.0853 4294967295
-43.089909 912.03064 1286.0853 4294967295
-40.822018 912.03064 1286.0853 4294967295
-37.420181 912.03064 1286.0853 4294967295
-34.018349 912.03064 1286.0853 4294967295
-31.750458 912.03064 1286.0853 4294967295
-27.21468 912.03064 1286.0853 4294967295
-42.950459 917.36969 1285.355 4294967295
-40.689907 917.36969 1285.355 4294967295
-37.299084 917.36969 1285.355 4294967295
-31.647707 917.36969 1285.355 4294967295
-45.21101 919.0979 1286.8123 4294967295
-42.950459 919.0979 1286.8123 4294967295
-36.168808 919.0979 1286.8123 4294967295
-33.908257 919.0979 1286.8123 4294967295
-31.647707 919.0979 1286.8123 4294967295
-28.256882 919.0979 1286.8123 4294967295
-18.084404 919.0979 1286.8123 4294967295
-45.777985 926.02008 1286.1086 4294967295
-33.770641 925.73322 1285.8667 4294967295
-31.519266 925.73322 1285.8667 4294967295
-44.132721 930.73022 1284.848 4294967295
-40.392662 930.15839 1284.3658 4294967295
-38.148624 931.01617 1285.0891 4294967295
-34.78257 931.01617 1285.0891 4294967295
-53.970642 757.58936 1287.9755 4294967295
-25.758717 757.58936 1287.9755 4294967295
-22.078899 757.58936 1287.9755 4294967295
-19.625689 757.58936 1287.9755 4294967295
-56.423855 759.46484 1289.5569 4294967295
-53.970642 759.46484 1289.5569 4294967295
-24.53211 759.46484 1289.5569 4294967295
-22.078899 759.46484 1289.5569 4294967295
-19.625689 759.46484 1289.5569 4294967295
-17.172478 759.46484 1289.5569 4294967295
-13.492661 759.46484 1289.5569 4294967295
-58.656879 765.94794 1288.4832 4294967295
-56.212845 765.94794 1288.4832 4294967295
-24.440367 765.94794 1288.4832 4294967295
-21.99633 765.94794 1288.4832 4294967295
-19.552294 765.94794 1288.4832 4294967295
-17.108257 765.94794 1288.4832 4294967295
-56.001835 772.40302 1287.3857 4294967295
-52.349541 772.40302 1287.3857 4294967295
-25.566055 772.40302 1287.3857 4294967295
-21.913761 772.40302 1287.3857 4294967295
-19.478899 772.40302 1287.3857 4294967295
-17.044037 772.40302 1287.3857 4294967295
-58.436699 774.26447 1288.9552 4294967295
-56.001835 774.26447 1288.9552 4294967295
-53.566971 774.26447 1288.9552 4294967295
-24.348623 774.26447 1288.9552 4294967295
-21.913761 774.26447 1288.9552 4294967295
-19.478899 774.26447 1288.9552 4294967295
-17.044037 774.26447 1288.9552 4294967295
-14.609175 774.26447 1288.9552 4294967295
-55.748623 783.0769 1288.5375 4294967295
-19.390825 783.0769 1288.5375 4294967295
-16.966972 783.0769 1288.5375 4294967295
-57.952293 791.30505 1288.9351 4294967295
-55.537613 790.38202 1288.1567 4294967295
-53.122936 789.45898 1287.3785 4294967295
-25.35413 790.38202 1288.1567 4294967295
-21.732111 790.38202 1288.1567 4294967295
-19.31743 791.30505 1288.9351 4294967295
-57.732109 797.65204 1287.7466 4294967295
-55.326607 797.65204 1287.7466 4294967295
-52.921101 797.65204 1287.7466 4294967295
-50.515594 797.65204 1287.7466 4294967295
-28.866055 797.65204 1287.7466 4294967295
-25.257797 797.65204 1287.7466 4294967295
-57.732109 799.49109 1289.2972 4294967295
-55.326607 799.49109 1289.2972 4294967295
-52.921101 799.49109 1289.2972 4294967295
-50.515594 799.49109 1289.2972 4294967295
-28.866055 799.49109 1289.2972 4294967295
-25.257797 799.49109 1289.2972 4294967295
-21.649542 799.49109 1289.2972 4294967295
-52.719265 805.80304 1288.0791 4294967295
-50.322937 805.80304 1288.0791 4294967295
-38.341286 805.80304 1288.0791 4294967295
-33.548622 805.80304 1288.0791 4294967295
-28.755962 805.80304 1288.0791 4294967295
-26.359632 805.80304 1288.0791 4294967295
-19.170643 805.80304 1288.0791 4294967295
-57.511925 807.63507 1289.6239 4294967295
-55.115597 807.63507 1289.6239 4294967295
-52.719265 807.63507 1289.6239 4294967295
-50.322937 807.63507 1289.6239 4294967295
-28.755962 807.63507 1289.6239 4294967295
-26.359632 807.63507 1289.6239 4294967295
-22.765137 807.63507 1289.6239 4294967295
-19.170643 807.63507 1289.6239 4294967295
-16.774311 807.63507 1289.6239 4294967295
-14.377981 807.63507 1289.6239 4294967295
-54.904587 814.82446 1289.1456 4294967295
-52.517429 814.82446 1289.1456 4294967295
-50.130276 814.82446 1289.1456 4294967295
-28.645872 813.91199 1288.3762 4294967295
-26.258715 813.91199 1288.3762 4294967295
-22.280123 815.1286 1289.4021 4294967295
-19.097248 814.82446 1289.1456 4294967295
-16.710093 815.73694 1289.915 4294967295
-14.322936 815.73694 1289.915 4294967295
-54.735779 820.55072 1288.7417 4294967295
-52.355965 819.64099 1287.9747 4294967295
-49.976147 819.64099 1287.9747 4294967295
-28.557798 819.64099 1287.9747 4294967295
-26.177982 819.64099 1287.9747 4294967295
-22.608257 820.55072 1288.7417 4294967295
-19.038532 820.55072 1288.7417 4294967295
-16.658716 821.46045 1289.5088 4294967295
-14.278899 821.46045 1289.5088 4294967295
-54.524769 827.677 1288.2102 4294967295
-28.447706 827.677 1288.2102 4294967295
-22.521101 827.677 1288.2102 4294967295
-18.965137 827.677 1288.2102 4294967295
-16.594496 827.677 1288.2102 4294967295
-54.524769 829.48938 1289.7384 4294967295
-22.521101 829.48938 1289.7384 4294967295
-18.965137 829.48938 1289.7384 4294967295
-16.594496 829.48938 1289.7384 4294967295
-14.223853 829.48938 1289.7384 4294967295
-54.313763 835.6709 1288.4104 4294967295
-51.952293 835.6709 1288.4104 4294967295
-30.699083 835.6709 1288.4104 4294967295
-28.337614 835.6709 1288.4104 4294967295
-25.976147 835.6709 1288.4104 4294967295
-22.433945 835.6709 1288.4104 4294967295
-18.891743 835.6709 1288.4104 4294967295
-16.530275 835.6709 1288.4104 4294967295
-55.494495 837.47626 1289.9326 4294967295
-30.699083 837.47626 1289.9326 4294967295
-28.337614 837.47626 1289.9326 4294967295
-25.976147 837.47626 1289.9326 4294967295
-22.433945 837.47626 1289.9326 4294967295
-18.891743 837.47626 1289.9326 4294967295
-16.530275 837.47626 1289.9326 4294967295
-54.102753 841.82434 1287.0586 4294967295
-51.750458 841.82434 1287.0586 4294967295
-30.579817 841.82434 1287.0586 4294967295
-54.102753 843.62268 1288.575 4294967295
-51.750458 843.62268 1288.575 4294967295
-30.579817 843.62268 1288.575 4294967295
-28.227524 843.62268 1288.575 4294967295
-25.875229 843.62268 1288.575 4294967295
-23.522936 843.62268 1288.575 4294967295
-56.234863 851.53235 1288.7041 4294967295
-53.891743 850.63672 1287.949 4294967295
-37.48991 850.63672 1287.949 4294967295
-35.14679 850.63672 1287.949 4294967295
-30.46055 849.74103 1287.1937 4294967295
-28.117432 850.63672 1287.949 4294967295
-25.774311 849.74103 1287.1937 4294967295
-22.259632 851.53235 1288.7041 4294967295
-18.744955 851.53235 1288.7041 4294967295
-52.555046 857.1156 1288.1796 4294967295
-44.379818 857.1156 1288.1796 4294967295
-30.365137 857.1156 1288.1796 4294967295
-28.029358 857.1156 1288.1796 4294967295
-25.693579 857.1156 1288.1796 4294967295
-22.189907 857.1156 1288.1796 4294967295
-18.686239 857.1156 1288.1796 4294967295
-52.555046 858.90131 1289.6852 4294967295
-16.350458 858.90131 1289.6852 4294967295
-14.014679 858.90131 1289.6852 4294967295
-51.185322 865.84167 1288.9971 4294967295
-48.858715 865.84167 1288.9971 4294967295
-46.532108 864.95233 1288.2472 4294967295
-23.266054 866.73102 1289.7469 4294967295
-19.776146 865.84167 1288.9971 4294967295
-16.286238 866.73102 1289.7469 4294967295
-46.348625 872.74707 1288.2793 4294967295
-44.031193 872.74707 1288.2793 4294967295
-27.809174 872.74707 1288.2793 4294967295
-25.491743 872.74707 1288.2793 4294967295
-19.698166 872.74707 1288.2793 4294967295
-48.666054 874.51874 1289.7732 4294967295
-46.348625 874.51874 1289.7732 4294967295
-23.174313 874.51874 1289.7732 4294967295
-19.698166 874.51874 1289.7732 4294967295
-16.222019 874.51874 1289.7732 4294967295
-46.201836 878.24609 1287.6838 4294967295
-27.721102 878.24609 1287.6838 4294967295
-25.411009 878.24609 1287.6838 4294967295
-23.100918 878.24609 1287.6838 4294967295
-19.63578 878.24609 1287.6838 4294967295
-48.511925 880.01221 1289.173 4294967295
-23.100918 880.01221 1289.173 4294967295
-19.63578 880.01221 1289.173 4294967295
-49.85321 886.55414 1288.1488 4294967295
-27.61101 885.96777 1287.6544 4294967295
-25.310091 886.84729 1288.396 4294967295
-23.009174 886.84729 1288.396 4294967295
-19.557798 886.84729 1288.396 4294967295
-16.106422 887.72687 1289.1376 4294967295
-13.805505 887.72687 1289.1376 4294967295
-11.504587 887.72687 1289.1376 4294967295
-49.272476 893.64746 1287.5896 4294967295
-28.64679 893.64746 1287.5896 4294967295
-25.209175 893.64746 1287.5896 4294967295
-22.917431 893.64746 1287.5896 4294967295
-20.625689 893.64746 1287.5896 4294967295
-49.272476 895.39954 1289.0669 4294967295
-27.500917 895.39954 1289.0669 4294967295
-25.209175 895.39954 1289.0669 4294967295
-22.917431 895.39954 1289.0669 4294967295
-20.625689 895.39954 1289.0669 4294967295
-50.256882 902.55524 1289.8682 4294967295
-47.21101 901.39093 1288.8865 4294967295
-31.981651 901.68201 1289.1318 4294967295
-28.935781 901.97308 1289.3773 4294967295
-25.128441 902.55524 1289.8682 4294967295
-46.6422 908.40845 1288.2634 4294967295
-43.229359 908.40845 1288.2634 4294967295
-34.128441 908.40845 1288.2634 4294967295
-28.440367 908.40845 1288.2634 4294967295
-25.027523 908.40845 1288.2634 4294967295
-22.752293 908.40845 1288.2634 4294967295
-19.339451 908.40845 1288.2634 4294967295
-15.926605 908.40845 1288.2634 4294967295
-13.651376 908.40845 1288.2634 4294967295
-45.504585 910.14789 1289.7301 4294967295
-29.577982 910.14789 1289.7301 4294967295
-25.027523 910.14789 1289.7301 4294967295
-22.752293 910.14789 1289.7301 4294967295
-19.339451 910.14789 1289.7301 4294967295
-15.926605 910.14789 1289.7301 4294967295
-13.651376 910.14789 1289.7301 4294967295
-11.376146 910.14789 1289.7301 4294967295
-46.491745 913.7644 1287.5472 4294967295
-43.089909 913.7644 1287.5472 4294967295
-40.822018 913.7644 1287.5472 4294967295
-37.420181 913.7644 1287.5472 4294967295
-34.018349 913.7644 1287.5472 4294967295
-31.750458 913.7644 1287.5472 4294967295
-28.348625 913.7644 1287.5472 4294967295
-24.946789 913.7644 1287.5472 4294967295
-22.6789 913.7644 1287.5472 4294967295
-19.277065 913.7644 1287.5472 4294967295
-15.875229 913.7644 1287.5472 4294967295
-13.60734 913.7644 1287.5472 4294967295
-11.33945 913.7644 1287.5472 4294967295
-49.893578 915.49823 1289.0092 4294967295
-46.491745 915.49823 1289.0092 4294967295
-34.018349 915.49823 1289.0092 4294967295
-28.348625 915.49823 1289.0092 4294967295
-24.946789 915.49823 1289.0092 4294967295
-22.6789 915.49823 1289.0092 4294967295
-19.277065 915.49823 1289.0092 4294967295
-15.875229 915.49823 1289.0092 4294967295
-13.60734 915.49823 1289.0092 4294967295
-11.33945 915.49823 1289.0092 4294967295
-46.341286 920.82611 1288.2694 4294967295
-28.256882 920.82611 1288.2694 4294967295
-24.866055 920.82611 1288.2694 4294967295
-51.992661 922.55432 1289.7266 4294967295
-49.732109 922.55432 1289.7266 4294967295
-47.471561 922.55432 1289.7266 4294967295
-28.256882 922.55432 1289.7266 4294967295
-24.866055 922.55432 1289.7266 4294967295
-47.2789 928.315 1288.0437 4294967295
-31.519266 928.315 1288.0437 4294967295
-29.267889 928.315 1288.0437 4294967295
-49.530273 930.03619 1289.4949 4294901759
-47.2789 930.03619 1289.4949 4294967295
-31.519266 930.03619 1289.4949 4294967295
-42.636696 935.30518 1288.7056 4293128703
-40.392662 933.58954 1287.2589 4294967295
-38.148624 933.58954 1287.2589 4294967295
-59.097248 754.83624 1292.1943 4294967295
-56.634861 754.83624 1292.1943 4294967295
-17.236698 754.83624 1292.1943 4294967295
-13.543119 754.83624 1292.1943 4294967295
-9.8495417 754.83624 1292.1943 4294967295
-58.877064 761.34033 1291.1383 4294967295
-17.172478 761.34033 1291.1383 4294967295
-13.492661 761.34033 1291.1383 4294967295
-9.8128443 761.34033 1291.1383 4294967295
-4.9064221 761.34033 1291.1383 4294967295
-13.492661 763.21582 1292.7196 4294967295
-9.8128443 763.21582 1292.7196 4294967295
-7.359633 763.21582 1292.7196 4294967295
-4.9064221 763.21582 1292.7196 4294967295
-2.4532111 763.21582 1292.7196 4294967295
-58.656879 767.81641 1290.0586 4294967295
-56.212845 767.81641 1290.0586 4294967295
-21.99633 767.81641 1290.0586 4294967295
-19.552294 767.81641 1290.0586 4294967295
-17.108257 767.81641 1290.0586 4294967295
-13.442202 767.81641 1290.0586 4294967295
-9.7761469 767.81641 1290.0586 4294967295
-61.100918 769.68494 1291.634 4294967295
-58.656879 769.68494 1291.634 4294967295
-13.442202 769.68494 1291.634 4294967295
-9.7761469 769.68494 1291.634 4294967295
-7.3321099 769.68494 1291.634 4294967295
-4.8880734 769.68494 1291.634 4294967295
-2.4440367 769.68494 1291.634 4294967295
-58.436699 776.12592 1290.5248 4294967295
-56.001835 776.12592 1290.5248 4294967295
-17.044037 776.12592 1290.5248 4294967295
-13.391743 776.12592 1290.5248 4294967295
-9.7394495 776.12592 1290.5248 4294967295
-58.436699 777.98743 1292.0944 4294967295
-17.044037 777.98743 1292.0944 4294967295
-13.391743 777.98743 1292.0944 4294967295
-9.7394495 777.98743 1292.0944 4294967295
-58.172478 784.92993 1290.1 4294967295
-55.748623 784.92993 1290.1 4294967295
-25.450459 784.92993 1290.1 4294967295
-21.814678 784.92993 1290.1 4294967295
-19.390825 784.92993 1290.1 4294967295
-60.596329 786.78302 1291.6624 4294967295
-58.172478 786.78302 1291.6624 4294967295
-19.390825 786.78302 1291.6624 4294967295
-16.966972 786.78302 1291.6624 4294967295
-61.57431 794.99713 1292.0481 4294967295
-57.952293 793.15112 1290.4916 4294967295
-25.35413 793.15112 1290.4916 4294967295
-21.732111 794.0741 1291.2698 4294967295
-19.31743 794.0741 1291.2698 4294967295
-60.137615 803.16913 1292.3984 4294967295
-57.732109 802.24963 1291.6232 4294967295
-55.326607 802.24963 1291.6232 4294967295
-52.921101 801.33008 1290.8479 4294967295
-24.055046 802.24963 1291.6232 4294967295
-21.649542 802.24963 1291.6232 4294967295
-19.244038 801.33008 1290.8479 4294967295
-16.838531 802.24963 1291.6232 4294967295
-13.631192 802.55615 1291.8816 4294967295
-9.6220188 803.16913 1292.3984 4294967295
-57.511925 809.46704 1291.1686 4294967295
-55.115597 809.46704 1291.1686 4294967295
-52.719265 809.46704 1291.1686 4294967295
-26.359632 809.46704 1291.1686 4294967295
-22.765137 809.46704 1291.1686 4294967295
-19.170643 809.46704 1291.1686 4294967295
-16.774311 809.46704 1291.1686 4294967295
-14.377981 809.46704 1291.1686 4294967295
-57.511925 811.29907 1292.7133 4294967295
-23.963303 811.29907 1292.7133 4294967295
-16.774311 811.29907 1292.7133 4294967295
-14.377981 811.29907 1292.7133 4294967295
-11.981651 811.29907 1292.7133 4294967295
-57.291744 817.56201 1291.4539 4294967295
-16.710093 817.56201 1291.4539 4294967295
-14.322936 817.56201 1291.4539 4294967295
-11.93578 817.56201 1291.4539 4294967295
-57.291744 819.38696 1292.9927 4294967295
-10.742202 819.38696 1292.9927 4294967295
-57.115597 823.27979 1291.0428 4294967295
-16.658716 823.27979 1291.0428 4294967295
-14.278899 823.27979 1291.0428 4294967295
-57.115597 825.09918 1292.5769 4294967295
-14.278899 825.09918 1292.5769 4294967295
-10.709174 825.09918 1292.5769 4294967295
-56.105198 831.90594 1291.776 4294967295
-16.594496 831.30176 1291.2666 4294967295
-14.223853 832.20795 1292.0306 4294967295
-10.667891 832.20795 1292.0306 4294967295
-56.675228 839.28162 1291.4548 4294967295
-28.337614 839.28162 1291.4548 4294967295
-25.976147 839.28162 1291.4548 4294967295
-22.433945 839.28162 1291.4548 4294967295
-18.891743 839.28162 1291.4548 4294967295
-16.530275 839.28162 1291.4548 4294967295
-14.168807 839.28162 1291.4548 4294967295
-56.675228 841.08698 1292.9771 4294967295
-21.25321 841.08698 1292.9771 4294967295
-18.891743 841.08698 1292.9771 4294967295
-16.530275 841.08698 1292.9771 4294967295
-14.168807 841.08698 1292.9771 4294967295
-10.626606 841.08698 1292.9771 4294967295
-56.455048 845.42102 1290.0913 4294967295
-30.579817 845.42102 1290.0913 4294967295
-28.227524 845.42102 1290.0913 4294967295
-25.875229 845.42102 1290.0913 4294967295
-23.522936 845.42102 1290.0913 4294967295
-56.455048 847.21942 1291.6075 4294967295
-22.34679 847.21942 1291.6075 4294967295
-18.818348 847.21942 1291.6075 4294967295
-56.234863 853.32373 1290.2145 4294967295
-22.259632 853.32373 1290.2145 4294967295
-18.744955 853.32373 1290.2145 4294967295
-16.401834 853.32373 1290.2145 4294967295
-56.234863 855.11505 1291.7249 4294967295
-16.401834 855.11505 1291.7249 4294967295
-14.058716 855.11505 1291.7249 4294967295
-11.715596 855.11505 1291.7249 4294967295
-52.555046 860.68701 1291.1909 4294967295
-16.350458 860.68701 1291.1909 4294967295
-14.014679 860.68701 1291.1909 4294967295
-53.722935 862.47278 1292.6965 4294967295
-23.357798 862.47278 1292.6965 4294967295
-16.350458 862.47278 1292.6965 4294967295
-14.014679 862.47278 1292.6965 4294967295
-11.678899 862.47278 1292.6965 4294967295
-51.185322 868.50977 1291.2467 4294967295
-48.858715 868.50977 1291.2467 4294967295
-23.266054 868.50977 1291.2467 4294967295
-19.776146 868.50977 1291.2467 4294967295
-16.286238 868.50977 1291.2467 4294967295
-13.959633 868.50977 1291.2467 4294967295
-51.185322 870.28845 1292.7465 4294967295
-48.858715 870.28845 1292.7465 4294967295
-23.266054 870.28845 1292.7465 4294967295
-16.286238 870.28845 1292.7465 4294967295
-13.959633 870.28845 1292.7465 4294967295
-50.21101 876.88104 1291.765 4294967295
-16.222019 876.29041 1291.267 4294967295
-50.822018 881.77826 1290.6621 4294967295
-16.170643 881.77826 1290.6621 4294967295
-16.170643 883.54431 1292.1511 4294967295
-13.860551 883.54431 1292.1511 4294967295
-11.550459 883.54431 1292.1511 4294967295
-52.921101 889.48596 1290.6208 4294967295
-23.009174 889.48596 1290.6208 4294967295
-19.557798 889.48596 1290.6208 4294967295
-16.106422 889.48596 1290.6208 4294967295
-13.805505 889.48596 1290.6208 4294967295
-11.504587 889.48596 1290.6208 4294967295
-52.921101 891.245 1292.104 4294967295
-18.407339 891.245 1292.104 4294967295
-16.106422 891.245 1292.104 4294967295
-13.805505 891.245 1292.104 4294967295
-11.504587 891.245 1292.104 4294967295
-52.710091 898.02759 1291.2828 4294967295
-49.654434 897.7356 1291.0366 4294967295
-27.500917 898.02759 1291.2828 4294967295
-25.209175 898.02759 1291.2828 4294967295
-22.917431 898.02759 1291.2828 4294967295
-19.479816 898.02759 1291.2828 4294967295
-16.042202 898.90363 1292.0215 4294967295
-13.750459 898.90363 1292.0215 4294967295
-11.458715 898.90363 1292.0215 4294967295
-52.541283 904.3017 1291.3408 4294967295
-50.256882 904.3017 1291.3408 4294967295
-28.555046 904.3017 1291.3408 4294967295
-25.128441 904.3017 1291.3408 4294967295
-22.844036 904.3017 1291.3408 4294967295
-19.417431 904.3017 1291.3408 4294967295
-15.990826 904.3017 1291.3408 4294967295
-13.706422 904.3017 1291.3408 4294967295
-52.541283 906.04816 1292.8134 4294967295
-50.256882 906.04816 1292.8134 4294967295
-11.422018 906.04816 1292.8134 4294967295
-52.330276 911.88733 1291.1967 4294967295
-50.055046 911.88733 1291.1967 4294967295
-52.330276 913.62671 1292.6633 4294967295
-52.161469 917.23206 1290.4711 4294967295
-49.893578 917.23206 1290.4711 4294967295
-47.625687 917.23206 1290.4711 4294967295
-24.946789 917.23206 1290.4711 4294967295
-22.6789 917.23206 1290.4711 4294967295
-20.411009 917.23206 1290.4711 4294967295
-15.875229 917.23206 1290.4711 4294967295
-13.60734 917.23206 1290.4711 4294967295
-10.205505 917.23206 1290.4711 4294967295
-54.429359 918.96588 1291.933 4294967295
-52.161469 918.96588 1291.933 4294967295
-49.893578 918.96588 1291.933 4294967295
-22.6789 918.96588 1291.933 4294967295
-19.277065 918.96588 1291.933 4294967295
-15.875229 918.96588 1291.933 4294967295
-13.60734 918.96588 1291.933 4294967295
-10.205505 918.96588 1291.933 4294967295
-51.992661 926.01074 1292.6409 4294967295
-49.732109 925.14661 1291.9124 4294967295
-27.880121 924.85858 1291.6694 4294967295
-24.866055 925.14661 1291.9124 4294967295
-22.605505 925.14661 1291.9124 4294967295
-19.591438 925.43463 1292.1552 4294967295
-46.153214 931.75739 1290.9462 4294836223
-36.022018 931.75739 1290.9462 4294967295
-33.770641 931.75739 1290.9462 4294967295
-31.519266 931.75739 1290.9462 4294967295
-46.153214 933.47858 1292.3975 4292733183
-40.524769 933.47858 1292.3975 4293654271
-37.147705 933.47858 1292.3975 4294048767
-33.770641 933.47858 1292.3975 4294967295
-61.559631 758.60126 1295.3689 4294967295
-59.097248 756.71875 1293.7816 4294967295
-9.8495417 756.71875 1293.7816 4294967295
-7.387156 757.66003 1294.5752 4294967295
-4.9247708 756.71875 1293.7816 4294967295
-2.4623854 758.60126 1295.3689 4294967295
-66.236694 766.9668 1295.8823 4294967295
-63.783485 766.02905 1295.0917 4294967295
-61.330276 765.09131 1294.301 4294967295
-7.359633 765.09131 1294.301 4294967295
-4.9064221 765.09131 1294.301 4294967295
-2.4532111 765.09131 1294.301 4294967295
-63.544952 772.48767 1293.9972 4294967295
-61.100918 772.48767 1293.9972 4294967295
-12.220183 771.55341 1293.2095 4294967295
-9.7761469 771.55341 1293.2095 4294967295
-7.3321099 772.48767 1293.9972 4294967295
-4.8880734 772.48767 1293.9972 4294967295
-2.4440367 772.48767 1293.9972 4294967295
-63.306423 779.84888 1293.6639 4294967295
-60.871559 779.84888 1293.6639 4294967295
-58.436699 779.84888 1293.6639 4294967295
-13.391743 779.84888 1293.6639 4294967295
-9.7394495 779.84888 1293.6639 4294967295
-63.306423 781.71033 1295.2334 4294967295
-60.871559 781.71033 1295.2334 4294967295
-17.044037 781.71033 1295.2334 4294967295
-13.391743 781.71033 1295.2334 4294967295
-9.7394495 781.71033 1295.2334 4294967295
-7.3045874 781.71033 1295.2334 4294967295
-63.020184 788.63611 1293.2249 4294967295
-60.596329 788.63611 1293.2249 4294967295
-16.966972 788.63611 1293.2249 4294967295
-63.020184 790.48914 1294.7874 4294967295
-60.596329 790.48914 1294.7874 4294967295
-16.966972 790.48914 1294.7874 4294967295
-61.57431 796.8432 1293.6047 4294967295
-19.31743 796.8432 1293.6047 4294967295
-16.902752 796.8432 1293.6047 4294967295
-61.57431 798.68921 1295.1613 4294967295
-12.073395 798.68921 1295.1613 4294967295
-9.6587152 798.68921 1295.1613 4294967295
-61.340366 805.92773 1294.7245 4294967295
-12.027523 805.92767 1294.7244 4294967295
-9.6220188 805.92767 1294.7244 4294967295
-7.2165136 805.92767 1294.7244 4294967295
-4.8110094 805.92767 1294.7244 4294967295
-59.109478 813.74176 1294.7728 4294967295
-10.384098 813.74176 1294.7728 4294967295
-7.1889906 814.04712 1295.0303 4294967295
-4.7926607 814.04712 1295.0303 4294967295
-2.3963304 814.96313 1295.8027 4294967295
-59.678898 821.21198 1294.5314 4294967295
-10.742202 821.21198 1294.5314 4294967295
-7.161468 821.21198 1294.5314 4294967295
-4.774312 821.21198 1294.5314 4294967295
-57.115597 826.91858 1294.111 4294967295
-10.709174 826.91858 1294.111 4294967295
-7.1394496 828.73798 1295.645 4294967295
-59.266056 836.73889 1295.851 4294967295
-14.223853 834.92651 1294.3229 4294967295
-10.667891 835.83264 1295.0869 4294967295
-7.1119266 835.8327 1295.0869 4294967295
-59.036697 842.89233 1294.4993 4294967295
-21.25321 842.89233 1294.4993 4294967295
-18.891743 842.89233 1294.4993 4294967295
-16.530275 842.89233 1294.4993 4294967295
-14.168807 842.89233 1294.4993 4294967295
-10.626606 842.89233 1294.4993 4294967295
-7.0844035 842.89233 1294.4993 4294967295
-58.807339 850.8161 1294.6403 4294967295
-16.466055 849.01776 1293.1239 4294967295
-14.113762 849.91693 1293.8821 4294967295
-10.585321 849.91693 1293.8821 4294967295
-7.056881 849.91693 1293.8821 4294967295
-56.234863 856.90637 1293.2354 4294967295
-10.544037 856.90637 1293.2354 4294967295
-56.234863 858.69775 1294.7457 4294967295
-10.544037 858.69775 1294.7457 4294967295
-56.058716 865.15137 1294.9551 4294967295
-53.722935 865.15137 1294.9551 4294967295
-14.014679 864.25848 1294.2023 4294967295
-10.511009 865.15131 1294.9551 4294967295
-7.0073395 866.04419 1295.708 4294967295
-51.185322 872.06714 1294.2462 4294967295
-13.959633 872.06714 1294.2462 4294967295
-10.469725 872.06714 1294.2462 4294967295
-55.838531 873.84589 1295.746 4294967295
-53.511925 873.84589 1295.746 4294967295
-13.959633 873.84589 1295.746 4294967295
-10.469725 873.84589 1295.746 4294967295
-6.9798164 873.84589 1295.746 4294967295
-53.300919 880.71967 1295.0016 4294967295
-10.042202 880.42438 1294.7526 4294967295
-6.9522934 881.60553 1295.7485 4294967295
-53.132111 885.31042 1293.6403 4294967295
-9.2403669 886.19348 1294.3848 4294967295
-6.9302754 885.31042 1293.6403 4294967295
-52.921101 893.00409 1293.5872 4294967295
-18.407339 893.00409 1293.5872 4294967295
-16.106422 893.00409 1293.5872 4294967295
-13.805505 893.00409 1293.5872 4294967295
-10.354128 893.00409 1293.5872 4294967295
-55.222019 894.76312 1295.0704 4294967295
-16.106422 894.76312 1295.0704 4294967295
-13.805505 894.76312 1295.0704 4294967295
-10.354128 894.76312 1295.0704 4294967295
-55.001835 901.53168 1294.2374 4294967295
-52.710091 900.65564 1293.4988 4294967295
-22.917431 900.65564 1293.4988 4294967295
-19.479816 900.65564 1293.4988 4294967295
-16.042202 900.65564 1293.4988 4294967295
-13.750459 900.65564 1293.4988 4294967295
-10.694801 901.82373 1294.4836 4294967295
-54.825687 907.79456 1294.2859 4294967295
-52.541283 907.79456 1294.2859 4294967295
-50.256882 907.79456 1294.2859 4294967295
-54.825687 909.54102 1295.7584 4294967295
-9.1376143 909.54102 1295.7584 4294967295
-6.8532109 909.54102 1295.7584 4294967295
-55.743118 916.2359 1294.8633 4294967295
-6.8256879 916.2359 1294.8633 4294967295
-4.5504589 917.10559 1295.5967 4294967295
-55.563301 920.69971 1293.3949 4294967295
-22.6789 920.69971 1293.3949 4294967295
-19.277065 920.69971 1293.3949 4294967295
-15.875229 920.69971 1293.3949 4294967295
-13.60734 920.69971 1293.3949 4294967295
-10.205505 920.69971 1293.3949 4294967295
-55.563301 922.43353 1294.8568 4294967295
-52.161469 922.43353 1294.8568 4294967295
-18.14312 922.43353 1294.8568 4294967295
-15.875229 922.43353 1294.8568 4294967295
-13.60734 922.43353 1294.8568 4294967295
-10.205505 922.43353 1294.8568 4294967295
-51.992661 928.60303 1294.8267 4293653503
-49.732109 929.46716 1295.5553 4294639615
-28.256882 928.60309 1294.8267 4294967295
-24.866055 928.60303 1294.8267 4294967295
-22.605505 928.60303 1294.8267 4294967295
-19.21468 928.60303 1294.8267 4294967295
-15.823853 929.46716 1295.5553 4294967295
-64.022018 760.48376 1296.9562 4294967295
-61.559631 760.48376 1296.9562 4294967295
-66.236694 768.84229 1297.4637 4294967295
-63.544952 775.29034 1296.3604 4294967295
-61.100918 775.29034 1296.3604 4294967295
-7.3321099 775.29034 1296.3604 4294967295
-4.8880734 775.29034 1296.3604 4294967295
-2.4440367 775.29034 1296.3604 4294967295
-65.988991 777.15887 1297.9358 4294967295
-7.3321099 777.15887 1297.9358 4294967295
-4.8880734 777.15887 1297.9358 4294967295
-2.4440367 777.15887 1297.9358 4294967295
-64.523857 784.50256 1297.5878 4294967295
-13.391744 784.50256 1297.5878 4294967295
-9.7394495 784.50256 1297.5878 4294967295
-7.3045874 784.50256 1297.5878 4294967295
-4.8697248 784.50256 1297.5878 4294967295
-2.4348624 785.43329 1298.3726 4294967295
-65.444038 793.26868 1297.131 4294967295
-16.966972 792.34216 1296.3497 4294967295
-13.735168 793.57758 1297.3915 4294967295
-9.6954126 794.19525 1297.9122 4294967295
-7.2715597 794.19525 1297.9122 4294967295
-62.781651 800.53528 1296.7178 4294967295
-7.2440367 800.53528 1296.7178 4294967295
-4.8293576 800.53528 1296.7178 4294967295
-2.4146788 802.38135 1298.2743 4294967295
-61.340366 808.68622 1297.0503 4294967295
-9.6220188 808.68622 1297.0503 4294967295
-7.2165136 808.68622 1297.0503 4294967295
-4.8110094 808.68622 1297.0503 4294967295
-2.4055047 808.68622 1297.0503 4294967295
-62.543118 810.52527 1298.601 4294967295
-2.4055047 810.52527 1298.601 4294967295
-62.304588 817.71118 1298.1198 4294967295
-59.908257 816.79517 1297.3474 4294967295
-7.1889906 816.79517 1297.3474 4294967295
-4.7926607 816.79517 1297.3474 4294967295
-2.3963304 817.71118 1298.1198 4294967295
-59.678898 823.94946 1296.8396 4294967295
-7.161468 823.94946 1296.8396 4294967295
-4.774312 823.94946 1296.8396 4294967295
-59.495415 830.55737 1297.1791 4294967295
-7.1394496 830.55737 1297.1791 4294967295
-59.495415 832.37677 1298.7131 4294967295
-59.266056 838.55127 1297.3792 4294967295
-7.1119266 838.55127 1297.3792 4294967295
-4.7412844 838.55127 1297.3792 4294967295
-61.636696 840.36365 1298.9072 4294967295
-4.7412844 840.36365 1298.9072 4294967295
-2.3706422 840.36365 1298.9072 4294967295
-59.036697 844.69769 1296.0215 4294967295
-16.530275 844.69769 1296.0215 4294967295
-14.168807 844.69769 1296.0215 4294967295
-10.626606 844.69769 1296.0215 4294967295
-7.0844035 844.69769 1296.0215 4294967295
-4.7229357 844.69769 1296.0215 4294967295
-61.398167 846.50305 1297.5438 4294967295
-59.036697 846.50305 1297.5438 4294967295
-4.7229357 846.50305 1297.5438 4294967295
-2.3614678 846.50305 1297.5438 4294967295
-58.807339 853.51361 1296.9147 4294967295
-9.409174 852.61444 1296.1565 4294967295
-7.056881 853.51361 1296.9147 4294967295
-4.704587 853.51361 1296.9147 4294967295
-58.57798 860.48901 1296.2561 4294967295
-56.234863 860.48901 1296.2561 4294967295
-9.3724775 860.48901 1296.2561 4294967295
-7.0293579 860.48901 1296.2561 4294967295
-58.57798 862.2804 1297.7666 4294967295
-7.0293579 862.2804 1297.7666 4294967295
-4.6862388 862.2804 1297.7666 4294967295
-2.3431194 862.2804 1297.7666 4294967295
-58.394497 869.61566 1298.7192 4294967295
-56.058716 868.72278 1297.9664 4294967295
-53.722935 868.72278 1297.9664 4294967295
-10.511009 867.82996 1297.2136 4294967295
-7.0073395 868.72278 1297.9664 4294967295
-4.6715598 868.72278 1297.9664 4294967295
-2.3357799 869.61566 1298.7192 4294967295
-58.165138 875.62457 1297.2457 4294967295
-55.838531 875.62457 1297.2457 4294967295
-53.511925 875.62457 1297.2457 4294967295
-16.286238 875.62457 1297.2457 4294967295
-13.959633 875.62457 1297.2457 4294967295
-10.469725 875.62457 1297.2457 4294967295
-6.9798164 875.62457 1297.2457 4294967295
-4.6532111 875.62457 1297.2457 4294967295
-58.165138 877.40332 1298.7455 4294967295
-55.838531 877.40332 1298.7455 4294967295
-13.959633 877.40332 1298.7455 4294967295
-6.9798164 877.40332 1298.7455 4294967295
-4.6532111 877.40332 1298.7455 4294967295
-2.3266056 877.40332 1298.7455 4294967295
-55.618347 883.3772 1297.2424 4294967295
-4.6348624 883.3772 1297.2424 4294967295
-57.93578 885.14893 1298.7362 4294967295
-55.618347 885.14893 1298.7362 4294967295
-6.9522934 885.14893 1298.7362 4294967295
-4.6348624 885.14893 1298.7362 4294967295
-57.752293 890.60864 1298.1077 4294967295
-55.442204 889.72559 1297.363 4294967295
-9.2403669 888.84259 1296.6185 4294967295
-6.9302754 889.72559 1297.363 4294967295
-55.222019 896.52222 1296.5536 4294967295
-9.2036695 896.52222 1296.5536 4294967295
-6.9027524 896.52222 1296.5536 4294967295
-57.522934 898.28125 1298.0369 4294967295
-9.2036695 898.28125 1298.0369 4294967295
-6.9027524 898.28125 1298.0369 4294967295
-57.293579 905.03583 1297.192 4294967295
-55.001835 904.15979 1296.4534 4294967295
-9.1669722 905.03583 1297.192 4294967295
-6.8752294 905.03583 1297.192 4294967295
-4.5834861 905.91187 1297.9307 4294967295
-57.110092 911.28748 1297.231 4294967295
-54.825687 911.28748 1297.231 4294967295
-9.1376143 911.28748 1297.231 4294967295
-4.5688071 913.03394 1298.7036 4294967295
-2.2844036 913.03394 1298.7036 4294967295
-6.8256879 919.71472 1297.7966 4294967295
-4.5504589 919.71472 1297.7966 4294967295
-2.2752295 920.58447 1298.5299 4294967295
-55.185322 925.32324 1297.2933 4293850111
-15.875229 925.0343 1297.0497 4294967295
-13.60734 925.0343 1297.0497 4294967295
-10.583488 925.32324 1297.2933 4294967295
-4.53578 925.90118 1297.7806 4294967295
-51.992661 932.05945 1297.7411 4293126399
-49.732109 932.05945 1297.7411 4293258495
-46.341286 932.92358 1298.4697 4293061119
-42.950459 932.92358 1298.4697 4293390847
-40.689907 932.92358 1298.4697 4293653759
-37.299084 932.92358 1298.4697 4293916671
-33.908257 932.92358 1298.4697 4294836223
-31.647707 932.05945 1297.7411 4294967295
-28.25688 932.05945 1297.7411 4294967295
-24.866055 932.05945 1297.7411 4294967295
-22.605505 932.05945 1297.7411 4294967295
-19.21468 932.05951 1297.7411 4294967295
-15.823853 932.05945 1297.7411 4294967295
-13.563303 932.05945 1297.7411 4294967295
-11.302752 932.05945 1297.7411 4294967295
-64.260551 755.86212 1299.5995 4294967295
-66.732109 757.75165 1301.1926 4294967295
0 757.75165 1301.1926 4294967295
-68.946793 764.24878 1300.1307 4294967295
0 764.24878 1300.1307 4294967295
-68.946793 766.13135 1301.718 4294967295
1.2311927 766.13135 1301.718 4294967295
-66.236694 770.71783 1299.0452 4294967295
-66.236694 772.59332 1300.6265 4294967295
0 772.59332 1300.6265 4294967295
-65.988991 779.02734 1299.5114 4294967295
-4.8880734 779.02734 1299.5114 4294967295
-2.4440367 779.02734 1299.5114 4294967295
-68.433029 780.89581 1301.0868 4294967295
-65.988991 780.89581 1301.0868 4294967295
-2.4440367 780.89581 1301.0868 4294967295
-65.741287 787.2948 1299.942 4294967295
-13.391743 787.2948 1299.942 4294967295
-9.7394495 787.2948 1299.942 4294967295
-7.3045874 787.2948 1299.942 4294967295
-4.8697248 787.2948 1299.942 4294967295
-2.4348624 787.2948 1299.942 4294967295
-76.698166 789.15625 1301.5116 4289772792
-70.611008 789.15625 1301.5116 4294967295
-68.176147 789.15625 1301.5116 4294967295
-12.174312 789.15625 1301.5116 4294967295
-9.7394495 789.15625 1301.5116 4294967295
-7.3045874 789.15625 1301.5116 4294967295
-4.8697248 789.15625 1301.5116 4294967295
-2.4348624 789.15625 1301.5116 4294967295
-76.351379 796.04828 1299.4746 4290101232
-72.715599 796.04828 1299.4746 4292929023
-70.29174 796.04828 1299.4746 4294967295
-67.867889 796.04828 1299.4746 4294967295
-65.444038 796.04828 1299.4746 4294967295
-7.2715597 796.04828 1299.4746 4294967295
-4.8477063 796.04828 1299.4746 4294967295
-2.4238532 796.97485 1300.2559 4294967295
-2.4146788 804.22736 1299.8308 4294967295
-62.543118 812.36426 1300.1516 4294967295
-64.948624 814.20331 1301.7021 4294967295
0 814.20331 1301.7021 4294967295
-62.304588 820.45917 1300.4368 4294967295
-2.3963304 820.45917 1300.4368 4294967295
-62.304588 822.2912 1301.9814 4294967295
-2.3963304 822.2912 1301.9814 4294967295
-59.678898 826.68701 1299.1478 4294967295
-4.774312 826.68701 1299.1478 4294967295
-2.387156 826.68701 1299.1478 4294967295
-62.066055 828.51196 1300.6866 4294967295
-4.774312 828.51196 1300.6866 4294967295
-2.387156 828.51196 1300.6866 4294967295
-61.875229 836.0155 1301.7812 4294967295
-4.7596331 834.19617 1300.2472 4294967295
-2.3798165 836.0155 1301.7812 4294967295
-61.636696 842.17603 1300.4354 4294967295
-2.3706422 842.17603 1300.4354 4294967295
-61.398167 848.30841 1299.066 4294967295
-4.7229357 848.30841 1299.066 4294967295
-2.3614678 848.30841 1299.066 4294967295
-61.398167 850.11377 1300.5883 4294967295
-2.3614678 850.11377 1300.5883 4294967295
-58.807339 856.21118 1299.1892 4294967295
-7.056881 856.21118 1299.1892 4294967295
-4.704587 856.21118 1299.1892 4294967295
-61.159634 858.00952 1300.7056 4294967295
-4.704587 858.00952 1300.7056 4294967295
-2.3522935 858.00952 1300.7056 4294967295
-60.921101 864.96741 1300.0322 4294967295
-58.57798 864.96741 1300.0322 4294967295
-4.6862388 864.07172 1299.277 4294967295
-2.3431194 864.96741 1300.0322 4294967295
-60.730274 871.40137 1300.225 4294967295
-58.394497 871.40137 1300.225 4294967295
-4.6715598 871.40137 1300.225 4294967295
-2.3357799 871.40137 1300.225 4294967295
-60.730274 873.18713 1301.7306 4294967295
-2.3357799 873.18713 1301.7306 4294967295
-60.491745 880.07135 1300.9951 4294967295
-58.165138 880.07135 1300.9951 4294967295
-55.838531 879.18201 1300.2452 4294967295
-4.6532111 879.18201 1300.2452 4294967295
-2.3266056 880.07135 1300.9951 4294967295
-57.93578 886.92059 1300.2301 4294967295
-4.6348624 886.92059 1300.2301 4294967295
-60.253212 888.69226 1301.7239 4294967295
-4.6348624 888.69226 1301.7239 4294967295
-2.3174312 888.69226 1301.7239 4294967295
-57.752293 892.37476 1299.5967 4294967295
-6.9302754 892.37476 1299.5967 4294967295
-4.6201835 892.37476 1299.5967 4294967295
-57.752293 894.14087 1301.0858 4294967295
-4.6201835 894.14087 1301.0858 4294967295
-2.3100917 894.14087 1301.0858 4294967295
-59.056881 900.62671 1300.0144 4294967295
-6.9027524 900.04034 1299.52 4294967295
-4.6018348 900.91992 1300.2616 4294967295
-2.3009174 901.79944 1301.0032 4294967295
-57.293579 907.66394 1299.408 4294967295
-4.5834861 907.66394 1299.408 4294967295
-2.291743 907.66394 1299.408 4294967295
-59.58532 909.41602 1300.8851 4294967295
-6.8752294 909.41602 1300.8851 4294967295
-4.5834861 909.41602 1300.8851 4294967295
-2.291743 909.41602 1300.8851 4294967295
-2.2844036 914.78033 1300.1761 4294967295
-2.2844036 916.52679 1301.6487 4294967295
-56.880733 922.32391 1299.9966 4294967295
-9.1009178 922.32391 1299.9966 4294967295
-6.8256879 922.32391 1299.9966 4294967295
-4.5504589 922.32391 1299.9966 4294967295
-2.2752295 922.32391 1299.9966 4294967295
-59.155964 924.06335 1301.4633 4292534780
-6.8256879 924.06335 1301.4633 4294967295
-2.2752295 924.06335 1301.4633 4294967295
-55.563305 928.50183 1299.9735 4292863487
-13.60734 927.63501 1299.2426 4294967295
-9.8275232 928.21289 1299.7299 4294967295
-6.8036699 928.50189 1299.9735 4294967295
-4.53578 928.50189 1299.9735 4294967295
-2.26789 929.36877 1300.7045 4294967295
-49.732109 934.65179 1299.9269 4292995071
-22.605505 934.65179 1299.9269 4293982975
-19.21468 934.65179 1299.9269 4294770687
-15.823853 934.65179 1299.9269 4294967295
-69.203667 759.64117 1302.7859 4294967295
-66.732109 759.64117 1302.7859 4294967295
1.6477064 760.271 1303.317 4294967295
4.943119 761.5307 1304.379 4294967295
-68.946793 768.95508 1304.0989 4294967295
1.6415902 768.6413 1303.8344 4294967295
4.9247708 768.95508 1304.0989 4294967295
7.387156 769.89636 1304.8926 4294967295
-68.689911 775.40662 1302.9985 4294967295
1.2266055 775.40656 1302.9987 4294967295
4.9064221 775.40662 1302.9985 4294967295
