# .PCD v0.7 - Point Cloud Data file format
VERSION 0.7
FIELDS x y z rgb
SIZE 4 4 4 4
TYPE F F F U
COUNT 1 1 1 1
WIDTH 1158
HEIGHT 1
VIEWPOINT 0 0 0 1 0 0 0
POINTS 1158
DATA ascii
11.33945 901.62769 1277.3138 4291021037
-22.513762 914.54541 1276.4335 4288127708
-15.759633 914.54541 1276.4335 4292730623
-13.508257 914.54541 1276.4335 4292270075
-22.513762 916.2666 1277.8848 4287996373
-19.136696 916.2666 1277.8848 4289837291
-15.759633 916.2666 1277.8848 4292270079
-13.508257 916.2666 1277.8848 4291677951
-10.131193 916.2666 1277.8848 4289769690
-6.7541285 916.2666 1277.8848 4290032595
-17.952293 919.86487 1275.6866 4290297846
-16.38899 928.47601 1276.4071 4289640930
-13.409174 928.19122 1276.167 4288061646
-11.174312 928.19122 1276.167 4284443032
-8.9394493 927.33691 1275.4468 4283915127
-46.436699 754.737 1279.0303 4290429427
-43.992661 754.737 1279.0303 4290559732
-41.548622 754.737 1279.0303 4290823161
-48.880733 756.60547 1280.6058 4290758649
-46.436699 756.60547 1280.6058 4291021820
2.4440367 756.60547 1280.6058 4294442239
-46.262386 763.09564 1279.538 4291153151
-43.827522 763.09564 1279.538 4291087098
-24.348623 763.09564 1279.538 4293126655
-21.913761 763.09564 1279.538 4293652991
-19.478899 763.09564 1279.538 4293128447
-17.044037 763.09564 1279.538 4294377471
-14.609175 763.09564 1279.538 4294705151
-46.053211 773.81165 1280.7252 4290955773
-43.629356 772.88513 1279.9441 4290823670
-41.205505 771.95856 1279.1628 4290955514
-24.238533 771.95856 1279.1628 4292797695
-21.814678 772.88513 1279.9441 4294573823
-19.390825 771.95856 1279.1628 4294705151
-16.966972 771.95856 1279.1628 4294967295
-43.464222 778.38275 1278.0393 4290758903
-41.049541 778.38275 1278.0393 4290692854
-38.634861 778.38275 1278.0393 4290561015
-33.805504 778.38275 1278.0393 4290956027
-31.390825 778.38275 1278.0393 4290956027
-25.35413 778.38275 1278.0393 4291812351
-21.732111 778.38275 1278.0393 4294574079
-19.31743 778.38275 1278.0393 4294967295
-45.878899 780.22882 1279.5958 4290692856
-43.464222 780.22882 1279.5958 4290627061
-21.732111 780.22882 1279.5958 4294639615
-55.326607 786.61786 1278.4429 4290692604
-52.921101 787.53735 1279.2183 4290429681
-49.312843 788.45691 1279.9935 4290298098
-45.704586 787.53735 1279.2183 4290429428
-43.299084 787.53735 1279.2183 4290494966
-40.893578 787.53735 1279.2183 4290561015
-37.285324 787.53741 1279.2183 4290496246
-33.677063 787.53735 1279.2183 4290693108
-31.271559 786.61786 1278.4429 4291087866
-57.511925 794.81097 1278.8109 4289836779
-55.115597 794.81097 1278.8109 4289968365
-52.719265 794.81097 1278.8109 4290034412
-45.530273 794.81097 1278.8109 4290560502
-43.133945 794.81097 1278.8109 4290561267
-40.737614 794.81097 1278.8109 4290561267
-38.341286 794.81097 1278.8109 4290429429
-34.746788 794.81097 1278.8109 4290429685
-31.152294 794.81097 1278.8109 4290561269
2.3963304 794.81097 1278.8109 4293061631
4.7926607 794.81097 1278.8109 4292929279
7.1889906 794.81097 1278.8109 4292929279
-57.511925 796.64294 1280.3556 4289967852
-55.115597 796.64294 1280.3556 4290099181
-52.719265 796.64294 1280.3556 4290164974
-46.728439 796.64294 1280.3556 4290560500
-43.133945 796.64294 1280.3556 4290627053
-40.737614 796.64294 1280.3556 4290758383
-38.341286 796.64294 1280.3556 4290626801
-35.944954 796.64294 1280.3556 4290823924
4.7926607 796.64294 1280.3556 4293061119
7.1889906 796.64294 1280.3556 4292995071
-57.291744 802.96198 1279.1434 4289902309
-54.904587 802.96198 1279.1434 4289836515
-52.517429 802.96198 1279.1434 4289902059
-38.194496 802.96198 1279.1434 4290494963
-35.807339 802.96198 1279.1434 4290560756
2.387156 802.96198 1279.1434 4292468479
4.774312 802.96198 1279.1434 4292402681
7.161468 802.96198 1279.1434 4292534267
-57.291744 804.78699 1280.6823 4289902309
-54.904587 804.78699 1280.6823 4289968102
-52.517429 804.78699 1280.6823 4289967850
-42.968807 804.78699 1280.6823 4290495726
-40.58165 804.78699 1280.6823 4290429933
-42.836697 808.72467 1278.7704 4290495213
-40.456882 808.72467 1278.7704 4290495213
2.3798165 808.72467 1278.7704 4292402427
4.7596331 808.72467 1278.7704 4292270590
7.1394496 808.72467 1278.7704 4292533759
-42.836697 810.54407 1280.3044 4290362862
-40.456882 810.54407 1280.3044 4290559984
2.3798165 810.54407 1280.3044 4292336381
4.7596331 810.54407 1280.3044 4292139259
-46.227524 818.61511 1280.5696 4290363109
-42.671558 817.70892 1279.8054 4290033390
-40.300919 816.80273 1279.0414 4290296562
-26.077065 816.80273 1279.0414 4290167025
-23.706423 816.80273 1279.0414 4289510898
-18.965137 817.70892 1279.8054 4294244607
-16.594496 817.70892 1279.8054 4292665595
-14.223853 817.70892 1279.8054 4291546870
-11.062997 817.40692 1279.5508 4291810041
-2.3706422 816.80273 1279.0414 4292139005
2.3706422 817.70892 1279.8054 4292007932
4.7412844 817.70892 1279.8054 4292007929
7.1119266 816.80273 1279.0414 4292007930
-42.50642 824.83875 1279.277 4290099951
-40.144955 824.83875 1279.277 4290626551
-37.783485 824.83875 1279.277 4290561006
-28.337614 824.83875 1279.277 4290167795
-25.976147 824.83875 1279.277 4290496760
-22.433945 824.83875 1279.277 4291811837
-18.891743 824.83875 1279.277 4294046719
-16.530275 824.83875 1279.277 4293059839
-14.168807 824.83875 1279.277 4291613174
-10.626606 824.83875 1279.277 4291547382
-7.0844035 824.83875 1279.277 4292073727
-2.3614678 824.83875 1279.277 4291679221
2.3614678 824.83875 1279.277 4291678958
4.7229357 824.83875 1279.277 4291745266
7.0844035 824.83875 1279.277 4292205817
10.626606 824.83875 1279.277 4291810291
-47.229359 826.6441 1280.7992 4290099435
-43.687157 826.6441 1280.7992 4290165486
-40.144955 826.6441 1280.7992 4290428916
-25.976147 826.6441 1280.7992 4290758910
-22.433945 826.6441 1280.7992 4291877375
-18.891743 826.6441 1280.7992 4293849343
-16.530275 826.6441 1280.7992 4292993791
-14.168807 826.6441 1280.7992 4291482358
-10.626606 826.6441 1280.7992 4291547894
2.3614678 826.6441 1280.7992 4291679986
4.7229357 826.6441 1280.7992 4291547633
7.0844035 826.6441 1280.7992 4291745012
10.626606 826.6441 1280.7992 4291875831
-42.341286 832.83264 1279.4771 4290297328
-39.988991 832.83264 1279.4771 4290165998
-37.636696 832.83264 1279.4771 4289770733
-31.755962 832.83264 1279.4771 4290100469
-28.227524 832.83264 1279.4771 4290232053
-25.875229 832.83264 1279.4771 4291218943
-23.522936 832.83264 1279.4771 4291087615
-16.466055 832.83264 1279.4771 4292797695
-14.113762 832.83264 1279.4771 4291417078
-11.761468 832.83264 1279.4771 4291219956
1.1761467 832.83264 1279.4771 4291481588
4.704587 832.83264 1279.4771 4291876084
7.056881 832.83264 1279.4771 4291941878
9.409174 832.83264 1279.4771 4291548403
-49.398167 834.63098 1280.9934 4289967854
-47.045872 834.63098 1280.9934 4289968365
-43.517433 834.63098 1280.9934 4290099693
-39.988991 834.63098 1280.9934 4290165228
-37.636696 834.63098 1280.9934 4289770482
2.3522935 834.63098 1280.9934 4291481336
4.704587 834.63098 1280.9934 4291547381
10.585321 834.63098 1280.9934 4291679986
-35.14679 838.99304 1278.1312 4289836011
-32.803669 838.99304 1278.1312 4289902061
-28.117432 838.99304 1278.1312 4289969902
-25.774311 838.99304 1278.1312 4290693369
-23.431192 838.99304 1278.1312 4290627576
2.3431194 838.99304 1278.1312 4291415281
4.6862388 838.99304 1278.1312 4291349488
7.0293579 838.99304 1278.1312 4291810039
9.3724775 838.99304 1278.1312 4291351283
14.058716 838.99304 1278.1312 4291548918
-46.862385 840.78436 1279.6416 4289967850
-37.48991 840.78436 1279.6416 4289836013
-35.14679 840.78436 1279.6416 4289704427
-31.632111 840.78436 1279.6416 4290033392
-28.117432 840.78436 1279.6416 4289969380
2.3431194 840.78436 1279.6416 4291481073
4.6862388 840.78436 1279.6416 4291481073
7.0293579 840.78436 1279.6416 4291875830
10.544037 840.78436 1279.6416 4291745012
-52.555046 847.29413 1279.8983 4289703910
-49.051376 847.29413 1279.8983 4289637859
-46.715595 847.29413 1279.8983 4289703907
-43.211929 848.18701 1280.6511 4289572067
-39.708256 848.18701 1280.6511 4289769705
-37.372478 848.18701 1280.6511 4289705961
-35.036697 848.18701 1280.6511 4289508325
-31.533028 848.18701 1280.6511 4289639136
-28.029358 847.29413 1279.8983 4289179111
-25.693579 847.29413 1279.8983 4290429178
-22.579203 846.99652 1279.6473 4290891254
0 846.40125 1279.1455 4291415781
-55.838531 854.28009 1279.2485 4289309667
-52.348625 854.28009 1279.2485 4289441767
-48.858715 854.28009 1279.2485 4289442023
-46.532108 854.28009 1279.2485 4289704675
-41.878899 854.28009 1279.2485 4289508325
-37.225689 854.28009 1279.2485 4289574372
-34.899082 854.28009 1279.2485 4289574372
-32.572475 854.28009 1279.2485 4289443554
-19.776146 854.28009 1279.2485 4292272127
-16.286238 854.28009 1279.2485 4292864255
-13.959633 854.28009 1279.2485 4291614458
-10.469725 854.28009 1279.2485 4290956013
-6.9798164 854.28009 1279.2485 4291349486
-4.6532111 854.28009 1279.2485 4290822890
-2.3266056 854.28009 1279.2485 4291152112
0 854.28009 1279.2485 4291480563
-55.838531 856.05878 1280.7483 4289243622
-52.348625 856.05878 1280.7483 4289770219
-48.858715 856.05878 1280.7483 4289902057
-46.532108 856.05878 1280.7483 4289706213
-44.205505 856.05878 1280.7483 4289772006
-40.715595 856.05878 1280.7483 4289770722
-37.225689 856.05878 1280.7483 4289704675
-34.899082 856.05878 1280.7483 4289770468
-32.572475 856.05878 1280.7483 4289771235
-25.592661 856.05878 1280.7483 4290232818
-19.776146 856.05878 1280.7483 4292271871
-16.286238 856.05878 1280.7483 4293586943
-13.959633 856.05878 1280.7483 4291942141
-11.633027 856.05878 1280.7483 4291021039
-4.6532111 856.05878 1280.7483 4291086319
-2.3266056 856.05878 1280.7483 4291152112
0 856.05878 1280.7483 4291217653
-49.438526 862.70746 1279.8141 4289311202
-46.348625 863.00269 1280.0631 4289245664
-44.031193 863.00269 1280.0631 4289245664
-40.941284 862.70746 1279.8141 4289048031
-37.078899 862.11688 1279.3162 4289375463
-34.761467 862.11688 1279.3162 4289375463
-31.285322 863.00269 1280.0631 4289375456
-18.53945 863.88855 1280.8101 4292139519
-16.222019 863.88855 1280.8101 4292600063
-13.904587 863.00269 1280.0631 4291547900
-10.42844 862.11688 1279.3162 4291152623
-6.9522934 862.11688 1279.3162 4291152875
-4.6348624 862.11688 1279.3162 4291152360
-2.3174312 863.00269 1280.0631 4291283947
0 863.00269 1280.0631 4291086570
4.6348624 863.88855 1280.8101 4291086317
-46.201836 869.41565 1280.2383 4288915677
-43.891743 868.53259 1279.4937 4289047009
-40.426605 869.41565 1280.2383 4288981720
-36.961468 868.53259 1279.4937 4289178850
-34.651375 868.53259 1279.4937 4289244643
-31.186237 868.53259 1279.4937 4289113564
-13.860551 868.53259 1279.4937 4291744764
-10.395412 868.53265 1279.4937 4291020780
-6.9302754 868.53259 1279.4937 4290954981
-4.6201835 868.53259 1279.4937 4290691557
-2.3100917 869.41565 1280.2383 4291020522
0 869.41565 1280.2383 4290889706
-55.222019 875.41333 1278.7551 4289045718
-52.921101 875.41333 1278.7551 4289374427
-34.51376 875.41333 1278.7551 4289508325
-32.212845 875.41333 1278.7551 4289443556
-29.911926 875.41333 1278.7551 4289114592
-25.310091 875.41333 1278.7551 4289114853
-16.106422 875.41333 1278.7551 4292796927
-13.805505 875.41333 1278.7551 4291680255
-10.354128 875.41333 1278.7551 4290495465
-6.9027524 875.41333 1278.7551 4290890221
-4.6018348 875.41333 1278.7551 4291020774
-2.3009174 875.41333 1278.7551 4290954980
0 875.41333 1278.7551 4291150826
11.504587 875.41333 1278.7551 4290956527
-55.222019 877.17242 1280.2384 4288915413
-52.921101 877.17242 1280.2384 4289047000
-50.620182 877.17242 1280.2384 4288850652
-36.814678 877.17242 1280.2384 4289377500
-34.51376 877.17242 1280.2384 4289508829
-32.212845 877.17242 1280.2384 4289377246
-28.761467 877.17242 1280.2384 4288850906
-25.310091 877.17242 1280.2384 4289311718
-23.009174 877.17242 1280.2384 4289114844
-19.557798 877.17242 1280.2384 4291218678
-16.106422 877.17242 1280.2384 4293059583
-13.805505 877.17242 1280.2384 4292270335
-10.354128 877.17242 1280.2384 4290626281
-6.9027524 877.17242 1280.2384 4290956016
-4.6018348 877.17242 1280.2384 4290954730
-2.3009174 877.17242 1280.2384 4290888937
0 877.17242 1280.2384 4291019759
6.9027524 877.17242 1280.2384 4291415533
10.354128 877.17242 1280.2384 4291153129
-37.431805 884.30322 1279.7107 4289112800
-34.376148 884.01117 1279.4645 4288980962
-32.084404 884.01117 1279.4645 4288914909
-28.646788 884.01117 1279.4645 4288850141
-25.209175 884.01117 1279.4645 4289114336
-22.917431 884.01117 1279.4645 4288983259
-19.479816 884.01117 1279.4645 4291284730
-16.042202 884.88721 1280.2031 4292468735
-10.312843 884.01117 1279.4645 4290429421
-6.8752294 884.01117 1279.4645 4290429677
-4.5834861 884.01117 1279.4645 4290494694
-2.291743 884.01117 1279.4645 4290823659
0 884.01117 1279.4645 4291020777
6.8752294 884.88721 1280.2031 4290954730
10.312843 884.01117 1279.4645 4290823659
-37.311924 889.74799 1279.0695 4288653015
-34.266056 889.45691 1278.824 4288718810
-31.981651 890.33014 1279.5603 4288850906
-28.555046 890.33014 1279.5603 4288587734
-25.128441 890.33014 1279.5603 4289311970
-22.844036 889.45691 1278.824 4289115362
-19.417431 890.33014 1279.5603 4290693370
-9.8990822 889.74799 1279.0695 4290364395
-6.8532109 890.33014 1279.5603 4290495976
-4.5688071 890.33014 1279.5603 4290626531
-2.2844036 889.45691 1278.824 4290889702
0.76146787 889.74799 1279.0695 4290954727
4.5688071 890.33014 1279.5603 4290626279
6.8532109 890.33014 1279.5603 4291021037
10.279816 889.45691 1278.824 4291153137
-36.403671 898.84155 1280.1969 4288784086
-34.128441 898.84155 1280.1969 4289244638
-31.85321 898.84155 1280.1969 4289245400
-28.440367 898.84155 1280.1969 4289245148
-25.027523 898.84155 1280.1969 4289179103
-22.752293 898.84155 1280.1969 4288718815
-18.960245 898.5517 1279.9525 4290429172
-15.926605 897.97186 1279.4636 4292533759
-13.651376 897.97186 1279.4636 4291941628
-10.238532 897.97186 1279.4636 4290429412
-6.8256879 898.84155 1280.1969 4290627301
-4.5504589 898.84155 1280.1969 4290693095
-2.2752295 897.97186 1279.4636 4290561767
1.5168196 898.5517 1279.9525 4290824422
4.5504589 898.84155 1280.1969 4290955236
6.8256879 898.84155 1280.1969 4291087079
9.8593273 898.5517 1279.9525 4290889708
-36.28624 905.09534 1280.2377 4288785111
-31.750458 905.09534 1280.2377 4289245914
-28.348625 905.09534 1280.2377 4288983002
-24.946789 904.22839 1279.5067 4288785371
-22.6789 905.09534 1280.2377 4288916699
-19.277065 904.22845 1279.5067 4290231533
-15.875229 904.22839 1279.5067 4292599295
-13.60734 904.22839 1279.5067 4292072701
-10.205505 904.22845 1279.5067 4290625252
-6.8036699 904.22839 1279.5067 4291020264
-4.53578 904.22839 1279.5067 4290822882
-2.26789 904.22839 1279.5067 4290888932
0 904.22839 1279.5067 4290889188
6.8036699 905.09534 1280.2377 4290954982
10.205505 904.22839 1279.5067 4290824428
-54.253212 908.72864 1278.0691 4288782794
-51.992661 908.72864 1278.0691 4288848587
-22.605505 908.72864 1278.0691 4288719831
-54.253212 910.45685 1279.5264 4288388036
-22.605505 910.45685 1279.5264 4288588761
-19.21468 910.45685 1279.5264 4289772520
-15.823853 910.45685 1279.5264 4292074751
-13.563303 910.45685 1279.5264 4291745023
-10.172478 910.45685 1279.5264 4290560490
-33.908257 912.18506 1280.9835 4289179614
-31.647707 912.18506 1280.9835 4289114071
-28.256882 912.18506 1280.9835 4288916953
-24.866055 912.18506 1280.9835 4288390614
-19.21468 912.18506 1280.9835 4289837291
-10.172478 912.18506 1280.9835 4290888678
-6.7816515 912.18506 1280.9835 4290954982
-4.521101 912.18506 1280.9835 4291347690
-2.2605505 912.18506 1280.9835 4291281896
13.563303 912.18506 1280.9835 4291412970
-24.765137 917.98779 1279.3361 4288587477
-22.513762 917.98779 1279.3361 4288194264
-20.262384 917.98779 1279.3361 4289378795
-9.0055046 917.98779 1279.3361 4287009704
-6.7541285 917.98779 1279.3361 4287667377
13.508257 917.98779 1279.3361 4287594393
-55.158714 919.70905 1280.7874 4288389319
-27.016514 919.70905 1280.7874 4288653268
-24.765137 919.70905 1280.7874 4288587475
-22.513762 919.70905 1280.7874 4288063700
-20.262384 919.70905 1280.7874 4289313767
-9.0055046 919.70905 1280.7874 4283715186
-6.7541285 919.70905 1280.7874 4284570495
-4.5027523 919.70905 1280.7874 4284570232
-2.2513762 919.70905 1280.7874 4284570232
13.508257 919.70905 1280.7874 4285027439
-25.806423 923.29602 1278.5797 4288916179
-22.440367 923.29602 1278.5797 4288457172
-7.8541284 923.29602 1278.5797 4283062914
-25.806423 925.0116 1280.0262 4288981711
-22.440367 925.0116 1280.0262 4288521169
-20.196331 925.0116 1280.0262 4289639906
-17.952293 925.0116 1280.0262 4289970416
-6.73211 925.0116 1280.0262 4284968072
-4.4880733 925.0116 1280.0262 4285425286
-2.2440367 925.0116 1280.0262 4285162371
0 925.0116 1280.0262 4285162623
7.8541284 925.0116 1280.0262 4285752706
11.220183 925.0116 1280.0262 4285753477
13.46422 925.0116 1280.0262 4286148233
15.708257 925.0116 1280.0262 4286148233
-15.644036 930.75409 1278.328 4289574372
-13.409174 930.75409 1278.328 4288519370
-11.174312 931.6084 1279.0483 4285032344
0 930.75409 1278.328 4286149770
11.174312 931.6084 1279.0483 4285294195
13.409174 930.75409 1278.328 4285425790
-48.880733 758.474 1282.1813 4290693117
4.8880734 758.474 1282.1813 4294179071
7.3321099 758.474 1282.1813 4294442239
-48.880733 760.34247 1283.7567 4290955519
-46.262386 764.95709 1281.1075 4291087615
-43.827522 764.95709 1281.1075 4290758649
-46.262386 766.8186 1282.6771 4291218682
-43.827522 766.8186 1282.6771 4290889465
-46.053211 775.66467 1282.2877 4290758651
-49.688992 777.5177 1283.8501 4290495475
-55.537613 782.07483 1281.1523 4290232307
-53.122936 782.07483 1281.1523 4289969648
-49.500916 782.07483 1281.1523 4290364149
-45.878899 782.07483 1281.1523 4290429429
-49.500916 783.9209 1282.709 4290429682
-57.732109 790.2959 1281.5442 4289837549
-55.326607 790.2959 1281.5442 4290298100
-52.921101 790.2959 1281.5442 4290232557
-49.312843 790.2959 1281.5442 4290297839
-45.704586 790.2959 1281.5442 4290494963
-43.299084 790.2959 1281.5442 4290561269
-49.312843 792.13495 1283.0947 4290165743
-57.511925 798.47498 1281.9003 4289836265
-55.115597 798.47498 1281.9003 4289836265
-52.719265 798.47498 1281.9003 4289902059
-50.322937 799.39099 1282.6726 4290165230
-46.728439 799.39099 1282.6726 4290297072
-43.133945 799.39099 1282.6726 4290363628
-40.737614 799.39099 1282.6726 4290495214
-58.485321 806.61194 1282.2211 4289968100
-54.904587 806.61194 1282.2211 4289836767
-52.517429 806.61194 1282.2211 4289968104
-50.130276 806.61194 1282.2211 4290297068
-46.549541 806.61194 1282.2211 4290362605
-54.904587 808.43701 1283.7599 4289968104
-52.517429 808.43701 1283.7599 4290033125
-50.130276 808.43701 1283.7599 4290164967
-46.549541 808.43701 1283.7599 4290099687
-54.735779 812.36346 1281.8385 4290034671
-52.355965 812.36346 1281.8385 4289837799
-49.976147 812.36346 1281.8385 4290100970
-46.406422 812.36346 1281.8385 4290297065
-42.836697 812.36346 1281.8385 4290362608
-49.976147 814.18286 1283.3726 4289969900
-46.406422 814.18286 1283.3726 4290297832
-46.227524 820.42749 1282.0977 4290231271
-42.671558 820.42749 1282.0977 4290034158
-16.594496 820.42749 1282.0977 4292797183
14.223853 820.42749 1282.0977 4291810035
-49.783485 822.23987 1283.6259 4289968869
-46.227524 822.23987 1283.6259 4290099433
14.223853 822.23987 1283.6259 4291875571
-51.952293 830.25482 1283.8436 4289967081
-49.590824 830.25482 1283.8436 4290164461
-47.229359 829.35217 1283.0825 4290099180
-44.080734 829.05127 1282.8287 4290231278
-40.144955 828.44946 1282.3214 4290428914
-16.530275 828.44946 1282.3214 4292797695
2.3614678 828.44946 1282.3214 4291745266
11.80734 829.35217 1283.0825 4291613684
-49.398167 836.42932 1282.5096 4289968365
-47.045872 836.42932 1282.5096 4289968365
-43.517433 836.42932 1282.5096 4289771500
-39.988991 836.42932 1282.5096 4289706222
-37.636696 836.42932 1282.5096 4289507303
-30.579817 836.42932 1282.5096 4290296562
11.761468 836.42932 1282.5096 4291548918
-52.720184 842.57568 1281.1521 4289769956
-49.205505 842.57568 1281.1521 4289704164
-46.862385 842.57568 1281.1521 4289704677
-43.347706 842.57568 1281.1521 4289573608
-39.833027 842.57568 1281.1521 4289574122
-37.48991 842.57568 1281.1521 4289836265
-35.14679 842.57568 1281.1521 4289770472
-31.632111 842.57568 1281.1521 4289376996
2.3431194 842.57568 1281.1521 4291547118
4.6862388 842.57568 1281.1521 4291547120
7.0293579 842.57568 1281.1521 4291547120
10.544037 842.57568 1281.1521 4291678706
-56.234863 844.36707 1282.6625 4289638121
-43.347706 844.36707 1282.6625 4289770474
-39.833027 844.36707 1282.6625 4289573355
-37.48991 844.36707 1282.6625 4289836517
-35.14679 844.36707 1282.6625 4289704675
-31.632111 844.36707 1282.6625 4289442271
2.3431194 844.36707 1282.6625 4291547368
4.6862388 844.36707 1282.6625 4291481325
7.0293579 844.36707 1282.6625 4291547118
10.544037 844.36707 1282.6625 4291481329
-56.058716 849.97272 1282.1569 4289506530
-52.555046 849.97272 1282.1569 4289506530
-49.051376 849.97272 1282.1569 4289506530
-46.715595 849.97272 1282.1569 4289507555
-43.601227 850.56793 1282.6588 4289770470
-39.708256 850.8656 1282.9097 4289573861
-37.372478 849.97272 1282.1569 4289574374
-35.036697 849.97272 1282.1569 4289508325
-31.14373 850.56793 1282.6588 4289442530
-28.029358 850.8656 1282.9097 4288982759
-25.693579 850.8656 1282.9097 4290167032
-23.357798 850.8656 1282.9097 4290298866
2.3357799 850.8656 1282.9097 4291283439
4.6715598 850.8656 1282.9097 4291086317
7.0073395 850.8656 1282.9097 4291481075
10.511009 851.75842 1283.6626 4291416050
-51.185322 857.83752 1282.248 4289509097
-48.858715 857.83752 1282.248 4289509097
-46.532108 857.83752 1282.248 4289509861
-44.205505 857.83752 1282.248 4289444067
-40.715595 857.83752 1282.248 4289245410
-31.409174 857.83752 1282.248 4289572575
-25.592661 857.83752 1282.248 4289772269
-19.776146 857.83752 1282.248 4291615231
-16.286238 857.83752 1282.248 4292666623
-13.959633 857.83752 1282.248 4291745276
2.3266056 857.83752 1282.248 4291152625
4.6532111 857.83752 1282.248 4291218670
-30.245872 859.61621 1283.7478 4289440737
-25.592661 859.61621 1283.7478 4289968113
-19.776146 859.61621 1283.7478 4291746303
-16.286238 859.61621 1283.7478 4292928767
2.3266056 859.61621 1283.7478 4291218155
4.6532111 859.61621 1283.7478 4291218409
6.9798164 859.61621 1283.7478 4291218409
-49.824768 865.66028 1282.304 4289245410
-46.348625 865.66028 1282.304 4289047011
-40.555046 865.66028 1282.304 4288915672
-18.53945 865.66028 1282.304 4292073471
-16.222019 865.66028 1282.304 4292731647
-2.3174312 865.66028 1282.304 4291349488
0 865.66028 1282.304 4291020522
4.6348624 865.66028 1282.304 4291086065
-49.824768 867.43195 1283.7977 4289178079
-27.809174 867.43195 1283.7977 4288784861
-25.491743 867.43195 1283.7977 4289508327
-23.174313 867.43195 1283.7977 4289181161
-19.698166 867.43195 1283.7977 4291416831
-16.222019 867.43195 1283.7977 4292797183
2.3174312 867.43195 1283.7977 4290758119
4.6348624 867.43195 1283.7977 4290626281
9.2697248 867.43195 1283.7977 4291087084
-48.511925 872.94781 1283.2164 4288981468
-46.201836 872.06482 1282.4719 4288982493
-43.891743 872.06482 1282.4719 4289048286
-40.426605 872.06476 1282.4718 4289048027
-36.961468 872.06482 1282.4719 4289113568
-27.721102 872.06482 1282.4719 4288653793
-25.411009 871.18176 1281.7273 4289377007
-23.100918 872.06482 1282.4719 4289114848
-19.63578 872.06482 1282.4719 4291416572
-16.170643 871.18176 1281.7273 4292928255
-13.860551 871.18176 1281.7273 4291941626
-10.395412 871.18176 1281.7273 4290955243
-6.9302754 871.18176 1281.7273 4291021035
-4.6201835 871.18176 1281.7273 4290955232
-2.3100917 871.18176 1281.7273 4291152612
1.1550459 872.06482 1282.4719 4291217129
4.6201835 872.94781 1283.2164 4291020262
6.9302754 872.94781 1283.2164 4291283178
9.2403669 872.94781 1283.2164 4290890734
-39.115597 878.93152 1281.7216 4289311457
-36.814678 878.93152 1281.7216 4289245158
-32.212845 878.93152 1281.7216 4289178079
-28.761467 878.93152 1281.7216 4288850137
-25.310091 878.93152 1281.7216 4289311455
-23.009174 878.93152 1281.7216 4289378013
-19.557798 878.93152 1281.7216 4291219448
-16.106422 878.93152 1281.7216 4292665855
4.6018348 878.93152 1281.7216 4290823142
6.9027524 878.93152 1281.7216 4291020522
9.2036695 878.93152 1281.7216 4290889708
-46.018349 880.69055 1283.2048 4289442271
-43.71743 880.69055 1283.2048 4289179355
-40.266056 880.69055 1283.2048 4289245914
-16.106422 880.69055 1283.2048 4292796159
-13.805505 880.69055 1283.2048 4292073471
2.3009174 880.69055 1283.2048 4291020776
4.6018348 880.69055 1283.2048 4290691563
6.9027524 880.69055 1283.2048 4290954479
9.2036695 880.69055 1283.2048 4290823661
-41.251377 886.63922 1281.6804 4289047767
-38.959633 886.63922 1281.6804 4289113560
-32.084404 886.63922 1281.6804 4288849883
-28.64679 886.63922 1281.6804 4288785370
-25.209175 886.63922 1281.6804 4289115357
-19.479816 886.63922 1281.6804 4290955769
-16.042202 886.63922 1281.6804 4292665343
-13.750459 886.63922 1281.6804 4292073471
-11.458715 886.63922 1281.6804 4290889456
-6.8752294 886.63922 1281.6804 4290430955
-4.5834861 886.63922 1281.6804 4290626529
2.291743 886.63922 1281.6804 4290823394
4.5834861 886.63922 1281.6804 4290822890
6.8752294 886.63922 1281.6804 4291217905
9.1669722 886.63922 1281.6804 4291087084
-41.251377 888.3913 1283.1577 4288587475
-16.042202 888.3913 1283.1577 4292336639
-13.750459 888.3913 1283.1577 4291679999
-41.119267 892.94977 1281.769 4288390353
-38.073391 892.65869 1281.5236 4288521684
-34.266056 893.823 1282.5054 4288916699
-27.412844 892.07654 1281.0328 4289047774
-22.844036 892.07654 1281.0328 4289115357
-18.275229 893.823 1282.5054 4290955260
-15.990826 892.94977 1281.769 4292467967
-13.706422 892.94977 1281.769 4291678975
-11.422018 892.07654 1281.0328 4290822892
-4.5688071 892.07654 1281.0328 4290561510
2.2844036 892.94977 1281.769 4290956008
6.8532109 892.07654 1281.0328 4291021037
9.1376143 892.07654 1281.0328 4291087350
-41.119267 895.56946 1283.978 4288587466
-38.834862 895.56946 1283.978 4288521673
-37.541283 901.45068 1282.3969 4288915927
-34.128441 901.45068 1282.3969 4289376478
-31.85321 901.45068 1282.3969 4289245660
-28.440367 901.45068 1282.3969 4289048284
-22.752293 901.45068 1282.3969 4288719325
2.2752295 901.45068 1282.3969 4291086569
4.5504589 901.45068 1282.3969 4290823910
6.8256879 901.45068 1282.3969 4290889960
-46.6422 903.19019 1283.8635 4288323790
-43.229359 903.19019 1283.8635 4288586964
-38.678898 903.19019 1283.8635 4288785111
-34.128441 903.19019 1283.8635 4289245662
2.2752295 903.19019 1283.8635 4291020774
4.5504589 903.19019 1283.8635 4290888933
-56.697247 907.69604 1282.4305 4288455113
-52.161469 908.56293 1283.1615 4288585415
-49.893578 907.69604 1282.4305 4288520392
-46.491745 907.69604 1282.4305 4288586188
-43.089909 907.69604 1282.4305 4288783827
-40.822018 908.56293 1283.1615 4288258251
-37.420181 907.69604 1282.4305 4288915926
-34.018349 907.69604 1282.4305 4289376477
-31.750458 907.69604 1282.4305 4289113557
-28.348625 907.69604 1282.4305 4289179609
-24.946789 907.69604 1282.4305 4288851160
-19.277065 906.8291 1281.6996 4289968614
-15.875229 906.8291 1281.6996 4292467711
-13.60734 906.8291 1281.6996 4291941114
-10.205505 906.8291 1281.6996 4290428131
-6.8036699 907.69604 1282.4305 4290888937
-4.53578 907.69604 1282.4305 4290953700
-2.26789 907.69604 1282.4305 4291085030
0 907.69604 1282.4305 4290822626
4.53578 908.56293 1283.1615 4291020260
6.8036699 907.69604 1282.4305 4290954468
10.205505 907.69604 1282.4305 4291020774
13.60734 907.69604 1282.4305 4290757352
-47.471561 913.91327 1282.4407 4288127178
-38.429359 913.91327 1282.4407 4288915413
-33.908257 913.91327 1282.4407 4288983005
-31.647707 913.91327 1282.4407 4289049048
-28.256882 913.91327 1282.4407 4288916952
-24.866055 913.91327 1282.4407 4288653270
-4.521101 913.91327 1282.4407 4289900242
-2.2605505 913.91327 1282.4407 4289834448
0 913.91327 1282.4407 4289505222
11.302752 913.91327 1282.4407 4289109433
13.563303 913.91327 1282.4407 4288911037
-46.341286 915.64148 1283.8978 4288520141
-40.689907 915.64148 1283.8978 4288388819
-37.299084 915.64148 1283.8978 4288850138
-33.908257 915.64148 1283.8978 4289048026
-31.647707 915.64148 1283.8978 4289048278
-28.256882 915.64148 1283.8978 4288982232
-4.521101 915.64148 1283.8978 4288386476
-2.2605505 915.64148 1283.8978 4288320683
0 915.64148 1283.8978 4288189096
10.172478 915.64148 1283.8978 4287661721
-40.524769 923.15143 1283.6898 4289507030
-37.147705 922.29083 1282.9642 4289112275
-33.770641 922.29083 1282.9641 4289309400
-31.519266 922.29083 1282.9641 4288981717
-29.267889 922.29083 1282.9641 4289047509
-4.5027523 921.43024 1282.2385 4284504690
-2.2513762 921.43024 1282.2385 4284438641
1.1256881 922.29083 1282.9641 4284965239
4.5027523 923.15143 1283.6898 4285883778
6.7541285 921.43024 1282.2385 4284503907
10.131193 921.43024 1282.2385 4284568685
13.508257 921.43024 1282.2385 4284832102
-25.806423 926.72723 1281.4728 4289178065
-22.440367 926.72723 1281.4728 4288653270
-20.196331 926.72723 1281.4728 4289048028
-7.8541284 926.72723 1281.4728 4285756809
-4.4880733 926.72723 1281.4728 4286806943
-2.2440367 926.72723 1281.4728 4286740894
0 926.72723 1281.4728 4286741396
4.4880733 926.72723 1281.4728 4287069587
7.8541284 926.72723 1281.4728 4286872725
11.220183 926.72723 1281.4728 4286609815
13.46422 926.72723 1281.4728 4286412436
-25.806423 928.44275 1282.9193 4289836765
-22.440367 928.44275 1282.9193 4289706461
-20.196331 928.44275 1282.9193 4289640667
-17.952293 928.44275 1282.9193 4289377250
-7.8541284 928.44275 1282.9193 4286281351
-4.4880733 928.44275 1282.9193 4286741396
-2.2440367 928.44275 1282.9193 4286412688
2.2440367 928.44275 1282.9193 4286281099
4.4880733 928.44275 1282.9193 4286082691
7.8541284 928.44275 1282.9193 4285886084
11.174312 935.02551 1281.9296 4284831072
-52.335163 755.08862 1285.8671 4290626811
4.9064221 753.83832 1284.8127 4294179071
7.359633 753.83832 1284.8127 4294179071
-48.880733 763.1452 1286.1199 4290889977
-48.697247 769.61078 1285.0314 4290560756
-46.262386 768.68005 1284.2466 4290889719
-50.515594 793.974 1284.6454 4290625525
-50.322937 802.13904 1284.9897 4290296814
-46.728439 802.13904 1284.9897 4290166509
-57.291744 811.17444 1286.0681 4289310949
-54.904587 812.08698 1286.8374 4289508329
-52.517429 812.08698 1286.8374 4289443556
-54.735779 816.91199 1285.6736 4289837801
-52.355965 816.91199 1285.6736 4289837797
-49.976147 816.91199 1285.6736 4290035175
-52.154129 824.05225 1285.1539 4290099431
-49.783485 824.05225 1285.1539 4290099431
-54.524769 825.86462 1286.6821 4289704677
-52.154129 825.86462 1286.6821 4289968104
-49.783485 825.86462 1286.6821 4290099433
-54.313763 832.96289 1286.1271 4289968103
-51.952293 832.96289 1286.1271 4289902317
-51.750458 838.22766 1284.026 4289968104
-49.398167 838.22766 1284.026 4289968104
-43.517433 838.22766 1284.026 4290033899
-39.988991 838.22766 1284.026 4290165998
-58.57798 847.05408 1284.9281 4289375968
-56.234863 846.15839 1284.1729 4289506530
2.3431194 846.15839 1284.1729 4291349738
4.6862388 846.15839 1284.1729 4291349484
7.0293579 846.15839 1284.1729 4291349484
10.544037 847.05408 1284.9281 4291349741
-30.365137 853.54419 1285.1682 4289573857
-28.029358 853.54419 1285.1682 4289114594
-23.357798 853.54419 1285.1682 4290167797
2.3357799 853.54419 1285.1682 4291151860
4.6715598 853.54419 1285.1682 4291086065
7.0073395 853.54419 1285.1682 4291217907
10.511009 853.54419 1285.1682 4291350259
-28.029358 855.3299 1286.6738 4288719325
-23.357798 855.3299 1286.6738 4289248242
7.0073395 855.3299 1286.6738 4291152877
10.511009 855.3299 1286.6738 4291021807
-32.572475 861.3949 1285.2476 4288980955
-27.919266 862.28424 1285.9976 4289113569
-25.592661 862.28424 1285.9976 4289705963
-23.266054 862.28424 1285.9976 4289181933
-20.939449 862.28424 1285.9976 4290826495
2.3266056 862.28424 1285.9976 4291020778
6.9798164 862.28424 1285.9976 4291086319
-49.824768 869.20361 1285.2916 4288981470
2.3174312 869.20361 1285.2916 4291349223
4.6348624 869.20361 1285.2916 4290954730
6.9522934 869.20361 1285.2916 4291152110
9.2697248 869.20361 1285.2916 4290956012
-50.983486 870.97534 1286.7854 4288981468
-48.511925 874.71393 1284.7056 4288850652
-46.201836 874.71393 1284.7056 4289047774
-43.891743 874.71393 1284.7056 4289113823
-40.426605 874.71393 1284.7056 4289376993
2.3100917 874.71393 1284.7056 4290953965
4.6201835 874.71393 1284.7056 4290823140
-53.132111 876.47998 1286.1947 4289047513
-49.666969 876.47998 1286.1947 4288982492
-46.201836 876.47998 1286.1947 4289113823
-43.891743 876.47998 1286.1947 4289113823
-41.58165 876.47998 1286.1947 4289245408
2.3100917 876.47998 1286.1947 4290954730
-46.018349 883.32922 1285.4296 4289179100
-43.71743 883.32922 1285.4296 4289244892
-41.416515 882.44965 1284.688 4289047767
-13.805505 882.44965 1284.688 4291745791
2.3009174 882.44965 1284.688 4290954728
4.6018348 882.44965 1284.688 4290691559
-43.543118 890.14331 1284.635 4288455894
-45.834862 891.89539 1286.1123 4288587475
-43.543118 891.89539 1286.1123 4288456146
-50.256882 899.06232 1286.9231 4288389328
-46.830276 899.06232 1286.9231 4288454866
-43.403671 899.06232 1286.9231 4288783575
-41.119267 898.18909 1286.1868 4288718545
-38.834862 897.31592 1285.4506 4288981459
-40.954128 904.92957 1285.3301 4288521169
2.2752295 904.92957 1285.3301 4291151590
4.5504589 904.92957 1285.3301 4290888933
2.2752295 906.66901 1286.7968 4291085285
-55.563301 910.29675 1284.6234 4288322499
-52.161469 910.29675 1284.6234 4288651464
-49.893578 910.29675 1284.6234 4288389319
-46.491745 910.29675 1284.6234 4288389322
-43.089909 910.29675 1284.6234 4288586703
-40.822018 910.29675 1284.6234 4288126411
-37.420181 910.29675 1284.6234 4288850391
1.133945 910.29675 1284.6234 4291412965
4.53578 910.29675 1284.6234 4291413987
6.8036699 910.29675 1284.6234 4291479780
10.205505 910.29675 1284.6234 4291544803
-54.429359 912.03064 1286.0853 4287732157
-52.161469 912.03064 1286.0853 4288389830
-49.893578 912.03064 1286.0853 4288258764
-45.3578 912.03064 1286.0853 4287928266
-43.089909 912.03064 1286.0853 4288323024
-40.822018 912.03064 1286.0853 4288257483
-36.28624 912.03064 1286.0853 4288588247
2.26789 912.03064 1286.0853 4289439429
4.53578 912.03064 1286.0853 4289373121
6.8036699 912.03064 1286.0853 4289241535
9.0715599 912.03064 1286.0853 4289241019
-47.471561 917.36969 1285.355 4288651210
-40.689907 917.36969 1285.355 4288323276
-37.299084 917.36969 1285.355 4288784596
-33.908257 917.36969 1285.355 4288785109
-31.647707 917.36969 1285.355 4288718804
-29.387156 917.36969 1285.355 4288915927
0 917.36969 1285.355 4284636277
4.521101 917.36969 1285.355 4284503405
6.7816515 917.36969 1285.355 4284503405
10.172478 917.36969 1285.355 4284437099
-54.253212 919.0979 1286.8123 4288389069
-46.341286 919.0979 1286.8123 4288454599
-42.950459 919.0979 1286.8123 4288980173
-40.689907 919.0979 1286.8123 4288784077
2.2605505 919.0979 1286.8123 4284439147
4.521101 919.0979 1286.8123 4284503907
-40.524769 925.73322 1285.8667 4289769692
-37.147705 925.73322 1285.8667 4289506265
-33.770641 925.73322 1285.8667 4289967073
-31.519266 925.73322 1285.8667 4290033624
-29.267889 925.73322 1285.8667 4289968088
2.2513762 924.87262 1285.1411 4287004825
-40.392662 931.87396 1285.8124 4290163929
-38.148624 931.87396 1285.8124 4290624480
-33.660549 931.87396 1285.8124 4290954215
-22.440367 930.15839 1284.3658 4290363361
-20.196331 930.15839 1284.3658 4290626533
-16.830275 931.01617 1285.0891 4290362847
-13.46422 931.01617 1285.0891 4287927237
-11.220183 931.87396 1285.8124 4283979655
-7.8541279 931.01617 1285.0891 4284832371
-4.4880733 931.01617 1285.0891 4285291381
-2.2440367 931.01617 1285.0891 4285225845
0.74801224 930.73022 1284.848 4284962926
4.4880733 930.15839 1284.3658 4284898150
8.2281342 930.73022 1284.848 4284897375
-51.517429 757.58936 1287.9755 4290758649
-51.517429 759.46484 1289.5569 4290758649
-51.324772 765.94794 1288.4832 4290560756
-51.132111 772.40302 1287.3857 4290561269
-48.697247 772.40302 1287.3857 4290561015
-53.566971 774.26447 1288.9552 4290495474
-58.710091 805.80304 1288.0791 4289770469
-57.291744 814.82446 1289.1456 4289706472
-54.735779 820.55072 1288.7417 4289968109
-52.355965 819.64099 1287.9747 4289968869
-54.524769 827.677 1288.2102 4289967333
-54.313763 835.6709 1288.4104 4290099685
-56.675228 837.47626 1289.9326 4289704162
-28.029358 857.1156 1288.1796 4289047011
-23.357798 857.1156 1288.1796 4289247988
6.9798164 864.95233 1288.2472 4291086832
-48.511925 878.24609 1287.6838 4289376996
-48.511925 880.01221 1289.173 4289113310
-46.018349 886.84729 1288.396 4288652759
-43.71743 885.96777 1287.6544 4288718552
-45.834862 893.64746 1287.5896 4288587216
-43.543118 893.64746 1287.5896 4288653009
-49.272476 895.39954 1289.0669 4288455117
-45.834862 895.39954 1289.0669 4288454864
-43.543118 895.39954 1289.0669 4288849366
-52.541283 900.80878 1288.3956 4288520656
-50.256882 900.80878 1288.3956 4288455376
-41.119267 900.80878 1288.3956 4288258766
-59.155964 908.40845 1288.2634 4288585415
-54.429359 913.7644 1287.5472 4288455366
-52.161469 913.7644 1287.5472 4288521160
-49.893578 913.7644 1287.5472 4288455114
-43.089909 913.7644 1287.5472 4288585167
2.26789 913.7644 1287.5472 4287991974
4.53578 913.7644 1287.5472 4288122788
6.8036699 913.7644 1287.5472 4288056995
-52.161469 915.49823 1289.0092 4288455114
-49.893578 915.49823 1289.0092 4288782540
-45.3578 915.49823 1289.0092 4288716235
-43.089909 915.49823 1289.0092 4288782028
2.26789 915.49823 1289.0092 4284504690
-46.341286 920.82611 1288.2694 4289046734
-42.950459 920.82611 1288.2694 4289178833
-46.341286 922.55432 1289.7266 4289638871
-42.950459 922.55432 1289.7266 4289770459
-42.776146 928.315 1288.0437 4289638087
-40.524769 928.315 1288.0437 4289572314
-37.147705 928.315 1288.0437 4289835229
-33.770641 928.315 1288.0437 4290032863
-31.519266 928.315 1288.0437 4290033377
-28.1422 928.315 1288.0437 4289836515
-24.765137 928.315 1288.0437 4289902570
-46.153214 930.03619 1289.4949 4290558683
-42.776146 930.03619 1289.4949 4290230228
-36.022018 930.03619 1289.4949 4290559457
-31.519266 930.03619 1289.4949 4290758117
-28.1422 930.03619 1289.4949 4290429669
-24.765137 930.03619 1289.4949 4290232807
-22.513762 930.03619 1289.4949 4290559971
-20.262384 930.03619 1289.4949 4291020522
2.2513762 930.03619 1289.4949 4285027171
4.5027523 930.03619 1289.4949 4285225318
6.7541285 930.03619 1289.4949 4284896353
-22.440367 935.30518 1288.7056 4289902813
-20.196331 935.30518 1288.7056 4291021037
-16.830275 934.44739 1287.9822 4290428639
-13.46422 934.44739 1287.9822 4287335614
-4.4880733 933.58954 1287.2589 4285093234
8.9761467 935.30518 1288.7056 4284371551
11.220183 935.30518 1288.7056 4284437601
-54.172478 754.83624 1292.1943 4290429427
-51.517429 761.34033 1291.1383 4290889980
-51.324772 767.81641 1290.0586 4290626549
-53.768806 769.68494 1291.634 4290561269
-59.908257 809.46704 1291.1686 4289638369
-57.291744 817.56201 1291.4539 4289902574
-57.291744 819.38696 1292.9927 4289704423
-57.115597 823.27979 1291.0428 4289836263
-55.618347 876.29041 1291.267 4289047513
-53.300919 876.29041 1291.267 4289047513
-50.983486 876.29041 1291.267 4288916445
-48.511925 881.77826 1290.6621 4288915675
-48.511925 883.54431 1292.1511 4288653272
-48.319267 889.48596 1290.6208 4288456148
-49.469727 891.245 1292.104 4288455375
-52.161469 917.23206 1290.4711 4288323276
-49.893578 917.23206 1290.4711 4288389319
-52.161469 918.96588 1291.933 4288849868
-49.893578 918.96588 1291.933 4289309136
-46.341286 925.14661 1291.9124 4290033110
-42.950459 924.28253 1291.1837 4289638356
-42.776146 931.75739 1290.9462 4290428123
-37.147705 931.75739 1290.9462 4290559456
-33.770641 931.75739 1290.9462 4290888422
-31.519266 931.75739 1290.9462 4290889439
-28.1422 931.75739 1290.9462 4290692579
-24.765137 931.75739 1290.9462 4290363877
-22.513762 931.75739 1290.9462 4290297314
-20.262384 931.75739 1290.9462 4290889708
-10.131193 931.75739 1290.9462 4283583346
-6.7541285 931.75739 1290.9462 4284766580
-2.2513762 931.75739 1290.9462 4285224564
0 931.75739 1290.9462 4284961646
4.5027523 931.75739 1290.9462 4284634980
6.7541285 931.75739 1290.9462 4284634980
9.0055046 931.75739 1290.9462 4284569187
-33.770641 933.47858 1292.3975 4290823142
-31.519266 933.47858 1292.3975 4290692065
-29.267889 933.47858 1292.3975 4290626016
-10.131193 933.47858 1292.3975 4283650418
-6.7541285 933.47858 1292.3975 4285030001
-4.5027523 933.47858 1292.3975 4284831602
-2.2513762 933.47858 1292.3975 4284831602
0 933.47858 1292.3975 4285027691
-16.830275 937.02069 1290.152 4290231005
-13.46422 937.02069 1290.152 4287334328
11.220183 937.02069 1290.152 4284371551
-54.172478 757.66003 1294.5752 4290429428
-56.423855 766.9668 1295.8823 4290298100
-53.970642 765.09131 1294.301 4290494963
-56.212845 771.55341 1293.2095 4290232307
-48.511925 885.31042 1293.6403 4288652757
-49.893578 920.69971 1293.3949 4289704918
-49.893578 922.43353 1294.8568 4289638869
-49.732109 927.73895 1294.0981 4290229463
-46.341286 929.46716 1295.5553 4290296281
-40.689907 929.46716 1295.5553 4290296283
2.2605505 929.46716 1295.5553 4284895853
-22.513762 935.19983 1293.8488 4290099685
-20.262384 935.19983 1293.8488 4291020787
-10.131193 935.19983 1293.8488 4284175478
-6.7541285 935.19983 1293.8488 4285030001
-4.5027523 935.19983 1293.8488 4284765807
-22.513762 936.92102 1295.3 4289903326
-20.262384 936.92102 1295.3 4291021807
-15.759633 936.92102 1295.3 4289046481
-13.508257 936.92102 1295.3 4287006131
13.46422 940.4519 1293.045 4284108886
15.708257 940.4519 1293.045 4284174679
13.46422 943.02527 1295.215 4284043091
16.830275 943.02527 1295.215 4284043093
-54.172478 760.48376 1296.9562 4290428914
-56.634861 762.36627 1298.5435 4290232305
-52.330276 918.84503 1297.0632 4289705166
-49.893578 924.16736 1296.3187 4289901525
-46.341286 931.19537 1297.0125 4290099418
-42.950459 931.19537 1297.0125 4290165469
-37.299084 931.19537 1297.0125 4290231262
-33.908257 932.92358 1298.4697 4290888937
-31.647707 932.92358 1298.4697 4290559971
-27.880121 932.34747 1297.984 4290560483
-24.866055 932.05945 1297.7411 4290363617
-2.2605505 932.92358 1298.4697 4284765807
1.1302752 932.05945 1297.7411 4284699497
4.521101 932.05945 1297.7411 4284568937
6.7816515 932.05945 1297.7411 4284437351
9.042202 932.92358 1298.4697 4284371551
11.256881 938.64221 1296.7512 4284174679
15.708257 945.59863 1297.3848 4284043606
-56.845871 755.86212 1299.5995 4290298098
-56.845871 757.75165 1301.1926 4290232307
-49.893578 927.63501 1299.2426 4290362330
-40.822018 929.36877 1300.7045 4289967833
-28.256882 934.65179 1299.9269 4290428899
-24.866055 934.65179 1299.9269 4290362591
-18.084404 934.65179 1299.9269 4291809787
-10.172478 934.65179 1299.9269 4283913585
-6.7816515 934.65179 1299.9269 4284702570
-4.521101 934.65179 1299.9269 4284634991
-2.2605505 934.65179 1299.9269 4284634991
0 934.65179 1299.9269 4284568937
9.042202 934.65179 1299.9269 4284306012
-22.605505 936.38 1301.384 4290165476
-19.21468 936.38 1301.384 4291743995
-15.823853 936.38 1301.384 4289045970
-46.491745 931.10266 1302.1664 4290099675
-43.089909 931.10266 1302.1664 4290428386
-37.042202 931.6806 1302.6537 4290428640
-34.018349 932.83643 1303.6283 4290626531
-31.750458 932.83643 1303.6283 4290165728
2.26789 931.96954 1302.8973 4284503144
4.53578 932.83643 1303.6283 4284174429
6.8036699 932.83643 1303.6283 4284305758
11.33945 932.83643 1303.6283 4284306012
13.60734 932.83643 1303.6283 4284306012
11.302752 938.10822 1302.8412 4284108886
-59.58165 756.37109 1307.8767 4290166512
-40.954128 929.28162 1305.8632 4290362589
-50.055046 931.02106 1307.3298 4289902040
-38.678898 931.02106 1307.3298 4290231773
-31.750458 934.57031 1305.0902 4290559971
-28.348625 934.57031 1305.0902 4290493923
-24.946789 934.57031 1305.0902 4290231010
-13.60734 934.57031 1305.0902 4286085551
-10.205505 934.57031 1305.0902 4283650165
-6.8036699 934.57031 1305.0902 4284504940
-4.53578 934.57031 1305.0902 4284568685
-2.26789 934.57031 1305.0902 4284502892
0 934.57031 1305.0902 4284503394
4.53578 934.57031 1305.0902 4284174179
6.8036699 934.57031 1305.0902 4284174179
9.0715599 934.57031 1305.0902 4284174679
-22.6789 936.30408 1306.5521 4290165728
-19.277065 936.30408 1306.5521 4291678713
-15.875229 936.30408 1306.5521 4288717519
-13.60734 936.30408 1306.5521 4285954465
6.8036699 936.30408 1306.5521 4284305758
9.0715599 936.30408 1306.5521 4284174679
-50.055046 932.7605 1308.7964 4290099160
-36.403671 932.7605 1308.7964 4290363359
-34.128441 932.7605 1308.7964 4290626531
2.2752295 932.7605 1308.7964 4284371551
-27.302752 934.49994 1310.2631 4290297316
-25.027523 934.49994 1310.2631 4290099937
-10.238532 934.49994 1310.2631 4283847276
-6.8256879 934.49994 1310.2631 4284569700
-4.5504589 934.49994 1310.2631 4284371301
-2.2752295 934.49994 1310.2631 4284437095
1.1376147 934.49994 1310.2631 4284437095
4.5504589 934.49994 1310.2631 4284371551
11.33945 938.0379 1308.014 4284108886
-45.688072 928.75195 1311.9565 4290099420
-43.403671 928.75195 1311.9565 4290231262
-41.119267 928.75195 1311.9565 4290165980
-38.834862 930.49841 1313.4292 4290165728
-19.339451 936.23938 1311.7297 4291612658
6.8256879 936.23938 1311.7297 4284305758
9.1009178 936.23938 1311.7297 4284174679
-48.126606 926.93652 1315.6581 4289967833
-36.550457 932.24481 1314.9017 4290297568
-34.266056 932.24481 1314.9017 4290692326
-31.981651 932.24481 1314.9017 4290560488
-29.697248 932.24481 1314.9017 4290363110
-31.981651 933.99127 1316.3743 4290823142
-28.555046 933.99127 1316.3743 4290363106
-25.128441 933.99127 1316.3743 4290297314
-22.844036 933.99127 1316.3743 4290362589
-15.990826 933.99127 1316.3743 4288651976
-13.706422 933.99127 1316.3743 4285691038
-10.279816 933.99127 1316.3743 4283584879
-6.8532109 933.99127 1316.3743 4284175976
-4.5688071 933.99127 1316.3743 4284174440
-2.2844036 933.99127 1316.3743 4284240233
1.1422018 933.99127 1316.3743 4284371301
4.5688071 933.99127 1316.3743 4284305758
-45.834862 928.6886 1317.1354 4290033880
-43.543118 928.6886 1317.1354 4290099674
-41.251377 928.6886 1317.1354 4289902813
-45.834862 930.44067 1318.6127 4290033880
-43.543118 930.44067 1318.6127 4289902038
-41.251377 930.44067 1318.6127 4289639382
-38.959633 930.44067 1318.6127 4290297568
-22.844036 935.73773 1317.8468 4290165982
-19.417431 935.73773 1317.8468 4291415537
11.422018 935.73773 1317.8468 4284174679
13.706422 935.73773 1317.8468 4283912277
13.706422 937.48413 1319.3193 4284108886
-48.319267 926.42639 1321.7681 4289967574
-45.834862 932.19275 1320.09 4289968604
-43.543118 932.19275 1320.09 4289639382
-41.251377 932.19275 1320.09 4289508053
-37.813759 932.19275 1320.09 4290362847
-34.376148 932.19275 1320.09 4290954982
-37.813759 933.94476 1321.5673 4290033882
-34.376148 933.94476 1321.5673 4291020008
-32.084404 933.94476 1321.5673 4290822631
-28.64679 933.94476 1321.5673 4290559715
-25.209175 933.94476 1321.5673 4290428384
-16.042202 933.94476 1321.5673 4288520389
-13.750459 933.94476 1321.5673 4285559705
-10.312843 933.94476 1321.5673 4283322731
-6.8752294 933.94476 1321.5673 4283717221
-4.5834861 933.94476 1321.5673 4284110183
-2.291743 933.94476 1321.5673 4284110183
1.1458715 933.94476 1321.5673 4284371551
4.5834861 933.94476 1321.5673 4284306012
6.8752294 933.94476 1321.5673 4284306012
9.1669722 933.94476 1321.5673 4284174679
-52.921101 929.06506 1323.9929 4290361567
-49.469727 929.06506 1323.9929 4290164954
-36.667889 935.69684 1323.0446 4290099424
-34.376148 935.69684 1323.0446 4290822890
-32.084404 935.69684 1323.0446 4290559973
-28.64679 935.69684 1323.0446 4290494179
-25.209175 935.69684 1323.0446 4290428384
-22.917431 935.69684 1323.0446 4290428384
-19.479816 935.69684 1323.0446 4291547120
-16.042202 935.69684 1323.0446 4288257468
-13.750459 935.69684 1323.0446 4285362072
-10.312843 935.69684 1323.0446 4283387245
-6.8752294 935.69684 1323.0446 4284175724
0 935.69684 1323.0446 4284567390
-22.917431 937.44885 1324.5219 4290427871
-20.625689 937.44885 1324.5219 4291414766
-49.469727 931.70361 1326.2177 4289640668
-46.018349 931.70361 1326.2177 4289772254
-43.71743 931.70361 1326.2177 4289377752
-41.416515 931.70361 1326.2177 4289442258
-49.469727 933.46271 1327.7009 4289903326
-46.018349 933.46271 1327.7009 4289838301
-43.71743 933.46271 1327.7009 4289772508
-40.266056 933.46271 1327.7009 4289575128
-4.6018348 933.46271 1327.7009 4284306279
