# .PCD v0.7 - Point Cloud Data file format
VERSION 0.7
FIELDS x y z rgb
SIZE 4 4 4 4
TYPE F F F U
COUNT 1 1 1 1
WIDTH 1179
HEIGHT 1
VIEWPOINT 0 0 0 1 0 0 0
POINTS 1179
DATA ascii
11.020184 813.90601 795.2439 4294967295
34.755962 813.90601 795.2439 4294967295
37.299084 815.20215 796.33679 4294967295
7.6293578 816.49835 797.42969 4294967295
10.150458 817.96436 796.04968 4294967295
35.526604 817.96436 796.04968 4294967295
38.106422 817.23132 796.73969 4294967295
8.4587154 819.25769 797.14026 4294967295
10.977064 820.3551 796.10352 4294967295
13.489908 821.45245 795.06677 4294967295
35.411011 821.45245 795.06677 4294967295
38.06422 819.25769 797.14026 4294967295
8.4311924 824.0307 797.24072 4294967295
10.679511 823.1712 796.51605 4294967295
38.221409 823.1712 796.51605 4294967295
40.469727 824.0307 797.24072 4294967295
11.777982 826.13147 796.39581 4294967295
13.46055 825.48828 795.85352 4294967295
35.333946 825.48828 795.85352 4294967295
37.577366 826.34589 796.5766 4294967295
35.218349 830.23889 795.93506 4294967295
36.895412 830.23889 795.93506 4294967295
10.062386 831.521 797.01611 4294967295
31.794495 832.97009 795.62195 4294967295
34.304588 832.97009 795.62195 4294967295
37.693577 832.24554 796.31903 4294967295
10.040367 834.24945 796.70068 4294967295
35.141285 834.24945 796.70068 4294967295
37.651375 834.8891 797.23999 4294967295
10.007339 837.69409 795.68103 4294967295
30.855965 837.69409 795.68103 4294967295
34.191742 838.3316 796.21863 4294967295
36.693577 838.96918 796.7561 4294967295
8.3394499 840.24432 797.8313 4294967295
9.985321 841.04608 795.89124 4294967295
29.955963 840.40991 795.35486 4294967295
31.620184 840.40991 795.35486 4294967295
34.419571 841.62701 797.25311 4294967295
37.22263 841.14771 797.72101 4294967295
9.9633026 845.02441 796.62958 4294967295
29.889908 843.12018 795.02393 4294967295
31.550459 843.12018 795.02393 4294967295
34.041283 845.02441 796.62958 4294967295
11.585321 847.80762 795.05225 4294967295
31.445871 847.80762 795.05225 4294967295
33.100918 847.80762 795.05225 4294967295
10.473394 850.39203 796.35938 4294967295
31.376146 851.76489 795.77283 4294967295
33.910091 850.06226 796.29932 4294967295
36.411011 850.33826 797.18604 4294967295
10.450152 853.92285 796.7204 4294967295
31.306421 854.45129 795.42188 4294967295
34.128437 853.44824 797.19214 4294967295
37.155964 854.28986 797.90186 4294967295
11.533945 855.711 796.48401 4294967295
32.954128 855.711 796.48401 4294967295
34.601833 856.97064 797.54614 4294967295
36.249542 856.97064 797.54614 4294967295
11.495413 859.72583 795.94519 4294967295
29.559633 859.09808 795.41589 4294967295
32.022934 859.09808 795.41589 4294967295
34.48624 860.35358 796.47449 4294967295
36.128441 860.35358 796.47449 4294967295
10.661469 862.31543 796.82062 4294967295
13.654434 862.18658 795.40399 4294967295
29.493578 861.76904 795.05188 4294967295
32.224464 862.18658 795.40399 4294967295
34.409176 863.02173 796.10815 4294967295
36.909172 862.31543 796.82062 4294967295
39.412846 861.60907 797.53308 4294967295
11.469725 864.27441 797.16431 4294967295
13.623853 866.10089 796.08838 4294967295
32.697247 866.3092 796.26398 4294967295
34.877064 866.51752 796.43964 4294967295
36.866974 864.27441 797.16431 4294967295
39.324772 864.27441 797.16431 4294967295
11.444036 868.18402 797.84473 4294967295
13.078899 868.18402 797.84473 4294967295
35.149544 868.18402 797.84473 4294967295
37.601833 868.18402 797.84473 4294967295
11.405504 872.78174 797.79724 4294967295
13.034863 871.53607 796.74695 4294967295
32.587154 870.91321 796.2218 4294967295
35.031193 871.53607 796.74695 4294967295
37.475231 872.78174 797.79724 4294967295
11.379816 875.42316 797.40845 4294967295
32.51376 874.1803 796.3606 4294967295
35.22324 874.59454 796.7099 4294967295
11.354129 878.05908 797.01489 4294967295
32.440369 876.81903 795.96936 4294967295
34.603058 877.64575 796.66632 4294967295
32.330276 881.38446 795.89465 4294967295
34.755043 881.38446 795.89465 4294967295
11.315597 883.23822 797.45776 4294967295
12.902752 884.00775 795.4906 4294967295
32.256882 884.00775 795.4906 4294967295
34.716515 883.31403 796.21368 4294967295
37.179817 883.85614 797.97876 4294967295
13.685322 886.89429 795.96234 4294967295
32.183487 886.62537 795.08154 4294967295
34.617432 886.89441 795.9624 4294967295
37.095413 886.47382 797.56982 4294967295
13.661469 889.77539 796.4295 4294967295
32.110092 890.46484 795.70288 4294967295
34.558716 889.77539 796.4295 4294967295
37.011009 889.08588 797.15613 4294967295
13.64679 892.30597 797.25525 4294967295
34.785934 892.10138 797.08276 4294967295
36.926605 892.91968 797.77271 4294967295
14.4 894.97974 795.58569 4294967295
31.466667 895.38745 795.9295 4294967295
33.599998 895.59131 796.10138 4294967295
13.583487 897.49988 796.40253 4294967295
28.733946 897.57355 795.15662 4294967295
30.862387 898.38715 795.84259 4294967295
34.400002 897.42615 797.64844 4294967295
36.799999 897.42615 797.64844 4294967295
12.741284 901.98816 796.26282 4294967295
28.667891 901.37939 795.74951 4294967295
31.092661 901.30573 796.99536 4294967295
33.522934 900.0144 797.2146 4294967295
11.148623 903.81458 797.80286 4294967295
13.506422 904.56653 795.82074 4294967295
28.072172 904.36401 795.65009 4294967295
30.985321 905.17389 796.33289 4294967295
34.242203 903.81458 797.80286 4294967295
36.631191 903.81458 797.80286 4294967295
11.122936 906.38867 797.35718 4294967295
13.482569 908.01215 796.76392 4294967295
15.853211 907.7453 795.88501 4294967295
26.950459 907.7453 795.88501 4294967295
28.53578 907.7453 795.88501 4294967295
30.93211 908.01215 796.76398 4294967295
33.872784 907.24487 797.20703 4294967295
36.546787 906.38867 797.35718 4294967295
13.475229 910.16925 797.92883 4294967295
15.816514 910.91565 795.94208 4294967295
26.888073 910.31104 795.43225 4294967295
28.469725 910.31104 795.43225 4294967295
30.878899 910.84473 797.19037 4294967295
34.084404 910.16925 797.92883 4294967295
36.462387 910.16925 797.92883 4294967295
14.234862 912.72943 797.47144 4294967295
16.577065 913.74054 796.36194 4294967295
29.158714 914.75165 795.25244 4294967295
31.633028 912.72943 797.47144 4294967295
33.21468 912.72943 797.47144 4294967295
17.337614 915.9566 796.26843 4294967295
31.522936 916.55908 796.77643 4294967295
33.887154 917.16156 797.28442 4294967295
16.511009 919.70624 796.81396 4294967295
29.483944 919.40576 796.56055 4294967295
31.449541 920.30737 797.3208 4294967295
33.546177 920.50775 797.48975 4294967295
19.610092 922.2453 796.33887 4294967295
22.747705 922.24536 796.33887 4294967295
25.885323 922.2453 796.33887 4294967295
28.630735 922.54517 796.59167 4294967295
5.3284402 748.94202 798.02124 4294967295
40.851376 748.94202 798.02124 4294967295
4.4403667 750.97888 799.73865 4294967295
43.515594 750.97888 799.73865 4294967295
5.317431 753.19104 798.98792 4294967295
42.539448 753.19104 798.98792 4294967295
5.3009176 757.51733 798.71161 4294967295
40.640366 756.84186 798.14209 4294967295
42.407341 757.51733 798.71161 4294967295
4.4174314 759.54358 800.42017 4294967295
40.51376 761.83093 798.42468 4294967295
43.22477 760.68726 799.42242 4294967295
4.697248 764.07538 800.3172 4294967295
44.036697 763.85095 800.12793 4294967295
42.14312 766.80316 798.69312 4294967295
4.3899083 768.81689 800.39093 4294967295
7.0091743 769.66211 798.48755 4294967295
40.302753 769.66211 798.48755 4294967295
42.977066 768.90387 799.15625 4294967295
45.655045 769.4881 800.95691 4294967295
5.2568808 771.67163 800.18188 4294967295
43.807339 771.67163 800.18188 4294967295
5.2403669 775.94312 799.8595 4294967295
6.9871559 774.60767 798.7334 4294967295
41.340672 775.0528 799.1087 4294967295
43.669724 775.94312 799.8595 4294967295
4.3614678 778.03119 800.31207 4294967295
6.972477 777.45123 798.51501 4294967295
38.348625 777.45123 798.51501 4294967295
40.672783 778.33966 799.26416 4294967295
43.57798 778.78381 799.63867 4294967295
46.289909 777.27856 800.98547 4294967295
5.2293577 780.11646 800.76221 4294967295
6.9504585 782.37012 798.7384 4294967295
40.900002 781.24329 799.75031 4294967295
43.57798 780.11646 800.76221 4294967295
4.3440366 784.36279 800.41858 4294967295
43.440369 783.69855 799.85852 4294967295
46.046791 785.02698 800.97864 4294967295
5.1963301 787.93433 799.50592 4294967295
6.9284406 787.27222 798.94763 4294967295
43.302753 787.27222 798.94763 4294967295
45.034863 788.59644 800.06421 4294967295
5.1853213 791.41193 799.82202 4294967295
7.7779818 790.75122 799.26489 4294967295
41.482571 790.75122 799.26489 4294967295
43.21101 790.75122 799.26489 4294967295
5.1853213 792.73328 800.93616 4294967295
7.7642202 793.84961 799.91534 4294967295
10.337615 794.96594 798.89453 4294967295
40.488991 794.96594 798.89453 4294967295
44.07523 792.73328 800.93616 4294967295
7.753211 796.28314 800.00525 4294967295
10.315597 797.7688 798.64185 4294967295
37.823853 797.7688 798.64185 4294967295
40.446789 797.026 799.32355 4294967295
43.073395 796.28314 800.00525 4294967295
7.7366972 799.74036 800.3042 4294967295
40.402752 799.08313 799.75012 4294967295
42.981651 800.39758 800.85828 4294967295
8.5688076 802.61755 798.80603 4294967295
40.273396 803.27264 799.3584 4294967295
7.6954126 806.05859 799.09143 4294967295
37.622017 805.40491 798.54028 4294967295
40.187157 806.71228 799.64258 4294967295
42.752293 808.01965 800.745 4294967295
5.1137614 812.18176 800.33026 4294967295
6.8110094 811.61304 798.54272 4294967295
40.014679 811.61304 798.54272 4294967295
43.466972 812.18176 800.33026 4294967295
5.1027522 815.59973 800.59619 4294967295
40.822018 814.29938 799.49976 4294967295
43.089905 815.16632 800.23071 4294967295
6.7816515 817.79449 798.52258 4294967295
40.689907 817.79449 798.52258 4294967295
4.521101 819.95477 800.34406 4294967295
7.3357797 820.49536 799.05585 4294967295
40.601833 820.55103 798.23071 4294967295
43.210094 820.10309 799.81512 4294967295
6.7669725 823.13776 800.41187 4294967295
43.13945 823.13776 800.41187 4294967295
7.5880728 826.60907 799.41467 4294967295
10.117432 825.31989 798.32764 4294967295
40.469727 825.31989 798.32764 4294967295
42.718044 827.46844 800.13934 4294967295
8.4128437 829.99048 799.64972 4294967295
10.095413 828.06097 798.02271 4294967295
38.699081 828.06097 798.02271 4294967295
40.381653 828.7041 798.56506 4294967295
42.06422 830.63367 800.19202 4294967295
40.249542 832.80316 798.09717 4294967295
7.8201833 835.42023 799.43182 4294967295
38.488075 836.80811 798.85803 4294967295
41.066055 835.08649 799.36841 4294967295
6.6935778 838.0874 799.93677 4294967295
40.161469 838.0874 799.93677 4294967295
7.5055046 842.15698 799.44397 4294967295
38.361469 841.51941 798.90637 4294967295
40.029358 842.79456 799.98157 4294967295
8.3211012 844.22687 798.57312 4294967295
37.444954 844.22687 798.57312 4294967295
39.941284 845.49915 799.64587 4294967295
7.7541289 847.2995 799.41992 4294967295
37.639145 847.35187 798.59204 4294967295
39.85321 848.19818 799.30566 4294967295
8.3027525 849.46771 800.3761 4294967295
37.238533 851.60352 798.25281 4294967295
40.617432 850.53564 799.31445 4294967295
8.2752295 853.50146 799.85315 4294967295
40.824467 853.29059 799.67529 4294967295
43.031193 854.13416 800.3866 4294967295
8.2568808 856.81488 800.03088 4294967295
9.9082565 855.55237 798.96631 4294967295
37.981651 855.55237 798.96631 4294967295
40.458717 856.18359 799.4986 4294967295
42.93578 856.81488 800.03088 4294967295
8.2385321 860.74969 800.73254 4294967295
9.8862381 858.23035 798.60828 4294967295
37.897247 858.23035 798.60828 4294967295
40.368805 858.86023 799.13934 4294967295
42.840366 860.74969 800.73254 4294967295
9.8532114 862.8645 798.59167 4294967295
41.055046 862.8645 798.59167 4294967295
8.211009 864.74774 800.17944 4294967295
10.37737 865.94464 798.57257 4294967295
37.686237 865.5271 798.22058 4294967295
40.166973 865.80164 799.10608 4294967295
42.697247 865.37549 800.70874 4294967295
8.1926603 868.03241 800.33301 4294967295
10.637615 868.73315 799.61578 4294967295
37.601833 869.4339 798.89856 4294967295
40.144035 868.03241 800.33301 4294967295
42.601833 868.03241 800.33301 4294967295
9.8091745 870.68378 799.95239 4294967295
40.054131 870.68378 799.95239 4294967295
8.1467886 875.27301 799.89795 4294967295
9.7761469 874.02734 798.84766 4294967295
37.475231 874.02734 798.84766 4294967295
39.919266 875.27301 799.89795 4294967295
8.1467886 876.51868 800.94824 4294967295
9.7541285 877.28748 798.98041 4294967295
37.390827 876.66602 798.45642 4294967295
39.875229 877.21375 800.22632 4294967295
42.363304 876.51868 800.94824 4294967295
10.272782 880.53912 799.10614 4294967295
38.117432 880.53918 799.10608 4294967295
40.596329 880.46545 800.35199 4294967295
11.315597 885.7099 799.54181 4294967295
38.752293 886.39941 798.81512 4294967295
40.412846 885.7099 799.54181 4294967295
42.029358 886.32782 800.06287 4294967295
11.289908 889.5564 800.16901 4294967295
12.873395 890.3161 798.19348 4294967295
37.815598 890.3161 798.19348 4294967295
41.127525 889.5564 800.16901 4294967295
11.26422 892.77655 800.26807 4294967295
38.620182 891.54633 799.23071 4294967295
40.765747 892.36646 799.9223 4294967295
10.43578 895.98822 800.36011 4294967295
12.844037 894.14709 798.80762 4294967295
35.321102 894.14709 798.80762 4294967295
37.996937 894.55621 799.15265 4294967295
40.672787 896.19281 800.53253 4294967295
10.4 899.26099 799.1955 4294967295
35.200001 898.64941 798.67981 4294967295
37.599998 899.26099 799.1955 4294967295
40 899.87262 799.71118 4294967295
10.387156 901.16528 799.4931 4294967295
34.321098 901.2348 798.24365 4294967295
38.311928 902.4552 799.27271 4294967295
40.799999 901.09583 800.74255 4294967295
9.5559635 905.03217 798.82947 4294967295
38.223854 905.03217 798.82947 4294967295
40.706421 903.6756 800.30164 4294967295
10.33945 907.53479 799.63153 4294967295
34.957798 907.60352 798.38147 4294967295
37.606117 908.00848 798.7229 4294967295
40.316818 907.51178 800.04816 4294967295
43.001835 907.46741 800.88281 4294967295
11.122936 910.03308 800.43005 4294967295
12.682569 911.38123 798.95068 4294967295
34.877064 911.38123 798.95068 4294967295
37.255047 911.38123 798.95068 4294967295
40.519264 910.03308 800.43005 4294967295
13.2 913.44562 799.81934 4294967295
15.816514 913.9386 798.49097 4294967295
34.005505 913.9386 798.49097 4294967295
37.255047 912.59326 799.97266 4294967295
40.161469 913.40118 800.65387 4294967295
13.444036 915.75238 800.02026 4294967295
37.168808 915.75238 800.02026 4294967295
39.541283 916.35699 800.53003 4294967295
14.185321 919.57153 799.31641 4294967295
34.675228 918.36658 798.30042 4294967295
37.302143 919.97314 799.65509 4294967295
39.403671 920.77649 800.3324 4294967295
16.511009 922.71173 799.34802 4294967295
31.449541 922.71173 799.34802 4294967295
33.808258 922.71173 799.34802 4294967295
36.166973 922.71173 799.34802 4294967295
14.152293 924.51501 800.86853 4294967295
16.511009 924.51501 800.86853 4294967295
19.610092 925.24377 798.86694 4294967295
22.747707 925.24377 798.86694 4294967295
25.885323 925.24377 798.86694 4294967295
29.022938 925.24377 798.867 4294967295
31.449541 924.51501 800.86853 4294967295
33.808258 924.51501 800.86853 4294967295
36.953209 924.51501 800.86853 4294967295
44.541283 747.99573 801.14746 4294967295
46.322937 749.35785 802.29602 4294967295
1.7816514 750.71991 803.44446 4294967295
46.322937 750.71991 803.44446 4294967295
48.104588 750.71991 803.44446 4294967295
3.5486238 754.45844 801.36456 4294967295
44.3578 754.45844 801.36456 4294967295
46.771866 755.27881 803.36426 4294967295
0.88623852 757.93384 802.98694 4294967295
46.084404 758.61133 803.55823 4294967295
1.7669724 760.89447 801.5592 4294967295
3.5339448 760.89447 801.5592 4294967295
1.7669724 762.92078 803.26764 4294967295
47.119263 762.69562 803.07782 4294967295
49.475231 763.59619 803.83716 4294967295
1.7614679 767.21759 802.96655 4294967295
3.5229359 765.87091 801.83105 4294967295
46.678898 766.54425 802.3988 4294967295
3.5119267 770.83051 802.08887 4294967295
45.655045 770.83051 802.08887 4294967295
1.7559633 772.17297 803.2207 4294967295
3.5045872 773.68103 801.87622 4294967295
46.43578 773.68103 801.87622 4294967295
49.166973 772.17297 803.2207 4294967295
1.746789 779.94946 803.23743 4294967295
3.493578 778.61401 802.11145 4294967295
46.289909 778.61401 802.11145 4294967295
48.910091 779.94946 803.23743 4294967295
1.7431192 782.78174 803.00952 4294967295
3.4862385 781.4491 801.88586 4294967295
46.192661 781.4491 801.88586 4294967295
1.7376146 787.68384 803.21875 4294967295
3.4752293 786.35541 802.09863 4294967295
46.915596 786.35541 802.09863 4294967295
48.65321 787.68384 803.21875 4294967295
3.4642203 790.58276 801.73901 4294967295
46.189602 790.36206 801.55292 4294967295
1.7321101 792.56909 803.41382 4294967295
4.3247709 793.31189 802.73206 4294967295
44.939449 794.05469 802.05029 4294967295
46.667889 794.05469 802.05029 4294967295
48.499084 792.56909 803.41382 4294967295
4.3128443 796.48822 802.1402 4294967295
6.8917432 797.60034 801.11584 4294967295
43.93486 797.60034 801.11584 4294967295
46.667889 795.3761 803.16455 4294967295
48.396332 795.3761 803.16455 4294967295
5.1688075 799.57617 802.78174 4294967295
44.796329 798.91754 802.22644 4294967295
46.519264 799.57617 802.78174 4294967295
48.242203 799.57617 802.78174 4294967295
5.1577983 803.02637 803.07483 4294967295
6.8770642 801.71198 801.96655 4294967295
44.127827 802.15009 802.33594 4294967295
46.420185 803.02637 803.07483 4294967295
48.13945 803.02637 803.07483 4294967295
5.1412845 806.5481 802.12024 4294967295
43.700916 805.89301 801.56787 4294967295
46.271561 806.5481 802.12024 4294967295
3.4275229 807.85828 803.22485 4294967295
44.462387 809.32703 801.84729 4294967295
47.027523 809.32703 801.84729 4294967295
49.699081 807.85828 803.22485 4294967295
3.4201834 810.6344 802.94971 4294967295
47.027523 810.6344 802.94971 4294967295
49.592659 810.6344 802.94971 4294967295
3.4091742 814.78809 802.52789 4294967295
46.592052 815.00531 802.711 4294967295
45.92477 818.20044 802.78906 4294967295
1.7009175 819.50085 803.8855 4294967295
4.2385321 821.68298 801.80127 4294967295
46.700916 820.59192 802.84338 4294967295
49.326607 819.50085 803.8855 4294967295
1.6954129 823.6272 803.44061 4294967295
3.9522934 823.8952 802.79449 4294967295
43.985321 824.43109 801.50232 4294967295
46.873394 823.8952 802.79449 4294967295
49.166973 824.27527 803.98706 4294967295
4.5113149 826.58667 803.31982 4294967295
46.522934 826.37109 803.13812 4294967295
5.0587158 830.47644 802.67554 4294967295
6.7449541 829.18732 801.5885 4294967295
43.842201 829.18732 801.5885 4294967295
45.528439 829.83191 802.13202 4294967295
4.2100916 832.48596 803.06183 4294967295
6.7302752 831.91998 801.27661 4294967295
43.746788 832.56311 801.81891 4294967295
46.371559 831.76556 803.76245 4294967295
5.0477066 834.49268 803.4458 4294967295
41.926605 836.64954 801.34033 4294967295
43.603668 836.64954 801.34033 4294967295
45.429359 834.49268 803.4458 4294967295
4.1926603 839.21381 803.50244 4294967295
6.6935778 839.36676 801.01538 4294967295
40.998165 839.36676 801.01538 4294967295
43.603668 838.57275 802.96191 4294967295
5.0201836 841.92542 803.17285 4294967295
41.834862 840.64606 802.09412 4294967295
43.508255 841.92542 803.17285 4294967295
5.0036697 845.34473 802.13184 4294967295
6.6715598 844.06964 801.05664 4294967295
41.697247 844.70715 801.59424 4294967295
5.0036697 846.61987 803.20703 4294967295
6.6568809 848.04376 801.7915 4294967295
43.365139 846.61987 803.20703 4294967295
45.033028 846.61987 803.20703 4294967295
4.9926605 849.95227 803.40063 4294967295
6.6568809 849.3161 802.86426 4294967295
43.174313 850.73718 801.44641 4294967295
46.598164 850.58838 803.93701 4294967295
48.262386 850.58838 803.93701 4294967295
6.6422019 852.64148 803.05206 4294967295
44.834862 852.00671 802.51685 4294967295
46.495415 853.27625 803.58728 4294967295
48.155964 853.27625 803.58728 4294967295
6.6201835 857.29736 803.05371 4294967295
44.686237 856.0321 801.98688 4294967295
47.168808 857.29736 803.05371 4294967295
7.4311924 859.33984 802.15985 4294967295
43.761467 858.70862 801.62756 4294967295
46.238533 860.60236 803.22437 4294967295
6.5908256 863.2691 802.85681 4294967295
43.938843 862.42926 802.14874 4294967295
46.13578 863.2691 802.85681 4294967295
6.5688071 866.63098 801.76733 4294967295
44.339451 866.63098 801.76733 4294967295
46.13578 864.52881 803.91895 4294967295
4.9266057 869.14191 803.88452 4294967295
7.3807335 868.58575 802.1076 4294967295
43.421101 869.2851 801.38928 4294967295
46.80275 868.51416 803.35522 4294967295
7.3642201 871.23572 801.72583 4294967295
40.054131 871.93359 801.00623 4294967295
43.421101 870.53778 802.44543 4294967295
46.425079 871.37286 803.1496 4294967295
6.5394497 873.80841 802.5871 4294967295
43.596329 873.6001 802.41144 4294967295
45.776146 874.43335 803.11401 4294967295
8.1467886 877.76434 801.99854 4294967295
43.177982 877.76434 801.99854 4294967295
7.3192663 880.66986 802.48639 4294967295
43.384708 880.34735 802.43243 4294967295
7.3064222 883.56976 802.96948 4294967295
9.73211 883.63928 801.72003 4294967295
42.983486 883.63928 801.72003 4294967295
45.519264 882.88025 803.69617 4294967295
8.1100922 885.49933 803.28833 4294967295
9.6990824 887.56366 801.10486 4294967295
42.837616 887.56366 801.10486 4294967295
45.416515 885.49933 803.28833 4294967295
9.6990824 888.7995 802.14685 4294967295
43.64587 888.7995 802.14685 4294967295
46.070641 890.03534 803.18896 4294967295
8.0642204 893.87201 803.80786 4294967295
9.6770639 891.40594 801.72852 4294967295
43.546787 891.40594 801.72852 4294967295
45.966057 893.25549 803.28802 4294967295
8.0458717 896.46722 803.38 4294967295
9.6550455 894.00677 801.3053 4294967295
41.838531 894.00677 801.3053 4294967295
43.447708 894.62189 801.82397 4294967295
45.056881 896.46722 803.38 4294967295
8.027523 899.05676 802.94739 4294967295
41.743118 897.82935 801.91248 4294967295
43.348625 898.44305 802.42993 4294967295
8 902.31903 801.77393 4294967295
44.077065 901.30164 802.87811 4294967295
46.559631 900.28418 803.9823 4294967295
8 903.54224 802.8053 4294967295
41.504585 904.896 801.33069 4294967295
44 904.15381 803.32098 4294967295
46.400002 904.76544 803.83667 4294967295
7.9816513 906.72662 802.87427 4294967295
9.5559635 908.685 801.90942 4294967295
43.849541 908.01093 802.64911 4294967295
7.9633026 910.51135 803.4494 4294967295
10.328441 911.24786 801.45435 4294967295
41.313763 911.24786 801.45435 4294967295
43.748623 911.18402 802.70856 4294967295
46.187157 911.12018 803.96277 4294967295
10.063609 912.86768 802.82007 4294967295
43.69725 913.07007 802.99078 4294967295
11.097248 915.62317 802.52747 4294967295
12.653211 917.56616 801.54968 4294967295
40.659328 916.27081 802.20148 4294967295
42.803669 915.62317 802.52747 4294967295
12.653211 919.37988 803.07898 4294967295
41.122936 919.37988 803.07898 4294967295
42.704586 919.9845 803.58875 4294967295
13.397247 922.58398 801.85645 4294967295
37.827522 921.98151 801.34839 4294967295
39.92905 922.78485 802.02582 4294967295
13.380733 925.05432 802.63135 4294967295
16.511009 926.31824 802.38904 4294967295
19.655964 926.31824 802.38904 4294967295
22.800919 926.31824 802.38898 4294967295
25.945871 926.31824 802.38904 4294967295
29.090826 926.31824 802.38904 4294967295
31.449541 926.31824 802.38898 4294967295
33.808258 926.31824 802.38898 4294967295
36.691132 926.11786 802.22003 4294967295
40.191742 924.39142 803.38049 4294967295
20.442202 928.12152 803.90942 4294967295
22.800919 928.12152 803.90942 4294967295
25.945873 928.12152 803.90942 4294967295
29.090824 928.12152 803.90942 4294967295
-1.787156 749.1073 806.00885 4294967295
52.423237 749.33502 806.20087 4294967295
1.7816514 752.08203 804.5929 4294967295
48.995415 752.08203 804.5929 4294967295
-1.7816514 753.44409 805.74146 4294967295
0 753.44409 805.74146 4294967295
49.886238 753.44409 805.74146 4294967295
52.261776 754.35211 806.50708 4294967295
-1.7761468 757.76819 805.46332 4294967295
47.955963 757.08929 804.89087 4294967295
49.732109 757.08929 804.89087 4294967295
51.508255 758.44714 806.03577 4294967295
-1.772477 761.32147 805.84326 4294967295
0 760.64392 805.27197 4294967295
49.629356 759.96643 804.70068 4294967295
-1.7669724 764.94708 804.9762 4294967295
0 764.94708 804.9762 4294967295
49.475231 764.94708 804.9762 4294967295
51.401836 762.67657 806.98584 4294967295
0 766.29791 806.11523 4294967295
51.242203 766.29791 806.11523 4294967295
-1.7614679 769.23755 804.66974 4294967295
0.88073397 769.23755 804.66974 4294967295
47.559631 768.56421 804.10205 4294967295
49.321102 768.56421 804.10205 4294967295
51.963303 769.91089 805.23743 4294967295
-1.7614679 771.25757 806.37292 4294967295
0.87798166 772.38647 805.36279 4294967295
50.044952 773.51544 804.35266 4294967295
52.678898 773.51544 804.35266 4294967295
55.486237 771.25757 806.37292 4294967295
61.651375 771.25757 806.37292 4294967295
-1.7559633 775.52905 806.05054 4294967295
0.87614679 775.60913 804.80994 4294967295
49.940369 776.36035 804.13525 4294967295
52.678898 774.85785 805.48462 4294967295
54.434864 775.52905 806.05054 4294967295
-1.7522936 779.03961 806.39441 4294967295
0 777.69995 805.26489 4294967295
50.816513 777.69995 805.26489 4294967295
52.568806 778.36975 805.82965 4294967295
54.321102 779.03961 806.39441 4294967295
-1.746789 782.6203 805.4895 4294967295
0 781.95258 804.92651 4294967295
50.074615 781.72998 804.73883 4294967295
52.403671 782.6203 805.4895 4294967295
-1.7431192 785.44702 805.25684 4294967295
0.87155962 784.7807 804.69501 4294967295
49.678898 784.7807 804.69501 4294967295
52.293579 785.44702 805.25684 4294967295
54.150459 783.95575 806.61548 4294967295
-1.7431192 786.7796 806.38049 4294967295
0 786.7796 806.38049 4294967295
52.293579 786.7796 806.38049 4294967295
54.036697 786.7796 806.38049 4294967295
-1.7376146 791.00488 806.01898 4294967295
0.57920486 790.34064 805.45898 4294967295
49.811619 789.45508 804.71222 4294967295
1.7321101 793.89331 804.5304 4294967295
50.231194 793.89331 804.5304 4294967295
51.963303 793.89331 804.5304 4294967295
1.7321101 795.87964 806.20514 4294967295
3.4568808 796.69751 804.27869 4294967295
50.124771 796.69751 804.27869 4294967295
52.774311 795.95752 804.96277 4294967295
55.427525 796.54175 806.76343 4294967295
58.891743 796.54175 806.76343 4294967295
1.7284404 799.34033 806.50708 4294967295
3.4568808 798.01892 805.39282 4294967295
50.124771 798.01892 805.39282 4294967295
53.005505 798.45941 805.76422 4294967295
55.310093 799.34033 806.50708 4294967295
3.4458716 801.55194 804.44775 4294967295
49.965137 801.55194 804.44775 4294967295
52.262386 802.43011 805.18817 4294967295
1.7211009 805.57794 806.5343 4294967295
3.4385321 804.34076 804.18311 4294967295
48.999084 804.34076 804.18311 4294967295
52.494495 804.92078 805.98016 4294967295
52.269726 809.16846 804.32959 4294967295
1.7137614 810.47864 805.43433 4294967295
47.882568 811.94177 804.052 4294967295
49.592659 811.94177 804.052 4294967295
52.21468 811.21021 804.74316 4294967295
54.840366 811.78882 806.53906 4294967295
1.7100917 813.24915 805.1543 4294967295
49.592659 813.24915 805.1543 4294967295
52.157799 813.90283 805.70551 4294967295
54.722935 814.55658 806.25671 4294967295
1.7045871 816.74292 804.17603 4294967295
47.728439 816.74292 804.17603 4294967295
49.433029 816.74292 804.17603 4294967295
51.989906 818.04608 805.2749 4294967295
0 819.34924 806.37366 4294967295
49.326607 820.80121 804.98193 4294967295
51.989906 819.34924 806.37366 4294967295
51.027523 822.10156 806.07837 4294967295
1.6954129 826.21948 805.62628 4294967295
50.014679 826.21948 805.62628 4294967295
1.6917431 830.25116 806.40967 4294967295
3.3834863 828.31116 804.77393 4294967295
47.368809 828.31116 804.77393 4294967295
49.906422 829.60449 805.86438 4294967295
52.444038 830.89783 806.95496 4294967295
3.3724771 833.05475 804.84949 4294967295
47.21468 833.05475 804.84949 4294967295
48.900917 833.05475 804.84949 4294967295
4.2064219 835.77899 804.5304 4294967295
46.322021 835.0614 805.2334 4294967295
48.900917 834.34387 805.9364 4294967295
46.270645 837.06531 805.61499 4294967295
48.794495 838.35168 806.69958 4294967295
3.3541284 840.49591 804.5835 4294967295
46.398777 840.92334 804.94385 4294967295
1.6770642 843.06018 806.74561 4294967295
3.3467889 843.84436 804.79083 4294967295
43.508255 843.20471 804.25146 4294967295
46.018349 843.84436 804.79083 4294967295
49.158405 843.96124 806.63336 4294967295
53.666054 843.06018 806.74561 4294967295
65.405502 843.06018 806.74561 4294967295
67.082565 843.06018 806.74561 4294967295
3.3357799 847.89502 804.2821 4294967295
45.866974 847.89502 804.2821 4294967295
3.8880737 850.492 805.59979 4294967295
50.036697 850.44525 806.43237 4294967295
51.704586 850.44525 806.43237 4294967295
4.9816513 854.54572 804.65771 4294967295
49.926605 853.13306 806.08264 4294967295
4.9816513 855.81525 805.72815 4294967295
49.816513 855.81525 805.72815 4294967295
51.477066 857.08472 806.79846 4294967295
4.9651375 859.828 805.1875 4294967295
47.99633 859.19531 804.65405 4294967295
49.651375 859.19531 804.65405 4294967295
51.306423 860.46063 805.72095 4294967295
4.1321101 862.42664 806.0705 4294967295
47.889908 862.49609 804.82104 4294967295
49.541283 862.49609 804.82104 4294967295
52.133945 861.72589 806.78772 4294967295
4.943119 865.78845 804.98108 4294967295
47.783485 865.78845 804.98108 4294967295
49.431194 865.78845 804.98108 4294967295
51.192661 864.38983 806.41785 4294967295
3.2954128 867.04816 806.04321 4294967295
49.431194 867.04816 806.04321 4294967295
3.8318043 870.81592 805.29596 4294967295
50.087158 871.02515 805.47241 4294967295
4.0935783 874.64258 805.25256 4294967295
6.5394497 875.68323 804.16785 4294967295
46.937 874.34064 804.77997 4294967295
49.565594 874.60901 805.87817 4294967295
4.359633 877.7663 805.92426 4294967295
46.866058 877.34967 805.57294 4294967295
49.045872 878.18292 806.27551 4294967295
4.8880734 881.50134 805.14941 4294967295
46.436699 880.87854 804.62427 4294967295
4.8880734 882.74695 806.19971 4294967295
6.5027523 884.12311 804.74414 4294967295
47.144955 884.12311 804.74414 4294967295
48.880733 882.74695 806.19971 4294967295
7.3064222 886.6734 805.58636 4294967295
46.227524 886.73938 804.33398 4294967295
49.275845 886.65137 806.00385 4294967295
52.022018 886.60883 806.83997 4294967295
6.4880733 889.21948 806.42505 4294967295
50.28257 889.21948 806.42505 4294967295
51.904587 889.21948 806.42505 4294967295
7.0048928 892.50702 805.27295 4294967295
49.303673 892.50702 805.27295 4294967295
46.772476 895.10504 804.84753 4294967295
48.385323 895.72156 805.36737 4294967295
6.4366975 898.31256 804.93591 4294967295
45.861465 897.69745 804.41724 4294967295
49.136696 898.24939 806.19073 4294967295
6.429358 901.44849 806.27197 4294967295
44.954128 901.5116 805.01721 4294967295
46.559631 901.5116 805.01721 4294967295
48.774921 901.01831 806.34521 4294967295
6.4000001 905.98865 804.86816 4294967295
46.400002 905.98865 804.86816 4294967295
48 905.98865 804.86816 4294967295
6.4000001 907.82349 806.41522 4294967295
44.697247 908.55725 804.41772 4294967295
46.293579 908.55725 804.41772 4294967295
48.799999 907.82349 806.41522 4294967295
51.200001 908.43512 806.93091 4294967295
6.3853211 910.99805 806.47583 4294967295
47.889908 909.77765 805.44678 4294967295
49.48624 910.99805 806.47583 4294967295
7.9633026 912.94659 805.50269 4294967295
9.5339451 914.89227 804.52722 4294967295
44.491745 914.89227 804.52722 4294967295
46.956879 913.28088 805.13049 4294967295
49.372478 913.55542 806.01599 4294967295
7.9449539 916.71448 806.06366 4294967295
10.055046 916.95673 805.39581 4294967295
43.596329 917.44122 804.0603 4294967295
46.822018 916.77417 804.80591 4294967295
49.78838 916.91699 806.23438 4294967295
10.304587 919.25916 805.5932 4294967295
44.388992 918.6532 805.08228 4294967295
46.766972 919.25922 805.59314 4294967295
49.144955 919.86517 806.10413 4294967295
11.07156 922.40283 805.62775 4294967295
43.495411 922.40289 805.62787 4294967295
45.867889 923.00745 806.13757 4294967295
13.659939 925.99805 804.73517 4294967295
16.549541 926.80139 805.41248 4294967295
18.913761 926.80139 805.41248 4294967295
31.522936 926.80139 805.41248 4294967295
33.887154 926.80139 805.41248 4294967295
37.302143 926.39972 805.07379 4294967295
40.191742 926.19891 804.90448 4294967295
19.701836 928.00635 806.42847 4294967295
22.85413 928.00635 806.42847 4294967295
26.006422 928.00635 806.42847 4294967295
29.158714 928.00635 806.42847 4294967295
-3.5816514 749.63184 809.06714 4294967295
55.515594 748.26276 807.91272 4294967295
58.500305 748.71906 808.29755 4294967295
61.783485 749.63184 809.06714 4294967295
64.469727 749.63184 809.06714 4294967295
-3.574312 752.52307 808.88892 4294967295
53.614677 751.15674 807.73682 4294967295
55.401836 751.8399 808.31287 4294967295
57.78471 752.06763 808.50488 4294967295
60.763302 752.52307 808.88892 4294967295
-3.5633028 757.53033 809.18689 4294967295
53.449543 756.16827 808.03833 4294967295
55.231194 756.8493 808.61261 4294967295
57.606731 757.07635 808.80402 4294967295
61.466972 757.53033 809.18689 4294967295
64.13945 757.53033 809.18689 4294967295
-3.5522935 761.16296 808.32556 4294967295
52.692356 760.25763 807.56232 4294967295
55.948624 761.16296 808.32556 4294967295
-3.5449541 764.03162 808.12842 4294967295
53.174313 764.03162 808.12842 4294967295
55.833027 764.03162 808.12842 4294967295
58.612843 762.52081 809.47058 4294967295
61.277065 762.52081 809.47058 4294967295
63.941284 762.52081 809.47058 4294967295
-3.5339448 767.6488 807.25427 4294967295
55.65963 767.6488 807.25427 4294967295
58.310093 767.6488 807.25427 4294967295
61.054131 766.51776 808.26263 4294967295
-3.5339448 768.99963 808.39319 4294967295
58.310093 768.99963 808.39319 4294967295
60.077065 768.99963 808.39319 4294967295
-3.5229359 773.27753 808.07617 4294967295
56.366974 773.27753 808.07617 4294967295
59.009178 773.27753 808.07617 4294967295
61.651375 773.27753 808.07617 4294967295
64.293579 773.95087 808.64392 4294967295
58.128441 775.29749 809.7793 4294967295
61.651375 775.29749 809.7793 4294967295
64.293579 775.29749 809.7793 4294967295
-3.5119267 777.54279 807.74841 4294967295
56.190826 778.21399 808.31439 4294967295
59.117432 778.43774 808.50311 4294967295
61.458717 778.88519 808.88037 4294967295
63.21468 778.88519 808.88037 4294967295
-3.5045872 781.04907 808.08875 4294967295
55.19725 781.04907 808.08875 4294967295
-4.3752294 784.17487 808.76227 4294967295
55.897247 785.2912 807.74146 4294967295
58.701836 783.05853 809.78308 4294967295
61.330276 783.05853 809.78308 4294967295
-4.6556573 787.56696 808.78833 4294967295
52.293579 788.11224 807.50403 4294967295
55.277065 787.56689 808.78833 4294967295
57.644035 787.96204 809.99353 4294967295
-4.0672784 790.33331 809.37677 4294967295
54.036697 789.44489 808.62769 4294967295
58.394493 790.77753 809.75134 4294967295
-1.7376146 793.66174 808.25916 4294967295
0 793.66174 808.25916 4294967295
55.603668 792.9975 807.6991 4294967295
57.341286 794.32593 808.81921 4294967295
60.816513 794.32593 808.81921 4294967295
-3.4752293 795.65436 809.93933 4294967295
-1.7376146 795.65436 809.93933 4294967295
0 797.86597 807.88 4294967295
58.025688 797.86597 807.88 4294967295
61.489906 797.86597 807.88 4294967295
64.29174 795.65436 809.93933 4294967295
-1.7321101 799.19012 808.99646 4294967295
0.8642202 799.9259 808.30884 4294967295
55.310093 800.66174 807.62122 4294967295
57.902752 800.66174 807.62122 4294967295
61.489906 799.19012 808.99646 4294967295
64.088074 799.19012 808.99646 4294967295
-1.7284404 803.30457 809.84961 4294967295
0 801.98315 808.73535 4294967295
55.310093 801.98315 808.73535 4294967295
57.902752 801.98315 808.73535 4294967295
61.359634 801.98315 808.73535 4294967295
63.952293 802.64386 809.29248 4294967295
0 806.16211 808.33496 4294967295
56.282574 805.94263 808.1499 4294967295
58.579815 806.16211 808.33496 4294967295
61.164223 806.16211 808.33496 4294967295
64.610092 806.82074 808.89026 4294967295
0 809.59833 808.61621 4294967295
55.876144 808.94116 808.06207 4294967295
-1.7192661 810.91272 809.72449 4294967295
56.735779 810.91272 809.72449 4294967295
58.455048 810.91272 809.72449 4294967295
65.332108 810.91272 809.72449 4294967295
-1.7137614 815.71942 809.85315 4294967295
0 814.48151 807.5014 4294967295
55.943729 815.33087 808.6535 4294967295
58.267891 815.71942 809.85315 4294967295
-1.7100917 818.4787 809.56372 4294967295
55.57798 817.82501 809.01257 4294967295
-1.7045871 821.95557 808.57129 4294967295
0 821.30396 808.02191 4294967295
52.842201 820.6524 807.47253 4294967295
54.546787 821.30396 808.02191 4294967295
-1.7009175 824.70227 808.27124 4294967295
0 824.70227 808.27124 4294967295
52.161469 823.83539 807.54028 4294967295
55.399082 823.25873 809.67004 4294967295
-1.7009175 826.00269 809.36768 4294967295
54.429359 826.00269 809.36768 4294967295
-1.6954129 830.10797 808.90497 4294967295
0 829.4599 808.35858 4294967295
52.557796 828.16376 807.26562 4294967295
55.100918 830.10797 808.90497 4294967295
-1.6917431 833.48456 809.13599 4294967295
0.84587157 832.83789 808.5907 4294967295
50.752293 832.19122 808.04541 4294967295
52.444038 832.19122 808.04541 4294967295
54.699696 833.05347 808.77246 4294967295
1.6862385 836.27759 807.56689 4294967295
50.025074 836.06274 807.38574 4294967295
52.835476 836.49243 807.74805 4294967295
55.64587 836.92218 808.11035 4294967295
-1.6862385 838.2113 809.19739 4294967295
0.84128439 838.92468 808.49078 4294967295
49.63578 839.638 807.78418 4294967295
53.000916 839.638 807.78418 4294967295
55.64587 838.2113 809.19739 4294967295
58.175232 838.2113 809.19739 4294967295
64.077065 838.2113 809.19739 4294967295
-1.6825688 841.5675 809.41113 4294967295
0 840.92438 808.86877 4294967295
52.159634 840.92438 808.86877 4294967295
55.524769 840.92438 808.86877 4294967295
58.048622 841.5675 809.41113 4294967295
62.255047 842.21069 809.95349 4294967295
63.937614 841.5675 809.41113 4294967295
0.55902141 844.76971 808.18701 4294967295
50.311928 844.34229 807.82666 4294967295
52.827522 844.34229 807.82666 4294967295
55.343121 844.34229 807.82666 4294967295
57.858715 845.62445 808.90771 4294967295
65.405502 844.34229 807.82666 4294967295
67.082565 844.34229 807.82666 4294967295
-1.6770642 846.90656 809.98877 4294967295
1.1155963 847.42377 808.68085 4294967295
50.201836 847.04266 807.48755 4294967295
52.990826 847.46918 807.84717 4294967295
55.222019 847.68237 808.02692 4294967295
57.858715 846.90656 809.98877 4294967295
-1.6733944 849.60132 809.64502 4294967295
1.6733944 849.60132 809.64502 4294967295
3.3357799 851.72034 807.50757 4294967295
52.538532 851.72034 807.50757 4294967295
56.058716 849.60132 809.64502 4294967295
58.568806 849.60132 809.64502 4294967295
1.66789 854.27057 809.65784 4294967295
3.3284404 854.40533 807.1554 4294967295
52.481651 853.70044 807.86908 4294967295
55.596329 853.84552 809.2995 4294967295
1.6642202 856.94995 809.3009 4294967295
3.3284404 855.67767 808.22815 4294967295
53.255047 855.67767 808.22815 4294967295
54.919266 856.94995 809.3009 4294967295
3.321101 858.35425 807.8689 4294967295
53.137615 858.35425 807.8689 4294967295
54.798164 859.62372 808.93933 4294967295
3.3100917 862.99121 807.85461 4294967295
52.961468 862.99121 807.85461 4294967295
54.616512 862.99121 807.85461 4294967295
1.653211 865.58563 808.73419 4294967295
52.293579 866.07318 807.83716 4294967295
55.413765 865.2373 809.0946 4294967295
58.754128 864.8891 809.45496 4294967295
62.06422 865.52179 809.9884 4294967295
64.403671 866.91479 808.54688 4294967295
1.6477064 869.5675 808.16748 4294967295
51.902752 868.93768 807.63641 4294967295
55.321102 868.17725 809.61133 4294967295
64.403671 868.17725 809.61133 4294967295
1.6422018 872.90833 807.0603 4294967295
50.908257 872.90833 807.0603 4294967295
52.550457 872.90833 807.0603 4294967295
54.374313 870.82721 809.22961 4294967295
64.260551 870.82721 809.22961 4294967295
0.82110089 874.79156 808.64819 4294967295
52.550457 874.16382 808.1189 4294967295
55.013763 875.41931 809.17749 4294967295
1.6385322 877.42749 808.25464 4294967295
50.794495 876.80115 807.72656 4294967295
52.433029 877.42749 808.25464 4294967295
54.07156 878.05377 808.78271 4294967295
1.6385322 879.30646 809.83899 4294967295
3.2697248 880.68268 808.3833 4294967295
50.135777 879.84943 807.68073 4294967295
52.86055 881.51593 809.08588 4294967295
54.890823 879.30646 809.83899 4294967295
4.8880734 883.99261 807.25 4294967295
50.51009 883.99261 807.25 4294967295
4.3412843 886.52466 808.513 4294967295
53.708256 886.54498 808.09418 4294967295
55.398167 886.48395 809.35071 4294967295
4.866055 890.45953 807.4707 4294967295
52.715595 890.45953 807.4707 4294967295
55.273396 889.71594 809.45984 4294967295
3.7847092 892.11298 808.86475 4294967295
52.985931 892.11298 808.86475 4294967295
55.148624 892.93964 809.56177 4294967295
4.8495412 895.59662 807.87805 4294967295
50.111927 894.9787 807.35706 4294967295
52.267277 895.80255 808.05176 4294967295
54.961468 896.21454 808.39905 4294967295
4.838532 898.80414 807.96643 4294967295
52.477982 898.12726 808.70374 4294967295
54.961468 897.45038 809.44104 4294967295
4.8330274 901.32776 808.78625 4294967295
49.884403 901.38812 807.52917 4294967295
52.328442 901.66553 808.41699 4294967295
54.774311 901.32776 808.78625 4294967295
4.0174313 904.52124 808.86292 4294967295
49.770641 904.58014 807.60461 4294967295
52.239449 904.52124 808.86292 4294967295
54.711926 903.84857 809.60376 4294967295
4.8165135 906.42126 809.15698 4294967295
52.981651 906.42126 809.15698 4294967295
52 910.2699 808.47797 4294967295
4.788991 914.6593 809.56287 4294967295
6.3779817 913.49573 807.27374 4294967295
50.965137 914.77301 807.04272 4294967295
51.082569 912.21844 807.50476 4294967295
54.27523 914.6593 809.56287 4294967295
6.3706422 916.59937 808.58264 4294967295
52.557796 916.59937 808.58264 4294967295
7.3093576 919.99445 808.82916 4294967295
50.847706 918.53668 807.6001 4294967295
52.436699 920.35889 809.13641 4294967295
54.025688 920.96625 809.64856 4294967295
9.9082565 922.59216 808.40344 4294967295
47.559631 922.28925 808.14795 4294967295
49.937611 922.28912 808.14795 4294967295
13.444036 925.4259 808.17676 4294967295
16.60734 926.03046 808.68652 4294967295
31.633028 926.03046 808.68652 4294967295
34.005505 926.03046 808.68652 4294967295
37.168808 926.03046 808.68652 4294967295
40.332108 926.03046 808.68652 4294967295
43.495415 925.4259 808.17676 4294967295
45.867889 924.82129 807.66699 4294967295
19.770641 927.23962 809.70605 4294967295
22.933945 927.23962 809.70605 4294967295
26.097248 927.23962 809.70605 4294967295
28.469725 927.23962 809.70605 4294967295
30.842201 927.23962 809.70605 4294967295
34.005505 927.23962 809.70605 4294967295
37.168808 927.23962 809.70605 4294967295
40.332108 927.23962 809.70605 4294967295
43.495415 927.23962 809.70605 4294967295
-5.3889909 748.71783 812.22058 4294967295
62.678898 751.00092 810.22156 4294967295
64.469727 751.00092 810.22156 4294967295
-4.4733944 753.81421 811.28558 4294967295
58.976147 753.88934 810.04089 4294967295
61.656879 753.88934 810.04089 4294967295
64.337616 753.88934 810.04089 4294967295
-5.3614678 756.62195 812.34497 4294967295
58.794495 758.89246 810.33533 4294967295
61.466972 758.89246 810.33533 4294967295
64.13945 758.89246 810.33533 4294967295
-5.344954 760.25452 811.48376 4294967295
-5.3284402 763.87872 810.61548 4294967295
-7.1045871 766.59448 812.90527 4294967295
-5.3284402 765.23657 811.76038 4294967295
-5.317431 768.77441 812.12744 4294967295
-7.0678897 773.05225 811.8103 4294967295
-5.3009176 773.05225 811.8103 4294967295
-7.0678897 774.40314 812.94934 4294967295
-5.2844038 776.64417 810.91479 4294967295
-7.0458717 777.99084 812.05029 4294967295
63.412846 777.99084 812.05029 4294967295
-7.0238533 782.91254 812.27612 4294967295
-5.26789 780.22766 810.01221 4294967295
58.824768 780.22766 810.01221 4294967295
61.458717 781.57007 811.14417 4294967295
-7.0091743 785.73785 812.04211 4294967295
58.993885 784.84473 811.28906 4294967295
61.330276 785.73785 812.04211 4294967295
-6.9871559 790.63293 812.24548 4294967295
62.011009 789.96521 811.6825 4294967295
64.631195 790.63293 812.24548 4294967295
-4.6483178 792.55438 811.24951 4294967295
-3.4752293 796.98279 811.05945 4294967295
-4.3440366 798.31122 812.17944 4294967295
-1.7321101 800.51434 810.11304 4294967295
-3.4642203 802.50067 811.7879 4294967295
-3.4568808 805.94739 812.07788 4294967295
-1.7284404 804.62598 810.96375 4294967295
-1.7229358 808.13794 810.00085 4294967295
58.579815 808.13794 810.00085 4294967295
61.164223 808.79657 810.55615 4294967295
64.322937 808.57697 810.37109 4294967295
-3.4458716 810.77234 812.22217 4294967295
-1.7192661 812.22711 810.83264 4294967295
58.455048 812.22711 810.83264 4294967295
61.099998 811.49976 811.5274 4294967295
64.540367 811.49976 811.5274 4294967295
-3.4385321 813.5415 811.94092 4294967295
61.033943 813.5415 811.94092 4294967295
64.472473 813.5415 811.94092 4294967295
-3.4275229 818.33978 812.06262 4294967295
59.4104 817.46631 811.32617 4294967295
61.695412 818.33978 812.06262 4294967295
64.551674 817.90308 811.69434 4294967295
-3.4201834 821.09344 811.76843 4294967295
56.433029 819.78607 810.66614 4294967295
58.71315 820.65765 811.40106 4294967295
61.563301 821.09344 811.76843 4294967295
-3.4091742 824.56189 810.76892 4294967295
56.251377 824.56189 810.76892 4294967295
58.904587 823.48132 811.81989 4294967295
61.563301 822.40082 812.87085 4294967295
64.128441 822.40082 812.87085 4294967295
-3.4091742 825.86511 811.86768 4294967295
56.130276 827.30304 810.46411 4294967295
58.808258 825.86511 811.86768 4294967295
61.365139 825.86511 811.86768 4294967295
63.92202 826.51666 812.41699 4294967295
-3.401835 829.25354 812.10876 4294967295
58.965134 829.0368 811.92603 4294967295
62.083488 829.25354 812.10876 4294967295
-3.3908257 833.34839 811.63721 4294967295
57.644035 832.05225 810.54431 4294967295
61.882568 832.70032 811.09076 4294967295
-3.3908257 834.64453 812.7301 4294967295
-1.6917431 834.77789 810.22644 4294967295
0 834.77789 810.22644 4294967295
58.365135 834.77789 810.22644 4294967295
61.466663 835.64014 810.95343 4294967295
65.977982 836.07123 811.31702 4294967295
-3.3834863 837.36462 812.40759 4294967295
61.547707 839.50043 810.2843 4294967295
-3.3724771 841.4342 811.91479 4294967295
60.704586 840.78961 811.37134 4294967295
67.449539 842.07874 812.45825 4294967295
-3.3651376 844.78339 812.12268 4294967295
-1.6825688 843.49701 811.03809 4294967295
61.413761 844.1402 811.58032 4294967295
64.7789 844.1402 811.58038 4294967295
0 848.18872 811.06982 4294967295
61.212845 848.18872 811.06982 4294967295
63.728439 848.18872 811.06982 4294967295
-3.3541284 849.47083 812.15088 4294967295
-1.6733944 850.88068 810.72363 4294967295
0.83669722 850.88068 810.72363 4294967295
56.895412 850.88068 810.72363 4294967295
58.568806 850.88068 810.72363 4294967295
61.212845 849.47083 812.15088 4294967295
63.728439 849.47083 812.15088 4294967295
-3.3467889 852.79968 812.34167 4294967295
-1.6733944 852.15997 811.80237 4294967295
0 852.15997 811.80237 4294967295
58.568806 852.15997 811.80237 4294967295
61.078899 852.79968 812.34167 4294967295
63.588989 853.43933 812.88098 4294967295
-1.66789 856.18323 811.27057 4294967295
0 856.18323 811.27057 4294967295
56.708256 855.54572 810.73303 4294967295
58.376148 855.54572 810.73303 4294967295
60.877983 856.18323 811.27057 4294967295
63.379818 856.8208 811.80811 4294967295
-3.3357799 858.09595 812.8833 4294967295
-1.6642202 860.13074 811.98291 4294967295
0.83211011 859.1449 811.80573 4294967295
56.521103 859.55774 810.19171 4294967295
59.014679 859.55774 810.19165 4294967295
61.576145 859.49457 811.44653 4294967295
64.072479 859.49457 811.44653 4294967295
0 863.43225 812.15063 4294967295
61.440369 862.16272 811.0802 4294967295
63.93119 862.16272 811.0802 4294967295
0 866.78711 811.05518 4294967295
58.754128 866.78711 811.05518 4294967295
62.06422 866.78711 811.05518 4294967295
-1.6550459 868.05237 812.12207 4294967295
0 869.43976 810.67578 4294967295
56.14679 869.43976 810.67578 4294967295
58.689907 868.74609 811.39893 4294967295
61.926605 869.43976 810.67578 4294967295
-1.6513761 870.70227 811.74036 4294967295
0 872.08691 810.29175 4294967295
55.198166 872.08691 810.29175 4294967295
