# .PCD v0.7 - Point Cloud Data file format
VERSION 0.7
FIELDS x y z rgb
SIZE 4 4 4 4
TYPE F F F U
COUNT 1 1 1 1
WIDTH 1161
HEIGHT 1
VIEWPOINT 0 0 0 1 0 0 0
POINTS 1161
DATA ascii
-14.278899 808.72467 1278.7704 4294967295
-10.709174 808.72467 1278.7704 4294047737
-7.1394496 808.72467 1278.7704 4294377471
-4.7596331 808.72467 1278.7704 4294443007
-2.3798165 808.72467 1278.7704 4294574079
0 808.72467 1278.7704 4294443007
9.5192661 808.72467 1278.7704 4294244863
-38.077065 810.54407 1280.3044 4291746815
-34.507339 810.54407 1280.3044 4292404735
-30.937614 810.54407 1280.3044 4293128447
-28.557798 810.54407 1280.3044 4293325823
-26.177982 810.54407 1280.3044 4294705151
-22.608257 810.54407 1280.3044 4294967295
-19.038532 810.54407 1280.3044 4294967295
-16.658716 810.54407 1280.3044 4294967295
2.3798165 810.54407 1280.3044 4293982975
4.7596331 810.54407 1280.3044 4293982463
7.1394496 810.54407 1280.3044 4293982463
10.709174 810.54407 1280.3044 4294310655
-33.188992 818.61511 1280.5696 4292733951
-30.818348 817.70892 1279.8054 4293325567
-28.447706 818.61511 1280.5696 4293457407
-26.077065 818.61511 1280.5696 4294836223
-22.521101 817.70898 1279.8054 4294967295
-18.965137 817.70892 1279.8054 4294967295
-16.594496 817.70892 1279.8054 4294967295
-14.223853 817.70892 1279.8054 4294967295
-11.062997 817.40692 1279.5508 4293850616
-7.1119266 816.80273 1279.0414 4293786111
-4.7412844 816.80273 1279.0414 4293851135
-2.3706422 816.80273 1279.0414 4293982719
0.79021406 818.01099 1280.0602 4293719807
4.7412844 817.70892 1279.8054 4293982463
-16.530275 824.83875 1279.277 4294967295
-14.168807 824.83875 1279.277 4294967295
-10.626606 824.83875 1279.277 4293850618
-7.0844035 824.83875 1279.277 4294377471
-4.7229357 824.83875 1279.277 4293653759
-2.3614678 824.83875 1279.277 4293653759
0 824.83875 1279.277 4293587967
-18.891743 826.6441 1280.7992 4294967295
-16.530275 826.6441 1280.7992 4294967295
-14.168807 826.6441 1280.7992 4294967295
-10.626606 826.6441 1280.7992 4293785339
-7.0844035 826.6441 1280.7992 4293851647
1.1807339 826.6441 1280.7992 4293324543
4.7229357 826.6441 1280.7992 4293259263
-51.750458 832.83264 1279.4771 4291219455
-9.409174 832.83264 1279.4771 4293522175
-7.056881 832.83264 1279.4771 4293850879
-4.704587 832.83264 1279.4771 4293521919
-2.3522935 832.83264 1279.4771 4293850879
0 832.83264 1279.4771 4293587967
10.585321 832.83264 1279.4771 4293390335
-51.750458 834.63098 1280.9934 4291088639
-16.466055 834.63098 1280.9934 4294967295
-14.113762 834.63098 1280.9934 4294901759
-10.585321 834.63098 1280.9934 4293324536
-7.056881 834.63098 1280.9934 4293916671
-4.704587 834.63098 1280.9934 4293916927
-2.3522935 834.63098 1280.9934 4294114303
0 834.63098 1280.9934 4293653759
4.704587 834.63098 1280.9934 4293653759
7.056881 834.63098 1280.9934 4293916671
10.585321 834.63098 1280.9934 4293521919
14.113762 834.63098 1280.9934 4293850623
-7.0293579 838.99304 1278.1312 4293653503
-4.6862388 838.99304 1278.1312 4293784575
-16.401834 840.78436 1279.6416 4294967295
-10.544037 840.78436 1279.6416 4293456634
-7.0293579 840.78436 1279.6416 4293587711
-4.6862388 840.78436 1279.6416 4293652991
-2.3431194 840.78436 1279.6416 4293718783
14.058716 840.78436 1279.6416 4293653759
-56.058716 846.40125 1279.1455 4290758911
-21.800611 847.5918 1280.1493 4294770687
-18.686239 847.29413 1279.8983 4294967295
-16.350458 847.29413 1279.8983 4294967295
-14.014679 847.29413 1279.8983 4294049279
-10.511009 847.29419 1279.8983 4293259259
-7.0073395 847.29413 1279.8983 4293850879
-4.6715598 848.18701 1280.6511 4293587967
-19.776146 854.28009 1279.2485 4294967295
-16.286238 854.28009 1279.2485 4294967295
-13.959633 854.28009 1279.2485 4293918207
-10.469725 854.28009 1279.2485 4292930299
-6.9798164 854.28009 1279.2485 4293587711
-19.776146 856.05878 1280.7483 4294967295
-16.286238 856.05878 1280.7483 4294967295
-13.959633 856.05878 1280.7483 4293522431
-10.469725 856.05878 1280.7483 4292995836
-6.9798164 856.05878 1280.7483 4293587711
-4.6532111 856.05878 1280.7483 4293390079
-37.078899 863.88855 1280.8101 4291812607
-34.761467 863.88855 1280.8101 4292009983
-31.285322 863.88855 1280.8101 4292339199
-19.698166 862.11688 1279.3162 4294967295
-16.222019 863.00269 1280.0631 4294967295
-13.904587 863.00269 1280.0631 4293193471
-10.42844 863.00275 1280.0631 4292930302
-6.9522934 863.00269 1280.0631 4293521663
-34.651375 869.41565 1280.2383 4292009983
-31.186239 869.41565 1280.2383 4292470783
-27.721102 869.41565 1280.2383 4292931071
-25.411009 869.41565 1280.2383 4293523455
-19.63578 868.53265 1279.4937 4294967295
-13.860551 868.53259 1279.4937 4292865023
-10.395412 868.53265 1279.4937 4292930303
-6.9302754 869.41565 1280.2383 4293258495
-18.407339 875.41333 1278.7551 4294967295
-13.805505 875.41333 1278.7551 4293061631
-10.354128 875.41333 1278.7551 4292601087
-6.9027524 875.41333 1278.7551 4292930047
-4.6018348 875.41333 1278.7551 4292930047
-32.212845 877.17242 1280.2384 4292207103
-27.61101 877.17242 1280.2384 4292471295
-25.310091 877.17242 1280.2384 4293458175
-23.009174 877.17242 1280.2384 4293786111
-19.557798 877.17242 1280.2384 4294967295
-16.106422 877.17242 1280.2384 4294113531
-13.805505 877.17242 1280.2384 4292865023
-10.354128 877.17242 1280.2384 4292535807
-6.9027524 877.17242 1280.2384 4292930047
-4.6018348 877.17242 1280.2384 4293061119
-2.3009174 877.17242 1280.2384 4293126911
0 877.17242 1280.2384 4293257983
-9.1669722 884.88721 1280.2031 4292008959
-4.5834861 884.88721 1280.2031 4292600575
-2.291743 884.88721 1280.2031 4292863999
0 884.01117 1279.4645 4292929791
10.312843 884.01117 1279.4645 4293127423
-11.422018 890.33014 1279.5603 4291878911
11.422018 889.45691 1278.824 4293061887
13.706422 889.45691 1278.824 4292864767
-25.027523 898.84155 1280.1969 4292207615
-20.477064 899.7113 1280.9302 4294443007
-15.926605 899.7113 1280.9302 4293785081
-13.651376 899.7113 1280.9302 4292075519
-10.238532 899.7113 1280.9302 4292667135
-10.205505 905.09534 1280.2377 4292863231
-6.8036699 905.09534 1280.2377 4292862975
-4.53578 905.09534 1280.2377 4292666623
-10.172478 912.18506 1280.9835 4292533759
-6.7816515 912.18506 1280.9835 4292993023
-10.131193 919.70905 1280.7874 4285559976
-11.220183 923.29602 1278.5797 4284839856
11.220183 923.29602 1278.5797 4286080902
13.46422 923.29602 1278.5797 4286214280
-11.220183 925.0116 1280.0262 4285168056
-7.8541284 925.0116 1280.0262 4286214554
0 925.0116 1280.0262 4286083984
13.46422 925.0116 1280.0262 4286807191
-46.436699 758.474 1282.1813 4292732671
-43.992661 758.474 1282.1813 4292732671
4.8880734 758.474 1282.1813 4294967295
7.3321099 758.474 1282.1813 4294967295
-46.436699 760.34247 1283.7567 4292601599
-43.992661 760.34247 1283.7567 4292667391
7.3321099 760.34247 1283.7567 4294967295
9.7761469 760.34247 1283.7567 4294967295
-43.827522 764.95709 1281.1075 4292536319
-41.392662 764.95709 1281.1075 4292667903
-37.740364 764.95709 1281.1075 4292930815
-34.088074 764.95709 1281.1075 4292930815
-31.653212 764.95709 1281.1075 4293720319
-21.913761 764.95709 1281.1075 4294967295
-12.174312 764.95709 1281.1075 4293918719
-9.7394495 764.95709 1281.1075 4294967295
-7.3045874 764.95709 1281.1075 4294967295
-4.8697248 764.95709 1281.1075 4294967295
2.4348624 764.95709 1281.1075 4294967295
4.8697248 764.95709 1281.1075 4294967295
-46.262386 766.8186 1282.6771 4293389823
-43.827522 766.8186 1282.6771 4293126911
-41.392662 766.8186 1282.6771 4292995071
-37.740364 766.8186 1282.6771 4293061119
-34.088074 766.8186 1282.6771 4293193471
-7.3045874 766.8186 1282.6771 4294967295
4.8697248 766.8186 1282.6771 4294967295
12.174312 766.8186 1282.6771 4294967295
-43.629356 775.66467 1282.2877 4292206591
-41.205505 775.66467 1282.2877 4292601343
-37.569725 775.66467 1282.2877 4292995583
4.8477063 775.66467 1282.2877 4294967295
-49.688992 777.5177 1283.8501 4292338175
-46.053211 777.5177 1283.8501 4292601343
-43.629356 777.5177 1283.8501 4292600831
-49.500916 782.07483 1281.1523 4291943935
-45.878899 782.07483 1281.1523 4292141055
-43.464222 782.07483 1281.1523 4292075519
-38.634861 782.07483 1281.1523 4292864767
2.4146788 782.07483 1281.1523 4294967295
4.8293576 782.07483 1281.1523 4294967295
7.2440367 782.07483 1281.1523 4294967295
9.6587152 782.07483 1281.1523 4294967295
12.073395 782.07483 1281.1523 4294967295
-49.500916 783.9209 1282.709 4292140543
-45.878899 783.9209 1282.709 4292206335
-43.464222 783.9209 1282.709 4292206591
2.4146788 783.9209 1282.709 4294967295
4.8293576 783.9209 1282.709 4294967295
7.2440367 783.9209 1282.709 4294967295
-52.921101 790.2959 1281.5442 4291744767
-50.515594 790.2959 1281.5442 4292139519
-43.299084 790.2959 1281.5442 4292403967
-40.893578 790.2959 1281.5442 4292338175
-37.285324 790.2959 1281.5442 4292996095
-33.677063 790.2959 1281.5442 4293588479
-31.271559 790.2959 1281.5442 4294114815
-28.866055 790.2959 1281.5442 4293983231
2.4055047 790.2959 1281.5442 4294967295
4.8110094 790.2959 1281.5442 4294967295
7.2165136 790.2959 1281.5442 4294967295
9.6220188 790.2959 1281.5442 4294967295
12.027523 790.2959 1281.5442 4294967295
-55.326607 792.13495 1283.0947 4291547903
-52.921101 792.13495 1283.0947 4291152895
-49.312843 792.13495 1283.0947 4291679231
-45.704586 792.13495 1283.0947 4292271103
-43.299084 792.13495 1283.0947 4292140543
-40.893578 792.13495 1283.0947 4292403711
-37.285324 792.13495 1283.0947 4292404479
2.4055047 792.13495 1283.0947 4294967295
4.8110094 792.13495 1283.0947 4294967295
7.2165136 792.13495 1283.0947 4294967295
9.6220188 792.13495 1283.0947 4294967295
12.027523 792.13495 1283.0947 4294967295
-55.115597 798.47498 1281.9003 4291417343
-52.719265 799.39099 1282.6726 4291547903
-50.322937 799.39099 1282.6726 4291810815
-46.728439 800.30701 1283.4451 4292009471
-43.133945 799.39099 1282.6726 4292141311
-40.737614 799.39099 1282.6726 4292272895
-38.341286 798.47498 1281.9003 4292338943
-35.146175 799.08563 1282.4152 4292602111
-31.152294 798.47498 1281.9003 4293260287
-28.755962 798.47498 1281.9003 4293719551
-26.359632 799.39099 1282.6726 4294836223
-22.765137 799.39099 1282.6726 4294967295
-19.170643 799.39099 1282.6726 4294967295
-16.774311 799.39099 1282.6726 4294967295
-14.377981 799.39099 1282.6726 4294967295
-10.783486 798.47498 1281.9003 4294376956
2.3963304 798.47498 1281.9003 4294836223
4.7926607 798.47498 1281.9003 4294901759
7.1889906 798.47498 1281.9003 4294967295
-54.904587 806.61194 1282.2211 4291416319
-52.517429 806.61194 1282.2211 4291481855
-50.130276 806.61194 1282.2211 4291745279
-42.968807 806.61194 1282.2211 4292272895
-40.58165 806.61194 1282.2211 4292667647
-38.194496 806.61194 1282.2211 4292470527
-23.871559 806.61194 1282.2211 4294967295
2.387156 806.61194 1282.2211 4294574079
4.774312 806.61194 1282.2211 4294244863
7.161468 806.61194 1282.2211 4294179071
-54.904587 808.43701 1283.7599 4291547903
-52.517429 808.43701 1283.7599 4291613695
-50.130276 808.43701 1283.7599 4291745279
-46.549541 808.43701 1283.7599 4291877119
-42.968807 808.43701 1283.7599 4291877887
-40.58165 808.43701 1283.7599 4292141055
-34.507339 812.36346 1281.8385 4292404479
-30.937614 812.36346 1281.8385 4293127935
-28.557798 812.36346 1281.8385 4293391615
-26.177982 812.36346 1281.8385 4294770687
-23.798164 812.36346 1281.8385 4294967295
2.3798165 812.36346 1281.8385 4293851135
4.7596331 812.36346 1281.8385 4293982207
7.1394496 812.36346 1281.8385 4293982207
10.709174 812.36346 1281.8385 4294310655
14.278899 812.36346 1281.8385 4294113791
-38.077065 814.18286 1283.3726 4292272895
-34.507339 814.18286 1283.3726 4292535807
-28.557798 814.18286 1283.3726 4293457407
-26.177982 814.18286 1283.3726 4294836223
2.3798165 814.18286 1283.3726 4293720063
7.1394496 814.18286 1283.3726 4293982207
10.709174 814.18286 1283.3726 4293982207
14.278899 814.18286 1283.3726 4293784575
-34.374313 820.42749 1282.0977 4292536319
-30.818348 820.42749 1282.0977 4293062655
-28.447706 820.42749 1282.0977 4293392127
-26.077065 820.42749 1282.0977 4294443007
-22.521101 820.42749 1282.0977 4294967295
-18.965137 820.42749 1282.0977 4294967295
-16.594496 820.42749 1282.0977 4294967295
2.3706422 820.42749 1282.0977 4293851135
4.7412844 820.42749 1282.0977 4293982719
7.1119266 820.42749 1282.0977 4293982719
-37.930275 822.23987 1283.6259 4292009471
-34.374313 822.23987 1283.6259 4292470271
-30.818348 822.23987 1283.6259 4292996863
-28.447706 822.23987 1283.6259 4292997887
-26.077065 822.23987 1283.6259 4294180863
-22.521101 822.23987 1283.6259 4294967295
-18.965137 822.23987 1283.6259 4294967295
2.3706422 822.23987 1283.6259 4293456127
4.7412844 822.23987 1283.6259 4293587967
7.1119266 822.23987 1283.6259 4294048511
10.667891 822.23987 1283.6259 4293916927
-51.952293 828.44946 1282.3214 4291022847
-49.590824 830.25482 1283.8436 4291614207
-47.229359 830.25482 1283.8436 4291745535
-44.867889 830.25482 1283.8436 4291876863
-30.699083 830.25482 1283.8436 4293128703
-22.040367 829.65302 1283.3363 4294836223
-18.891743 829.35217 1283.0825 4294967295
-16.530275 829.35217 1283.0825 4294967295
-14.168807 829.35217 1283.0825 4294967295
-11.020184 829.05127 1282.8287 4293653752
2.3614678 829.35217 1283.0825 4293390335
4.7229357 829.35217 1283.0825 4293456127
7.0844035 829.35217 1283.0825 4293653503
10.626606 828.44946 1282.3214 4293784575
-51.750458 836.42932 1282.5096 4291088383
-21.170643 836.42932 1282.5096 4294967295
-18.818348 836.42932 1282.5096 4294967295
-16.466055 836.42932 1282.5096 4294967295
-14.113762 836.42932 1282.5096 4294836223
-10.585321 836.42932 1282.5096 4293456121
-2.3522935 836.42932 1282.5096 4293784575
0 836.42932 1282.5096 4293653759
4.704587 836.42932 1282.5096 4293653503
7.056881 836.42932 1282.5096 4293521919
10.585321 836.42932 1282.5096 4293259007
14.113762 836.42932 1282.5096 4293719551
-53.891743 842.57568 1281.1521 4290956799
-21.088074 842.57568 1281.1521 4294967295
-18.744955 842.57568 1281.1521 4294967295
-16.401834 842.57568 1281.1521 4294967295
-14.058716 842.57568 1281.1521 4294574079
-10.544037 842.57568 1281.1521 4293588218
-7.0293579 842.57568 1281.1521 4293719551
-4.6862388 842.57568 1281.1521 4293718783
-2.3431194 842.57568 1281.1521 4293718783
-25.774311 844.36707 1282.6625 4293983487
-23.431192 844.36707 1282.6625 4294508543
-4.6862388 844.36707 1282.6625 4293982719
-2.3431194 844.36707 1282.6625 4293982719
0 844.36707 1282.6625 4293718783
-35.036697 851.75842 1283.6626 4292009983
-31.14373 851.16315 1283.1606 4292601855
-28.029358 851.75842 1283.6626 4292930047
-25.693579 850.8656 1282.9097 4293587967
-22.189907 849.97272 1282.1569 4294573823
-18.686239 849.97272 1282.1569 4294967295
-16.350458 849.97272 1282.1569 4294967295
-14.014679 849.97272 1282.1569 4293918463
-10.511009 849.97272 1282.1569 4293128443
-7.0073395 849.97272 1282.1569 4293654015
-4.6715598 850.8656 1282.9097 4293521151
-2.3357799 850.8656 1282.9097 4293521407
0 851.75842 1283.6626 4293652735
-37.225689 857.83752 1282.248 4291812607
-34.899082 857.83752 1282.248 4291944191
-30.245872 857.83752 1282.248 4292601855
-25.592661 857.83752 1282.248 4293456895
-19.776146 857.83752 1282.248 4294967295
-16.286238 857.83752 1282.248 4294967295
-9.3064222 857.83752 1282.248 4293192959
-6.9798164 857.83752 1282.248 4293521919
-4.6532111 857.83752 1282.248 4293259263
-2.3266056 857.83752 1282.248 4293522175
-39.552292 859.61621 1283.7478 4291878143
-37.225689 859.61621 1283.7478 4291812607
-34.899082 859.61621 1283.7478 4291944191
-31.409174 859.61621 1283.7478 4292207615
-27.919266 859.61621 1283.7478 4292864767
-25.592661 859.61621 1283.7478 4293522943
-23.266054 859.61621 1283.7478 4293918207
-4.6532111 859.61621 1283.7478 4293456127
-2.3266056 859.61621 1283.7478 4293653503
0 859.61621 1283.7478 4293587711
-34.761467 865.66028 1282.304 4292338431
-31.285322 865.66028 1282.304 4292601855
-25.491743 865.66028 1282.304 4293523455
-16.222019 865.66028 1282.304 4294967295
-6.9522934 865.66028 1282.304 4293521919
-4.6348624 865.66028 1282.304 4293192959
-23.174313 867.43195 1283.7977 4293721343
-16.222019 867.43195 1283.7977 4294705151
-4.6348624 867.43195 1283.7977 4292798975
-2.3174312 867.43195 1283.7977 4293259519
0 867.43195 1283.7977 4293391103
-36.961468 872.06482 1282.4719 4291417599
-34.651375 872.06482 1282.4719 4292009983
-31.186239 872.06476 1282.4718 4292339199
-27.721102 872.06482 1282.4719 4292799743
-25.411009 872.06482 1282.4719 4293391615
-23.100918 872.06482 1282.4719 4293588991
-20.020796 871.77045 1282.2236 4294967295
-16.170643 872.06482 1282.4719 4294705150
-13.860551 871.18176 1281.7273 4292865023
-11.550459 871.18176 1281.7273 4292536063
-6.9302754 871.18176 1281.7273 4293258495
-4.6201835 871.18176 1281.7273 4293127423
-2.3100917 872.06482 1282.4719 4293193215
0 872.06482 1282.4719 4293390079
-34.51376 878.93152 1281.7216 4291943935
-32.212845 878.93152 1281.7216 4292075263
-28.761467 878.93152 1281.7216 4292339199
-25.310091 878.93152 1281.7216 4293195519
-23.009174 878.93152 1281.7216 4293720575
-19.557798 878.93152 1281.7216 4294967295
-16.106422 878.93152 1281.7216 4294179580
-13.805505 878.93152 1281.7216 4292798463
-10.354128 878.93152 1281.7216 4292403454
-6.9027524 878.93152 1281.7216 4292666623
-4.6018348 878.93152 1281.7216 4292666111
-2.3009174 878.93152 1281.7216 4292995071
0 878.93152 1281.7216 4292995071
11.504587 878.93152 1281.7216 4293127167
-50.620182 880.69055 1283.2048 4291087615
-36.814678 880.69055 1283.2048 4291615231
-34.51376 880.69055 1283.2048 4291944191
-32.212845 880.69055 1283.2048 4292140543
-28.761467 880.69055 1283.2048 4292667903
-25.310091 880.69055 1283.2048 4293260543
-23.009174 880.69055 1283.2048 4293589247
-19.557798 880.69055 1283.2048 4294967295
-16.106422 880.69055 1283.2048 4294047738
-13.805505 880.69055 1283.2048 4292339199
-10.354128 880.69055 1283.2048 4292075518
-6.9027524 880.69055 1283.2048 4292601599
-4.6018348 880.69055 1283.2048 4292731903
-2.3009174 880.69055 1283.2048 4292995071
2.3009174 880.69055 1283.2048 4293521663
6.9027524 880.69055 1283.2048 4293127167
9.2036695 880.69055 1283.2048 4293192959
-41.251377 886.63922 1281.6804 4291220735
-37.813759 886.63922 1281.6804 4291680767
-34.376148 886.63922 1281.6804 4292206847
-32.084404 886.63922 1281.6804 4292141311
-25.209175 886.63922 1281.6804 4292932095
-22.917431 886.63922 1281.6804 4293391615
-19.479816 886.63922 1281.6804 4294967295
-16.042202 886.63922 1281.6804 4293982717
-13.750459 886.63922 1281.6804 4291944703
-10.312843 886.63922 1281.6804 4291943935
-6.8752294 886.63922 1281.6804 4292403711
-4.5834861 886.63922 1281.6804 4292600831
-2.291743 886.63922 1281.6804 4292863999
0 886.63922 1281.6804 4293126911
9.1669722 886.63922 1281.6804 4293127423
-41.251377 888.3913 1283.1577 4291286527
-37.813759 888.3913 1283.1577 4291878143
-34.376148 888.3913 1283.1577 4292075263
-32.084404 888.3913 1283.1577 4291812095
-25.209175 888.3913 1283.1577 4292537343
-22.917431 888.3913 1283.1577 4292734463
-19.479816 888.3913 1283.1577 4294967295
-16.042202 888.3913 1283.1577 4293851128
-13.750459 888.3913 1283.1577 4291944703
-9.1669722 888.3913 1283.1577 4292140799
-6.8752294 888.3913 1283.1577 4292535551
-4.5834861 888.3913 1283.1577 4292666623
-2.291743 888.3913 1283.1577 4292930047
1.1458715 888.3913 1283.1577 4293259007
4.5834861 888.3913 1283.1577 4293325055
6.8752294 888.3913 1283.1577 4293193471
9.1669722 888.3913 1283.1577 4292798975
-36.550457 893.823 1282.5054 4291483391
-34.266056 893.823 1282.5054 4291878143
-31.981651 893.823 1282.5054 4291944447
-28.555046 893.823 1282.5054 4292010751
-25.128441 893.823 1282.5054 4292208383
-22.844036 893.823 1282.5054 4292799743
-19.417431 893.823 1282.5054 4294836223
-15.990826 893.823 1282.5054 4293719290
-13.706422 893.823 1282.5054 4292206847
-10.279816 892.94977 1281.769 4292272383
-6.8532109 892.07654 1281.0328 4292535551
-4.5688071 892.07654 1281.0328 4292731903
-34.266056 895.56946 1283.978 4292009215
-22.844036 895.56946 1283.978 4292733951
-19.417431 895.56946 1283.978 4294770687
-15.990826 895.56946 1283.978 4293719290
-13.706422 895.56946 1283.978 4292206847
-10.279816 895.56946 1283.978 4292732415
-6.8532109 895.56946 1283.978 4293126911
-25.027523 901.45068 1282.3969 4292076031
-22.752293 901.45068 1282.3969 4292667391
-19.339451 901.45068 1282.3969 4294901759
-15.926605 901.45068 1282.3969 4293784568
-13.651376 901.45068 1282.3969 4292141055
-10.238532 901.45068 1282.3969 4292601087
-6.8256879 901.45068 1282.3969 4292666111
-4.5504589 901.45068 1282.3969 4292469247
-2.2752295 901.45068 1282.3969 4292732415
-25.027523 903.19019 1283.8635 4291878655
-22.752293 903.19019 1283.8635 4292272895
-19.339451 903.19019 1283.8635 4294705151
-15.926605 903.19019 1283.8635 4293324017
-13.651376 903.19019 1283.8635 4292205567
-2.2752295 903.19019 1283.8635 4292798207
0 903.19019 1283.8635 4292601599
-24.946789 908.56293 1283.1615 4291746303
-22.6789 907.69604 1282.4305 4292009983
-19.655046 907.98505 1282.6742 4294443007
-15.875229 908.56293 1283.1615 4293521142
-13.60734 908.56293 1283.1615 4292271615
-10.205505 907.69604 1282.4305 4292731647
-6.8036699 907.69604 1282.4305 4292797183
-4.53578 907.69604 1282.4305 4292862207
-2.26789 908.56293 1283.1615 4292796159
-22.605505 913.91327 1282.4407 4291419903
-19.21468 913.91327 1282.4407 4294443007
-15.823853 913.91327 1282.4407 4288522675
-13.563303 913.91327 1282.4407 4286343603
-10.172478 913.91327 1282.4407 4287002554
-6.7816515 913.91327 1282.4407 4287201466
-4.521101 913.91327 1282.4407 4287529917
-2.2605505 913.91327 1282.4407 4287661246
0 913.91327 1282.4407 4287858878
-27.126606 915.64148 1283.8978 4291615231
-24.866055 915.64148 1283.8978 4291549439
-22.605505 915.64148 1283.8978 4291747071
-19.21468 915.64148 1283.8978 4294639615
-15.823853 915.64148 1283.8978 4288060838
-13.563303 915.64148 1283.8978 4281486756
-10.172478 915.64148 1283.8978 4284377254
-6.7816515 915.64148 1283.8978 4285952148
-4.521101 915.64148 1283.8978 4285753486
-2.2605505 915.64148 1283.8978 4285753486
0 915.64148 1283.8978 4285753738
-31.519266 923.15143 1283.6898 4291483391
-27.016514 923.15143 1283.6898 4292076543
-13.508257 923.15143 1283.6898 4284115112
-9.0055046 921.43024 1282.2385 4285952427
-6.7541285 921.43024 1282.2385 4285952427
-4.5027523 922.29083 1282.9641 4286214304
-2.2513762 922.29083 1282.9641 4286214304
0 921.43024 1282.2385 4285950870
6.7541285 923.15143 1283.6898 4286542490
9.7559633 922.5777 1283.2061 4286279059
-15.708257 926.72723 1281.4728 4287927220
-13.46422 926.72723 1281.4728 4285232052
-11.220183 926.72723 1281.4728 4286416070
-7.8541284 926.72723 1281.4728 4286940829
-2.2440367 926.72723 1281.4728 4287333288
0 926.72723 1281.4728 4287202718
8.9761467 926.72723 1281.4728 4287727532
11.220183 926.72723 1281.4728 4287595690
13.46422 926.72723 1281.4728 4287464090
-13.46422 928.44275 1282.9193 4286084527
-11.220183 928.44275 1282.9193 4286939836
11.220183 928.44275 1282.9193 4286346388
-49.06422 755.71381 1286.3942 4292798463
9.8128443 754.77606 1285.6035 4294967295
12.266055 754.77606 1285.6035 4294967295
-51.324772 764.07947 1286.9076 4292929791
-48.880733 763.1452 1286.1199 4292864511
-46.436699 762.21094 1285.3322 4292667903
7.3321099 763.1452 1286.1199 4294967295
9.7761469 763.1452 1286.1199 4294967295
-51.132111 770.5415 1285.8162 4292337407
-48.697247 770.5415 1285.8162 4292140031
-46.262386 769.61078 1285.0314 4292666111
-43.827522 768.68005 1284.2466 4292797695
-37.740364 768.68005 1284.2466 4292929279
7.3045874 768.68005 1284.2466 4294967295
9.7394495 768.68005 1284.2466 4294967295
-48.293579 785.76697 1284.2655 4291812095
-45.878899 785.76697 1284.2655 4292141055
2.4146788 785.76697 1284.2655 4294967295
4.8293576 785.76697 1284.2655 4294967295
7.2440367 785.76697 1284.2655 4294967295
-48.293579 787.61298 1285.822 4291877119
-45.878899 787.61298 1285.822 4292206335
-55.326607 793.974 1284.6454 4291613695
-52.921101 793.974 1284.6454 4291678719
-49.312843 793.974 1284.6454 4291942399
-45.704586 793.974 1284.6454 4292140543
-43.299084 793.974 1284.6454 4292140543
-37.285324 793.974 1284.6454 4292404479
-48.110092 795.81299 1286.196 4291877119
-45.704586 795.81299 1286.196 4292206079
-50.322937 802.13904 1284.9897 4291679743
-46.728439 803.05505 1285.7621 4291943679
-43.133945 802.13904 1284.9897 4292338943
-40.737614 802.13904 1284.9897 4292338943
-54.904587 811.17444 1286.0681 4291350527
-52.517429 811.17444 1286.0681 4291416063
-50.130276 811.17444 1286.0681 4291744767
-46.549538 811.1745 1286.0681 4291877375
-42.968807 811.17444 1286.0681 4291943679
-40.58165 811.17444 1286.0681 4292272895
-38.194496 810.26196 1285.2987 4292207103
-54.735779 816.00226 1284.9066 4291021567
-40.456882 816.91199 1285.6736 4292338175
-38.077065 816.91199 1285.6736 4292272895
-35.697247 816.00226 1284.9066 4292733439
7.1394496 816.00226 1284.9066 4293851135
10.709174 816.91199 1285.6736 4293850879
14.278899 816.91199 1285.6736 4293719039
-46.227524 824.05225 1285.1539 4291943423
-42.671558 824.05225 1285.1539 4292008959
-40.300919 824.05225 1285.1539 4292008959
-37.930275 824.05225 1285.1539 4291746815
-34.374313 824.05225 1285.1539 4292339199
-30.818348 824.05225 1285.1539 4292865791
-28.447706 824.05225 1285.1539 4292800511
-26.077065 824.05225 1285.1539 4294180863
-22.521101 824.05225 1285.1539 4294967295
7.1119266 824.05225 1285.1539 4293654015
10.667891 824.05225 1285.1539 4293653503
14.223853 824.05225 1285.1539 4293588479
-49.783485 825.86462 1286.6821 4291877887
-46.227524 825.86462 1286.6821 4292140543
-42.671558 825.86462 1286.6821 4292008959
-40.300919 825.86462 1286.6821 4291877119
-37.930275 825.86462 1286.6821 4291746815
-34.374313 825.86462 1286.6821 4292602111
-30.818348 825.86462 1286.6821 4293194239
-28.447706 825.86462 1286.6821 4293194751
-26.077065 825.86462 1286.6821 4294443007
-23.706423 825.86462 1286.6821 4294967295
-49.590824 832.96289 1286.1271 4291351551
-47.229359 832.96289 1286.1271 4291548159
-43.687157 832.96289 1286.1271 4291745535
-40.144955 832.96289 1286.1271 4292140543
-37.783485 832.96289 1286.1271 4291812095
-34.241287 832.96289 1286.1271 4292075263
-30.699083 832.96289 1286.1271 4293062399
-28.337614 832.96289 1286.1271 4293260031
-25.976147 832.96289 1286.1271 4293983743
-22.827522 832.66193 1285.8734 4294574079
-18.891743 832.06018 1285.366 4294967295
2.3614678 832.96289 1286.1271 4293522175
-51.750458 838.22766 1284.026 4291022591
-22.34679 838.22766 1284.026 4294705151
-18.818348 838.22766 1284.026 4294967295
-14.113762 838.22766 1284.026 4294639615
1.1761467 838.22766 1284.026 4293390335
4.704587 838.22766 1284.026 4293390335
7.056881 838.22766 1284.026 4293259007
10.585321 838.22766 1284.026 4293456127
-51.750458 840.026 1285.5424 4290890751
-28.227524 840.026 1285.5424 4292798975
-25.875229 840.026 1285.5424 4293917439
-23.522936 840.026 1285.5424 4294574079
0 840.026 1285.5424 4293258751
4.704587 840.026 1285.5424 4293390079
7.056881 840.026 1285.5424 4293390079
10.585321 840.026 1285.5424 4293521919
-58.57798 847.94971 1285.6833 4290430967
-56.234863 847.05408 1284.9281 4290627071
-49.205505 847.94971 1285.6833 4291285247
-39.833027 847.94971 1285.6833 4291877887
-37.48991 847.94971 1285.6833 4291746303
-35.14679 847.05408 1284.9281 4292140287
-32.022629 846.75555 1284.6764 4292206847
-28.117432 847.05408 1284.9281 4292996351
-25.774311 846.15839 1284.1729 4293851647
-2.3431194 846.15839 1284.1729 4293587967
0 847.05408 1284.9281 4293521919
-58.394497 853.54419 1285.1682 4290692607
-56.058716 853.54419 1285.1682 4290496255
-46.715595 853.54419 1285.1682 4291549183
-42.044037 853.54419 1285.1682 4291549439
-39.708256 853.54419 1285.1682 4291812607
-37.372478 853.54419 1285.1682 4291812607
-35.036697 853.54419 1285.1682 4292075775
-31.533028 853.54419 1285.1682 4292404479
-28.029358 853.54419 1285.1682 4292798975
-25.693579 853.54419 1285.1682 4293522943
-23.357798 853.54419 1285.1682 4294049279
-2.3357799 853.54419 1285.1682 4293587711
0 853.54419 1285.1682 4293587967
-51.387157 855.3299 1286.6738 4290825983
-49.051376 855.3299 1286.6738 4291220735
-46.715595 855.3299 1286.6738 4291023103
-43.211929 855.3299 1286.6738 4291088639
-39.708256 855.3299 1286.6738 4291812095
-32.700916 855.3299 1286.6738 4292141311
-28.029358 855.3299 1286.6738 4292601599
-23.357798 855.3299 1286.6738 4293852415
0 855.3299 1286.6738 4293588479
-48.858715 862.28424 1285.9976 4291286527
-46.532108 862.28424 1285.9976 4291220223
-44.205505 862.28424 1285.9976 4291417855
-40.715595 862.2843 1285.9976 4291614719
-37.225689 863.17358 1286.7474 4292009215
-27.919266 862.28424 1285.9976 4292997119
-25.592661 861.3949 1285.2476 4293523455
-23.266054 862.28424 1285.9976 4293852671
-4.6532111 861.3949 1285.2476 4292930815
-2.3266056 862.28424 1285.9976 4293259263
0 862.28424 1285.9976 4293258751
2.3174312 869.20361 1285.2916 4293850879
4.6348624 869.20361 1285.2916 4293652223
-50.983486 870.97534 1286.7854 4291023103
-40.555046 870.97534 1286.7854 4291285759
2.3174312 870.97534 1286.7854 4293850111
4.6348624 870.97534 1286.7854 4293784063
6.9522934 870.97534 1286.7854 4293718015
9.2697248 870.97534 1286.7854 4293390079
-36.961468 874.71393 1284.7056 4291549439
-34.651375 874.71393 1284.7056 4292207103
-30.031193 874.71393 1284.7056 4292338687
-40.426605 876.47998 1286.1947 4291154175
-36.961468 876.47998 1286.1947 4291417599
2.3100917 876.47998 1286.1947 4293389823
4.6201835 876.47998 1286.1947 4293192959
6.9302754 876.47998 1286.1947 4293258751
9.2403669 876.47998 1286.1947 4293258751
-49.85321 883.62238 1285.6768 4290167039
-46.018349 883.32922 1285.4296 4290692863
-43.71743 883.32922 1285.4296 4291350783
-40.266056 882.44965 1284.688 4291154431
-36.814678 882.44965 1284.688 4291746559
-34.51376 882.44965 1284.688 4292075775
-32.212845 882.44965 1284.688 4292337919
-28.761467 883.32922 1285.4296 4292273407
-25.310091 882.44965 1284.688 4292866303
-23.009174 882.44965 1284.688 4293195263
-19.557798 882.44965 1284.688 4294967295
-16.106422 882.44965 1284.688 4293982717
-13.805505 882.44965 1284.688 4292207359
-11.504587 882.44965 1284.688 4292075519
-6.9027524 882.44965 1284.688 4292469503
2.3009174 883.32922 1285.4296 4293456127
4.6018348 883.32922 1285.4296 4292930047
6.9027524 883.32922 1285.4296 4293193215
-45.834862 890.14331 1284.635 4290561791
-43.543118 890.14331 1284.635 4291482879
-41.251377 890.14331 1284.635 4291549183
-37.813759 890.14331 1284.635 4291877887
-34.376148 890.14331 1284.635 4292075263
-32.084404 890.14331 1284.635 4291877887
-28.64679 890.14331 1284.635 4292207359
-25.209175 890.14331 1284.635 4292799743
-22.917431 890.14331 1284.635 4292997119
-19.479816 890.14331 1284.635 4294967295
-16.042202 890.14331 1284.635 4293653495
-13.750459 890.14331 1284.635 4292075519
-2.291743 890.14331 1284.635 4293060863
1.1458715 890.14331 1284.635 4293193215
4.5834861 890.14331 1284.635 4293062399
6.8752294 890.14331 1284.635 4293062399
10.312843 890.14331 1284.635 4293193215
-45.834862 891.89539 1286.1123 4290890495
-43.543118 891.89539 1286.1123 4291416831
-41.251377 891.89539 1286.1123 4291285503
-38.959633 891.89539 1286.1123 4291548927
-6.8752294 891.89539 1286.1123 4292732415
-4.5834861 891.89539 1286.1123 4292666623
-2.291743 891.89539 1286.1123 4292864255
1.1458715 891.89539 1286.1123 4292930815
4.5834861 891.89539 1286.1123 4293128703
6.8752294 891.89539 1286.1123 4292997119
10.312843 891.89539 1286.1123 4293126911
-36.550457 897.31592 1285.4506 4291614463
-34.266056 898.18909 1286.1868 4291812095
-31.981651 898.18909 1286.1868 4291812351
-28.555046 898.18909 1286.1868 4291681023
-22.844036 897.31592 1285.4506 4292406015
-18.275229 897.31592 1285.4506 4294967295
-6.8532109 897.31592 1285.4506 4292797951
-4.5688071 897.31592 1285.4506 4292469247
-2.2844036 897.31592 1285.4506 4292732415
0.76146787 898.48016 1286.4323 4292732415
4.5688071 898.18909 1286.1868 4292271359
6.8532109 898.18909 1286.1868 4292402943
-54.605503 904.92957 1285.3301 4288786165
-52.330276 904.92957 1285.3301 4290694143
-47.779816 904.92957 1285.3301 4291878143
-27.302752 904.92957 1285.3301 4291746815
-25.027523 904.92957 1285.3301 4291944447
-18.201836 904.92957 1285.3301 4294967295
-15.926605 904.92957 1285.3301 4293192433
-13.651376 904.92957 1285.3301 4292271103
-2.2752295 904.92957 1285.3301 4293191679
0 904.92957 1285.3301 4293060351
-52.330276 906.66901 1286.7968 4290562303
-47.779816 906.66901 1286.7968 4291023103
-43.229359 906.66901 1286.7968 4291483391
-40.954128 906.66901 1286.7968 4291549183
-37.541283 906.66901 1286.7968 4291746047
-34.128441 906.66901 1286.7968 4292008703
-31.85321 906.66901 1286.7968 4291417087
-28.440367 906.66901 1286.7968 4291812095
1.1376147 906.66901 1286.7968 4292730623
4.5504589 906.66901 1286.7968 4292467967
6.8256879 906.66901 1286.7968 4292731135
-34.018349 910.29675 1284.6234 4292207103
-31.750458 910.29675 1284.6234 4291812095
-28.348625 910.29675 1284.6234 4291746559
-24.946789 910.29675 1284.6234 4291483647
-22.6789 910.29675 1284.6234 4291878655
-19.277065 910.29675 1284.6234 4294836223
-15.875229 910.29675 1284.6234 4293061363
-13.60734 910.29675 1284.6234 4291942911
-4.53578 910.29675 1284.6234 4292927231
-2.26789 910.29675 1284.6234 4292861439
0 910.29675 1284.6234 4292992767
-43.089909 912.03064 1286.0853 4291352575
-40.822018 912.03064 1286.0853 4291418879
-37.420181 912.03064 1286.0853 4291220991
-34.018349 912.03064 1286.0853 4291549439
-31.750458 912.03064 1286.0853 4291877887
-28.348625 912.03064 1286.0853 4291680767
-24.946789 912.03064 1286.0853 4291483647
2.26789 912.03064 1286.0853 4287924671
4.53578 912.03064 1286.0853 4288252854
6.8036699 912.03064 1286.0853 4288318647
-31.647707 917.36969 1285.355 4291483391
-28.256882 917.36969 1285.355 4291943679
-24.866055 917.36969 1285.355 4291812095
-22.605505 917.36969 1285.355 4291682559
-19.21468 917.36969 1285.355 4294574079
-15.823853 917.36969 1285.355 4288192167
-13.563303 917.36969 1285.355 4283523485
-6.7816515 917.36969 1285.355 4286083484
-4.521101 917.36969 1285.355 4286344603
-2.2605505 917.36969 1285.355 4286213274
0 917.36969 1285.355 4285950349
10.172478 917.36969 1285.355 4285949321
13.563303 917.36969 1285.355 4285950601
-40.689907 919.0979 1286.8123 4291154431
-37.299084 919.0979 1286.8123 4291614719
-33.908257 919.0979 1286.8123 4291548671
-31.647707 919.0979 1286.8123 4291417599
-28.256882 919.0979 1286.8123 4292141567
-24.866055 919.0979 1286.8123 4292273407
-22.605505 919.0979 1286.8123 4292601599
-19.21468 919.0979 1286.8123 4294967295
-15.823853 919.0979 1286.8123 4287730594
-13.563303 919.0979 1286.8123 4283523997
2.2605505 919.0979 1286.8123 4286082199
4.521101 919.0979 1286.8123 4286147483
6.7816515 919.0979 1286.8123 4286015640
-47.2789 926.59381 1286.5924 4291482108
-42.776146 926.59381 1286.5924 4291351551
-40.524769 925.73322 1285.8667 4291416575
-37.522934 926.02008 1286.1086 4291152891
-33.770641 926.59381 1286.5924 4291679231
-31.519266 925.73322 1285.8667 4292272383
-27.766973 926.02008 1286.1085 4291812350
-24.765137 925.73322 1285.8667 4292075519
-22.513762 925.73322 1285.8667 4292665855
-18.761467 926.02008 1286.1085 4293783551
-15.759633 926.59381 1286.5924 4287336118
-9.0055046 926.59381 1286.5924 4287400094
-6.7541285 926.59381 1286.5924 4287597729
-4.5027523 925.73322 1285.8667 4287333798
-2.2513762 926.59381 1286.5924 4287070879
1.1256881 925.73322 1285.8667 4287334818
4.5027523 925.73322 1285.8667 4287071130
6.7541285 925.73322 1285.8667 4287136923
9.0055046 926.59381 1286.5924 4286741146
-38.148624 930.15839 1284.3658 4290167039
-11.220183 930.15839 1284.3658 4286216379
11.220183 930.15839 1284.3658 4286277504
-51.517429 757.58936 1287.9755 4292667903
-49.06422 757.58936 1287.9755 4292667391
12.266055 757.58936 1287.9755 4294967295
-51.517429 759.46484 1289.5569 4292667647
12.266055 759.46484 1289.5569 4294967295
-51.324772 765.94794 1288.4832 4292534015
-48.880733 765.94794 1288.4832 4292271103
-51.132111 772.40302 1287.3857 4292141055
-48.697247 772.40302 1287.3857 4292141055
-46.262386 772.40302 1287.3857 4292272895
-52.517429 814.82446 1289.1456 4291086847
-50.130276 814.82446 1289.1456 4291678975
-46.549541 814.82446 1289.1456 4291942399
-42.968807 814.82446 1289.1456 4292075007
-52.355965 821.46045 1289.5088 4290891007
-49.976147 821.46045 1289.5088 4291746303
-46.406422 819.64099 1287.9747 4291942911
-42.836697 819.64099 1287.9747 4292008959
-40.456882 819.64099 1287.9747 4292206335
14.278899 819.64099 1287.9747 4293851135
-42.671558 827.677 1288.2102 4291548415
-40.300919 827.677 1288.2102 4291811839
-37.930275 827.677 1288.2102 4291549439
-34.374313 827.677 1288.2102 4292141823
-28.447706 827.677 1288.2102 4293391615
-26.077065 827.677 1288.2102 4294246399
-49.590824 835.6709 1288.4104 4291417343
-47.229359 835.6709 1288.4104 4291548415
-43.687157 835.6709 1288.4104 4291943167
-40.144955 835.6709 1288.4104 4292074495
-37.783485 835.6709 1288.4104 4291942911
-34.241287 835.6709 1288.4104 4292140799
-30.699083 835.6709 1288.4104 4293259007
-28.337614 835.6709 1288.4104 4293325055
-25.976147 835.6709 1288.4104 4294180351
-49.590824 837.47626 1289.9326 4291417087
-47.229359 837.47626 1289.9326 4291548415
-43.687157 837.47626 1289.9326 4291548671
-40.144955 837.47626 1289.9326 4291877631
-37.783485 837.47626 1289.9326 4292008959
-34.241287 837.47626 1289.9326 4292206079
-30.699083 837.47626 1289.9326 4292863743
2.3614678 837.47626 1289.9326 4293258751
-54.102753 841.82434 1287.0586 4291087615
-51.750458 841.82434 1287.0586 4291022591
-49.398167 841.82434 1287.0586 4291417343
-47.045872 841.82434 1287.0586 4291614207
-44.693577 841.82434 1287.0586 4291746047
-37.636696 841.82434 1287.0586 4292139775
-35.284405 841.82434 1287.0586 4292863487
-31.755962 841.82434 1287.0586 4292535551
-28.227524 841.82434 1287.0586 4292864767
2.3522935 841.82434 1287.0586 4293718783
4.704587 841.82434 1287.0586 4293587967
7.056881 841.82434 1287.0586 4293653759
9.409174 841.82434 1287.0586 4293587711
-54.102753 843.62268 1288.575 4290956287
-51.750458 843.62268 1288.575 4291087359
-49.398167 843.62268 1288.575 4291547903
-47.045872 843.62268 1288.575 4291417087
-43.517433 843.62268 1288.575 4291679743
-39.988991 843.62268 1288.575 4291876863
-37.636696 843.62268 1288.575 4291876607
2.3522935 843.62268 1288.575 4293587711
4.704587 843.62268 1288.575 4293588479
7.056881 843.62268 1288.575 4293588479
9.409174 843.62268 1288.575 4293522431
-58.57798 849.74103 1287.1937 4290497023
-56.234863 849.74103 1287.1937 4290627071
-52.720181 850.63666 1287.949 4290759679
-49.205505 850.63672 1287.949 4291417599
-46.862385 849.74103 1287.1937 4291417343
-43.738224 850.33813 1287.6973 4291549439
-39.833027 849.74103 1287.1937 4291812607
-37.48991 849.74103 1287.1937 4291615231
-23.431192 849.74103 1287.1937 4294114559
2.3431194 850.63672 1287.949 4293587455
4.6862388 850.63672 1287.949 4293258751
7.0293579 850.63672 1287.949 4293521919
9.3724775 850.63672 1287.949 4293521919
-56.058716 857.1156 1288.1796 4290233599
-52.555046 857.1156 1288.1796 4291023103
-49.051376 857.1156 1288.1796 4291483647
-46.715595 857.1156 1288.1796 4291285759
-43.211929 857.1156 1288.1796 4291483391
2.3357799 857.1156 1288.1796 4293653503
4.6715598 857.1156 1288.1796 4293587967
-58.394497 858.90131 1289.6852 4290430463
-56.058716 858.90131 1289.6852 4289904895
-52.555046 858.90131 1289.6852 4290957567
2.3357799 858.90131 1289.6852 4293390079
4.6715598 858.90131 1289.6852 4293258751
-51.960857 865.54523 1288.7471 4290759935
-48.858715 865.84167 1288.9971 4291220479
-46.532108 865.84167 1288.9971 4291417599
-44.205505 865.84167 1288.9971 4291483391
-40.715595 865.84167 1288.9971 4291548415
-37.225689 864.95233 1288.2472 4291746559
2.3266056 864.95233 1288.2472 4293391103
4.6532111 864.95233 1288.2472 4293061119
6.9798164 866.73102 1289.7469 4293586431
-48.666054 872.74707 1288.2793 4291418111
-46.348625 872.74707 1288.2793 4291548415
-44.031193 872.74707 1288.2793 4291417087
-40.555046 872.74707 1288.2793 4291417087
2.3174312 872.74707 1288.2793 4293521151
4.6348624 872.74707 1288.2793 4293652223
6.9522934 872.74707 1288.2793 4293784063
9.2697248 872.74707 1288.2793 4293390079
-48.666054 874.51874 1289.7732 4291154175
-46.348625 874.51874 1289.7732 4291088383
-44.031193 874.51874 1289.7732 4291154175
-48.511925 878.24609 1287.6838 4291350783
-46.201836 878.24609 1287.6838 4291285759
-43.891743 878.24609 1287.6838 4291483391
-40.426605 878.24609 1287.6838 4291154431
4.6201835 878.24609 1287.6838 4293127167
-48.511925 880.01221 1289.173 4290495999
-52.921101 886.84729 1288.396 4290298620
-49.469727 886.84729 1288.396 4290298366
-46.018349 885.96777 1287.6544 4290036735
-43.71743 885.96777 1287.6544 4291023615
-28.761467 885.96777 1287.6544 4292076031
-55.001835 893.64746 1287.5896 4289707003
-49.272476 893.64746 1287.5896 4290627583
-45.834862 893.64746 1287.5896 4291285503
-43.543118 893.64746 1287.5896 4291679999
-41.251377 893.64746 1287.5896 4291746047
-37.813759 893.64746 1287.5896 4292009215
-32.084404 893.64746 1287.5896 4292075263
-28.64679 893.64746 1287.5896 4292009727
-4.5834861 893.64746 1287.5896 4292797951
-2.291743 893.64746 1287.5896 4293060863
1.1458715 893.64746 1287.5896 4293061631
4.5834861 893.64746 1287.5896 4293193471
6.8752294 893.64746 1287.5896 4293325055
10.312843 893.64746 1287.5896 4293323775
-55.001835 895.39954 1289.0669 4289048056
-52.710091 895.39954 1289.0669 4290166783
-49.272476 895.39954 1289.0669 4290890239
-45.834862 895.39954 1289.0669 4291483391
-43.543118 895.39954 1289.0669 4291614975
-41.251377 895.39954 1289.0669 4291877119
-38.959633 895.39954 1289.0669 4291877119
2.291743 895.39954 1289.0669 4292732415
10.312843 895.39954 1289.0669 4292796415
-45.688072 902.55524 1289.8682 4292009215
-43.403671 902.55524 1289.8682 4292009215
-41.119267 902.55524 1289.8682 4292009471
-37.311924 901.97308 1289.3773 4291746559
-34.266056 901.68201 1289.1318 4291680767
-31.981651 901.68201 1289.1318 4291681279
-28.935781 901.39093 1288.8865 4291549695
2.2844036 901.68201 1289.1318 4292929535
4.5688071 901.68201 1289.1318 4292403199
6.8532109 901.68201 1289.1318 4292205823
-47.779816 908.40845 1288.2634 4290957311
-43.229359 908.40845 1288.2634 4291352575
-40.954128 908.40845 1288.2634 4291483903
-37.541283 908.40845 1288.2634 4291483647
2.2752295 908.40845 1288.2634 4292992767
4.5504589 908.40845 1288.2634 4292993019
6.8256879 908.40845 1288.2634 4293190142
-46.6422 910.14789 1289.7301 4290826239
10.238532 910.14789 1289.7301 4288645561
13.651376 910.14789 1289.7301 4288383929
-47.625687 913.7644 1287.5472 4291022335
-43.089909 913.7644 1287.5472 4291417599
-40.822018 913.7644 1287.5472 4291418111
-37.420181 913.7644 1287.5472 4291549439
-34.018349 913.7644 1287.5472 4291549183
-31.750458 913.7644 1287.5472 4291483391
-29.482569 913.7644 1287.5472 4291746559
2.26789 913.7644 1287.5472 4285687945
4.53578 913.7644 1287.5472 4285753227
6.8036699 913.7644 1287.5472 4285884556
10.205505 913.7644 1287.5472 4286213008
13.60734 913.7644 1287.5472 4286015883
-46.491745 915.49823 1289.0092 4290759423
-43.089909 915.49823 1289.0092 4291022591
-40.822018 915.49823 1289.0092 4290957311
-37.420181 915.49823 1289.0092 4291549183
-34.018349 915.49823 1289.0092 4291549183
2.26789 915.49823 1289.0092 4285950349
4.53578 915.49823 1289.0092 4285752977
6.8036699 915.49823 1289.0092 4285686928
-47.471561 920.82611 1288.2694 4291021567
-42.950459 920.82611 1288.2694 4291350527
-40.689907 920.82611 1288.2694 4291219455
-37.299084 920.82611 1288.2694 4291416575
-33.908257 920.82611 1288.2694 4291876607
-29.387156 920.82611 1288.2694 4292207103
-24.866055 920.82611 1288.2694 4292208383
-22.605505 920.82611 1288.2694 4292667903
-19.21468 920.82611 1288.2694 4294245631
-15.823853 920.82611 1288.2694 4287272110
2.2605505 920.82611 1288.2694 4286215826
4.521101 920.82611 1288.2694 4286608284
-46.341286 922.55432 1289.7266 4290889978
-42.950459 922.55432 1289.7266 4291219455
-36.168808 922.55432 1289.7266 4291613439
-33.908257 922.55432 1289.7266 4292600575
-29.387156 922.55432 1289.7266 4292798463
-20.344954 922.55432 1289.7266 4294901759
-47.2789 928.315 1288.0437 4292008447
-42.776146 928.315 1288.0437 4292468223
-40.524769 928.315 1288.0437 4290890495
-36.022018 928.315 1288.0437 4289971165
-33.770641 928.315 1288.0437 4290826474
-31.519266 928.315 1288.0437 4291220708
-28.1422 928.315 1288.0437 4292075510
-24.765137 928.315 1288.0437 4292469759
-22.513762 928.315 1288.0437 4293061119
-19.136696 928.315 1288.0437 4293192447
-15.759633 928.315 1288.0437 4286349482
-13.508257 928.315 1288.0437 4284768932
-9.0055046 928.315 1288.0437 4286610319
-6.7541285 928.315 1288.0437 4286807441
-4.5027523 928.315 1288.0437 4286544776
-2.2513762 928.315 1288.0437 4286413189
0 928.315 1288.0437 4286412438
6.7541285 928.315 1288.0437 4286081924
9.0055046 928.315 1288.0437 4286343297
-46.153214 930.03619 1289.4949 4292665855
-42.776146 930.03619 1289.4949 4292665855
-40.524769 930.03619 1289.4949 4290235135
-37.147705 930.03619 1289.4949 4288261592
-31.519266 930.03619 1289.4949 4291811310
-28.1422 930.03619 1289.4949 4294048255
-24.765137 930.03619 1289.4949 4294508543
-22.513762 930.03619 1289.4949 4294705151
-19.136696 930.03619 1289.4949 4293127423
-15.759633 930.03619 1289.4949 4285035423
-13.508257 930.03619 1289.4949 4283915146
-10.131193 930.03619 1289.4949 4285622932
-6.7541285 930.03619 1289.4949 4286014857
-4.5027523 930.03619 1289.4949 4285687682
-2.2513762 930.03619 1289.4949 4285687682
0 930.03619 1289.4949 4285751939
10.131193 930.03619 1289.4949 4285749625
13.508257 930.03619 1289.4949 4286144121
-52.517429 817.56201 1291.4539 4291021567
-50.130276 817.56201 1291.4539 4291942655
-42.50642 839.28162 1291.4548 4291744767
-40.144955 839.28162 1291.4548 4292139519
-54.102753 845.42102 1290.0913 4290890239
-51.750458 845.42102 1290.0913 4290824703
-47.045872 845.42102 1290.0913 4291351551
-43.517433 845.42102 1290.0913 4291812095
2.3522935 845.42102 1290.0913 4293521919
4.704587 845.42102 1290.0913 4293521919
7.056881 845.42102 1290.0913 4293653503
9.409174 845.42102 1290.0913 4293653759
-58.57798 853.32373 1290.2145 4290692351
-56.234863 853.32373 1290.2145 4290365439
-53.891743 853.32373 1290.2145 4290825983
2.3431194 853.32373 1290.2145 4293522431
4.6862388 853.32373 1290.2145 4293653503
7.0293579 853.32373 1290.2145 4293587711
9.3724775 853.32373 1290.2145 4293390079
-52.555046 860.68701 1291.1909 4291023103
2.3357799 860.68701 1291.1909 4293521919
4.6715598 860.68701 1291.1909 4293258751
7.0073395 860.68701 1291.1909 4293719295
7.0073395 862.47278 1292.6965 4293258495
-48.858715 868.50977 1291.2467 4291417855
-46.532108 868.50977 1291.2467 4291483391
-44.205505 868.50977 1291.2467 4291417599
-55.222019 889.48596 1290.6208 4289707005
-52.921101 889.48596 1290.6208 4290101759
-49.469727 889.48596 1290.6208 4290561791
-52.921101 891.245 1292.104 4290167551
-55.001835 897.15161 1290.5442 4288785402
-52.710091 897.15161 1290.5442 4290167039
-48.890518 897.7356 1291.0366 4291219710
-45.834862 898.02759 1291.2828 4291482623
-43.543118 898.02759 1291.2828 4291680511
-41.251377 898.02759 1291.2828 4291483135
-38.195721 897.7356 1291.0366 4291548927
10.312843 898.02759 1291.2828 4292336639
-45.688072 904.3017 1291.3408 4291022847
9.1376143 904.3017 1291.3408 4292666111
-50.256882 906.04816 1292.8134 4290496767
-45.688072 906.04816 1292.8134 4290826239
10.279816 906.04816 1292.8134 4292927224
-52.330276 911.88733 1291.1967 4290364919
-50.055046 911.88733 1291.1967 4290430207
-45.504585 911.88733 1291.1967 4291022847
-52.330276 913.62671 1292.6633 4290167543
-50.055046 913.62671 1292.6633 4290495999
-52.161469 917.23206 1290.4711 4290298361
-49.893578 917.23206 1290.4711 4290692863
-46.491745 917.23206 1290.4711 4291351039
-43.089909 917.23206 1290.4711 4291153919
-52.161469 918.96588 1291.933 4290888956
-49.893578 918.96588 1291.933 4290758397
-45.3578 918.96588 1291.933 4291021567
-51.992661 924.28253 1291.1837 4291348984
-49.732109 925.14661 1291.9124 4291547901
-45.21101 925.14661 1291.9124 4291811327
2.2605505 925.14661 1291.9124 4286545049
4.521101 926.01074 1292.6409 4286016131
-47.2789 931.75739 1290.9462 4293058815
-42.776146 931.75739 1290.9462 4291612141
-40.524769 931.75739 1290.9462 4290561506
-38.273396 931.75739 1290.9462 4288653509
