# .PCD v0.7 - Point Cloud Data file format
VERSION 0.7
FIELDS x y z rgb
SIZE 4 4 4 4
TYPE F F F U
COUNT 1 1 1 1
WIDTH 1169
HEIGHT 1
VIEWPOINT 0 0 0 1 0 0 0
POINTS 1169
DATA ascii
24.825687 844.01178 791.85168 4294967295
10.733945 846.71497 791.51489 4294967295
14.020184 847.43396 790.81305 4294967295
16.477064 848.15289 790.11121 4294967295
18.948624 848.15289 790.11121 4294967295
22.269726 847.43396 790.81305 4294967295
14.005505 849.41254 791.17334 4294967295
16.477064 849.41254 791.17334 4294967295
18.948624 849.41254 791.17334 4294967295
22.244038 849.41254 791.17334 4294967295
11.495413 854.07617 791.18152 4294967295
13.958715 853.44843 790.65222 4294967295
16.422018 852.82068 790.12292 4294967295
18.885323 852.82068 790.12292 4294967295
22.169724 853.44843 790.65222 4294967295
24.633028 854.07617 791.18152 4294967295
11.469725 856.75836 790.82703 4294967295
14.200611 856.34082 790.47491 4294967295
16.385321 856.13202 790.29889 4294967295
18.843121 856.13202 790.29889 4294967295
21.300917 856.13202 790.29889 4294967295
11.469725 858.01105 791.8833 4294967295
14.189603 858.90228 791.7627 4294967295
16.893578 860.26825 791.17035 4294967295
19.10153 858.90228 791.7627 4294967295
22.120182 858.01105 791.8833 4294967295
14.66422 865.30774 791.49548 4294967295
17.108257 865.30774 791.49548 4294967295
19.552294 865.30774 791.49548 4294967295
21.181652 865.30774 791.49548 4294967295
17.069725 867.96606 791.12085 4294967295
19.508257 867.96606 791.12085 4294967295
14.598166 871.85883 791.78699 4294967295
17.031193 871.23877 791.26428 4294967295
19.46422 871.23877 791.26422 4294967295
21.086239 871.85883 791.78699 4294967295
19.398165 875.20526 790.68457 4294967295
16.973394 876.4411 791.72656 4294967295
19.398165 876.4411 791.72656 4294967295
21.014679 876.4411 791.72656 4294967295
16.915598 880.39008 791.1322 4294967295
19.877064 879.9519 791.19873 4294967295
14.482569 882.93469 791.96973 4294967295
16.876148 883.63123 791.24896 4294967295
20.092659 883.63123 791.24896 4294967295
22.52844 882.93469 791.96973 4294967295
16.8578 885.55511 791.56311 4294967295
20.068806 885.55511 791.56311 4294967295
17.6 890.08691 791.46008 4294967295
20 890.08691 791.46008 4294967295
-3.5339448 752.78931 794.7251 4294967295
-1.7669724 752.78931 794.7251 4294967295
0.58899081 750.9881 793.20636 4294967295
3.5339448 750.08752 792.44702 4294967295
28.271559 751.43842 793.58612 4294967295
30.038532 752.78931 794.7251 4294967295
0.88073397 755.09766 792.74731 4294967295
-3.5229359 756.44434 793.88281 4294967295
-1.7614679 756.44434 793.88281 4294310648
28.183487 756.44434 793.88281 4294967295
-4.0972476 760.98584 793.78809 4294967295
-1.7559633 760.09094 793.03345 4294836223
28.095413 761.43335 794.16541 4294967295
-1.7522936 763.63367 793.40454 4294967295
1.7522936 762.96387 792.83972 4279045389
-1.746789 767.93054 793.10339 4294967295
1.746789 767.93054 793.10339 4294967295
27.948624 767.93054 793.10339 4294967295
-3.493578 769.26593 794.22937 4294967295
-1.7431192 770.78809 792.89673 4294967295
0.87339449 770.02698 793.56305 4294967295
4.3577981 770.78809 792.89673 4286743170
29.695414 769.26593 794.22937 4294967295
-1.7431192 772.12073 794.02039 4294967295
0.87155962 772.12073 794.02039 4294967295
3.4862385 772.12073 794.02039 4294967295
29.633028 772.12073 794.02039 4294967295
0 775.72803 793.13794 4294967295
4.3440366 775.06384 792.57788 4291019715
29.53945 775.72803 793.13794 4294967295
-1.7376146 777.05646 794.25806 4294967295
0.86880732 778.19171 793.25323 4294967295
3.4642203 779.32697 792.24841 4294967295
28.626606 778.19171 793.25323 4294967295
-1.7321101 781.9754 794.48145 4294967295
0.86605507 780.65118 793.36499 4294967295
4.3211012 782.16205 792.02271 4294967295
7.7779818 782.16205 792.02271 4291019971
10.370643 782.16205 792.02271 4278194048
25.926605 782.16205 792.02271 4294967295
28.84893 781.59619 793.28973 4294967295
-1.7284404 784.80487 794.2511 4294967295
1.1522936 783.92389 793.5083 4294967295
3.4568808 783.48346 793.13696 4294967295
25.926605 784.14417 793.69403 4294967295
27.655046 784.14417 793.69403 4294967295
-1.7229358 788.37994 793.34143 4294967295
0.8614679 787.72131 792.78613 4294967295
4.0201836 787.50177 792.60107 4294967295
6.8917432 787.06274 792.23083 4294967295
25.844036 788.37994 793.34143 4294967295
-4.3073397 789.69714 794.45203 4294967295
-1.7192661 791.19678 793.10046 4294967295
0.8614679 790.44696 793.77625 4294967295
4.2981653 791.19678 793.10046 4294967295
25.78899 791.19678 793.10046 4294967295
27.566973 789.69714 794.45203 4294967295
-3.4385321 792.51123 794.20874 4294967295
-1.7192661 792.51123 794.20874 4294967295
0.85963303 793.63385 793.19324 4294967295
4.2899084 793.63385 793.19324 4294967295
6.8550458 794.75647 792.17773 4294967295
25.706423 794.75647 792.17773 4294967295
-4.2844038 796.72174 793.83484 4294967295
-1.7137614 796.06665 793.28247 4294967295
1.7137614 796.06665 793.28247 4294967295
25.706423 796.06665 793.28247 4294967295
-3.9902141 799.73956 793.76343 4294967295
-1.7100917 799.52173 793.57971 4294967295
1.7100917 799.52173 793.57971 4294967295
4.2752295 798.86798 793.02856 4294967295
6.8403668 798.86798 793.02856 4294967295
25.651377 799.52173 793.57971 4294967295
-3.4091742 803.71118 793.18811 4294967295
-1.7045871 803.71118 793.18811 4294967295
0 803.05957 792.63867 4294967295
4.2614679 803.05957 792.63867 4294967295
7.6706419 803.05963 792.63867 4294967295
10.795719 802.84247 792.45557 4294967295
23.86422 802.40802 792.08923 4292997887
25.568808 803.71118 793.18811 4294967295
-4.2614679 805.01434 794.28687 4294967295
-1.7045871 805.01434 794.28687 4294967295
0.85229355 805.01434 794.28687 4294967295
4.2614679 805.01434 794.28687 4294967295
7.6541286 806.49719 792.92114 4294967295
10.205504 806.49719 792.92114 4294967295
25.513762 806.49719 792.92114 4292868351
0 807.79755 794.01758 4294967295
4.2522936 807.79755 794.01758 4294967295
6.8036699 807.79755 794.01758 4294967295
3.3908257 812.60986 794.151 4294967295
6.7816515 811.31372 793.05811 4294967295
27.126606 811.96179 793.60455 4278227826
5.0752292 814.73096 793.32343 4294967295
7.3308868 814.51538 793.14166 4294967295
23.684404 814.08429 792.7782 4294967295
25.376146 814.08429 792.7782 4286414975
27.06789 815.37762 793.86865 4288074904
4.2293577 816.67096 794.95923 4294967295
7.5880733 818.87415 792.89282 4294967295
25.293577 818.87415 792.89282 4294967295
27.06789 816.67096 794.95923 4294967291
5.0587158 820.16327 793.97974 4294967295
7.5788989 820.89624 793.28973 4294967295
26.109175 820.89624 793.28973 4294967295
0 824.20197 794.76892 4294967295
4.2064219 824.20197 794.76892 4294967295
7.2911315 823.34442 794.0459 4294967295
26.921101 824.20197 794.76892 4294967295
4.1926603 827.67462 793.77295 4294967295
7.5467887 827.03357 793.23242 4294967295
25.155964 827.03357 793.23242 4294967295
0.83853209 828.95679 794.854 4294967295
4.1926603 828.95679 794.854 4294967295
7.809175 829.98505 793.10498 4294967295
10.877064 829.13214 792.38586 4294967295
23.427523 829.13214 792.38586 4294967295
25.100918 830.4115 793.4646 4294967295
0 831.6908 794.54321 4294967295
4.183486 831.6908 794.54321 4294967295
7.5165138 832.77979 793.49939 4294967295
10.007339 833.86871 792.45557 4294967295
23.350458 833.86871 792.45557 4294967295
25.018349 833.86871 792.45557 4294967295
0 836.41895 794.60583 4294967295
4.4477067 835.9939 794.24738 4294967295
7.2275233 835.56885 793.88898 4294967295
10.81743 836.59302 792.13647 4294967295
23.299082 836.59302 792.13647 4294967295
25.018349 835.78137 794.06824 4294967295
7.4889908 838.50146 793.74561 4294967295
9.985321 837.8653 793.20923 4294967295
24.963303 839.13763 794.28198 4294967295
7.472477 841.21594 793.4184 4294967295
9.9633026 840.58118 792.88318 4294967295
7.4477062 845.27704 792.91846 4294967295
24.825687 845.27704 792.91846 4294967295
4.9651375 846.54236 793.98535 4294967295
7.4385319 847.25989 793.28235 4294967295
10.733945 847.97742 792.57935 4294967295
25.625687 847.25989 793.28235 4294967295
4.9541283 850.50238 794.70837 4294967295
7.4266052 850.22852 793.82343 4294967295
10.442813 850.61469 793.0589 4294967295
13.181651 850.67224 792.23547 4294967295
23.06789 850.67224 792.23547 4294967295
25.568808 850.58728 793.47192 4294967295
7.4146786 853.19159 794.35974 4294967295
24.715597 853.19159 794.35974 4294967295
7.6636086 857.42413 794.00439 4294967295
9.8532114 855.95941 792.76941 4294967295
22.990826 855.33167 792.24011 4294967295
24.633028 857.21484 793.828 4294967295
8.1926603 860.51642 793.99573 4294967295
10.650459 859.89008 793.46753 4294967295
13.108257 859.26373 792.93945 4294967295
22.39327 859.68134 793.2915 4294967295
24.577982 860.51642 793.99573 4294967295
10.626606 863.18457 793.62927 4294967295
13.623853 862.35132 792.92676 4294967295
17.166054 861.93469 792.57544 4294967295
19.618349 861.93469 792.57544 4294967295
22.070641 862.55963 793.10236 4294967295
24.522936 863.18457 793.62927 4294967295
8.1743116 864.43445 794.68311 4294967295
10.626606 864.43445 794.68311 4294967295
13.849541 866.55341 792.54578 4294967295
22.034863 865.4939 793.61444 4294967295
24.522936 864.43445 794.68311 4294967295
10.590826 868.42194 794.12122 4294967295
13.818348 869.20892 792.16882 4294967295
21.972477 868.50403 792.88245 4294967295
24.440367 869.04474 794.64636 4294967295
11.379816 871.69458 794.26465 4294967295
13.005505 871.07318 793.74072 4294967295
22.759632 871.07318 793.74072 4294967295
24.385321 871.69458 794.26465 4294967295
10.813457 875.16559 794.5752 4294967295
14.057492 873.92554 793.5296 4294967295
17.031193 873.09888 792.83264 4294967295
21.897247 873.71887 793.35541 4294967295
24.330275 875.57898 794.92371 4294967295
10.507339 878.91278 793.81067 4294967295
13.470947 878.08887 793.11603 4294967295
22.631193 877.67694 792.76868 4294967295
24.247707 878.91278 793.81067 4294967295
8.0825691 880.14862 794.85266 4294967295
10.494495 880.84515 794.13196 4294967295
13.709174 880.92517 792.89142 4294967295
20.966972 880.30865 792.37158 4294967295
22.579817 880.30865 792.37158 4294967295
24.192661 881.54169 793.41125 4294967295
10.470642 883.46985 793.72894 4294967295
13.677982 884.16492 793.00696 4294967295
22.52844 884.16492 793.00696 4294967295
24.192661 882.77472 794.45093 4294967295
11.26422 885.39514 794.04431 4294967295
13.661469 886.08887 793.32123 4294967295
16.8578 886.78253 792.59814 4294967295
20.068806 886.78253 792.59814 4294967295
22.477064 886.78253 792.59814 4294967295
24.137615 885.39514 794.04431 4294967295
11.238532 889.23737 794.66797 4294967295
13.646789 888.62366 794.15051 4294967295
16.055046 888.00995 793.63306 4294967295
22.477064 888.62366 794.15051 4294967295
24.082569 888.62366 794.15051 4294967295
13.866666 893.34882 794.21051 4294967295
16.639999 892.2887 793.31671 4294967295
19.84 892.2887 793.31671 4294967295
22.4 893.1449 794.03864 4294967295
24 893.75653 794.55432 4294967295
17.027523 895.94629 793.78448 4294967295
20.220182 895.94629 793.78448 4294967295
22.348623 896.35315 794.12756 4294967295
17.519266 898.94415 793.69617 4294967295
19.908257 898.94415 793.69617 4294967295
22.297247 898.94415 793.69617 4294967295
16.693577 901.79498 794.13782 4294967295
19.873394 901.79498 794.13788 4294967295
23.066973 901.45306 794.50354 4294967295
17.438532 905.32129 793.84119 4294967295
19.023853 905.32129 793.84119 4294967295
14.26789 906.53326 794.86304 4294967295
16.645872 906.53326 794.86304 4294967295
19.816513 906.53326 794.86304 4294967295
22.194496 906.53326 794.86304 4294967295
18.979816 909.10187 794.41272 4294967295
16.549541 913.54663 794.23645 4294967295
19.701836 913.54663 794.23645 4294967295
17.297247 917.30194 794.78662 4294967295
19.655964 917.30194 794.78662 4294967295
19.610092 919.84662 794.31628 4294967295
21.963303 919.84662 794.31628 4294967295
-4.4311924 749.12585 795.56018 4294967295
-1.772477 749.12585 795.56018 4294967295
30.132111 749.12585 795.56018 4294967295
-7.9761467 751.15845 797.27405 4294967295
-5.317431 750.4809 796.70276 4294967295
31.904587 751.836 797.84534 4294967295
-7.951376 754.81555 796.43359 4294967295
-5.3009176 754.14014 795.86414 4294967295
30.038532 754.81555 796.43359 4294967295
-7.0458717 757.79095 795.01831 4294967295
-5.2844038 757.79095 795.01831 4294967295
28.183487 757.79095 795.01831 4294967295
-7.9266057 759.81091 796.72144 4294967295
29.944954 759.13763 796.15381 4294967295
31.706423 760.48425 797.28918 4294967295
-7.901835 764.11829 796.4292 4294967295
-4.682569 763.22333 795.67462 4294967295
29.851376 763.44702 795.86328 4294967295
-7.901835 765.46075 797.56116 4294967295
-4.380734 766.31299 795.66364 4294967295
-7.0091743 768.32245 797.35803 4294967295
-4.3752294 769.46191 796.35675 4294967295
-6.9871559 773.27228 797.60742 4294967295
-4.3633027 772.69507 795.81274 4294967295
-1.7431192 773.45331 795.14404 4294967295
1.7431192 773.45331 795.14404 4294967295
-4.6483178 775.23016 796.64227 4294967295
-4.0544343 779.27051 796.12482 4294967295
-1.7376146 778.38489 795.37817 4294967295
-6.9504585 781.04175 797.61829 4294967295
-5.2128439 781.04175 797.61829 4294967295
-6.9284406 785.948 797.83105 4294967295
-3.4642203 783.29956 795.59802 4294967295
29.445871 783.96167 796.15631 4294967295
31.177982 785.948 797.83105 4294967295
-6.9137616 788.7691 797.59363 4294967295
-4.3211012 786.12628 795.36523 4294967295
28.807341 787.44769 796.47949 4294967295
-5.1688075 791.01434 795.56274 4294967295
27.566973 791.01434 795.56274 4294967295
-7.753211 792.99011 797.22864 4294967295
-5.1577983 793.82556 795.31702 4294967295
28.696024 793.26855 796.59149 4294967295
-7.7366972 795.79718 796.97943 4294967295
28.367889 795.79718 796.97943 4294967295
-6.8550458 799.3421 796.04425 4294967295
27.420183 798.68701 795.49194 4294967295
-7.704587 802.04877 797.01843 4294967295
-5.1302752 801.48279 795.23315 4294967295
1.7100917 801.48279 795.23315 4294967295
27.952293 801.86011 796.42334 4294967295
-7.6954126 804.09753 797.43787 4294967295
-4.2614679 806.3175 795.38562 4294967295
-1.7045871 806.3175 795.38562 4294967295
1.7045871 806.3175 795.38562 4294967295
27.273394 806.3175 795.38562 4285772999
-7.3865447 808.4895 797.21698 4294967295
-4.2577982 808.35931 795.79926 4294967295
-1.7009175 809.0979 795.11401 4294967295
0.85229355 808.35931 795.79926 4294967295
4.2522936 809.0979 795.11401 4294967295
28.977982 808.92389 797.58325 4286185427
-4.2522936 811.0484 796.75867 4294967295
-1.7009175 811.04846 796.75867 4294967295
0.85045874 810.39825 796.21045 4294967295
28.915596 811.69861 797.30688 4290509245
-1.6954129 815.20215 796.33679 4294967295
0.84770644 814.55408 795.79034 4294967295
3.3908257 813.90601 795.2439 4294967295
28.822018 815.20215 796.33679 4294967295
-3.3908257 816.49835 797.42969 4294967295
-1.6917431 817.96436 796.04968 4294967295
0.84587157 817.96436 796.04968 4294967295
3.3834863 817.96436 796.04968 4294967295
28.822018 816.49835 797.42969 4294967295
-1.6917431 819.25769 797.14026 4294967295
0.84311926 821.45245 795.06677 4294967295
4.2155962 821.45245 795.06677 4294967295
26.979816 821.45245 795.06677 4294967295
28.759632 819.25769 797.14026 4294967295
-3.3724771 824.0307 797.24072 4294967295
-1.6862385 823.38611 796.6972 4294967295
1.6862385 822.74158 796.15369 4294967295
28.666056 824.0307 797.24072 4294967295
-1.6825688 826.77466 796.93811 4294967295
0.84128439 825.48828 795.85352 4294967295
26.921101 826.13147 796.39581 4294967295
1.6770642 830.23889 795.93506 4294967295
26.833027 830.23889 795.93506 4294967295
-4.1926603 831.521 797.01611 4294967295
-1.6733944 832.97009 795.62195 4294967295
0.83669722 832.97009 795.62195 4294967295
3.3467889 832.97009 795.62195 4294967295
26.833027 831.521 797.01611 4294967295
-6.6935778 835.52875 797.7793 4294967295
-4.183486 834.8891 797.23999 4294967295
-1.6733944 834.24945 796.70068 4294967295
1.6733944 834.24945 796.70068 4294967295
26.774311 835.52875 797.7793 4294967295
-3.8917434 838.54419 796.39777 4294967295
-1.66789 837.69409 795.68103 4294967295
1.1119267 838.11914 796.03937 4294967295
4.1697249 837.69409 795.68103 4294967295
-6.6715598 840.24432 797.8313 4294967295
-3.8892968 841.14771 797.72101 4294967295
-1.6642202 841.68231 796.42755 4294967295
0.83211011 841.68225 796.42761 4294967295
4.1605506 840.40991 795.35486 4294967295
26.627523 840.40991 795.35486 4294967295
-1.6605505 845.65918 797.16479 4294967295
0.55351681 845.23602 796.80792 4294967295
3.8746178 843.54327 795.38068 4294967295
26.568808 843.12018 795.02393 4294967295
4.1376147 847.80762 795.05225 4294967295
26.480734 847.80762 795.05225 4294967295
-1.6550459 850.33826 797.18604 4294967295
0.82752293 850.06232 796.29932 4294967295
3.8556576 850.86761 795.88824 4294967295
26.480734 850.33826 797.18604 4294967295
-1.6513761 854.28986 797.90186 4294967295
1.1009175 853.44824 797.19214 4294967295
4.1229358 853.73938 796.12958 4294967295
6.5908256 854.45129 795.42188 4294967295
26.422018 853.0274 796.83728 4294967295
0.54923546 856.55078 797.19208 4294967295
3.8446484 856.13086 796.83807 4294967295
26.363302 855.711 796.48401 4294967295
4.3792052 859.93506 796.12158 4294967295
6.5688071 859.09808 795.41589 4294967295
26.275229 859.09808 795.41589 4294967295
27.917431 860.35358 796.47449 4294967295
0 861.60907 797.53308 4294967295
4.0999999 862.31543 796.82062 4294967295
7.100306 862.18658 795.40399 4294967295
26.216515 862.39539 795.58002 4294967295
27.855045 863.02173 796.10815 4294967295
4.3657494 865.16095 797.03986 4294967295
7.3568807 866.3092 796.26404 4294967295
25.612844 866.10089 796.08838 4294967295
27.823853 865.60425 796.9776 4294967295
0 868.18402 797.84473 4294967295
4.0871563 868.18402 797.84473 4294967295
6.5394497 868.18402 797.84473 4294967295
27.79266 868.18402 797.84473 4294967295
0 872.78174 797.79724 4294967295
4.344954 872.36652 797.44708 4294967295
7.5975533 871.58795 795.91876 4294967295
9.7651377 871.61389 795.50464 4294967295
25.508257 871.58795 795.91876 4294967295
27.699083 872.78174 797.79724 4294967295
4.8770642 875.42316 797.40845 4294967295
7.3155961 874.1803 796.3606 4294967295
26.011009 874.1803 796.3606 4294967295
4.866055 878.05908 797.01489 4294967295
7.0287461 877.23242 796.31787 4294967295
25.952293 877.43909 796.49213 4294967295
4.8495412 881.38446 795.89465 4294967295
7.274312 881.38446 795.89465 4294967295
25.86422 881.38446 795.89465 4294967295
-1.6165137 883.85614 797.97876 4294967295
0.53883791 883.44415 797.63141 4294967295
4.0412846 883.23822 797.45776 4294967295
7.2651377 883.31403 796.21368 4294967295
9.6770639 884.00775 795.4906 4294967295
25.805504 884.00775 795.4906 4294967295
27.480734 883.85614 797.97876 4294967295
0 886.47382 797.56982 4294967295
4.838532 885.8573 797.04999 4294967295
7.253211 886.20276 796.68726 4294967295
10.191437 887.03546 795.42731 4294967295
25.74679 887.24048 795.60022 4294967295
27.355963 887.85559 796.1189 4294967295
4.8275228 889.08588 797.15613 4294967295
7.2412844 889.08588 797.15613 4294967295
10.43578 890.46484 795.70288 4294967295
12.844037 890.46484 795.70288 4294967295
24.91468 889.77539 796.4295 4294967295
7.2247705 892.91968 797.77271 4294967295
10.43578 892.30597 797.25525 4294967295
25.688074 891.69226 796.73779 4294967295
27.293577 892.91968 797.77271 4294967295
11.2 896.20294 796.61707 4294967295
13.333333 895.38745 795.9295 4294967295
25.066666 895.38745 795.9295 4294967295
27.200001 896.20294 796.61707 4294967295
0 897.42615 797.64844 4294967295
7.1999998 897.42615 797.64844 4294967295
10.4 897.42615 797.64844 4294967295
13.834863 898.38715 795.84259 4294967295
15.963303 897.57355 795.15662 4294967295
23.944954 897.57355 795.15662 4294967295
25.541285 898.79395 796.18567 4294967295
27.200001 897.42615 797.64844 4294967295
10.36422 901.30566 796.99536 4294967295
13.537615 901.37939 795.74951 4294967295
25.482569 901.98816 796.26282 4294967295
27.106422 901.30566 796.99536 4294967295
7.9633026 903.81458 797.80286 4294967295
10.328441 905.17389 796.33289 4294967295
13.24159 904.36407 795.65009 4294967295
15.889908 903.95911 795.30859 4294967295
20.656881 903.95911 795.30859 4294967295
23.305199 904.36401 795.65009 4294967295
25.423853 905.17389 796.33289 4294967295
27.07523 903.81458 797.80286 4294967295
7.9449539 906.38867 797.35718 4294967295
10.310092 908.01215 796.76392 4294967295
13.211009 908.14923 796.22559 4294967295
16.645872 907.7453 795.88501 4294967295
20.609175 907.7453 795.88501 4294967295
23.000917 908.01215 796.76392 4294967295
25.423853 906.38867 797.35718 4294967295
7.9266057 910.16925 797.92883 4294967295
10.304587 910.16925 797.92883 4294967295
13.707645 911.11719 796.112 4294967295
16.60734 910.31104 795.43225 4294967295
19.770641 910.31104 795.43225 4294967295
22.961468 910.84473 797.19037 4294967295
25.365137 910.16925 797.92883 4294967295
11.07156 912.72943 797.47144 4294967295
13.444036 912.72943 797.47144 4294967295
16.549541 914.75165 795.25244 4294967295
19.701836 914.75165 795.25244 4294967295
22.895412 913.74054 796.36194 4294967295
10.244954 917.16156 797.28442 4294967295
13.134557 916.35822 796.60712 4294967295
15.761468 915.9566 796.26843 4294967295
22.85413 915.9566 796.26843 4294967295
25.218349 915.9566 796.26843 4294967295
10.48318 920.50775 797.48975 4294967295
13.523303 919.94666 797.01672 4294967295
16.353762 919.46582 796.61121 4294967295
23.587156 918.50415 795.80029 4294967295
25.159634 919.10522 796.30713 4294967295
16.733944 923.04492 797.013 4294967295
19.61009 922.24536 796.33887 4294967295
22.747705 922.24536 796.33887 4294967295
25.100918 922.84503 796.84448 4294967295
-10.65688 748.94202 798.02124 4290559469
-8.8807335 748.94202 798.02124 4294967295
31.970642 748.94202 798.02124 4294967295
-15.985321 751.65778 800.31116 4290100466
-13.3211 750.97888 799.73865 4289180640
-10.65688 750.29993 799.16614 4290493678
33.746788 751.65778 800.31116 4294967295
-12.998164 754.09442 799.74969 4289180127
-10.634862 753.19104 798.98792 4290625266
31.904587 753.19104 798.98792 4294967295
33.677063 754.54614 800.13049 4294967295
-12.368808 758.19275 799.28113 4288654302
-10.601835 757.51733 798.71161 4290625265
31.805504 756.84186 798.14209 4294967295
-13.233027 760.68726 799.42242 4288983518
-10.568808 761.83093 798.42468 4290493680
31.706423 761.83093 798.42468 4294967295
33.572475 759.54358 800.42017 4294967295
-12.917432 764.07538 800.3172 4288917978
-10.568808 763.17761 799.56018 4290493680
31.706423 763.17761 799.56018 4294967295
-10.53578 766.80316 798.69312 4290427884
-8.7798166 766.80316 798.69312 4294967295
31.60734 766.80316 798.69312 4294967295
-15.80367 769.4881 800.95691 4289508845
-12.877065 769.04059 800.57959 4288851417
-10.53578 768.81689 800.39093 4290559724
-7.8853211 769.66211 798.48755 4294967295
31.541285 769.66211 798.48755 4294967295
-12.266055 772.34143 800.7467 4288654554
-10.513762 772.34143 800.7467 4290427882
-8.7614679 771.00177 799.61707 4294967295
31.541285 771.00177 799.61707 4294967295
-12.227523 775.94312 799.8595 4288523740
-10.480734 775.94312 799.8595 4290165226
-7.8605504 774.60767 798.7334 4294967295
31.442202 774.60767 798.7334 4294967295
-13.088074 778.03119 800.31207 4289050079
-10.458715 778.78381 799.63867 4290362608
-8.1345568 777.89545 798.88959 4294967295
31.376146 778.11755 799.07684 4294967295
-13.073395 780.11646 800.76221 4288984032
-10.458715 780.11646 800.76221 4290428655
-7.8192658 782.37012 798.7384 4294967295
31.277063 782.37012 798.7384 4294967295
-12.163302 784.36279 800.41858 4288786654
-10.425688 784.36279 800.41858 4290756847
-8.6880732 783.69855 799.85852 4294967295
33.014679 785.02698 800.97864 4294967295
-12.124771 788.59644 800.06421 4288983770
-10.39266 788.59644 800.06421 4291086069
-8.6605501 787.27222 798.94763 4294967295
31.177982 787.93433 799.50592 4294967295
-10.370643 791.41193 799.82202 4291348471
-8.6422014 790.09052 798.70776 4294967295
31.111927 791.41193 799.82202 4294967295
-12.099083 792.73328 800.93616 4289048796
-10.337615 794.96594 798.89453 4291611643
31.111927 792.73328 800.93616 4294967295
-12.060551 796.28314 800.00525 4289049312
-10.337615 796.28314 800.00525 4292005631
-8.5963306 797.7688 798.64185 4294967295
29.227524 797.7688 798.64185 4294967295
-12.034863 800.39758 800.85828 4289245923
-10.315597 799.08313 799.75012 4291742975
-10.853824 803.49103 799.54248 4290954488
29.133945 802.61755 798.80603 4293263359
-11.115597 806.71228 799.64258 4290232309
-8.5504589 805.40491 798.54028 4294967295
29.07156 805.40491 798.54028 4288413695
-11.115597 808.01965 800.745 4290429173
-13.636697 812.83337 800.87964 4288917723
-10.795719 812.39899 800.51337 4290757620
-7.6669722 811.24585 798.88708 4294967295
-4.2522936 812.99902 798.40332 4294967295
-7.6541281 814.94958 800.04797 4294967295
-5.1027522 814.29938 799.49976 4294967295
30.616514 815.59973 800.59619 4294967295
-4.2385321 817.79449 798.52258 4294967295
-7.3467889 819.95477 800.34406 4294967295
-4.5113149 820.98212 798.59424 4294967295
28.759632 820.55103 798.23071 4294967295
30.517431 819.73877 800.16193 4294967295
-6.7669725 823.13776 800.41187 4294967295
-7.5880733 827.25354 799.95813 4294967295
-4.2155962 825.31989 798.32764 4294967295
28.666056 826.60907 799.41461 4294967295
-7.5715594 829.99048 799.64972 4294967295
-4.2064219 828.06097 798.02271 4294967295
-1.6825688 828.06097 798.02271 4294967295
-6.7082567 832.80316 798.09717 4294967295
-5.0311928 832.80316 798.09717 4294967295
26.833027 832.80316 798.09717 4294967295
-10.062386 835.36743 800.25928 4290493680
-7.8152905 835.90045 798.96478 4294967295
28.510092 835.36743 800.25928 4294967295
-10.040367 838.0874 799.93677 4289903074
-8.3669729 838.0874 799.93677 4294967295
28.447706 838.0874 799.93677 4294967295
-10.841284 842.79456 799.98157 4288850127
-7.7834868 841.94452 799.26483 4294967295
-5.0036697 841.51941 798.90637 4294967295
28.354128 841.51941 798.90637 4294967295
-7.2116208 845.07501 799.28827 4294967295
-4.1605506 844.86304 799.1095 4294967295
28.291742 844.86304 799.1095 4294967295
-9.985321 846.77148 800.71875 4289507551
-7.4889908 846.77148 800.71875 4294967295
-4.1568809 847.48486 800.01221 4294967295
-1.6605505 846.92871 798.23523 4294967295
28.291742 846.77148 800.71875 4294967295
-4.1513762 849.46771 800.3761 4294967295
-1.6550459 851.60352 798.25281 4294967295
28.229359 849.46771 800.3761 4294967295
-6.6201835 854.13416 800.3866 4294967295
-4.1376147 853.50146 799.85315 4294967295
28.13578 853.50146 799.85315 4294967295
-3.8532112 856.39404 799.67603 4294967295
-1.6513761 855.55237 798.96631 4294967295
-3.2954128 860.74969 800.73254 4294967295
-1.6477064 858.86023 799.13934 4294967295
1.0984709 858.65021 798.96234 4294967295
-1.6422018 862.8645 798.59167 4294967295
0.82110089 862.8645 798.59167 4294967295
-3.8318043 864.95703 800.3559 4294967295
-1.640367 865.44983 799.46344 4294967295
1.0923548 865.94464 798.57257 4294967295
3.2770643 865.5271 798.22058 4294967295
29.559633 864.74774 800.17944 4294967295
-3.2770643 868.03241 800.33301 4294967295
-1.6348624 869.4339 798.89856 4294967295
0.81743121 869.4339 798.89856 4294967295
3.2697248 869.4339 798.89856 4294967295
28.64312 868.73315 799.61578 4294967295
-3.2697248 870.68378 799.95239 4294967295
-1.6348624 870.68378 799.95239 4294967295
1.6348624 870.68378 799.95239 4294967295
-3.2587156 875.27301 799.89795 4294967295
-1.6293578 874.65015 799.3728 4294967295
0.81467891 874.02734 798.84766 4294967295
3.2587156 874.02734 798.84766 4294967295
27.699083 874.65015 799.3728 4294967295
-4.0733948 876.51868 800.94824 4294967295
-1.6256881 877.90887 799.50439 4294967295
0.81284404 876.66602 798.45642 4294967295
3.2513762 876.66602 798.45642 4294967295
27.636698 877.90887 799.50439 4294967295
-3.2477064 880.46545 800.35199 4294967295
-1.6220183 880.53918 799.10608 4294967295
1.0813456 879.71246 798.409 4294967295
3.2440367 879.91919 798.58331 4294967295
27.574312 880.53918 799.10608 4294967295
-4.0412846 886.32782 800.06287 4294967295
-1.6146789 886.39941 798.81512 4294967295
1.0776758 886.37555 799.23102 4294967295
3.2293577 886.39941 798.81512 4294967295
27.418348 887.70685 798.6095 4294967295
-3.225688 890.17291 800.68884 4294967295
-1.612844 889.5564 800.16901 4294967295
1.0752293 889.35089 799.99579 4294967295
4.0266056 889.62799 798.92133 4294967295
7.2412844 890.3161 798.19348 4294967295
28.193577 890.24451 799.44116 4294967295
-1.6091744 892.77655 800.26807 4294967295
0.53639144 892.36646 799.9223 4294967295
3.75474 891.95636 799.57648 4294967295
28.965137 892.77655 800.26807 4294967295
-3.2110093 896.60193 800.87756 4294967295
-1.6055046 895.37451 799.84265 4294967295
1.6055046 895.37451 799.84265 4294967295
4.2813454 894.96533 799.49762 4294967295
7.2247705 894.14709 798.80762 4294967295
9.6330271 894.14709 798.80762 4294967295
28.899082 895.98822 800.36011 4294967295
-3.2 899.87262 799.71118 4294967295
-1.6 899.26099 799.1955 4294967295
1.0666667 899.05713 799.02362 4294967295
4 899.26099 799.1955 4294967295
7.1999998 898.64941 798.67981 4294967295
28.799999 899.87262 799.71118 4294967295
-4 901.09583 800.74255 4294967295
-1.5963303 902.4552 799.27271 4294967295
0.53333336 901.59521 799.41962 4294967295
3.9944954 901.77551 800.00763 4294967295
6.9174309 901.6416 798.58667 4294967295
28.799999 901.09583 800.74255 4294967295
-3.1926606 903.6756 800.30164 4294967295
-1.5963303 903.6756 800.30164 4294967295
0.79816514 904.35388 799.56555 4294967295
3.985321 904.35388 799.56555 4294967295
6.3706422 905.03217 798.82947 4294967295
27.07523 905.03217 798.82947 4294967295
-1.5926605 907.46741 800.88281 4294967295
0.53088683 907.06152 800.54053 4294967295
3.978899 907.19629 800.00012 4294967295
6.8856263 908.00848 798.7229 4294967295
25.423853 907.60352 798.38147 4294967295
27.044037 907.53406 799.63092 4294967295
0 910.03308 800.43005 4294967295
3.972477 910.03308 800.43005 4294967295
7.1412845 910.70715 799.69037 4294967295
9.5119267 911.38123 798.95068 4294967295
25.365137 911.38123 798.95068 4294967295
27.012844 910.03308 800.43005 4294967295
0 913.80524 800.99451 4294967295
4.2275229 913.40118 800.65387 4294967295
6.8697248 912.99725 800.31329 4294967295
10.280734 913.9386 798.49097 4294967295
26.950459 912.59326 799.97266 4294967295
4.7449541 916.35699 800.53003 4294967295
7.3810401 915.95392 800.19019 4294967295
26.888073 915.75238 800.02026 4294967295
3.940367 920.77649 800.3324 4294967295
7.3553519 920.37482 799.99371 4294967295
9.4568806 918.36658 798.30042 4294967295
26.794495 919.57153 799.31641 4294967295
28.370642 920.77649 800.3324 4294967295
4.7174311 923.31281 799.85486 4294967295
7.0761471 923.31281 799.85486 4294967295
10.221101 922.71173 799.34802 4294967295
13.366055 922.71173 799.34802 4294967295
26.732111 922.71173 799.34802 4294967295
4.7174311 924.51501 800.86853 4294967295
7.0761471 924.51501 800.86853 4294967295
10.221101 924.51501 800.86853 4294967295
13.366055 924.51501 800.86853 4294967295
16.472477 925.24377 798.86694 4294967295
19.610092 925.24377 798.867 4294967295
22.747707 925.24377 798.86694 4294967295
25.644648 925.00092 799.53418 4294967295
17.25688 927.04285 800.38391 4294967295
19.610092 927.04285 800.38391 4294967295
22.747707 927.04285 800.38391 4294967295
-19.598166 749.35785 802.29602 4290032875
34.742203 748.67676 801.72174 4294967295
-19.598166 750.71991 803.44446 4289509351
35.633026 750.71991 803.44446 4294967295
37.41468 750.71991 803.44446 4294967295
-19.537615 755.05249 803.1734 4289707230
-16.865137 754.07648 801.69653 4289772520
-14.179816 755.90118 801.27307 4289443817
34.599998 755.81628 802.50946 4294967295
-17.133944 757.70801 802.79657 4289706726
-15.902752 760.89447 801.5592 4289772519
-14.135779 760.89447 801.5592 4289444067
33.572475 760.89447 801.5592 4294967295
-19.436697 763.59619 803.83716 4289575145
-16.78624 762.24536 802.69812 4289707757
33.572475 762.24536 802.69812 4294967295
-19.376146 767.21759 802.96655 4289443554
-17.027525 766.31982 802.20953 4289509355
-14.091743 765.87091 801.83105 4289444067
33.467892 766.54425 802.3988 4294967295
-15.80367 770.83051 802.08887 4289509349
-14.047707 770.83051 802.08887 4289246691
-16.681652 772.17297 803.2207 4289509865
-14.018349 773.68103 801.87622 4289247206
33.363304 772.17297 803.2207 4294967295
-15.770642 775.02069 803.00574 4289706476
-16.594496 779.28174 802.67444 4289443303
-16.269114 782.33759 802.63495 4289574882
-13.944954 782.11542 802.44769 4289049826
-15.638532 787.01965 802.65869 4289443805
-13.900917 786.35541 802.09863 4289049564
33.014679 786.35541 802.09863 4294967295
-13.27951 790.36206 801.55292 4289180381
32.910091 790.58276 801.73901 4294967295
-15.588991 792.56909 803.41382 4289443556
-13.827523 794.05469 802.05029 4289049312
31.976147 794.05469 802.05029 4294967295
-15.555964 795.3761 803.16455 4289311968
-12.944036 796.48822 802.1402 4289048799
31.926605 796.48822 802.1402 4294967295
-15.506422 800.23474 803.33704 4289508829
-13.783486 798.91754 802.22644 4288851165
31.012844 799.57617 802.78174 4294967295
-15.473394 803.02637 803.07483 4289377759
-13.754128 801.71198 801.96655 4289049314
30.946789 803.02637 803.07483 4294770687
-13.710092 805.89301 801.56787 4288983524
30.847706 806.5481 802.12024 4294967295
-15.423853 807.85828 803.22485 4289245662
-13.680734 809.32703 801.84729 4288786142
-11.970642 809.32703 801.84729 4289246693
30.781651 809.32703 801.84729 4294967295
-15.390825 810.6344 802.94971 4289311203
30.781651 810.6344 802.94971 4294967295
-15.341285 815.4397 803.07727 4289245662
-13.636697 814.13654 801.97852 4289049564
-11.079817 814.13654 801.97852 4289968872
32.387157 815.4397 803.07727 4294967295
-13.60734 817.55029 802.24084 4288654805
-11.055964 817.55029 802.24084 4290297833
-8.5045872 816.90009 801.69263 4294967295
32.317432 818.20044 802.78906 4294967295
-15.308257 819.50085 803.8855 4289048028
-13.60734 819.50085 803.8855 4288850904
-11.020184 821.68298 801.80127 4290165478
-8.4770641 821.68298 801.80127 4294967295
31.417431 820.59192 802.84338 4294967295
-15.258716 824.27527 803.98706 4289640156
-13.563303 823.6272 803.44061 4288982487
-11.007339 823.70508 802.19824 4289705185
-8.4587154 824.43109 801.50232 4294967295
31.365139 823.6272 803.44061 4294967295
-15.225688 827.01782 803.68335 4289308375
-10.99633 825.72443 802.5929 4289573602
30.451376 826.37109 803.13812 4294967295
-13.489908 829.83191 802.13202 4288783833
-10.96055 829.18732 801.5885 4289835494
28.666056 829.18732 801.5885 4294967295
-15.176147 831.76556 803.76245 4289177305
-13.489908 831.76556 803.76245 4288390101
-11.217125 832.34882 801.63818 4289376230
28.60367 831.91998 801.27661 4294967295
30.352293 831.76556 803.76245 4294967295
-13.46055 834.49268 803.4458 4288587475
-11.73945 836.64954 801.34033 4288126924
30.286238 834.49268 803.4458 4294967295
-15.093578 839.21381 803.50244 4288850131
-13.416513 837.93164 802.42139 4288653520
-10.877064 839.36676 801.01538 4288915922
30.187157 837.93164 802.42139 4294967295
-15.060551 841.92542 803.17285 4288718800
-13.387156 840.64606 802.09412 4288587212
30.957798 841.28577 802.63348 4294967295
-13.34312 844.70715 801.59424 4288652750
-11.119266 844.49463 801.41504 4288784079
30.022018 844.70715 801.59424 4294967295
-15.011009 846.61987 803.20703 4288980427
-13.34312 846.61987 803.20703 4288455374
-10.830275 847.33179 802.49927 4288586708
-7.4889908 848.04376 801.7915 4294967295
29.955963 848.04376 801.7915 4294967295
31.689909 846.61987 803.20703 4294967295
-14.145872 850.58838 803.93701 4288586186
-11.0948 849.74023 803.22186 4288323792
-7.472477 850.73718 801.44641 4294967295
-4.9816513 850.73718 801.44641 4294967295
29.889908 850.73718 801.44641 4294967295
-9.9633026 852.64148 803.05206 4289310430
-8.3027525 852.00671 802.51685 4294967295
29.889908 852.00671 802.51685 4294967295
-9.930275 857.92999 803.58716 4288916447
-7.4477067 856.0321 801.98694 4294967295
29.790825 855.39941 801.45349 4294967295
-9.9082565 860.60236 803.22437 4288587744
-7.7064223 859.76068 802.51465 4294967295
-4.4036698 858.49823 801.4502 4294967295
29.724771 858.70862 801.62756 4294967295
-7.1400609 862.84918 802.50275 4294967295
-4.943119 862.0094 801.79468 4294967295
-9.8862381 864.52881 803.91895 4288391396
-7.4146786 864.52881 803.91895 4294967295
-4.9266057 866.63098 801.76733 4294967295
31.306421 864.52881 803.91895 4294967295
-7.1162076 868.72339 803.53168 4294836223
-4.9155965 869.2851 801.38928 4294967295
29.493578 869.2851 801.38928 4294967295
31.201836 869.14191 803.88452 4294967295
-6.5541286 871.79041 803.50171 4294967295
-4.0871563 871.93359 801.00623 4294967295
29.493578 870.53778 802.44543 4294967295
31.132111 871.79041 803.50171 4294967295
-6.5394497 874.43335 803.11401 4294967295
-4.9045873 873.18347 802.06018 4294967295
29.427523 873.80841 802.5871 4294967295
-4.8880734 877.76434 801.99854 4294967295
29.32844 877.76434 801.99854 4294967295
-7.0556579 879.8858 802.91528 4294770687
-4.8770642 880.39459 801.60022 4294967295
29.295412 880.32373 802.84851 4294967295
-7.3082566 883.56976 802.96948 4294377471
-4.0550461 883.01929 801.19727 4294967295
29.262384 882.88025 803.69617 4294967295
-6.4880733 885.49933 803.28833 4294967295
-4.0412846 887.56366 801.10486 4294967295
29.196331 885.49933 803.28833 4294967295
-6.4660549 889.41742 802.66791 4294967295
-4.8495412 888.7995 802.14685 4294967295
-6.451376 893.25549 803.28802 4294967295
-4.0321102 891.40594 801.72852 4294967295
-6.4366975 896.46722 803.38 4294967295
-4.2911315 894.41681 801.65106 4294967295
30.574312 895.85211 802.86133 4294967295
-6.4220185 899.05676 802.94739 4294967295
-4.8165135 897.82935 801.91248 4294967295
-7.2137613 901.30164 802.87811 4294705151
-4.8000002 902.31903 801.77393 4294967295
28.799999 902.31903 801.77393 4294967295
30.504587 900.28418 803.9823 4294967295
-9.6000004 904.76544 803.83667 4285764038
-7.4666667 903.94995 803.14911 4294508543
-3.9908257 904.896 801.33069 4294967295
-1.5963303 904.896 801.33069 4294967295
1.5963303 904.896 801.33069 4294967295
28.733946 904.896 801.33069 4294967295
30.4 904.76544 803.83667 4294967295
-6.9174309 906.92999 803.04572 4294639615
-3.9889908 907.06366 802.50439 4294967295
-1.5926605 908.685 801.90942 4294967295
1.5926605 908.685 801.90942 4294967295
28.700918 907.4007 802.13458 4294967295
30.330275 907.33685 803.38879 4294967295
-6.3706422 911.12018 803.96277 4294967295
-4.2470946 910.30841 803.27832 4294967295
-1.5889908 911.24786 801.45435 4294967295
0.7944954 911.24786 801.45435 4294967295
3.1779816 911.24786 801.45435 4294967295
28.667891 909.90259 802.93604 4294967295
30.26055 911.12018 803.96277 4294967295
-6.3559632 913.67749 803.50293 4294967295
-3.7076454 913.27252 803.16144 4294967295
-1.5889908 912.46271 802.47864 4294967295
1.5889908 912.46271 802.47864 4294967295
28.601835 912.46271 802.47864 4294967295
-6.3412843 916.22919 803.03845 4294967295
-3.9633026 916.22919 803.03845 4294967295
-1.5853211 915.62317 802.52747 4294967295
0.79266053 915.9574 802.15527 4294967295
3.6929662 916.71649 801.70526 4294967295
6.3266053 917.56616 801.54968 4294967295
28.53578 915.62317 802.52747 4294967295
-3.9541283 919.9845 803.58875 4294967295
-1.5816513 919.37988 803.07898 4294967295
0.79082566 919.37988 803.07898 4294967295
0 923.18646 802.3645 4294967295
3.1522937 922.58398 801.85645 4294967295
28.370642 922.58398 801.85645 4294967295
0 924.39142 803.38049 4294967295
3.940367 924.39142 803.38049 4294967295
7.0761471 925.71716 801.8822 4294967295
10.48318 926.11786 802.22003 4294967295
13.366055 926.31824 802.38904 4294967295
15.724771 925.71716 801.8822 4294967295
18.869724 926.91931 802.89575 4294967295
23.587156 926.91931 802.89575 4294967295
25.945871 926.31824 802.38904 4294967295
28.370642 924.39142 803.38049 4294967295
11.007339 928.12152 803.90942 4294967295
13.366055 928.12152 803.90942 4294967295
16.481651 928.51184 802.27655 4294967295
19.886238 928.60175 802.57031 4294967295
22.504587 928.60175 802.57031 4294967295
25.945873 928.12152 803.90942 4294967295
28.304586 928.12152 803.90942 4294967295
14.119267 930.64093 803.41772 4294967295
17.25688 930.64093 803.41772 4294967295
19.610092 930.64093 803.41772 4294967295
21.963303 930.64093 803.41772 4294967295
-25.020184 749.79047 806.58484 4289704412
39.317432 748.42413 805.43286 4294967295
-21.379816 752.08203 804.5929 4289772506
35.633026 752.08203 804.5929 4294967295
37.41468 752.08203 804.5929 4294967295
-24.943119 754.80615 806.88989 4289245408
-22.567583 753.89813 806.12427 4289640931
37.41468 754.12512 806.31567 4294967295
-21.905809 757.99445 805.65411 4289574881
-19.537615 757.08929 804.89087 4289706722
35.522934 757.76819 805.46332 4294967295
-21.269724 761.32147 805.84326 4289443302
-19.497248 759.96643 804.70068 4289772519
35.449543 761.32147 805.84326 4294967295
-22.122936 763.81183 805.98102 4289574886
35.339451 764.94708 804.9762 4294967295
-22.970642 766.29791 806.11523 4289574120
35.339451 766.29791 806.11523 4294967295
-21.137615 769.23755 804.66974 4289640167
-19.376146 769.23755 804.66974 4289640168
-17.614679 768.56421 804.10205 4289509349
33.467892 768.56421 804.10205 4294967295
-22.018349 771.25757 806.37292 4289443307
-19.315596 773.51544 804.35266 4289443052
-17.559633 773.51544 804.35266 4289443304
33.363304 773.51544 804.35266 4294967295
-21.949541 775.52905 806.05054 4289311976
-19.315596 774.85785 805.48462 4289246443
-17.522936 776.36035 804.13525 4289245923
33.293579 776.36035 804.13525 4294967295
-21.027523 778.36975 805.82965 4289376998
-19.275229 777.69995 805.26489 4289377257
33.293579 777.69995 805.26489 4294967295
-20.088074 781.95258 804.92651 4289508323
-19.770031 784.50568 805.33514 4289573855
-17.431192 784.7807 804.69501 4289312219
-31.376146 786.7796 806.38049 4289245408
-29.633028 786.7796 806.38049 4288916699
-20.917431 786.7796 806.38049 4289508577
-19.548164 790.67273 805.73901 4289377250
-16.796942 789.45508 804.71222 4289443044
34.752293 790.3407 805.45898 4294967295
-17.3211 793.89331 804.5304 4289443554
34.6422 793.89331 804.5304 4294967295
-19.053211 796.54175 806.76343 4289509347
-16.438532 795.95752 804.96277 4289378015
32.840366 796.69751 804.27869 4294967295
34.6422 795.87964 806.20514 4294967295
-19.012844 799.34033 806.50708 4289508831
-17.284403 798.01892 805.39282 4289640415
32.840366 798.01892 805.39282 4294967295
34.568806 799.34033 806.50708 4294967295
-17.229359 802.21057 805.00305 4289443299
32.735779 802.21057 805.00305 4294967295
-18.93211 805.57794 806.5343 4288982747
-16.619572 805.65509 805.29132 4289245665
32.666054 806.31238 805.84552 4294967295
34.42202 805.57794 806.5343 4294967295
-18.851376 811.78882 806.53906 4289179614
-16.264221 811.21021 804.74316 4289179614
32.491745 811.94177 804.052 4294967295
34.27523 810.47864 805.43433 4294967295
-17.100918 813.24915 805.1543 4289179868
34.201836 813.90283 805.70551 4294967295
-16.477676 817.17731 804.5423 4288982747
34.091743 818.04608 805.2749 4294967295
-18.750458 819.34924 806.37366 4288786646
-16.158716 820.80121 804.98193 4289049053
32.317432 820.80121 804.98193 4294967295
34.091743 819.34924 806.37366 4294967295
-17.009174 822.10156 806.07837 4289310934
34.018349 822.10156 806.07837 4294967295
-16.954128 826.21948 805.62628 4289242841
32.212845 826.21948 805.62628 4294967295
33.908257 826.21948 805.62628 4294967295
-16.353518 829.60449 805.86444 4289111767
31.579206 829.60449 805.86444 4294967295
33.834862 830.89783 806.95496 4294967295
-15.176147 833.05475 804.84949 4289047254
-15.176147 834.34387 805.9364 4288850133
32.038532 834.34387 805.9364 4294967295
-18.508257 838.35168 806.69958 4288981461
-16.825687 837.06531 805.61499 4288850131
31.968807 837.06531 805.61499 4294967295
-18.447706 841.77808 805.66455 4288915413
-16.770641 840.49591 804.5835 4288916179
33.541283 841.13696 805.12402 4294967295
-18.978594 844.8623 806.52118 4288652752
-16.176147 843.63116 804.61102 4288849614
31.794495 843.20471 804.25146 4294967295
33.467892 845.12366 805.86957 4294967295
-15.844954 847.89502 804.2821 4288980427
-13.34312 847.89502 804.2821 4288389582
31.689909 847.89502 804.2821 4294967295
-18.90275 850.0202 806.07404 4288718285
-16.660551 850.51538 805.18353 4288980172
-14.145872 851.86072 805.00977 4288586441
-11.649541 851.86072 805.00977 4287666366
31.655046 850.51538 805.18353 4294967295
33.3578 849.80768 805.89484 4294967295
-16.642202 853.13306 806.08264 4288914380
-14.145872 853.13306 806.08264 4288717771
-10.793578 854.54572 804.65771 4288586703
31.620184 853.13306 806.08264 4294967295
33.284405 853.13306 806.08264 4294967295
-13.837921 856.66156 806.44171 4288652232
-11.623854 855.81525 805.72815 4287797180
31.550459 855.81525 805.72815 4294967295
33.21101 857.08472 806.79846 4294967295
-14.06789 860.46063 805.72095 4288717770
-11.585321 859.19531 804.65405 4287534010
31.445871 859.19531 804.65405 4294967295
33.100918 860.46063 805.72095 4294967295
-16.550459 861.72589 806.78772 4288718280
-14.053211 862.42664 806.0705 4288718538
-11.009174 862.28564 804.64362 4287929290
31.376146 861.86481 804.28882 4294967295
33.100918 861.72589 806.78772 4294967295
-14.036697 864.38983 806.41785 4288916174
-10.710092 865.78845 804.98108 4287865552
-8.2385321 865.78845 804.98108 4294967295
31.306421 865.78845 804.98108 4294967295
33.027523 864.38983 806.41785 4294967295
-10.710092 867.04816 806.04321 4287471054
32.954128 867.04816 806.04321 4294967295
-10.400612 871.23438 805.64886 4286946515
-8.211009 870.3974 804.94312 4294443007
32.844036 871.02515 805.47241 4294967295
-13.108257 875.54846 806.67029 4288782794
-10.923549 874.71338 805.96613 4287206853
-7.6354737 874.80322 804.29785 4294574079
31.933945 874.64258 805.25256 4294967295
-13.078899 878.18292 806.27551 4288651464
-10.626606 877.55798 805.7486 4287142345
31.062386 876.93311 805.22168 4294967295
-10.319266 881.08612 804.79932 4286486468
-8.1467886 880.25568 804.09912 4294180863
30.957798 880.87854 804.62427 4294967295
-13.034863 882.74695 806.19971 4288521412
-10.579817 883.43506 805.47192 4286550713
-8.1284399 884.12311 804.74414 4294049791
30.957798 882.74695 806.19971 4294967295
-10.561468 886.33008 805.95081 4286747318
-8.1100922 887.35938 804.85675 4294770687
30.888073 886.60883 806.83997 4294967295
-10.543119 889.21948 806.42505 4286222006
-10.23792 893.33087 805.96759 4286288319
-8.0825691 891.8891 804.75195 4294443007
30.713762 891.27118 804.23096 4294967295
-10.483486 896.33807 805.88721 4286484151
-8.0642204 895.10504 804.84753 4294443007
32.256882 896.33807 805.88721 4294967295
-12.902752 897.57111 806.92688 4288388034
-10.472477 898.24939 806.19073 4286484154
-8.0458717 897.69745 804.41724 4294574079
31.378899 898.31256 804.93591 4294967295
-12.858716 901.44849 806.27197 4288322243
-10.711926 901.46948 805.8537 4286811834
31.599388 901.46948 805.8537 4294967295
-12.8 905.98865 804.86816 4288322241
-10.4 905.98865 804.86816 4286418623
-12.8 907.82349 806.41522 4288321731
-10.4 907.21185 805.89954 4285958325
-7.183486 908.55725 804.41772 4294574079
31.443426 908.06805 805.74933 4294967295
33.599998 908.43512 806.93091 4294243572
-10.376146 910.38782 805.9613 4287007670
-7.9816513 909.77765 805.44678 4294967295
31.926605 910.99805 806.47583 4294967295
33.522934 910.99805 806.47583 4294967295
-9.5559635 913.55542 806.01599 4287930567
-7.9541283 913.61499 804.7583 4294967295
30.768196 913.59515 805.17755 4294967295
-7.4103971 916.95673 805.39581 4294967295
-3.9633026 917.44122 804.0603 4294967295
31.226912 916.95673 805.39581 4294967295
-6.8697248 919.46118 805.76349 4294770687
30.913761 919.25916 805.5932 4294967295
-3.9541285 922.40283 805.62787 4294967295
-1.5816513 921.79834 805.11804 4294967295
1.5816513 921.79834 805.11804 4294967295
30.051376 922.40283 805.62775 4294967295
-1.5761468 926.19891 804.90448 4294967295
0.78807342 926.19885 804.90454 4294967295
3.940367 925.59644 804.39648 4294967295
7.0926609 926.19891 804.90448 4294967295
9.4568806 926.19891 804.90448 4294967295
29.158714 926.19891 804.90448 4294967295
0 928.00635 806.42847 4294967295
7.0926609 928.00635 806.42847 4294967295
10.244954 928.00635 806.42847 4294967295
12.579817 929.32367 804.9231 4294967295
15.724771 929.32367 804.9231 4294967295
23.587156 929.32367 804.9231 4294967295
25.945873 929.32367 804.9231 4294967295
29.125687 928.66504 805.67578 4294967295
