# .PCD v0.7 - Point Cloud Data file format
VERSION 0.7
FIELDS x y z rgb
SIZE 4 4 4 4
TYPE F F F U
COUNT 1 1 1 1
WIDTH 1169
HEIGHT 1
VIEWPOINT 0 0 0 1 0 0 0
POINTS 1169
DATA ascii
47.168808 862.99121 807.85461 4294966271
49.651375 862.99121 807.85461 4294966783
52.133945 862.99121 807.85461 4294967039
55.444038 862.99121 807.85461 4294967039
58.754128 862.99121 807.85461 4294967295
61.236698 862.99121 807.85461 4294967039
-1.6550459 865.52179 809.9884 4290685117
0 865.52179 809.9884 4290750910
7.4477062 865.52179 809.9884 4291475653
10.757798 865.52179 809.9884 4291211975
14.343731 865.10004 809.63281 4291868879
16.550459 865.52179 809.9884 4291803601
19.033028 865.52179 809.9884 4292198614
21.515596 865.52179 809.9884 4292264919
25.65321 865.52179 809.9884 4292529122
28.963303 865.52179 809.9884 4292727526
31.445871 865.52179 809.9884 4294967295
34.204281 865.10004 809.63281 4294967295
37.238533 864.88916 809.45496 4294900990
40.548622 864.88916 809.45496 4294966527
43.833942 865.2373 809.0946 4294967039
47.142204 865.23737 809.0946 4294967039
49.596329 865.58563 808.73419 4294967039
52.076145 865.58563 808.73419 4294967039
55.382568 865.58557 808.73413 4294966783
58.655964 865.93457 808.37439 4294967039
61.651379 866.07318 807.83716 4294966783
0 868.17725 809.61133 4290620346
33.85321 868.17725 809.61133 4294967295
37.155964 868.17725 809.61133 4294901246
39.633026 868.17725 809.61133 4294966271
44.587154 868.17725 809.61133 4294967039
47.06422 868.17725 809.61133 4294965759
49.541283 868.17725 809.61133 4294966015
52.018349 868.17725 809.61133 4294966271
55.321102 868.17725 809.61133 4294966271
58.623856 868.17725 809.61133 4294967039
62.108868 868.68427 808.29474 4294966527
64.260551 868.93768 807.63641 4294966271
32.954128 870.82721 809.22961 4294967295
34.601833 870.82721 809.22961 4294967295
36.249542 870.82721 809.22961 4294967295
61.684402 871.8678 808.14496 4294967295
64.866974 872.90833 807.0603 4294967295
29.559633 875.41931 809.17749 4292794093
32.296635 875.00079 808.82465 4294967295
34.48624 875.41931 809.17749 4294967295
36.675838 875.00079 808.82465 4294901501
39.412846 875.41931 809.17749 4294965247
55.834862 875.41931 809.17749 4294967295
59.119267 875.41931 809.17749 4294967295
61.856274 875.00079 808.82465 4294967039
64.045868 874.79156 808.64819 4294967295
31.951376 878.05377 808.78271 4294967295
36.866974 878.05377 808.78271 4294769916
62.264221 878.05377 808.78271 4294967039
65.541283 877.42749 808.25464 4294965759
29.493578 879.30646 809.83899 4292990704
31.951376 879.30646 809.83899 4294966783
34.409176 879.30646 809.83899 4294967295
36.866974 879.30646 809.83899 4294769915
40.144035 879.30646 809.83899 4294899454
44.240368 879.30646 809.83899 4294965247
47.517429 879.30646 809.83899 4294966271
50.794495 879.30646 809.83899 4294966271
52.433029 879.30646 809.83899 4294965247
54.890823 879.30646 809.83899 4294967039
58.167892 879.30646 809.83899 4294966783
61.444954 879.30646 809.83899 4294967039
64.722015 879.30646 809.83899 4294966015
58.656879 886.48395 809.35071 4294965247
60.28624 886.48395 809.35071 4294964733
63.544952 886.48395 809.35071 4294966271
26.011009 890.3374 809.98376 4292462811
60.963303 890.3374 809.98376 4294965247
63.401836 890.3374 809.98376 4294965759
59.811008 897.45038 809.44104 4294965759
61.427525 897.45038 809.44104 4294965759
63.852295 897.45038 809.44104 4294965759
-30.444036 751.00092 810.22156 4278190080
-30.977371 754.80023 810.8089 4288975756
-28.594496 753.88934 810.04089 4287789698
-31.178898 758.89246 810.33533 4291148991
-32.069725 760.25452 811.48376 4291409606
-31.082569 763.87872 810.61548 4291212229
-31.018349 766.74182 810.41357 4290884549
-28.359632 766.74182 810.41357 4291277518
-25.700916 766.74182 810.41357 4291080650
-33.188992 789.96521 811.6825 4290817468
-31.442202 789.29749 811.11951 4290160558
-33.990826 793.44275 811.99866 4290422197
-31.376146 792.77643 811.43683 4290488752
-28.761467 792.11011 810.875 4290489010
-25.27523 792.11011 810.875 4290619833
-28.670643 796.98279 811.05945 4290554041
-25.195412 796.98279 811.05945 4290619324
-22.588991 796.98279 811.05945 4290619326
-28.670643 798.31122 812.17944 4290488253
-25.156881 799.41278 811.14624 4290619325
-22.517431 800.51434 810.11304 4290487743
-19.919266 800.51434 810.11304 4290423228
-17.3211 800.51434 810.11304 4290686139
5.1963301 800.51434 810.11304 4292003546
-31.177982 803.16278 812.34619 4290815424
-28.579817 803.16278 812.34619 4290684348
-25.115597 801.83856 811.22961 4290619326
-22.517431 801.83856 811.22961 4290619072
-27.655046 805.94739 812.07788 4290619063
-25.062386 805.28668 811.52087 4290619322
-22.469725 804.62598 810.96375 4290487741
1.7284404 804.62598 810.96375 4291805910
4.3211012 804.62598 810.96375 4291872212
-24.121101 809.45514 811.11145 4290487993
-22.398165 808.79651 810.55615 4290422200
-19.813763 808.79651 810.55615 4290422200
-16.655046 808.57697 810.37109 4290421428
-12.922018 808.13794 810.00085 4290618806
-10.337615 808.13794 810.00085 4290619315
-7.4660549 808.57697 810.37109 4290948793
-5.1688075 808.13794 810.00085 4291475903
1.7229358 808.79651 810.55615 4291674067
4.0201836 808.57697 810.37109 4291806161
7.753211 808.13794 810.00085 4292134612
10.337615 808.13794 810.00085 4292264665
12.922018 808.13794 810.00085 4292264924
-28.42844 810.77234 812.22217 4290290866
-24.982569 810.77234 812.22217 4290356405
-22.350458 812.22711 810.83264 4290356404
-19.771561 812.22711 810.83264 4290224564
-16.333027 812.22711 810.83264 4290159025
-12.894495 812.22711 810.83264 4290224305
-10.315597 812.22711 810.83264 4290290100
-7.7366972 812.22711 810.83264 4290816441
-5.1577983 812.22711 810.83264 4291013818
1.7192661 812.22711 810.83264 4291608018
4.2981653 812.22711 810.83264 4291673811
7.7366972 812.22711 810.83264 4291936213
10.315597 812.22711 810.83264 4292264151
-24.069725 813.5415 811.94092 4290290611
-22.350458 813.5415 811.94092 4290290611
-19.771561 813.5415 811.94092 4289962162
-16.333027 813.5415 811.94092 4289962412
1.7192661 813.5415 811.94092 4291607502
-22.278898 818.33978 812.06262 4290092205
-19.708256 818.33978 812.06262 4290026926
-16.280735 817.0296 810.95789 4290027946
-13.710092 817.0296 810.95789 4290224555
-11.99633 817.0296 810.95789 4290224555
-22.231194 821.09344 811.76843 4290092205
-19.666054 821.09344 811.76843 4290092719
-16.530888 820.22186 811.03351 4290158762
-13.680734 819.78607 810.66614 4290355625
-11.115597 819.78607 810.66614 4290355370
-7.6954126 819.78607 810.66614 4290355885
1.7100917 819.78607 810.66614 4291999948
10.26055 819.78607 810.66614 4292329945
-25.651377 822.40082 812.87085 4290617779
-23.086239 822.40082 812.87085 4290486189
-19.666054 822.40082 812.87085 4290355373
-16.193579 824.56189 810.76892 4290224555
-13.636697 824.56189 810.76892 4290224553
-11.079817 824.56189 810.76892 4290290347
-34.944038 827.16827 812.96643 4290880435
-30.68257 827.16827 812.96643 4290879922
-27.273394 827.16827 812.96643 4290617012
-25.568808 827.16827 812.96643 4290682805
-23.011929 826.51666 812.41699 4290617005
-19.602753 826.51666 812.41699 4290157996
-16.477676 826.2995 812.23389 4290092970
-13.60734 827.30304 810.46411 4290224555
-11.055964 827.30304 810.46411 4290355884
-7.6541286 827.30304 810.46411 4290487214
-5.1027522 827.30304 810.46411 4290618801
-22.111927 829.90375 812.65698 4290485676
-19.560551 829.90375 812.65698 4290026926
-16.158716 829.25354 812.10876 4290092719
-13.60734 828.60339 811.56055 4290224305
-11.055964 828.60339 811.56055 4290224046
-7.6541286 828.60339 811.56055 4290224043
-5.1027522 828.60339 811.56055 4290158250
-19.497248 833.34839 811.63721 4290487477
-16.106422 832.70032 811.09076 4290158771
-13.563303 832.05225 810.54431 4290224055
-11.020184 832.05225 810.54431 4290092466
-7.6293578 832.05225 810.54431 4290092716
-4.2385321 832.05225 810.54431 4290289329
1.6954129 832.05225 810.54431 4291341753
-30.517431 834.64453 812.7301 4290617525
-28.822018 834.64453 812.7301 4290551732
-22.888073 834.64453 812.7301 4290618029
-19.455046 836.07123 811.31702 4290684338
-15.789603 835.64014 810.95343 4290289838
-13.533945 835.42456 810.77173 4290158513
-10.714374 835.20898 810.59003 4290092973
-7.612844 834.77789 810.22644 4290224040
-4.5113149 835.20898 810.59003 4290486697
-1.6917431 834.77789 810.22644 4291143871
1.6917431 835.42456 810.77173 4291736773
4.5113149 835.20898 810.59003 4291867858
7.612844 834.77789 810.22644 4292000211
10.99633 834.77789 810.22644 4292132568
13.533945 834.77789 810.22644 4292264667
16.07156 834.77789 810.22644 4292462301
40.601833 834.77789 810.22644 4294966527
43.13945 834.77789 810.22644 4294967295
46.522934 834.77789 810.22644 4294967295
49.906422 834.77789 810.22644 4294967295
-28.759632 837.36462 812.40759 4290486707
-22.838531 837.36462 812.40759 4290749102
-19.42477 838.4325 811.34595 4290617775
-16.019266 839.50043 810.2843 4290420651
-13.489908 839.50043 810.2843 4290420651
-10.96055 839.50043 810.2843 4290289323
-7.5880733 839.50043 810.2843 4290355370
-4.2155962 839.50043 810.2843 4290486959
-1.6862385 839.50043 810.2843 4290815674
1.6862385 839.50043 810.2843 4291408326
4.2155962 839.50043 810.2843 4291343561
7.5880733 839.50043 810.2843 4291737042
10.96055 839.50043 810.2843 4291934419
13.489908 839.50043 810.2843 4292329176
16.019266 839.50043 810.2843 4292395481
18.548624 839.50043 810.2843 4292987872
35.411011 839.50043 810.2843 4294967295
42.999084 839.50043 810.2843 4294967295
46.371559 839.50043 810.2843 4294967039
49.744034 839.50043 810.2843 4294967039
52.273396 839.50043 810.2843 4294967295
-25.293577 842.07874 812.45825 4290484913
-22.764221 841.4342 811.91479 4290486189
-19.672783 841.2193 811.73364 4290355630
-16.019266 841.4342 811.91479 4290290092
-13.489908 841.4342 811.91479 4290420905
-10.96055 840.78961 811.37134 4290420905
-5.0587158 840.78961 811.37134 4290486959
1.6862385 840.78961 811.37134 4291473868
4.2155962 840.78961 811.37134 4291474119
6.7449541 840.78961 811.37134 4291539661
-22.71468 844.78339 812.12268 4290354610
-19.069113 844.35455 811.76117 4290289332
-15.984404 844.78339 812.12268 4290421166
-13.46055 844.78339 812.12268 4290618029
-10.936697 844.1402 811.58032 4290552495
-7.571559 844.1402 811.58038 4290552498
-4.2064219 844.1402 811.58032 4290947512
-1.6825688 844.1402 811.58038 4290947767
1.1217126 843.92578 811.3996 4291144130
3.9259937 843.92578 811.3996 4291474114
7.5715594 843.49701 811.03809 4291671245
10.936697 843.49701 811.03809 4291803601
13.46055 843.49701 811.03809 4292000212
0 848.18872 811.06982 4290947260
4.1926603 848.18872 811.06982 4291343815
7.5467887 848.18872 811.06982 4291606219
-6.7082567 849.47083 812.15088 4290749879
-4.1926603 849.47083 812.15088 4290947513
-1.6770642 849.47083 812.15088 4290815670
0.83853209 850.17578 811.43726 4291144639
4.1871557 850.17578 811.43726 4291408327
7.5302753 850.88068 810.72363 4291736522
10.877064 850.88068 810.72363 4291999442
13.387156 850.88068 810.72363 4291804368
22.590824 850.88068 810.72363 4292857060
25.937614 850.88068 810.72363 4293055724
28.447706 850.88068 810.72363 4293385710
30.957798 850.88068 810.72363 4294439421
-7.2513757 853.01288 812.52148 4290486194
-4.183486 852.79968 812.34167 4290749879
-1.6733944 852.15997 811.80237 4290815670
0.83669722 852.79968 812.34167 4291144386
4.183486 852.79968 812.34167 4291408323
7.5302753 852.79962 812.34167 4291539401
-6.6715598 856.8208 811.80811 4290420914
-4.1697249 856.8208 811.80811 4290815927
-1.66789 856.18323 811.27057 4290815671
0 855.54572 810.73303 4290815422
4.1697249 856.8208 811.80811 4291474371
7.5055046 856.8208 811.80811 4291408329
10.841284 856.18323 811.27051 4291605706
13.34312 855.54572 810.73303 4291606221
15.844954 855.54572 810.73303 4292132564
19.180733 855.54572 810.73303 4292133076
22.794495 855.9707 811.09137 4292397028
25.852295 856.18323 811.27057 4292529640
28.354128 856.18323 811.27057 4292990700
30.855965 856.18323 811.27057 4294242556
33.3578 855.54572 810.73303 4294967295
-18.346788 858.09595 812.8833 4290027175
-15.844954 858.09595 812.8833 4290289580
-13.34312 858.09595 812.8833 4290289580
-10.829357 859.4314 812.70129 4290158763
-7.4935784 859.78107 812.3421 4290092459
-4.1605506 860.13074 811.98291 4290552753
-1.6642202 859.49457 811.44653 4290750129
0.83302754 859.1449 811.80566 4291078850
3.885627 859.45245 812.28302 4291342530
7.4889908 859.49457 811.44653 4291408329
10.81743 859.49457 811.44653 4291474888
14.137615 859.20813 810.5509 4291737805
16.623854 859.55774 810.19171 4291803342
19.117432 859.5578 810.19171 4292132563
22.189604 859.0705 811.08887 4292659424
25.795414 859.49457 811.44653 4292529637
29.123852 859.49457 811.44653 4293385717
31.620184 859.49457 811.44653 4294967295
34.078903 859.5578 810.19171 4294967295
37.112537 860.00293 810.13104 4294967295
41.51376 860.89325 810.00977 4294967295
-6.6422019 863.43225 812.15063 4290092465
-4.1513762 863.43225 812.15063 4290290101
-1.6605505 862.16272 811.0802 4290553265
0.83027524 862.79749 811.61542 4290816703
4.4281344 863.00909 811.79376 4291343561
7.472477 862.16272 811.0802 4291212485
10.793578 862.16272 811.0802 4291211463
13.284404 862.16272 811.0802 4291606219
16.605505 862.16272 811.0802 4292000977
19.096329 862.16272 811.0802 4292264406
22.694191 862.58594 811.43701 4292265181
25.738533 862.16272 811.0802 4292528866
29.059633 862.16272 811.0802 4292990187
31.550459 862.16272 811.0802 4294967295
33.21101 862.16272 811.0802 4294967295
-3.3100917 866.78711 811.05518 4290356918
-1.6550459 866.78711 811.05518 4290620346
4.1376147 866.78711 811.05518 4291212231
7.4477062 866.78711 811.05518 4291015365
10.757798 866.78711 811.05518 4291211975
14.06789 866.78711 811.05518 4291539913
16.550459 866.78711 811.05518 4291672012
19.033028 866.78711 811.05518 4292067284
22.343121 866.78711 811.05518 4291936726
25.65321 866.78711 811.05518 4292464354
28.963303 866.78711 811.05518 4292859371
31.445871 866.78711 811.05518 4294967295
41.376148 866.78711 811.05518 4294967039
43.031193 866.78711 811.05518 4294967039
-4.1376147 868.05237 812.12207 4290356656
-1.6513761 869.43976 810.67578 4290619572
0.82752293 868.74609 811.39893 4290817207
4.1376147 868.05237 812.12207 4291278026
7.4477062 868.05237 812.12207 4291211209
10.757798 868.05237 812.12207 4291212485
14.036697 869.43976 810.67578 4291408327
16.513762 869.43976 810.67578 4291407820
18.990826 869.43976 810.67578 4292263896
22.293579 869.43976 810.67578 4292068311
25.596329 869.43976 810.67578 4292464353
28.899082 869.43976 810.67578 4292925420
31.376146 869.43976 810.67578 4294967295
37.981651 869.43976 810.67578 4294835195
40.458717 869.43976 810.67578 4294966015
43.761467 869.43976 810.67578 4294967039
47.06422 869.43976 810.67578 4294965759
49.541283 869.43976 810.67578 4294966015
52.018349 869.43976 810.67578 4294966527
55.321102 869.43976 810.67578 4294966783
58.623856 869.43976 810.67578 4294967295
-3.8532112 871.54395 812.45001 4290356400
-1.6513761 871.3335 812.27258 4290554035
0 871.3335 812.27258 4290422196
4.1284404 871.96472 812.80481 4290948546
7.4311929 871.3335 812.27258 4291144900
10.733945 871.3335 812.27258 4291211971
14.036697 871.3335 812.27258 4291342538
16.513762 871.3335 812.27258 4291539406
18.990826 871.3335 812.27258 4291934676
22.293579 870.70227 811.74036 4292002005
25.596329 870.70227 811.74036 4292463841
28.834862 872.08691 810.29175 4292662763
31.306421 872.08691 810.29175 4294967295
34.601833 872.08691 810.29175 4294967295
37.897247 872.08691 810.29175 4294704123
40.368805 872.08691 810.29175 4294966015
43.761467 870.70227 811.74036 4294966015
47.06422 870.70227 811.74036 4294965246
49.541283 870.70227 811.74036 4294965247
52.018349 870.70227 811.74036 4294965759
55.198166 872.08691 810.29175 4294966783
58.493576 872.08691 810.29175 4294967295
60.965137 872.08691 810.29175 4294967295
0 874.60626 812.41602 4290619576
14.829358 874.60626 812.41602 4291408843
18.948624 874.60626 812.41602 4291738066
22.244038 873.97644 811.88501 4291869908
25.53945 873.97638 811.88495 4292463327
28.011009 873.34656 811.35388 4292858601
41.192661 873.34656 811.35388 4294965759
43.389603 873.76642 811.70795 4294965759
46.685017 873.76642 811.70795 4294966271
49.431194 873.34656 811.35388 4294966527
51.902752 873.34656 811.35388 4294966015
54.374313 873.34656 811.35388 4294967295
57.669724 873.34656 811.35388 4294967295
22.169724 877.93024 811.29468 4291607503
26.275229 877.93024 811.29468 4292530403
28.46483 877.09326 810.58893 4293056493
34.48624 876.67474 810.23608 4294967295
40.233948 876.67474 810.23608 4294899454
43.518349 877.30249 810.76538 4294965247
46.80275 877.30249 810.76538 4294965759
49.813457 877.09326 810.58893 4294966527
52.550457 876.67474 810.23608 4294964735
55.013763 876.67474 810.23608 4294966527
58.298164 876.67474 810.23608 4294965759
60.761467 876.67474 810.23608 4294966527
64.045868 876.67474 810.23608 4294966271
14.779817 879.18573 812.35327 4291213512
19.144342 880.0611 812.2193 4291607247
22.133026 880.84216 811.78784 4291739091
25.411009 880.8421 811.78784 4292529889
28.674313 881.18549 811.42334 4292925163
31.951376 880.55914 810.89526 4294966783
34.409176 881.18549 811.42334 4294967295
36.866974 881.18549 811.42334 4294835964
40.144035 881.18549 811.42334 4294899966
43.421101 881.18549 811.42334 4294966015
46.425079 880.97675 811.24731 4294965247
49.975227 880.55914 810.89526 4294965759
52.433029 880.55914 810.89526 4294964990
54.890823 880.55914 810.89526 4294965759
58.167892 880.55914 810.89526 4294966015
61.444954 880.55914 810.89526 4294966271
64.722015 880.55914 810.89526 4294966271
22.070641 884.43225 811.5448 4291739092
25.340366 884.43225 811.5448 4292266204
28.610092 884.43225 811.5448 4292727271
31.879816 883.80737 811.01794 4294899967
35.149544 884.43225 811.5448 4294967295
37.601833 884.43225 811.5448 4294638330
40.054131 884.43225 811.5448 4294899967
43.323853 884.43225 811.5448 4294966271
46.866058 884.01562 811.19354 4294900221
49.863304 883.80737 811.01794 4294965759
53.133026 883.80737 811.01794 4294965758
55.58532 883.80737 811.01788 4294966271
57.765137 883.59906 810.84229 4294966015
61.579819 883.59906 810.84229 4294899454
63.759632 883.18243 810.49097 4294966527
-4.0871563 885.68213 812.59863 4290422190
0 885.68213 812.59863 4290619322
17.983486 885.68213 812.59863 4291933903
19.618349 885.68213 812.59863 4291541196
22.070641 885.68213 812.59863 4291738835
25.255047 887.72961 810.401 4292265692
28.563303 886.70587 811.49982 4292858601
31.879816 885.68213 812.59863 4294702591
35.149544 885.68213 812.59863 4294967295
37.601833 885.68213 812.59863 4294506742
40.054131 885.68213 812.59863 4294899967
43.323853 885.68213 812.59863 4294966271
46.593578 885.68213 812.59863 4294966270
49.695412 887.72961 810.401 4294966527
53.133026 885.68213 812.59863 4294965247
55.58532 885.68213 812.59863 4294965503
57.842201 887.72961 810.401 4294964990
61.100918 887.72961 810.401 4294899197
63.544952 887.72961 810.401 4294967295
8.1467886 890.22095 812.50159 4291408326
17.108257 890.22095 812.50159 4291276992
19.552294 889.59814 811.97644 4291540939
21.724771 889.39056 811.80145 4291869906
24.440367 888.97528 811.45129 4292462046
28.513762 888.97528 811.45129 4293187051
31.772476 888.97528 811.45129 4294702335
35.302753 889.39044 811.80145 4294967295
37.475231 889.59814 811.97644 4294638585
39.647705 889.39056 811.80145 4294701561
43.449543 889.39056 811.80145 4294965502
46.436699 889.59814 811.97644 4294899965
49.695412 888.97528 811.45129 4294899711
52.954124 889.59814 811.97644 4294899710
55.398167 888.97528 811.45129 4294965247
57.842201 888.97528 811.45129 4294899198
65.174309 888.97528 811.45129 4294964991
17.069725 892.82312 812.07971 4291408329
19.508257 892.82312 812.07971 4291607502
22.217737 892.40887 811.73041 4291673552
25.198164 892.20172 811.55573 4292265434
28.449541 892.20166 811.55566 4292726758
31.700916 892.20166 811.55566 4294571007
34.681347 892.40887 811.73041 4294967295
37.390827 892.82312 812.07971 4294835709
40.6422 891.58026 811.03174 4294965247
43.080734 892.20166 811.55573 4294965759
45.519264 892.82312 812.07971 4294965503
49.854435 891.99457 811.38104 4294964991
52.834862 892.82312 812.07971 4294965759
56.086239 891.58026 811.03174 4294964991
58.524769 891.58026 811.03174 4294965503
60.963303 891.58026 811.03174 4294966271
64.214676 891.58026 811.03174 4294965247
11.354129 896.65979 812.69849 4291668417
13.787156 896.65979 812.69849 4291209666
17.031193 896.65979 812.69849 4291144903
19.46422 896.65979 812.69849 4291081158
21.897247 896.65979 812.69849 4291409867
25.141285 896.03979 812.17572 4292265431
28.385323 896.03973 812.17566 4292397793
31.629356 896.03973 812.17566 4294570239
34.873394 896.03973 812.17566 4294967295
38.117432 895.41974 811.65295 4294637562
40.550457 894.79968 811.13019 4294966015
42.821281 895.66779 811.86206 4294965759
46.389725 895.66779 811.862 4294966015
49.201221 895.00635 811.30444 4294966015
52.445263 895.83307 812.00146 4294899710
55.959633 894.79968 811.13013 4294965758
58.392662 894.79968 811.13019 4294966015
60.825687 894.17969 810.60742 4294965759
64.069725 894.17969 810.60742 4294899198
32.330276 899.922 811.52515 4294964479
35.563301 899.922 811.52515 4294967295
38.257492 899.51007 811.17773 4294505464
40.412846 899.30408 811.00409 4294966783
42.837616 899.922 811.52515 4294900222
46.070641 899.922 811.52515 4294966015
49.303669 899.30408 811.00409 4294966015
52.806118 899.51007 811.17773 4294965759
55.769726 899.30408 811.00409 4294966271
59.002754 899.30414 811.00403 4294966015
61.427525 898.68622 810.48303 4294965759
64.121712 899.09814 810.83038 4294965759
25.055964 901.15784 812.56714 4292000721
28.28899 901.15784 812.56714 4292330975
31.522018 901.15784 812.56714 4294372091
34.755043 901.15784 812.56714 4294967295
37.988075 901.15784 812.56714 4294571513
40.412846 901.15784 812.56714 4294965503
42.837616 901.15784 812.56714 4294965757
46.070641 901.15784 812.56714 4294966015
49.246788 901.83057 811.82629 4294965247
52.536697 901.15784 812.56714 4294964991
55.64312 902.50323 811.08545 4294965247
58.868805 902.50323 811.08545 4294966271
62.094494 901.88672 810.56561 4294966015
64.513763 902.50323 811.08545 4294898942
40.321102 903.73627 812.12512 4294965503
43.546787 903.73627 812.12512 4294966013
45.966057 903.73627 812.12512 4294966527
49.191742 903.73627 812.12512 4294964991
52.417431 903.73627 812.12512 4294964735
55.578899 904.40753 811.38306 4294965503
58.734863 905.0788 810.64099 4294966015
61.953209 905.0788 810.64099 4294966271
64.366974 905.0788 810.64099 4294965759
19.310091 907.53925 812.71558 4291080125
22.52844 907.53925 812.71558 4291211965
24.942204 907.53925 812.71558 4291738829
28.160549 907.53925 812.71558 4292069339
30.574312 907.53925 812.71558 4293123054
33.79266 907.53925 812.71558 4294967295
37.011009 907.53925 812.71558 4294572791
41.033943 907.53925 812.71558 4294899454
46.129658 907.12915 812.36981 4294964735
49.079819 906.92413 812.1969 4294964991
52.298164 906.92413 812.1969 4294900222
55.484406 907.25836 811.82471 4294966015
58.667892 907.59259 811.45258 4294966271
61.882568 907.59259 811.45251 4294899709
64.854439 907.57477 811.87354 4294833406
28.899082 910.10358 812.26172 4291740890
30.504587 910.10358 812.26172 4293056749
38.532108 910.10358 812.26172 4294372596
40.940369 910.10358 812.26172 4294898941
44.151375 910.10358 812.26172 4294899198
46.559631 910.10358 812.26172 4294965247
48.967888 910.10358 812.26172 4294965247
52.178902 910.10358 812.26172 4294964733
55.389908 910.10358 812.26172 4294965247
58.600918 910.10358 812.26172 4294966527
61.811928 910.10358 812.26172 4294964733
65.825691 910.10358 812.26172 4294964735
38.400002 914.55115 812.08777 4294701304
40.799999 914.55115 812.08777 4294964990
44 914.55115 812.08777 4294964735
46.400002 914.55115 812.08777 4294964991
48.799999 913.93951 811.57208 4294965759
52 913.93951 811.57208 4294833148
55.200001 914.55115 812.08777 4294964991
58.666668 914.14337 811.74396 4294965503
61.599998 913.93958 811.57214 4294832894
64 913.32794 811.0564 4294767102
41.504585 917.1001 811.62085 4294965247
43.899082 917.1001 811.62085 4294965247
52.678898 917.1001 811.62085 4294965759
40.659634 919.59076 812.4129 4294832891
43.848625 919.59076 812.4129 4294898940
47.037613 919.59076 812.4129 4294964991
49.941284 920.01416 812.33392 4294964479
51.880733 918.3205 812.6499 4294964991
60.660549 918.3205 812.6499 4294964735
46.080734 923.39587 811.69714 4294964735
41.313763 924.61066 812.72144 4294767100
43.69725 924.61066 812.72144 4294833148
46.080734 924.61066 812.72144 4294898940
-36.875229 786.93988 815.67188 4290751414
-35.045872 788.41711 814.30127 4290751414
-36.798164 789.75677 815.43079 4290487472
-33.990826 794.77539 813.12231 4290356405
-31.376146 794.77539 813.12231 4290422711
-36.605503 796.77435 814.80774 4290553269
-33.990826 796.77435 814.80774 4290291126
-31.376146 796.10803 814.24597 4290291647
-33.014679 800.96802 814.41968 4290553270
-31.277063 799.63959 813.29956 4290619846
-28.670643 799.63959 813.29956 4290487999
-36.48991 802.29645 815.53979 4290750131
-34.752293 802.29645 815.53979 4290619315
-32.044037 805.14911 814.02094 4290553781
-29.445871 804.487 813.46265 4290488247
-34.605503 808.52356 815.55811 4290554040
-32.264221 809.0307 814.67767 4290487989
-28.519266 807.2688 813.19214 4290290863
-25.926605 807.2688 813.19214 4290356656
-31.012844 812.08954 813.33276 4290290863
-28.42844 812.08954 813.33276 4290225070
-25.844036 812.08954 813.33276 4290290863
-31.874311 814.06531 814.99866 4290093743
-28.42844 813.40674 814.44336 4290421679
-24.929358 814.8559 813.04919 4290355632
-22.350458 814.8559 813.04919 4290290098
-19.771561 814.8559 813.04919 4290027444
-31.806421 817.48468 815.26575 4290224555
-28.654434 816.6084 814.52686 4290157736
-24.929358 816.17029 814.15747 4290420143
-30.847706 820.96014 814.27209 4290617775
-27.991438 820.52344 813.90381 4290551727
-25.706423 819.64996 813.16736 4290748334
-23.992661 819.64996 813.16736 4290355121
-35.056881 823.70819 813.97314 4290618546
-31.671558 822.98926 814.67493 4290552238
-28.216515 823.70819 813.97314 4290683312
-25.651377 823.70819 813.97314 4290748850
-32.491745 825.01556 815.07544 4290946229
-29.07156 825.01556 815.07544 4290879922
-31.534863 829.12305 814.61469 4290683060
-28.125687 828.47144 814.06531 4290682806
-25.568808 828.47144 814.06531 4290682807
-23.86422 828.47144 814.06531 4290617262
-31.75046 832.50446 814.84985 4290618035
-27.781652 831.63751 814.1189 4290683314
-25.513762 831.85431 814.30164 4290749362
-22.962385 831.2041 813.75342 4290551982
-30.517431 835.94067 813.823 4290486707
-27.126606 835.94067 813.823 4290617775
-25.431192 835.94067 813.823 4290617775
-30.451376 839.30463 814.04333 4290421172
-27.913761 839.30457 814.04333 4290354866
-25.376146 838.65796 813.49805 4290617525
-28.759632 841.24463 815.67908 4290420151
-28.666056 845.94617 815.71924 4290420653
-26.136696 844.65704 814.63232 4290354352
-25.238533 848.6424 815.37646 4290224557
-22.714678 847.35602 814.29193 4290223789
-19.517797 847.09882 814.07501 4290289583
-15.984404 846.71283 813.74963 4290552237
-13.46055 846.71289 813.74957 4290617774
-10.936697 846.71283 813.74963 4290617777
-7.8519874 846.49854 813.56885 4290684087
-4.2064219 846.0697 813.20728 4290947770
-1.6825688 846.0697 813.20728 4290816696
1.6825688 846.0697 813.20728 4291473604
-18.447706 850.75299 813.23193 4289765287
-15.93211 850.75299 813.23193 4290027178
-13.416513 850.75299 813.23193 4290420651
-10.900917 850.75299 813.23193 4290617776
-8.3853207 850.75299 813.23193 4290617779
1.6770642 850.75299 813.23193 4291407813
-25.155964 853.31726 815.39404 4290617514
-22.344954 853.35699 814.5556 4290486697
-19.265139 853.37683 814.13635 4290027690
-15.91468 853.37683 814.13635 4290289579
-13.401834 853.37683 814.13635 4290419883
-10.88899 853.37683 814.13635 4290617519
-8.3669729 854.71863 813.95972 4290420653
1.6733944 854.71863 813.95972 4291407559
-22.590824 855.99799 815.03845 4290354858
-20.080734 855.99799 815.03845 4290092968
-22.238533 860.22113 814.67511 4290355372
-19.458715 859.79608 814.31671 4290092464
-15.844954 859.37103 813.95837 4290092968
-13.34312 859.37103 813.95837 4289962152
-21.634863 863.31152 814.66479 4290158512
-18.86116 862.88739 814.30719 4290092722
-16.642202 862.67535 814.12842 4290354343
-14.145872 862.67535 814.12842 4290420137
-11.0948 862.46332 813.94965 4290223530
-8.3211012 862.03918 813.59204 4290092714
-25.795414 864.5838 815.73767 4290159275
-22.443119 865.27753 815.01453 4289961649
-19.096329 865.97125 814.29138 4290093232
-16.605505 865.97125 814.29138 4290289578
-14.114679 865.97125 814.29138 4290223785
-10.51682 865.5481 813.93457 4290092970
-7.472477 865.33655 813.75616 4290093227
-4.9816513 864.70178 813.22095 4290487472
1.6605505 864.70178 813.22095 4291015104
-24.908257 867.24078 815.36182 4289962412
-22.417431 867.24078 815.36182 4289895854
-19.066055 868.27924 814.27539 4290027692
-16.605505 867.24078 815.36182 4290158762
-14.114679 867.24078 815.36182 4289961639
-10.793578 867.24078 815.36182 4289962409
-7.4614677 868.27924 814.27539 4289962411
-4.9651375 869.31769 813.18896 4290356656
1.6550459 869.31769 813.18896 4290883000
4.1376147 869.31769 813.18896 4291079877
-28.963303 871.84827 815.32263 4290092971
-25.377371 871.42651 814.96704 4290027692
-22.343121 870.58301 814.25586 4290027692
-19.033028 870.58301 814.25586 4289896873
-16.550459 870.58301 814.25586 4290027425
-14.06789 870.58301 814.25586 4289961380
-10.481957 871.0047 814.61151 4290092972
-7.4477062 870.58301 814.25586 4290027690
1.6550459 870.58301 814.25586 4290882751
-31.376146 875.12097 815.46606 4290092714
-28.899082 875.12097 815.46606 4289896103
-25.596331 875.12097 815.46606 4289961898
-22.293579 874.48975 814.93384 4290092970
-18.990826 873.85852 814.40161 4290027689
-16.513762 873.85852 814.40161 4290158762
-14.036697 873.85852 814.40161 4290224298
-11.009174 874.06891 814.57904 4290224045
-7.4311924 873.85852 814.40161 4290092716
-4.1238532 874.54663 813.67377 4290421678
-1.6495413 874.54663 813.67377 4290487727
1.2385321 874.8338 814.56995 4290881980
4.1284404 874.48975 814.93384 4291014333
7.4311929 874.48969 814.93384 4291014849
10.727523 874.20258 814.03766 4291211968
13.740673 874.98639 813.60858 4291277765
16.495413 874.54663 813.67377 4291343563
18.948624 875.86597 813.47815 4291606991
24.715597 875.86597 813.47815 4292726753
-21.420183 878.38531 815.60242 4290157997
-18.948624 877.75543 815.07141 4290092452
-16.477064 877.75549 815.07135 4290224042
-13.730887 877.54559 814.89435 4290224552
-10.435473 877.54547 814.89435 4290224044
-7.6892967 877.54559 814.89435 4290223531
-4.119266 877.12561 814.54028 4290486958
-1.6477064 877.75549 815.07135 4290684337
0.82385319 877.75549 815.07135 4290881722
4.119266 878.38531 815.60242 4291014332
7.4146786 878.38531 815.60242 4291145920
10.435473 877.54559 814.89435 4291015106
13.181651 877.12561 814.54028 4291147719
16.477064 877.12561 814.54028 4291146952
-16.422018 881.69666 814.47046 4290355371
-14.232415 881.27814 814.11761 4290420907
-10.948013 881.27814 814.11761 4290486697
-7.3899078 881.06897 813.94116 4290355115
-4.1055045 880.44122 813.41187 4290486958
-1.6422018 881.69666 814.47046 4290750901
0.82110089 881.06897 813.94116 4290750907
4.1055045 881.69666 814.47046 4291014591
7.3899078 881.69666 814.47046 4291211200
10.674313 881.06897 813.94116 4291079876
13.958715 880.44122 813.41187 4291278278
16.422018 880.44122 813.41187 4291277256
18.06422 880.44122 813.41187 4291672014
-16.422018 882.95215 815.52893 4290224557
-13.958715 882.95215 815.52893 4290224299
-10.650459 884.31714 814.06384 4290355371
-7.100306 883.8996 813.71173 4290224299
-4.0963306 883.06445 813.00769 4290553265
-1.6385322 884.31714 814.06384 4290685619
0.81926608 883.6908 813.53577 4290685372
4.0963306 884.31714 814.06384 4291014591
7.3733945 884.31714 814.06384 4291342786
10.923549 883.8996 813.71173 4291342536
13.927523 883.6908 813.53577 4291342275
16.385321 883.6908 813.53577 4291210693
18.843121 883.06445 813.00769 4291606478
-10.650459 885.56982 815.12012 4290028202
-7.366055 886.25092 814.38635 4290028200
-4.0871563 886.93201 813.65259 4290027945
-1.6348624 886.93201 813.65259 4290488243
0.81926608 886.25092 814.38635 4290685887
4.0963306 885.56982 815.12012 4290949055
7.3568807 886.93201 813.65259 4291474117
10.626606 886.93201 813.65259 4291473606
13.89633 886.93201 813.65259 4291276995
17.166054 886.93201 813.65259 4291473604
-13.078899 889.43176 815.76025 4290551982
-10.626606 888.80682 815.2334 4290289835
-7.3568807 888.80682 815.2334 4290158762
-4.359633 888.59845 815.05768 4290224814
-1.6348624 888.18188 814.70642 4290619576
1.0899082 888.59845 815.05768 4290948032
4.0871558 888.80676 815.23334 4290948289
6.5394497 888.18188 814.70642 4291276741
10.626606 888.18188 814.70642 4291145409
13.89633 888.18188 814.70642 4291210950
-13.034863 893.95789 815.65247 4289896105
-10.590826 893.95789 815.65247 4290225068
-7.3321099 893.95789 815.65247 4290159787
-3.9104588 892.9613 814.81219 4290291119
-1.6293578 892.71222 814.60223 4290619572
0.40733945 893.02368 814.86475 4290750651
4.0733948 893.33508 815.12732 4291079869
7.3321099 891.46655 813.55188 4291145920
10.590826 891.46655 813.55188 4291014850
13.849541 891.46655 813.55188 4291080645
-3.2513762 896.55164 815.22351 4290356656
-1.6256881 896.55164 815.22351 4290685621
0 896.55164 815.22351 4290684858
4.3351684 896.13739 814.87421 4290882495
7.1530275 895.06018 813.96594 4291407296
10.296024 894.48022 813.47687 4291538369
13.818348 894.06592 813.12756 4291210180
17.069725 894.06592 813.12756 4291342032
19.508257 894.06592 813.12756 4291607754
21.946789 894.06592 813.12756 4291739088
0 899.13983 814.78967 4290619322
4.866055 899.13983 814.78967 4290882499
7.5694194 898.7265 814.44116 4290882499
10.543119 898.51984 814.26685 4291079107
13.787157 898.51984 814.26685 4291013569
17.031193 898.51984 814.26685 4291078853
19.46422 898.51984 814.26691 4291080133
21.897247 898.51984 814.26691 4291540425
25.141285 897.89984 813.74414 4292133336
28.385323 897.89984 813.74414 4292265951
30.818348 897.89984 813.74414 4293845496
34.062386 897.89984 813.74414 4294967295
-19.46422 900.37988 815.83533 4289962152
-16.220184 900.37988 815.83533 4290159012
-13.787156 900.37988 815.83533 4290224552
-10.543119 900.37988 815.83533 4290159018
-7.2990828 900.37988 815.83533 4290290859
-4.0550461 900.37988 815.83533 4290290606
-1.6220183 900.37988 815.83533 4290488247
0.81100917 900.37988 815.83533 4290619840
4.0550461 900.37988 815.83533 4290882246
7.2990828 900.37988 815.83533 4290948291
10.523853 901.38678 814.72223 4291079612
13.740367 902.39368 813.60913 4290882237
16.973394 902.39368 813.60913 4290947524
19.398165 902.39368 813.60913 4291079364
21.822937 902.39368 813.60913 4291343043
25.055964 902.39368 813.60913 4291541195
28.28899 902.39368 813.60913 4292266210
31.522018 902.39368 813.60913 4294174971
34.755043 902.39368 813.60913 4294967295
37.988075 902.39368 813.60913 4294571769
42.029358 902.39368 813.60913 4294965755
-16.703976 904.45343 815.34589 4290289834
-13.740367 904.24744 815.17224 4290224298
-10.507339 904.24744 815.17224 4290093226
-7.5437312 904.0415 814.99854 4290159532
-4.0412846 904.24744 815.17224 4290225070
-1.6165137 904.24744 815.17224 4290356915
0 904.24744 815.17224 4290422455
4.0412846 904.86536 815.69324 4290881982
7.274312 904.24744 815.17224 4290947774
10.507339 903.62952 814.65125 4291078846
13.723853 904.29944 813.90802 4290947260
16.953213 904.29944 813.90802 4291014337
19.354128 904.9693 813.16479 4291080127
21.797249 904.29944 813.90802 4291211966
24.999083 904.9693 813.16479 4291409608
28.22477 904.9693 813.16479 4292069085
31.450459 904.9693 813.16479 4293781239
34.676147 904.9693 813.16479 4294967295
37.901833 904.9693 813.16479 4294439414
41.127525 904.9693 813.16479 4294898940
43.546787 904.9693 813.16479 4294964733
45.159634 904.9693 813.16479 4294964991
-13.709174 907.43536 815.24414 4290289834
-10.483486 907.43536 815.24414 4290421164
-6.9889908 907.02435 814.89764 4290290347
-4.0321102 907.43536 815.24414 4290356398
-1.612844 907.43536 815.24414 4290619572
0 907.43536 815.24414 4290750901
8.0642204 907.43536 815.24414 4291013569
10.477064 907.1524 814.3515 4291014077
13.693579 907.4859 813.97876 4290816704
16.924772 907.1524 814.3515 4290883008
20.398775 907.91376 813.9035 4290949052
22.52844 908.76947 813.75293 4290948025
24.942204 908.76947 813.75293 4291343304
27.355963 908.76947 813.75293 4292067804
32.220184 907.4859 813.9787 4293978367
34.892353 907.91376 813.9035 4294967295
37.859634 907.4859 813.9787 4294505209
43.546787 906.20233 814.20447 4294898942
-12.873395 911.22992 815.82751 4290355371
-10.459633 911.22992 815.82751 4290289836
-6.9730887 910.81982 815.48175 4290158764
-4.0229359 911.22992 815.82751 4290487471
-1.6091744 911.22992 815.82751 4290750899
0 911.22992 815.82751 4290619576
4.0229359 911.22992 815.82751 4290948796
7.50948 910.81982 815.48175 4290947260
10.459633 909.99969 814.79016 4290883003
13.677982 909.99969 814.79016 4290882751
16.896332 909.99969 814.79016 4291080381
20.068806 911.33099 813.29675 4291079612
22.477064 911.33099 813.29675 4291210428
24.885323 911.33099 813.29675 4291540172
28.096329 911.33099 813.29675 4291936220
31.307339 911.33099 813.29675 4293516278
34.518349 911.33099 813.29675 4294967295
37.729355 911.33099 813.29675 4294637049
40.940369 911.33099 813.29675 4294965247
44.151375 911.33099 813.29675 4294898942
46.559631 911.33099 813.29675 4294964735
55.389908 911.33099 813.29675 4294965503
57.798164 911.33099 813.29675 4294966015
65.825691 911.33099 813.29675 4294964991
67.58532 909.99969 814.79016 4294965247
7.2247705 913.78583 815.36658 4291014073
10.43578 913.17212 814.84912 4291013819
13.64679 913.17212 814.84912 4290881985
16.8578 913.17212 814.84912 4290882235
20.068806 912.55841 814.33167 4290684343
22.477064 912.55841 814.33167 4291011770
24.885323 913.17212 814.84912 4291012800
28.096329 912.55841 814.33167 4291738579
31.307339 912.55841 814.33167 4292990443
34.518349 912.55841 814.33167 4294967295
36.926605 912.55841 814.33167 4294638330
65.825691 913.17212 814.84912 4294899199
67.43119 913.17212 814.84912 4294899453
16.799999 916.99756 814.15051 4290422199
20 916.38599 813.63477 4290881466
22.4 916.38599 813.63483 4290749881
24.799999 916.99756 814.15051 4290815672
28 916.38599 813.63477 4291738061
31.200001 916.38599 813.63483 4292660706
34.400002 916.38599 813.63477 4294967295
37.599998 916.38599 813.63483 4294505464
40 915.77435 813.11914 4294964735
46.400002 915.77435 813.11914 4294965503
48.799999 915.77435 813.11914 4294965503
51.200001 915.77435 813.11914 4294964479
55.200001 916.38599 813.63483 4294898942
58.400002 916.38599 813.63477 4294964991
61.866669 916.18213 813.46289 4294965759
64.533333 916.58984 813.8067 4294965759
-4 918.22083 815.18188 4290684335
0 918.22083 815.18188 4290881465
10.4 918.22083 815.18188 4290947512
13.6 918.22083 815.18188 4290948025
16.799999 918.22083 815.18188 4290749366
19.977064 919.49109 814.94489 4290815674
22.4 918.22083 815.18188 4290750129
24.799999 918.22083 815.18188 4290815925
28 918.22083 815.18188 4291474636
31.200001 918.22083 815.18188 4292528102
34.639755 919.06763 815.02393 4294967295
37.51376 920.15112 814.19342 4294505207
52.678898 919.54089 813.67896 4294966271
55.339447 919.94775 814.02197 4294965502
58.266056 920.15112 814.19348 4294898943
61.192661 919.94775 814.02197 4294964991
64.435478 919.50763 814.52295 4294964991
14.366973 921.98175 815.73694 4290881465
16.761467 921.98175 815.73694 4290947512
19.954128 921.98175 815.73694 4290815168
22.348623 921.98175 815.73694 4290881465
30.330275 921.98175 815.73694 4291541961
34.321098 921.98175 815.73694 4294967295
37.427521 923.2962 814.22925 4294768123
40.347401 922.48444 813.54486 4294700792
43.798164 922.07861 813.20264 4294898684
47.779816 922.68738 813.71594 4294898939
50.168808 922.68738 813.71594 4294833147
52.557796 922.68738 813.71594 4294965503
54.681347 922.89032 813.88702 4294965246
58.200001 922.63898 814.98309 4294965247
61.582874 922.89032 813.88702 4294899198
63.85321 921.98175 815.73694 4294832895
35.038532 924.51379 815.25586 4294967295
37.427521 924.51379 815.25586 4294703099
40.519264 925.82544 813.74573 4294438134
43.746788 925.16962 814.50079 4294897916
46.930275 925.16962 814.50079 4294766585
50.168808 924.51379 815.25586 4294635513
52.557796 924.51379 815.25586 4294964735
54.946789 924.51379 815.25586 4294898940
57.335781 924.51379 815.25586 4294963455
61.317429 924.51379 815.25586 4294898942
63.706421 924.51379 815.25586 4294701309
38.13578 927.04022 814.77002 4294898940
40.254433 927.44513 815.11151 4294636025
44.491745 927.04022 814.77002 4294963965
46.080734 927.04022 814.77002 4294964479
-36.875229 789.62482 817.93567 4290553265
-36.605503 798.77325 816.49316 4290685108
-34.862385 798.77325 816.49316 4290553270
-37.477066 801.43854 818.74048 4290815670
-34.752293 803.62488 816.65979 4290685369
-36.48991 804.95331 817.77991 4290685108
-36.374313 809.1217 817.37054 4290553014
-34.6422 809.78381 817.92883 4290225590
-36.297249 812.55444 817.6488 4290355893
-34.568806 812.55444 817.6488 4290159795
-36.14312 817.4201 816.51935 4290356404
-34.42202 817.4201 816.51935 4290421936
-32.666054 818.79907 816.37402 4290356143
-32.491745 826.323 816.17786 4290946229
-33.908257 839.82916 817.10168 4290421164
-31.365139 839.82916 817.10168 4290486450
-33.908257 841.12531 818.19458 4290618027
-31.332111 841.83167 817.48212 4290683054
-28.759632 842.53802 816.76965 4290550960
-33.834862 845.12469 818.95068 4290355121
-31.579206 844.26245 818.22363 4290355116
-30.914373 848.09473 817.53082 4290420403
-28.666056 847.87988 817.34967 4290354865
-26.979816 847.23529 816.80615 4290092714
-31.195412 849.8136 818.9801 4290485936
-28.60367 851.21509 817.54565 4290420653
-26.360245 850.35748 816.82257 4290420650
-23.555964 849.92871 816.46106 4290421418
-30.286238 852.5014 818.63025 4290552236
-28.60367 852.5014 818.63025 4290354858
-25.994495 854.59937 816.47522 4290485413
-30.187157 857.16364 818.63733 4290355371
-28.510092 857.16364 818.63733 4290355371
-25.966972 856.57935 816.83667 4290354858
-23.427523 857.27728 816.11707 4290355371
-31.794495 859.83594 818.27454 4290355625
-25.937614 858.55658 817.1958 4290355371
-30.577982 862.7713 816.8255 4290289834
-28.354128 862.55884 816.6463 4290289835
-25.852295 861.92126 816.10876 4290158764
-23.350458 861.92126 816.10876 4290158512
-30.855965 864.4715 818.25903 4290093227
-28.291742 865.85614 816.81042 4289961898
-26.627523 865.85614 816.81042 4290028205
-29.092661 867.81934 817.15771 4289896105
-26.568808 868.51025 816.43225 4290027692
-31.376146 877.646 817.59509 4290420907
-28.899082 877.646 817.59509 4290158248
-25.596331 877.646 817.59509 4290092460
-23.119267 877.01471 817.06287 4290092203
-25.53945 880.90466 817.72668 4290158762
-22.244038 880.27484 817.19562 4290420909
-18.948624 880.2749 817.19556 4290224041
-28.011009 882.16437 818.78882 4290158248
-25.53945 882.16437 818.78882 4290355371
-22.244038 882.16437 818.78882 4290157483
-18.885323 884.20764 816.58752 4290224041
-16.422018 884.20764 816.58752 4290224555
-13.958715 884.20764 816.58752 4290093482
-25.180428 886.30011 818.35187 4290355371
-22.443426 885.88159 817.99902 4290420656
-18.885323 885.46313 817.64612 4290289578
-16.385321 886.82251 816.17627 4290158762
-13.927523 886.82251 816.17627 4290158762
-24.577982 889.32782 818.2887 4290355371
-21.847094 888.91022 817.93671 4290289580
-18.832111 889.03998 817.39197 4290158248
-16.366972 889.37842 817.02332 4290092973
-14.179816 889.81281 816.95361 4290158510
-10.626606 890.68164 816.81409 4290289838
-7.3568807 890.68164 816.81409 4290290091
1.6348624 890.68164 816.81409 4291145153
3.2697248 890.68164 816.81409 4291080123
-27.79266 893.18134 818.92188 4290092714
-25.340366 893.18134 818.92188 4290092453
-22.343119 892.34808 818.21924 4290158249
-19.618349 891.93146 817.86792 4290091433
-17.166054 891.93146 817.86792 4290092202
-14.713761 891.93146 817.86792 4289961128
-27.699083 896.44922 817.75317 4290092717
-25.255047 896.44922 817.75317 4290092969
-21.724771 896.034 817.40302 4289961896
-19.552294 895.82642 817.22797 4289698219
-17.379816 895.61884 817.05292 4290092718
-13.849541 895.20355 816.70276 4290026924
-10.590826 895.20355 816.70276 4290224557
-7.3321099 895.20355 816.70276 4290290858
-4.8880734 895.20355 816.70276 4290422701
1.6293578 895.20355 816.70276 4291013567
-27.699083 897.69489 818.80347 4290026158
-25.255047 897.69489 818.80347 4290157996
-21.972477 898.36609 818.0614 4290224555
-17.069725 898.41589 816.79541 4290027688
-13.818348 897.79449 816.27148 4290092968
-10.566973 897.79449 816.27148 4290290348
-7.3155961 897.79449 816.27148 4290290348
-4.0642204 897.79449 816.27148 4290421678
-1.6256881 897.79449 816.27148 4290685108
1.6256881 897.79449 816.27148 4290882751
3.2513762 897.79449 816.27148 4290948292
-21.659937 901.14014 818.2204 4290223786
-19.46422 902.23999 817.40363 4290224042
-17.842201 901.61993 816.88086 4290158762
1.6220183 902.23999 817.40363 4290685627
4.0550461 901.61993 816.88086 4290947523
-22.708258 904.10004 818.97205 4290223273
-29.097248 908.57288 818.81934 4290289064
-25.055964 908.57288 818.81934 4290158246
-21.822937 907.33704 817.77722 4290289323
-19.398165 906.71912 817.25623 4290355116
-16.96422 907.052 816.88293 4290355371
-13.709174 908.6684 816.28381 4290289579
-10.483486 908.6684 816.28381 4290223785
-8.0642204 908.6684 816.28381 4290158246
-4.0321102 908.6684 816.28381 4290421679
-1.612844 908.6684 816.28381 4290685108
1.0764526 907.81268 816.43427 4290685365
4.0366974 907.38477 816.50952 4290816184
6.4587154 907.38477 816.50952 4290749884
-29.031193 911.13446 818.36304 4290223271
-24.192661 911.13446 818.36304 4290158248
-22.579817 911.13446 818.36304 4290092968
-20.160549 910.51794 817.84326 4290093226
-16.934864 910.51794 817.84326 4290092970
-14.515596 909.90143 817.32349 4290289578
1.612844 909.90143 817.32349 4290816955
-22.52844 914.92065 818.93933 4290158248
-20.114677 914.92065 818.93933 4290289578
-16.628136 914.51056 818.59357 4290159014
-13.677982 913.07526 817.38342 4290158503
-10.459633 913.07526 817.38342 4290420656
-7.2412844 913.07526 817.38342 4290223792
-4.2911315 912.87018 817.21051 4290618802
-1.6091744 912.46014 816.86475 4290881715
1.0727829 912.87018 817.21051 4291078843
4.0229359 913.07526 817.38342 4290882747
-20.068806 917.46808 818.47131 4290616492
-17.660551 917.46808 818.47131 4290814127
-13.914372 916.64984 817.78143 4290224808
-10.43578 916.24066 817.4364 4290289838
-6.9571862 916.64984 817.78143 4290289579
-3.2110093 915.01324 816.40149 4290881715
-1.6055046 915.62695 816.91895 4290947507
1.0703365 916.24066 817.43634 4291013305
3.7461774 916.64984 817.78143 4290751167
7.2247705 915.62695 816.91895 4290948538
10.43578 915.01324 816.40149 4290883002
13.64679 915.01324 816.40149 4290554301
67.43119 915.62695 816.91895 4294965759
-19.200001 920.66724 817.24475 4290420651
-16.533333 920.25952 816.90088 4290421418
-13.333333 920.25952 816.90088 4290355630
-10.4 920.0556 816.729 4290289839
-7.4666667 920.25952 816.90088 4290158253
-4 920.05566 816.729 4290486961
-1.6 920.05566 816.729 4290750134
0 920.05566 816.729 4290881717
4.2666669 920.25952 816.90088 4290553273
7.1999998 920.0556 816.729 4290947259
10.4 920.05566 816.729 4290880951
13.333333 919.85181 816.55713 4291078329
16.799999 919.44403 816.21326 4291012022
22.4 919.44403 816.21326 4290881717
24.799999 920.05566 816.729 4291013308
28 920.0556 816.729 4290948545
31.466667 919.85181 816.55713 4292068574
33.599998 919.44403 816.21326 4294967295
65.599998 920.05566 816.729 4294964735
67.199997 919.44403 816.21326 4294701309
-20 921.89044 818.27612 4290289069
-16.799999 921.89044 818.27612 4290551980
-13.6 921.89044 818.27612 4290617777
-10.4 921.89044 818.27612 4290486449
-7.1999998 921.89044 818.27612 4290026409
-3.9963303 922.54626 817.52106 4290355118
-1.5963303 923.20215 816.76599 4290815924
0.80000001 922.54626 817.52106 4291013303
4 921.89044 818.27612 4290684856
