# .PCD v0.7 - Point Cloud Data file format
VERSION 0.7
FIELDS x y z rgb
SIZE 4 4 4 4
TYPE F F F U
COUNT 1 1 1 1
WIDTH 1176
HEIGHT 1
VIEWPOINT 0 0 0 1 0 0 0
POINTS 1176
DATA ascii
-25.541285 921.98175 815.73694 4289043653
-23.889908 923.2962 814.22925 4288583102
37.427521 922.68738 813.71594 4282200191
-23.06789 925.16962 814.50079 4285949568
31.779816 925.82544 813.74573 4294967295
34.163303 925.82544 813.74573 4278387459
37.427521 924.51379 815.25586 4280620880
-19.862385 927.04022 814.77002 4294108927
-16.419571 927.44513 815.11151 4294967295
-13.499083 927.97491 814.90405 4294967295
-10.316514 928.30212 814.526 4294967295
-7.133945 928.95508 813.76855 4294967295
-3.9651375 928.6286 814.14722 4294967295
-1.5871559 928.30212 814.52594 4294967295
0.7944954 928.30139 814.52533 4294967295
3.972477 927.64764 815.28217 4294967295
7.1458712 927.97485 814.90405 4294967295
10.316514 928.30212 814.526 4294967295
13.490826 928.30212 814.526 4294967295
16.655045 928.6286 814.14722 4294967295
19.828442 928.6286 814.14728 4294967295
23.027523 927.97491 814.90405 4294967295
25.913149 928.31781 814.10321 4294967295
28.050154 928.28644 814.94873 4294967295
30.985321 927.04022 814.77002 4294967295
33.368809 927.04022 814.77002 4283914071
39.640366 749.1897 816.54248 4294967295
41.442204 751.94476 818.86548 4294967295
40.417431 754.89771 817.43127 4294967295
40.592052 759.67194 817.53265 4294967295
42.979816 760.58466 818.30225 4294967295
37.530273 762.0871 816.95312 4294967295
39.913151 762.99799 817.72113 4294967295
37.41468 765.70288 816.07776 4294967295
40.087158 767.06494 817.2262 4294967295
35.522934 770.66809 816.34009 4294967295
37.299084 770.66809 816.34009 4294967295
40.087158 768.42706 818.37463 4294967295
37.299084 772.026 817.48499 4294967295
39.07523 772.70496 818.0575 4294967295
38.873394 778.45575 816.36633 4294967295
40.302753 791.09644 816.56042 4294967295
42.14312 789.62482 817.93567 4294967295
42.055046 793.10583 818.2547 4294967295
41.922935 797.31006 817.87549 4294967295
41.834862 800.1059 817.61682 4294967295
-39.965137 806.28174 818.90002 4289570777
45.034863 809.78381 817.92883 4294967295
44.07523 811.89374 817.09174 4294967295
46.667889 812.55444 817.6488 4294967295
43.911926 817.38916 817.14734 4294967295
46.519264 817.35834 817.77527 4294967295
42.981651 820.11346 817.4823 4294967295
42.752293 827.63037 817.28015 4294967295
42.752293 828.93774 818.38257 4294967295
42.614677 832.38092 817.36169 4294967295
42.522934 835.75537 817.59094 4294967295
42.385323 839.82916 817.10168 4294967295
42.385323 841.12531 818.19458 4294967295
42.293579 843.83136 817.86011 4294967295
42.155964 847.23529 816.80615 4294967295
42.06422 850.5719 817.00336 4294967295
41.926605 854.59937 816.47522 4294967295
40.161469 857.27728 816.11707 4294967295
-36.814678 859.83594 818.27454 4288650442
-35.141285 858.55658 817.1958 4288651462
-38.361469 861.92126 816.10876 4288583880
-35.025688 862.55884 816.6463 4288715981
-38.361469 864.4715 818.25903 4288781776
-34.155045 865.16382 817.53473 4288912845
41.605503 865.85614 816.81042 4294967295
-34.369419 868.01318 817.75714 4288913099
-34.871559 871.04926 818.57312 4288978640
-33.100918 873.11359 816.38953 4288978892
-33.027523 877.01471 817.06287 4288583630
42.93578 878.27722 818.12732 4278190216
-32.130276 880.2749 817.19556 4288780739
-31.201836 884.20764 816.58752 4288781765
42.697247 884.20764 816.58752 4286275233
42.697247 885.46313 817.64612 4291543508
44.141285 893.18134 818.92188 4278190269
-32.587154 895.20355 816.70276 4288782532
-30.888073 897.79449 816.27148 4288715974
43.130276 897.74469 817.53748 4292002801
42.746174 901.58673 817.72485 4283391318
42.172478 904.10004 818.97205 4294967295
-31.908716 907.66992 817.40393 4288452545
-27.418348 908.6684 816.28381 4288715970
-25.805504 908.6684 816.28381 4288781247
40.366974 907.38477 816.50952 4294965759
42.029358 908.57288 818.81934 4294967295
-31.450459 910.51794 817.84326 4288517831
41.127525 910.51794 817.84326 4293591039
-32.183487 914.92065 818.93933 4288385985
41.033943 913.69043 817.90204 4287005830
-30.504587 916.24066 817.43634 4288386498
-28.256878 916.2406 817.43634 4288779976
40.672787 916.24066 817.43634 4283584875
-25.6 919.44403 816.21326 4288978628
40 920.05566 816.729 4294041855
-27.200001 921.89044 818.27612 4287858094
-25.541285 923.20215 816.76599 4286673808
40.754128 922.54626 817.52106 4294965247
-25.541285 924.42255 817.79492 4286736497
-23.121101 925.68646 817.55261 4291279565
-19.908257 926.94904 817.3092 4294967295
-17.519266 926.94904 817.3092 4294967295
31.056881 926.94904 817.3092 4294967295
34.507645 926.54315 816.96698 4287596212
37.492661 925.35999 817.93134 4278255678
-15.926605 928.16663 818.33582 4294967295
-13.537615 928.16663 818.33582 4294967295
-10.341284 928.81824 817.57721 4294967295
-7.1669722 928.16663 818.33582 4294967295
-3.1853211 928.16663 818.33582 4294967295
-1.5926605 928.16663 818.33582 4294967295
0.79633027 928.81824 817.57721 4294967295
3.9816513 928.16663 818.33582 4294967295
7.1669722 928.16663 818.33582 4294967295
10.352293 928.16663 818.33582 4294967295
13.521101 928.81824 817.57721 4294967295
16.702751 928.81824 817.57721 4294967295
19.862385 929.46985 816.8186 4294967295
23.040367 929.46985 816.8186 4294967295
25.423853 929.46985 816.8186 4294967295
27.807339 929.46985 816.8186 4294967295
30.26055 928.16663 818.33582 4294967295
41.568806 748.29675 819.71362 4294967295
43.111927 756.95764 819.16821 4294967295
42.979816 761.95374 819.45667 4294967295
43.831192 764.07129 819.93408 4294967295
46.561466 763.32288 820.61108 4294967295
43.78532 766.86914 820.98511 4294967295
46.466057 766.18604 820.40918 4294967295
40.977982 769.78912 819.52319 4294967295
40.977982 771.15125 820.67163 4294967295
42.759632 772.51331 821.82007 4294967295
40.851376 774.7417 819.7749 4294967295
42.627522 776.09961 820.9198 4294967295
40.766972 778.25989 820.12537 4294967295
40.640366 782.5083 819.78345 4294967295
42.407341 783.85919 820.92236 4294967295
-39.965137 807.61011 820.02014 4289439961
44.939449 815.19727 819.8772 4294967295
46.667889 815.19727 819.8772 4294967295
43.073395 819.99274 819.99646 4294967295
42.981651 822.74225 819.69885 4294967295
44.557796 827.51111 819.79565 4294967295
44.557796 828.82129 820.90027 4294967295
44.319267 837.59363 821.75684 4294967295
43.985321 847.06476 820.58643 4294967295
43.842201 851.10272 820.06714 4294967295
42.953209 853.08978 820.43445 4294967295
42.06422 855.0741 820.79956 4294967295
41.926605 859.08679 820.25891 4294967295
-37.372478 861.54169 819.71271 4288715726
-36.693577 865.74664 819.33411 4288978640
-34.871559 872.31879 819.64343 4288912846
-34.871559 873.58832 820.71387 4288453064
44.834862 874.85779 821.7843 4278190214
42.93578 879.53967 819.19177 4278190108
44.488075 885.94342 821.97522 4288785066
44.240368 890.58051 819.34497 4278205124
44.141285 894.43121 819.97571 4294696191
43.893578 902.14453 819.93927 4293585661
45.570641 901.47607 820.68365 4293523199
-34.062386 905.34009 820.01758 4288452023
43.033028 904.67444 820.76434 4294967295
45.519264 904.00879 821.51111 4294967295
43.794495 906.58014 821.06311 4294967295
-33.946789 910.42664 820.38232 4288320960
43.64587 910.42664 820.38232 4294967295
-34.716515 912.94043 821.19391 4288386239
-32.256882 913.60052 820.44238 4288320705
41.933945 912.36749 819.40271 4285095544
43.546787 914.21704 820.96222 4294964709
45.262386 912.2804 821.94543 4293587199
-32.183487 917.3811 821.01404 4288780734
43.447708 917.3811 821.01404 4294967295
-33.715595 919.92291 820.54126 4288977084
-31.039755 919.51373 820.19629 4289175489
-28.363913 919.10468 819.85126 4289240268
41.743118 918.6955 819.50623 4294967295
-31.307339 921.15033 821.57617 4288648621
-28.096329 921.15033 821.57617 4287462298
40.871559 922.13196 820.44183 4291676927
-27.200001 925.56006 821.37024 4291673852
-25.6 924.94849 820.85455 4293383149
-23.14679 926.86334 819.85303 4294967295
-19.954128 926.86334 819.85303 4294967295
-17.559633 926.86334 819.85303 4294967295
-4.788991 926.86334 819.85303 4294967295
31.926605 926.86334 819.85303 4294967295
34.321098 926.86334 819.85303 4294967295
37.5578 926.21167 820.61163 4278387236
40 924.94849 820.85455 4278190137
-19.155964 928.08374 820.88196 4294967295
-16.761467 928.69397 821.39648 4294967295
-13.568808 928.69397 821.39648 4294967295
-10.633639 928.92407 820.71844 4294967295
-6.9174309 928.49054 821.22491 4294967295
-3.9908257 928.69397 821.39648 4294967295
-1.5963303 928.69397 821.39648 4294967295
0.5321101 928.92407 820.71844 4294967295
3.9908257 928.69397 821.39648 4294967295
7.1788988 929.0191 821.0166 4294967295
10.364221 929.34424 820.63672 4294967295
13.560551 929.0191 821.0166 4294967295
16.742201 929.34424 820.63672 4294967295
19.908257 929.38422 819.36243 4294967295
23.377371 929.3576 820.21191 4294967295
25.482569 929.38422 819.36243 4294967295
27.93578 928.08374 820.88196 4294967295
31.128441 928.08374 820.88196 4294967295
34.321098 928.08374 820.88196 4294967295
19.908257 930.60181 820.38916 4294967295
22.297247 930.60181 820.38916 4294967295
43.508255 748.7981 824.06055 4294967295
45.183487 753.82361 824.37378 4294967295
46.561466 766.74561 823.49701 4294967295
44.083179 769.37402 823.09717 4294967295
44.541283 773.87537 822.96851 4294967295
44.541283 775.23749 824.11707 4294967295
42.627522 778.13647 822.63721 4294967295
44.403671 780.17322 824.35461 4294967295
44.174313 787.23633 823.76996 4294967295
44.036697 791.4574 823.40491 4294967295
44.036697 792.80408 824.54041 4294967295
43.807339 797.79462 822.20813 4294967295
45.655045 797.6795 824.72717 4294967295
45.034863 817.06702 824.06982 4294967295
44.557796 830.13147 822.005 4294967295
44.557796 831.44165 823.10974 4294967295
44.462387 834.16724 822.79187 4294967295
44.319267 838.89679 822.85571 4294967295
44.223854 841.60706 822.5249 4294967295
45.974312 841.55371 823.7879 4294967295
46.623856 847.60608 823.65894 4294967295
45.677063 850.29816 823.31274 4294967295
43.842201 854.32556 822.78455 4294967295
45.528439 854.97015 823.328 4294967295
43.842201 856.25928 824.41492 4294967295
43.746788 858.93311 824.05334 4294967295
45.033028 869.57196 822.55957 4289579992
44.933945 872.21771 822.17432 4282736307
46.700916 870.84705 823.63477 4278190242
46.598164 874.12616 823.78345 4278193487
44.834862 876.76208 823.38995 4278255651
46.238533 885.85217 824.51428 4278214144
46.13578 888.46283 824.09949 4279778143
45.981651 891.74048 822.93909 4294967295
46.390827 896.03778 823.0744 4290889169
46.385323 904.5874 823.30701 4294967295
46.568806 907.35065 823.45685 4294967295
-35.684402 909.06024 823.1543 4287860665
46.227524 909.6803 823.67706 4291349213
-35.024464 913.92822 823.33478 4288385724
45.262386 914.13416 823.50842 4294178559
-34.676147 916.68311 823.04156 4288648379
-33.79266 919.84155 823.08862 4289043127
43.447708 919.22644 822.56995 4292071416
45.159634 918.53265 824.60107 4287862194
-31.064219 922.35156 823.46094 4287856787
-28.363914 922.78693 822.95605 4288251049
41.743118 922.99152 823.12854 4278190143
43.348625 922.99152 823.12854 4278190143
-28.096329 924.83264 824.68091 4294967295
-25.688074 924.83264 824.68091 4294770687
-23.200001 926.78326 822.40161 4294967295
-20.799999 926.78326 822.40161 4294967295
37.599998 926.78326 822.40161 4288120736
40.871559 925.80798 823.54126 4291805152
44.151375 924.83264 824.68091 4294967295
-22.933334 928.41431 823.77679 4294770431
-20 928.61816 823.94867 4294901759
-16.799999 929.22974 824.46436 4294967295
-13.6 929.22974 824.46436 4294967295
-9.6000004 928.61816 823.94867 4294967295
-7.4666667 928.82202 824.12061 4294967295
-4 929.22974 824.46436 4294967295
1.6 928.61816 823.94867 4294967295
4 929.22974 824.46436 4294967295
7.1999998 929.22974 824.46436 4294967295
10.4 929.22974 824.46436 4294967295
13.6 929.22974 824.46436 4294967295
16.799999 929.22974 824.46436 4294967295
19.200001 929.22974 824.46436 4294967295
25.6 928.61816 823.94867 4294967295
28.266668 928.41431 823.77679 4294967295
31.200001 928.61816 823.94867 4294967295
34.400002 928.6181 823.94867 4294967295
37.333332 928.41431 823.77679 4294507261
-11.174312 930.5246 822.94006 4294967295
-1.5963303 930.5246 822.94006 4294967295
0 930.5246 822.94006 4294967295
20.752293 930.5246 822.94006 4294967295
23.14679 930.5246 822.94006 4294967295
45.183487 755.20538 825.53882 4294967295
48.500916 766.57086 827.2738 4294967295
46.561466 768.79926 825.22864 4294967295
48.352295 770.16833 826.38306 4294967295
46.466057 772.33435 825.59326 4294967295
49.198166 772.27747 826.85333 4294967295
44.541283 776.59955 825.2655 4294967295
46.466057 774.38379 827.32129 4294967295
48.253212 774.38379 827.32129 4294967295
46.322937 778.6427 826.98822 4294967295
44.403671 781.53113 825.49951 4294967295
46.179817 782.88904 826.64441 4294967295
46.084404 785.71283 826.40942 4294967295
46.084404 787.06787 827.552 4294967295
45.941284 791.96436 827.75647 4294967295
46.766972 821.70178 827.97778 4294967295
46.519264 827.2373 826.10498 4294967295
46.420185 830.6286 826.34839 4294967295
48.13945 831.94299 827.45667 4294967295
46.271561 834.7171 825.87158 4294967295
47.882568 838.08942 826.099 4294967295
47.728439 842.15479 825.60266 4294967295
47.625687 845.50818 825.81421 4294967295
47.471561 850.19843 825.84473 4294967295
46.80489 853.74707 826.22089 4294967295
46.448624 856.51001 826.58838 4294967295
43.842201 858.83759 826.58887 4294967295
45.528439 859.48218 827.13239 4294967295
43.746788 861.50574 826.22253 4294967295
45.429359 862.79211 827.30713 4294967295
46.700916 875.31 827.39777 4278190103
44.933945 877.30695 826.46545 4278190082
46.598164 878.57922 827.53821 4289502696
44.834862 879.93579 826.06592 4289703855
46.495415 881.20532 827.13635 4288588799
47.889908 889.63965 827.70789 4294967295
47.517429 898.09656 825.68225 4280627528
47.411011 900.68054 825.245 4281151279
48.880733 907.66016 827.20593 4283010727
-37.306423 911.54034 825.24548 4288386491
47.038532 911.54034 825.24548 4278520369
48.770641 910.84448 827.27484 4278190141
47.038532 913.40039 826.81378 4280952914
45.262386 915.98792 825.07141 4292269567
46.019264 919.11267 826.39813 4280098436
-32.183487 922.302 825.16321 4287987077
45.91468 922.26685 826.44165 4289109716
-28.129356 925.41125 826.47681 4294967295
-25.688074 926.06006 825.71582 4294901759
40.940369 926.06006 825.71582 4294507263
44.151375 926.06006 825.71582 4294967295
-27.293577 927.28748 826.75073 4294836223
-24.885323 927.28748 826.75073 4294704895
1.6055046 928.51489 827.78577 4294967295
4.0137615 928.51489 827.78577 4294967295
6.4220185 928.51489 827.78577 4294967295
13.64679 928.51489 827.78577 4294967295
16.8578 928.51489 827.78577 4294967295
19.266054 928.51489 827.78577 4294967295
25.688074 928.51489 827.78577 4294967295
27.828745 928.10577 827.44073 4294967295
31.307339 928.51489 827.78577 4294967295
34.518349 928.51489 827.78577 4294967295
37.996937 928.10577 827.44073 4294967295
41.207951 927.69659 827.0957 4294967295
44.151375 927.90125 827.26825 4294967295
-25.6 930.45294 825.49573 4294967295
-23.466667 930.86066 825.83954 4294901759
-20.266666 930.86066 825.83954 4294770431
-16.799999 930.45294 825.49573 4294967295
-13.6 930.45294 825.49573 4294967295
-10.133333 930.86066 825.83954 4294967295
-7.1999998 931.06458 826.01141 4294967295
-3.7333333 930.86066 825.83954 4294967295
-1.6 930.45294 825.49573 4294967295
0 931.06458 826.01141 4294967295
8 930.45294 825.49573 4294967295
10.4 930.45294 825.49573 4294967295
20.799999 930.45294 825.49573 4294967295
22.4 930.45294 825.49573 4294967295
24 930.45294 825.49573 4294967295
48.798164 760.7323 830.19897 4294967295
50.451378 764.34241 829.31885 4294967295
50.297249 767.94415 828.43164 4294967295
52.093578 767.94415 828.43164 4294967295
50.14312 772.90656 828.69177 4294967295
49.198166 775.01282 829.15973 4294967295
51.933945 774.27563 829.84619 4294967295
49.14679 777.79956 830.20135 4294967295
48.104588 781.36688 829.28516 4294967295
47.955963 785.60474 828.93433 4294967295
47.020184 787.69281 829.3869 4294967295
47.85688 791.13312 830.97974 4294967295
47.163303 811.33215 829.69855 4294967295
46.915596 818.23749 828.98083 4294967295
48.13945 833.25739 828.56494 4294967295
49.858715 835.88617 830.78137 4294967295
49.592659 842.01154 829.40601 4294967295
49.433029 845.41266 828.34973 4294967295
49.326607 848.10889 828.00708 4294967295
49.326607 850.05945 829.65167 4294967295
49.166973 854.08691 829.12341 4294967295
47.368809 856.76489 828.76538 4294967295
49.166973 855.38306 830.21631 4294967295
47.368809 858.05823 829.85583 4294967295
49.060551 858.7049 830.40112 4294967295
47.21468 861.41589 828.76282 4294967295
48.900917 863.34961 830.39331 4278192238
47.111927 864.07843 828.39172 4283865286
48.368809 878.4978 830.08557 4294967295
48.262386 881.12384 829.68372 4292018135
48.155964 883.74432 829.27722 4294508543
47.99633 887.03186 828.12512 4294967295
47.889908 890.9021 828.77234 4289050036
49.651375 889.56244 830.25879 4286618771
49.541283 892.7959 830.36908 4278205975
49.431194 896.02094 830.47229 4278190175
49.266056 899.27338 829.29065 4289181951
50.032112 901.19165 829.6001 4284966560
49.920181 904.39502 829.68494 4286758112
50.680733 906.92987 830.51416 4278190141
48.770641 913.3302 829.37067 4278190085
47.038532 915.2605 828.3822 4278190095
48.715595 916.46753 830.70795 4292858600
46.878899 919.69543 828.19751 4292331775
48.495415 920.93127 829.23962 4294967295
46.772476 923.46478 828.75977 4294967295
48.495415 922.16711 830.28162 4294967295
46.772476 925.31433 830.31915 4294967295
-22.477064 929.74231 828.82068 4294967295
-19.266054 929.74231 828.82068 4294705151
-16.8578 929.74231 828.82068 4294967295
-13.64679 929.74231 828.82068 4294967295
-11.238532 929.74231 828.82068 4294967295
-4.8165135 929.74231 828.82068 4294967295
-1.6055046 929.74231 828.82068 4294967295
1.6055046 929.74231 828.82068 4294967295
4.0137615 929.74231 828.82068 4294967295
7.2247705 929.74231 828.82068 4294967295
10.43578 929.74231 828.82068 4294967295
13.64679 929.74231 828.82068 4294967295
16.8578 929.74231 828.82068 4294967295
20.068806 929.74231 828.82068 4294967295
22.477064 929.74231 828.82068 4294967295
24.91468 929.09772 829.58514 4294967295
28.160549 928.45312 830.34961 4294967295
31.378899 928.45312 830.34961 4294967295
34.597248 928.45312 830.34961 4294967295
37.815598 928.45312 830.34961 4294967295
40.733944 928.47284 829.4942 4294967295
44.151375 929.74231 828.82068 4294967295
-20.871559 930.96973 829.85559 4294967295
-6.4220185 930.96973 829.85559 4294967295
-4.8165135 930.96973 829.85559 4294967295
0 930.96973 829.85559 4294967295
22.477064 930.96973 829.85559 4294967295
49.095413 754.87689 833.11011 4294967295
50.759632 758.49963 832.2406 4294967295
52.412846 764.87744 833.69409 4294967295
52.253212 768.47498 832.80334 4294967295
50.14312 775.64478 831.00061 4294967295
51.933945 775.64478 831.00061 4294967295
50.040367 779.84894 831.92944 4294967295
51.880733 778.4314 832.04218 4294967295
50.040367 781.21527 833.08142 4294967295
47.955963 788.3205 831.22412 4294967295
49.886238 786.13416 833.30481 4294967295
47.955963 791.03625 833.51404 4294967295
49.06422 811.19104 833.50366 4294967295
46.289909 813.33533 831.38757 4294967295
48.910091 814.67078 832.51355 4294967295
48.858715 817.3844 833.49365 4294967295
48.65321 822.88696 832.90112 4294967295
50.231194 826.9986 832.44385 4294967295
50.124771 829.73273 832.13306 4294967295
51.963303 828.32281 833.56042 4294967295
49.965137 833.16467 831.10278 4294967295
51.85321 831.05414 833.24731 4294967295
51.688072 835.1405 832.76874 4294967295
49.858715 837.20056 831.88965 4294967295
51.57798 838.51495 832.99792 4294967295
51.412846 841.9231 831.94751 4294967295
51.3578 844.5835 832.88257 4294967295
53.012844 847.24103 833.81543 4294967295
51.705811 850.62531 832.74487 4294967295
51.877983 853.96057 832.94092 4294573564
50.862385 857.32727 831.85565 4294705151
50.752293 860.64496 832.03687 4278190232
52.557796 859.27155 833.49487 4278190231
50.752293 861.93829 833.12744 4278190142
49.744034 865.92786 832.56726 4278854242
48.794495 868.58063 832.18793 4278654524
49.555962 871.52966 832.7124 4278846536
48.528439 875.18781 831.21887 4294967295
50.201836 877.74646 833.37622 4294967295
50.036697 881.04803 832.23584 4294967295
49.926605 883.66846 831.82935 4294967295
51.647705 883.63196 833.10657 4294967295
49.816513 886.28333 831.41809 4294967295
52.422935 886.21307 833.97485 4291615702
51.477066 888.82233 833.55884 4281706103
51.306423 893.35834 833.45935 4278190172
51.192661 895.95209 833.03027 4278190147
50.908257 901.7843 831.40784 4286295021
52.550457 904.29529 833.5249 4282982071
50.680733 908.17975 831.56812 4278190136
52.433029 906.86523 833.07581 4278190162
50.680733 909.42963 832.62195 4278190080
52.315598 910.05457 833.14886 4278190127
50.51009 913.26562 831.93225 4286544004
50.396332 916.43732 831.9906 4294967295
52.080734 916.4071 833.27307 4294967295
50.28257 919.60059 832.04169 4294967295
49.388992 922.43182 832.46686 4294967295
48.495415 925.25671 832.88666 4294967295
-19.332109 929.65662 832.67249 4294836223
-16.92569 929.33502 833.05536 4294901759
-13.693578 929.65662 832.67249 4294967295
-10.47156 929.65668 832.67249 4294967295
-8.0550461 929.65662 832.67249 4294967295
-3.2220182 929.65662 832.67249 4294967295
-1.6110091 929.65662 832.67249 4294967295
1.6110091 929.65662 832.67249 4294967295
4.0229359 929.68335 831.38696 4294967295
7.5155964 929.66553 832.24396 4294967295
10.459633 929.68335 831.38696 4294967295
13.677982 929.68335 831.38696 4294967295
16.915598 929.65662 832.67249 4294967295
20.137613 929.65668 832.67249 4294967295
22.579817 929.62994 833.95801 4294967295
24.985321 929.33502 833.0553 4294967295
28.493576 928.80792 833.26489 4294967295
31.450459 928.39691 832.91833 4294967295
34.676147 928.39691 832.91833 4294967295
37.901833 928.39691 832.91833 4294967295
41.127525 928.39691 832.91833 4294967295
43.546787 928.39691 832.91833 4294967295
45.966057 927.7804 832.3985 4294967295
-6.4366975 930.91357 832.42419 4294967295
-4.8275228 930.91357 832.42419 4294967295
0 930.91357 832.42419 4294967295
14.482569 930.91357 832.42419 4294967295
53.889908 776.18402 835.37927 4294967295
51.933945 779.75208 834.46375 4294967295
50.040367 782.58154 834.2334 4294967295
52.776146 782.53589 835.50299 4294967295
51.827522 784.63098 835.96149 4294967295
49.886238 788.17731 835.02759 4294967295
49.886238 790.22046 836.75024 4294967295
47.955963 792.39417 834.65894 4294967295
49.629356 796.55341 835.54993 4294967295
51.401836 797.90851 836.6925 4294967295
49.475231 800.06958 834.59058 4294967295
49.475231 801.42041 835.72961 4294967295
51.242203 802.7713 836.86865 4294967295
49.321102 805.59729 835.32733 4294967295
50.922935 811.104 836.04639 4294967295
50.816513 813.87036 835.76282 4294967295
52.568806 815.20996 836.89233 4294967295
54.321102 815.20996 836.89233 4294967295
50.656879 818.00934 835.32861 4294967295
52.403671 818.67706 835.8916 4294967295
54.150459 818.67706 835.8916 4294967295
50.550457 821.42798 835.59509 4294967295
52.293579 822.76062 836.71863 4294967295
53.866055 827.53644 836.82153 4294967295
53.695412 830.97125 835.79358 4294967295
53.58165 833.69696 835.47559 4294967295
55.310093 833.69696 835.47559 4294967295
57.159634 832.29547 836.91003 4294967295
55.310093 835.01831 836.58984 4294967295
57.038532 835.01831 836.58984 4294967295
53.411011 837.7749 834.98999 4294967295
55.708256 839.31171 836.28564 4294967295
53.297249 841.14374 835.21448 4294967295
55.016514 842.45813 836.32275 4294967295
53.126606 844.54346 834.15686 4294967295
53.012844 848.5484 834.91772 4294967295
54.840366 847.16382 836.36633 4294967295
54.722935 849.85577 836.02014 4294967295
54.546787 853.8833 835.49188 4284651769
52.728439 855.91107 834.58557 4289180868
54.429359 857.21143 835.68201 4278190209
52.557796 860.56769 834.58777 4278190139
54.253212 860.56769 834.58777 4278191679
50.752293 863.23163 834.2179 4278659664
52.444038 863.23163 834.2179 4278922836
55.344341 862.75177 835.55737 4279710555
52.444038 864.52502 835.30847 4278987862
54.13578 865.17169 835.85376 4279049547
50.587154 867.86157 834.19775 4278190154
52.835476 868.72101 834.92236 4278715468
50.477066 871.79645 834.89941 4294967295
53.059631 871.11816 835.63556 4290303205
50.477066 873.08282 835.98401 4294967295
53.000916 873.08282 835.98401 4294967292
52.827522 876.39557 834.85315 4294967295
52.990826 879.45221 834.81445 4294967295
55.222019 881.58447 836.6123 4294967295
53.372478 883.59827 834.38623 4294967295
55.040367 884.87335 835.4613 4294967295
53.255047 887.48541 835.04761 4294375679
55.040367 886.1485 836.5365 4294967295
52.366058 889.4248 835.37482 4279569226
53.137615 891.99609 836.23492 4278190108
52.844036 897.84583 834.62708 4289832063
52.726604 901.05963 834.72083 4294701567
54.374313 903.57904 836.84509 4278190168
54.192661 907.43396 836.17139 4283587199
52.315598 911.92932 834.72961 4294967295
54.07156 910.62323 836.24451 4294967295
53.950459 913.1792 835.78345 4294967295
53.768806 917.00256 835.08313 4294967295
52.563915 919.75153 834.7851 4294967295
50.28257 923.3208 835.17841 4294967295
52.445263 923.11407 835.00415 4294967295
50.28257 925.18085 836.74683 4294967295
-19.398165 929.58215 836.53381 4294967295
-16.973394 929.58215 836.53381 4294967295
-12.93211 929.58215 836.53381 4294967295
-11.315597 929.58215 836.53381 4294967295
-8.0825691 929.58215 836.53381 4294967295
1.6165137 929.58215 836.53381 4294967295
4.0412846 928.96423 836.01276 4294967295
7.0048928 929.17023 836.18646 4294967295
10.507339 928.34631 835.4917 4294967295
12.93211 928.34631 835.4917 4294967295
17.781651 929.58215 836.53381 4294967295
19.398165 929.58215 836.53381 4294967295
21.822937 929.58215 836.53381 4294967295
25.055964 929.58215 836.53381 4294967295
28.019571 929.17023 836.18646 4294967295
31.2526 928.7583 835.83905 4294967295
34.485626 928.7583 835.83905 4294967295
37.988071 928.96423 836.01276 4294967295
40.412846 928.34631 835.4917 4294967295
42.837616 928.34631 835.4917 4294967295
46.070641 927.72839 834.9707 4294967295
48.495415 927.11047 834.44971 4294967295
-14.515596 930.86298 834.99768 4294967295
-9.6770639 930.86298 834.99768 4294967295
-6.451376 930.86298 834.99768 4294967295
-4.0321102 930.86298 834.99768 4294967295
-1.612844 930.86298 834.99768 4294967295
0 930.86298 834.99768 4294967295
51.324772 748.91199 838.5448 4294967295
55.291744 766.12231 838.66791 4294967295
54.220184 769.7135 837.77173 4294967295
56.027523 771.78607 839.51929 4294967295
55.256268 775.82178 838.99805 4294967295
57.658714 776.74011 839.77234 4294967295
53.889908 778.9306 837.69519 4294967295
55.686237 780.30396 838.85315 4294967295
57.482571 780.30396 838.85315 4294967295
53.72477 783.85938 837.92688 4294967295
55.515594 785.22845 839.0813 4294967295
57.306423 785.22845 839.0813 4294967295
52.7211 787.36359 838.2655 4294967295
49.886238 791.58252 837.8988 4294967295
52.641281 790.4978 838.94617 4294967295
51.667889 792.94464 839.04724 4294967295
53.284405 797.82568 839.23865 4294967295
51.401836 799.26355 837.83508 4294967295
52.125687 804.79761 838.57715 4294967295
51.963303 808.29065 837.59827 4294967295
52.678898 812.44641 837.17822 4294967295
54.605503 810.31061 839.30151 4294967295
56.073395 817.21948 838.58667 4294967295
52.403671 820.01245 837.01758 4294967295
54.150459 820.68018 837.58057 4294967295
54.966972 823.38831 838.55597 4294967295
55.779816 825.42584 838.96594 4294967295
55.603668 828.86487 837.94153 4294967295
57.038532 836.33972 837.70398 4294967295
58.766972 837.66113 838.81812 4294967295
56.85688 841.06787 837.7666 4294967295
58.579815 841.72644 838.3219 4294967295
56.162689 844.21063 837.80048 4294967295
58.579815 843.70227 839.98779 4294967295
56.554127 848.47406 837.47107 4294967295
58.455048 846.40131 839.64758 4294967295
60.174313 846.40131 839.64758 4293323497
56.433029 851.16321 837.12244 4282217892
58.267891 851.09442 839.68042 4278190191
56.433029 852.47058 838.22485 4278193567
56.251377 856.48962 837.68951 4278259052
58.808258 858.4444 839.33765 4279906136
57.831192 861.11255 838.97131 4279906649
55.948624 864.45618 837.86646 4279052122
55.827522 867.75836 838.03479 4278190374
55.64587 871.729 837.45862 4278190080
55.58532 874.33679 838.34943 4289967027
55.343121 878.95984 837.01526 4294967295
57.020184 881.52411 839.17737 4294967295
55.967888 886.42297 838.72998 4284560834
55.040367 888.69873 838.68677 4278190135
54.858715 892.60138 838.05322 4287928157
54.798164 895.16986 838.91089 4294967295
54.616512 898.41949 837.72681 4294967295
55.383488 900.97607 838.57446 4282592897
55.834862 910.57263 838.81787 4294967295
55.710091 913.75494 838.88507 4294967295
55.58532 916.92877 838.94507 4294967295
55.398167 920.1167 837.70898 4294967295
53.105808 923.48016 837.92889 4294967295
55.398167 922.60803 839.80957 4294967295
47.038532 926.4209 837.79236 4294967295
49.471558 926.4209 837.79236 4294967295
52.022018 925.13727 839.32617 4294967295
1.6220183 928.901 839.88354 4294967295
4.0550461 928.901 839.88354 4294967295
7.2990828 928.901 839.88354 4294967295
10.543119 928.28101 839.36072 4294967295
13.51682 928.07428 839.18646 4294967295
16.760857 928.48761 839.53497 4294967295
19.46422 928.901 839.88354 4294967295
25.952293 928.901 839.88354 4294967295
28.385323 928.901 839.88354 4294967295
31.899694 928.48761 839.53497 4294967295
35.14373 928.48761 839.53497 4294967295
38.117432 928.901 839.88354 4294967295
40.550457 928.28101 839.36072 4294967295
42.983486 927.66095 838.83789 4294967295
46.227524 927.66095 838.83789 4294967295
48.660549 927.66095 838.83789 4294967295
-19.398165 930.81799 837.57581 4294967295
-16.973394 931.43591 838.0968 4294967295
-13.740366 931.43591 838.0968 4294967295
-10.507339 930.81799 837.57581 4294967295
-7.274312 930.81799 837.57581 4294967295
-4.0412846 930.81799 837.57581 4294967295
-1.6165137 930.81799 837.57581 4294967295
0 930.81799 837.57581 4294967295
21.822937 930.81799 837.57581 4294967295
24.247707 930.81799 837.57581 4294967295
-14.548624 933.28967 839.65979 4294967295
56.482571 761.74335 841.51575 4294967295
58.304588 763.13629 842.69031 4294967295
58.187157 765.99805 842.48718 4294967295
56.198166 768.20117 840.42078 4294967295
58.917431 769.58716 841.58936 4294967295
58.738533 773.16779 840.68433 4294967295
55.686237 781.67725 840.01111 4294967295
57.482571 781.67725 840.01111 4294967295
55.686237 784.42389 842.32703 4294967295
57.482571 784.42389 842.32703 4294967295
55.515594 787.96667 841.39014 4294967295
53.614677 790.7793 841.14563 4294967295
55.401836 790.7793 841.14563 4294967295
57.306423 789.33575 842.54443 4294967295
53.449543 794.3067 840.19568 4294967295
55.401836 792.14563 842.29761 4294967295
57.188992 792.14563 842.29761 4294967295
55.231194 797.03088 842.49268 4294967295
57.012844 797.03088 842.49268 4294967295
53.284405 799.18353 840.38354 4294967295
55.060551 800.54144 841.52856 4294967295
53.174313 801.97369 840.12024 4294967295
55.891743 802.61401 841.96808 4294967295
55.747704 805.75391 841.34546 4294967295
56.543118 808.17474 841.42468 4294967295
56.366974 811.65723 840.43689 4294967295
59.009174 813.67725 842.14014 4294967295
57.946789 817.14502 841.13995 4294967295
56.073395 819.22894 840.28101 4294967295
57.886238 820.53345 842.68896 4294967295
57.644035 825.35425 841.52161 4294967295
58.455048 847.7157 840.75574 4280958374
60.174313 847.7157 840.75574 4278193012
59.124771 853.05969 841.33752 4278917973
58.14312 855.08533 840.42957 4279381075
59.660549 859.74756 840.43652 4279840856
58.681652 863.06305 840.61597 4279839071
58.681648 865.01361 842.26062 4279243077
58.491745 868.99268 841.69153 4279766828
58.365135 872.2851 841.85156 4283717459
58.271561 874.5874 841.83087 4287270028
58.414677 877.76288 841.67413 4291875024
58.889908 880.80084 842.4917 4292006610
57.858715 883.44727 840.79895 4286939057
56.895412 887.34143 841.46637 4283648367
58.633026 886.67578 842.21313 4285687694
56.64587 892.54797 840.62427 4294967295
58.376148 893.16162 842.44977 4294966783
60.600002 893.37421 842.62891 4289379290
56.583485 895.11926 841.48425 4294967295
59.079819 896.3916 842.55713 4278588767
56.458717 897.70886 841.05176 4284509608
56.271561 902.21539 840.92749 4287851412
56.14679 904.78949 840.48181 4294043391
56.022018 907.35809 840.03149 4294967295
57.477066 913.71136 841.46436 4294967295
57.348625 916.8866 841.52563 4294967295
55.58532 919.42853 841.05273 4294967295
57.348625 918.13928 842.58179 4294967295
53.768806 923.8537 840.85986 4294967295
50.396332 926.38013 840.37402 4294967295
52.954128 925.72217 842.4353 4294967295
-8.1284399 928.86578 842.46997 4294967295
1.6256881 928.86578 842.46997 4294967295
4.0642204 928.86578 842.46997 4294967295
7.3155961 928.86578 842.46997 4294967295
10.566973 928.86578 842.46997 4294967295
13.818348 928.24438 841.94598 4294967295
17.882568 928.86578 842.46997 4294967295
19.508257 928.86578 842.46997 4294967295
26.011009 928.86578 842.46997 4294967295
28.449541 928.86578 842.46997 4294967295
31.700916 928.86578 842.46997 4294967295
35.765137 928.86578 842.46997 4294967295
37.390827 928.86578 842.46997 4294967295
39.829357 928.86578 842.46997 4294967295
43.351685 928.03729 841.7713 4294967295
46.332108 928.24438 841.94598 4294967295
49.312542 928.03729 841.7713 4294967295
-12.976147 931.3811 841.97461 4294967295
-10.543119 930.14105 840.92908 4294967295
-6.4880733 930.14105 840.92908 4294967295
-3.7847097 930.55444 841.27759 4294967295
-1.6220183 930.14105 840.92908 4294967295
0 930.14105 840.92908 4294967295
21.897247 930.14105 840.92908 4294967295
24.330275 930.14105 840.92908 4294967295
34.062386 930.14105 840.92908 4294967295
58.480736 759.53174 843.57507 4294967295
57.482571 785.79718 843.48486 4294967295
55.401836 793.5119 843.44971 4294967295
57.188992 793.5119 843.44971 4294967295
57.012844 798.39294 843.64111 4294967295
59.889908 815.6972 843.84338 4294967295
59.889908 817.04388 844.97876 4294967295
59.702751 820.5011 843.96985 4294967295
59.57798 823.24786 843.66968 4294967295
61.365139 863.65704 843.73291 4280429398
61.233028 866.31403 843.35706 4278658379
63.069725 865.61182 845.3811 4278193464
61.233028 867.61438 844.45349 4278190126
61.034863 871.58502 843.87738 4278648841
61.034863 873.52924 845.51672 4278190227
60.902752 876.16516 845.12317 4290820541
61.547707 880.10846 844.52399 4288396957
61.133331 883.37354 844.66089 4283786069
60.374313 886.65259 843.50159 4294967030
63.728439 887.93475 844.58264 4294967295
58.568806 889.26038 843.08447 4294967295
61.078899 889.90002 843.62378 4294244085
63.588989 890.53973 844.16309 4284199679
63.588989 891.81903 845.24182 4278190224
61.711926 895.71185 844.60004 4280102984
59.357189 898.08795 843.98749 4283585877
58.599541 900.86292 845.01917 4294372598
57.798164 908.57697 843.67529 4294967295
59.119267 916.85004 844.11084 4294967295
57.938839 919.38068 844.50055 4294967295
55.58532 922.55322 843.68744 4294967295
57.348625 921.89728 845.75049 4294967295
55.58532 924.42798 845.26819 4294967295
1.6293578 928.8363 845.06104 4294967295
4.0733948 928.8363 845.06104 4294967295
7.3321099 928.8363 845.06104 4294967295
10.590826 928.8363 845.06104 4294967295
14.1211 928.42108 844.71094 4294967295
16.836699 928.42108 844.71094 4294967295
19.552294 928.8363 845.06104 4294967295
21.99633 928.8363 845.06104 4294967295
25.255047 928.8363 845.06104 4294967295
27.699083 928.8363 845.06104 4294967295
39.919266 928.8363 845.06104 4294967295
42.906422 928.42108 844.71094 4294967295
46.436699 928.8363 845.06104 4294967295
49.695412 928.2135 844.53589 4294967295
52.954128 927.59064 844.01074 4294967295
-10.566973 930.10864 843.51794 4294967295
-7.3155961 930.10864 843.51794 4294967295
-4.8770642 930.10864 843.51794 4294967295
-1.6256881 930.10864 843.51794 4294967295
0 930.10864 843.51794 4294967295
29.262384 930.10864 843.51794 4294967295
31.700916 930.10864 843.51794 4294967295
34.952293 930.10864 843.51794 4294967295
37.390827 930.10864 843.51794 4294967295
57.165138 751.48718 848.56445 4294967295
55.155964 753.703 846.50854 4294967295
58.833027 753.703 846.50854 4294967295
63.069725 868.21814 847.57867 4278517772
62.933945 871.51544 847.7428 4278190224
62.730274 874.82544 846.60962 4293123296
62.594494 877.4585 846.21362 4294311416
64.28624 878.75189 847.3042 4291220479
62.390827 882.04218 846.15442 4289442219
62.255047 885.94617 846.83008 4294967295
63.588989 893.09839 846.32056 4278190141
64.42569 895.01733 847.9386 4292730868
61.711926 897.62451 846.21277 4294967295
59.911926 901.48083 846.84827 4294967295
58.119267 904.0564 846.40381 4294967295
59.119267 919.98871 846.75732 4294967295
58.233948 922.51099 847.57587 4294967295
50.680733 926.92773 847.37585 4294967295
53.133026 926.92773 847.37585 4294967295
55.58532 926.3028 846.84894 4294967295
57.894806 925.23779 848.56708 4294967295
-10.626606 928.17761 848.42969 4294967295
1.6348624 928.17761 848.42969 4294967295
4.0871563 928.17761 848.42969 4294967295
7.3568807 928.17761 848.42969 4294967295
10.626606 928.17761 848.42969 4294967295
13.89633 928.17761 848.42969 4294967295
17.166054 928.17761 848.42969 4294967295
19.618349 928.17761 848.42969 4294967295
22.070641 928.17761 848.42969 4294967295
24.522936 928.17761 848.42969 4294967295
40.054131 928.17761 848.42969 4294967295
43.323853 928.17761 848.42969 4294967295
46.593578 928.17761 848.42969 4294967295
49.863304 928.17761 848.42969 4294967295
52.315598 928.17761 848.42969 4294967295
-7.0605507 930.49725 846.46161 4294967295
-3.8018348 930.49725 846.46161 4294967295
-1.6293578 930.70483 846.6366 4294967295
0 930.70483 846.6366 4294967295
26.069725 930.08197 846.11145 4294967295
28.513762 930.08197 846.11145 4294967295
31.772476 930.08197 846.11145 4294967295
35.031193 930.08197 846.11145 4294967295
37.475231 930.08197 846.11145 4294967295
61.915596 896.93634 849.55664 4294967295
64.42569 896.93634 849.55664 4294967295
61.915596 898.85535 851.17462 4294967295
64.42569 898.85535 851.17456 4294967295
66.935783 898.85535 851.17462 4294967295
60.044037 902.0874 849.97577 4294967295
60.044037 904.00012 851.5885 4294967295
61.236698 914.86835 851.59607 4294967295
61.100918 917.41443 851.12683 4294967295
60.965137 919.95496 850.65283 4294967295
65.084404 919.95496 850.65283 4294967295
59.119267 923.12744 849.40369 4294967295
61.687157 922.17102 850.55933 4294967295
65.084404 921.2146 851.71497 4294967295
54.890823 926.90796 849.97534 4294967295
58.167892 926.90796 849.97534 4294967295
61.582573 925.01062 850.99158 4294967295
-9.8091745 929.42743 849.48364 4294967295
-8.1743116 929.42743 849.48364 4294770687
-4.9045873 929.42743 849.48364 4294967295
1.6385322 928.16064 851.03162 4294967295
4.090826 928.79407 850.25763 4294967295
7.3568807 929.42743 849.48364 4294967295
10.63945 928.79407 850.25763 4294967295
13.927523 928.16064 851.03162 4294967295
16.385321 928.16064 851.03162 4294967295
18.843121 928.16064 851.03162 4294967295
22.094494 928.79407 850.25763 4294967295
25.340366 929.42743 849.48364 4294967295
28.610092 929.42743 849.48364 4294967295
31.879816 929.42743 849.48364 4294967295
34.332111 929.42743 849.48364 4294967295
36.866974 928.16064 851.03162 4294967295
40.144035 928.16064 851.03162 4294967295
43.371559 928.79407 850.25763 4294967295
46.644955 928.79407 850.25763 4294967295
49.975227 928.16064 851.03162 4294967295
52.433029 928.16064 851.03162 4294967295
54.890823 928.16064 851.03162 4294967295
57.348625 928.16064 851.03162 4294967295
-7.3568807 930.67731 850.53748 4294901759
-4.359633 931.09393 850.88873 4294770431
-1.6348624 930.67731 850.53748 4294967295
0 931.30225 851.06439 4294967295
22.888073 930.67731 850.53748 4294967295
61.915596 901.41394 853.33203 4294967295
64.42569 901.41394 853.33203 4294967295
66.935783 900.77429 852.79272 4294967295
60.979816 904.30408 853.80688 4294967295
64.21376 905.27521 852.6637 4294967295
59.911926 907.84235 852.21216 4294967295
61.711926 906.55029 853.73877 4294967295
64.491737 906.97534 854.09717 4294967295
66.715599 907.82544 854.81396 4294967295
61.508255 910.39404 853.0556 4294967295
63.795109 909.96289 854.00006 4294967295
66.56881 910.38702 854.35767 4294967295
63.93119 912.94293 853.89673 4294967295
66.42202 912.94293 853.89673 4294967295
62.891743 916.13367 852.66296 4294967295
64.546791 916.13367 852.66296 4294967295
66.201836 916.13367 852.66296 4294967295
62.752293 918.67694 852.19128 4294967295
65.084404 923.10413 853.30823 4294967295
59.119267 926.89386 852.57947 4294967295
61.582569 926.89386 852.57947 4294967295
65.084404 924.99365 854.90137 4294967295
1.640367 929.40906 853.39221 4294967295
4.1009173 929.40906 853.39221 4294967295
7.3816509 929.40906 853.39221 4294967295
10.662386 929.40906 853.39221 4294967295
13.66422 929.41046 852.95734 4294967295
16.385321 929.41333 852.08777 4294967295
18.843121 929.41333 852.08777 4294967295
21.300917 929.41333 852.08777 4294967295
25.397247 929.41333 852.08777 4294967295
28.706421 929.40906 853.39221 4294967295
31.701529 929.41046 852.95734 4294967295
34.409176 929.41333 852.08777 4294967295
37.19511 928.9892 853.47412 4294967295
40.477062 928.9892 853.47412 4294967295
43.469727 929.40906 853.39221 4294967295
46.750458 929.40906 853.39221 4294967295
50.031193 929.40906 853.39221 4294967295
52.491745 929.40906 853.39221 4294967295
54.699696 928.9892 853.47412 4294967295
58.298164 928.14935 853.63806 4294967295
60.761467 928.14935 853.63806 4294967295
-3.2770643 930.66602 853.14404 4294967295
-1.6385322 931.29236 853.67212 4294967295
0 931.91864 854.2002 4294967295
14.746789 930.66602 853.14404 4294967295
16.385321 930.66602 853.14404 4294967295
18.843121 930.66602 853.14404 4294967295
22.39327 931.08356 853.49609 4294967295
25.397247 930.66602 853.14404 4294967295
67.706421 923.09564 855.91705 4294967295
62.612843 926.25336 855.9635 4294967295
65.084404 926.25336 855.9635 4294967295
67.706421 924.98938 857.51379 4294967295
32.954128 927.51306 857.02563 4294967295
34.601833 927.51306 857.02563 4294967295
36.249542 927.51306 857.02563 4294967295
39.544952 927.51306 857.02563 4294967295
56.022018 927.51306 857.02563 4294967295
58.493576 927.51306 857.02563 4294967295
61.78899 927.51306 857.02563 4294967295
65.084404 927.51306 857.02563 4294967295
-3.2844036 930.66028 855.75525 4294967295
-1.6422018 931.91577 856.81384 4294967295
0.82110089 931.28802 856.28455 4294967295
3.2844036 930.66028 855.75525 4294967295
8.211009 930.66028 855.75525 4294967295
10.674313 930.66028 855.75525 4294967295
14.232415 931.0788 856.10809 4294967295
16.422018 931.28802 856.28455 4294967295
18.885323 931.28796 856.28455 4294967295
21.896025 931.49725 856.46094 4294967295
25.454128 930.66028 855.75525 4294967295
46.80275 930.66028 855.75525 4294967295
16.422018 933.17126 857.87244 4294967295
19.706423 933.17126 857.87244 4294967295
22.169724 933.17126 857.87244 4294967295
67.706421 926.25189 858.57837 4294967295
-4.943119 928.77277 858.08777 4294442239
4.943119 928.77277 858.08777 4294967295
6.5908256 928.77277 858.08777 4294967295
26.422018 928.77686 860.70728 4294967295
28.866972 928.77478 859.39758 4294967295
31.376146 927.51434 859.64282 4294967295
34.128437 927.93524 859.99762 4294967295
37.134865 928.46021 859.78632 4294967295
40.413761 928.77478 859.39752 4294967295
43.712845 928.77478 859.39758 4294967295
47.06422 928.77686 860.70728 4294967295
49.431194 928.77277 858.08777 4294967295
52.216511 928.77411 858.96094 4294967295
55.290825 928.46021 859.78632 4294967295
58.348621 927.93524 859.99762 4294967295
61.651379 927.93524 859.99762 4294967295
64.403671 928.14563 860.17505 4294967295
66.055046 928.14563 860.17505 4294967295
-1.6477064 931.29211 860.21204 4294967295
1.0984709 930.87225 859.85797 4294967295
4.119266 930.03241 859.1499 4294967295
7.4146786 930.03241 859.1499 4294967295
10.710092 930.03241 859.1499 4294967295
13.730887 930.87225 859.85797 4294967295
18.124771 931.29211 860.21204 4294967295
24.715597 930.66223 859.68097 4294967295
18.885323 935.68219 859.98962 4294967295
21.348623 935.68219 859.98962 4294967295
31.445871 927.5213 862.26477 4294967295
33.652599 928.36481 862.97607 4294967295
36.411011 928.78662 863.33167 4294967295
44.686237 928.78662 863.33167 4294967295
47.168808 928.78662 863.33167 4294967295
49.651375 928.15393 862.79822 4294967295
51.306423 928.15393 862.79822 4294967295
55.444038 928.78662 863.33167 4294967295
59.029968 928.36481 862.97607 4294967295
62.340061 928.36481 862.97607 4294967295
-1.6495413 932.55811 862.58746 4294967295
0.55045873 932.13934 862.67041 4294967295
4.1284404 930.67059 862.30408 4294967295
7.7064223 930.46014 862.12665 4294967295
10.733944 931.30182 862.83636 4294967295
13.750459 932.13934 862.67041 4294967295
16.477064 932.55182 861.27417 4294967295
18.948624 932.55182 861.27417 4294967295
22.244038 932.55182 861.27417 4294967295
26.009174 931.30182 862.8363 4294967295
28.899084 931.30182 862.83636 4294967295
31.376146 930.03931 861.77185 4294967295
37.981651 930.03931 861.77185 4294967295
40.733948 930.46014 862.12665 4294967295
42.93578 930.67053 862.30408 4294967295
52.844036 930.03931 861.77185 4294967295
56.14679 931.30182 862.8363 4294967295
0 935.07117 863.39844 4294967295
14.829358 933.81146 862.3363 4294967295
16.477064 934.44128 862.86737 4294967295
18.948624 935.07117 863.39844 4294967295
23.06789 934.44128 862.86737 4294967295
24.715597 934.44128 862.86737 4294967295
21.348623 937.56543 861.57751 4294967295
1.6550459 931.94983 865.99878 4294967295
4.4134555 931.73895 865.82098 4294967295
7.2822013 931.57031 865.67871 4294967295
9.930275 932.58252 866.53223 4294967295
31.445871 931.3172 865.46533 4294967295
33.92844 931.31732 865.46533 4294967295
37.238533 931.3172 865.46533 4294967295
40.134861 931.3172 865.46533 4294967295
44.134556 930.89545 865.10968 4294967295
47.168808 930.68457 864.93188 4294967295
49.651375 930.68457 864.93188 4294967295
52.133945 930.68457 864.93188 4294967295
55.278526 931.57031 865.67871 4294967295
58.478287 930.47369 864.75409 4294967295
61.236698 930.05194 864.39844 4294967295
11.559633 934.45801 865.49756 4294967295
14.036697 934.45801 865.49756 4294967295
26.422018 933.82678 864.96533 4294967295
28.899082 934.45807 865.49756 4294967295
16.477064 937.59058 865.52271 4294967295
18.948624 936.96069 864.99164 4294967295
22.408808 937.84247 865.73517 4294967295
25.53945 937.59052 865.52264 4294967295
26.275229 941.95959 865.28247 4294967295
31.132111 946.95074 866.87488 4294639615
3.321101 931.35077 869.41766 4294967295
37.362385 931.98553 869.95288 4294967295
40.960243 931.56232 869.59601 4294967295
44.004585 931.35077 869.4176 4294967295
46.495415 931.35077 869.41766 4294967295
49.262997 931.13916 869.23926 4294967295
52.307343 931.35077 869.4176 4294967295
1.6550459 933.84778 867.59912 4294967295
4.9651375 933.84778 867.59912 4294967295
7.4477062 934.48047 868.13251 4294967295
9.930275 934.48047 868.13251 4294967295
31.445871 934.48047 868.13251 4294967295
33.92844 934.48041 868.13257 4294967295
38.066055 935.1131 868.66589 4294967295
54.616512 933.84778 867.59912 4294967295
7.4477062 936.37842 869.73279 4294967295
11.025077 936.36957 868.85333 4294967295
14.036697 937.61426 868.15875 4294967295
16.513762 938.87677 869.22327 4294967295
18.990826 938.24548 868.69104 4294967295
22.293579 938.87677 869.22327 4294967295
24.770641 938.87677 869.22327 4294967295
28.899084 937.61432 868.15875 4294967295
31.411009 937.62756 869.47803 4294704637
33.100918 936.37842 869.73279 4294967295
26.363302 941.36957 868.70911 4294967295
28.011009 941.36957 868.70911 4294967295
31.306421 941.36957 868.70911 4294311167
26.363302 942.62927 869.77124 4294508031
29.658716 942.62927 869.77124 4294179071
32.022934 944.47052 867.39966 4294310655
44.101837 932.0163 872.59485 4294901759
46.598164 932.0163 872.59485 4294639615
48.817127 931.59222 872.2373 4294836223
4.9816513 933.88977 871.55853 4294967295
34.871559 934.52454 872.09375 4294967295
37.085629 934.10138 871.737 4294967295
40.406727 933.67822 871.38013 4294705151
7.4477062 938.27637 871.33313 4294967295
10.757798 938.27637 871.33313 4294967295
13.240367 938.909 871.86658 4294967295
33.100918 937.64368 870.79968 4294113279
