# .PCD v0.7 - Point Cloud Data file format
VERSION 0.7
FIELDS x y z rgb
SIZE 4 4 4 4
TYPE F F F U
COUNT 1 1 1 1
WIDTH 1158
HEIGHT 1
VIEWPOINT 0 0 0 1 0 0 0
POINTS 1158
DATA ascii
-25.875229 850.8161 1294.6403 4289309378
-22.738838 849.61719 1293.6294 4292205045
-18.818348 849.01776 1293.1239 4294967295
14.113762 849.91693 1293.8821 4290163926
16.466055 850.8161 1294.6403 4290426576
-23.431192 856.90637 1293.2354 4290759151
14.058716 856.90637 1293.2354 4290887641
16.401834 856.90637 1293.2354 4290690518
-28.117432 858.69775 1294.7457 4285955217
-25.774311 858.69775 1294.7457 4288850109
16.401834 858.69775 1294.7457 4290690779
18.744955 858.69775 1294.7457 4291083991
21.088074 858.69775 1294.7457 4291215577
-31.533026 865.15131 1294.9551 4286873497
-28.029358 865.15137 1294.9551 4285758609
-25.693579 865.15137 1294.9551 4288390329
-22.579203 864.85376 1294.7041 4291679472
14.014679 864.25848 1294.2023 4290821593
16.350458 865.15137 1294.9551 4290887641
18.686239 866.04419 1295.708 4290821586
-23.266054 872.06714 1294.2462 4290756582
-19.776146 872.06714 1294.2462 4294901759
-16.286238 872.06714 1294.2462 4294770431
18.612844 872.06714 1294.2462 4290492624
-23.266054 873.84589 1295.746 4290099683
-19.776146 873.84589 1295.746 4294770687
-16.286238 873.84589 1295.746 4294507519
18.612844 873.84589 1295.746 4290427090
-18.53945 881.60553 1295.7485 4294967295
-16.222019 880.71967 1295.0016 4294639359
-13.904587 879.8338 1294.2546 4294573311
16.222019 879.8338 1294.2546 4290362328
19.698166 881.60553 1295.7485 4289901264
-18.480734 886.19348 1294.3848 4294835711
-16.170643 885.31042 1293.6403 4294770431
16.170643 886.19348 1294.3848 4290032329
-16.106422 893.00409 1293.5872 4293981951
-13.805505 893.00409 1293.5872 4293850623
13.805505 893.00409 1293.5872 4288913598
16.106422 893.00409 1293.5872 4289505736
-18.407339 894.76312 1295.0704 4294179071
-16.106422 894.76312 1295.0704 4294113279
18.407339 894.76312 1295.0704 4289768644
-18.333944 902.40771 1294.9761 4294639359
-16.042202 901.53168 1294.2374 4294047231
-13.750459 900.65564 1293.4988 4293784063
18.333944 900.65564 1293.4988 4290557642
-22.844036 907.79456 1294.2859 4287602367
-20.559633 907.79456 1294.2859 4293260543
18.275229 907.79456 1294.2859 4285552500
-25.128441 909.54102 1295.7584 4287071381
-22.844036 909.54102 1295.7584 4287602365
18.275229 909.54102 1295.7584 4286012519
-19.718657 916.52582 1295.1078 4293391103
19.339451 916.2359 1294.8633 4285884286
-18.14312 920.69971 1293.3949 4294047231
-15.875229 920.69971 1293.3949 4294310655
-13.60734 920.69971 1293.3949 4294113023
0 920.69971 1293.3949 4293849087
15.875229 920.69971 1293.3949 4287003791
19.277065 920.69971 1293.3949 4287002242
-18.14312 922.43353 1294.8568 4292863227
-15.875229 922.43353 1294.8568 4293521407
-13.60734 922.43353 1294.8568 4293389567
15.875229 922.43353 1294.8568 4285556345
19.277065 922.43353 1294.8568 4285881451
-9.042202 927.73895 1294.0981 4293059577
-6.7816515 928.60303 1294.8267 4293651197
-4.521101 928.60303 1294.8267 4293323263
-2.2605505 928.60303 1294.8267 4293586431
2.2605505 927.73895 1294.0981 4293980927
4.521101 927.73895 1294.0981 4294375167
6.7816515 927.73895 1294.0981 4292664822
10.172478 927.73895 1294.0981 4286874016
13.563303 927.73895 1294.0981 4284171599
15.823853 927.73895 1294.0981 4285158494
-39.398167 760.48376 1296.9562 4287925408
-36.93578 760.48376 1296.9562 4287925408
22.161469 760.48376 1296.9562 4291940583
24.623854 760.48376 1296.9562 4291677927
-39.398167 762.36627 1298.5435 4287860382
-36.93578 762.36627 1298.5435 4288123553
22.161469 762.36627 1298.5435 4291612131
24.623854 762.36627 1298.5435 4291808995
27.086239 762.36627 1298.5435 4292335339
-36.798164 768.84229 1297.4637 4287860384
19.625689 768.84229 1297.4637 4291875047
22.078899 768.84229 1297.4637 4292072682
25.758717 768.84229 1297.4637 4291874536
-39.104588 775.29034 1296.3604 4287662748
-36.660549 775.29034 1296.3604 4287794590
-34.216515 775.29034 1296.3604 4287466139
17.108257 775.29034 1296.3604 4292072680
19.552294 775.29034 1296.3604 4291677673
-43.992661 777.15887 1297.9358 4287531934
-39.104588 777.15887 1297.9358 4287663772
-36.660549 777.15887 1297.9358 4287860895
-34.216515 777.15887 1297.9358 4287597725
17.108257 777.15887 1297.9358 4292006887
19.552294 777.15887 1297.9358 4291481061
-37.334553 784.81281 1297.8494 4287661985
-34.088074 784.50256 1297.5878 4287530659
17.044037 783.57184 1296.803 4292006628
-36.3578 793.26868 1297.131 4287596184
-33.933945 792.34216 1296.3497 4287464606
19.390825 793.26868 1297.131 4291611871
21.814678 794.19525 1297.9122 4291545823
-38.634861 802.38135 1298.2743 4287661974
19.31743 802.38135 1298.2743 4291348192
-40.893578 808.68622 1297.0503 4287464344
-38.488075 808.68622 1297.0503 4287333022
19.244038 808.68622 1297.0503 4291676639
-40.893578 810.52527 1298.601 4287464344
-38.488075 810.52527 1298.601 4287201947
19.244038 810.52527 1298.601 4291611616
-38.341286 817.71118 1298.1198 4287463577
-35.944954 817.71118 1298.1198 4287661213
19.170643 816.79517 1297.3474 4284832897
21.566973 818.62714 1298.8921 4283852418
-38.194496 824.862 1297.609 4287464344
-35.011623 823.64532 1296.5831 4287792796
21.484404 823.94946 1296.8396 4282534010
-34.507339 830.55737 1297.1791 4287398812
21.418348 830.55737 1297.1791 4290623436
-38.077065 832.37677 1298.7131 4287069846
-35.697247 832.37677 1298.7131 4287201688
22.608257 832.37677 1298.7131 4291347928
-34.374313 838.55127 1297.3792 4287333021
-30.818348 838.55127 1297.3792 4286807191
16.594496 838.55127 1297.3792 4288320685
18.965137 838.55127 1297.3792 4289437633
21.335779 838.55127 1297.3792 4287529636
-34.374313 840.36365 1298.9072 4287333277
-30.818348 840.36365 1298.9072 4286741650
18.965137 840.36365 1298.9072 4285428652
21.335779 840.36365 1298.9072 4284309915
-33.060551 844.69769 1296.0215 4287399583
-30.699083 844.69769 1296.0215 4286873239
-28.337614 844.69769 1296.0215 4285690766
-25.976147 844.69769 1296.0215 4289638089
-23.614679 844.69769 1296.0215 4291481077
16.530275 844.69769 1296.0215 4282933613
18.891743 844.69769 1296.0215 4279977836
-34.241287 846.50305 1297.5438 4287464605
-30.699083 846.50305 1297.5438 4287004055
-28.337614 846.50305 1297.5438 4286018961
-25.976147 846.50305 1297.5438 4289505990
16.530275 846.50305 1297.5438 4284637581
18.891743 846.50305 1297.5438 4282803049
21.25321 846.50305 1297.5438 4283395186
-30.579817 854.41278 1297.6729 4287267229
-28.227524 854.41278 1297.6729 4285889424
-25.875229 853.51361 1296.9147 4288915646
-23.522936 852.61444 1296.1565 4290889967
16.466055 852.61444 1296.1565 4291216088
18.818348 853.51361 1296.9147 4290426579
21.170643 854.41278 1297.6729 4291017684
-31.632111 860.48901 1296.2561 4286939545
-28.117432 860.48901 1296.2561 4286021010
18.744955 860.48901 1296.2561 4290690516
21.088074 860.48901 1296.2561 4290690516
-37.48991 862.2804 1297.7666 4287004053
-35.14679 862.2804 1297.7666 4287333274
18.744955 862.2804 1297.7666 4290624469
21.088074 862.2804 1297.7666 4290558676
-35.036697 869.61566 1298.7192 4287267733
-31.533026 868.72278 1297.9664 4287004570
-28.029358 868.72278 1297.9664 4286086291
-25.693579 868.72278 1297.9664 4288454838
18.686239 867.82996 1297.2136 4290821586
21.022018 868.72278 1297.9664 4290821588
-27.919266 875.62457 1297.2457 4286019724
-25.592661 875.62457 1297.2457 4288059564
-23.266054 875.62457 1297.2457 4289508831
-19.776146 875.62457 1297.2457 4294639615
19.776146 875.62457 1297.2457 4290557906
-27.919266 877.40332 1298.7455 4286020240
-25.592661 877.40332 1298.7455 4287928237
-23.266054 877.40332 1298.7455 4289508577
-19.776146 877.40332 1298.7455 4294705151
19.776146 877.40332 1298.7455 4290427092
-23.174313 883.3772 1297.2424 4289115096
-20.85688 883.3772 1297.2424 4294377471
19.698166 883.3772 1297.2424 4289966541
-23.174313 885.14893 1298.7362 4289442008
-20.85688 885.14893 1298.7362 4294310655
19.698166 885.14893 1298.7362 4289834439
-23.100918 890.60864 1298.1077 4288589013
-19.250765 890.01996 1297.6112 4294047999
18.480734 889.72559 1297.363 4289768644
-19.557798 896.52222 1296.5536 4293916927
-16.106422 896.52222 1296.5536 4293850367
18.407339 896.52222 1296.5536 4290229193
-25.310091 898.28125 1298.0369 4287138460
-23.009174 898.28125 1298.0369 4287799749
-19.557798 898.28125 1298.0369 4293982975
20.708258 898.28125 1298.0369 4290623436
-27.500917 905.91187 1297.9307 4286216324
-25.209175 905.03583 1297.192 4286940817
-22.917431 904.15979 1296.4534 4287668163
-20.625689 904.15979 1296.4534 4293260543
-25.128441 911.28748 1297.231 4286742920
-22.844036 911.28748 1297.231 4287602365
-25.128441 913.03394 1298.7036 4286611334
-22.844036 913.03394 1298.7036 4287141816
-27.302752 920.58447 1298.5299 4288581263
-25.027523 919.71472 1297.7966 4287858577
-22.752293 919.71472 1297.7966 4289176756
-20.477064 919.71472 1297.7966 4293124336
22.752293 919.71472 1297.7966 4286211704
25.027523 920.58447 1298.5299 4285487207
-18.14312 924.16736 1296.3187 4292665322
-15.875229 925.0343 1297.0497 4292796660
-13.60734 925.0343 1297.0497 4293125108
-11.33945 925.0343 1297.0497 4293651450
0 925.90118 1297.7806 4293454591
19.277065 925.0343 1297.0497 4285420385
22.6789 925.0343 1297.0497 4285157978
-9.042202 932.05945 1297.7411 4290951892
-6.7816515 932.05945 1297.7411 4292662511
-4.521101 932.05945 1297.7411 4293256175
-2.2605505 932.05945 1297.7411 4293388018
-49.431194 755.86212 1299.5995 4288056732
-46.959633 755.86212 1299.5995 4288385696
-43.252296 755.86212 1299.5995 4287990436
-39.544952 755.86212 1299.5995 4288056484
22.244038 755.86212 1299.5995 4292270316
24.715597 755.86212 1299.5995 4292006126
-51.902752 757.75165 1301.1926 4287662748
-49.431194 757.75165 1301.1926 4287793053
-46.959633 757.75165 1301.1926 4287858846
-43.252296 757.75165 1301.1926 4287793823
27.187157 757.75165 1301.1926 4291940842
-39.398167 764.24878 1300.1307 4287663772
-36.93578 764.24878 1300.1307 4287860895
24.623854 764.24878 1300.1307 4291874788
27.086239 764.24878 1300.1307 4292006374
-49.247707 766.13135 1301.718 4287596444
-46.78532 766.13135 1301.718 4287728030
-44.322937 766.13135 1301.718 4287728795
-40.629356 766.13135 1301.718 4287663003
29.548624 766.13135 1301.718 4291874025
-46.611008 770.71783 1299.0452 4287859100
-44.157799 770.71783 1299.0452 4287924891
-40.477982 770.71783 1299.0452 4287727770
19.625689 770.71783 1299.0452 4291743720
22.078899 770.71783 1299.0452 4291743720
25.758717 770.71783 1299.0452 4291742950
-49.06422 772.59332 1300.6265 4287596444
-46.611008 772.59332 1300.6265 4287728030
-44.157799 772.59332 1300.6265 4287662750
-41.704586 772.59332 1300.6265 4287531421
22.078899 772.59332 1300.6265 4291875051
25.758717 772.59332 1300.6265 4292006376
29.438532 772.59332 1300.6265 4291874023
-46.436699 779.02734 1299.5114 4287728543
-43.992661 779.02734 1299.5114 4287662750
-40.326607 779.02734 1299.5114 4287728797
-36.660549 779.02734 1299.5114 4287926431
19.552294 779.02734 1299.5114 4291611879
21.99633 779.02734 1299.5114 4291677673
-48.880733 780.89581 1301.0868 4287071381
-46.436699 780.89581 1301.0868 4287531932
-43.992661 780.89581 1301.0868 4287531421
-40.326607 780.89581 1301.0868 4287531164
19.552294 780.89581 1301.0868 4291217889
21.99633 780.89581 1301.0868 4291415268
-43.827522 787.2948 1299.942 4287072665
-41.392662 787.2948 1299.942 4287335836
-37.740364 787.2948 1299.942 4287530397
19.478899 787.2948 1299.942 4291020510
-43.827522 789.15625 1301.5116 4287663000
-41.392662 789.15625 1301.5116 4287794842
-38.957798 789.15625 1301.5116 4287661724
21.913761 789.15625 1301.5116 4292007141
-41.205505 796.97485 1300.2559 4287596961
-38.781651 796.97485 1300.2559 4287662482
19.390825 797.90137 1301.0371 4291348192
21.814678 796.97485 1300.2559 4291348447
-43.464222 806.07336 1301.3873 4287398295
-41.049541 804.22736 1299.8308 4287530135
19.31743 804.22736 1299.8308 4291282398
21.732111 805.15039 1300.6091 4291742691
-40.893578 812.36426 1300.1516 4287530135
-38.488075 812.36426 1300.1516 4287267994
19.244038 812.36426 1300.1516 4291349195
-40.893578 814.20331 1301.7021 4287464344
21.649542 814.20331 1301.7021 4284635775
-40.737614 820.45917 1300.4368 4287726487
-38.341286 820.45917 1300.4368 4287594647
-43.133945 822.2912 1301.9814 4287397012
-40.737614 822.2912 1301.9814 4287660440
23.963303 822.2912 1301.9814 4284109149
-38.194496 826.68701 1299.1478 4287333526
-34.613762 826.68701 1299.1478 4287333530
23.871559 826.68701 1299.1478 4286684053
-40.58165 828.51196 1300.6866 4287333788
-38.194496 828.51196 1300.6866 4287398295
23.871559 828.51196 1300.6866 4290427843
26.258715 828.51196 1300.6866 4291085774
-40.456882 836.0155 1301.7812 4287463311
-38.077065 835.10583 1301.0142 4287266713
23.798164 835.10583 1301.0142 4289241265
26.177982 835.10583 1301.0142 4290491589
28.557798 835.10583 1301.0142 4291016662
30.937614 835.10583 1301.0142 4288779701
-40.300919 842.17603 1300.4354 4287135891
-37.930275 842.17603 1300.4354 4287201688
-35.559631 842.17603 1300.4354 4287267481
21.335779 842.17603 1300.4354 4282477970
-40.300919 843.9884 1301.9636 4287662235
-37.930275 843.9884 1301.9636 4287201688
23.706423 843.9884 1301.9636 4285495457
-37.783485 848.30841 1299.066 4286806928
-34.241287 848.30841 1299.066 4287069847
-30.699083 848.30841 1299.066 4287135643
-28.337614 848.30841 1299.066 4286085522
18.891743 848.30841 1299.066 4287669164
21.25321 848.30841 1299.066 4283458412
-37.783485 850.11377 1300.5883 4287135893
-34.241287 850.11377 1300.5883 4287069848
-30.699083 850.11377 1300.5883 4287201438
-28.337614 850.11377 1300.5883 4286020242
21.25321 850.11377 1300.5883 4286545823
-35.284405 856.21118 1299.1892 4287201940
-31.755962 856.21118 1299.1892 4287070620
23.522936 856.21118 1299.1892 4291149784
23.522936 858.00952 1300.7056 4290624723
-37.48991 864.96741 1300.0322 4287003792
-35.14679 864.96741 1300.0322 4287069586
22.650152 864.66876 1299.7804 4290821842
-37.372478 871.40137 1300.225 4287463311
-35.036697 871.40137 1300.225 4287594897
-31.533028 871.40137 1300.225 4287070102
-28.029358 871.40137 1300.225 4286085774
-25.693579 871.40137 1300.225 4288190893
22.189907 871.40137 1300.225 4290690259
-39.708256 873.18713 1301.7306 4287003791
-37.372478 873.18713 1301.7306 4287396752
-35.036697 873.18713 1301.7306 4287528339
-31.533028 873.18713 1301.7306 4287199889
23.357798 873.18713 1301.7306 4290426828
-34.899082 880.96069 1301.745 4287003793
-31.409174 880.07135 1300.9951 4286873239
-27.919266 880.07135 1300.9951 4285889167
-25.592661 880.07135 1300.9951 4287862701
-23.266054 879.18201 1300.2452 4289312220
-20.939449 879.18201 1300.2452 4294443007
23.266054 880.96069 1301.745 4289966025
-25.491743 886.92059 1300.2301 4287401379
-23.174313 886.92059 1300.2301 4289113821
-20.85688 886.92059 1300.2301 4293982719
20.85688 886.92059 1300.2301 4290163402
-27.809174 888.69226 1301.7239 4285887373
-25.491743 888.69226 1301.7239 4287663784
20.85688 888.69226 1301.7239 4289768644
-25.411009 892.37476 1299.5967 4287532968
-23.100918 892.37476 1299.5967 4288260552
-20.790825 892.37476 1299.5967 4293458175
20.790825 892.37476 1299.5967 4289768644
-27.721102 894.14087 1301.0858 4285823115
-25.411009 894.14087 1301.0858 4287007133
-23.100918 894.14087 1301.0858 4288062405
20.790825 894.14087 1301.0858 4290294986
-28.377981 901.21307 1300.5088 4286545549
-25.310091 900.04034 1299.52 4287006871
-23.009174 900.04034 1299.52 4287864772
-20.708258 900.04034 1299.52 4293457151
19.557798 900.91992 1300.2616 4286674583
-28.64679 907.66394 1299.408 4286413192
-32.084404 909.41602 1300.8851 4286544776
-28.64679 909.41602 1300.8851 4286347651
-27.412844 914.78033 1300.1761 4286085242
-25.128441 914.78033 1300.1761 4286413951
-22.844036 914.78033 1300.1761 4286877863
-28.555046 916.52679 1301.6487 4286412166
-27.302752 922.32391 1299.9966 4289175210
-25.027523 922.32391 1299.9966 4290162105
-22.752293 922.32391 1299.9966 4290098377
-20.477064 922.32391 1299.9966 4291940581
25.027523 922.32391 1299.9966 4285157978
-27.302752 924.06335 1301.4633 4289769398
-25.027523 924.06335 1301.4633 4289835191
-22.752293 924.06335 1301.4633 4290295492
-19.339451 924.06335 1301.4633 4290427343
25.027523 924.06335 1301.4633 4284960599
-31.750458 929.36877 1300.7045 4289964990
-24.946789 929.36877 1300.7045 4290032582
-22.6789 929.36877 1300.7045 4289835202
-19.277065 928.50189 1299.9735 4290032845
-15.875229 928.50189 1299.9735 4290690015
-13.60734 928.50189 1299.9735 4291281875
-10.583487 928.21289 1299.7299 4292400613
1.133945 928.50189 1299.9735 4293454076
4.53578 928.50189 1299.9735 4293585919
6.8036699 928.50189 1299.9735 4292664824
10.205505 928.50183 1299.9735 4286939808
13.60734 928.50189 1299.9735 4284171084
15.875229 928.50189 1299.9735 4285289564
19.655046 928.21289 1299.7299 4285354590
-55.610092 760.58594 1303.5825 4287531160
-51.902752 760.58594 1303.5825 4287531417
-49.431194 760.58594 1303.5825 4287333273
-46.959633 760.58594 1303.5825 4287596702
-43.252293 760.58594 1303.5825 4287663517
29.658716 761.5307 1304.379 4292136681
-54.172478 769.89636 1304.8926 4287399835
-51.710091 768.95508 1304.0989 4287531163
-49.247707 768.01379 1303.3053 4287793307
29.548624 768.01379 1303.3053 4291741923
-51.517429 776.34436 1303.7893 4287466391
-49.06422 775.40662 1302.9985 4287465883
-46.611008 774.46881 1302.2079 4287597725
-41.704586 774.46881 1302.2079 4287531934
22.078899 774.46881 1302.2079 4291744233
25.758717 775.40656 1302.9987 4291677410
29.438532 775.40662 1302.9985 4291742181
-51.324772 782.76428 1302.6622 4287465107
-48.880733 782.76428 1302.6622 4287202969
-46.436699 782.76428 1302.6622 4287597727
-43.992661 782.76428 1302.6622 4287465374
-41.548622 782.76428 1302.6622 4287531423
19.552294 782.76428 1302.6622 4291217639
21.99633 782.76428 1302.6622 4291480811
24.440367 782.76428 1302.6622 4291874797
-52.546791 784.63281 1304.2377 4287464594
-48.880733 784.63281 1304.2377 4287334039
-46.436699 784.63281 1304.2377 4287728797
21.99633 784.63281 1304.2377 4291415268
25.662384 784.63281 1304.2377 4291415270
34.216515 784.63281 1304.2377 4291414498
-43.827522 791.0177 1303.0812 4287071383
-41.392662 791.0177 1303.0812 4287466141
-38.957798 791.0177 1303.0812 4287661974
24.348623 791.0177 1303.0812 4291544288
-46.262386 792.87921 1304.6508 4287333272
-43.827522 792.87921 1304.6508 4287201949
24.348623 792.87921 1304.6508 4291347680
-41.205505 799.75439 1302.5996 4287728030
21.814678 799.75439 1302.5996 4291282398
-43.629356 801.60742 1304.162 4287398549
24.238533 801.60742 1304.162 4291742688
-43.464222 808.84247 1303.7222 4287398294
21.732111 808.84247 1303.7222 4290296004
24.14679 808.84247 1303.7222 4289046208
-48.110092 817.88135 1304.8035 4287201173
-45.704586 817.88135 1304.8035 4287398295
-43.299084 816.96185 1304.0281 4287594645
-40.893578 816.04236 1303.2528 4287594645
25.257797 817.88135 1304.8035 4287989667
28.866055 817.88135 1304.8035 4291673309
36.082569 817.88135 1304.8035 4284173661
-43.133945 824.12317 1303.5262 4286741135
-40.737614 824.12317 1303.5262 4287333272
26.359632 824.12317 1303.5262 4287670948
28.755962 824.12317 1303.5262 4289376980
31.152294 824.12317 1303.5262 4287995327
-42.968807 830.33698 1302.2253 4286610830
-40.58165 830.33698 1302.2253 4287071381
26.258715 830.33698 1302.2253 4291611096
28.645872 830.33698 1302.2253 4291411686
31.033028 830.33698 1302.2253 4289832654
-42.968807 832.16199 1303.7642 4287135891
-40.58165 832.16199 1303.7642 4287596442
33.420185 832.16199 1303.7642 4286740394
-40.456882 837.8349 1303.3153 4287069584
-38.077065 837.8349 1303.3153 4287003801
23.798164 838.74463 1304.0823 4286807167
26.177982 838.74463 1304.0823 4289899182
28.557798 838.74463 1304.0823 4289965247
30.937614 838.74463 1304.0823 4285688446
33.317432 839.6543 1304.8494 4281287227
-42.671558 845.80078 1303.4917 4287070098
-40.300919 845.80078 1303.4917 4287201940
23.706423 845.80078 1303.4917 4281291882
-37.783485 851.91919 1302.1105 4287201686
-34.241287 851.91919 1302.1105 4287201433
23.614679 851.91919 1302.1105 4290952391
-37.783485 853.72449 1303.6327 4287135891
23.522936 859.80786 1302.2218 4290624721
25.875229 859.80786 1302.2218 4290690514
25.875229 861.6062 1303.7382 4290822099
28.227524 861.6062 1303.7382 4290822097
-39.833027 869.44574 1303.8081 4287069584
-37.48991 867.65442 1302.2977 4287135891
23.431192 867.65442 1302.2977 4290821586
25.774311 868.55005 1303.053 4290887380
-42.044037 874.97284 1303.2363 4286937998
-39.708256 874.97284 1303.2363 4287003791
-37.372478 874.97284 1303.2363 4287265685
-35.036697 874.97284 1303.2363 4287660442
-31.533028 874.97284 1303.2363 4287201173
23.357798 874.97284 1303.2363 4290492620
-42.044037 876.75854 1304.7419 4287003791
-39.708256 876.75854 1304.7419 4287003791
-37.372478 876.75854 1304.7419 4287003793
-35.036697 876.75854 1304.7419 4287201173
23.357798 876.75854 1304.7419 4290229195
-34.899082 883.62878 1303.9946 4287069841
-31.409174 883.62878 1303.9946 4286807445
-27.919266 883.62878 1303.9946 4285954190
-25.592661 882.73938 1303.2448 4287270563
23.266054 883.62878 1303.9946 4289965764
-27.809174 890.46399 1303.2178 4286085522
23.174313 890.46399 1303.2178 4290096328
-30.126606 892.23566 1304.7117 4286872723
23.174313 892.23566 1304.7117 4290753490
-27.721102 895.90692 1302.575 4286151565
23.100918 895.90692 1302.575 4290491088
-30.031193 897.67303 1304.0641 4286873235
20.790825 897.67303 1304.0641 4286610067
23.100918 897.67303 1304.0641 4286542475
25.411009 897.67303 1304.0641 4284568685
27.721102 897.67303 1304.0641 4284959075
-34.51376 905.31757 1303.9696 4286741389
-32.212845 904.43799 1303.228 4286610828
-29.911926 903.55847 1302.4865 4286610830
20.708258 904.43799 1303.228 4285946992
-32.084404 911.16803 1302.3624 4286478731
-28.64679 911.16803 1302.3624 4286610825
-34.376148 912.92004 1303.8397 4286543238
-32.084404 912.92004 1303.8397 4286281086
-29.79266 912.92004 1303.8397 4286675844
-31.981651 919.14648 1303.8574 4287267715
-29.697248 919.14648 1303.8574 4287794059
-31.85321 925.80273 1302.9298 4289965233
-27.302752 925.80273 1302.9298 4290032323
-25.027523 925.80273 1302.9298 4290295238
-22.752293 925.80273 1302.9298 4289902016
22.752293 925.80273 1302.9298 4284959579
25.027523 925.80273 1302.9298 4284959579
-34.128441 927.54224 1304.3965 4289702072
-28.440367 927.54224 1304.3965 4289966017
18.201836 927.54224 1304.3965 4285551968
22.752293 927.54224 1304.3965 4284632150
25.027523 927.54224 1304.3965 4284697943
-31.750458 931.96954 1302.8973 4289899973
-27.21468 931.10266 1302.1664 4290164424
-24.946789 931.10266 1302.1664 4290427340
-22.6789 931.96954 1302.8973 4289966535
-19.277065 931.96954 1302.8973 4290164171
-15.875229 931.96954 1302.8973 4290098378
-13.60734 931.96954 1302.8973 4290294483
-10.583488 932.25848 1303.141 4290163151
-6.8036699 932.83643 1303.6283 4290361294
-4.53578 932.83643 1303.6283 4290297035
-2.26789 932.83643 1303.6283 4290955221
1.133945 931.10266 1302.1664 4293387766
4.53578 931.10266 1302.1664 4293453822
6.8036699 931.96954 1302.8973 4292926970
10.583487 931.6806 1302.6537 4285558928
13.60734 931.10266 1302.1664 4283839819
15.875229 931.10266 1302.1664 4285682023
-62.06422 756.37109 1307.8767 4287267733
-59.58165 756.37109 1307.8767 4287465878
29.790825 756.37109 1307.8767 4292137192
-59.317432 763.42023 1305.9723 4287530651
-55.610092 763.42023 1305.9723 4287465370
-51.902752 763.42023 1305.9723 4287465626
-59.317432 765.30975 1307.5654 4287662239
-55.610092 765.30975 1307.5654 4287662237
-54.172478 771.77887 1306.4799 4287006871
-51.710091 771.77887 1306.4799 4287270043
32.011009 771.77887 1306.4799 4292137194
34.473396 771.77887 1306.4799 4291413470
-52.744034 778.21985 1305.3706 4287400598
25.758717 778.21985 1305.3706 4291742695
29.438532 778.21985 1305.3706 4291545571
31.891743 778.21985 1305.3706 4291742949
34.344955 778.21985 1305.3706 4291545825
-56.423855 780.09534 1306.952 4287464855
-53.970642 780.09534 1306.952 4287465107
26.985321 780.09534 1306.952 4292072432
29.438532 780.09534 1306.952 4291808741
31.891743 780.09534 1306.952 4291808741
34.344955 780.09534 1306.952 4291479780
-56.212845 786.50128 1305.8131 4287529884
-52.546791 787.43549 1306.6008 4287464596
-48.880733 787.43555 1306.6008 4287268247
-46.436699 787.43555 1306.6008 4287531419
26.069723 787.12408 1306.3383 4291742179
29.32844 787.43555 1306.6008 4291742688
31.772476 787.43555 1306.6008 4291610846
34.216515 787.43555 1306.6008 4291216864
-48.697247 794.74066 1306.2202 4287530649
-46.262386 794.74066 1306.2202 4287530649
-43.827522 794.74066 1306.2202 4287070872
25.566055 794.74066 1306.2202 4291282401
-51.132111 796.60217 1307.7898 4287332756
-48.697247 796.60217 1307.7898 4287333272
-46.262386 796.60217 1307.7898 4287662237
-43.827522 796.60217 1307.7898 4287464857
25.566055 796.60217 1307.7898 4291545057
-46.053211 803.46051 1305.7245 4287267733
25.450459 803.46051 1305.7245 4292137188
29.086239 803.46051 1305.7245 4291874284
-46.053211 805.3136 1307.2869 4287135893
26.662386 805.3136 1307.2869 4288191413
29.086239 805.3136 1307.2869 4287597727
33.933945 805.3136 1307.2869 4283979389
-45.878899 811.61151 1306.057 4287398297
-43.464222 811.61151 1306.057 4287464344
25.35413 811.61151 1306.057 4286216881
36.220184 811.61151 1306.057 4282996076
-48.293579 813.45758 1307.6135 4287135382
-45.878899 813.45758 1307.6135 4287332504
25.35413 813.45758 1307.6135 4288319695
28.976147 813.45758 1307.6135 4290687688
31.390825 813.45758 1307.6135 4287003280
-49.312843 820.63995 1307.1294 4287201427
-45.704586 820.63989 1307.1294 4287135634
26.46055 819.7204 1306.354 4288319901
28.866055 819.7204 1306.354 4290885051
31.271559 819.7204 1306.354 4290226865
33.677063 820.63989 1307.1294 4286812580
36.082569 820.63989 1307.1294 4284904583
-50.322937 827.78723 1306.6156 4287135378
-46.728439 826.87122 1305.8433 4286939788
-43.133945 825.9552 1305.0709 4286873237
28.755962 825.9552 1305.0709 4291084504
31.152294 825.9552 1305.0709 4289768644
33.548622 827.78723 1306.6156 4289043125
-42.968807 833.987 1305.303 4287463311
33.420185 833.987 1305.303 4286543238
-42.968807 835.81201 1306.8418 4287135378
34.613762 835.81201 1306.8418 4286417285
-42.836697 841.47369 1306.3834 4287135891
26.177982 841.47369 1306.3834 4288653520
28.557798 841.47369 1306.3834 4288979378
30.937614 841.47369 1306.3834 4284176489
33.317432 841.47369 1306.3834 4282863459
26.177982 843.29309 1307.9175 4284055188
28.557798 843.29309 1307.9175 4286085281
30.937614 843.29309 1307.9175 4287401141
33.317432 843.29309 1307.9175 4289110448
-40.300919 847.61316 1305.0199 4287202199
23.706423 847.61316 1305.0199 4286217871
26.077065 847.61316 1305.0199 4287731110
-40.300919 849.42554 1306.5481 4287071120
26.077065 849.42554 1306.5481 4291281100
28.447706 849.42554 1306.5481 4291543254
-40.144955 857.33521 1306.6772 4287004556
-37.783485 855.52991 1305.1549 4287004307
-35.42202 855.52991 1305.1549 4287201686
25.976147 855.52991 1305.1549 4290624723
28.337614 857.33521 1306.6772 4290822099
-39.988991 863.40454 1305.2545 4287004804
25.875229 863.40454 1305.2545 4290821584
28.227524 863.40454 1305.2545 4290821584
-39.988991 865.20288 1306.7708 4287070602
28.227524 865.20288 1306.7708 4290755789
32.93211 865.20288 1306.7708 4290558926
-42.176147 871.23706 1305.3186 4287003791
25.774311 871.23706 1305.3186 4290492622
28.117432 871.23706 1305.3186 4290491849
-46.862385 873.02844 1306.829 4286610317
-44.519264 873.02844 1306.829 4286741902
25.774311 873.02844 1306.829 4290361033
28.117432 873.02844 1306.829 4290294727
31.632111 873.02844 1306.829 4289965506
35.14679 873.02844 1306.829 4289636542
-43.211929 878.54431 1306.2477 4286741641
-39.708256 878.54431 1306.2477 4287003791
-37.372478 878.54431 1306.2477 4287003793
25.693579 878.54431 1306.2477 4289768390
-42.044037 880.33002 1307.7534 4286938250
-39.708256 880.33002 1307.7534 4286938250
-37.372478 880.33002 1307.7534 4287003791
25.693579 880.33002 1307.7534 4289768644
28.029358 880.33002 1307.7534 4289571522
-34.899082 886.29688 1306.2443 4287004556
-31.409174 886.29688 1306.2443 4286675857
23.266054 886.29688 1306.2443 4289964488
-37.225689 888.07556 1307.744 4287004806
-34.899082 888.07556 1307.744 4287136393
-31.409174 888.07556 1307.744 4286938260
25.592661 888.07556 1307.744 4290096328
27.919266 888.07556 1307.744 4290293443
-34.761467 895.77905 1307.6993 4286805897
-31.285322 894.89319 1306.9524 4286676113
25.491743 894.00739 1306.2054 4289898695
27.809174 894.00739 1306.2054 4289832861
30.126606 895.77905 1307.6993 4284959075
-34.651375 899.43909 1305.5532 4286807695
-32.341286 899.43909 1305.5532 4286807695
23.100918 899.43909 1305.5532 4284108647
25.411009 899.43909 1305.5532 4284306283
27.721102 899.43909 1305.5532 4284237668
-36.961468 901.2052 1307.0424 4286544005
-34.651375 901.2052 1307.0424 4286873227
23.100918 901.2052 1307.0424 4285421414
25.411009 901.2052 1307.0424 4285421414
27.721102 901.2052 1307.0424 4285616996
-39.115597 908.83569 1306.936 4286412672
-36.814678 908.83569 1306.936 4286609285
-34.51376 907.95618 1306.1945 4286609542
20.708258 907.95618 1306.1945 4285552494
23.009174 907.95618 1306.1945 4285355109
-36.667889 914.67212 1305.317 4286476934
-34.376148 914.67212 1305.317 4286674056
-32.084404 914.67212 1305.317 4286411652
-36.667889 916.42419 1306.7943 4286279804
-34.376148 916.42419 1306.7943 4286477184
-34.266056 922.63934 1306.8027 4289503148
-31.981651 921.76611 1306.0664 4289176230
-29.697248 922.63934 1306.8027 4290096818
27.412844 922.63934 1306.8027 4284567125
-34.128441 929.28162 1305.8632 4290161601
-29.577982 929.28162 1305.8632 4290425804
19.339451 929.28162 1305.8632 4285223003
22.752293 929.28162 1305.8632 4284566357
25.027523 929.28162 1305.8632 4284697943
-36.403671 931.02106 1307.3298 4289964992
-34.128441 931.02106 1307.3298 4290030785
-28.440367 931.02106 1307.3298 4289900744
-25.027523 931.02106 1307.3298 4289769927
1.1376147 931.02106 1307.3298 4292202724
4.5504589 931.02106 1307.3298 4292728827
9.1009178 931.02106 1307.3298 4289245912
13.651376 931.02106 1307.3298 4284037964
15.926605 931.02106 1307.3298 4285551203
19.339451 931.02106 1307.3298 4285025886
22.752293 931.02106 1307.3298 4284566357
-31.750458 934.57031 1305.0902 4289637826
-24.946789 934.57031 1305.0902 4289769927
-6.8036699 934.57031 1305.0902 4290295238
-4.53578 934.57031 1305.0902 4290295994
-2.26789 934.57031 1305.0902 4291085254
-64.546791 758.26904 1309.4771 4287464855
-62.06422 758.26904 1309.4771 4287333526
-59.58165 758.26904 1309.4771 4287530649
-61.78899 767.19928 1309.1587 4287596694
-59.317432 767.19928 1309.1587 4287465374
-56.845871 767.19928 1309.1587 4287399581
32.130276 767.19928 1309.1587 4292202987
34.601833 767.19928 1309.1587 4291741669
-61.78899 769.08881 1310.7518 4287202197
-59.317432 769.08881 1310.7518 4286742421
-56.845871 769.08881 1310.7518 4287137178
-55.403671 773.66138 1308.0671 4287466137
32.011009 773.66138 1308.0671 4292334576
34.473396 773.66138 1308.0671 4291808479
-56.634861 775.54388 1309.6545 4287531419
-56.423855 781.97083 1308.5333 4287726233
29.438532 781.97083 1308.5333 4291742436
31.891743 781.97083 1308.5333 4291676643
-58.877064 783.84631 1310.1147 4287398297
-52.546791 790.23828 1308.9641 4287398549
-48.880733 790.23828 1308.9641 4287333272
26.884403 790.23828 1308.9641 4291610596
29.32844 790.23828 1308.9641 4291545823
31.772476 790.23828 1308.9641 4291545823
34.216515 790.23828 1308.9641 4291151578
-56.212845 792.10675 1310.5396 4287726233
-52.546791 792.10675 1310.5396 4287398549
29.32844 792.10675 1310.5396 4291546590
31.772476 792.10675 1310.5396 4291480541
34.216515 792.10675 1310.5396 4291217372
-51.132111 799.39435 1310.144 4287464845
-48.697247 799.39435 1310.144 4287267733
-46.262386 798.46362 1309.3594 4287267733
26.783485 798.46362 1309.3594 4292071397
29.218349 798.46362 1309.3594 4291808229
31.653212 799.39435 1310.144 4291874024
34.088074 799.39435 1310.144 4291743190
-49.285015 808.40204 1309.891 4287266454
-46.053211 807.16663 1308.8494 4287529886
26.662386 807.16663 1308.8494 4286347924
29.086239 808.09314 1309.6306 4286219649
31.510092 809.01965 1310.4117 4282928734
33.933945 809.01965 1310.4117 4282140767
-50.708256 815.30359 1309.17 4287528854
31.390825 815.30359 1309.17 4290818000
33.805504 815.30359 1309.17 4289831859
-53.122936 817.14966 1310.7266 4287332756
-52.921101 823.39844 1309.4553 4287069587
-50.515594 823.39844 1309.4553 4287332502
33.677063 823.39844 1309.4553 4289177788
-50.322937 829.61926 1308.1604 4287003791
-46.728439 829.61926 1308.1604 4287136134
-52.719265 831.45123 1309.7051 4287265932
-50.322937 831.45123 1309.7051 4287265932
-46.728439 831.45123 1309.7051 4287463561
-52.517429 839.46198 1309.9193 4286938250
-45.355965 838.54944 1309.1499 4287135881
-42.968807 837.63696 1308.3806 4287135891
35.807339 837.63696 1308.3806 4282932053
-45.216515 845.11249 1309.4515 4286937998
-42.836697 845.11249 1309.4515 4286873235
28.557798 845.11249 1309.4515 4289241773
30.937614 845.11249 1309.4515 4290359998
33.317432 845.11249 1309.4515 4291347397
-42.836697 846.93188 1310.9856 4286939534
30.937614 846.93188 1310.9856 4291346132
34.507339 846.93188 1310.9856 4291149780
-40.300919 851.23792 1308.0762 4287070600
26.077065 851.23792 1308.0762 4291215577
28.447706 851.23792 1308.0762 4291215073
-40.300919 853.05029 1309.6044 4287004808
28.447706 853.05029 1309.6044 4290558678
30.818348 853.05029 1309.6044 4290492885
33.188992 853.05029 1309.6044 4290689231
-43.687157 860.94598 1309.7217 4286806917
-40.144955 859.14062 1308.1995 4287004806
30.699083 860.04333 1308.9606 4290756048
33.060551 860.94598 1309.7217 4290492620
-47.045872 868.79956 1309.8035 4286741898
-43.909481 867.60065 1308.7926 4286807178
28.227524 867.00122 1308.2871 4290755791
31.755962 867.90039 1309.0453 4290492106
35.284405 868.79956 1309.8035 4289964994
-46.862385 874.8197 1308.3394 4286479496
-44.519264 874.8197 1308.3394 4286611082
25.774311 874.8197 1308.3394 4289900230
28.117432 874.8197 1308.3394 4289898947
31.632111 874.8197 1308.3394 4289899458
35.14679 874.8197 1308.3394 4289768383
-49.205505 876.61108 1309.8499 4286478731
-46.862385 876.61108 1309.8499 4286545028
28.117432 876.61108 1309.8499 4289702599
31.632111 876.61108 1309.8499 4289637315
35.14679 876.61108 1309.8499 4289506238
-43.211929 883.00854 1310.0118 4286675839
-39.708256 883.00854 1310.0118 4286675842
-37.372478 883.00854 1310.0118 4286741387
25.693579 883.00854 1310.0118 4289833411
28.029358 883.00854 1310.0118 4289439936
35.036697 883.90143 1310.7646 4290163652
37.372478 883.90143 1310.7646 4290490055
-34.899082 889.85425 1309.2438 4286872453
-32.572475 889.85425 1309.2438 4286806930
25.592661 889.85425 1309.2438 4290819284
27.919266 889.85425 1309.2438 4290752707
-37.225689 891.63293 1310.7435 4286544005
-34.899082 891.63293 1310.7435 4286544005
-32.572475 891.63293 1310.7435 4286610321
30.245872 891.63293 1310.7435 4288122243
-40.555046 899.32251 1310.687 4286543740
-37.078899 897.55078 1309.1931 4286412938
30.899084 898.73193 1310.1891 4285091684
34.761467 899.32251 1310.687 4285223521
37.078899 899.32251 1310.687 4284960349
-36.961468 902.97125 1308.5315 4286412424
23.100918 902.97125 1308.5315 4285683316
25.411009 902.97125 1308.5315 4285486194
34.651375 902.97125 1308.5315 4285157472
-36.961468 904.73737 1310.0205 4286609799
25.411009 904.73737 1310.0205 4285485925
27.721102 904.73737 1310.0205 4285551968
34.651375 904.73737 1310.0205 4285026143
-40.266056 910.59479 1308.4192 4286346879
-36.814678 910.59479 1308.4192 4286543238
23.009174 910.59479 1308.4192 4285557890
25.310091 910.59479 1308.4192 4285492097
-43.71743 912.35388 1309.9025 4286281086
-40.266056 912.35388 1309.9025 4286281086
25.310091 912.35388 1309.9025 4286870408
-41.251377 919.92834 1309.7489 4288053651
-37.813759 919.05225 1309.0103 4287594640
-34.376148 918.17627 1308.2716 4287201427
32.084404 919.92834 1309.7489 4284304717
-36.550457 925.25903 1309.0115 4289570486
28.555046 925.25903 1309.0115 4284632404
-36.550457 927.00549 1310.484 4290095808
27.412844 927.00549 1310.484 4284632400
-37.541283 932.7605 1308.7964 4289767617
-34.128441 932.7605 1308.7964 4289768129
-28.440367 932.7605 1308.7964 4289769413
-22.752293 932.7605 1308.7964 4289834698
-19.339451 932.7605 1308.7964 4290163917
-15.926605 932.7605 1308.7964 4290032584
-13.651376 932.7605 1308.7964 4290032586
-10.238532 932.7605 1308.7964 4290032326
1.1376147 932.7605 1308.7964 4291873759
4.5504589 932.7605 1308.7964 4292466153
6.8256879 932.7605 1308.7964 4291084500
10.238532 932.7605 1308.7964 4286872955
13.651376 932.7605 1308.7964 4284236374
15.926605 932.7605 1308.7964 4285354855
18.201836 932.7605 1308.7964 4284697693
-37.541283 934.49994 1310.2631 4289505467
-34.128441 934.49994 1310.2631 4289506240
-31.85321 934.49994 1310.2631 4289178558
-29.577982 934.49994 1310.2631 4289507523
-25.027523 934.49994 1310.2631 4289639111
-10.238532 934.49994 1310.2631 4290032841
-6.8256879 934.49994 1310.2631 4290229193
-4.5504589 934.49994 1310.2631 4290162873
-2.2752295 934.49994 1310.2631 4290557631
2.2752295 934.49994 1310.2631 4290886096
10.238532 934.49994 1310.2631 4284574859
13.651376 934.49994 1310.2631 4284434770
15.926605 934.49994 1310.2631 4285158494
-69.768806 755.5509 1313.7253 4287267729
-64.546791 760.16699 1311.0774 4287464855
-62.06422 760.16699 1311.0774 4287464855
-67.029358 762.06494 1312.6776 4287661974
-64.546791 762.06494 1312.6776 4287596442
-62.06422 762.06494 1312.6776 4287596442
32.273396 762.06494 1312.6776 4292004839
34.755962 762.06494 1312.6776 4291741923
-61.78899 770.97833 1312.3451 4287662748
-59.317432 770.97833 1312.3451 4287400346
-64.260551 772.86786 1313.9382 4287268494
-61.78899 772.86786 1313.9382 4287400337
-59.317432 772.86786 1313.9382 4287465626
-61.559631 778.36768 1312.0354 4287333517
-59.097248 778.36768 1312.0354 4287529879
-58.877064 785.7218 1311.6962 4287332502
-56.423855 785.7218 1311.6962 4287530137
-61.330276 787.59735 1313.2775 4287462807
-56.423855 787.59735 1313.2775 4287530137
-58.656879 793.97522 1312.115 4287463061
-56.212845 793.97522 1312.115 4287923612
-53.768806 793.97522 1312.115 4287398549
29.32844 793.97522 1312.115 4291546077
31.772476 793.97522 1312.115 4291611870
34.216515 793.97522 1312.115 4292005856
-61.100918 795.84375 1313.6904 4287201427
-58.656879 795.84375 1313.6904 4287201427
-56.212845 795.84375 1313.6904 4287530135
-53.768806 795.84375 1313.6904 4287398797
-51.132111 802.18652 1312.4984 4287465359
-48.697247 802.18652 1312.4984 4286872721
31.653212 802.18652 1312.4984 4284768628
-55.748623 812.72583 1313.5366 4287594645
-53.324772 812.72583 1313.5366 4287594647
-50.900917 810.87274 1311.9742 4287397012
33.933945 810.87274 1311.9742 4284506233
-55.537613 818.99573 1312.2831 4287136143
-53.122936 818.99573 1312.2831 4287201173
-55.537613 820.84174 1313.8396 4287069836
-57.732109 827.07648 1312.5565 4287200139
-55.326607 826.15698 1311.7812 4287134348
-52.921101 826.15698 1311.7812 4286937998
-57.511925 833.28326 1311.2498 4287200139
-52.719265 833.28326 1311.2498 4287004043
-50.322937 833.28326 1311.2498 4287069836
-46.728439 833.28326 1311.2498 4287135880
-58.710091 835.1153 1312.7944 4286938248
-55.115597 835.1153 1312.7944 4287004043
-52.719265 835.1153 1312.7944 4287134598
-50.322937 835.1153 1312.7944 4287266184
-47.926605 835.1153 1312.7944 4287201675
-45.355965 841.28699 1311.4581 4286938250
-52.517429 843.112 1312.9969 4287004295
-50.130276 843.112 1312.9969 4287004295
-47.743118 843.112 1312.9969 4286937998
-45.216515 848.75128 1312.5198 4287004304
-42.836697 848.75128 1312.5198 4287004806
30.937614 848.75128 1312.5198 4290951900
33.317432 848.75128 1312.5198 4290755539
-45.042202 854.86267 1311.1324 4286741385
-42.671558 854.86267 1311.1324 4287004556
30.818348 854.86267 1311.1324 4290690514
33.188992 854.86267 1311.1324 4290426826
-45.042202 856.67505 1312.6606 4286936967
-42.671558 856.67505 1312.6606 4287004806
-43.687157 862.75134 1311.2439 4286741896
30.699083 862.75134 1311.2439 4290755789
-49.590824 864.5567 1312.7661 4286741635
-47.229359 864.5567 1312.7661 4286610821
35.42202 864.5567 1312.7661 4290755791
-51.750458 872.3963 1312.8361 4286282122
-49.398167 871.49707 1312.0779 4286413195
-49.205505 878.4024 1311.3602 4286741385
-46.862385 878.4024 1311.3602 4286676096
-44.519264 878.4024 1311.3602 4286741889
31.632111 878.4024 1311.3602 4289440705
35.14679 878.4024 1311.3602 4289178558
37.48991 878.4024 1311.3602 4289111482
-49.205505 880.19373 1312.8706 4286741637
-46.862385 880.19373 1312.8706 4286676346
31.632111 880.19373 1312.8706 4289506242
35.14679 880.19373 1312.8706 4289572544
37.48991 880.19373 1312.8706 4289636027
-46.715595 886.58008 1313.0232 4286413185
-43.211929 886.58008 1313.0232 4286544514
-39.708256 886.58008 1313.0232 4286873222
-37.372478 887.4729 1313.776 4286675331
30.365137 886.58008 1313.0232 4290227135
35.036697 886.58008 1313.0232 4288977327
37.372478 885.68719 1312.2704 4290292426
-44.205505 893.41168 1312.2434 4286412672
-40.715595 893.41168 1312.2434 4286544255
-37.225689 893.41168 1312.2434 4286476932
-44.205505 895.19043 1313.7432 4286346629
-40.715595 895.19043 1313.7432 4286478464
32.572475 895.19043 1313.7432 4284829022
34.899082 895.19043 1313.7432 4285092451
-46.348625 902.86584 1313.6747 4286346879
-44.031193 901.97998 1312.9277 4286478464
-40.555046 901.97998 1312.9277 4286478204
27.809174 901.09418 1312.1809 4285420900
31.285322 901.97998 1312.9277 4285289056
-48.511925 908.26953 1312.9988 4286215293
-46.201836 907.38647 1312.2542 4286215550
-43.891743 907.38647 1312.2542 4286215550
-41.58165 906.50342 1311.5096 4286346879
25.411009 906.50342 1311.5096 4284829793
27.721102 907.38647 1312.2542 4285161067
31.186239 907.38647 1312.2543 4285292396
34.651375 907.38647 1312.2542 4285291882
36.961468 907.38647 1312.2542 4284832097
39.271561 908.26953 1312.9988 4285293930
-46.018349 914.11292 1311.3856 4286214778
-43.71743 914.11292 1311.3856 4286214778
-40.266056 914.11292 1311.3856 4286082939
27.61101 914.11292 1311.3856 4285092449
-46.018349 915.87201 1312.8689 4286475898
-43.71743 915.87201 1312.8689 4286541948
-41.416515 915.87201 1312.8689 4286541694
27.61101 915.87201 1312.8689 4284698193
32.212845 915.87201 1312.8689 4284566355
34.51376 915.87201 1312.8689 4284698197
36.814678 915.87201 1312.8689 4284959831
40.266056 915.87201 1312.8689 4284828245
43.71743 915.87201 1312.8689 4284828500
-41.251377 922.5564 1311.9648 4288779438
-38.195717 922.2644 1311.7186 4289174192
32.084404 922.5564 1311.9648 4284828497
-38.834862 928.75195 1311.9565 4289964481
25.128441 928.75195 1311.9565 4284632150
20.559633 930.49841 1313.4292 4284697693
22.844036 930.49841 1313.4292 4284500564
-69.768806 757.45593 1315.3315 4287398801
-67.277061 757.45593 1315.3315 4287464594
32.392662 757.45593 1315.3315 4292136940
-69.768806 759.36084 1316.9377 4287398801
-67.029358 763.96289 1314.278 4287794077
-64.546791 763.96289 1314.278 4287596694
-67.029358 765.86084 1315.8783 4287465626
-64.546791 765.86084 1315.8783 4287202197
-64.260551 774.75739 1315.5315 4287136647
-64.022018 781.19141 1314.4164 4287332502
-61.559631 781.19141 1314.4164 4287464344
-64.022018 783.07397 1316.0037 4287201173
-61.559631 783.07397 1316.0037 4287332502
-63.783485 791.34833 1316.4402 4287397266
-61.330276 790.41058 1315.6495 4287331473
-58.877064 789.47284 1314.8589 4287265683
-61.100918 797.71222 1315.2659 4287135630
-58.656879 797.71222 1315.2659 4287397012
-56.212845 797.71222 1315.2659 4287594647
-53.768806 797.71222 1315.2659 4287399051
-63.544952 799.58069 1316.8413 4287463311
-61.100918 799.58069 1316.8413 4287529104
-58.656879 799.58069 1316.8413 4287201175
-56.212845 799.58069 1316.8413 4287464090
-53.768806 799.58069 1316.8413 4287333774
-58.436699 805.90955 1315.6376 4287199889
-56.001835 804.97876 1314.8528 4287397528
-52.349541 804.97876 1314.8528 4287660438
31.653212 804.04803 1314.068 4281680940
34.088074 804.04803 1314.068 4280567395
-55.748623 814.57886 1315.0991 4287332756
-58.172478 816.43188 1316.6616 4287136143
-60.366974 823.61078 1316.1746 4286938500
-57.952293 822.68774 1315.3962 4287265936
-60.137615 830.75458 1315.6578 4287004295
-57.732109 828.91553 1314.1072 4287527820
-55.326607 829.83508 1314.8826 4287265419
-62.304588 836.94727 1314.3391 4286872201
-58.710091 836.94727 1314.3391 4286938248
-55.115597 836.94727 1314.3391 4286938246
-50.322937 836.94727 1314.3391 4287398801
-47.926605 836.94727 1314.3391 4287135880
-62.304588 838.7793 1315.8839 4286807178
-58.710091 838.7793 1315.8839 4286873225
-55.115597 838.7793 1315.8839 4286807430
-52.719265 838.7793 1315.8839 4286938250
-50.322937 838.7793 1315.8839 4287004043
-47.926605 838.7793 1315.8839 4286806408
-57.291744 844.93701 1314.5358 4287004304
-50.130276 844.93701 1314.5358 4287266184
-46.549541 844.93701 1314.5358 4287004043
-58.485321 846.76196 1316.0745 4286609803
-54.904587 846.76196 1316.0745 4286806930
-52.517429 846.76196 1316.0745 4286872201
-50.130276 846.76196 1316.0745 4287004043
-47.743118 846.76196 1316.0745 4286872975
-45.216515 850.57068 1314.0537 4287004556
-42.836697 850.57068 1314.0537 4286873223
-47.596329 852.39001 1315.5879 4287004556
-49.783485 860.29974 1315.7169 4286807430
-47.412846 859.39355 1314.9529 4286807178
-49.590824 866.36206 1314.2883 4286675592
-54.313763 868.16742 1315.8105 4286806412
-51.952293 868.16742 1315.8105 4286478731
-54.102753 875.09381 1315.1106 4286609292
-51.750458 875.09381 1315.1106 4286478471
-51.548622 881.98505 1314.381 4286477182
-49.205505 881.98505 1314.381 4286740353
-46.862385 881.98505 1314.381 4286347131
31.632111 881.98505 1314.381 4289834689
-51.548622 883.77643 1315.8915 4286281351
-49.205505 883.77643 1315.8915 4286412938
32.803669 883.77643 1315.8915 4290425028
-51.387157 889.25861 1315.2817 4286413185
-49.051376 889.25861 1315.2817 4286413185
-46.715595 889.25861 1315.2817 4286413185
-43.211929 889.25861 1315.2817 4286478973
-39.708256 889.25861 1315.2817 4286676346
35.036697 889.25861 1315.2817 4285620344
37.372478 889.25861 1315.2817 4283845207
-52.555046 891.04437 1316.7874 4286083967
-49.051376 891.04437 1316.7874 4286150020
-46.715595 891.04437 1316.7874 4286544257
32.700916 891.04437 1316.7874 4284566888
35.036697 891.04437 1316.7874 4284632681
37.372478 891.04437 1316.7874 4285026906
-48.858715 896.96912 1315.2429 4286018182
-46.532108 896.96912 1315.2429 4286345346
-44.205505 896.96912 1315.2429 4286542725
-51.185322 898.7478 1316.7427 4286411404
-48.858715 898.7478 1316.7427 4286345355
-46.532108 898.7478 1316.7427 4286346879
-48.666054 904.63757 1315.1686 4286411654
-53.300919 906.40924 1316.6624 4286607487
-50.983486 906.40924 1316.6624 4286281086
-49.281956 911.21295 1315.4806 4286346619
-46.201836 910.03558 1314.4879 4286281086
27.721102 910.03558 1314.4879 4286870656
31.186239 910.91864 1315.2324 4285948270
34.651375 910.91864 1315.2324 4285750890
36.961468 910.91864 1315.2324 4285356379
39.271561 911.8017 1315.9771 4284829265
-49.469727 917.63104 1314.3521 4286541430
-46.018349 917.63104 1314.3521 4287395967
-43.71743 917.63104 1314.3521 4287725189
29.911926 917.63104 1314.3521 4284304465
34.51376 917.63104 1314.3521 4284502097
36.814678 917.63104 1314.3521 4284894806
39.115597 917.63104 1314.3521 4284829013
-52.921101 919.39014 1315.8352 4286740355
-49.469727 919.39014 1315.8352 4287199875
-46.018349 919.39014 1315.8352 4287266438
-43.71743 919.39014 1315.8352 4287726989
29.911926 919.39014 1315.8352 4284632404
34.51376 919.39014 1315.8352 4284829013
36.814678 919.39014 1315.8352 4284763216
-43.543118 926.93652 1315.6581 4290095808
-41.251377 926.06049 1314.9194 4289964478
-38.959633 925.18445 1314.1808 4290161853
28.64679 926.06049 1314.9194 4284500816
32.084404 925.18445 1314.1808 4284566093
34.376148 926.06049 1314.9194 4284631889
-27.412844 932.24481 1314.9017 4289639111
-22.844036 932.24481 1314.9017 4289375172
-19.417431 932.24481 1314.9017 4289967306
-15.990826 932.24481 1314.9017 4290033097
-13.706422 932.24481 1314.9017 4289968074
0 932.24481 1314.9017 4290557131
4.5688071 932.24481 1314.9017 4291017695
6.8532109 932.24481 1314.9017 4290293973
19.417431 932.24481 1314.9017 4284566105
22.844036 932.24481 1314.9017 4284566355
-28.555046 933.99127 1316.3743 4289703873
