# .PCD v0.7 - Point Cloud Data file format
VERSION 0.7
FIELDS x y z rgb
SIZE 4 4 4 4
TYPE F F F U
COUNT 1 1 1 1
WIDTH 1164
HEIGHT 1
VIEWPOINT 0 0 0 1 0 0 0
POINTS 1164
DATA ascii
61.009174 790.11121 809.18951 4294967295
-22.588991 794.32593 808.81921 4292069337
-19.982569 794.32593 808.81921 4292003794
-16.217737 793.88312 808.4458 4292200669
-13.03211 793.66168 808.25916 4292529888
-10.425688 792.9975 807.6991 4292266715
-7.5296631 793.44037 808.07245 4292661986
-4.3440366 793.66174 808.25916 4292728035
-1.7376146 793.66174 808.25916 4292925158
4.3440366 794.32593 808.81921 4293385194
7.8192658 794.32593 808.81921 4293517298
10.425688 792.9975 807.6991 4293321200
13.03211 792.9975 807.6991 4293584628
16.507339 792.9975 807.6991 4293650933
19.692966 793.88312 808.4458 4294505983
22.588991 794.32593 808.81921 4294967295
25.195412 794.32593 808.81921 4294967295
27.801834 794.32593 808.81921 4294967295
33.014679 793.66174 808.25916 4294967295
37.358719 794.32593 808.81921 4294967295
40.833946 793.66174 808.25916 4294967295
43.440369 793.66174 808.25916 4294967295
46.046791 793.66168 808.25916 4294967295
49.522018 793.66174 808.25916 4294967295
52.707645 793.88312 808.4458 4294967295
58.499695 793.88312 808.4458 4294967295
60.816513 794.32593 808.81921 4294967295
-34.752293 795.65436 809.93933 4291806164
-25.195412 795.65436 809.93933 4292069336
-22.588991 795.65436 809.93933 4292069337
-19.982569 795.65436 809.93933 4292069587
-16.455046 797.86597 807.88 4292332254
-12.990826 797.86597 807.88 4292333792
-10.39266 797.86597 807.88 4292530655
-7.7944956 797.86597 807.88 4292596192
-4.3302751 797.86597 807.88 4292924902
-1.7321101 797.86597 807.88 4293056745
0.86880732 795.65436 809.93933 4293057001
4.3357797 796.76013 808.90967 4293582060
7.7944956 797.86597 807.88 4293384686
19.919266 797.86597 807.88 4294439423
22.517431 797.86597 807.88 4294967295
25.156881 796.76013 808.90967 4294967295
28.670643 795.65436 809.93933 4294967295
31.277063 795.65436 809.93933 4294967295
33.883484 795.65436 809.93933 4294967295
37.240368 797.86597 807.88 4294967295
40.704586 797.86597 807.88 4294967295
43.302753 797.86597 807.88 4294967295
45.900917 797.86597 807.88 4294967295
49.365139 797.86597 807.88 4294967295
52.829357 797.86597 807.88 4294967295
55.427525 797.86597 807.88 4294967295
57.159634 797.86597 807.88 4294967295
-22.517431 799.19012 808.99646 4291938262
-19.919266 799.19012 808.99646 4292004055
-16.438532 799.9259 808.30884 4292200925
-12.963303 800.66174 807.62122 4292464860
-10.370643 800.66174 807.62122 4292530653
-7.7779818 800.66174 807.62122 4292595935
-4.3211012 800.66174 807.62122 4292661732
-1.7284404 800.66174 807.62122 4292990954
0.86605507 799.19012 808.99646 4292990952
4.3302751 799.19012 808.99646 4293319402
7.7779818 800.66174 807.62122 4293056747
10.370643 800.66174 807.62122 4293188334
12.963303 800.66174 807.62122 4293385711
16.420183 800.66174 807.62122 4293846774
19.877064 800.66174 807.62122 4294571007
22.517431 799.19012 808.99646 4294967295
25.115597 799.19012 808.99646 4294967295
28.579817 799.19012 808.99646 4294967295
32.044037 799.19012 808.99646 4294967295
34.6422 799.19012 808.99646 4294967295
37.201836 799.9259 808.30884 4294967295
40.618347 800.66174 807.62122 4294967295
44.07523 800.66174 807.62122 4294967295
46.667889 800.66174 807.62122 4294967295
49.260551 800.66174 807.62122 4294967295
52.71743 800.66174 807.62122 4294967295
55.310093 800.66174 807.62122 4294967295
57.902752 800.66174 807.62122 4294967295
-25.062386 803.30457 809.84961 4291674324
-22.469725 803.30457 809.84961 4291937753
-19.588991 802.86407 809.47821 4292003545
-16.420183 801.98315 808.73535 4292069339
-12.963303 801.98315 808.73535 4292530399
-6.9137616 801.98315 808.73535 4292464608
0.8642202 802.64392 809.29248 4292793316
4.3211012 802.64392 809.29248 4292991207
7.7779818 801.98315 808.73535 4293122794
17.284403 801.98315 808.73535 4293978360
19.877064 801.98315 808.73535 4294571007
22.469725 802.64386 809.29248 4294967295
25.062386 802.64392 809.29248 4294967295
28.519266 802.64392 809.29248 4294967295
31.976147 801.98315 808.73535 4294967295
34.568806 801.98315 808.73535 4294967295
37.161469 801.98315 808.73535 4294967295
40.618347 801.98315 808.73535 4294967295
44.3633 802.42365 809.10675 4294967295
46.667889 802.64386 809.29248 4294967295
48.972477 802.42365 809.10675 4294967295
52.71743 801.98315 808.73535 4294967295
57.038532 801.98315 808.73535 4294967295
-36.181652 806.82074 808.89026 4291674059
-34.458717 806.82074 808.89026 4291541707
-24.982569 806.82074 808.89026 4291739343
-22.398165 806.82074 808.89026 4291805136
-19.813763 806.82074 808.89026 4292068310
-16.367889 806.16211 808.33496 4292135128
-12.922018 806.16211 808.33496 4292594904
-10.337615 805.50354 807.77966 4292530142
-7.753211 805.50354 807.77966 4292530401
-4.3073397 805.50354 807.77966 4292661988
-1.7229358 805.50354 807.77966 4292793830
0.8614679 806.82074 808.89026 4292728035
4.3073397 806.82074 808.89026 4292793575
7.753211 806.16217 808.33496 4293057000
10.337615 806.16211 808.33496 4293122790
12.922018 806.16217 808.33496 4293320430
16.367889 806.16211 808.33496 4293912312
19.813763 806.16211 808.33496 4294702335
22.398165 806.82074 808.89026 4294967295
24.982569 806.82074 808.89026 4294967295
28.42844 806.82074 808.89026 4294967295
31.874313 806.16217 808.33496 4294967295
34.458717 805.50354 807.77966 4294967295
37.043121 806.16211 808.33496 4294967295
40.488991 806.16217 808.33496 4294967295
43.647705 806.38165 808.52002 4294967295
46.519264 806.82074 808.89026 4294967295
49.390823 806.38165 808.52002 4294967295
52.549545 806.16217 808.33496 4294967295
55.995415 805.50354 807.77966 4294967295
58.579815 805.50354 807.77966 4294967295
62.025688 806.82074 808.89026 4294967295
-36.104588 809.59833 808.61621 4291608266
-34.385323 809.59833 808.61621 4291673548
-15.473394 809.59833 808.61621 4292266450
-12.894495 809.59833 808.61621 4292332245
-10.315597 808.94116 808.06207 4292200666
-7.7366972 808.94116 808.06207 4292530144
-4.2981653 808.9411 808.06201 4292464864
-1.7192661 808.94116 808.06207 4292728293
12.894495 809.59833 808.61621 4293649138
15.473394 809.59833 808.61621 4293977847
29.227524 809.59833 808.61621 4294967295
31.806421 809.59833 808.61621 4294967295
34.385323 808.28394 807.50793 4294967295
37.823853 809.59833 808.61621 4294967295
40.402752 809.59833 808.61621 4294967295
43.841286 809.59833 808.61621 4294967295
48.999084 809.59833 808.61621 4294967295
52.437614 809.59833 808.61621 4294967295
55.876144 808.28394 807.50793 4294967295
58.455048 808.28394 807.50793 4294967295
60.174313 808.28394 807.50793 4294967295
-32.666054 810.91272 809.72449 4291739341
-24.929358 810.91272 809.72449 4291740111
-22.350458 810.91272 809.72449 4291674831
-19.771561 810.91272 809.72449 4292002774
-16.333027 810.91272 809.72449 4292200918
-12.894495 810.91272 809.72449 4292266967
-10.315597 810.91272 809.72449 4292529118
0.85963303 810.91272 809.72449 4292398815
4.2981653 810.91272 809.72449 4292529890
7.7366972 810.91272 809.72449 4292595683
10.315597 810.91272 809.72449 4292990954
12.034863 810.91272 809.72449 4293385712
17.192661 810.91272 809.72449 4293649398
19.771561 810.91272 809.72449 4293847547
22.350458 810.91272 809.72449 4294967295
24.929358 810.91272 809.72449 4294967295
28.367889 810.91272 809.72449 4294967295
-37.702751 815.71942 809.85315 4291540676
-34.960735 814.40924 808.74841 4291673033
-31.990213 815.28271 809.48486 4291804362
-27.420183 815.71942 809.85315 4291740108
-25.706423 815.06433 809.30078 4291871948
-23.992661 815.71942 809.85315 4291871696
-18.851376 815.71942 809.85315 4291870161
-16.280735 815.06433 809.30078 4292199127
-13.710092 815.06433 809.30078 4292266710
-11.13945 815.06433 809.30078 4292398042
-7.7082567 814.1178 807.84875 4292397275
-4.2798166 814.48151 807.5014 4292463325
-1.7137614 813.75415 808.19611 4292660960
0.85688072 815.06433 809.30078 4292529889
3.9987767 814.84595 809.1167 4292726756
7.7119265 814.40924 808.74841 4292727017
10.853824 814.84595 809.1167 4292925163
13.710092 813.75415 808.19611 4293319663
15.984097 814.45746 807.91705 4293714677
19.708256 814.40924 808.74841 4294044668
23.13578 814.40924 808.74841 4294967039
25.706423 814.40924 808.74841 4294967295
28.277065 814.40924 808.74841 4294967295
31.687153 814.11786 807.84875 4294967295
35.094498 814.48151 807.50134 4294967295
37.662384 814.48151 807.5014 4294967295
40.230278 814.48151 807.5014 4294967295
43.654129 814.48151 807.5014 4294967295
47.07798 814.48151 807.50134 4294967295
49.64587 814.48151 807.5014 4294967295
52.241283 814.1178 807.84875 4294967295
55.637611 814.48151 807.5014 4294967295
59.06147 814.48151 807.5014 4294967295
61.563301 815.86395 807.35901 4294967295
-25.651377 818.4787 809.56372 4292001999
-18.811008 818.4787 809.56372 4292001745
-16.245872 818.4787 809.56372 4292199639
-13.680734 818.4787 809.56372 4292398038
-11.115597 818.4787 809.56372 4292463319
-7.6954126 817.17133 808.46143 4292397275
-4.2752295 817.17133 808.46143 4292528604
-1.7100917 817.17133 808.46143 4292726240
0.85504586 818.4787 809.56372 4292595167
4.560245 818.04291 809.19629 4292727265
7.6954126 817.82501 809.01257 4292793062
11.115597 817.82501 809.01257 4292859115
13.680734 817.17133 808.46143 4293122540
16.245872 817.17133 808.46143 4293583090
19.666054 817.17133 808.46143 4294044154
23.371254 817.60712 808.82886 4294967039
25.651377 817.82501 809.01257 4294967295
28.216515 817.82501 809.01257 4294967295
31.636698 817.17133 808.46143 4294967295
35.056881 817.17133 808.46143 4294967295
37.622017 817.17133 808.46143 4294967295
40.187157 817.17133 808.46143 4294967295
42.752293 817.17133 808.46143 4294967295
47.027523 817.17133 808.46143 4294967295
49.592659 817.17133 808.46143 4294967295
51.872784 817.60712 808.82886 4294967295
55.57798 817.82501 809.01257 4294967295
58.998169 817.82501 809.01257 4294967295
61.563301 817.82501 809.01257 4294967295
63.273396 818.4787 809.56372 4294967295
-16.193579 821.95557 808.57129 4292068306
-13.636697 821.95557 808.57129 4292266452
-11.079817 821.95557 808.57129 4292331477
-7.6706419 821.30396 808.02191 4292265175
-4.2614679 820.6524 807.47253 4292660448
-1.7045871 821.30396 808.02191 4292529118
4.2614679 821.95557 808.57129 4292726751
6.8183484 821.95557 808.57129 4292331995
11.363914 821.52118 808.20508 4293122541
13.636697 821.30396 808.02191 4293188330
16.477676 821.08673 807.83881 4293583603
19.602753 821.30396 808.02197 4294241789
22.727829 821.52118 808.20508 4294966783
25.568808 821.95557 808.57129 4294967295
28.125687 821.95557 808.57129 4294967295
31.534863 821.30396 808.02197 4294967295
34.944038 821.30396 808.02191 4294967295
37.500916 820.6524 807.47253 4294967295
40.3419 821.08673 807.83881 4294967295
43.466972 821.30396 808.02191 4294967295
46.876144 821.30396 808.02191 4294967295
49.433029 821.30396 808.02191 4294967295
52.274006 821.52118 808.20508 4294967295
55.399082 821.95557 808.57129 4294967295
-25.568808 823.25873 809.67004 4291739074
-23.011927 823.25873 809.67004 4291936206
-19.602753 823.25873 809.67004 4292132815
-16.193579 823.25873 809.67004 4292002513
-13.636697 823.25873 809.67004 4292200405
-11.079817 823.25873 809.67004 4292200150
-7.6541286 824.70227 808.27124 4292397017
-4.2522936 824.05212 807.72302 4292528605
-1.7009175 824.70227 808.27124 4292594911
0.85229355 823.25873 809.67004 4292857570
4.2614679 823.25873 809.67004 4292726238
7.6706419 823.25873 809.67004 4292923365
11.066973 823.98047 808.97064 4293254380
13.60734 824.70227 808.27124 4293189099
15.875229 824.26886 807.90576 4293715698
19.560551 824.70227 808.27124 4294110712
22.962385 824.70227 808.27124 4294967039
25.513762 824.70227 808.27124 4294967295
28.065138 824.70227 808.27124 4294967295
31.466972 824.70227 808.27124 4294967295
34.868805 824.70227 808.27124 4294967295
37.420185 824.05212 807.72302 4294967295
39.688072 824.26886 807.90576 4294967295
43.373394 824.70227 808.27124 4294967295
46.77523 824.70227 808.27124 4294967295
49.326607 824.70227 808.27124 4294967295
51.93486 823.98047 808.97064 4294967295
55.399082 823.25873 809.67004 4294967295
58.808258 823.25873 809.67004 4294967295
61.365139 823.25873 809.67004 4294967295
63.069725 823.25873 809.67004 4294967295
-18.710093 826.00269 809.36768 4292199121
-16.158716 826.00269 809.36768 4292265171
-13.60734 826.00269 809.36768 4292266198
-11.055964 826.00269 809.36768 4292397527
-7.6541286 826.00269 809.36768 4292528858
0.85045874 826.00269 809.36768 4292594652
4.2522936 826.00269 809.36768 4292659423
7.6541286 826.00269 809.36768 4292857826
11.055964 826.00269 809.36768 4293188586
40.822018 826.00269 809.36768 4294967295
42.522934 826.00269 809.36768 4294967295
47.625687 826.00269 809.36768 4294967295
52.728439 826.00269 809.36768 4294967295
55.279816 826.00269 809.36768 4294967295
-16.106422 830.75604 809.45142 4292068306
-13.563303 830.75604 809.45142 4292198869
-11.020184 830.75604 809.45142 4292068307
-7.6293578 830.75604 809.45142 4292266453
-4.4080734 829.20068 808.13995 4292397784
-1.6954129 828.81183 807.81207 4292726750
0.84770644 830.75604 809.45142 4292199896
4.2385321 830.10797 808.90491 4292594144
7.6293578 830.10797 808.90491 4292726240
10.737615 829.89191 808.72284 4292990946
13.563303 828.81183 807.81207 4293057003
16.106422 828.16376 807.26562 4293716214
19.497248 828.16376 807.26562 4294176765
22.888073 828.16376 807.26562 4294967295
25.431192 828.16376 807.26562 4294967295
27.974312 828.16376 807.26562 4294967295
31.365139 828.16376 807.26562 4294967295
34.755962 828.81183 807.81201 4294967295
38.31633 829.20068 808.13995 4294967295
40.689907 830.10797 808.90497 4294967295
43.402569 829.71912 808.57703 4294967295
46.454315 829.71912 808.57703 4294967295
50.014679 829.4599 808.35858 4294967295
52.557796 830.10797 808.90497 4294967295
54.818348 830.32397 809.0871 4294967295
-16.07156 833.48456 809.13599 4291936467
-13.533945 833.48456 809.13599 4292002262
-10.99633 833.48456 809.13599 4292068567
-7.612844 833.48456 809.13599 4292332503
-3.9474003 833.05347 808.77246 4292332245
-1.6917431 832.83789 808.5907 4292397526
0.84587157 833.48456 809.13599 4292264917
4.2293577 833.48456 809.13599 4292527838
7.612844 833.48456 809.13599 4292725983
11.278287 833.05347 808.77246 4293056491
13.533945 832.19122 808.04541 4293385708
16.07156 832.19122 808.04541 4293385965
19.455046 832.19122 808.04541 4294044668
22.838531 832.19122 808.04541 4294967295
25.376146 832.19122 808.04541 4294967295
27.913761 832.19122 808.04541 4294967295
31.297249 832.19122 808.04541 4294967295
34.680733 832.83789 808.5907 4294967295
37.782261 833.05347 808.77246 4294967295
40.601833 833.48456 809.13599 4294967295
43.13945 833.48456 809.13599 4294967295
46.522934 833.48456 809.13599 4294967295
49.906422 833.48456 809.13599 4294967295
52.444038 833.48456 809.13599 4294967295
54.981651 833.48456 809.13599 4294967295
-18.548624 836.92218 808.11035 4291674063
-16.019266 836.92218 808.11035 4291674327
-13.489908 836.92218 808.11035 4291937749
-10.96055 836.92218 808.11035 4291938004
-7.5880733 836.92218 808.11035 4292003795
-4.2155962 836.92218 808.11035 4292266708
-1.6862385 836.92218 808.11035 4292200659
7.5880733 836.92218 808.11035 4292725981
10.96055 836.92218 808.11035 4292924394
13.489908 836.27759 807.56689 4293056743
16.019264 836.27759 807.56689 4293517296
19.391743 836.27759 807.56689 4294044412
22.764219 836.27759 807.56689 4294966783
26.136696 836.27759 807.56689 4294967295
28.666056 836.27759 807.56689 4294967295
31.195412 836.27759 807.56689 4294967295
34.56789 836.92218 808.11035 4294967295
37.097248 836.92218 808.11035 4294967295
-21.921101 838.2113 809.19739 4291869898
-19.391743 838.2113 809.19739 4292066768
-15.984404 839.638 807.78418 4291936987
-13.489908 838.2113 809.19739 4291938003
-10.96055 838.2113 809.19739 4292200917
-7.5880733 838.2113 809.19739 4292266451
-4.2155962 838.2113 809.19739 4292397525
-1.6862385 838.2113 809.19739 4292134099
0.84311926 838.2113 809.19739 4292133583
4.2155962 838.2113 809.19739 4292593884
7.5880733 838.2113 809.19739 4292725981
10.96055 838.2113 809.19739 4292858855
13.489908 838.2113 809.19739 4293187304
16.019266 838.2113 809.19739 4293648369
19.371559 838.92468 808.49078 4294175738
22.764221 838.2113 809.19739 4294966271
26.136696 838.2113 809.19739 4294967295
28.666056 838.2113 809.19739 4294967295
31.195412 838.2113 809.19739 4294967295
34.56789 838.2113 809.19739 4294967295
37.940369 838.2113 809.19739 4294967295
40.469727 838.2113 809.19739 4294967295
42.155964 838.2113 809.19739 4294967295
48.900917 838.2113 809.19739 4294967295
53.959633 838.2113 809.19739 4294967295
59.018349 838.2113 809.19739 4294967295
61.547707 838.2113 809.19739 4294967295
-21.873394 842.21069 809.95349 4291869398
-19.069113 841.78192 809.59198 4291934670
-15.984404 840.92438 808.86877 4292067542
-13.46055 841.5675 809.41113 4291936978
-10.936697 841.5675 809.41113 4291936978
-7.5715594 840.92438 808.86877 4292134356
-4.2064219 841.5675 809.41113 4292068308
-1.6825688 840.92438 808.86877 4291870159
0.84128439 841.5675 809.41113 4292198612
4.2064219 841.56757 809.41113 4292594396
7.2911315 841.35321 809.23029 4292529884
11.217125 841.35321 809.23029 4292661474
13.46055 841.5675 809.41113 4292989923
15.984404 841.5675 809.41113 4293450733
19.349541 841.5675 809.41113 4293977591
22.71468 841.5675 809.41113 4294900223
25.799387 841.78192 809.59198 4294967295
28.60367 841.5675 809.41113 4294967295
31.127522 841.56757 809.41113 4294967295
34.212231 841.78192 809.59198 4294967295
37.857796 842.21069 809.95349 4294967295
40.381653 842.21069 809.95349 4294967295
42.905502 842.21069 809.95349 4294967295
47.111927 842.21069 809.95349 4294967295
48.794495 842.21069 809.95349 4294967295
53.842201 842.21069 809.95349 4294967295
55.524769 842.21069 809.95349 4294967295
58.048622 842.21069 809.95349 4294967295
60.572475 841.5675 809.41113 4294967295
-18.447706 845.62445 808.90771 4291869646
-15.93211 844.9834 808.36719 4292067022
-13.416513 845.62445 808.90771 4292001745
-10.900917 845.62445 808.90771 4292068563
-7.5467882 844.9834 808.36719 4291871954
-4.1926603 845.62445 808.90771 4292200405
-1.6770642 844.9834 808.36719 4292330454
0.83853209 845.62445 808.90771 4292527573
4.1926603 845.62445 808.90771 4292593881
7.8262992 845.19708 808.54736 4292792031
10.621407 845.19708 808.54736 4292726753
13.416513 845.62445 808.90771 4293055203
15.93211 845.62445 808.90771 4293450476
19.28624 845.62445 808.90771 4293846261
23.478899 845.62445 808.90771 4294833919
25.155964 845.62445 808.90771 4294967295
31.86422 845.62445 808.90771 4294967295
34.379814 845.62445 808.90771 4294967295
37.733944 845.62445 808.90771 4294967295
41.088074 845.62445 808.90771 4294967295
43.603668 845.62445 808.90771 4294967295
46.119267 845.62445 808.90771 4294967295
48.634861 845.62445 808.90771 4294967295
58.697247 845.62445 808.90771 4294967295
60.374313 845.62445 808.90771 4294967295
-22.640366 846.90656 809.98877 4291803850
-19.28624 846.90656 809.98877 4291869643
-15.897248 848.32202 808.56628 4292198349
-13.416513 846.90656 809.98877 4292132815
-10.889908 847.61426 809.27753 4292133328
-7.5302753 848.32202 808.56628 4291937232
-4.1926603 846.90656 809.98877 4292199379
-1.6733944 848.32202 808.56628 4292527573
0.83853209 846.90656 809.98877 4292462550
4.1926603 846.90656 809.98877 4292462809
7.5302753 848.32202 808.56628 4292594399
10.877064 848.32202 808.56628 4292792290
13.387156 848.32202 808.56628 4293055462
15.897248 848.32202 808.56628 4293516526
19.244038 848.32202 808.56628 4293780211
22.614677 847.61426 809.27753 4294899199
25.937614 848.32202 808.56628 4294967295
28.510092 846.90656 809.98877 4294967295
30.990826 847.61426 809.27753 4294967295
34.379814 846.90656 809.98877 4294967295
37.691742 847.61426 809.27753 4294967295
40.998165 848.32202 808.56628 4294967295
43.508255 848.32202 808.56628 4294967295
46.018349 848.32202 808.56628 4294967295
49.420181 847.61426 809.27753 4294967295
52.827522 846.90656 809.98877 4294967295
55.343121 846.90656 809.98877 4294967295
57.858715 846.90656 809.98877 4294967295
60.242203 848.32202 808.56628 4294967295
-18.407339 849.60132 809.64502 4292001229
-15.897248 849.60132 809.64502 4292198608
-13.387156 849.60132 809.64502 4292197843
-10.877064 849.60132 809.64502 4292001233
-7.5302753 849.60132 809.64502 4292133843
-3.3467889 849.60132 809.64502 4292199123
-1.6733944 849.60132 809.64502 4292330710
4.183486 849.60132 809.64502 4292462811
7.5302753 849.60132 809.64502 4292594397
10.877064 849.60132 809.64502 4292727521
13.387156 849.60132 809.64502 4293187304
15.897248 849.60132 809.64502 4293450477
19.244038 849.60132 809.64502 4293846005
22.590824 849.60132 809.64502 4294702079
25.937614 849.60132 809.64502 4294967295
28.447706 849.60132 809.64502 4294967295
30.957798 849.60132 809.64502 4294967295
34.304588 849.60132 809.64502 4294967295
37.651375 849.60132 809.64502 4294967295
40.998165 849.60132 809.64502 4294967295
43.508255 849.60132 809.64502 4294967295
46.018349 849.60132 809.64502 4294967295
49.365135 849.60132 809.64502 4294967295
52.711926 849.60132 809.64502 4294967295
56.058716 849.60132 809.64502 4294967295
58.376148 851.72034 807.50757 4294967295
60.044037 851.72034 807.50757 4294967295
-23.350458 854.27057 809.65784 4291736772
-19.180733 854.27057 809.65784 4291738057
-16.122936 853.84552 809.2995 4292067021
-13.34312 854.27057 809.65784 4292066772
-10.841284 854.27057 809.65784 4292066771
-7.5055046 853.63306 809.12024 4292198610
-4.1697249 854.27057 809.65784 4291935953
-1.66789 853.63306 809.1203 4292264409
5.0036697 854.27057 809.65784 4292397018
7.5055046 854.27057 809.65784 4292200922
10.841284 853.633 809.12024 4292267483
13.34312 853.63306 809.1203 4293055208
15.844954 852.99548 808.58276 4293384684
19.458715 853.42059 808.9411 4293911798
22.794495 853.84552 809.2995 4294570495
25.852295 853.63306 809.12024 4294967295
28.354128 854.27057 809.65784 4294967295
30.855965 853.633 809.12024 4294967295
34.191742 853.63306 809.1203 4294967295
37.527523 853.63306 809.1203 4294967039
41.141285 853.42059 808.9411 4294967295
43.365139 853.63306 809.1203 4294967295
45.588989 853.84552 809.2995 4294967295
48.92477 853.84552 809.2995 4294967295
52.538532 854.27057 809.65784 4294967295
55.874313 854.27057 809.65784 4294967295
59.144035 853.70044 807.86908 4294967295
-6.6568809 856.94995 809.3009 4292067022
-4.1605506 856.94995 809.3009 4292133075
-1.6642202 856.94995 809.3009 4292330458
11.649541 856.94995 809.3009 4292727266
14.423242 856.52588 808.94336 4293252327
16.642202 855.67767 808.22815 4293187050
18.861162 856.52588 808.94336 4293779702
22.466972 856.94995 809.3009 4294438654
24.963303 856.94995 809.3009 4294967295
34.948624 856.94995 809.3009 4294967295
37.444954 856.94995 809.3009 4294967295
40.496021 856.52588 808.94336 4294967295
44.101837 856.94995 809.3009 4294967295
46.598164 856.94995 809.3009 4294967295
49.094498 856.94995 809.3009 4294967295
52.422935 856.94995 809.3009 4294967295
55.751373 856.94995 809.3009 4294967295
58.247707 855.67767 808.22815 4294967295
-3.321101 859.62372 808.93933 4292199894
11.623854 859.62372 808.93933 4292859105
13.284404 859.62372 808.93933 4293187304
16.605505 858.35425 807.8689 4293056236
19.096329 859.62372 808.93933 4293188334
22.417431 859.62372 808.93933 4294373118
34.871559 859.62372 808.93933 4294967295
40.683487 859.62372 808.93933 4294967295
44.004585 859.62372 808.93933 4294967295
46.495415 859.62372 808.93933 4294967295
48.986237 859.62372 808.93933 4294967295
52.307343 859.62372 808.93933 4294967295
55.628441 859.62372 808.93933 4294967295
58.119267 858.98901 808.40411 4294967295
-3.3100917 862.99121 807.85461 4292264919
-1.6550459 862.99121 807.85461 4292264919
10.757798 862.99121 807.85461 4292661212
14.06789 862.99121 807.85461 4293319406
16.550459 862.99121 807.85461 4293188840
19.033028 862.99121 807.85461 4293452015
22.343121 862.99121 807.85461 4294175997
49.651375 862.99121 807.85461 4294967295
52.133945 862.99121 807.85461 4294967295
55.444038 862.99121 807.85461 4294967295
58.754128 862.99121 807.85461 4294967295
-14.06789 865.52179 809.9884 4291672533
-10.757798 865.52179 809.9884 4291870418
-7.1718655 865.10004 809.63281 4291870929
-4.1311927 865.93457 808.37439 4292067796
-1.653211 865.58563 808.73419 4292264663
0.55168194 865.10004 809.63281 4292133845
4.4134555 865.10004 809.63281 4292068571
7.443119 865.23743 809.0946 4292397535
10.745872 865.58563 808.73419 4292727004
14.044037 865.93457 808.37439 4293055977
16.513762 866.28357 808.01459 4292925674
19.001835 865.93457 808.37439 4293320687
22.318348 865.58557 808.73413 4294044411
25.639448 865.2373 809.0946 4294967295
28.687462 865.10004 809.63281 4294967295
31.445871 865.52179 809.9884 4294967295
33.92844 865.52179 809.9884 4294967295
37.238533 865.52179 809.9884 4294967295
40.548622 865.52179 809.9884 4294967295
43.858715 864.88916 809.45496 4294967295
47.168808 864.88916 809.45496 4294967295
49.596329 865.58563 808.73419 4294967295
52.076149 865.58557 808.73413 4294967295
55.382568 865.58557 808.73413 4294967295
58.65596 865.93457 808.37439 4294967295
61.100918 865.65228 807.4823 4294967295
-14.036697 868.17725 809.61133 4291606735
-10.733945 868.17725 809.61133 4291870672
-7.4311924 868.17725 809.61133 4291936720
-4.1247706 868.87238 808.8894 4292002772
-1.6513761 868.17725 809.61133 4292134614
0 868.17725 809.61133 4292199642
4.1284404 868.17725 809.61133 4292396768
7.4311924 868.17725 809.61133 4292265435
10.733945 868.17725 809.61133 4292397275
14.036697 868.17725 809.61133 4292594915
16.513762 868.17725 809.61133 4292529890
18.990826 868.17725 809.61133 4293451759
22.293579 868.17725 809.61133 4294110202
25.596329 868.17725 809.61133 4294967039
28.899082 868.17725 809.61133 4294967295
31.376146 868.17725 809.61133 4294967295
33.85321 868.17725 809.61133 4294967295
37.155964 868.17725 809.61133 4294967295
39.633026 868.17725 809.61133 4294967295
44.587154 868.17725 809.61133 4294967295
47.06422 868.17725 809.61133 4294967295
49.541283 868.17725 809.61133 4294967295
52.018349 868.17725 809.61133 4294967295
55.321102 868.17725 809.61133 4294967295
58.623856 868.17725 809.61133 4294967295
60.965137 868.93768 807.63641 4294967295
-4.119266 870.82721 809.22961 4292331478
-1.6477064 870.82721 809.22961 4292134101
14.829358 870.82721 809.22961 4292594402
16.477064 870.82721 809.22961 4292398302
18.948624 870.82721 809.22961 4293385709
21.420183 870.82721 809.22961 4293846259
24.715597 870.82721 809.22961 4294966271
56.022018 870.82721 809.22961 4294967295
60.965137 870.82721 809.22961 4294967295
-3.8318043 875.00079 808.82465 4292134101
-1.6422018 875.41931 809.17749 4292397270
14.779817 875.41931 809.17749 4293054951
16.422018 875.41931 809.17749 4292398304
18.885323 875.41931 809.17749 4293056491
22.169724 875.41931 809.17749 4293846264
25.454128 875.41931 809.17749 4294966527
28.738533 875.41931 809.17749 4294967295
32.022934 875.41931 809.17749 4294967295
34.48624 875.41931 809.17749 4294967295
36.949539 875.41931 809.17749 4294967295
40.233948 875.41931 809.17749 4294967295
44.339451 875.41931 809.17749 4294967295
55.013763 875.41931 809.17749 4294967295
58.298164 875.41931 809.17749 4294967295
60.761467 874.79156 808.64819 4294967295
-3.2770643 878.05377 808.78271 4292067794
29.493578 878.05377 808.78271 4294967295
31.951376 878.05377 808.78271 4294967295
34.409176 878.05377 808.78271 4294967295
36.866974 878.05377 808.78271 4294967295
40.144035 878.05377 808.78271 4294967295
44.240368 878.05377 808.78271 4294967295
55.710091 878.05377 808.78271 4294967295
57.348625 878.05377 808.78271 4294967295
61.718044 877.63623 808.43066 4294967295
63.902752 877.42749 808.25464 4294967295
-11.456881 880.61951 809.63806 4292002254
-7.3733945 879.30646 809.83899 4292133584
-4.091743 880.61951 809.63806 4292133844
-1.6366973 880.61951 809.63806 4291936978
22.120182 879.30646 809.83899 4294109693
25.397247 879.30646 809.83899 4294966783
28.674313 879.30646 809.83899 4294967295
31.915596 880.61951 809.63806 4294967295
35.188072 880.61951 809.63806 4294967295
37.111923 880.18182 809.70508 4294967295
40.099083 880.61951 809.63806 4294967295
43.372478 880.61951 809.63806 4294967295
46.645874 880.61951 809.63806 4294967295
49.919266 880.61951 809.63806 4294967295
52.433029 879.30646 809.83899 4294967295
55.122326 880.18182 809.70508 4294967295
58.167892 879.30646 809.83899 4294967295
61.444954 879.30646 809.83899 4294967295
63.902752 879.30646 809.83899 4294967295
-9.7761469 886.48395 809.35071 4291936717
-6.5174313 886.48395 809.35071 4292067792
-4.0733948 886.48395 809.35071 4291936721
-1.6293578 886.48395 809.35071 4291871444
40.733944 886.48395 809.35071 4294967295
43.992661 886.48395 809.35071 4294967295
47.251377 886.48395 809.35071 4294967295
49.695412 886.48395 809.35071 4294967295
52.954128 886.48395 809.35071 4294967295
55.398167 886.48395 809.35071 4294967295
57.842201 886.48395 809.35071 4294967295
61.100918 886.48395 809.35071 4294967295
-3.2513762 890.3374 809.98376 4291937489
-1.6256881 890.3374 809.98376 4291937489
32.51376 890.3374 809.98376 4294967295
35.765137 890.3374 809.98376 4294967295
37.390827 890.3374 809.98376 4294967295
39.829357 890.3374 809.98376 4294967295
42.267891 890.3374 809.98376 4294967295
50.396332 890.3374 809.98376 4294967295
56.899082 890.3374 809.98376 4294967295
58.524769 890.3374 809.98376 4294967295
60.963303 890.3374 809.98376 4294967295
63.401836 890.3374 809.98376 4294967295
-3.2440367 892.93964 809.56177 4292068305
-1.6220183 892.93964 809.56177 4292134099
8.1100922 892.93964 809.56177 4292395740
35.684402 892.93964 809.56177 4294967295
38.117432 892.93964 809.56177 4294967295
40.550457 892.93964 809.56177 4294967295
42.172478 892.93964 809.56177 4294967295
56.770641 892.93964 809.56177 4294967295
58.392662 892.93964 809.56177 4294967295
60.825687 892.93964 809.56177 4294967295
63.258717 892.93964 809.56177 4294967295
40.412846 896.21454 808.39905 4294967295
59.811008 896.21454 808.39905 4294967295
61.427525 896.21454 808.39905 4294967295
63.044037 896.21454 808.39905 4294967295
-3.2330275 897.45038 809.44104 4291936467
-1.6165137 897.45038 809.44104 4292002260
38.796329 897.45038 809.44104 4294967295
40.412846 897.45038 809.44104 4294967295
42.029358 897.45038 809.44104 4294967295
46.878899 897.45038 809.44104 4294967295
50.111927 897.45038 809.44104 4294967295
55.769722 897.45038 809.44104 4294967295
59.002754 897.45038 809.44104 4294967295
61.427525 897.45038 809.44104 4294967295
63.852295 897.45038 809.44104 4294967295
59.675228 900.03717 809.0061 4294967295
62.094498 900.03717 809.0061 4294967295
56.321102 903.84857 809.60376 4294967295
58.734863 903.84857 809.60376 4294967295
61.953209 903.84857 809.60376 4294967295
58.600918 906.42126 809.15698 4294967295
-34.025688 751.68549 810.79877 4283914600
-32.234863 751.00092 810.22156 4289639111
-34.886238 754.49738 811.86163 4278190080
-31.27523 753.88934 810.04089 4278190107
-28.594496 753.88934 810.04089 4278190122
-34.797249 757.7572 811.34015 4291673279
-31.178898 758.89246 810.33533 4292001477
-35.039143 760.7085 811.86664 4292397780
-33.746788 763.87872 810.61548 4292332758
-31.082569 763.87872 810.61548 4292463061
-28.418348 763.87872 810.61548 4292989921
-25.754128 763.87872 810.61548 4292595163
-15.985321 763.87872 810.61548 4292596961
-33.746788 765.23657 811.76038 4292464093
-31.018349 766.74182 810.41357 4292397018
-28.418348 765.23657 811.76038 4292726240
-25.728439 765.9892 811.08698 4292463582
-22.155964 766.74182 810.41357 4292661983
-19.497248 766.74182 810.41357 4292596700
-16.838531 766.74182 810.41357 4292662502
-34.563301 768.09686 811.55615 4292200153
-30.132111 768.09686 811.55615 4292396505
-28.359632 768.09686 811.55615 4292594398
-25.99633 768.54858 811.93701 4292398042
-33.572475 771.70142 810.67126 4292134362
-30.038532 771.70142 810.67126 4292134362
-28.271559 771.70142 810.67126 4292398554
-24.737616 771.70142 810.67126 4292267484
-22.970642 771.70142 810.67126 4292267484
-15.902752 771.70142 810.67126 4292464606
-33.467892 776.64417 810.91479 4292003546
-31.706423 776.64417 810.91479 4292003544
-29.06422 776.64417 810.91479 4292003544
-25.541285 776.64417 810.91479 4292135127
-31.706423 777.99084 812.05029 4292070102
-36.875229 780.22766 810.01221 4291937489
-34.241287 780.89893 810.57819 4291938003
-31.60734 781.57013 811.14417 4292004309
-28.973396 780.89886 810.57812 4292003797
-25.754128 780.67511 810.38947 4292135127
-21.949541 780.22766 810.01221 4291871957
-19.315596 780.22766 810.01221 4292069850
-15.80367 780.22766 810.01221 4292135897
-36.798164 785.06799 811.47736 4291938002
-34.169724 785.06799 811.47729 4291872209
-31.541285 785.06799 811.47736 4291740368
-29.78899 785.06799 811.47736 4291938004
-26.284403 784.39819 810.9126 4292135382
-36.682568 789.29749 811.11951 4291477198
-34.062386 789.29749 811.11951 4291477968
-31.442202 789.29749 811.11951 4291872207
-29.695414 789.29749 811.11951 4292069587
-36.605503 792.77643 811.43683 4291674578
-33.700306 792.55438 811.24951 4291674836
-31.376146 792.77643 811.43683 4292003795
-28.761467 792.77649 811.43677 4291872210
-25.27523 792.11011 810.875 4292069591
0.87155962 792.11011 810.875 4293056486
29.633028 792.11011 810.875 4294967295
31.376146 792.11011 810.875 4294967295
34.862385 792.11011 810.875 4294967295
55.779816 792.11011 810.875 4294967295
-36.48991 796.98279 811.05945 4291937741
-33.883484 796.98279 811.05945 4292002258
-27.801834 796.98279 811.05945 4292003796
-25.195412 796.98279 811.05945 4292004054
-36.374313 800.51434 810.11304 4291739595
-33.828438 799.41278 811.14624 4291870161
-31.277063 798.31122 812.17944 4291739091
-28.670643 798.31122 812.17944 4292003030
-25.115597 800.51434 810.11304 4291872727
-22.517431 800.51434 810.11304 4291807448
-20.78532 800.51434 810.11304 4292004057
-36.374313 801.83856 811.22961 4291608266
-34.6422 801.83856 811.22961 4291804368
-32.044037 801.83856 811.22961 4291870162
-28.579817 801.83856 811.22961 4291870676
-31.976147 804.62598 810.96375 4291870159
-28.519266 804.62598 810.96375 4291672780
-31.587156 808.57697 810.37109 4291738829
-28.42844 808.79651 810.55615 4291673035
-24.982569 808.13794 810.00085 4291805391
-22.398165 808.13794 810.00085 4291674063
-19.813763 808.13794 810.00085 4292068569
-17.229359 808.13794 810.00085 4292332243
0.8614679 808.13794 810.00085 4292662242
4.3073397 808.13794 810.00085 4292925164
7.753211 808.13794 810.00085 4292991204
10.337615 808.13794 810.00085 4293122792
17.229359 808.13794 810.00085 4293977847
19.813763 808.13794 810.00085 4294373631
22.398165 808.13794 810.00085 4294967295
24.982569 808.13794 810.00085 4294967295
27.566973 808.13794 810.00085 4294967295
46.519264 808.13794 810.00085 4294967295
-36.104588 812.22711 810.83264 4291673548
-30.946789 812.22711 810.83264 4291870159
-28.367889 812.22711 810.83264 4292068303
-24.069725 812.22711 810.83264 4291938001
-22.350458 812.22711 810.83264 4291872207
-19.771561 812.22711 810.83264 4291739093
-29.227524 813.5415 811.94092 4292001999
-22.350458 813.5415 811.94092 4291871696
-20.631193 813.5415 811.94092 4291738318
-37.702751 817.68469 811.51025 4291410375
-35.417736 817.46631 811.32617 4291476168
-31.704586 817.68469 811.51025 4291673034
-28.562693 817.46631 811.32617 4291870158
-23.13578 817.0296 810.95789 4291936465
-20.565138 817.0296 810.95789 4292067794
-37.622017 821.09344 811.76843 4291739341
-34.771866 820.65765 811.40106 4291608010
-30.781651 821.09344 811.76843 4291607754
-27.931498 820.65765 811.40106 4291607492
-25.651377 819.78607 810.66614 4292001479
-23.086239 819.78607 810.66614 4292132815
-19.666054 819.78607 810.66614 4292001999
0.85504586 819.78607 810.66614 4292660190
8.5504589 819.78607 810.66614 4293055462
58.998165 819.78607 810.66614 4294967295
61.563301 819.78607 810.66614 4294967295
63.273396 819.78607 810.66614 4294967295
-37.622017 822.40082 812.87085 4291608268
-35.056881 822.40082 812.87085 4291411145
-31.636698 822.40082 812.87085 4291280074
-28.125687 824.56189 810.76892 4291476424
-25.568808 824.56189 810.76892 4291870409
-23.011927 824.56189 810.76892 4292067535
-20.455046 824.56189 810.76892 4292199121
58.808258 824.56189 810.76892 4294967295
61.365139 824.56189 810.76892 4294967295
63.069725 824.56189 810.76892 4294967295
-34.659939 826.73389 812.60016 4291541192
-31.250765 826.73389 812.60016 4291541708
-28.125687 826.51672 812.41705 4291475914
-25.568808 825.86511 811.86768 4291870159
-22.986238 826.58411 811.16589 4292067792
-19.560551 827.30304 810.46411 4292068305
-16.158716 827.30304 810.46411 4292397271
-13.60734 827.30304 810.46411 4292660697
-11.055964 827.30304 810.46411 4292528854
-7.6541286 827.30304 810.46411 4292463318
0.85045874 827.30304 810.46411 4292463066
56.130276 827.30304 810.46411 4294967295
58.681648 827.30304 810.46411 4294967295
61.233028 827.30304 810.46411 4294967295
-37.420185 829.90375 812.65698 4291539911
-35.719265 829.90375 812.65698 4291737546
-28.065138 829.90375 812.65698 4291606730
-25.513762 829.25354 812.10876 4291804365
-23.245871 829.03687 811.92603 4291936206
-19.560551 828.60339 811.56055 4291870927
58.681648 828.60339 811.56055 4294967295
61.233028 828.60339 811.56055 4294967295
-25.431192 833.34839 811.63721 4291870157
-22.888073 832.70032 811.09076 4292001741
-19.497248 832.05225 810.54431 4292002512
58.491745 832.05225 810.54431 4294967295
61.034863 832.05225 810.54431 4294967295
-27.974312 834.64453 812.7301 4291606728
-25.376146 836.07123 811.31702 4292067792
-22.838531 835.42456 810.77173 4291870155
-20.300917 834.77789 810.22644 4291805649
0.84587157 834.77789 810.22644 4292395988
4.2293577 834.77789 810.22644 4292527837
38.910091 834.77789 810.22644 4294967295
40.601833 834.77789 810.22644 4294967295
43.421406 835.20898 810.59003 4294967295
46.522934 835.42456 810.77173 4294967295
50.188381 835.20898 810.59003 4294967295
52.444038 835.42456 810.77173 4294967295
55.263611 835.20898 810.59003 4294967295
58.083179 835.20898 810.59003 4294967295
61.748623 834.77789 810.22644 4294967295
-27.913761 837.36462 812.40759 4291410372
-25.293577 839.50043 810.2843 4291608004
-22.764221 839.50043 810.2843 4291934670
-20.234863 839.50043 810.2843 4291934668
26.979816 839.50043 810.2843 4294967295
35.411011 839.50043 810.2843 4294967295
37.940369 839.50043 810.2843 4294967295
40.469727 839.50043 810.2843 4294967295
42.999084 839.50043 810.2843 4294967295
46.371559 839.50043 810.2843 4294967295
49.744034 839.50043 810.2843 4294967295
53.116516 839.50043 810.2843 4294967295
55.64587 839.50043 810.2843 4294967295
58.175232 839.50043 810.2843 4294967295
-33.72477 842.07874 812.45825 4291670981
-31.195412 842.07874 812.45825 4291671494
-28.666056 842.07874 812.45825 4291605958
-26.417734 841.2193 811.73364 4291606722
-23.60734 840.78961 811.37134 4292000727
45.528439 840.78961 811.37134 4294967295
50.587154 840.78961 811.37134 4294967295
52.273396 840.78961 811.37134 4294967295
-31.968807 844.78339 812.12268 4292131028
-25.799387 844.35455 811.76117 4291672264
-22.71468 843.49701 811.03809 4291738321
-20.190826 843.49701 811.03809 4291803852
21.873394 843.49701 811.03809 4294702335
26.921101 843.49701 811.03809 4294967295
28.60367 843.49701 811.03809 4294967295
30.286238 843.49701 811.03809 4294967295
50.477066 843.49701 811.03809 4294967295
53.000916 843.49701 811.03809 4294967295
55.524769 843.49701 811.03809 4294967295
57.20734 843.49701 811.03809 4294967295
-25.155964 848.18872 811.06982 4291737544
-22.640366 848.18872 811.06982 4291738057
-20.124771 848.18872 811.06982 4291869900
-5.0311928 848.18872 811.06982 4291937489
0.83853209 848.18872 811.06982 4292330710
-33.541283 849.47083 812.15088 4291672003
-31.86422 849.47083 812.15088 4291606210
-25.994495 849.47083 812.15088 4291868612
-22.590824 850.88068 810.72363 4291737546
-19.244038 850.88068 810.72363 4291738057
-15.060551 850.88068 810.72363 4292527571
-13.387156 850.88068 810.72363 4292197845
-10.877064 850.88068 810.72363 4292132307
-4.183486 850.88068 810.72363 4292198611
0.83669722 850.88068 810.72363 4292264919
4.183486 850.88068 810.72363 4292396507
7.5302753 850.88068 810.72363 4292463325
21.754128 850.88068 810.72363 4294504191
28.447706 850.88068 810.72363 4294967295
46.855045 850.88068 810.72363 4294967295
50.201836 850.88068 810.72363 4294967295
52.711926 850.88068 810.72363 4294967295
56.058716 850.88068 810.72363 4294967295
-33.467892 853.43933 812.88098 4291343553
-30.957798 853.43933 812.88098 4291408832
-28.447706 853.43933 812.88098 4291672003
-26.216513 852.58643 812.16193 4291803077
-21.754128 852.15997 811.80237 4291802821
0.83669722 852.15997 811.80237 4292199640
3.3467889 852.15997 811.80237 4292002260
-30.855965 856.8208 811.80811 4291540416
-28.354128 856.8208 811.80811 4291540928
-25.574312 856.39575 811.44971 4291802306
-22.516514 855.54572 810.73303 4291802821
-19.180733 855.54572 810.73303 4291738314
-15.844954 855.54572 810.73303 4291869900
-13.34312 855.54572 810.73303 4291869396
-10.841284 855.54572 810.73303 4292132564
-8.3394499 855.54572 810.73303 4292132817
1.1119267 855.9707 811.09137 4292331226
4.1697249 855.54572 810.73303 4292462298
7.5055046 855.54572 810.73303 4292529374
10.007339 855.54572 810.73303 4292398302
26.686239 855.54572 810.73303 4294967295
28.354128 855.54572 810.73303 4294967295
30.855965 855.54572 810.73303 4294967295
33.3578 855.54572 810.73303 4294967295
-30.855965 858.09595 812.8833 4291540929
-28.354128 858.09595 812.8833 4291344319
-25.810093 859.78107 812.3421 4291410114
-22.466972 859.49457 811.44647 4291606723
-19.138531 858.85846 810.9101 4291673029
-16.642202 858.8584 810.9101 4291672525
-14.145872 858.8584 810.9101 4291869392
-10.805504 859.55774 810.19165 4292132565
-7.4807339 859.5578 810.19171 4292132820
-4.9871559 859.55774 810.19171 4292264660
-1.6642202 858.22229 810.37366 4292134101
0.55474007 859.53668 810.61005 4292133846
4.1577983 859.20813 810.5509 4292199897
7.4807339 859.5578 810.19171 4292397789
9.985321 858.22229 810.37366 4292464347
25.766973 859.55774 810.19165 4294967295
29.091743 859.55774 810.19165 4294967295
31.585321 859.55774 810.19171 4294967295
33.78899 860.00293 810.13104 4294967295
37.403667 859.55774 810.19165 4294967295
40.683487 860.89325 810.00977 4294967295
44.004585 860.89325 810.00977 4294967295
46.495415 860.89325 810.00977 4294967295
48.155964 860.89325 810.00977 4294967295
-22.417431 863.43225 812.15063 4291409858
-19.096329 862.79749 811.61542 4291344327
-16.605505 862.79749 811.61542 4291410131
-14.114679 862.16272 811.0802 4291739091
-10.793578 862.16272 811.0802 4291607247
-8.3027525 862.16272 811.0802 4291739091
1.6605505 862.16272 811.0802 4292002260
3.321101 862.16272 811.0802 4291871190
29.889908 862.16272 811.0802 4294967295
31.550459 862.16272 811.0802 4294967295
34.041283 862.16272 811.0802 4294967295
37.362385 862.16272 811.0802 4294967295
40.683487 862.16272 811.0802 4294967295
-22.343121 866.78711 811.05518 4291410371
-19.033028 866.78711 811.05518 4291475655
-16.550459 866.78711 811.05518 4291738323
1.6550459 866.78711 811.05518 4292199642
41.376148 866.78711 811.05518 4294967295
43.031193 866.78711 811.05518 4294967295
-25.65321 868.05237 812.12207 4291343815
-22.293579 869.43976 810.67578 4291344835
-18.990826 869.43976 810.67578 4291279303
-16.513762 869.43976 810.67578 4291606989
-14.036697 869.43976 810.67578 4291672525
-10.733945 869.43976 810.67578 4291936464
-7.4311924 869.43976 810.67578 4292134097
0.82568806 869.43976 810.67578 4292068056
4.1284404 869.43976 810.67578 4292395749
7.4311924 869.43976 810.67578 4292265435
10.733945 869.43976 810.67578 4292397020
13.211009 869.43976 810.67578 4292528352
23.119267 869.43976 810.67578 4293977849
26.422018 869.43976 810.67578 4294967295
28.899082 869.43976 810.67578 4294967295
31.376146 869.43976 810.67578 4294967295
33.85321 869.43976 810.67578 4294967295
37.155964 869.43976 810.67578 4294967295
40.458717 869.43976 810.67578 4294967295
43.761467 869.43976 810.67578 4294967295
47.06422 869.43976 810.67578 4294967295
49.541283 869.43976 810.67578 4294967295
52.018349 869.43976 810.67578 4294967295
54.495415 869.43976 810.67578 4294967295
58.623856 869.43976 810.67578 4294967295
-28.073395 871.96472 812.80481 4291473604
-25.3211 871.54395 812.45001 4291211974
-22.293579 870.70227 811.74036 4291279303
-18.970642 871.39459 811.01605 4291213762
-16.477064 872.08691 810.29175 4291607754
-14.005505 872.08691 810.29175 4291870157
-10.710092 872.08691 810.29175 4291935950
-7.4146786 872.08691 810.29175 4292068562
-4.943119 872.08691 810.29175 4292200405
-1.6477064 872.08691 810.29175 4292134614
0.82568806 870.70227 811.74036 4292001749
4.1284404 870.70227 811.74036 4292395487
7.4311924 870.70227 811.74036 4292463065
10.721101 871.39459 811.01605 4292594398
14.005505 872.08691 810.29175 4292594400
16.477064 872.08691 810.29175 4292529118
18.948624 872.08691 810.29175 4293319404
22.244038 872.08691 810.29175 4293583092
25.53945 872.08691 810.29175 4294966783
28.834862 872.08691 810.29175 4294967295
32.130276 872.08691 810.29175 4294967295
34.601833 872.08691 810.29175 4294967295
37.073395 872.08691 810.29175 4294967295
40.368805 872.08691 810.29175 4294967295
43.711929 871.39459 811.01605 4294967295
47.06422 870.70227 811.74036 4294967295
49.541283 870.70227 811.74036 4294967295
51.959633 871.39459 811.01605 4294967295
55.198166 872.08691 810.29175 4294967295
58.493576 872.08691 810.29175 4294967295
-25.53945 874.60626 812.41602 4291145668
-22.244036 873.97644 811.88501 4291213252
-18.948624 873.97644 811.88501 4291409597
-16.477064 873.97644 811.88495 4291804357
-14.005505 873.34656 811.35388 4292001993
-10.435473 873.76642 811.70795 4292067020
-7.4146786 873.34656 811.35388 4292067281
0.82385319 873.97638 811.88495 4291870675
4.119266 873.97638 811.88495 4292265179
7.4146791 873.97644 811.88501 4292462805
10.710092 873.97644 811.88501 4292593881
13.181651 873.97644 811.88495 4292594400
42.840366 873.34656 811.35388 4294967295
46.959633 873.34656 811.35388 4294967295
49.431194 873.34656 811.35388 4294967295
51.902752 873.34656 811.35388 4294967295
-24.633028 877.93024 811.29468 4291672012
-22.169724 877.93024 811.29468 4291541952
-18.885323 877.93024 811.29468 4291738561
-16.422018 877.93024 811.29468 4291804356
-13.958715 877.30249 810.76538 4291869896
-10.674313 877.30249 810.76538 4292198606
-7.3899078 876.67474 810.23608 4292001488
-4.9266057 876.67474 810.23608 4292198869
-1.6422018 876.67474 810.23608 4292067794
0.82110089 877.93024 811.29468 4292002260
4.1055045 877.93024 811.29468 4292002774
11.495413 877.93024 811.29468 4292659422
14.232415 877.51172 810.94183 4292595171
16.422018 877.30249 810.76538 4292529631
18.885323 877.30249 810.76538 4293122285
22.169724 876.67474 810.23608 4293846778
25.454128 876.67474 810.23608 4294966783
27.917431 876.67474 810.23608 4294967295
42.697247 876.67474 810.23608 4294967295
46.80275 876.67474 810.23608 4294967295
50.087158 876.67474 810.23608 4294967295
52.550457 876.67474 810.23608 4294967295
54.192661 876.67474 810.23608 4294967295
59.119267 876.67474 810.23608 4294967295
-25.162079 880.0611 812.2193 4291343043
-22.133026 880.8421 811.78784 4291475395
-19.116209 880.97675 811.24731 4291738566
-16.385321 880.55914 810.89526 4291738820
-13.927523 880.55914 810.89526 4291739593
-9.831193 880.55914 810.89526 4291937487
-7.3733945 880.55914 810.89526 4291870926
0.81926608 881.18549 811.42334 4291806413
4.0963302 881.18549 811.42334 4291937234
7.3779817 880.8421 811.78784 4292265431
10.662386 880.49878 812.15234 4292397020
13.934862 880.84216 811.78784 4292529375
16.385321 881.18549 811.42334 4292530399
18.843121 881.18549 811.42334 4293057006
22.39327 880.97675 811.24731 4293846778
25.397247 880.55914 810.89526 4294966783
28.674313 880.55914 810.89526 4294967295
34.409176 880.55914 810.89526 4294967295
52.433029 880.55914 810.89526 4294967295
54.07156 880.55914 810.89526 4294967295
58.167892 880.55914 810.89526 4294967295
61.444954 880.55914 810.89526 4294967295
63.902752 880.55914 810.89526 4294967295
-19.618349 884.43225 811.5448 4291147717
-17.166054 883.80731 811.01788 4291608266
