# .PCD v0.7 - Point Cloud Data file format
VERSION 0.7
FIELDS x y z rgb
SIZE 4 4 4 4
TYPE F F F U
COUNT 1 1 1 1
WIDTH 1169
HEIGHT 1
VIEWPOINT 0 0 0 1 0 0 0
POINTS 1169
DATA ascii
39.963303 769.31024 815.19519 4294967295
7.9761467 772.16211 814.98376 4294967295
33.677063 772.16211 814.98376 4294967295
8.8348627 775.75397 814.08838 4289258495
10.601835 775.75397 814.08838 4292139772
33.572475 775.75397 814.08838 4294967295
5.3009176 777.10486 815.22729 4294967295
7.951376 777.10486 815.22729 4290693873
10.568808 779.33746 813.18579 4291021777
13.21101 779.33746 813.18579 4285359708
15.853211 779.33746 813.18579 4292659116
25.541285 779.33746 813.18579 4294967295
28.183487 779.33746 813.18579 4294967295
31.706423 779.33746 813.18579 4294967295
34.403671 778.22119 814.20654 4294967295
4.4036698 782.03082 815.45667 4294967295
7.9266057 780.68414 814.32117 4294967295
10.568808 780.68414 814.32117 4294967295
15.853211 780.68414 814.32117 4287211153
35.229359 780.68414 814.32117 4294967295
37.871559 782.03082 815.45667 4294967295
4.3899083 785.59747 814.53992 4294246143
7.0238533 784.255 813.40796 4294967295
35.119267 784.255 813.40796 4294967295
38.631191 785.59747 814.53992 4294967295
4.3844037 787.67847 814.98657 4294180863
7.0091743 787.74731 813.73651 4294967295
37.674309 787.74731 813.73651 4294967295
40.387157 786.93988 815.67188 4294967295
4.3724771 790.86255 814.40112 4293918719
6.9871559 791.96838 813.37146 4294377471
40.302753 789.75677 815.43079 4294967295
4.075841 793.74896 814.87286 4293130239
7.8440366 794.77539 813.12231 4294705151
10.458715 794.77539 813.12231 4294967295
13.073395 794.77539 813.12231 4289710054
22.660551 794.77539 813.12231 4281087341
25.27523 794.77539 813.12231 4278190121
41.312538 794.23944 814.41449 4294967295
43.669724 793.30377 814.49756 4294967295
45.416515 793.30377 814.49756 4294967295
4.6483178 796.9964 814.99493 4293195263
6.972477 796.10803 814.24597 4293787647
41.834862 797.44067 815.36951 4294967295
5.2128439 800.96802 814.41968 4294967295
7.5296631 800.08234 813.67291 4294704895
10.425688 799.63959 813.29956 4294967295
41.702751 800.96802 814.41968 4294967295
43.440369 800.96802 814.41968 4294967295
-1.7376146 802.29645 815.53979 4283848562
0 802.29645 815.53979 4283850104
3.4752293 802.29645 815.53979 4294967295
-1.7321101 805.81122 814.57922 4278982467
4.3302751 805.14911 814.02094 4287341017
7.7944956 804.487 813.46265 4294967295
41.570641 804.487 813.46265 4294967295
43.302753 804.487 813.46265 4294967295
45.900917 805.14911 814.02087 4294967295
49.365139 805.81122 814.57922 4294967295
-1.7302753 808.52356 815.55811 4279903810
0.57737005 808.06085 815.604 4281083722
4.4954133 808.5636 814.80701 4283062438
7.7779818 807.2688 813.19214 4289384923
10.370643 807.2688 813.19214 4294967295
38.025688 807.2688 813.19214 4294967295
40.906422 807.70929 813.56348 4294967295
43.902386 808.85449 814.52911 4294967295
46.667889 809.25092 814.86334 4294967295
49.312843 808.52356 815.55811 4294967295
7.753211 812.08954 813.33276 4284312706
32.735779 812.08954 813.33276 4294967295
34.458717 812.08954 813.33276 4294967295
37.043121 812.08954 813.33276 4294967295
40.488991 812.08954 813.33276 4294967295
-1.7229358 814.06531 814.99866 4280824394
4.3073397 814.06531 814.99866 4284894332
8.5963306 814.8559 813.04919 4287329161
28.367889 814.8559 813.04919 4294967295
31.806421 814.8559 813.04919 4294967295
34.385323 814.8559 813.04919 4294967295
37.004585 814.13135 813.74628 4294967295
40.488991 813.40674 814.44336 4294967295
43.93486 814.06531 814.99866 4294967295
46.519264 814.72394 815.55396 4294967295
49.103668 814.72394 815.55396 4294967295
-1.7192661 817.48468 815.26575 4280889167
8.5963306 816.82751 814.71161 4285480037
37.250763 816.6084 814.52686 4294967295
40.116207 816.6084 814.52686 4294967295
43.841286 817.48468 815.26575 4294967295
46.420185 817.48468 815.26575 4294967295
29.133945 819.64996 813.16736 4294967295
32.561466 819.64996 813.16736 4294967295
35.132111 819.64996 813.16736 4294967295
37.702751 820.96014 814.27209 4294967295
41.130276 819.64996 813.16736 4294967295
44.557796 820.96014 814.27209 4294967295
47.128441 820.96014 814.27209 4294967295
-1.7137614 822.27032 815.37671 4283248212
35.056881 823.70819 813.97314 4294967295
37.702751 822.27032 815.37671 4294967295
40.229359 822.98926 814.67493 4294967295
43.607338 823.70819 813.97314 4294967295
47.128441 822.27032 815.37671 4294967295
35.911926 825.01556 815.07544 4294967295
37.622017 825.01556 815.07544 4294967295
40.187157 825.01556 815.07544 4294967295
43.607338 825.01556 815.07544 4294967295
46.172478 825.01556 815.07544 4294967295
-1.7045871 829.7746 815.16406 4286462811
0.85229355 828.47144 814.06531 4283968852
5.1137614 828.47144 814.06531 4287271338
35.796329 828.47144 814.06531 4294967295
37.500916 828.47144 814.06531 4294967295
40.0578 828.47144 814.06531 4294967295
43.182873 829.34027 814.79785 4294901759
-1.7009175 833.80487 815.94629 4279836997
0.85045874 832.50452 814.84985 4282196292
3.401835 831.2041 813.75342 4281479510
40.822018 831.2041 813.75342 4294967295
43.373394 833.15466 815.39807 4294901759
46.77523 833.80487 815.94629 4294836223
1.6954129 835.94067 813.823 4281806935
42.385323 835.94067 813.823 4294967295
-1.693578 838.59412 814.75226 4280691530
1.1278287 838.61542 814.33417 4281478481
3.9474003 839.08905 813.86157 4282530910
40.601833 839.30463 814.04333 4294967295
42.889297 838.61542 814.33417 4294901759
45.776146 837.23688 814.91589 4294967295
-1.6917431 841.24463 815.67908 4281085517
0.84587157 841.24463 815.67908 4280953929
3.3834863 841.24463 815.67908 4280950847
23.684404 841.24463 815.67908 4286618843
27.06789 841.24463 815.67908 4290630655
35.526604 841.24463 815.67908 4294967295
38.06422 841.24463 815.67908 4294836223
40.601833 841.24463 815.67908 4294836223
42.293579 841.24463 815.67908 4294770687
-4.2155962 843.36786 813.54529 4280691783
5.0587158 843.36786 813.54529 4285425027
7.5880733 843.36786 813.54529 4286876571
10.96055 844.01245 814.08875 4285762222
13.489908 844.01245 814.08875 4286878412
16.019266 844.01245 814.08875 4286220475
19.391743 843.36786 813.54529 4285957551
21.921101 843.36786 813.54529 4286945216
25.293577 843.36786 813.54529 4289842687
28.666056 843.36786 813.54529 4294901759
31.195412 843.36786 813.54529 4294967295
33.72477 843.36786 813.54529 4294967295
4.5045872 749.1897 816.54248 4278190132
7.2073393 749.1897 816.54248 4279716566
37.838531 749.1897 816.54248 4294836223
-4.5045872 751.94476 818.86548 4292126955
-1.8018348 750.56726 817.70398 4278719829
0 750.56726 817.70398 4278190171
4.5045872 751.25598 818.28479 4278190108
-4.4908257 755.58435 818.01025 4292245419
-1.7963303 754.89771 817.43127 4292777677
0.59877676 754.66876 817.23828 4288698823
-1.7908257 759.90015 817.72504 4294088620
0 760.58466 818.30225 4294961913
-1.787156 763.45343 818.1051 4293251062
1.787156 762.77026 817.52911 4294967295
3.574312 762.77026 817.52911 4294967295
41.104588 762.0871 816.95312 4294967295
4.4541283 766.38391 816.65198 4294963197
35.633026 765.70288 816.07776 4294967295
37.41468 765.70288 816.07776 4294967295
40.087158 765.70288 816.07776 4294967295
43.650455 766.38391 816.65198 4294967295
-1.7816514 768.42706 818.37463 4278197323
1.7816514 768.42706 818.37463 4287335336
4.4458714 769.54761 817.35736 4293651692
35.522934 770.66809 816.34009 4294967295
37.299084 770.66809 816.34009 4294967295
39.963303 770.66809 816.34009 4294967295
43.650459 768.42706 818.37463 4294967295
-3.5522935 773.38385 818.63 4288719325
-1.7761468 772.70496 818.0575 4289509086
1.1840979 772.93121 818.24835 4292994815
4.4348621 772.77161 816.80566 4292603892
7.0899081 773.51715 816.12634 4288666367
35.449543 773.51715 816.12634 4294967295
37.299084 772.026 817.48499 4294967295
39.963303 772.026 817.48499 4294967295
43.515594 772.70496 818.0575 4294967295
-3.5449541 776.22729 818.4115 4278200933
-1.772477 776.22729 818.4115 4281758638
0.88623852 776.22729 818.4115 4291813631
3.5449541 774.87225 817.26892 4294967295
38.108257 774.87225 817.26892 4294967295
40.766972 774.87225 817.26892 4294967295
42.539448 775.5498 817.84021 4294967295
-1.7669724 779.80658 817.50537 4282338399
0.88348621 779.80658 817.50537 4288664319
4.4174314 778.45575 816.36633 4294967295
37.989906 778.45575 816.36633 4294967295
40.640366 779.13116 816.93585 4294967295
42.407341 779.80658 817.50537 4294967295
-3.5339448 781.15747 818.64441 4278190609
0 781.15747 818.64441 4286096876
-1.7614679 784.05078 817.15991 4281749875
1.174312 784.27521 817.34912 4290633975
40.51376 783.37744 816.59216 4294967295
43.155968 784.05078 817.15991 4294967295
-3.5229359 786.0708 818.86304 4283386723
-1.7614679 786.0708 818.86304 4285294720
0.87798166 787.17657 817.83337 4290431467
43.021103 788.28235 816.80371 4294967295
-1.7559633 789.62482 817.93567 4285888933
0.87614679 790.3606 817.24805 4288134877
-3.5045872 793.7757 818.81946 4283849853
1.7522936 792.43604 817.68994 4289654015
45.559631 793.7757 818.81946 4294967295
-1.746789 795.97467 816.74951 4287797432
0.87339449 796.64233 817.3125 4288459210
43.669724 795.97467 816.74951 4294967295
47.163303 797.31006 817.87549 4294967295
48.910091 797.31006 817.87549 4294967295
-3.4862385 800.1059 817.61682 4283321962
-1.7431192 798.77325 816.49316 4285558675
1.7431192 800.1059 817.61682 4290824162
3.4862385 798.77325 816.49316 4294967295
45.321102 798.77325 816.49316 4294967295
-3.4752293 803.62488 816.65979 4279903569
0.86880732 803.62488 816.65979 4279508313
-4.3440366 805.61755 818.33997 4280496459
-3.4642203 808.45966 816.81226 4281087566
1.7321101 808.45966 816.81226 4284830839
-4.0330276 812.11395 817.2774 4280825160
0.8642202 811.89374 817.0918 4281216847
3.4568808 811.23303 816.53467 4283777899
46.667889 811.23303 816.53467 4294967295
49.260551 811.23303 816.53467 4294967295
-6.9137616 813.87585 818.76294 4280365372
-4.4796333 817.09485 817.5531 4281019208
-1.7192661 818.79907 816.37402 4280757581
1.1486238 816.48016 817.03485 4280824145
4.3073397 816.69971 817.21997 4284767378
49.35535 816.96045 816.56781 4294967295
52.187763 817.8797 816.47089 4294967295
-3.4385321 820.77063 818.03644 4284364629
-1.7192661 821.42786 818.59058 4285481817
49.858715 820.11346 817.4823 4294967295
52.724163 820.55157 817.85175 4294967295
-3.4275229 824.89069 817.58618 4286663256
-1.7137614 824.89069 817.58618 4286663256
0.85688072 823.58051 816.48145 4283379016
47.985321 823.58051 816.48145 4294967295
49.699081 824.2356 817.03381 4294967295
51.9841 824.45392 817.21796 4294967295
55.697247 824.89069 817.58618 4294967295
0 827.63037 817.28015 4284822867
44.462387 826.323 816.17786 4294901759
47.027527 826.97668 816.729 4294770687
49.699081 826.20087 818.69092 4294836223
52.269726 826.20087 818.69092 4294901759
55.697247 826.20087 818.69092 4294967295
-3.4201834 828.93774 818.38257 4283574610
49.592659 828.93774 818.38257 4294836223
-3.4091742 832.38092 817.36169 4280034120
-1.7045871 831.07776 816.26294 4284100955
0 831.07776 816.26294 4283643219
44.319267 831.07776 816.26294 4294836223
46.876144 831.07776 816.26294 4294836223
49.433029 833.68414 818.46045 4294705151
-4.2522936 835.10522 817.04272 4280429131
47.625687 835.75537 817.59094 4294967295
-4.2385321 838.53302 816.00879 4280626505
0 838.53302 816.00879 4281544271
44.080734 839.18109 816.55524 4294836223
46.34129 839.39716 816.73737 4294967295
-4.2293577 842.53802 816.76965 4280626761
-1.6917431 842.53802 816.76965 4280824396
0.84587157 842.53802 816.76965 4280755528
4.2293577 842.53802 816.76965 4282924637
7.612844 842.53802 816.76965 4286415500
19.455046 842.53802 816.76965 4285432228
22.838531 842.53802 816.76965 4286616764
25.376146 842.53802 816.76965 4287340245
27.913761 842.53802 816.76965 4292929023
31.297249 842.53802 816.76965 4294967295
34.680733 842.53802 816.76965 4294901759
38.06422 842.53802 816.76965 4294770687
40.601833 842.53802 816.76965 4294574079
43.187157 841.83167 817.48212 4294508543
46.623856 841.12531 818.19458 4294836223
-6.7669725 845.12469 818.95068 4278190083
-4.2293577 843.83136 817.86011 4280690759
-1.6917431 843.83136 817.86011 4280887882
4.2293577 843.83136 817.86011 4285347927
7.612844 843.83136 817.86011 4289230466
10.99633 843.83136 817.86011 4289300386
13.533945 843.83136 817.86011 4288057806
16.07156 843.83136 817.86011 4287270592
34.680733 843.83136 817.86011 4294967295
37.218349 843.83136 817.86011 4294901759
-7.2293577 749.67847 820.87866 4290548432
-9.0091743 754.69977 821.18848 4283039779
-7.2073393 754.01099 820.60773 4286326356
-5.4055047 754.69977 821.18848 4284482345
-3.5926607 757.64429 819.74719 4286390069
-7.1853213 759.70428 821.48401 4278190106
-4.485321 760.82898 820.47034 4280555580
0 761.95374 819.45667 4294963711
-4.4770641 764.00745 821.18829 4280622383
-1.787156 764.8197 819.25708 4281023838
0.89357799 764.07129 819.93408 4286938793
-4.4678898 766.86914 820.98517 4284244617
0 766.18604 820.40918 4281808724
-3.5633028 769.78912 819.52319 4287996349
0 769.78912 819.52319 4290297314
44.541283 769.78912 819.52319 4294967295
-5.344954 771.15125 820.67163 4290754006
-7.9926605 775.42065 820.34735 4279180607
-5.3284402 775.42065 820.34735 4278784326
-7.0899081 778.93744 820.69666 4280823374
-4.4311924 778.25989 820.12537 4279243561
44.311928 777.5824 819.55408 4294967295
-7.0899081 780.29254 821.83923 4280430161
-4.4256878 781.40039 820.81134 4279180104
-5.3009176 783.85919 820.92236 4280365390
-7.0458717 788.7641 821.13403 4280100671
-4.697248 787.86627 820.37701 4281942368
47.559631 788.7641 821.13403 4294967295
49.321102 788.7641 821.13403 4294967295
-3.5119267 790.96729 819.06763 4283392647
-1.7559633 790.96729 819.06763 4285300644
0 790.96729 819.06763 4282021794
43.899082 790.96729 819.06763 4294967295
45.655045 790.96729 819.06763 4294967295
-5.26789 792.98096 820.76544 4282922063
47.411011 792.30969 820.19946 4294967295
49.166973 792.30969 820.19946 4294967295
-4.380734 795.78516 820.51385 4282926440
-5.2403669 799.98096 820.12756 4280167495
48.910091 798.64551 819.00146 4294967295
-6.9871559 801.31641 821.25354 4280496458
-5.2293577 802.77118 819.86414 4280496458
-6.972477 804.10382 820.98779 4280825675
-6.9504585 808.93854 821.14026 4280496958
-5.2128439 807.61011 820.02014 4280694089
-8.6605501 812.43225 820.16199 4282457674
-10.39266 813.75647 821.27844 4283049283
-7.7871561 814.47687 820.57782 4280753467
-7.7779818 816.51862 820.99133 4283243583
-7.4660549 820.87085 820.737 4285674060
-5.1688075 819.99274 819.99646 4286331993
-4.5847096 823.61847 820.43768 4286397785
-6.8770642 825.37103 821.91528 4283310923
-5.1412845 827.51111 819.79565 4283245129
52.269726 827.51111 819.79565 4294705151
55.788071 826.44104 820.85547 4294836223
-5.1302752 830.24512 819.48486 4279705670
49.592659 830.24512 819.48486 4294639615
52.269726 828.82129 820.90027 4294311423
54.840366 828.82129 820.90027 4294574079
58.267891 828.82129 820.90027 4294967295
52.157799 832.20618 821.13843 4294443007
54.722935 832.85986 821.68958 4294574079
58.14312 832.85986 821.68958 4294770687
49.433029 834.9873 819.55933 4294639615
51.137615 836.29047 820.65808 4294443007
49.326607 838.35614 819.78381 4294639615
51.989906 837.59363 821.75684 4294705151
55.399082 837.59363 821.75684 4294705151
57.955963 837.59363 821.75684 4294967295
-7.6293578 842.42151 819.28735 4280690505
0.84770644 842.42151 819.28735 4280228937
19.497248 842.42151 819.28735 4286352806
22.888073 842.42151 819.28735 4286617262
25.431192 842.42151 819.28735 4284447134
27.974312 842.42151 819.28735 4289579007
31.365139 842.42151 819.28735 4294967295
38.994495 842.42151 819.28735 4294836223
40.689907 842.42151 819.28735 4294574079
43.233028 842.42151 819.28735 4294508543
46.700916 841.36414 820.35791 4294705151
49.326607 840.3067 821.42847 4294967295
51.027523 840.3067 821.42847 4294967295
-10.172477 844.36572 820.9267 4279107589
-7.9119263 844.58173 821.10889 4279631875
-4.2385321 844.36572 820.9267 4279238663
-1.6954129 844.36572 820.9267 4279107593
0.84770644 843.71765 820.38025 4278190101
4.2385321 843.71765 820.38025 4286455839
7.6293573 844.36572 820.92676 4290798193
11.020184 844.36572 820.9267 4292385716
13.563303 844.36572 820.9267 4289563874
16.106422 844.36572 820.9267 4288381897
18.649542 843.71765 820.38025 4286746305
34.755962 843.71765 820.38025 4294967295
38.14679 843.71765 820.38025 4294836223
40.689907 843.71765 820.38025 4294574079
42.385323 843.71765 820.38025 4294574079
-9.0366974 751.06018 822.0437 4288559492
-9.4596329 757.79926 823.80188 4278846771
-7.2073393 756.07733 822.34998 4278190080
-5.4055047 756.07733 822.34998 4278190080
-7.1853213 761.07764 822.64197 4278587405
-5.3889909 761.07764 822.64197 4278191618
-10.777982 763.13757 824.37891 4280750907
-8.0834866 762.45093 823.79993 4280949553
-8.3571863 766.5174 823.30463 4286476173
-8.8807335 778.81537 823.20972 4280690759
-7.0899081 781.64758 822.98169 4279773253
-7.0678897 785.21008 822.0614 4280100671
-7.9266057 790.78406 822.83722 4282199108
-10.568808 792.80408 824.54041 4279374648
-7.9155965 793.89935 823.50189 4281347664
-13.169725 797.6795 824.72717 4284307057
-10.53578 797.6795 824.72717 4278198825
-7.8944955 797.0658 822.90167 4279512648
-8.7614679 799.80408 823.90247 4279644996
-8.7339449 803.98724 823.50549 4281083718
-10.480734 805.32269 824.63159 4282587204
-7.8440366 806.10272 822.67316 4281607750
-10.425688 810.26697 822.26025 4282786895
-8.6422014 817.84003 822.10547 4286263121
-8.0403671 823.06622 822.58795 4284821324
-7.7458715 825.97351 823.73132 4279574337
56.735779 826.68542 823.02356 4294967295
55.697247 830.13147 822.005 4294770687
56.554127 831.44165 823.10974 4294901759
53.012844 834.16724 822.79187 4294443007
55.57798 834.16724 822.79187 4294705151
58.998165 835.47461 823.89423 4294901759
52.842201 838.89679 822.85571 4294967295
55.399082 838.89679 822.85571 4294901759
57.955963 838.89679 822.85571 4294901759
-13.622019 841.55371 823.7879 4278910992
-11.906422 842.2572 823.07312 4278910992
0 842.90741 823.62134 4280025108
4.2522936 842.90741 823.62134 4284818502
19.844038 842.47394 823.25586 4288713406
22.962385 842.2572 823.07312 4287208131
25.513762 842.2572 823.07312 4282211722
28.065138 842.2572 823.07312 4287872739
31.466972 842.25726 823.07312 4294967295
34.868805 842.90741 823.62134 4294967295
37.420185 842.90741 823.62134 4294967295
39.971558 842.90741 823.62134 4294901759
43.373394 842.2572 823.07312 4294574079
46.491745 842.04053 822.89038 4294508543
49.326607 841.60706 822.5249 4294705151
51.93486 840.9035 823.23969 4294639615
55.399082 840.19995 823.95447 4294639615
57.955963 840.19995 823.95447 4294508543
-11.055964 844.20776 824.71777 4290486971
-7.6541286 844.20776 824.71777 4291080134
-4.2522936 844.20776 824.71777 4291474895
6.8036699 844.20776 824.71777 4291145668
11.906422 844.20776 824.71777 4285547692
13.60734 844.20776 824.71777 4289021104
15.308257 844.20776 824.71777 4291126479
-10.601835 789.26263 825.47852 4280422693
-12.330276 794.1507 825.6759 4281939809
-10.568808 794.1507 825.6759 4278198074
-13.169725 799.02197 825.85913 4283714936
-10.53578 799.02197 825.85913 4278392881
-10.513762 801.81354 825.5968 4280031030
-12.201835 809.43433 825.4823 4284686393
-18.811008 838.08942 826.099 4279440926
-17.100918 839.39679 827.20129 4278976553
59.85321 838.7431 826.65015 4294770687
61.563301 838.7431 826.65015 4294705151
63.273396 839.39679 827.20129 4294967295
-18.750458 842.15479 825.60266 4281998628
-15.341285 842.15479 825.60266 4284431456
-13.636697 842.80634 826.1521 4289367463
-1.7045871 842.80634 826.1521 4291803866
1.1363914 842.37189 825.78583 4287659154
4.2614679 842.80634 826.1521 4291345098
8.5229359 842.80634 826.1521 4289961651
10.227523 842.80634 826.1521 4286403001
17.045872 842.80634 826.1521 4293562565
19.602753 842.80634 826.1521 4290149811
23.011927 842.80634 826.1521 4287403474
25.568808 842.80634 826.1521 4283464125
28.125687 842.80634 826.1521 4285051086
31.534863 842.80634 826.1521 4294967295
34.944038 842.80634 826.1521 4294967295
37.500916 842.80634 826.1521 4294967295
40.0578 842.80634 826.1521 4294967295
43.751068 842.37201 825.78583 4294508543
46.876144 842.15479 825.60266 4294443007
49.433029 842.15479 825.60266 4294443007
51.98991 842.15479 825.60266 4294574079
55.114986 841.93756 825.41949 4294770687
57.955963 842.15479 825.60266 4294770687
-13.636697 844.1095 827.25085 4291545555
-11.079817 844.1095 827.25085 4291940066
-7.6706419 844.1095 827.25085 4292334318
-4.2614679 844.1095 827.25085 4292860920
-1.7045871 844.1095 827.25085 4293321471
-22.231194 842.01154 829.40601 4285291404
-19.951071 841.57574 829.03857 4286209667
-16.530888 841.57574 829.03857 4289105574
0.85504586 842.01154 829.40601 4293255935
4.2752295 842.01154 829.40601 4292072180
7.6954126 842.01154 829.40601 4292268015
11.115597 842.01154 829.40601 4286871288
13.680734 842.01154 829.40601 4286209188
16.245872 842.01154 829.40601 4288180907
19.666054 842.01154 829.40601 4287655836
23.086239 842.01154 829.40601 4285887421
25.651377 842.01154 829.40601 4285694439
28.216515 842.01154 829.40601 4285640650
31.636698 842.01154 829.40601 4294836223
35.056881 842.01154 829.40601 4294967295
37.622017 842.01154 829.40601 4294967295
40.187157 842.01154 829.40601 4294967295
43.607338 842.01154 829.40601 4294836223
47.312542 841.57574 829.03857 4294443007
49.592659 842.01154 829.40601 4294443007
52.157799 842.01154 829.40601 4294508543
55.862995 841.57574 829.03857 4294770687
59.283184 841.57574 829.03857 4294574079
61.563301 841.35785 828.85486 4294508543
63.273396 841.35785 828.85486 4294377471
-22.231194 843.31891 830.50842 4291350238
-19.666054 843.31891 830.50842 4292271345
-16.245872 843.31891 830.50842 4292732671
-13.680734 843.31891 830.50842 4292600831
-11.079817 845.41266 828.34973 4292074749
-7.6706419 845.41266 828.34973 4292074493
-4.2697248 844.36578 829.42908 4291285750
-1.7100917 843.31891 830.50842 4291417850
32.491745 843.31891 830.50842 4294967295
35.056881 843.31891 830.50842 4294967295
37.622017 843.31891 830.50842 4294901759
53.012844 843.31891 830.50842 4294508543
55.57798 843.31891 830.50842 4294574079
58.998165 843.31891 830.50842 4294508543
61.563301 843.31891 830.50842 4294180863
63.273396 843.31891 830.50842 4294246399
-27.420183 841.9231 831.94751 4290025908
-25.706423 841.9231 831.94751 4292262870
-23.992661 841.9231 831.94751 4290823894
0.85688072 841.9231 831.94751 4291484155
4.2844038 841.9231 831.94751 4290759927
7.7119265 841.9231 831.94751 4292402427
11.13945 841.9231 831.94751 4293193215
13.710092 841.9231 831.94751 4293719551
16.280735 841.9231 831.94751 4292796671
19.708256 841.9231 831.94751 4287402961
23.13578 841.9231 831.94751 4281545357
25.706423 841.9231 831.94751 4283449005
28.277065 841.9231 831.94751 4285242039
30.847706 841.9231 831.94751 4293129727
40.273396 841.9231 831.94751 4294967295
43.700916 841.9231 831.94751 4294967295
47.128441 841.9231 831.94751 4294770687
49.699081 841.9231 831.94751 4294508543
51.412846 841.9231 831.94751 4294508543
65.122932 841.9231 831.94751 4294311935
-22.278898 843.23328 833.05212 4293322232
-19.708256 843.23328 833.05212 4293258751
-16.280735 843.23328 833.05212 4293127679
-13.680734 844.62628 831.61072 4293455615
-11.115597 844.62628 831.61072 4292336381
-7.6954126 844.62628 831.61072 4292730879
-4.2807341 843.92981 832.33142 4291416565
-1.7137614 843.23328 833.05212 4291549168
32.561466 843.23328 833.05212 4294901759
35.132111 843.23328 833.05212 4294967295
37.702751 843.23328 833.05212 4294967295
53.126606 843.23328 833.05212 4294508543
55.697247 843.23328 833.05212 4294574079
59.124771 843.23328 833.05212 4294508543
61.695412 843.23328 833.05212 4294246399
64.266052 843.23328 833.05212 4294311935
-28.42844 839.75073 836.65588 4292200641
-24.929358 841.80096 835.76855 4293256692
-22.350458 842.45813 836.32275 4293850111
-19.771561 842.45813 836.32275 4292667127
-16.333027 842.45813 836.32275 4291614969
-8.5963306 842.45813 836.32275 4291605999
-1.7192661 842.45813 836.32275 4288917714
0.85963303 841.14374 835.21448 4291286260
4.2981653 841.14374 835.21448 4290628085
7.7366972 841.14374 835.21448 4291219708
10.315597 841.14374 835.21448 4292798718
12.894495 841.14374 835.21448 4293917183
16.333027 841.14374 835.21448 4294112255
19.771561 841.14374 835.21448 4290163711
22.350458 841.14374 835.21448 4280294050
24.642813 841.58185 835.58392 4283329167
28.367889 841.14374 835.21448 4282486202
31.519876 842.02002 835.95331 4292077311
34.385323 842.45813 836.32275 4294967295
36.964218 842.45813 836.32275 4294967295
40.402752 841.14374 835.21448 4294967295
44.127827 841.58185 835.58392 4294967295
46.420185 841.14374 835.21448 4294967295
48.999084 841.14374 835.21448 4294508543
52.151073 842.02002 835.95331 4294508543
55.876144 842.45813 836.32275 4294180351
58.455048 842.45813 836.32275 4294443007
67.051376 841.8009 835.76862 4294377215
-13.710092 844.54346 834.15686 4294441727
-11.13945 844.54346 834.15686 4290622682
-6.8550458 844.54346 834.15686 4290822892
-4.2844038 844.54346 834.15686 4291613946
59.981651 844.54346 834.15686 4294377471
61.695412 844.54346 834.15686 4293589247
64.266052 844.54346 834.15686 4293851903
-28.141283 841.5069 838.13678 4292466925
-25.844036 842.38507 838.8772 4293192191
0.8614679 841.72644 838.3219 4287206070
4.3073397 841.72644 838.3219 4288261066
7.753211 841.72644 838.3219 4290235632
10.337615 841.72644 838.3219 4292601599
12.922018 841.72644 838.3219 4291286780
16.367889 841.72644 838.3219 4290825973
19.813763 841.72644 838.3219 4292929533
22.398165 841.72644 838.3219 4294310399
25.269724 841.94598 838.50702 4291349212
28.42844 841.72644 838.3219 4282611884
31.874311 842.38507 838.8772 4290962687
34.458717 842.38507 838.8772 4294967295
37.043121 842.38507 838.8772 4294967295
40.488991 841.72644 838.3219 4294967295
43.647705 841.94598 838.50702 4294967295
46.519264 841.72644 838.3219 4294967295
49.103668 841.72644 838.3219 4294508543
51.688072 842.38507 838.8772 4294508543
68.055969 842.38507 838.8772 4294311679
-27.566973 843.70227 839.98779 4287666373
-24.661163 844.18726 838.65265 4291350772
-22.374311 843.73743 838.70941 4293719551
-19.792662 843.73737 838.70947 4292733177
-16.350458 843.73737 838.70947 4291682039
-12.908257 843.73743 838.70941 4292336104
-10.326606 843.73743 838.70941 4289438168
-7.7412844 844.0835 838.34729 4290492387
-4.3009176 844.0835 838.34729 4291481590
-1.7211009 843.73743 838.70941 4288060619
12.922018 843.70227 839.98779 4291090682
18.952293 843.70227 839.98779 4290235887
32.735779 843.70227 839.98779 4293787647
34.458717 843.70227 839.98779 4294967295
44.796329 843.70227 839.98779 4294967295
49.103668 843.70227 839.98779 4294639615
52.798779 843.72577 839.13556 4294508543
55.93578 843.73743 838.70947 4294246143
58.455048 844.42969 837.98517 4294443007
61.033943 844.42969 837.98523 4294377471
64.506424 844.0835 838.34729 4294246143
68.055969 843.70227 839.98779 4294246143
70.640366 843.70227 839.98779 4294967295
-31.111927 840.30396 841.04651 4291741149
-29.383486 840.96466 841.60358 4290030802
0.8642202 841.62537 842.16064 4288122020
4.3211012 841.62537 842.16064 4289836499
7.7779818 841.62537 842.16064 4291088878
10.370643 841.62537 842.16064 4292734719
16.420183 841.62537 842.16064 4291814911
20.741285 841.62537 842.16064 4288393196
22.469725 841.62537 842.16064 4289314298
25.062386 841.62537 842.16064 4294042623
28.519266 841.62537 842.16064 4292799221
31.111927 841.62537 842.16064 4290044671
37.161469 841.62537 842.16064 4294967295
40.618347 841.62537 842.16064 4294967295
43.21101 841.62537 842.16064 4294967295
46.667889 841.62537 842.16064 4294967295
-27.566973 845.01947 841.09851 4289575113
-24.982569 845.01947 841.09851 4290496223
-22.398165 845.01947 841.09851 4293127935
-19.813763 845.01947 841.09851 4293062143
-16.367889 845.01947 841.09851 4292865279
-12.060551 845.01947 841.09851 4293191423
-10.337615 845.01947 841.09851 4292336885
-7.753211 845.01947 841.09851 4292928765
-4.3073397 845.01947 841.09851 4291479787
58.579815 845.01947 841.09851 4294443007
61.164223 845.01947 841.09851 4294443007
64.610092 845.01947 841.09851 4294246143
70.640366 845.01947 841.09851 4294967295
-24.121101 846.33667 842.20911 4292600319
-29.414679 842.91797 844.55865 4290757102
-13.827523 842.94678 843.2749 4294244095
-1.7302753 842.91797 844.55865 4288714181
0.86605507 841.56494 844.72583 4288583868
4.3302751 841.56494 844.72583 4290429152
7.7862387 842.91797 844.55859 4290693609
10.381651 842.91797 844.55865 4291483131
13.261162 842.92755 844.13068 4291155192
16.437614 842.91797 844.55859 4292470783
20.179815 842.92755 844.13068 4290036972
22.469725 842.94678 843.2749 4287932893
25.088991 842.91797 844.55859 4288986325
28.250765 842.92755 844.13068 4292468991
31.976147 842.94678 843.2749 4294377215
34.568806 842.94678 843.2749 4294967295
37.161469 842.94678 843.2749 4294967295
40.618347 842.94678 843.2749 4294967295
43.817738 842.92755 844.13068 4294967295
46.667889 842.94678 843.2749 4294967295
49.260551 842.94678 843.2749 4294901759
52.71743 842.94678 843.2749 4294443007
55.310093 842.94678 843.2749 4294311679
57.038532 842.94678 843.2749 4294311679
67.409172 842.94678 843.2749 4294967295
69.137611 842.94678 843.2749 4294967295
72.748627 842.88916 845.84241 4286755826
-28.231194 845.14911 845.13184 4290297314
-25.350458 845.14911 845.13184 4292271353
-22.469725 844.92889 844.94611 4293587455
-19.877064 844.26819 844.38904 4293062143
-16.420183 844.26819 844.38904 4292733183
-12.963303 844.26819 844.38904 4291877631
-10.370643 844.26819 844.38904 4292402928
-7.7779818 844.26819 844.38904 4293389309
-4.3211012 844.26819 844.38904 4290952166
12.099083 844.26819 844.38904 4290957050
19.012844 844.26819 844.38904 4291877375
22.469725 844.26819 844.38904 4288588231
29.383486 844.26819 844.38904 4292862975
31.976147 844.26819 844.38904 4294967295
34.568806 844.26819 844.38904 4294967295
37.161469 844.26819 844.38904 4294967295
40.618347 844.26819 844.38904 4294967295
44.939449 844.26819 844.38904 4294967295
46.667889 844.26819 844.38904 4294967295
49.260551 844.26819 844.38904 4294901759
52.71743 844.26819 844.38904 4294639615
55.310093 844.26819 844.38904 4294311935
57.902752 844.26819 844.38904 4294508543
61.359634 844.26819 844.38904 4294770687
64.816513 844.26819 844.38904 4294967295
67.409172 844.26819 844.38904 4294967295
70.001831 844.26819 844.38904 4292341237
0.86880732 840.82068 848.02234 4289634982
4.3440366 840.82068 848.02234 4290890485
-24.249542 845.5376 848.07544 4293062399
-22.517431 845.5376 848.07544 4292667903
-20.207951 844.65479 847.33112 4291616511
-16.455046 844.21338 846.95898 4291222014
-12.124771 844.21338 846.95898 4289904889
-3.4642203 844.21338 846.95898 4290027737
8.6605501 844.21338 846.95898 4290758899
10.39266 844.21338 846.95898 4290562805
12.990826 844.21338 846.95898 4291023611
16.455046 844.21338 846.95898 4291746556
19.919266 844.21338 846.95898 4291219699
22.517431 844.21338 846.95898 4289049048
29.445871 844.21338 846.95898 4291749631
32.044037 844.21338 846.95898 4294967295
34.6422 844.21338 846.95898 4294967295
37.529053 844.65479 847.33112 4294967295
40.415901 844.65479 847.33112 4294967295
43.302753 844.21338 846.95898 4294967295
45.900917 844.21338 846.95898 4294967295
49.365139 844.21338 846.95898 4294836223
52.829357 844.21338 846.95898 4294901759
55.427525 844.21338 846.95898 4294443007
58.025688 844.21338 846.95898 4294705151
61.489906 844.21338 846.95898 4294967295
64.954132 844.21338 846.95898 4294639615
67.552292 844.21338 846.95898 4292931069
70.150452 844.21338 846.95898 4288591327
-27.655046 846.91101 846.61743 4288195270
-25.926605 846.91101 846.61743 4292077055
-13.900917 842.14911 849.14246 4290365439
-10.425688 842.14911 849.14246 4291153881
-7.8192658 842.14911 849.14246 4293191929
-5.2128439 842.14911 849.14246 4290690516
-1.7376146 842.14911 849.14246 4289040585
0.86880732 841.11694 850.23419 4289570740
4.3440366 842.14911 849.14246 4291481845
6.9504585 842.14911 849.14246 4290956277
25.195412 842.14911 849.14246 4285764288
27.801834 842.14911 849.14246 4285959898
72.97982 842.14911 849.14246 4278203083
-24.326605 844.80591 851.38269 4293588735
-22.588991 844.80591 851.38269 4292864767
-19.692966 844.3631 851.00928 4290761209
-16.507339 844.14172 850.82263 4289841403
-12.742508 843.92035 850.63593 4288526562
-10.425688 843.47754 850.26257 4289246159
-7.8192658 843.47754 850.26257 4291743987
-4.3440366 843.47754 850.26257 4290422736
-1.7376146 844.14172 850.82263 4289103791
7.8192658 843.47754 850.26257 4291023354
10.425688 843.47754 850.26257 4291089914
13.03211 843.47754 850.26257 4290892282
16.507339 843.47754 850.26257 4290234103
19.113762 843.47754 850.26257 4290233849
22.588991 843.47754 850.26257 4291284214
28.960245 843.92035 850.63593 4286750914
31.277063 843.47754 850.26257 4290302719
33.883484 844.14172 850.82263 4293786623
37.069118 844.3631 851.00928 4294967295
40.833946 844.14172 850.82263 4294967295
43.440369 843.47754 850.26257 4294967295
46.046791 843.47754 850.26257 4294967295
50.390827 843.47754 850.26257 4294967295
52.997246 843.47754 850.26257 4294967295
55.603668 843.47754 850.26257 4294967295
58.210091 843.47754 850.26257 4294967295
61.685318 843.47754 850.26257 4291487741
64.29174 843.47754 850.26257 4285767900
66.898163 843.47754 850.26257 4280564883
-25.981651 846.86182 849.19202 4292997119
-13.944954 842.75006 853.57324 4289249253
-10.458715 842.75006 853.57324 4289839329
-7.8440366 842.75006 853.57324 4291481842
-4.3577981 842.75006 853.57324 4289633732
0.87155962 842.08374 853.01147 4290684605
4.3577981 842.08374 853.01141 4291941885
7.8440366 842.75006 853.57324 4291154938
10.458715 842.75006 853.57324 4291023867
13.073395 842.75006 853.57324 4290958077
16.559633 842.75006 853.57324 4290562810
20.336391 842.30585 853.19873 4291022070
22.660551 842.75006 853.57324 4292535807
25.27523 842.08374 853.01147 4289376984
27.889908 842.75006 853.57324 4286554041
31.376146 842.75006 853.57324 4286488811
41.834862 842.75006 853.57324 4294967295
43.57798 842.75006 853.57324 4294967295
46.192661 842.75006 853.57324 4294967295
49.678898 842.08374 853.01141 4294901759
52.293579 842.75006 853.57324 4294967295
54.908257 842.75006 853.57324 4294967295
58.394493 842.75006 853.57324 4294836223
61.880733 842.75006 853.57324 4286618324
64.495415 842.75006 853.57324 4278463891
67.110092 842.75006 853.57324 4278190196
70.596329 842.08374 853.01147 4278190155
73.365135 840.04401 853.90759 4278190183
-24.403669 844.0827 854.6969 4293260799
-22.660551 844.0827 854.6969 4292997887
-20.045872 844.0827 854.6969 4292865279
-16.559633 844.0827 854.6969 4292010239
-13.944954 844.0827 854.6969 4292141567
-7.8440366 844.0827 854.6969 4292403455
-3.4862385 844.0827 854.6969 4289035681
-1.7431192 844.0827 854.6969 4290022576
6.972477 844.0827 854.6969 4291549951
28.761467 844.0827 854.6969 4288392386
31.376146 844.0827 854.6969 4283594417
33.990826 844.0827 854.6969 4290895359
37.477066 844.0827 854.6969 4294967295
40.091743 844.0827 854.6969 4294967295
57.522934 844.0827 854.6969 4278202736
61.880733 844.0827 854.6969 4278190196
64.495415 844.0827 854.6969 4278190184
67.110092 844.0827 854.6969 4278322496
69.72477 844.0827 854.6969 4278721594
-26.06422 846.13434 852.50269 4293588735
-12.227523 842.7149 856.15967 4291614971
-10.480734 842.7149 856.15967 4291484155
-5.2403669 842.7149 856.15967 4289046229
0.87339449 842.7149 856.15967 4290218670
4.3669724 842.7149 856.15967 4290753767
8.7339449 842.7149 856.15967 4291089401
10.480734 842.7149 856.15967 4290694652
13.100918 842.7149 856.15967 4291681023
16.594496 842.7149 856.15967 4291483647
20.088074 842.7149 856.15967 4291287039
22.708258 842.7149 856.15967 4291484415
25.328442 842.7149 856.15967 4291155454
41.922935 842.7149 856.15967 4294967295
43.669724 842.7149 856.15967 4294967295
46.289909 842.7149 856.15967 4294967295
49.783485 842.04718 855.59668 4294967295
52.403671 842.7149 856.15967 4293984255
55.023853 842.7149 856.15967 4287743720
59.390827 842.7149 856.15967 4278190207
71.618347 842.7149 856.15967 4278655801
73.365135 841.37946 855.03369 4278190903
-25.27523 845.41528 855.82056 4293521407
-22.660551 845.41528 855.82056 4293258495
-20.066055 844.73279 856.5531 4292996095
-16.576147 844.73279 856.5531 4292469503
-10.480734 844.05029 857.28564 4292205311
-7.8440366 845.41528 855.82056 4293322751
-4.3614678 844.73279 856.5531 4288909752
-1.7431192 845.41528 855.82056 4289958326
0.87339449 844.05029 857.28564 4289559470
4.3669724 844.05029 857.28564 4290884067
7.8605504 844.05029 857.28564 4291549434
22.708258 844.05029 857.28564 4291352316
25.328442 844.05029 857.28564 4292075004
28.822018 844.05029 857.28564 4288917460
31.442202 844.05029 857.28564 4284582077
34.062386 844.05029 857.28564 4290171903
37.555962 844.05029 857.28564 4294770687
41.049541 844.05029 857.28564 4294967295
55.897247 844.05029 857.28564 4278190259
58.517433 844.05029 857.28564 4278190161
62.011009 844.05029 857.28564 4278190093
64.631195 844.05029 857.28564 4278190108
67.179817 844.73279 856.5531 4278585912
70.596329 845.41528 855.82056 4278521647
-13.142202 842.00287 859.4834 4292534015
10.513762 842.00287 859.4834 4291023615
13.142202 842.00287 859.4834 4291812351
16.64679 842.00287 859.4834 4291352063
19.275229 842.00287 859.4834 4290957822
21.027523 842.00287 859.4834 4291155194
43.807339 842.00287 859.4834 4294967295
46.43578 842.00287 859.4834 4294967295
49.648319 841.55634 859.10693 4294507515
52.568806 842.00287 859.4834 4290501119
54.321102 842.00287 859.4834 4284711096
73.596329 840.66321 858.35388 4278193721
-24.455046 845.38574 858.41162 4291218680
-22.708258 845.38574 858.41162 4291350522
-20.088074 845.38574 858.41162 4291088638
-16.594496 845.38574 858.41162 4290824701
-13.142202 843.34247 860.61292 4290229988
-10.513762 843.34247 860.61292 4289502422
-7.8853211 843.34247 860.61292 4293122815
-4.380734 843.34247 860.61292 4288777144
-1.746789 845.38574 858.41162 4290022072
0.87614679 843.34247 860.61292 4290479545
4.380734 843.34247 860.61292 4291869671
7.8853211 843.34247 860.61292 4291746293
10.513762 843.34247 860.61292 4291417599
13.142202 843.34247 860.61292 4291089151
22.779816 843.34247 860.61292 4290628857
25.408257 843.34247 860.61292 4292534782
28.912844 843.34247 860.61292 4290692579
31.541285 843.34247 860.61292 4286353053
34.062386 845.38574 858.41162 4289050581
37.555962 845.38574 858.41162 4293852159
40.176147 845.38574 858.41162 4294967295
42.93119 843.34247 860.61292 4294967295
46.43578 843.34247 860.61292 4290042859
50.816513 843.34247 860.61292 4278192466
52.568806 843.34247 860.61292 4278190205
55.19725 843.34247 860.61292 4278190188
58.517433 845.38574 858.41162 4286087623
62.011009 845.38574 858.41162 4291021812
64.631195 845.38574 858.41162 4282598266
67.251373 845.38574 858.41162 4278190088
70.744949 845.38574 858.41162 4278978604
16.681652 841.98029 862.08044 4288656105
19.315596 841.98029 862.08044 4288985586
21.07156 841.98029 862.08044 4289707755
49.166973 841.98029 862.08044 4282614990
-24.53211 844.68213 861.74243 4289642734
-21.903669 844.68213 861.74243 4289971956
-19.275229 844.68213 861.74243 4289774834
-16.663303 844.00244 862.47742 4289839103
-13.169725 843.32275 863.2124 4288978651
-10.53578 843.32275 863.2124 4288780484
-7.901835 843.32275 863.2124 4292333306
-4.3862386 844.00244 862.47742 4288908230
-1.7522936 844.68213 861.74243 4289562566
0.87614679 844.00244 862.47742 4290350021
4.3899083 843.32275 863.2124 4291145195
7.901835 843.32275 863.2124 4292204518
10.53578 843.32275 863.2124 4291876607
13.169725 843.32275 863.2124 4289773301
15.80367 843.32275 863.2124 4287341024
22.827522 843.32275 863.2124 4290235135
24.583487 843.32275 863.2124 4291614463
28.973394 843.32275 863.2124 4291812089
31.60734 843.32275 863.2124 4286556121
34.169724 844.68213 861.74243 4287409887
37.674309 844.68213 861.74243 4293589247
40.302753 844.68213 861.74243 4294967295
42.975227 844.00244 862.47742 4293455341
46.533028 843.32275 863.2124 4283857622
50.044952 843.32275 863.2124 4278190222
52.678898 843.32275 863.2124 4278190127
55.254128 844.00244 862.47742 4278190126
58.701836 844.68213 861.74243 4291808752
61.330276 844.68213 861.74243 4294967295
63.958717 844.68213 861.74243 4290887879
67.463303 844.68213 861.74243 4278194737
-24.53211 846.02179 862.87207 4289250034
-22.779816 846.02179 862.87207 4289710585
-1.7522936 846.02179 862.87207 4290682569
61.330276 846.02179 862.87207 4294967295
63.958717 846.02179 862.87207 4294967295
67.463303 846.02179 862.87207 4284181890
10.568808 842.63037 866.55261 4290099703
13.21101 842.63037 866.55261 4288456417
17.027525 842.18146 866.17413 4287406038
19.376146 841.95703 865.98492 4288590569
21.724771 842.18146 866.17413 4289380081
25.834862 842.18146 866.17413 4292338943
29.06422 842.63037 866.55261 4292798463
31.706423 842.63037 866.55261 4291025654
43.155964 842.63037 866.55261 4280494484
46.678898 842.63037 866.55261 4278190205
49.321102 842.63037 866.55261 4278190157
51.963303 842.63037 866.55261 4278194766
54.605503 842.63037 866.55261 4278190107
-21.07156 844.66522 864.34436 4289775351
-19.315596 844.66522 864.34436 4289446386
-16.681652 844.66522 864.34436 4289643007
-13.169725 844.66522 864.34436 4289701334
-10.53578 844.66522 864.34436 4289306546
-7.901835 844.66522 864.34436 4292727793
-4.3899083 844.66522 864.34436 4289501131
0.87798166 844.66522 864.34436 4290681789
4.3899083 844.66522 864.34436 4290815422
7.901835 844.66522 864.34436 4291280114
34.241287 844.66522 864.34436 4288196822
37.753212 844.66522 864.34436 4291815423
40.387157 844.66522 864.34436 4284709801
56.190826 844.66522 864.34436 4278190080
58.824768 844.66522 864.34436 4289704369
-21.949541 846.00763 865.4762 4291023869
-19.315596 846.00763 865.4762 4290300147
-3.5119267 846.00763 865.4762 4289041591
-1.7559633 846.00763 865.4762 4289765058
61.458717 846.00763 865.4762 4294967279
64.385323 846.45508 865.85352 4294967295
66.726608 846.00763 865.4762 4294377471
26.504587 841.94641 869.90002 4292470015
28.271559 841.94641 869.90002 4292667135
30.038532 841.94641 869.90002 4293456639
49.475231 841.94641 869.90002 4278197572
51.242203 841.94641 869.90002 4278197829
-21.137615 845.32367 868.82361 4292009727
-19.376146 845.32367 868.82361 4292009727
-16.733946 843.97705 867.68811 4290431743
-13.21101 843.97705 867.68811 4288914923
-10.568808 843.97705 867.68811 4289505736
-7.9266057 844.65039 868.25586 4292335865
-4.697248 844.87482 868.44513 4290097892
-1.7614679 845.32367 868.82361 4291413485
1.174312 844.42596 868.06659 4290620883
4.4036698 844.65039 868.25586 4291215820
7.9266052 844.65039 868.25586 4291216891
10.568808 844.65039 868.25586 4289838585
13.21101 844.65039 868.25586 4287406290
16.440367 844.42596 868.06659 4287802577
19.376146 843.97705 867.68811 4288524753
22.018349 843.97705 867.68811 4289579000
24.660551 843.97705 867.68811 4292207103
31.706423 843.97705 867.68811 4291354111
34.348625 843.97705 867.68811 4288394219
37.577984 844.42596 868.06659 4292405759
40.51376 843.97705 867.68811 4279115350
43.155964 843.97705 867.68811 4278190182
46.678898 843.97705 867.68811 4278190121
52.844036 843.97705 867.68811 4278191664
55.486237 843.97705 867.68811 4278190111
59.009178 844.65039 868.25586 4289836745
61.651375 845.32367 868.82361 4294967295
63.412846 845.32367 868.82361 4294967295
66.935783 845.32367 868.82361 4294967295
-21.137615 846.67035 869.95911 4291747326
-3.5229359 846.67035 869.95911 4292007419
-1.7614679 846.67035 869.95911 4292402175
61.651375 846.67035 869.95911 4294967295
64.293579 846.67035 869.95911 4294967295
-19.436697 844.64813 872.1781 4291878911
-16.78624 843.97266 871.60858 4292140543
-13.252294 843.97266 871.60858 4292008190
-10.601835 843.97266 871.60858 4292008182
-7.951376 844.64813 872.1781 4292139262
-5.3009176 844.64813 872.1781 4291941887
0.58899081 844.19781 871.7984 4291677685
4.4174314 844.64813 872.1781 4292402687
7.951376 844.64813 872.1781 4289970164
10.601835 844.64813 872.1781 4285565935
13.252294 844.64813 872.1781 4284250291
17.080734 844.19781 871.7984 4286024877
19.436697 843.97266 871.60858 4286813372
22.087156 843.97266 871.60858 4286031787
25.621101 843.97266 871.60858 4292273663
28.271559 843.97266 871.60858 4292601343
30.922016 843.97266 871.60858 4291549695
34.455963 843.97266 871.60858 4290234100
38.284405 844.19781 871.7984 4292075001
40.640366 843.97266 871.60858 4278191404
43.290825 843.97266 871.60858 4278388012
46.824768 843.97266 871.60858 4278194220
49.475231 843.97266 871.60858 4278521911
52.125687 843.97272 871.60864 4278190888
55.65963 843.97266 871.60858 4287402953
58.310093 844.64813 872.1781 4294967295
60.077065 844.64813 872.1781 4294967295
-21.269724 843.98096 875.53967 4289051108
-19.497248 843.98096 875.53967 4289511659
-16.838531 843.98096 875.53967 4289638369
-13.293577 843.98096 875.53967 4289236404
-10.634862 843.98096 875.53967 4287072137
-7.9761467 843.98096 875.53967 4291678182
-4.4256878 844.98999 874.42841 4290824180
-1.7669724 845.99896 873.31714 4291022072
0.88348621 844.98999 874.42841 4291416574
4.4174314 845.99896 873.31714 4291681279
7.951376 845.99896 873.31714 4285436098
10.601835 845.99896 873.31714 4278190152
13.252294 845.99896 873.31714 4278190116
16.838531 843.98096 875.53967 4279903293
19.497248 843.98096 875.53967 4288653772
22.155964 843.98096 875.53967 4290296521
25.700916 843.98096 875.53967 4292863743
28.359632 843.98096 875.53967 4293653503
31.018349 843.98096 875.53967 4290892281
34.563301 843.98096 875.53967 4289906168
38.108257 843.98096 875.53967 4290101753
40.766972 843.98096 875.53967 4278190142
43.42569 843.98096 875.53967 4278190080
46.970642 843.98096 875.53967 4280361272
49.629356 843.98096 875.53967 4284438412
52.205505 844.98999 874.42841 4278190098
55.65963 845.99896 873.31714 4287007934
58.310093 845.99896 873.31714 4294705151
60.960548 845.99896 873.31714 4291681249
58.310093 847.34985 874.45605 4292074690
60.077065 847.34985 874.45605 4289444095
-19.537615 843.99359 878.16626 4288591843
-16.873394 843.99359 878.16626 4288388065
-13.3211 843.99359 878.16626 4287334267
-10.65688 843.99359 878.16626 4286087999
-7.9926605 843.99359 878.16626 4291613893
-4.436697 844.66479 877.42426 4290954735
-1.772477 845.33606 876.68225 4291152112
0.88807338 843.99359 878.16626 4291614205
4.4348621 844.66479 877.42426 4291154938
7.9761467 845.33606 876.68225 4285433768
10.634862 845.33606 876.68225 4278190638
13.293577 845.33606 876.68225 4278190099
16.838531 845.33606 876.68225 4279839826
19.537615 843.99359 878.16626 4289577983
22.201836 843.99359 878.16626 4291612405
25.754128 843.99359 878.16626 4292863743
28.418348 843.99359 878.16626 4293258495
31.082569 843.99359 878.16626 4289970655
34.634861 843.99359 878.16626 4290235375
37.299084 843.99359 878.16626 4290564095
39.963303 843.99359 878.16626 4282338182
43.515594 843.99359 878.16626 4280556572
47.06789 843.99359 878.16626 4289176496
49.732109 843.99359 878.16626 4290363824
52.341286 844.66479 877.42426 4278190093
55.833027 845.33606 876.68225 4283849573
53.174313 847.36865 878.396 4278190103
55.833027 847.36865 878.396 4278191153
58.491745 847.36865 878.396 4278191939
58.310093 851.40247 877.87317 4278195766
-21.313761 845.35144 879.31116 4288723933
-19.537615 845.35144 879.31116 4288723933
-16.873394 845.35144 879.31116 4289572576
-13.362385 843.34186 881.54089 4290690262
-10.689908 843.34186 881.54089 4289837490
-8.0174313 843.34186 881.54089 4292402407
-4.4403667 845.35144 879.31116 4290492638
-1.7761468 845.35144 879.31116 4291544553
0.89082569 843.34186 881.54089 4291876607
4.4458714 844.34668 880.42603 4291878655
8.0174313 843.34186 881.54089 4291944185
10.689908 843.34186 881.54089 4289119191
13.362385 843.34186 881.54089 4285832105
16.900917 844.34668 880.42603 4286750896
19.598166 843.34186 881.54089 4290100437
22.270641 843.34186 881.54089 4289510112
25.833946 843.34186 881.54089 4290232555
28.506422 843.34186 881.54089 4289839103
31.129356 844.34668 880.42603 4286945736
34.689907 844.34668 880.42603 4291157496
37.41468 843.34186 881.54089 4287736536
40.087158 843.34186 881.54089 4278857834
43.650459 843.34186 881.54089 4290089654
