# .PCD v0.7 - Point Cloud Data file format
VERSION 0.7
FIELDS x y z rgb
SIZE 4 4 4 4
TYPE F F F U
COUNT 1 1 1 1
WIDTH 1154
HEIGHT 1
VIEWPOINT 0 0 0 1 0 0 0
POINTS 1154
DATA ascii
-14.377981 794.81097 1278.8109 4291355647
-16.774311 796.64294 1280.3556 4294967295
-14.377981 796.64294 1280.3556 4294377471
-14.322936 802.96198 1279.1434 4294176255
-14.322936 804.78699 1280.6823 4288114607
-11.93578 804.78699 1280.6823 4293049081
-19.038532 810.54407 1280.3044 4290610850
-16.658716 810.54407 1280.3044 4291334829
-14.223853 817.70892 1279.8054 4291529642
-11.062997 818.01099 1280.0602 4291269812
-7.1119266 818.61511 1280.5696 4293908472
-4.7412844 818.61511 1280.5696 4293192959
-24.14679 783.9209 1282.709 4290764287
-21.732111 783.9209 1282.709 4291685375
-21.649542 792.13495 1283.0947 4294108927
-12.027523 792.13495 1283.0947 4292474367
-10.783486 799.39099 1282.6726 4294639359
-7.1889906 800.30701 1283.4451 4294310655
-11.93578 806.61194 1282.2211 4292191965
-22.677982 808.43701 1283.7599 4289164705
-21.418348 812.36346 1281.8385 4289362597
-19.038532 812.36346 1281.8385 4290544541
-16.658716 812.36346 1281.8385 4292255159
-16.658716 814.18286 1283.3726 4291794358
-9.5192661 814.18286 1283.3726 4289698242
-7.1394496 814.18286 1283.3726 4294040319
-14.223853 820.42749 1282.0977 4292716019
-10.667891 820.42749 1282.0977 4291009224
-4.7412844 820.42749 1282.0977 4292337663
-16.594496 822.23987 1283.6259 4294957311
-14.223853 822.23987 1283.6259 4293047807
-10.667891 822.23987 1283.6259 4290418903
-7.1119266 822.23987 1283.6259 4292790246
-4.7412844 822.23987 1283.6259 4291679743
-19.625689 755.71381 1286.3942 4290610431
-24.238533 779.37079 1285.4126 4289708799
-21.814678 779.37079 1285.4126 4291748351
-19.390825 779.37079 1285.4126 4294049791
-16.966972 779.37079 1285.4126 4293525503
-19.390825 781.22388 1286.9751 4293853183
-16.966972 781.22388 1286.9751 4293853183
-24.14679 785.76697 1284.2655 4292278527
-21.732111 785.76697 1284.2655 4291620863
-16.902752 785.76697 1284.2655 4293197567
-24.055046 793.974 1284.6454 4291147213
-21.649542 793.974 1284.6454 4294568703
-19.244038 793.974 1284.6454 4294967295
-12.027523 793.974 1284.6454 4293916927
-9.6220188 793.974 1284.6454 4293523455
-21.649542 795.81299 1286.196 4290417073
-16.838531 795.81299 1286.196 4293974527
-7.2165136 795.81299 1286.196 4293654271
-26.359632 803.97107 1286.5344 4289495446
-22.765137 803.97107 1286.5344 4290811315
-19.170643 803.97107 1286.5344 4290808485
-16.774311 803.97107 1286.5344 4289821590
-14.377981 803.97107 1286.5344 4288704679
-9.5853214 802.13904 1284.9897 4293453567
-23.075842 811.47858 1286.3246 4290090700
-19.097248 812.08698 1286.8374 4290412705
-4.774312 812.08698 1286.8374 4293390591
-16.658716 816.91199 1285.6736 4291993297
-2.3798165 816.91199 1285.6736 4293653759
0 817.82166 1286.4407 4293720575
-16.594496 824.05225 1285.1539 4290020566
-14.223853 824.05225 1285.1539 4292719359
-10.667891 824.05225 1285.1539 4293053178
-7.1119266 824.05225 1285.1539 4292136692
-4.7412844 824.05225 1285.1539 4290758911
-16.594496 825.86462 1286.6821 4286542752
-14.223853 825.86462 1286.6821 4289374427
-10.667891 825.86462 1286.6821 4292925439
-7.1119266 825.86462 1286.6821 4293252863
-4.7412844 825.86462 1286.6821 4292203263
-16.530275 833.86554 1286.8882 4290038271
-9.4458714 833.86554 1286.8882 4286217132
-4.7229357 832.96289 1286.1271 4290754550
-19.552294 765.94794 1288.4832 4281361373
-13.442202 765.94794 1288.4832 4293916671
-9.7761469 765.94794 1288.4832 4293982463
-24.348623 772.40302 1287.3857 4294967295
-21.913761 772.40302 1287.3857 4294967295
-24.348623 774.26447 1288.9552 4294705151
-21.913761 774.26447 1288.9552 4294310399
-19.478899 774.26447 1288.9552 4294180863
-17.044037 774.26447 1288.9552 4290826976
-19.390825 783.0769 1288.5375 4291421183
-14.543119 783.0769 1288.5375 4293591039
-16.902752 789.45898 1287.3785 4294311935
-25.257797 797.65204 1287.7466 4290811316
-21.649542 797.65204 1287.7466 4289692819
-16.838531 797.65204 1287.7466 4293377225
-31.271559 799.49109 1289.2972 4288250551
-28.866055 799.49109 1289.2972 4288374924
-25.257797 799.49109 1289.2972 4290415528
-21.649542 799.49109 1289.2972 4290810793
-16.838531 799.49109 1289.2972 4290149006
-31.152294 805.80304 1288.0791 4291403257
-26.359632 805.80304 1288.0791 4288115611
-31.152294 807.63507 1289.6239 4292783593
-28.755962 807.63507 1289.6239 4291600088
-26.359632 807.63507 1289.6239 4288573611
-7.1889906 807.63507 1289.6239 4293451519
-4.7926607 807.63507 1289.6239 4294246399
-2.3963304 807.63507 1289.6239 4293785855
-21.484404 814.82446 1289.1456 4291994619
-19.097248 814.82446 1289.1456 4292059347
0 813.91199 1288.3762 4293785855
-21.418348 820.55072 1288.7417 4289696184
-19.038532 820.55072 1288.7417 4290482137
-2.3798165 820.55072 1288.7417 4293324543
1.1899083 821.46045 1289.5088 4293259775
-16.594496 827.677 1288.2102 4285298595
-14.223853 827.677 1288.2102 4282802879
-10.667891 827.677 1288.2102 4286808537
-7.1119266 827.677 1288.2102 4293445887
-4.7412844 827.677 1288.2102 4293778431
-2.3706422 827.677 1288.2102 4294305023
-16.594496 829.48938 1289.7384 4286485199
-14.223853 829.48938 1289.7384 4284382930
-10.667891 829.48938 1289.7384 4284508587
-7.1119266 829.48938 1289.7384 4291542252
-2.3706422 829.48938 1289.7384 4294043135
-18.891743 835.6709 1288.4104 4292663807
-16.530275 835.6709 1288.4104 4292795647
-14.168807 835.6709 1288.4104 4291088383
-10.626606 835.6709 1288.4104 4286418383
-7.0844035 835.6709 1288.4104 4286814680
-4.7229357 835.6709 1288.4104 4288456420
-2.3614678 835.6709 1288.4104 4292535807
-25.976147 837.47626 1289.9326 4284047292
-22.433945 837.47626 1289.9326 4287793348
-18.891743 837.47626 1289.9326 4289175015
-16.530275 837.47626 1289.9326 4291280383
-14.168807 837.47626 1289.9326 4290889727
-10.626606 837.47626 1289.9326 4289247485
-7.0844035 837.47626 1289.9326 4288460287
-4.7229357 837.47626 1289.9326 4287671000
-2.3614678 837.47626 1289.9326 4291224063
-16.466055 841.82434 1287.0586 4290618561
-16.466055 843.62268 1288.575 4289368287
-22.161469 754.83624 1292.1943 4291676671
-19.699083 754.83624 1292.1943 4291472383
-17.236698 754.83624 1292.1943 4290946047
-14.774312 754.83624 1292.1943 4289368546
-22.078899 761.34033 1291.1383 4289579753
-19.625689 761.34033 1291.1383 4291284735
-29.438532 763.21582 1292.7196 4278202216
-22.078899 763.21582 1292.7196 4278344929
-17.172478 763.21582 1292.7196 4289848575
-24.440367 767.81641 1290.0586 4287406591
-21.99633 767.81641 1290.0586 4285498613
-19.552294 767.81641 1290.0586 4283072990
-17.108257 767.81641 1290.0586 4287415551
-13.442202 767.81641 1290.0586 4293456639
-9.7761469 767.81641 1290.0586 4294441983
-7.3321099 767.81641 1290.0586 4294113023
-4.8880734 767.81641 1290.0586 4293719551
-2.4440367 767.81641 1290.0586 4293522175
-26.884403 769.68494 1291.634 4294967295
-19.552294 769.68494 1291.634 4294246399
-17.108257 769.68494 1291.634 4290299352
-13.442202 769.68494 1291.634 4288071932
-9.7761469 769.68494 1291.634 4293587711
-7.3321099 769.68494 1291.634 4293982207
-4.8880734 769.68494 1291.634 4293719551
-2.4440367 769.68494 1291.634 4293719551
-26.783485 776.12592 1290.5248 4290302463
-13.391743 776.12592 1290.5248 4293261311
-9.7394495 776.12592 1290.5248 4291946495
-7.3045874 776.12592 1290.5248 4292867583
-26.783485 777.98743 1292.0944 4290830591
-13.391743 777.98743 1292.0944 4293524991
-9.7394495 777.98743 1292.0944 4292538367
-7.3045874 777.98743 1292.0944 4292998911
-4.8697248 777.98743 1292.0944 4293522431
-2.4348624 777.98743 1292.0944 4293588223
-24.238533 784.92993 1290.1 4293259007
-21.814678 784.92993 1290.1 4292667135
-19.390825 784.92993 1290.1 4293392383
-16.966972 784.92993 1290.1 4293655551
-14.543119 784.92993 1290.1 4293196543
-25.450459 786.78302 1291.6624 4290948590
-19.390825 786.78302 1291.6624 4294967295
-9.6954126 786.78302 1291.6624 4293523199
-31.390825 794.99713 1292.0481 4289171605
-28.976147 794.99713 1292.0481 4289890486
-25.35413 793.15112 1290.4916 4290680499
-19.31743 794.0741 1291.2698 4289498045
-4.8293576 794.99713 1292.0481 4293851903
-2.4146788 794.99713 1292.0481 4293786111
0 794.99713 1292.0481 4293720063
-36.082569 802.24963 1291.6232 4288975561
-33.677063 802.24963 1291.6232 4290681321
-31.271559 801.33008 1290.8479 4288577988
-28.866055 802.24963 1291.6232 4289628069
-7.2165136 803.16913 1292.3984 4293388287
-4.8110094 803.16913 1292.3984 4294049535
-2.4055047 802.24963 1291.6232 4293720575
-33.548622 809.46704 1291.1686 4286862227
-31.152294 809.46704 1291.1686 4288836017
-28.755962 809.46704 1291.1686 4290279631
-26.359632 809.46704 1291.1686 4293174524
-2.3963304 809.46704 1291.1686 4293653503
16.774311 809.46704 1291.1686 4293523199
-38.341286 811.29907 1292.7133 4283387016
-34.746788 811.29907 1292.7133 4284502158
-31.152294 811.29907 1292.7133 4286867367
-28.755962 811.29907 1292.7133 4288508599
-26.359632 811.29907 1292.7133 4293640447
-23.963303 811.29907 1292.7133 4293245951
2.3963304 811.29907 1292.7133 4293654271
4.7926607 811.29907 1292.7133 4293719551
14.377981 811.29907 1292.7133 4293851135
16.774311 811.29907 1292.7133 4293982719
23.963303 811.29907 1292.7133 4293982719
-26.258715 817.56201 1291.4539 4285490582
-23.871559 817.56201 1291.4539 4288050319
1.193578 817.56201 1291.4539 4293391615
4.774312 817.56201 1291.4539 4293522431
-31.033028 819.38696 1292.9927 4283651471
-28.645872 819.38696 1292.9927 4282470012
-26.258715 819.38696 1292.9927 4282470012
-23.871559 819.38696 1292.9927 4285552007
4.774312 819.38696 1292.9927 4293061631
7.161468 819.38696 1292.9927 4293325055
9.548624 819.38696 1292.9927 4293325055
-21.418348 823.27979 1291.0428 4285228205
-19.038532 823.27979 1291.0428 4285161099
-2.3798165 823.27979 1291.0428 4293979647
-21.418348 825.09918 1292.5769 4285628075
-19.038532 825.09918 1292.5769 4286614455
1.1899083 825.09918 1292.5769 4293127935
4.7596331 825.09918 1292.5769 4293325567
-33.188992 833.11414 1292.7947 4282798209
-30.818348 833.11414 1292.7947 4288982751
-28.447706 833.11414 1292.7947 4290955519
-26.077065 833.11414 1292.7947 4290232055
-22.125994 832.51001 1292.2853 4291218943
-18.965137 831.30176 1291.2666 4290564863
-14.223853 831.30176 1291.2666 4289971455
-11.853211 831.30176 1291.2666 4286023894
-7.1119266 831.30176 1291.2666 4288651474
-2.3706422 831.30176 1291.2666 4293387775
-28.337614 839.28162 1291.4548 4284239245
-25.976147 839.28162 1291.4548 4284502418
-22.433945 839.28162 1291.4548 4286279303
-18.891743 839.28162 1291.4548 4287986841
-14.168807 839.28162 1291.4548 4289441791
-10.626606 839.28162 1291.4548 4290231295
-7.0844035 839.28162 1291.4548 4291349503
-4.7229357 839.28162 1291.4548 4289178322
-2.3614678 839.28162 1291.4548 4291809785
-34.241287 841.08698 1292.9771 4291801839
-30.699083 841.08698 1292.9771 4292131061
-28.337614 841.08698 1292.9771 4291934959
-25.976147 841.08698 1292.9771 4292132595
-22.433945 841.08698 1292.9771 4292329704
-18.891743 841.08698 1292.9771 4289565409
-14.168807 841.08698 1292.9771 4287990237
-10.626606 841.08698 1292.9771 4288318443
-7.0844035 841.08698 1292.9771 4289896703
-4.7229357 841.08698 1292.9771 4289501640
-2.3614678 841.08698 1292.9771 4292527862
-25.875229 845.42102 1290.0913 4291874047
-16.466055 845.42102 1290.0913 4290553849
-14.113762 845.42102 1290.0913 4289108942
-35.284405 847.21942 1291.6075 4290428927
-28.227524 847.21942 1291.6075 4290430207
-25.875229 847.21942 1291.6075 4290167039
-22.34679 847.21942 1291.6075 4290298622
-18.818348 847.21942 1291.6075 4292202495
-16.466055 847.21942 1291.6075 4292663039
-14.113762 847.21942 1291.6075 4293582079
-32.011009 758.60126 1295.3689 4279519389
-28.317432 758.60126 1295.3689 4281168353
-24.623854 758.60126 1295.3689 4288395480
-22.161469 756.71875 1293.7816 4291677183
-19.699083 756.71875 1293.7816 4292860671
-17.236698 757.66003 1294.5752 4292599039
-13.953517 757.97382 1294.8398 4292466174
-9.8495417 758.60126 1295.3689 4294836223
-36.798164 766.02905 1295.0917 4282075036
-31.891743 766.02905 1295.0917 4284518845
-29.438532 766.02905 1295.0917 4286683081
-26.985321 765.09131 1294.301 4286096124
1.2266055 766.02905 1295.0917 4293851135
4.9064221 766.02905 1295.0917 4293654783
7.359633 766.9668 1295.8823 4294049535
-31.772476 773.42188 1294.7849 4290695145
-29.32844 773.42188 1294.7849 4289052671
-26.884403 771.55341 1293.2095 4294967295
-13.442202 771.55341 1293.2095 4289318382
-9.7761469 771.55341 1293.2095 4292996607
-7.3321099 771.55341 1293.2095 4293851647
-4.8880734 772.48767 1293.9972 4293785343
-2.4440367 772.48767 1293.9972 4293785599
0 773.42188 1294.7849 4293325055
7.3321099 773.42188 1294.7849 4293851135
-29.218349 779.84888 1293.6639 4293328895
-26.783485 779.84888 1293.6639 4292343807
-12.174312 779.84888 1293.6639 4292999167
-9.7394495 779.84888 1293.6639 4292275711
-7.3045874 779.84888 1293.6639 4292604927
-4.8697248 779.84888 1293.6639 4293128447
-2.4348624 779.84888 1293.6639 4293259775
7.3045874 779.84888 1293.6639 4293587711
-29.218349 781.71033 1295.2334 4294573311
-26.783485 781.71033 1295.2334 4293323263
-12.174312 781.71033 1295.2334 4292867839
-9.7394495 781.71033 1295.2334 4293195263
-7.3045874 781.71033 1295.2334 4293261055
-4.8697248 781.71033 1295.2334 4293457407
-2.4348624 781.71033 1295.2334 4293391615
7.3045874 781.71033 1295.2334 4293587967
9.7394495 781.71033 1295.2334 4293522431
14.609175 781.71033 1295.2334 4293523455
-26.662386 788.63611 1293.2249 4290221223
-7.2715597 788.63611 1293.2249 4293391615
-4.8477063 788.63611 1293.2249 4293522431
-2.4238532 788.63611 1293.2249 4293720063
7.2715597 788.63611 1293.2249 4293851135
16.966972 788.63611 1293.2249 4293982975
-4.8477063 790.48914 1294.7874 4293588223
-2.4238532 790.48914 1294.7874 4293720063
1.2119266 790.48914 1294.7874 4293917439
4.8477063 790.48914 1294.7874 4293457407
7.2715597 790.48914 1294.7874 4293720575
16.966972 790.48914 1294.7874 4293720063
-37.427521 796.8432 1293.6047 4287398616
-33.805504 796.8432 1293.6047 4291540458
-19.31743 796.8432 1293.6047 4291004315
-7.2440367 796.8432 1293.6047 4294308863
-4.8293576 796.8432 1293.6047 4293786367
-2.4146788 796.8432 1293.6047 4293523199
1.2073394 796.8432 1293.6047 4293391615
4.8293576 796.8432 1293.6047 4293522431
7.2440367 796.8432 1293.6047 4293588223
9.6587152 796.8432 1293.6047 4293391103
16.902752 796.8432 1293.6047 4293982463
-38.634861 798.68921 1295.1613 4284304773
-7.2440367 798.68921 1295.1613 4293849599
-4.8293576 798.68921 1295.1613 4294049791
1.2073394 798.68921 1295.1613 4293851647
4.8293576 798.68921 1295.1613 4293654271
7.2440367 798.68921 1295.1613 4293654271
9.6587152 798.68921 1295.1613 4293522431
13.280734 798.68921 1295.1613 4293720063
16.902752 798.68921 1295.1613 4293851903
19.31743 798.68921 1295.1613 4293983231
21.732111 798.68921 1295.1613 4294180607
-43.299084 806.84717 1295.4998 4283849607
-40.893578 806.84717 1295.4998 4283454849
-37.285324 805.92767 1294.7244 4284174213
-33.677063 805.00818 1293.9491 4288243876
0.80183488 806.23419 1294.9829 4293391615
4.8110094 805.92767 1294.7244 4293719807
7.2165136 805.92767 1294.7244 4293719807
9.6220188 805.92767 1294.7244 4293522431
13.230275 806.84717 1295.4998 4293588479
16.838531 805.00818 1293.9491 4293785855
19.244038 805.92767 1294.7244 4293653759
21.649542 805.92767 1294.7244 4293653759
24.055046 806.84717 1295.4998 4293851135
-34.746788 814.04712 1295.0303 4283191942
-31.152294 814.04712 1295.0303 4283650703
-28.755962 814.04712 1295.0303 4285026185
-26.359632 813.1311 1294.2579 4288838075
-23.963303 813.1311 1294.2579 4290611424
2.3963304 813.1311 1294.2579 4293457407
4.7926607 813.1311 1294.2579 4293654015
7.1889906 814.96313 1295.8027 4293785855
9.5853214 814.04712 1295.0303 4293456383
14.377981 814.04712 1295.0303 4293193471
16.774311 814.04712 1295.0303 4293390847
-31.033028 821.21198 1294.5314 4283653520
-28.645872 821.21198 1294.5314 4282865792
-26.258715 821.21198 1294.5314 4282865792
-23.871559 821.21198 1294.5314 4284767654
1.193578 821.21198 1294.5314 4293456383
4.774312 821.21198 1294.5314 4293325055
7.161468 821.21198 1294.5314 4293259263
9.548624 821.21198 1294.5314 4293259263
-21.418348 826.91858 1294.111 4286812352
-19.038532 826.91858 1294.111 4286682579
1.1899083 826.91858 1294.111 4293455871
4.7596331 826.91858 1294.111 4293325055
-34.507339 828.73798 1295.645 4282076800
-30.937614 828.73798 1295.645 4287671520
-28.557798 828.73798 1295.645 4290366975
-26.177982 828.73798 1295.645 4289051391
-23.798164 828.73798 1295.645 4288654054
1.1899083 828.73798 1295.645 4293520895
4.7596331 828.73798 1295.645 4292798975
-37.930275 836.73889 1295.851 4284435078
-34.374313 835.83264 1295.0869 4283385216
-30.818348 835.8327 1295.0869 4284371601
-28.447706 834.92651 1294.3229 4283783864
-40.144955 842.89233 1294.4993 4291413233
-37.783485 842.89233 1294.4993 4291872511
-34.241287 842.89233 1294.4993 4292464895
-30.699083 842.89233 1294.4993 4292531199
-28.337614 842.89233 1294.4993 4292071423
-22.433945 842.89233 1294.4993 4292399615
-18.891743 842.89233 1294.4993 4292198911
-10.626606 842.89233 1294.4993 4289043153
-7.0844035 842.89233 1294.4993 4288713935
-4.7229357 842.89233 1294.4993 4288186827
-2.3614678 842.89233 1294.4993 4291673599
-14.113762 849.01776 1293.1239 4292993023
-36.93578 760.48376 1296.9562 4282073750
-34.473396 760.48376 1296.9562 4278532464
-32.011009 760.48376 1296.9562 4278993015
-27.086239 760.48376 1296.9562 4278536065
-24.623854 760.48376 1296.9562 4278208460
-34.473396 762.36627 1298.5435 4278201701
-36.798164 768.84229 1297.4637 4285559705
-34.344955 768.84229 1297.4637 4290431955
-31.891743 768.84229 1297.4637 4293590015
-29.438532 768.84229 1297.4637 4294639103
1.2266055 768.84229 1297.4637 4293916927
4.9064221 768.84229 1297.4637 4294114559
7.359633 768.84229 1297.4637 4294508543
9.8128443 768.84229 1297.4637 4294311679
-40.326607 775.29034 1296.3604 4283982762
-36.660549 775.29034 1296.3604 4293455359
-34.216515 775.29034 1296.3604 4293521151
-31.772476 775.29034 1296.3604 4290757865
-29.32844 775.29034 1296.3604 4289580287
1.2220184 775.29034 1296.3604 4293719295
4.8880734 775.29034 1296.3604 4293719551
7.3321099 775.29034 1296.3604 4293587967
9.7761469 775.29034 1296.3604 4293653759
12.220183 775.29034 1296.3604 4293916671
-43.992661 777.15887 1297.9358 4279843716
-40.326607 777.15887 1297.9358 4285234628
-36.660549 777.15887 1297.9358 4291875583
-34.216515 777.15887 1297.9358 4291285247
-31.772476 777.15887 1297.9358 4293653759
1.2220184 777.15887 1297.9358 4293521919
4.8880734 777.15887 1297.9358 4293192959
9.7761469 777.15887 1297.9358 4293653503
12.220183 777.15887 1297.9358 4293719551
-31.653212 784.50256 1297.5878 4289692831
-29.218349 784.50256 1297.5878 4288774573
-7.3045874 783.57184 1296.803 4293457407
-4.8697248 783.57184 1296.803 4293457407
-2.4348624 783.57184 1296.803 4293457407
1.2174312 784.50256 1297.5878 4293785855
4.8697248 784.50256 1297.5878 4293719551
7.3045874 783.57184 1296.803 4293522431
9.7394495 784.50256 1297.5878 4293457407
13.391743 784.50256 1297.5878 4293457407
-41.205505 794.19525 1297.9122 4283717253
-33.933945 792.34216 1296.3497 4290158500
2.4238532 792.34216 1296.3497 4293982975
4.8477063 792.34216 1296.3497 4293916927
7.2715597 792.34216 1296.3497 4294114303
9.6954126 792.34216 1296.3497 4293654271
13.331194 793.26868 1297.131 4293719551
16.966972 792.34216 1296.3497 4293850879
19.390825 793.26868 1297.131 4293785855
21.814678 794.19525 1297.9122 4293786111
-43.464222 800.53528 1296.7178 4283059069
-41.049541 800.53528 1296.7178 4283519620
-38.634861 800.53528 1296.7178 4284303743
1.2073394 800.53528 1296.7178 4293523455
4.8293576 800.53528 1296.7178 4293457407
7.2440367 800.53528 1296.7178 4293523199
9.6587152 800.53528 1296.7178 4293325823
13.280734 800.53528 1296.7178 4293522687
16.902752 800.53528 1296.7178 4293720063
19.31743 800.53528 1296.7178 4293523455
21.732111 800.53528 1296.7178 4293457407
-43.464222 802.38135 1298.2743 4283322757
-41.049541 802.38135 1298.2743 4283585928
2.4146788 802.38135 1298.2743 4293457407
13.280734 802.38135 1298.2743 4293654271
24.14679 802.38135 1298.2743 4293654271
-43.299084 808.68622 1297.0503 4284507780
-40.893578 808.68622 1297.0503 4283389556
7.2165136 808.68622 1297.0503 4293522175
9.6220188 808.68622 1297.0503 4293521919
12.027523 808.68622 1297.0503 4293982463
19.244038 808.68622 1297.0503 4293916927
21.649542 808.68622 1297.0503 4293916927
-43.299084 810.52527 1298.601 4284311954
-40.893578 810.52527 1298.601 4282798459
-38.488075 810.52527 1298.601 4282404218
7.2165136 810.52527 1298.601 4293588223
12.027523 810.52527 1298.601 4293391103
19.244038 810.52527 1298.601 4293588223
21.649542 810.52527 1298.601 4293654015
-43.133945 817.71118 1298.1198 4284772001
-40.737614 818.62714 1298.8921 4283324042
-38.341286 817.71118 1298.1198 4283388289
-34.746788 817.71112 1298.1198 4283454599
11.981651 817.71118 1298.1198 4293390847
16.774311 816.79517 1297.3474 4293521919
-57.291744 823.03699 1296.0702 4283917460
-40.58165 824.862 1297.609 4283652221
-38.194496 824.862 1297.609 4283258510
-34.613762 823.94946 1296.8396 4282601093
-31.033028 823.94946 1296.8396 4286023869
-28.645872 823.94946 1296.8396 4287075811
-26.258715 823.94946 1296.8396 4286154709
-23.871559 823.94946 1296.8396 4285562284
7.161468 823.94946 1296.8396 4293325311
9.548624 823.03699 1296.0702 4292931071
-40.456882 830.55737 1297.1791 4283388300
-38.077065 830.55737 1297.1791 4283323010
-35.697247 830.55737 1297.1791 4283191168
1.1899083 830.55737 1297.1791 4293521407
4.7596331 830.55737 1297.1791 4293061119
7.1394496 830.55737 1297.1791 4293126911
-40.456882 832.37677 1298.7131 4282598529
-38.077065 832.37677 1298.7131 4282402170
1.1899083 832.37677 1298.7131 4293061119
4.7596331 832.37677 1298.7131 4293061119
7.1394496 832.37677 1298.7131 4293258495
9.5192661 832.37677 1298.7131 4293193215
-40.300919 838.55127 1297.3792 4290881495
-37.930275 838.55127 1297.3792 4291406567
0 838.55127 1297.3792 4292468991
-52.154129 840.36365 1298.9072 4288912361
-49.783485 840.36365 1298.9072 4289570290
-46.227524 840.36365 1298.9072 4290755305
-42.671558 840.36365 1298.9072 4291084268
0 840.36365 1298.9072 4292665855
7.1119266 840.36365 1298.9072 4293324799
-40.144955 844.69769 1296.0215 4290364919
-37.783485 844.69769 1296.0215 4290560511
-33.060551 844.69769 1296.0215 4290166271
-30.699083 844.69769 1296.0215 4290495487
-10.626606 844.69769 1296.0215 4293582591
-7.0844035 844.69769 1296.0215 4291543790
-4.7229357 844.69769 1296.0215 4287400920
-2.3614678 844.69769 1296.0215 4290164223
-40.144955 846.50305 1297.5438 4290628348
-37.783485 846.50305 1297.5438 4290364156
-35.42202 846.50305 1297.5438 4290166521
-28.337614 846.50305 1297.5438 4290692351
-25.976147 846.50305 1297.5438 4290626559
-22.433945 846.50305 1297.5438 4290429183
-18.891743 846.50305 1297.5438 4291742975
-16.530275 846.50305 1297.5438 4292598271
-10.626606 846.50305 1297.5438 4293058559
-7.0844035 846.50305 1297.5438 4292992511
-4.7229357 846.50305 1297.5438 4290952959
-2.3614678 846.50305 1297.5438 4290229247
-37.073395 755.86212 1299.5995 4280758903
-34.601833 755.86212 1299.5995 4278199417
-39.544952 757.75165 1301.1926 4287073762
-34.473396 764.24878 1300.1307 4283528094
-44.322937 766.13135 1301.718 4288453577
-40.629356 766.13135 1301.718 4287335606
-44.157799 770.71783 1299.0452 4283194793
-40.477982 770.71783 1299.0452 4283586208
-36.798164 770.71783 1299.0452 4292201471
-34.344955 770.71783 1299.0452 4293589759
2.4532111 770.71783 1299.0452 4293785599
4.9064221 770.71783 1299.0452 4293916927
9.8128443 770.71783 1299.0452 4293653759
12.266055 770.71783 1299.0452 4293982719
-46.611008 772.59332 1300.6265 4282343570
-44.157799 772.59332 1300.6265 4282865829
-43.992661 779.02734 1299.5114 4279776878
-40.326607 779.02734 1299.5114 4286812118
-36.660549 779.02734 1299.5114 4290689791
-34.216515 779.02734 1299.5114 4291741149
-31.772476 779.02734 1299.5114 4294967295
1.2220184 779.02734 1299.5114 4293719551
4.8880734 779.02734 1299.5114 4293587967
12.220183 779.02734 1299.5114 4293588223
-43.992661 780.89581 1301.0868 4281155185
-40.326607 780.89581 1301.0868 4288388062
-36.660549 780.89581 1301.0868 4288647138
-34.216515 780.89581 1301.0868 4288969121
-34.088074 787.2948 1299.942 4287722111
-31.653212 787.2948 1299.942 4289037714
-29.218349 787.2948 1299.942 4289694115
9.7394495 787.2948 1299.942 4293720063
13.391743 787.2948 1299.942 4293720063
-43.827522 789.15625 1301.5116 4281418355
-41.392662 789.15625 1301.5116 4283392145
-37.740364 789.15625 1301.5116 4288054775
-43.629356 796.04828 1299.4746 4283124862
-41.205505 796.04828 1299.4746 4283453826
-43.299084 812.36426 1300.1516 4284640152
-40.893578 812.36426 1300.1516 4282995070
-38.488075 812.36426 1300.1516 4282666873
12.027523 812.36426 1300.1516 4293521919
19.244038 812.36426 1300.1516 4293521919
21.649542 812.36426 1300.1516 4293719551
-40.893578 814.20331 1301.7021 4283127946
14.433027 814.20331 1301.7021 4293456127
19.244038 814.20331 1301.7021 4293456127
21.649542 814.20331 1301.7021 4293587711
-59.908257 820.45917 1300.4368 4284114069
-43.133945 820.45917 1300.4368 4284575138
-40.737614 820.45917 1300.4368 4283193485
-38.341286 820.45917 1300.4368 4283454345
11.981651 820.45917 1300.4368 4293128703
-58.710091 822.2912 1301.9814 4284311703
-52.719265 822.2912 1301.9814 4284113556
-45.530273 822.2912 1301.9814 4285231004
-43.133945 822.2912 1301.9814 4284770959
10.783486 822.2912 1301.9814 4293128191
-42.968807 826.68701 1299.1478 4283651471
-40.58165 826.68701 1299.1478 4283585678
-38.194496 826.68701 1299.1478 4283192967
7.161468 826.68701 1299.1478 4292996607
-42.968807 828.51196 1300.6866 4283651471
9.548624 828.51196 1300.6866 4293193215
-52.355965 836.0155 1301.7812 4287985851
-49.976147 836.0155 1301.7812 4288512195
-46.406422 836.0155 1301.7812 4289041868
-42.836697 836.0155 1301.7812 4290355151
-40.456882 834.19617 1300.2472 4284304775
1.5865444 834.80255 1300.7585 4293192447
4.7596331 835.10583 1301.0142 4293192959
7.1394496 835.10583 1301.0142 4293127167
9.5192661 835.10583 1301.0142 4292865023
19.038532 835.10583 1301.0142 4293061631
21.418348 834.19617 1300.2472 4292930303
-52.154129 842.17603 1300.4354 4291217663
-49.783485 842.17603 1300.4354 4292270591
-46.227524 842.17603 1300.4354 4291744509
-42.671558 842.17603 1300.4354 4290299126
1.1853211 842.17603 1300.4354 4293124863
4.7412844 842.17603 1300.4354 4293192703
7.1119266 842.17603 1300.4354 4293389823
10.667891 842.17603 1300.4354 4292799743
-52.154129 843.9884 1301.9636 4292007423
-49.783485 843.9884 1301.9636 4293060095
-46.227524 843.9884 1301.9636 4291613435
-42.671558 843.9884 1301.9636 4290364919
-33.188992 843.9884 1301.9636 4290035442
-30.818348 843.9884 1301.9636 4290627578
1.1853211 843.9884 1301.9636 4292468223
4.7412844 843.9884 1301.9636 4292930047
7.1119266 843.9884 1301.9636 4293324799
10.667891 843.9884 1301.9636 4293062399
-35.42202 848.30841 1299.066 4288852210
-28.337614 848.30841 1299.066 4289113838
-25.976147 848.30841 1299.066 4289705974
-22.433945 848.30841 1299.066 4290823162
-18.891743 848.30841 1299.066 4291481855
-16.530275 848.30841 1299.066 4291745279
-14.168807 848.30841 1299.066 4291548927
-11.80734 848.30841 1299.066 4290364669
-46.959633 761.5307 1304.379 4288324498
-43.252296 760.58594 1303.5824 4289570553
-39.544952 760.58594 1303.5825 4287469805
-51.710091 769.89636 1304.8926 4283653516
-49.247707 769.89636 1304.8926 4280567160
-46.78532 768.01379 1303.3053 4282868590
-51.517429 776.34436 1303.7893 4284442016
-49.06422 776.34436 1303.7893 4280894589
-46.611008 775.40662 1302.9985 4280960119
-46.436699 782.76428 1302.6622 4281287285
-43.992661 782.76428 1302.6622 4280631921
-40.326607 782.76428 1302.6622 4288061152
-36.660549 782.76428 1302.6622 4287923932
-34.216515 782.76428 1302.6622 4288245373
-46.436699 784.63281 1304.2377 4282008949
-43.992661 784.63281 1304.2377 4280173167
-40.326607 784.63281 1304.2377 4286747348
-36.660549 784.63281 1304.2377 4288255212
-46.262386 791.0177 1303.0812 4282273652
-43.827522 791.0177 1303.0812 4282993273
-46.262386 792.87921 1304.6508 4282797416
-45.704586 816.96185 1304.0281 4285034912
14.433027 816.96185 1304.0281 4293456639
16.838531 816.96185 1304.0281 4293654015
-57.511925 824.12317 1303.5262 4284049044
-46.728439 824.12317 1303.5262 4283456139
9.5853214 824.12317 1303.5262 4292996607
-42.968807 830.33698 1302.2253 4282796164
11.93578 830.33698 1302.2253 4293325055
19.097248 830.33698 1302.2253 4293455871
21.484404 830.33698 1302.2253 4293192959
-52.517429 832.16199 1303.7642 4284895879
-45.355965 832.16199 1303.7642 4283318911
-42.968807 832.16199 1303.7642 4283844224
11.93578 832.16199 1303.7642 4293259007
16.710093 832.16199 1303.7642 4293325055
-58.305504 839.6543 1304.8494 4291350266
-54.735779 839.6543 1304.8494 4290759412
2.3798165 837.8349 1303.3153 4293389311
4.7596331 837.8349 1303.3153 4293127423
10.709174 837.8349 1303.3153 4293062399
14.278899 839.6543 1304.8494 4293193215
16.658716 838.74463 1304.0823 4293193215
19.038532 838.74463 1304.0823 4293258751
22.211622 839.04785 1304.338 4293127423
-49.783485 845.80078 1303.4917 4291679743
-46.227524 845.80078 1303.4917 4290497279
-42.671558 845.80078 1303.4917 4288526327
-40.300919 845.80078 1303.4917 4288855292
-37.930275 845.80078 1303.4917 4289312761
-33.188992 845.80078 1303.4917 4289048295
-30.818348 845.80078 1303.4917 4289048295
-9.4825687 845.80078 1303.4917 4290034423
-7.1119266 845.80078 1303.4917 4291218687
-4.7412844 845.80078 1303.4917 4293124863
-2.3706422 845.80078 1303.4917 4293388031
4.7412844 845.80078 1303.4917 4292535551
7.1119266 845.80078 1303.4917 4292864511
10.667891 845.80078 1303.4917 4292733951
-46.959633 763.42023 1305.9723 4285041346
-51.902752 765.30975 1307.5654 4283849614
-49.431194 765.30975 1307.5654 4280894800
-51.710091 771.77887 1306.4799 4284376473
-49.247707 771.77887 1306.4799 4281025394
-51.517429 778.21985 1305.3706 4283654561
-49.06422 778.21985 1305.3706 4281092220
-46.611008 778.21985 1305.3706 4280894841
-52.744034 780.09534 1306.952 4284969103
-49.06422 780.09534 1306.952 4281813629
-52.546791 787.43549 1306.6008 4283126405
-48.880733 787.43555 1306.6008 4282404217
-46.436699 786.50128 1305.8131 4282337658
-46.262386 794.74066 1306.2202 4282667125
-46.262386 796.60217 1307.7898 4282864002
19.31743 813.45758 1307.6135 4293916927
21.732111 813.45758 1307.6135 4293916927
-60.137615 821.55945 1307.9047 4284245142
13.631192 820.94647 1307.3878 4292931071
16.838531 820.63989 1307.1294 4292996863
-52.719265 827.78723 1306.6156 4285356430
-50.322937 827.78723 1306.6156 4284632706
-46.329052 827.17657 1306.1007 4283583623
11.981651 825.9552 1305.0709 4293719551
14.377981 827.78723 1306.6156 4293259775
16.774311 826.87122 1305.8433 4293193983
11.93578 833.987 1305.303 4292931071
14.322936 833.987 1305.303 4293127423
16.710093 833.987 1305.303 4293193215
21.484404 833.987 1305.303 4293061631
14.322936 835.81201 1306.8418 4293259263
-54.735779 841.47369 1306.3834 4291416061
14.278899 841.47369 1306.3834 4293193215
16.658716 841.47369 1306.3834 4293127423
19.038532 841.47369 1306.3834 4293126911
22.608257 841.47369 1306.3834 4293258495
26.177982 841.47369 1306.3834 4293587711
-57.115597 843.29309 1307.9175 4291155199
-54.735779 843.29309 1307.9175 4291220991
-52.355965 843.29309 1307.9175 4291613951
1.1899083 843.29309 1307.9175 4293126143
14.278899 843.29309 1307.9175 4292667391
16.658716 843.29309 1307.9175 4292864767
19.038532 843.29309 1307.9175 4292930047
22.608257 843.29309 1307.9175 4293456383
26.177982 843.29309 1307.9175 4293390079
-46.227524 847.61316 1305.0199 4290954742
-42.671558 847.61316 1305.0199 4289574906
-40.300919 847.61316 1305.0199 4289969407
-37.930275 847.61316 1305.0199 4289377524
-35.559631 847.61316 1305.0199 4288653802
-28.447706 847.61316 1305.0199 4288784861
-26.077065 847.61316 1305.0199 4289245412
-22.521101 847.61316 1305.0199 4290363123
-18.965137 847.61316 1305.0199 4291679999
-16.594496 847.61316 1305.0199 4292206591
-14.223853 847.61316 1305.0199 4291811583
-10.667891 847.61316 1305.0199 4290167034
-7.1119266 847.61316 1305.0199 4290430463
-4.7412844 847.61316 1305.0199 4292140274
-2.3706422 847.61316 1305.0199 4293916671
4.7412844 847.61316 1305.0199 4293192703
7.1119266 847.61316 1305.0199 4293061119
9.4825687 847.61316 1305.0199 4292864767
-47.412846 849.42554 1306.5481 4289109985
-42.671558 849.42554 1306.5481 4289506530
-40.300919 849.42554 1306.5481 4289638117
-37.930275 849.42554 1306.5481 4289442802
-35.559631 849.42554 1306.5481 4288982251
-11.853211 849.42554 1306.5481 4290233087
-7.1119266 849.42554 1306.5481 4289707255
-2.3706422 849.42554 1306.5481 4288987132
7.1119266 849.42554 1306.5481 4293061119
-52.744034 781.97083 1308.5333 4282601363
-49.06422 781.97083 1308.5333 4282732416
-52.546791 790.23828 1308.9641 4283191422
-48.880733 790.23828 1308.9641 4282863209
-51.324772 792.10675 1310.5396 4283323008
19.31743 815.30359 1309.17 4293325055
19.31743 817.14966 1310.7266 4293259775
21.732111 817.14966 1310.7266 4293457151
-57.732109 823.39844 1309.4553 4285031316
-52.921101 823.39844 1309.4553 4284374163
-49.312843 823.39844 1309.4553 4283848335
14.433027 823.39844 1309.4553 4293128447
19.244038 823.39844 1309.4553 4293259263
21.649542 823.39844 1309.4553 4293259263
-50.322937 829.61926 1308.1604 4284237948
-47.926605 829.61926 1308.1604 4283647876
14.377981 829.61926 1308.1604 4293259263
-57.511925 831.45123 1309.7051 4286274451
-55.115597 831.45123 1309.7051 4286866589
26.258715 837.63696 1308.3806 4293193215
-58.305504 845.11249 1309.4515 4290955507
-52.355965 845.11249 1309.4515 4291678204
-49.976147 845.11249 1309.4515 4291875583
-33.317432 845.11249 1309.4515 4288455907
-30.937614 845.11249 1309.4515 4288455907
1.1899083 845.11249 1309.4515 4294113279
11.899082 845.11249 1309.4515 4292930559
14.278899 845.11249 1309.4515 4292864767
16.658716 845.11249 1309.4515 4292996607
19.038532 845.11249 1309.4515 4293192959
22.608257 845.11249 1309.4515 4293587711
26.177982 845.11249 1309.4515 4293456127
28.557798 845.11249 1309.4515 4292601599
-49.976147 846.93188 1310.9856 4289176034
-45.216515 846.93188 1310.9856 4289241828
-21.418348 846.93188 1310.9856 4287601600
-19.038532 846.93188 1310.9856 4289705711
-16.658716 846.93188 1310.9856 4290297848
-14.278899 846.93188 1310.9856 4290101503
-9.5192661 846.93188 1310.9856 4290167806
-4.7596331 846.93188 1310.9856 4287934188
1.1899083 846.93188 1310.9856 4292863231
4.7596331 846.93188 1310.9856 4293587455
10.709174 846.93188 1310.9856 4292470527
14.278899 846.93188 1310.9856 4292732415
16.658716 846.93188 1310.9856 4292863999
19.038532 846.93188 1310.9856 4292798463
22.608257 846.93188 1310.9856 4292798463
26.177982 846.93188 1310.9856 4292864255
28.557798 846.93188 1310.9856 4292732671
-9.4825687 851.23792 1308.0762 4291023615
21.814678 812.72583 1313.5366 4293587967
-55.537613 818.99573 1312.2831 4283785871
-53.122936 818.99573 1312.2831 4283457940
19.31743 818.99573 1312.2831 4293259775
21.732111 818.99573 1312.2831 4293128447
-60.366974 820.84174 1313.8396 4285031316
-55.537613 820.84174 1313.8396 4284899474
-54.904587 843.112 1312.9969 4291810035
-47.596329 848.75128 1312.5198 4288649929
-42.836697 848.75128 1312.5198 4288649936
-40.456882 848.75128 1312.5198 4289373916
-7.1394496 848.75128 1312.5198 4289839344
-4.7596331 848.75128 1312.5198 4288854258
-2.3798165 848.75128 1312.5198 4288591087
4.7596331 848.75128 1312.5198 4293653247
7.1394496 848.75128 1312.5198 4292797951
9.5192661 848.75128 1312.5198 4292666623
28.557798 848.75128 1312.5198 4292666623
-57.952293 822.68774 1315.3962 4286077842
-55.537613 822.68774 1315.3962 4286012049
-57.732109 830.75458 1315.6578 4287004864
-55.326607 830.75458 1315.6578 4288518359
-62.304588 836.94727 1314.3391 4291151359
-58.710091 836.94727 1314.3391 4292270591
-64.70092 838.7793 1315.8839 4290758133
-62.304588 838.7793 1315.8839 4289838073
-59.908257 838.7793 1315.8839 4291022591
-58.485321 844.93701 1314.5358 4290362101
-54.904587 844.93701 1314.5358 4289834728
-52.517429 844.93701 1314.5358 4289307621
-33.420185 844.93701 1314.5358 4288193249
-31.033028 844.93701 1314.5358 4287995869
-28.645872 844.93701 1314.5358 4287337662
-26.258715 844.93701 1314.5358 4287271869
-23.871559 844.93701 1314.5358 4285496224
-58.485321 846.76196 1316.0745 4289902589
-54.904587 846.76196 1316.0745 4289375476
-52.517429 846.76196 1316.0745 4289111271
-50.130276 846.76196 1316.0745 4288387804
-45.355965 846.76196 1316.0745 4288649929
-38.194496 846.76196 1316.0745 4289178349
-34.613762 846.76196 1316.0745 4289047024
-31.033028 846.76196 1316.0745 4288126441
-26.258715 846.76196 1316.0745 4287536057
-22.677982 846.76196 1316.0745 4286551437
-19.097248 846.76196 1316.0745 4288786907
-16.710093 846.76196 1316.0745 4289642216
-14.322936 846.76196 1316.0745 4290233599
-11.93578 846.76196 1316.0745 4291088895
1.193578 846.76196 1316.0745 4290893311
11.93578 846.76196 1316.0745 4292666623
14.322936 846.76196 1316.0745 4292666623
16.710093 846.76196 1316.0745 4292798207
19.097248 846.76196 1316.0745 4292798975
22.677982 846.76196 1316.0745 4292732927
26.258715 846.76196 1316.0745 4292798463
-42.836697 850.57068 1314.0537 4288123070
28.557798 850.57068 1314.0537 4292141311
-63.020184 820.13806 1319.7865 4286213535
-60.596329 820.13806 1319.7865 4285621398
-67.097244 842.44336 1318.9733 4290036223
-64.70092 841.52734 1318.2009 4290232573
-62.304588 841.52734 1318.2009 4290560504
-58.485321 848.58698 1317.6133 4289639931
-54.904587 848.58698 1317.6133 4290362110
-52.517429 848.58698 1317.6133 4290559469
-50.130276 848.58698 1317.6133 4289309658
-47.743118 848.58698 1317.6133 4289373395
-16.710093 848.58698 1317.6133 4291809533
-9.548624 848.58698 1317.6133 4291352831
-7.161468 848.58698 1317.6133 4290234111
-4.774312 848.58698 1317.6133 4289182706
-2.387156 848.58698 1317.6133 4288459239
4.774312 848.58698 1317.6133 4292142335
7.161468 848.58698 1317.6133 4292537087
9.548624 848.58698 1317.6133 4292798207
16.710093 848.58698 1317.6133 4292798719
19.097248 848.58698 1317.6133 4292864767
22.677982 848.58698 1317.6133 4292798975
26.258715 848.58698 1317.6133 4292667647
-59.678898 850.41199 1319.1521 4289312763
26.258715 850.41199 1319.1521 4292798463
28.645872 850.41199 1319.1521 4292798975
-63.020184 821.99109 1321.3489 4286015381
-60.596329 821.99109 1321.3489 4285357195
-58.172478 821.99109 1321.3489 4285683598
-55.748623 821.99109 1321.3489 4285683598
-63.020184 823.84412 1322.9114 4284502651
-60.596329 823.84412 1322.9114 4284568444
-67.097244 844.27539 1320.5181 4290824703
-64.70092 844.27539 1320.5181 4290956543
-62.304588 844.27539 1320.5181 4290166271
-28.755962 844.27539 1320.5181 4287799229
-67.097244 846.10736 1322.0627 4292404735
-64.70092 846.10736 1322.0627 4290628344
-62.304588 846.10736 1322.0627 4289312511
-45.530273 846.10736 1322.0627 4288781515
-40.737614 846.10736 1322.0627 4289109965
-38.341286 846.10736 1322.0627 4288913628
-34.746788 846.10736 1322.0627 4290165492
-31.152294 846.10736 1322.0627 4289377772
-28.755962 846.10736 1322.0627 4288588761
-26.359632 846.10736 1322.0627 4287865294
-22.765137 846.10736 1322.0627 4288063684
-19.170643 846.10736 1322.0627 4291217653
-14.377981 846.10736 1322.0627 4291877631
-11.981651 846.10736 1322.0627 4291811839
1.1981652 846.10736 1322.0627 4289709303
11.981651 846.10736 1322.0627 4292732415
14.377981 846.10736 1322.0627 4292535807
-59.678898 852.237 1320.6909 4290562047
-67.097244 847.93939 1323.6074 4292798207
-64.70092 847.93939 1323.6074 4290693108
-62.304588 847.93939 1323.6074 4289115384
-57.511925 847.93939 1323.6074 4289837821
-55.115597 847.93939 1323.6074 4290035455
-52.719265 847.93939 1323.6074 4290100705
-50.322937 847.93939 1323.6074 4289179603
-46.728439 847.93939 1323.6074 4288717005
-43.133945 847.93939 1323.6074 4288585167
-40.737614 847.93939 1323.6074 4289045718
-22.765137 847.93939 1323.6074 4292205034
-19.170643 847.93939 1323.6074 4292468735
-16.774311 847.93939 1323.6074 4292665855
-14.377981 847.93939 1323.6074 4292074239
-10.783486 847.93939 1323.6074 4291746047
-7.1889906 847.93939 1323.6074 4290693887
-4.7926607 847.93939 1323.6074 4289905141
-2.3963304 847.93939 1323.6074 4288786403
4.7926607 847.93939 1323.6074 4292075007
7.1889906 847.93939 1323.6074 4292996095
14.377981 847.93939 1323.6074 4292930047
16.774311 847.93939 1323.6074 4292930047
19.170643 847.93939 1323.6074 4292864255
22.765137 847.93939 1323.6074 4292864255
-64.70092 849.77142 1325.1521 4290694399
-62.304588 849.77142 1325.1521 4290627839
-57.511925 849.77142 1325.1521 4289904895
-46.728439 849.77142 1325.1521 4288388818
-16.774311 849.77142 1325.1521 4291810559
-14.377981 849.77142 1325.1521 4290629375
-10.783486 849.77142 1325.1521 4290694143
-7.1889906 849.77142 1325.1521 4290627583
-4.7926607 849.77142 1325.1521 4290234111
-2.3963304 849.77142 1325.1521 4288786669
22.765137 849.77142 1325.1521 4292864255
26.359632 849.77142 1325.1521 4293061375
28.755962 849.77142 1325.1521 4292733951
-37.285324 845.4668 1328.0627 4289508070
-33.677063 845.4668 1328.0627 4290691574
-31.271559 845.4668 1328.0627 4290757367
-28.866055 845.4668 1328.0627 4290559734
-26.46055 845.4668 1328.0627 4290230769
1.2027524 845.4668 1328.0627 4289380858
9.6220188 845.4668 1328.0627 4293258495
12.027523 845.4668 1328.0627 4293192703
-67.097244 851.60339 1326.6968 4290627839
-64.70092 851.60339 1326.6968 4291285503
-62.304588 851.60339 1326.6968 4290825983
-59.908257 851.60339 1326.6968 4290299647
-9.5853214 851.60339 1326.6968 4290955514
-7.1889906 851.60339 1326.6968 4290363121
26.359632 851.60339 1326.6968 4292799487
28.755962 851.60339 1326.6968 4292667903
31.152294 851.60339 1326.6968 4292602111
-64.70092 853.43542 1328.2416 4290627583
-62.304588 853.43542 1328.2416 4289249791
26.359632 853.43542 1328.2416 4292405503
-55.326607 847.30579 1329.6134 4288983800
-52.921101 847.30579 1329.6134 4287932130
-50.515594 847.30579 1329.6134 4287866337
-43.299084 847.30579 1329.6134 4290427882
-40.893578 847.30579 1329.6134 4289901538
-36.082569 847.30579 1329.6134 4290100966
-33.677063 847.30579 1329.6134 4290428664
-31.271559 847.30579 1329.6134 4290297078
-28.866055 847.30579 1329.6134 4290689524
-25.257797 847.30579 1329.6134 4292005887
-21.649542 847.30579 1329.6134 4292730111
-19.244038 847.30579 1329.6134 4292271103
1.2027524 847.30579 1329.6134 4289380343
4.8110094 847.30579 1329.6134 4291877631
7.2165136 847.30579 1329.6134 4292601343
9.6220188 847.30579 1329.6134 4292601343
13.230275 847.30579 1329.6134 4292667135
16.838531 847.30579 1329.6134 4292930047
19.244038 847.30579 1329.6134 4292469759
-57.732109 849.14484 1331.1641 4288985343
-55.326607 849.14484 1331.1641 4287801071
-52.921101 849.14484 1331.1641 4288128741
-49.312843 849.14484 1331.1641 4288390621
-45.704586 849.14484 1331.1641 4290297582
-43.299084 849.14484 1331.1641 4290035194
-24.055046 849.14484 1331.1641 4291612159
-21.649542 849.14484 1331.1641 4291414526
-19.244038 849.14484 1331.1641 4290757119
-16.838531 849.14484 1331.1641 4290625791
-13.230275 849.14484 1331.1641 4291086079
-4.8110094 849.14484 1331.1641 4289181183
-2.4055047 849.14484 1331.1641 4288194296
14.433027 849.14484 1331.1641 4292470271
16.838531 849.14484 1331.1641 4292799487
19.244038 849.14484 1331.1641 4292602111
21.649542 849.14484 1331.1641 4292536319
24.055046 849.14484 1331.1641 4292536319
-38.634861 844.84027 1334.0746 4289508829
-60.137615 850.98389 1332.7146 4286749667
-57.732109 850.98389 1332.7146 4285107408
-55.326607 850.98389 1332.7146 4287146734
-48.110092 850.98389 1332.7146 4290692604
-45.704586 850.98389 1332.7146 4290495224
-21.649542 850.98389 1332.7146 4290494970
-19.244038 850.98389 1332.7146 4288783855
-16.838531 850.98389 1332.7146 4289047026
-13.230275 850.98389 1332.7146 4290030837
-9.6220188 850.98389 1332.7146 4290098418
-7.2165136 850.98389 1332.7146 4290098418
-4.8110094 850.98389 1332.7146 4288917494
-2.4055047 850.98389 1332.7146 4288654065
19.244038 850.98389 1332.7146 4292471039
21.649542 850.98389 1332.7146 4292405247
24.055046 850.98389 1332.7146 4291879167
-16.838531 852.82288 1334.2653 4288718062
-12.027523 852.82288 1334.2653 4290230008
-9.6220188 852.82288 1334.2653 4289837549
-7.2165136 852.82288 1334.2653 4289639913
-2.4055047 852.82288 1334.2653 4289839103
25.257797 852.82288 1334.2653 4292798975
-53.122936 848.53235 1337.1876 4288983017
-50.708256 848.53235 1337.1876 4290298876
-43.464222 848.53235 1337.1876 4289378295
-41.049541 847.60938 1336.4094 4288456678
-37.025074 847.3017 1336.1499 4289181151
-33.805504 847.60938 1336.4094 4290494203
-31.390825 847.60938 1336.4094 4290493946
-28.976147 847.60938 1336.4094 4290756085
-25.756577 847.91699 1336.6688 4291348989
1.2073394 847.60931 1336.4094 4290102266
4.8293576 847.60938 1336.4094 4291943423
7.2440367 847.60938 1336.4094 4292403967
9.6587152 847.60938 1336.4094 4292470015
12.878288 847.91699 1336.6688 4292272895
16.902752 848.53235 1337.1876 4292667647
-7.2165136 854.66193 1335.8159 4289444590
-4.8110094 854.66193 1335.8159 4289641199
26.46055 854.66193 1335.8159 4292338943
26.46055 856.50098 1337.3665 4292338943
-60.366974 850.37842 1338.7441 4286222289
-57.952293 850.37842 1338.7441 4286485197
-19.31743 850.37842 1338.7441 4288849648
-14.488073 850.37842 1338.7441 4289045478
-4.8293576 850.37842 1338.7441 4289312763
1.2073394 850.37842 1338.7441 4291286015
4.8293576 850.37842 1338.7441 4292207103
7.2440367 850.37842 1338.7441 4292272895
9.6587152 850.37842 1338.7441 4292338687
13.280734 850.37842 1338.7441 4292009727
16.902752 850.37842 1338.7441 4292733439
19.31743 850.37842 1338.7441 4292798975
21.732111 850.37842 1338.7441 4292798975
-60.366974 852.22449 1340.3008 4288521962
-12.073395 852.22449 1340.3008 4291217919
-9.6587152 852.22449 1340.3008 4290760447
-2.4146788 852.22449 1340.3008 4290891263
13.280734 852.22449 1340.3008 4292075775
16.902752 852.22449 1340.3008 4292272895
19.31743 852.22449 1340.3008 4292337407
21.732111 852.22449 1340.3008 4292600575
24.14679 852.22449 1340.3008 4292338943
-53.324772 847.93384 1343.2231 4289508327
-49.688992 847.93384 1343.2231 4290955261
-46.053211 847.93384 1343.2231 4290559999
-38.781651 846.08081 1341.6608 4287142598
-24.238533 847.93384 1343.2231 4291218430
-12.073395 854.0705 1341.8573 4291022591
-9.6587152 854.0705 1341.8573 4290890751
-7.2440367 854.0705 1341.8573 4289903857
-4.8293576 854.0705 1341.8573 4290495726
-2.4146788 854.0705 1341.8573 4292008959
14.488073 854.0705 1341.8573 4292207103
19.31743 854.0705 1341.8573 4292337407
21.732111 854.0705 1341.8573 4292600575
24.14679 854.0705 1341.8573 4292272895
19.31743 855.91656 1343.4138 4292206591
21.732111 855.91656 1343.4138 4292337919
24.14679 855.91656 1343.4138 4292009471
-16.966972 850.7135 1345.5669 4288653030
-14.543119 850.7135 1345.5669 4288455657
1.2119266 850.71344 1345.5669 4292206079
4.8477063 850.7135 1345.5669 4292141311
7.2715597 850.7135 1345.5669 4292207103
9.6954126 850.7135 1345.5669 4292141823
12.119267 851.64001 1346.3481 4292404991
16.966972 851.64001 1346.3481 4292141311
19.31743 857.76257 1344.9703 4292207103
21.732111 857.76257 1344.9703 4292338687
-56.001835 845.00043 1348.598 4288327401
-43.827522 845.00043 1348.598 4289706224
-41.392662 845.00043 1348.598 4288258778
-37.740364 845.00043 1348.598 4288721632
-34.088074 845.00043 1348.598 4290494719
-31.653212 845.00043 1348.598 4291350015
-29.218349 845.00043 1348.598 4290757619
-26.783485 845.00043 1348.598 4290625777
-21.913761 845.00043 1348.598 4290494963
-13.331193 853.49304 1347.9105 4289970416
-9.6954126 853.49304 1347.9105 4290364154
-7.2715597 853.49304 1347.9105 4290758911
-4.8477063 853.49304 1347.9105 4292072959
-2.4238532 853.49304 1347.9105 4292072959
9.6954126 853.49304 1347.9105 4292272895
13.331193 853.49304 1347.9105 4292075263
16.966972 853.49304 1347.9105 4292141055
9.6954126 855.34607 1349.473 4292141311
13.331193 855.34607 1349.473 4292141055
16.966972 855.34607 1349.473 4292207103
13.280734 861.45465 1348.0834 4292535807
-58.436699 846.86194 1350.1675 4288915411
-56.001835 846.86194 1350.1675 4289244376
-52.349541 846.86194 1350.1675 4289769952
