# .PCD v0.7 - Point Cloud Data file format
VERSION 0.7
FIELDS x y z rgb
SIZE 4 4 4 4
TYPE F F F U
COUNT 1 1 1 1
WIDTH 1169
HEIGHT 1
VIEWPOINT 0 0 0 1 0 0 0
POINTS 1169
DATA ascii
18.965139 841.07251 802.45367 4294901247
21.754128 840.64606 802.09412 4294967295
19.813763 804.18634 806.66895 4294967295
22.398165 804.18634 806.66895 4294967295
24.982569 804.18634 806.66895 4294967295
4.2293577 830.89783 806.95496 4290604462
8.4587154 830.89783 806.95496 4290675402
10.99633 830.89783 806.95496 4291858057
16.917431 830.89783 806.95496 4294967295
19.455046 830.25122 806.40967 4294967295
23.684404 829.60449 805.86438 4294967295
25.376146 830.89783 806.95496 4294967295
6.7449541 833.05475 804.84949 4294689023
23.60734 833.05475 804.84949 4294967295
4.2155962 834.34387 805.9364 4289351070
7.5807338 835.0614 805.2334 4292519155
10.095413 835.77899 804.5304 4291203198
20.190826 835.77899 804.5304 4294967295
23.555964 835.77899 804.5304 4294967295
26.109175 835.0614 805.2334 4294901759
5.0477066 838.35168 806.69958 4278190895
7.5715594 837.06531 805.61499 4292583123
26.921101 838.35168 806.69958 4294639615
28.60367 838.35168 806.69958 4294705151
7.5467882 841.13696 805.12402 4288501919
10.900917 841.13696 805.12402 4293437413
13.416513 841.77808 805.66455 4293902287
15.93211 841.77808 805.66455 4291670469
19.56575 841.35065 805.3042 4294966527
22.640366 841.13696 805.12402 4294967295
25.155964 841.13696 805.12402 4294901759
16.770641 843.06018 806.74561 4291016119
18.447706 843.06018 806.74561 4294964984
48.528439 845.76337 806.40894 4294901759
14.135779 770.35052 809.53223 4278190128
16.78624 770.35052 809.53223 4283981988
19.436697 770.35052 809.53223 4294967295
-1.7614679 775.29749 809.7793 4280106799
0 775.29749 809.7793 4280105075
17.614679 775.29749 809.7793 4290428414
22.018349 775.29749 809.7793 4294967295
24.660551 775.29749 809.7793 4294967295
13.944954 790.77753 809.75134 4288314800
16.559633 790.77753 809.75134 4291936226
20.917431 790.77753 809.75134 4294967295
15.638532 794.32593 808.81921 4289571839
13.010092 796.76013 808.90967 4285892296
16.455046 797.86597 807.88 4291941857
19.919266 797.86597 807.88 4294967295
22.517431 797.86597 807.88 4294967295
24.249542 797.86597 807.88 4294967295
12.990826 799.19012 808.99646 4286946515
16.420183 800.66174 807.62122 4291615477
19.877064 800.66174 807.62122 4294967295
22.469725 800.66174 807.62122 4294967295
24.198166 800.66174 807.62122 4294967295
0 803.30457 809.84961 4286867576
7.7779818 803.30457 809.84961 4293521136
10.370643 803.30457 809.84961 4294967295
13.251376 802.86407 809.47821 4292404991
16.420183 802.64386 809.29248 4292141561
20.741285 803.30457 809.84961 4294967295
25.926605 803.30457 809.84961 4294967295
27.655046 803.30457 809.84961 4294967295
0 806.82074 808.89026 4291412201
7.753211 806.82074 808.89026 4293918719
16.367889 806.82074 808.89026 4293851133
19.526606 806.38165 808.52002 4294967295
22.398165 806.16211 808.33496 4294967295
24.695414 806.38165 808.52002 4294967295
0 809.59833 808.61621 4292790527
0 810.91272 809.72449 4293379839
5.1577983 810.91272 809.72449 4291541178
7.7366972 810.91272 809.72449 4294966527
10.315597 810.91272 809.72449 4294967295
12.034863 810.91272 809.72449 4294967295
16.333027 810.91272 809.72449 4294901759
19.771561 810.91272 809.72449 4294967295
22.350458 810.91272 809.72449 4294967295
24.929358 810.91272 809.72449 4294967295
27.508257 810.91272 809.72449 4294967295
-1.7137614 815.71942 809.85315 4278190116
0 814.40924 808.74841 4289764351
5.1412845 815.71942 809.85315 4288452269
11.13945 814.40924 808.74841 4294967295
13.710092 815.71942 809.85315 4294967295
16.280735 815.06433 809.30078 4294967295
19.993883 814.84595 809.1167 4294967295
22.278898 815.06433 809.30078 4294967295
-1.7100917 818.4787 809.56372 4279896126
0.85504586 817.82501 809.01257 4289107678
4.2752295 818.4787 809.56372 4291082461
7.6954126 817.82501 809.01257 4290353342
11.115597 817.82501 809.01257 4293978867
18.811008 817.17133 808.46143 4294967295
0 821.30396 808.02191 4283773034
3.4091742 821.95557 808.57129 4293782271
6.8183484 821.95557 808.57129 4289357373
-3.4091742 823.25873 809.67004 4282651473
-1.7045871 823.25873 809.67004 4284164712
0.85229355 823.98047 808.97064 4288174730
4.2614679 823.25873 809.67004 4293049855
7.6633029 823.98047 808.97064 4291271264
11.079817 823.25873 809.67004 4293114513
19.602753 823.25873 809.67004 4294967295
22.988073 823.98047 808.97064 4294967295
-1.7009175 826.00269 809.36768 4279768365
27.21468 826.00269 809.36768 4294967295
-1.6954129 830.75604 809.45142 4280558671
0.84770644 828.81183 807.81201 4282455390
4.2385321 828.16376 807.26562 4291983074
6.7816515 828.16376 807.26562 4293966547
25.431192 828.16376 807.26562 4294967295
27.126606 829.4599 808.35852 4294967295
31.365139 830.75604 809.45142 4294967295
-3.3834863 833.48456 809.13599 4286478508
-1.6917431 833.48456 809.13599 4280622931
1.1278287 832.62231 808.40894 4279246677
28.759632 832.19122 808.04541 4294967295
31.297249 833.48456 809.13599 4294967295
-3.3724771 836.92218 808.11035 4285233847
-1.6862385 836.92218 808.11035 4279839078
0.56207949 836.49243 807.74805 4280430687
3.9345562 836.06274 807.38574 4283448172
26.979816 835.633 807.02344 4294967295
28.666056 835.633 807.02344 4294967295
31.195412 836.92218 808.11035 4294901759
-7.5880733 838.2113 809.19739 4281352811
-4.2155962 838.2113 809.19739 4286614198
-1.6862385 838.2113 809.19739 4280755803
0.84311926 838.92468 808.49078 4280301925
4.2064219 839.638 807.78418 4280431460
26.921101 839.638 807.78418 4294901759
28.60367 839.638 807.78418 4294967295
31.195412 838.2113 809.19739 4294901759
-1.6825688 842.21069 809.95349 4281281122
0 841.5675 809.41113 4279838285
7.571559 841.56757 809.41113 4279773537
10.656269 841.35309 809.23029 4288371876
13.46055 841.5675 809.41113 4294895103
15.703976 841.78192 809.59198 4292854491
19.349541 841.5675 809.41113 4294965232
22.43425 841.35309 809.23029 4294836223
25.799387 841.35309 809.23029 4294836223
28.60367 840.92438 808.86877 4294967295
49.473396 845.62445 808.90771 4294705151
10.777982 748.71783 812.22058 4294246399
10.744954 752.37006 811.37598 4294967295
13.431192 751.00092 810.22156 4294508543
17.311316 751.45728 810.60638 4294770687
19.699083 751.68549 810.79877 4294901759
8.9541283 753.73914 812.53027 4294967295
10.744954 753.73914 812.53027 4294967295
13.403669 754.57251 810.61694 4294967295
16.680122 754.80023 810.8089 4294967295
19.699083 753.73914 812.53027 4294967295
22.385321 753.73914 812.53027 4294967295
10.722936 756.62195 812.34497 4287539943
13.403669 756.62195 812.34497 4287344358
16.977982 756.62195 812.34497 4288132586
19.658716 756.62195 812.34497 4294836223
22.339451 756.62195 812.34497 4294967295
0 761.61658 812.63232 4291021567
4.4541283 761.61658 812.63232 4278190183
8.0174313 761.61658 812.63232 4278190157
10.689908 761.61658 812.63232 4278190185
13.659328 761.1626 812.24951 4278194804
16.925688 761.61658 812.63232 4281614997
22.270641 761.61658 812.63232 4294967295
25.833946 761.61658 812.63232 4294967295
28.506422 761.61658 812.63232 4294967295
-3.5522935 766.59448 812.90527 4289396872
-1.7761468 766.59448 812.90527 4289922704
0.59204894 766.14185 812.52362 4294746092
4.4403667 765.91553 812.33282 4287066583
7.9926605 765.23657 811.76038 4278190112
10.65688 765.23657 811.76038 4278191939
13.306421 765.9892 811.08698 4278190904
16.85688 765.9892 811.08698 4282272902
19.537615 765.23657 811.76038 4294639615
22.201836 765.23657 811.76038 4294967295
25.754128 765.23657 811.76038 4294967295
-3.5449541 769.4519 812.69873 4283236396
1.772477 769.4519 812.69873 4294938873
4.4311924 768.77441 812.12744 4294496765
7.9761467 768.09686 811.55615 4282470282
10.634862 768.09686 811.55615 4278190116
12.407339 768.09686 811.55615 4279112006
22.155964 768.09686 811.55615 4294967295
25.700916 768.09686 811.55615 4294967295
28.359632 768.09686 811.55615 4294967295
-3.5339448 773.05225 811.8103 4278194176
-1.7669724 771.70142 810.67126 4283760692
0.88348621 772.37683 811.24078 4284955011
4.7119269 772.60199 811.43066 4292974591
7.951376 772.37683 811.24078 4290811337
10.601835 772.37683 811.24078 4283584629
13.252294 772.37683 811.24078 4278190111
16.491743 772.15167 811.05096 4284178585
19.436697 772.37683 811.24078 4294967295
22.087156 771.70142 810.67126 4294967295
25.915596 772.15167 811.05096 4294967295
28.271559 772.37683 811.24078 4294967295
-4.4119267 775.52368 811.93207 4279707206
-1.7614679 776.64417 810.91479 4283589247
0.88348621 775.52368 811.93207 4285953750
4.4091744 775.52368 811.93207 4288374007
7.9266057 776.64417 810.91479 4294105812
10.568808 776.64417 810.91479 4294304752
13.21101 776.64417 810.91479 4278190080
16.733946 776.64417 810.91479 4287665329
19.376146 776.64417 810.91479 4294967295
22.018349 776.64417 810.91479 4294967295
25.541285 776.64417 810.91479 4294967295
28.183487 776.64417 810.91479 4294967295
30.038532 774.40314 812.94934 4294967295
-4.4036698 777.99084 812.05029 4284703101
-1.7614679 777.99084 812.05029 4284177019
1.7614679 777.99084 812.05029 4290689791
4.4036698 777.99084 812.05029 4292925695
7.9266057 777.99084 812.05029 4293509887
10.568808 777.99084 812.05029 4294235135
13.21101 777.99084 812.05029 4281140002
15.853211 777.99084 812.05029 4286922558
19.376146 777.99084 812.05029 4294967295
26.422018 777.99084 812.05029 4294967295
28.183487 777.99084 812.05029 4294967295
-7.0238533 782.91254 812.27612 4289108690
-4.3899083 782.91254 812.27612 4289306071
-1.7559633 782.24133 811.71014 4286871738
0.43899083 781.90576 811.42719 4282474659
4.3899083 782.91254 812.27612 4280309235
10.53578 782.91254 812.27612 4294959615
13.169725 782.91254 812.27612 4288644226
16.974312 781.57013 811.14423 4290622402
19.315596 782.24133 811.71014 4294967295
21.949543 780.89893 810.57819 4294967295
25.022478 781.90576 811.42712 4294967295
28.095413 782.91254 812.27612 4294967295
0 785.73785 812.04211 4288721101
10.513762 785.73785 812.04211 4294963967
13.142202 785.73785 812.04211 4288579246
16.938837 785.29126 811.66559 4291871722
19.275229 785.73785 812.04211 4294967295
21.903671 785.06799 811.47729 4294967295
24.53211 785.73785 812.04211 4294967295
-6.9871559 790.63293 812.24548 4282931342
-4.3669724 790.63293 812.24548 4292599295
-1.746789 790.63293 812.24548 4293780223
8.7339449 790.63293 812.24548 4286480863
10.480734 789.96521 811.6825 4294177791
12.227523 789.29749 811.11951 4291613415
19.21468 789.29749 811.11951 4294967295
22.708258 789.29749 811.11951 4294967295
24.455046 789.29749 811.11951 4294967295
-7.8440366 793.44275 811.99866 4279182186
-4.3577981 793.44275 811.99866 4285633476
-1.7431192 793.44275 811.99866 4285829570
0 793.44275 811.99866 4283527120
10.458715 793.44275 811.99866 4283854335
13.073395 792.11011 810.875 4290558199
17.431192 792.11011 810.875 4294505727
20.045872 792.11011 810.875 4294967295
22.660551 792.11011 810.875 4294967295
24.403669 792.11011 810.875 4294967295
10.425688 796.98279 811.05945 4290169343
-7.8192658 798.31122 812.17944 4281353586
-4.3440366 798.31122 812.17944 4278660437
-1.7376146 798.31122 812.17944 4278190138
0 798.31122 812.17944 4285206575
7.8192658 798.31122 812.17944 4294967295
10.39266 800.51434 810.11304 4294967295
12.124771 800.51434 810.11304 4294967295
-7.5058103 802.72137 811.97394 4281682801
-4.3302751 802.50067 811.78784 4278389810
-1.7321101 801.83856 811.22961 4278190115
1.7321101 803.16278 812.34619 4294967295
4.3302751 802.50067 811.7879 4294705151
-6.9137616 805.94739 812.07788 4281551976
-4.3211012 805.94739 812.07788 4278325041
-1.7284404 804.62598 810.96375 4281085026
1.7284404 805.94739 812.07788 4294967295
4.3211012 805.28668 811.52081 4294574079
10.370643 804.62598 810.96375 4294836223
12.963303 804.62598 810.96375 4294442751
28.807341 805.06641 811.33514 4294967295
-3.4458716 809.45514 811.11145 4278190100
-1.7229358 808.79651 810.55615 4283322752
1.7229358 809.45514 811.11145 4294962431
4.3073397 808.79651 810.55615 4292662228
7.753211 808.13794 810.00085 4294967295
10.337615 808.13794 810.00085 4294967295
13.209174 808.57697 810.37109 4294967295
16.367889 808.13794 810.00085 4294179321
19.813763 808.13794 810.00085 4294967295
22.398165 808.13794 810.00085 4294967295
24.982569 808.13794 810.00085 4294967295
28.42844 808.79651 810.55615 4294967295
-6.8917432 810.77234 812.22217 4283259014
-4.3073397 810.77234 812.22217 4278718015
-1.7192661 812.22711 810.83264 4281087091
1.7229358 810.77234 812.22217 4294961919
4.3018351 811.49976 811.5274 4289829531
7.7366972 812.22711 810.83264 4293518073
13.754128 812.22711 810.83264 4294967295
24.929358 812.22711 810.83264 4294967295
28.399082 811.49976 811.5274 4294967295
-4.2981653 813.5415 811.94092 4279310146
1.7192661 813.5415 811.94092 4293057791
3.4385321 813.5415 811.94092 4292794606
24.929358 813.5415 811.94092 4294967295
28.367889 813.5415 811.94092 4294967295
-4.2844038 817.68469 811.51025 4279439949
13.710092 817.0296 810.95789 4294967295
16.566362 817.46631 811.32617 4294967295
19.708256 817.68469 811.51025 4294967295
22.278898 817.68469 811.51025 4294967295
25.706423 818.33978 812.06262 4294967295
27.991438 817.46631 811.32617 4294967295
31.704586 818.33978 812.06262 4294967295
35.132111 818.33978 812.06262 4294967295
-4.2752295 820.43976 811.21729 4281799995
-1.7100917 819.78607 810.66614 4285345352
1.7100917 819.78607 810.66614 4294297084
5.1302752 819.78607 810.66614 4289242831
8.5504589 819.78607 810.66614 4293041781
11.115597 819.78607 810.66614 4293120464
13.680734 821.09344 811.76843 4292201215
16.245872 821.09344 811.76843 4294967295
25.651377 821.09344 811.76843 4294967295
28.501528 820.65765 811.40106 4294967295
31.636698 821.09344 811.76843 4294967295
-7.6954126 822.40082 812.87085 4281676389
-4.2614679 824.56189 810.76892 4283714415
8.5229359 824.56189 810.76892 4290282139
11.079817 824.56189 810.76892 4292775036
13.680734 822.40082 812.87085 4291868390
16.245872 822.40082 812.87085 4294967295
28.977982 824.56189 810.76892 4294967295
31.534863 824.56189 810.76892 4294967295
35.056881 822.40082 812.87085 4294967295
37.622017 822.40082 812.87085 4294967295
-10.227523 827.16827 812.96643 4286087096
-7.3865438 826.73389 812.60016 4282401140
-4.2577982 826.58411 811.16589 4286545047
-1.7009175 827.30304 810.46411 4280689444
28.915596 827.30304 810.46411 4294967295
31.466972 827.30304 810.46411 4294967295
34.944038 825.86511 811.86768 4294967295
37.500916 827.16827 812.96643 4294967295
-10.205504 829.90375 812.65698 4285497007
-7.6541286 829.90375 812.65698 4281417321
-4.2522936 828.60339 811.56055 4286743469
34.868805 828.60339 811.56055 4294967295
37.420185 829.90375 812.65698 4294967295
39.971558 829.90375 812.65698 4294967295
42.522934 829.90375 812.65698 4294967295
-11.020184 833.34839 811.63721 4283855785
-5.0862384 832.05225 810.54431 4287337912
34.755962 832.05225 810.54431 4294967295
38.14679 833.34839 811.63721 4294967295
40.689907 833.34839 811.63721 4294836223
43.233028 833.34839 811.63721 4294901759
-10.150458 836.07123 811.31702 4285430697
-7.612844 834.77789 810.22644 4280696169
-5.0752292 834.77789 810.22644 4286223533
34.680733 835.42456 810.77173 4294967295
38.06422 836.07123 811.31702 4294967295
40.601833 836.07123 811.31702 4294836223
43.233028 834.64453 812.7301 4294836223
45.776146 834.64453 812.7301 4294967295
-10.150458 837.36462 812.40759 4285627071
-7.5880733 839.50043 810.2843 4281155435
-4.2155962 839.50043 810.2843 4286484150
-1.6862385 839.50043 810.2843 4280428646
1.6862385 839.50043 810.2843 4281614439
4.2155962 839.50043 810.2843 4281876078
31.195412 839.50043 810.2843 4294574079
34.625687 838.4325 811.34595 4294705151
38.06422 837.36462 812.40759 4294836223
40.601833 837.36462 812.40759 4294770687
43.13945 837.36462 812.40759 4294770687
46.522934 837.36462 812.40759 4294967295
-10.117432 841.4342 811.91479 4285758640
-7.5880728 841.4342 811.91479 4281418335
-4.2155962 841.4342 811.91479 4287009718
-1.6862385 842.07874 812.45825 4281020794
1.6862385 841.4342 811.91479 4281613670
4.2155962 841.4342 811.91479 4281941094
7.5880733 842.07874 812.45825 4280758367
11.24159 841.64911 812.09595 4284634769
13.489908 842.07874 812.45825 4289162693
16.019266 842.07874 812.45825 4294764537
19.672783 841.64899 812.09595 4294572282
23.045259 841.64899 812.09595 4294901759
26.417734 841.64911 812.09595 4294705151
28.666056 841.4342 811.91479 4294705151
31.195414 841.4342 811.91479 4294573823
33.72477 841.4342 811.91479 4294246143
47.21468 841.4342 811.91479 4294836223
0 843.49701 811.03809 4280362319
-8.0834866 752.83777 815.69434 4286354923
-4.4908257 751.46442 814.53638 4292272116
-1.7963303 750.77777 813.95746 4294967295
0.59877676 751.00665 814.15039 4294967295
4.4908257 751.46442 814.53638 4294967295
7.7840981 750.54889 813.76447 4294967295
21.555964 750.09113 813.37854 4294901759
25.148624 751.46442 814.53638 4294967295
-3.5816514 755.10828 813.68469 4284055735
-1.7908257 755.10828 813.68469 4284121528
0.89541286 755.10828 813.68469 4285434556
4.4770641 755.10828 813.68469 4286683358
8.0587158 755.10828 813.68469 4287276514
25.966972 755.10828 813.68469 4294967295
-7.1633029 757.84644 815.99353 4294952429
-4.7755351 756.93378 815.22394 4286536094
-1.7908257 756.47736 814.83911 4278190144
0.89357799 757.98822 813.49695 4278190183
4.4678898 757.98822 813.49695 4278260356
8.042202 757.98822 813.49695 4279255722
10.722936 757.98822 813.49695 4281158824
12.510092 757.98822 813.49695 4280829859
16.977982 757.98822 813.49695 4280902361
19.658716 757.98822 813.49695 4293066751
22.339451 757.98822 813.49695 4294967295
25.913761 757.98822 813.49695 4294967295
28.594496 757.98822 813.49695 4294967295
-4.4678898 760.03772 815.22504 4294169542
-1.787156 759.35455 814.64905 4293445620
1.787156 759.35455 814.64905 4282402942
19.658716 759.35455 814.64905 4294443007
30.381651 759.35455 814.64905 4294967295
-4.4541283 763.65979 814.35498 4289687699
-1.7816514 762.9787 813.78076 4294955775
1.7816514 762.9787 813.78076 4292125669
3.5633028 762.9787 813.78076 4281008331
28.506422 762.9787 813.78076 4294967295
30.288073 763.65979 814.35498 4294967295
-5.3284402 767.95233 814.05029 4280025135
30.194496 767.95233 814.05029 4294967295
-7.1045871 769.31024 815.19519 4279444038
-5.317431 770.80701 813.84119 4278983487
30.132111 770.80701 813.84119 4294967295
-7.0899081 772.16211 814.98376 4279969612
-7.0678897 775.75397 814.08838 4284176239
30.922018 775.75397 814.08838 4294967295
-10.601835 777.10486 815.22729 4283126672
-7.9403672 778.22119 814.20654 4283454826
-4.4036698 779.33746 813.18579 4286412945
1.7614679 779.33746 813.18579 4289248767
4.4036698 779.33746 813.18579 4294440703
7.9266057 779.33746 813.18579 4292915199
10.568808 779.33746 813.18579 4293970172
13.21101 779.33746 813.18579 4287133021
15.853211 779.33746 813.18579 4286349066
26.422018 779.33746 813.18579 4294967295
29.06422 779.33746 813.18579 4294967295
31.805504 777.10486 815.22729 4294967295
33.572475 777.10486 815.22729 4294967295
-10.568808 782.03082 815.45667 4285892543
-8.8073397 780.68414 814.32117 4282337942
7.9266057 780.68414 814.32117 4293967871
29.944954 781.35748 814.88892 4294967295
31.706423 781.35748 814.88892 4294967295
33.467892 781.35748 814.88892 4294967295
-10.53578 785.59747 814.53992 4287737087
-8.1944952 784.70245 813.78534 4283127984
-4.3899083 784.255 813.40796 4292662000
-1.7559633 784.255 813.40796 4290753477
1.7559633 784.92627 813.97394 4279308346
4.3899083 784.92627 813.97394 4279449136
7.901835 784.255 813.40796 4291345919
26.339449 784.92627 813.97394 4294967295
28.973394 784.92627 813.97394 4294967295
33.363304 785.59747 814.53992 4294967295
-10.53578 786.93988 815.67188 4287273727
-7.8853211 787.74731 813.73651 4283455156
-4.380734 787.07751 813.17175 4293517055
-1.7522936 787.07751 813.17175 4294501887
0.58409786 787.97052 813.9248 4288191164
4.380734 788.41711 814.30127 4278190083
7.5932717 787.52411 813.54828 4281555366
26.284403 788.41711 814.30127 4294967295
28.620794 787.97052 813.9248 4294967295
31.60734 786.93988 815.67188 4294967295
34.206421 787.67847 814.98657 4294967295
36.875229 786.93988 815.67188 4294967295
-15.770642 789.75677 815.43079 4281812847
-13.142202 789.75677 815.43079 4282081652
-10.480734 791.96838 813.37146 4285759453
1.7522936 789.75677 815.43079 4278190175
4.3669724 791.96838 813.37146 4281938734
7.8605504 791.96838 813.37146 4290483153
26.201836 791.96838 813.37146 4294967295
28.868807 790.86255 814.40112 4294967295
33.293579 789.75677 815.43079 4294967295
-15.721101 793.30377 814.49756 4282075240
-13.100918 793.9715 815.06055 4283985543
-10.480734 793.30377 814.49756 4284443563
-7.8440366 794.77539 813.12231 4278853215
-4.3577981 794.77539 813.12231 4283856046
-1.7431192 794.77539 813.12231 4283918491
0.87339449 794.70728 814.37292 4289306560
4.3669724 793.30377 814.49756 4293716642
7.8513761 794.03955 813.80994 4294244342
26.201836 793.30377 814.49756 4294967295
28.822018 793.30377 814.49756 4294967295
31.442202 794.63922 815.62354 4294967295
33.188992 794.63922 815.62354 4294967295
-16.269114 796.55225 814.62042 4283720578
-12.782875 796.9964 814.99493 4285364636
-10.458715 796.10803 814.24597 4284837043
4.3577981 796.10803 814.24597 4294967295
28.761467 796.10803 814.24597 4294967295
31.376146 797.44067 815.36951 4294967295
33.119267 797.44067 815.36951 4294967295
-16.507339 800.96802 814.41968 4283720065
-12.163302 800.96802 814.41968 4285956271
-10.425688 800.30383 813.85962 4285035687
-8.6880732 799.63959 813.29956 4283589008
1.7376146 799.63959 813.29956 4294967295
3.4752293 799.63959 813.29956 4294967295
29.53945 799.63959 813.29956 4294967295
31.277063 800.96802 814.41968 4294967295
-16.507339 802.29645 815.53979 4283326588
-13.03211 802.29645 815.53979 4285758881
34.752293 802.29645 815.53979 4294967295
-10.39266 805.14911 814.02094 4284969628
-8.6605501 805.14911 814.02094 4284048783
32.332722 804.92841 813.83478 4294967295
-10.381651 808.52356 815.55811 4283061102
-7.7779818 807.9295 813.74921 4283983231
-5.1853213 807.2688 813.19214 4279049793
31.688074 808.14972 813.93488 4294967295
34.605503 808.52356 815.55811 4294967295
-7.753211 812.08954 813.33276 4283981706
31.874311 812.08954 813.33276 4294967295
-15.506422 814.72394 815.55396 4283193973
-12.060551 814.72394 815.55396 4285755021
-10.337615 813.40674 814.44336 4281218911
-7.7458715 814.13135 813.74628 4282470028
-5.1577983 814.8559 813.04919 4278721133
24.929358 814.8559 813.04919 4294967295
31.806421 814.8559 813.04919 4294967295
34.458717 813.40674 814.44336 4294967295
36.181652 813.40674 814.44336 4294967295
-12.034863 817.48468 815.26575 4287599808
-10.315597 816.17029 814.15747 4285099154
-7.7366972 816.17029 814.15747 4281021799
13.754128 816.17029 814.15747 4293849087
15.473394 816.17029 814.15747 4294967295
24.069725 816.17029 814.15747 4294967295
37.823853 816.82751 814.71161 4294967295
-10.853824 820.52344 813.90381 4286810807
-7.7119265 819.64996 813.16736 4280952403
35.132111 819.64996 813.16736 4294967295
40.273396 820.96014 814.27209 4294967295
-11.128441 822.98926 814.67493 4287138487
-8.5504589 823.70819 813.97314 4281677155
13.680734 823.70819 813.97314 4291079098
15.390825 823.70819 813.97314 4294963967
37.622017 823.70819 813.97314 4294967295
40.187157 823.70819 813.97314 4294967295
40.187157 825.01556 815.07544 4294901759
-11.86789 835.94067 813.823 4283259766
-15.801835 838.61542 814.33417 4282468217
-13.563303 837.23688 814.91589 4280297811
-11.842202 839.30463 814.04333 4284178045
35.526604 839.30463 814.04333 4294705151
38.06422 839.30457 814.04333 4294770687
40.601833 839.30463 814.04333 4294639615
43.163303 838.94934 814.39777 4294901759
45.677063 839.30463 814.04333 4294836223
-15.225688 841.24463 815.67908 4279639101
-13.533945 841.24463 815.67908 4278522949
-11.842202 841.24463 815.67908 4284181147
1.6917431 841.24463 815.67908 4280889949
5.0752292 841.24463 815.67908 4279899469
22.838531 841.24463 815.67908 4294836223
27.913761 841.24463 815.67908 4294443007
31.297249 841.24463 815.67908 4294508543
34.680733 841.24463 815.67908 4294442751
38.06422 841.24463 815.67908 4294770687
40.601833 841.24463 815.67908 4294508543
42.293579 841.24463 815.67908 4294836223
46.522934 841.24463 815.67908 4294770687
-10.117432 843.36786 813.54529 4285560248
-7.5880733 843.36786 813.54529 4282862454
-4.2155962 843.36786 813.54529 4285821075
-1.6862385 844.01245 814.08875 4280688236
0 844.01245 814.08875 4279312453
3.3724771 843.36786 813.54529 4280754778
7.5880733 843.36786 813.54529 4281141592
10.96055 844.01245 814.08875 4283974252
13.489908 843.36786 813.54529 4286277504
16.300306 843.79761 813.90753 4293911294
19.391743 843.36786 813.54529 4293913087
25.293577 843.36786 813.54529 4294508543
50.025074 843.79761 813.90753 4294770687
52.273396 844.65704 814.6322 4294770687
-9.0091743 749.1897 816.54248 4294967295
-7.2073393 749.1897 816.54248 4294967295
27.027523 749.1897 816.54248 4294967295
-10.811009 751.25598 818.28473 4290489343
-10.777982 755.58435 818.01025 4293491391
-8.3828745 754.66876 817.23828 4292188648
-10.744954 760.58466 818.30225 4281285210
-8.3571863 759.67194 817.53265 4287063126
-10.722936 763.45343 818.1051 4283587475
-7.1486239 762.0871 816.95312 4282253317
-10.689908 767.06494 817.2262 4284573603
-8.314373 766.15692 816.46063 4279504710
-10.65688 770.66809 816.34009 4285032861
-8.8807335 770.66809 816.34009 4281019231
-12.433027 773.38385 818.63 4283389805
-10.65688 772.026 817.48499 4283983264
-8.8623857 773.51715 816.12634 4282075267
-12.407339 776.22729 818.4115 4284968072
35.449543 774.87225 817.26892 4294967295
37.222019 775.5498 817.84021 4294967295
-12.368808 779.80658 817.50537 4286616495
-10.601835 778.45575 816.36633 4283587752
35.339451 779.13116 816.93585 4294967295
37.106422 779.80658 817.50537 4294967295
-14.135779 781.15747 818.64441 4282737543
38.873394 781.15747 818.64441 4294967295
40.640366 781.15747 818.64441 4294967295
42.407341 781.15747 818.64441 4294967295
-12.330276 784.05078 817.15991 4286158787
31.706423 783.37744 816.59216 4294967295
35.229359 783.37744 816.59216 4294967295
37.871559 784.05078 817.15991 4294967295
40.51376 784.72412 817.72766 4294967295
42.27523 784.72412 817.72766 4294967295
-19.376146 786.0708 818.86304 4283127942
-17.614679 786.0708 818.86304 4282799742
31.60734 788.28235 816.80371 4294967295
35.119267 788.28235 816.80371 4294967295
37.813759 787.17657 817.83337 4294967295
40.51376 786.0708 818.86304 4294967295
42.27523 786.0708 818.86304 4294967295
-19.275229 791.09644 816.56042 4283259766
-17.522936 791.09644 816.56042 4282930549
-14.018349 791.09644 816.56042 4281223779
1.7522936 791.09644 816.56042 4283648128
31.541285 791.09644 816.56042 4294967295
34.169724 791.09644 816.56042 4294967295
37.753212 789.62482 817.93567 4294967295
43.021103 789.62482 817.93567 4294967295
-19.275229 792.43604 817.68994 4283259260
35.045872 792.43604 817.68994 4294967295
37.382263 793.3291 818.44293 4294967295
42.055046 793.7757 818.81946 4294967295
34.93578 796.64233 817.3125 4294967295
36.682568 797.31006 817.87549 4294967295
-13.944954 798.77325 816.49316 4285561513
33.119267 798.77325 816.49316 4294967295
36.605503 800.1059 817.61682 4294967295
-16.534863 802.53174 817.70013 4281617785
-13.03211 803.62488 816.65979 4283064464
34.752293 803.62488 816.65979 4294967295
36.605503 801.43854 818.74048 4294967295
41.834862 801.43854 818.74048 4294967295
-15.638532 805.61755 818.33997 4279378523
-13.03211 804.95331 817.77991 4281485690
36.48991 804.95331 817.77991 4294967295
41.702751 806.28174 818.90002 4294967295
-12.702141 808.90106 817.18439 4278722632
37.240368 808.45966 816.81226 4294967295
-13.827523 811.89374 817.09174 4282138723
38.025688 811.23303 816.53467 4294967295
39.754128 812.55444 817.6488 4294967295
39.754128 813.87585 818.76294 4294967295
-16.069725 817.39948 816.93799 4282931570
-13.768807 817.4201 816.51935 4283719562
-16.333027 820.11346 817.4823 4282930558
-13.754128 820.11346 817.4823 4283915146
-18.710093 836.40558 818.13916 4282866543
-18.649542 839.82916 817.10168 4283652723
-16.954128 839.18109 816.55524 4283521409
-13.563303 838.53302 816.00879 4280097325
44.080734 839.82916 817.10168 4294836223
-15.258716 841.12531 818.19458 4278190115
-13.563303 841.12531 818.19458 4278190091
-11.009174 841.83167 817.48212 4279835215
-7.612844 842.53802 816.76965 4278519340
-4.2293577 842.53802 816.76965 4279110722
1.6917431 842.53802 816.76965 4278190105
4.2293577 842.53802 816.76965 4278386691
7.612844 842.53802 816.76965 4283828815
13.533945 842.53802 816.76965 4284573073
15.225688 842.53802 816.76965 4289047254
19.455046 842.53802 816.76965 4294636799
22.838531 842.53802 816.76965 4294836223
25.376146 842.53802 816.76965 4294574079
27.913761 842.53802 816.76965 4294377471
31.297249 842.53802 816.76965 4294574079
34.680733 842.53802 816.76965 4294245887
38.06422 842.53802 816.76965 4294377471
40.601833 842.53802 816.76965 4294443007
43.233028 841.12531 818.19458 4294574079
46.522934 842.53802 816.76965 4294770687
49.060551 842.53802 816.76965 4294836223
-1.6917431 843.83136 817.86011 4278190112
0 843.83136 817.86011 4278190123
8.4587154 843.83136 817.86011 4292266491
10.99633 843.83136 817.86011 4287797434
13.533945 843.83136 817.86011 4283523745
16.07156 843.83136 817.86011 4285033169
19.455046 843.83136 817.86011 4294702847
22.838531 843.83136 817.86011 4294836223
25.376146 843.83136 817.86011 4294639615
27.913761 843.83136 817.86011 4294574079
30.451376 843.83136 817.86011 4294639615
50.752293 843.83136 817.86011 4294574079
52.444038 843.83136 817.86011 4294836223
30.724771 748.98761 820.29614 4294967295
-13.513762 754.01099 820.60767 4288101225
-12.574312 758.33099 820.32617 4280634181
-10.777982 756.95764 819.16821 4287976011
-12.574312 759.70428 821.48401 4283983993
-13.431192 764.00745 821.18829 4283981422
-13.403669 766.86914 820.98517 4283258986
-12.47156 769.78912 819.52319 4283852407
-16.034863 772.51331 821.82007 4282404218
-14.253211 771.15125 820.67163 4282008153
-15.985321 776.09961 820.9198 4282403964
-14.209174 774.7417 819.7749 4282796903
39.963303 774.7417 819.7749 4294967295
-15.952293 778.93744 820.69666 4282535553
-14.179816 777.5824 819.55408 4283326845
38.994495 777.5824 819.55408 4294967295
40.766972 777.5824 819.55408 4294967295
42.539448 777.5824 819.55408 4294967295
-15.952293 780.29254 821.83923 4282075767
-14.135779 782.5083 819.78345 4281092735
40.51376 787.41742 819.99854 4294967295
44.036697 788.7641 821.13403 4294967295
38.631191 790.96729 819.06763 4294967295
40.387157 790.96729 819.06763 4294967295
42.14312 790.96729 819.06763 4294967295
40.387157 792.30969 820.19946 4294967295
43.899082 792.30969 820.19946 4294967295
38.550457 795.11536 819.9491 4294967295
40.302753 795.78516 820.51385 4294967295
43.22324 795.56183 820.32562 4294967295
38.429359 799.31323 819.56451 4294967295
41.049541 799.31323 819.56451 4294967295
43.669724 799.98096 820.12756 4294967295
-17.431192 802.77118 819.86414 4280631419
38.348625 802.77118 819.86414 4294967295
41.005505 802.04382 820.55884 4294967295
43.669724 801.31641 821.25354 4294967295
45.416515 801.31641 821.25354 4294967295
40.091743 804.10382 820.98779 4294967295
43.57798 804.10382 820.98779 4294967295
45.321102 804.10382 820.98779 4294967295
41.123547 808.05292 820.39355 4294967295
43.440369 808.27429 820.5802 4294967295
45.177982 807.61011 820.02014 4294967295
-22.159634 836.29047 820.65808 4282797666
-27.273394 837.59363 821.75684 4281020506
-25.568808 837.59363 821.75684 4280625748
-22.159634 837.59363 821.75684 4281020755
-19.858717 838.10199 820.44147 4281942105
-17.009174 839.00635 820.33203 4280954460
-22.111927 840.3067 821.42847 4280425034
-19.560551 840.3067 821.42847 4279899192
-16.158716 840.3067 821.42847 4278192177
-13.60734 840.3067 821.42847 4278190123
-11.03945 841.36414 820.35791 4278190106
-7.6293578 842.42151 819.28735 4278190106
-4.2385321 842.42151 819.28735 4278190119
1.6954129 842.42151 819.28735 4278585156
4.2385321 842.42151 819.28735 4288318841
6.7816515 842.42151 819.28735 4290424287
32.212845 842.42151 819.28735 4294639615
34.755962 842.42151 819.28735 4294443007
38.14679 842.42151 819.28735 4294508543
40.689907 842.42151 819.28735 4294443007
43.233028 842.42151 819.28735 4294705151
46.623856 842.42151 819.28735 4294836223
49.166973 842.42151 819.28735 4294967295
-3.3908257 843.71765 820.38025 4287798977
-1.6954129 843.71765 820.38025 4284640913
0 843.71765 820.38025 4285422449
8.4770641 843.71765 820.38025 4294967295
11.020184 843.71765 820.38025 4293520362
13.563303 844.36572 820.9267 4286881509
16.106422 844.36572 820.92676 4282344870
19.497248 844.36572 820.9267 4289319157
22.888073 844.36572 820.9267 4294311935
25.431192 844.36572 820.9267 4294836223
27.691742 844.14972 820.74457 4294574079
30.517431 843.71765 820.38025 4294639615
45.776146 843.71765 820.38025 4294377471
50.862385 843.71765 820.38025 4294377471
-16.266054 751.75104 822.62622 4287116130
-18.073395 753.82361 824.37378 4281285460
-16.266054 753.82361 824.37378 4280495945
-18.018349 758.83234 824.67297 4283716719
-16.216515 758.83234 824.67297 4283321962
-14.414679 756.76611 822.93073 4280170558
-14.370643 761.07764 822.64197 4283060574
-17.963303 763.82422 824.95789 4283389304
-17.012844 766.74561 823.49701 4282994290
-16.977982 769.60175 823.28918 4282797944
39.317432 768.91858 822.71313 4294967295
-17.816513 773.87537 822.96851 4282996358
-19.537615 778.13647 822.63721 4283587212
-17.761467 778.13647 822.63721 4282799235
45.321102 806.76904 823.23499 4294967295
45.321102 808.10168 824.35864 4294967295
41.702751 810.26697 822.26025 4294967295
43.440369 810.93115 822.82031 4294967295
-29.133945 832.75183 824.21448 4282731373
-28.216515 834.82092 823.34308 4282533483
-25.651377 834.16724 822.79187 4282533478
-23.941284 834.82092 823.34308 4281810521
-28.125687 838.89679 822.85571 4282265707
-25.568808 838.89679 822.85571 4279961419
-23.86422 838.89679 822.85571 4280227912
-28.125687 840.19995 823.95447 4284169569
-25.568808 840.19995 823.95447 4285879151
-23.011927 840.19995 823.95447 4287132565
-19.582569 840.9035 823.23969 4287727276
-16.17523 840.9035 823.23969 4288123315
-13.60734 841.60706 822.5249 4288584636
-11.055964 841.60706 822.5249 4288388284
-7.3706422 842.04053 822.89038 4290231775
-4.2522936 842.2572 823.07312 4290429663
-1.7009175 842.90741 823.62134 4289969621
0.85045874 842.2572 823.07312 4291807443
4.53578 842.04053 822.89038 4294967295
7.3706422 842.47394 823.25586 4294967295
11.055964 842.90741 823.62134 4294836222
28.915596 842.90741 823.62134 4294508543
31.750458 842.47394 823.25586 4294574079
34.58532 842.04053 822.89038 4294443007
37.420185 841.60706 822.5249 4294311935
39.688072 842.04053 822.89038 4294377471
43.37339 842.2572 823.07312 4294705151
47.058716 842.47394 823.25586 4294639615
49.326607 842.2572 823.07312 4294639615
51.877983 842.2572 823.07312 4294639615
54.429359 841.60706 822.5249 4294967295
-1.7009175 844.20776 824.71777 4291614973
0 844.20776 824.71777 4292337917
11.055964 844.20776 824.71777 4294967295
13.60734 844.20776 824.71777 4294967295
16.158716 844.20776 824.71777 4292080383
19.560551 844.20776 824.71777 4286033890
22.962385 844.20776 824.71777 4293722111
25.513762 844.20776 824.71777 4294770687
27.21468 844.20776 824.71777 4294377471
-18.073395 755.20538 825.53882 4283191911
-16.266054 755.20538 825.53882 4282205016
-18.018349 760.20984 825.83447 4283520370
-16.216515 760.20984 825.83447 4283125868
-29.07156 839.39679 827.20129 4287131001
-27.273394 841.50317 825.05322 4288708250
-25.568808 841.50317 825.05322 4290287281
-23.011927 841.50317 825.05322 4290751414
-19.318655 841.93756 825.41949 4290822116
-16.193577 842.15479 825.60266 4291153132
-13.636697 842.15479 825.60266 4291284213
-11.079817 842.15472 825.60266 4291350258
-7.95474 842.37189 825.78583 4291548407
-4.5455661 842.37189 825.78583 4291746046
1.7045871 842.15479 825.60266 4293324281
3.97737 842.37201 825.78583 4294507519
7.6706419 842.80634 826.1521 4294967295
28.977982 842.80634 826.1521 4294508543
31.534863 842.80634 826.1521 4294574079
35.228134 842.37189 825.78583 4294443007
37.500916 842.15479 825.60266 4294770687
40.3419 842.37189 825.78583 4294639615
43.466972 842.80634 826.1521 4294574079
46.876144 842.80634 826.1521 4294443007
49.433029 842.80634 826.1521 4294574079
52.274006 842.37201 825.78583 4294639615
55.399082 842.15479 825.60266 4294836223
-10.227523 844.1095 827.25085 4290694391
-7.6706419 844.1095 827.25085 4291220222
-4.2614679 844.1095 827.25085 4291285499
-1.7045871 844.1095 827.25085 4291548666
0 844.1095 827.25085 4292008959
4.2614679 844.1095 827.25085 4293588223
7.6706419 844.1095 827.25085 4294967295
11.079817 844.1095 827.25085 4294967295
13.636697 844.1095 827.25085 4294967295
16.193579 844.1095 827.25085 4294639615
19.602753 844.1095 827.25085 4288131026
23.011927 844.1095 827.25085 4293918719
25.568808 844.1095 827.25085 4294836223
28.125687 844.1095 827.25085 4294901759
46.876144 844.1095 827.25085 4294443007
49.433029 844.1095 827.25085 4294770687
51.989906 844.1095 827.25085 4294770687
55.399082 844.1095 827.25085 4294705151
-35.988991 839.30273 829.73804 4289235624
-31.704586 839.30273 829.73804 4292070116
-29.133945 839.30273 829.73804 4289768131
-27.971865 840.64337 829.9964 4289302956
-25.6789 840.65857 829.57324 4291076788
-23.099083 841.00818 829.21405 4292529100
-19.951071 841.57574 829.03857 4292599551
-16.245872 842.01154 829.40601 4292139519
-13.680734 842.01154 829.40601 4291746047
-11.970642 842.01154 829.40601 4291351295
1.7100917 842.01154 829.40601 4292337919
31.636698 842.01154 829.40601 4294967295
35.056881 842.01154 829.40601 4294770687
37.622017 842.01154 829.40601 4294639615
40.187157 842.01154 829.40601 4294508543
43.607338 842.01154 829.40601 4294443007
-22.231194 843.31891 830.50842 4292270590
-19.666054 843.31891 830.50842 4293257471
-16.245872 843.31891 830.50842 4293192703
-13.680734 843.31891 830.50842 4293653247
-11.115597 843.31891 830.50842 4291221246
-7.6954126 843.31891 830.50842 4289971964
-4.2697248 844.36578 829.42908 4290299129
-1.7045871 845.41266 828.34973 4290167795
0.85504586 844.36578 829.42908 4290431221
4.2752295 843.31891 830.50842 4290498300
7.6954126 843.31891 830.50842 4290301942
11.115597 843.31891 830.50842 4294572799
13.680734 843.31891 830.50842 4294967295
16.245872 843.31891 830.50842 4294967295
19.666054 843.31891 830.50842 4292008425
23.086239 843.31891 830.50842 4294113535
25.651377 843.31891 830.50842 4294705151
28.216515 843.31891 830.50842 4294770687
31.636698 843.31891 830.50842 4294770687
35.056881 843.31891 830.50842 4294836223
37.622017 843.31891 830.50842 4294508543
40.187157 843.31891 830.50842 4294311679
43.607338 843.31891 830.50842 4294443007
47.027523 843.31891 830.50842 4294639615
49.592659 843.31891 830.50842 4294770687
51.989906 845.41266 828.34973 4294770687
55.487156 844.36578 829.42908 4294246399
0 846.71582 829.44849 4289840361
-36.964218 838.51495 832.99792 4290493132
-34.385323 838.51495 832.99792 4291414766
-31.806421 838.51495 832.99792 4291809014
-27.420183 841.9231 831.94751 4285951853
-25.706423 841.9231 831.94751 4291083707
-23.992661 841.9231 831.94751 4291875832
-22.278898 843.23328 833.05212 4292269567
-19.708256 843.23328 833.05212 4291875583
-16.280735 843.23328 833.05212 4292402679
-13.710092 843.23328 833.05212 4293061119
-11.13945 843.23328 833.05212 4291811583
-7.704587 843.92981 832.33142 4289246958
-3.9902141 845.06207 831.97821 4290036474
-1.7100917 845.27997 832.16187 4290562558
0.85504586 845.27997 832.16187 4291221502
4.2752295 844.62628 831.61072 4291022068
7.6954126 844.62628 831.61072 4289709042
11.115597 844.62628 831.61072 4293784831
13.710092 843.23328 833.05212 4294967295
16.264221 843.92981 832.33142 4294967295
19.688072 843.92981 832.33142 4293390591
23.13578 843.23328 833.05212 4292799484
25.706423 843.23328 833.05212 4294770687
28.277065 843.23328 833.05212 4294770687
31.704586 843.23328 833.05212 4294705151
35.132111 843.23328 833.05212 4294967295
37.702751 843.23328 833.05212 4294705151
40.273396 843.23328 833.05212 4294705151
43.700916 843.23328 833.05212 4294705151
47.027523 844.62628 831.61072 4294770687
49.592659 845.27997 832.16187 4294574079
52.157799 845.27997 832.16187 4294705151
54.722935 845.27997 832.16187 4294508543
51.302753 847.24103 833.81543 4294574079
-39.627522 838.43347 835.54529 4292862968
-37.043121 839.09216 836.10059 4292338431
-34.42202 839.79004 835.38104 4290562815
-31.806421 839.82935 834.1062 4290168061
-29.227524 839.82935 834.1062 4285627319
-31.806421 841.14374 835.21448 4289839094
-28.081345 841.58185 835.58392 4283524213
-24.929356 841.8009 835.76862 4290825696
-22.350458 842.45813 836.32275 4291876607
-19.771561 842.45813 836.32275 4291020799
-16.333027 842.45813 836.32275 4291153393
-12.894495 842.45813 836.32275 4292402175
-10.315597 842.45813 836.32275 4291022847
13.754128 842.45813 836.32275 4290169855
17.192661 842.45813 836.32275 4294967295
19.771561 842.45813 836.32275 4294967295
22.350458 842.45813 836.32275 4293652980
24.929358 842.45813 836.32275 4294180095
28.367889 842.45813 836.32275 4294836223
31.806421 842.45813 836.32275 4294901759
34.385323 842.45813 836.32275 4294705151
36.964218 842.45813 836.32275 4294770687
39.543118 842.45813 836.32275 4294901759
-7.7119265 844.54346 834.15686 4289311462
-4.2844038 845.19855 834.70923 4290561013
-1.7137614 845.85364 835.2616 4291679999
0.85688072 845.19855 834.70923 4292470527
3.9987767 844.98016 834.52509 4293455608
7.7119265 844.54346 834.15686 4289247458
11.13945 844.54346 834.15686 4289313263
15.423853 844.54346 834.15686 4293722111
41.130276 844.54346 834.15686 4294901759
43.700916 844.54346 834.15686 4294967295
47.128441 845.19855 834.70923 4294836223
49.699081 845.85364 835.2616 4294967295
53.126606 845.85364 835.2616 4294574079
54.840366 845.85364 835.2616 4294836223
49.699081 847.16382 836.36633 4294967295
52.269726 847.16382 836.36633 4294574079
54.840366 847.16382 836.36633 4294901759
-39.754128 838.32184 839.37524 4292732415
-37.043121 841.72644 838.3219 4291482366
-34.458717 841.72644 838.3219 4289117688
-31.874313 841.72644 838.3219 4289248245
-28.715597 841.94598 838.50702 4285038002
-24.982569 842.38507 838.8772 4289577450
-22.398165 842.38507 838.8772 4293061119
-19.813763 842.38507 838.8772 4291548137
-16.367889 842.38507 838.8772 4290759414
-13.783486 842.38507 838.8772 4292402943
17.229359 842.38507 838.8772 4294967295
20.67523 842.38507 838.8772 4294967295
24.982569 842.38507 838.8772 4294967295
28.42844 842.38507 838.8772 4294967295
31.874311 842.38507 838.8772 4294967295
34.458717 842.38507 838.8772 4294639615
37.043121 842.38507 838.8772 4294574079
39.627522 842.38507 838.8772 4294901759
-37.043121 843.70227 839.98779 4290160881
-34.458717 843.70227 839.98779 4289377259
-31.874311 843.70227 839.98779 4287206094
-28.42844 843.70227 839.98779 4286483382
-24.982569 843.70227 839.98779 4289839077
-22.398165 843.70227 839.98779 4293719551
-19.813763 843.70227 839.98779 4293258743
-16.367889 843.70227 839.98779 4290628857
-12.6263 843.72577 839.13556 4292270847
-10.326606 843.73743 838.70941 4291152635
-7.7366972 844.42969 837.98517 4289046484
-4.5847096 844.64874 838.16992 4288585413
-1.7192661 845.08691 838.53931 4288586182
1.1474006 844.18726 838.65265 4293586175
4.5908256 843.72577 839.13556 4293126393
7.7449541 843.73743 838.70941 4289838834
10.326606 843.73743 838.70941 4289378532
12.908257 843.73743 838.70941 4288590050
16.069725 843.72577 839.13556 4289972982
19.513151 843.72565 839.13556 4294311167
22.374311 843.73743 838.70941 4294967295
24.121101 843.70227 839.98779 4294967295
28.42844 843.70227 839.98779 4294705151
40.746792 843.72565 839.13556 4294901759
43.864216 844.08356 838.34729 4294836223
46.420185 845.08691 838.53931 4294901759
48.13945 845.08691 838.53931 4294901759
-3.4385321 846.40131 839.64758 4285366630
49.858715 846.40131 839.64758 4294967295
52.437614 846.40131 839.64758 4294901759
55.016514 846.40131 839.64758 4294901759
-41.702751 834.17859 842.42188 4293192191
-39.754128 840.96466 841.60358 4291473392
25.926605 841.62537 842.16064 4294967295
31.976147 841.62537 842.16064 4294967295
34.568806 841.62537 842.16064 4294967295
37.161469 841.62537 842.16064 4294705151
-32.735779 845.01947 841.09851 4286285491
-27.566973 845.01947 841.09851 4286418359
-25.844036 845.01947 841.09851 4288786907
-10.337615 845.01947 841.09851 4289443071
-7.753211 845.01947 841.09851 4287468745
-5.1688075 845.01947 841.09851 4284310387
-1.7229358 845.01947 841.09851 4286287732
0 845.01947 841.09851 4290429681
12.060551 845.01947 841.09851 4288786392
41.35046 845.01947 841.09851 4294967295
44.796329 845.01947 841.09851 4294901759
46.519264 845.01947 841.09851 4294967295
48.242203 845.01947 841.09851 4294967295
-3.4458716 846.33667 842.20911 4287535798
49.965137 846.33667 842.20911 4294967295
52.549541 846.33667 842.20911 4294967295
55.995415 846.33667 842.20911 4294967295
-43.57798 833.42163 845.70776 4292337919
-41.702751 836.17114 844.10205 4292336895
-41.116512 841.9104 844.36316 4289695703
-37.161469 842.94678 843.2749 4290096358
-34.568806 842.94678 843.2749 4289575397
-31.111927 842.94678 843.2749 4286418107
-29.383486 842.94678 843.2749 4286747072
-24.198166 842.94678 843.2749 4290166271
-22.469725 842.94678 843.2749 4294114047
-19.898165 842.91797 844.55865 4294113279
-16.437614 842.91797 844.55859 4292929790
-13.261162 842.92755 844.13068 4291943678
1.7302753 842.91797 844.55865 4294179071
4.3256879 842.91797 844.55865 4293784319
7.7862387 842.91797 844.55865 4291679992
10.381651 842.91797 844.55865 4290233324
13.842202 842.91797 844.55865 4287800522
16.437614 842.91797 844.55859 4288853217
20.179815 842.92755 844.13068 4291812351
22.469725 842.94678 843.2749 4294967295
25.088991 842.91797 844.55859 4294967295
28.250765 842.92755 844.13068 4294967295
32.01009 842.91797 844.55859 4294901759
34.568806 842.94678 843.2749 4294967295
36.899082 842.92755 844.13068 4294967295
39.754128 842.94678 843.2749 4294901759
43.21101 842.94678 843.2749 4294836223
-39.754128 844.26819 844.38904 4292461560
-37.161469 844.26819 844.38904 4291676907
-34.568806 844.26819 844.38904 4289839344
-31.976147 844.26819 844.38904 4287272387
-28.519266 844.26819 844.38904 4287206851
-25.062386 844.26819 844.38904 4287998429
-22.469725 844.26819 844.38904 4292341759
-12.099083 844.26819 844.38904 4289971699
-10.370643 844.26819 844.38904 4287800042
-7.7779818 844.26819 844.38904 4286811572
-4.3211012 844.92889 844.94611 4289638858
-1.7284404 844.26819 844.38904 4287535798
0 844.92889 844.94611 4291482111
12.099083 844.26819 844.38904 4289179866
19.012844 844.26819 844.38904 4288983516
22.469725 844.26819 844.38904 4292998143
29.383486 844.26819 844.38904 4294967295
34.568806 844.26819 844.38904 4294967295
38.025688 844.26819 844.38904 4294967295
40.618347 844.26819 844.38904 4294967295
44.07523 844.26819 844.38904 4294967295
46.667889 844.26819 844.38904 4294967295
48.972477 845.14911 845.13184 4294967295
52.71743 845.5896 845.50317 4294967295
55.310093 845.5896 845.50317 4294967295
56.85688 847.65387 843.3197 4294967295
58.579815 847.65387 843.3197 4294967295
-43.669724 830.69598 846.02563 4292334837
-43.57798 835.42059 847.39325 4291676396
-40.415901 844.65479 847.33112 4293251323
-37.240368 844.21338 846.95898 4292203250
-34.6422 844.21338 846.95898 4290429420
-32.044037 844.21338 846.95898 4288191177
-28.579817 844.21338 846.95898 4287862730
-12.124771 844.21338 846.95898 4289904620
-10.39266 844.21338 846.95898 4287472101
-7.7944956 844.21338 846.95898 4285826482
-4.3302751 844.87549 847.51721 4291613928
-1.7321101 844.87549 847.51721 4292467967
0 845.5376 848.07544 4291156735
6.9284406 844.21338 846.95898 4292533759
12.124771 844.21338 846.95898 4289377500
17.3211 844.21338 846.95898 4289181654
19.053211 844.21338 846.95898 4288589261
22.517431 844.21338 846.95898 4291484415
29.445871 844.21338 846.95898 4294967295
34.6422 844.21338 846.95898 4294967295
37.240368 844.21338 846.95898 4294967295
40.704586 844.21338 846.95898 4294967295
45.900917 844.21338 846.95898 4294967295
52.829357 845.5376 848.07544 4294901759
