# .PCD v0.7 - Point Cloud Data file format
VERSION 0.7
FIELDS x y z rgb
SIZE 4 4 4 4
TYPE F F F U
COUNT 1 1 1 1
WIDTH 1170
HEIGHT 1
VIEWPOINT 0 0 0 1 0 0 0
POINTS 1170
DATA ascii
22.615595 835.44666 799.01807 4292935679
26.236084 835.90045 798.96478 4294967295
28.447706 836.80811 798.85803 4294967295
30.724159 835.42023 799.43182 4294967295
34.341286 836.08777 799.55865 4294967295
37.693577 836.08777 799.55865 4294967295
40.249542 835.36743 800.25928 4294967295
8.3669729 838.0874 799.93677 4290923129
10.877064 838.0874 799.93677 4291380830
13.387156 838.0874 799.93677 4289542012
15.897248 838.0874 799.93677 4287445623
19.244038 838.0874 799.93677 4283257485
22.590824 838.0874 799.93677 4292277503
25.937614 838.0874 799.93677 4294967295
28.447706 838.0874 799.93677 4294967295
30.957798 838.0874 799.93677 4294967295
34.304588 838.0874 799.93677 4294967295
37.651375 838.0874 799.93677 4294967295
28.036697 775.02069 803.00574 4294967295
25.328442 779.94946 803.23743 4292142073
28.530886 779.50433 802.86212 4294836223
27.889908 782.78174 803.00952 4286096331
16.455046 792.56909 803.41382 4279177327
19.919266 792.56909 803.41382 4279304250
22.517431 792.56909 803.41382 4294822342
25.115597 792.56909 803.41382 4294967295
13.827523 795.3761 803.16455 4293449727
16.420183 795.3761 803.16455 4278386726
19.877064 795.3761 803.16455 4283319866
22.469725 795.3761 803.16455 4294967268
24.198166 795.3761 803.16455 4294967295
13.783486 800.23474 803.33704 4294571263
16.367889 799.57617 802.78174 4285421382
19.526606 799.79565 802.9668 4294433455
22.398165 799.57617 802.78174 4294967295
24.982569 800.23474 803.33704 4294967295
17.100918 810.6344 802.94971 4285176274
13.636697 815.4397 803.07727 4278199657
16.193579 815.4397 803.07727 4280117417
18.750458 815.4397 803.07727 4288609791
25.568808 815.4397 803.07727 4294967295
20.411009 818.20044 802.78906 4291885311
23.812843 818.20044 802.78906 4294967295
25.513762 818.20044 802.78906 4294967295
0.85045874 819.50085 803.8855 4288300879
20.344954 821.68298 801.80127 4290631679
22.888073 821.68298 801.80127 4294836223
25.431192 821.68298 801.80127 4294967295
27.126606 821.68298 801.80127 4294967295
-3.3908257 822.97913 802.89417 4289811008
-1.6954129 822.97913 802.89417 4291126868
0.56391436 823.8952 802.79449 4290600528
3.3834863 824.43109 801.50232 4292560972
20.300917 824.43109 801.50232 4290105855
22.838531 824.43109 801.50232 4294770687
25.376146 824.43109 801.50232 4294967295
27.913761 824.43109 801.50232 4294967295
34.755962 822.97913 802.89417 4294967295
-1.6917431 826.37109 803.13812 4290865257
1.1278287 826.58667 803.31982 4290277715
3.3834863 826.37109 803.13812 4291716201
31.297249 825.72443 802.5929 4294967295
33.834862 825.72443 802.5929 4294967295
38.910091 827.01782 803.68335 4294967295
40.601833 825.72443 802.5929 4294967295
42.293579 826.37109 803.13812 4294967295
5.0587158 829.83191 802.13202 4290798461
32.038532 829.18732 801.5885 4294967295
33.72477 829.18732 801.5885 4294967295
42.155964 830.47644 802.67554 4294967295
-1.6862385 831.76556 803.76245 4290866801
0.84311926 831.76556 803.76245 4291392872
4.2064219 833.2063 802.36121 4288428367
6.7302752 831.91998 801.27661 4293755520
31.968807 831.91998 801.27661 4294967295
33.651375 831.91998 801.27661 4294967295
38.699081 831.91998 801.27661 4294967295
40.381653 831.91998 801.27661 4294967295
42.06422 833.2063 802.36121 4294967295
-3.3651376 834.49268 803.4458 4287654748
-1.6825688 834.49268 803.4458 4287852384
0.83853209 835.57111 802.39307 4288046430
4.1926603 836.64954 801.34033 4288238676
6.7082567 836.64954 801.34033 4289541476
40.249542 836.64954 801.34033 4294967295
42.905502 834.49268 803.4458 4294967295
47.111927 834.49268 803.4458 4294967295
-3.3541284 839.21381 803.50244 4284108707
-1.6770642 837.93164 802.42139 4280497255
1.1180428 838.78644 803.14209 4282072434
4.1926603 838.57275 802.96191 4283575396
7.5467882 838.57275 802.96191 4286394715
10.900917 838.57275 802.96191 4290529899
13.387156 839.36676 801.01538 4293683335
15.897248 839.36676 801.01538 4292308879
19.244038 839.36676 801.01538 4285485184
22.590824 839.36676 801.01538 4291879167
25.937614 839.36676 801.01538 4294967295
28.447706 839.36676 801.01538 4294967295
30.957798 839.36676 801.01538 4294967295
34.304588 839.36676 801.01538 4294967295
37.651375 839.36676 801.01538 4294967295
41.066055 838.93152 802.61041 4294967295
-1.6733944 841.28577 802.63348 4285882792
7.5302753 841.92542 803.17285 4279046415
13.387156 841.28577 802.63348 4286858055
16.176147 841.07251 802.45367 4291127424
19.244038 841.28577 802.63348 4290147236
22.590824 841.28571 802.63354 4290689508
25.937614 841.28577 802.63348 4294836223
28.447706 841.28577 802.63348 4294967295
30.6789 841.07251 802.45367 4294967295
34.583485 841.07251 802.45367 4294967295
37.372478 841.07251 802.45367 4294967295
13.293577 761.32147 805.84326 4294901759
10.634862 762.67657 806.98584 4294967295
13.252294 764.94708 804.9762 4294967295
15.902752 764.94708 804.9762 4294967295
7.951376 766.29791 806.11523 4291278567
10.601835 766.29791 806.11523 4294967295
13.252294 766.29791 806.11523 4294967295
15.902752 766.29791 806.11523 4294967295
19.436697 766.29791 806.11523 4294901759
10.568808 769.91089 805.23743 4281164743
13.21101 769.91089 805.23743 4283791815
17.027523 769.46198 804.85895 4293389823
19.376146 769.91089 805.23743 4294967295
21.724771 769.46198 804.85895 4294770687
24.660551 769.91089 805.23743 4294967295
5.2844038 771.25757 806.37292 4288638875
7.9266057 771.25757 806.37292 4291929821
10.568808 771.25757 806.37292 4287590886
13.21101 771.25757 806.37292 4278321263
16.733946 771.25757 806.37292 4290693620
19.376146 771.25757 806.37292 4294967295
22.018349 771.25757 806.37292 4294967295
25.461468 773.51544 804.35266 4294967295
5.26789 776.20032 806.61646 4284969174
7.9018345 775.52905 806.05054 4287516590
10.53578 775.52905 806.05054 4291336685
12.877065 775.30536 805.86188 4286006173
16.681652 774.85785 805.48462 4279238733
19.315596 774.85785 805.48462 4282269859
21.949541 774.85785 805.48462 4287667672
25.408257 776.36035 804.13525 4294571519
29.78899 776.36035 804.13525 4294967295
7.8853211 779.03961 806.39441 4279709770
10.513762 779.03961 806.39441 4284421027
13.434251 778.59308 806.01788 4289888750
16.35474 778.14648 805.64142 4282002547
19.275229 777.69995 805.26489 4278190109
21.903669 777.69995 805.26489 4281883571
31.541285 777.69995 805.26489 4294967295
33.293579 779.03961 806.39441 4294967295
13.974312 782.6203 805.4895 4290678766
16.885628 782.17511 805.1142 4289039326
20.088074 781.95258 804.92651 4278517821
22.708258 781.95258 804.92651 4278190130
25.037308 781.72998 804.73883 4279246143
29.695414 781.28485 804.36353 4293984255
31.442202 781.95258 804.92651 4294967295
34.062386 782.6203 805.4895 4294967295
5.2403669 783.95575 806.61548 4280958849
7.8605504 783.95575 806.61548 4282730617
10.480734 783.95575 806.61548 4278859606
13.086239 784.70142 805.93616 4281805928
16.559633 785.44702 805.25684 4292459007
20.045872 785.44702 805.25684 4278648873
22.660551 785.44702 805.25684 4278190095
25.56575 785.00275 804.88232 4287793757
28.761467 784.78064 804.69507 4293849592
31.376146 785.44702 805.25684 4294967295
34.062386 783.95575 806.61548 4294967295
37.555962 783.95575 806.61548 4294967295
10.458715 786.7796 806.38049 4283253100
13.073395 786.7796 806.38049 4281474372
15.688073 786.7796 806.38049 4290880200
29.633028 786.7796 806.38049 4294967295
31.376146 786.7796 806.38049 4294967295
33.990826 786.7796 806.38049 4294967295
7.8192658 791.66907 806.57898 4279508294
13.03211 790.3407 805.45898 4290357219
17.376146 789.01227 804.33887 4288518859
19.982569 789.01227 804.33887 4278190102
22.588991 789.01227 804.33887 4282401377
25.195412 789.01227 804.33887 4293452736
28.670643 790.3407 805.45898 4294967295
31.277063 791.66907 806.57898 4294967295
33.593884 791.22626 806.20563 4294967295
10.39266 793.89331 804.5304 4286342849
12.124771 793.89331 804.5304 4293580031
25.981651 793.89331 804.5304 4294967295
27.713762 793.89331 804.5304 4294967295
5.1963301 796.54175 806.76343 4293585131
7.7853212 795.95752 804.96277 4280756289
10.370643 796.69751 804.27869 4278727558
12.963303 796.69751 804.27869 4292274687
20.741285 796.69751 804.27869 4294967295
25.062386 796.69751 804.27869 4294967295
28.550459 795.95752 804.96277 4294967295
32.044037 795.87964 806.2052 4294967295
7.7779818 798.67963 805.94995 4285888129
10.370643 798.67963 805.94995 4278190109
12.099083 798.67963 805.94995 4291348443
28.519266 798.01892 805.39282 4294967295
31.976147 799.34033 806.50708 4294967295
10.337615 802.86914 805.55835 4278211329
13.209174 802.43011 805.18817 4288992198
16.080734 801.99103 804.81793 4290497756
19.813763 802.21057 805.00305 4294967295
22.398165 801.55194 804.44775 4294967295
24.982569 801.55194 804.44775 4294967295
28.42844 802.21057 805.00305 4294967295
31.874311 802.86914 805.55835 4294967295
8.6146793 804.18634 806.66895 4293649663
10.326606 805.57794 806.5343 4292270311
12.908257 805.57794 806.5343 4279510366
16.619572 805.21704 804.92194 4288588278
19.771561 805.65515 805.29138 4294967295
22.350458 804.99792 804.73724 4294967295
24.929358 804.99792 804.7373 4294967295
28.654434 806.09326 805.66083 4294967295
31.806423 806.31238 805.84558 4294967295
34.458717 804.18634 806.66895 4294967295
43.93486 804.18634 806.66895 4294967295
15.423853 809.16846 804.32959 4282543541
19.708256 809.16846 804.32959 4294311935
23.13578 809.16846 804.32959 4294967295
25.706423 809.16846 804.32959 4294967295
27.420183 809.16846 804.32959 4294967295
0.85688072 811.78882 806.53906 4288568414
16.262386 811.21021 804.74316 4279787418
19.666054 811.94177 804.052 4291952639
23.086239 811.94177 804.052 4294967295
25.651377 811.94177 804.052 4294967295
28.543119 811.40308 805.3418 4294967295
31.704586 811.13373 805.98669 4294967295
20.521101 813.24915 805.1543 4294901747
23.086239 813.24915 805.1543 4294967295
28.216515 813.90283 805.70551 4294967295
32.491745 814.55658 806.25671 4294967295
-1.7045871 817.39453 804.72546 4288763213
0.85229355 816.74292 804.17603 4287319630
3.4091742 816.74292 804.17603 4289487174
13.636697 816.74292 804.17603 4278198350
22.159634 816.74292 804.17603 4294443007
27.273394 816.74292 804.17603 4294967295
31.501835 820.0752 805.6778 4294967295
-3.401835 822.10156 806.07837 4289482838
-3.3908257 826.21948 805.62628 4290010715
40.689907 825.57141 805.07983 4294967295
-3.3834863 829.60449 805.86438 4290472043
-1.6917431 828.31116 804.77393 4290076254
0.84587157 828.31116 804.77393 4290998614
3.3834863 828.31116 804.77393 4290929546
-4.2064219 835.77899 804.5304 4282074988
0 835.77899 804.5304 4279903819
43.746788 835.77899 804.5304 4294967295
45.429359 835.77899 804.5304 4294967295
48.794495 835.77899 804.5304 4294967295
-6.7302752 838.35168 806.69958 4285481828
-5.0477066 837.7085 806.15729 4285089898
43.746788 837.7085 806.15729 4294967295
45.990215 837.92285 806.33807 4294967295
-10.062386 841.77808 805.66455 4284030800
-3.3541284 841.13696 805.12402 4284301164
0.83853209 841.13702 805.12402 4286216660
4.1926603 841.13702 805.12402 4282600583
10.900917 841.13696 805.12402 4280625762
13.416513 841.77808 805.66455 4281671255
15.652599 841.35065 805.3042 4285020784
20.124771 841.77808 805.66455 4288511913
22.640366 841.77808 805.66455 4287203535
26.833027 841.77808 805.66455 4294967295
28.510092 841.77808 805.66455 4294967295
31.305199 841.35065 805.3042 4294967295
34.100307 841.35065 805.3042 4294967295
38.013454 841.35065 805.3042 4294967295
40.808563 840.92334 804.94385 4294967295
-13.416513 843.06018 806.74561 4286213567
-11.73945 843.06018 806.74561 4281476471
-3.3541284 843.06018 806.74561 4284234603
-1.6752293 843.13245 805.49854 4290353856
4.1926603 843.06018 806.74561 4289564603
7.5385323 843.13245 805.49854 4287209879
10.900917 843.06018 806.74561 4286613180
13.416513 843.06018 806.74561 4278719055
15.93211 843.06018 806.74561 4281481578
18.427523 843.13245 805.49854 4288050860
25.128441 843.13245 805.49854 4294508543
35.218349 843.06018 806.74561 4294967295
36.895412 843.06018 806.74561 4294967295
13.403669 752.52307 808.88892 4294443007
16.084404 752.52307 808.88892 4294311935
8.0174313 757.53033 809.18689 4294967295
10.689908 756.16827 808.03833 4294967295
13.362385 756.16827 808.03833 4294639615
16.034863 756.16827 808.03833 4294377471
0.88807338 761.16296 808.32556 4294816493
3.5522935 761.16296 808.32556 4291413503
8.8807335 761.16296 808.32556 4292997887
10.65688 759.80505 807.18066 4294967295
-3.5449541 764.03162 808.12842 4289756160
-1.772477 764.03162 808.12842 4292387862
0.88623852 764.03162 808.12842 4293245404
4.4311924 764.03162 808.12842 4292456440
0.88348621 766.51776 808.26263 4288381921
4.4174314 767.6488 807.25427 4292109763
7.951376 767.6488 807.25427 4291926741
-3.5339448 770.35052 809.53223 4286744288
-1.7669724 769.67505 808.96271 4288850426
0.88348621 769.67505 808.96265 4288191996
3.5339448 768.99963 808.39319 4288309910
-1.7614679 773.95087 808.64392 4285958592
1.7614679 773.95087 808.64392 4288980991
4.1100917 773.05304 807.8869 4286550241
-4.4036698 775.29749 809.7793 4278190162
-1.7614679 775.29749 809.7793 4278980198
0.88073397 775.29749 809.7793 4281678011
-3.5119267 778.88519 808.88037 4278190140
-1.7559633 778.88519 808.88037 4278190130
1.7559633 778.88519 808.88037 4279182690
4.0972476 777.99023 808.12573 4281746593
-1.7522936 781.71893 808.65356 4288581572
1.7522936 781.71893 808.65356 4278197347
4.380734 781.04907 808.08875 4279445862
7.8853211 780.37927 807.52393 4280038251
10.513762 780.37927 807.52393 4282391367
12.266055 780.37927 807.52393 4287523221
-3.5045872 783.05853 809.78308 4293583103
-1.746789 785.2912 807.74146 4291280368
0.87614679 783.05853 809.78308 4280230586
4.3669724 785.2912 807.74146 4279047274
7.8605504 785.2912 807.74146 4282142080
37.555962 785.2912 807.74146 4294967295
40.176147 785.2912 807.74146 4294967295
-4.075841 787.51691 809.61816 4290624491
-1.746789 786.62659 808.86743 4291676159
0.58226299 787.07178 809.24286 4291613432
4.3614678 787.36938 808.18573 4281417831
7.8440366 788.11224 807.50403 4279775335
10.458715 788.11224 807.50403 4288707511
31.376146 788.11224 807.50403 4294967295
34.862385 788.11224 807.50403 4294967295
37.477066 788.11224 807.50403 4294967295
40.758411 787.51691 809.61816 4294967295
-4.3577981 790.77753 809.75134 4290165229
-1.7431192 790.11121 809.18951 4288323802
1.1620795 790.33331 809.37677 4293914623
4.3577981 789.44489 808.62769 4285427815
37.477066 790.11121 809.18951 4294967295
40.963303 790.77753 809.75134 4294967295
-3.4752293 794.32593 808.81921 4287469055
-1.7376146 794.32593 808.81921 4285758199
1.7376146 794.32593 808.81921 4294967295
4.0544343 793.44037 808.07245 4292730590
34.752293 793.66174 808.25916 4294967295
-3.4752293 795.65436 809.93933 4287010278
-1.7376146 795.65436 809.93933 4286352092
0.86880732 795.65436 809.93933 4285302738
4.3302751 797.86597 807.88 4293123071
34.6422 797.86597 807.88 4294967295
37.298164 796.76013 808.90967 4294967295
40.833946 795.65436 809.93933 4294967295
43.440369 795.65436 809.93933 4294967295
45.177982 795.65436 809.93933 4294967295
-1.7321101 799.19012 808.99646 4289637615
4.3247709 799.9259 808.30884 4292337144
7.7779818 800.66174 807.62122 4291414730
34.568806 800.66174 807.62122 4294967295
37.201836 799.9259 808.30884 4294967295
40.660553 799.9259 808.30884 4294967295
44.07523 800.66174 807.62122 4294967295
46.667889 800.66174 807.62122 4294967295
-1.7284404 803.30457 809.84961 4287393657
0.8642202 803.30457 809.84961 4290549702
4.3211012 802.64386 809.29248 4292201962
6.9137616 801.98315 808.73535 4293715455
37.161469 801.98315 808.73535 4294967295
40.618347 801.98315 808.73535 4294967295
46.667889 801.98315 808.73535 4294967295
48.396332 801.98315 808.73535 4294967295
-1.7229358 806.82074 808.89026 4285484617
4.3073397 806.16211 808.33496 4292587971
8.0403671 805.94257 808.1499 4294767359
34.458717 805.50354 807.77966 4294967295
37.043121 806.16211 808.33496 4294967295
40.488991 806.16217 808.33496 4294967295
43.93486 806.16217 808.33496 4294967295
46.519264 806.16211 808.33496 4294967295
48.816513 805.94257 808.1499 4294967295
-1.7192661 809.59833 808.61621 4286467149
0.85963303 808.28394 807.50793 4289880453
5.1577983 808.94116 808.06207 4290477414
6.8770642 808.94116 808.06207 4290615212
10.315597 808.94116 808.06207 4293651711
12.607951 808.72211 807.87738 4279507013
34.385323 808.94116 808.06207 4294967295
42.981651 809.59833 808.61621 4294967295
-3.4385321 810.91272 809.72449 4288040782
5.1577983 810.91272 809.72449 4290737241
7.7366972 810.91272 809.72449 4291931553
10.315597 810.91272 809.72449 4294439423
34.385323 810.91272 809.72449 4294967295
37.823853 810.91272 809.72449 4294967295
40.402752 810.91272 809.72449 4294967295
29.07156 815.86395 807.35901 4294967295
31.373701 814.94232 807.45392 4294967295
34.201836 815.86395 807.35901 4294967295
41.130276 814.40924 808.74841 4294967295
42.844036 813.09906 807.6438 4294967295
49.060551 833.48456 809.13599 4294967295
47.21468 835.633 807.02344 4294967295
48.900917 836.92218 808.11035 4294967295
-7.5715594 839.638 807.78418 4286135392
-5.0477066 839.638 807.78418 4284621111
42.905502 839.638 807.78418 4294967295
46.270645 839.638 807.78418 4294967295
48.900917 838.2113 809.19739 4294967295
-15.143119 842.21069 809.95349 4287665069
-13.46055 842.21069 809.95349 4286212270
-10.656269 841.78192 809.59198 4283177027
-7.5715594 841.5675 809.41113 4286395469
-4.4868503 841.78192 809.59198 4285672529
0.84128439 841.5675 809.41113 4287332589
3.3651376 842.21069 809.95349 4286081924
10.936697 842.21069 809.95349 4286152887
13.46055 842.21069 809.95349 4279179860
15.984404 842.21069 809.95349 4281679982
20.190826 840.92438 808.86877 4285424535
22.71468 840.92438 808.86877 4286150852
26.360245 841.78192 809.59198 4294377471
28.60367 841.5675 809.41113 4294967295
31.127523 841.5675 809.41113 4294967295
34.212231 841.78192 809.59198 4294967295
38.138226 841.78192 809.59198 4294967295
40.381653 840.92438 808.86877 4294967295
42.06422 840.92438 808.86877 4294967295
-1.6770642 844.34229 807.82666 4291466970
5.0311928 844.34229 807.82666 4292332259
7.5467887 844.34229 807.82666 4292270588
5.3724771 752.37006 811.37598 4294967295
8.0587158 751.00092 810.22156 4294639615
1.787156 755.25562 811.19299 4294957311
4.4678898 755.25562 811.19299 4294967295
8.042202 753.88934 810.04089 4294967295
5.344954 758.89246 810.33533 4289768433
7.1266055 758.89246 810.33533 4289181661
-8.0174313 761.61658 812.63232 4288984552
-4.4403667 763.87872 810.61548 4288326870
-1.7761468 763.87872 810.61548 4287537858
-7.1045871 766.59448 812.90527 4281485756
-4.436697 765.9892 811.08698 4290626303
-7.0899081 769.4519 812.69873 4278197114
-5.317431 768.09686 811.55615 4282801360
-7.0678897 773.05225 811.8103 4278657409
-4.4174314 771.70142 810.67126 4281355929
0 771.70142 810.67126 4288783871
-7.9403672 775.52368 811.93207 4285427132
-5.2844038 776.64417 810.91479 4280159909
0 776.64417 810.91479 4278190655
-7.0458717 777.99084 812.05029 4290881495
-7.6091743 782.46509 811.89874 4287008184
-4.682569 780.67511 810.38947 4292857591
0 780.22766 810.01221 4278204543
-7.0091743 785.73785 812.04211 4288715722
-5.2568808 784.39819 810.9126 4289970654
-6.9871559 789.96521 811.6825 4291874298
43.669724 789.29749 811.11951 4294967295
45.416515 789.29749 811.11951 4294967295
-7.8440366 793.44275 811.99866 4290628088
-5.2293577 792.77643 811.43683 4290363638
0 792.11011 810.875 4289770731
37.477066 792.11011 810.875 4294967295
40.963303 792.11011 810.875 4294967295
43.57798 792.11011 810.875 4294967295
45.321102 792.11011 810.875 4294967295
-4.3440366 796.98279 811.05945 4289242849
0.86880732 796.98279 811.05945 4286284488
-6.9504585 798.31122 812.17944 4284107132
-4.338532 799.41278 811.14624 4286146195
-1.7321101 800.51434 810.11304 4288711858
0.86605507 799.41278 811.14624 4289763527
3.4642203 800.51434 810.11304 4290100457
-4.0415902 802.72137 811.97394 4286931296
-5.1853213 805.94739 812.07788 4288836712
-4.3073397 808.79651 810.55615 4287520090
3.4458716 808.13794 810.00085 4290476868
36.755966 808.57697 810.37109 4294967295
40.488991 808.13794 810.00085 4294967295
46.519264 808.13794 810.00085 4294967295
-4.2981653 812.22711 810.83264 4287515715
36.964218 812.22711 810.83264 4294967295
39.543118 812.22711 810.83264 4294967295
37.823853 813.5415 811.94092 4294967295
39.543118 813.5415 811.94092 4294967295
50.862385 832.05225 810.54431 4294967295
52.557796 832.05225 810.54431 4294967295
50.752293 835.42456 810.77173 4294967295
52.444038 835.42456 810.77173 4294967295
54.981651 835.42456 810.77173 4294967295
57.519264 836.07123 811.31702 4294967295
43.842201 839.50043 810.2843 4294967295
46.371559 839.50043 810.2843 4294967295
49.906422 837.36462 812.40759 4294967295
52.444038 837.36462 812.40759 4294967295
54.981651 837.36462 812.40759 4294967295
57.519264 837.36462 812.40759 4294967295
-15.176147 842.07874 812.45825 4279964987
-10.96055 842.07874 812.45825 4280811561
-7.5880733 842.07874 812.45825 4282515459
0.84311926 842.07874 812.45825 4282385294
11.80367 842.07874 812.45825 4279500917
13.489908 842.07874 812.45825 4280954712
16.019266 842.07874 812.45825 4282336621
19.391743 841.43414 811.91479 4283456910
22.764219 841.4342 811.91479 4283133107
26.136696 842.07874 812.45825 4293197823
28.666056 842.07874 812.45825 4294967295
31.195412 842.07874 812.45825 4294967295
34.56789 842.07874 812.45825 4294967295
37.940369 842.07874 812.45825 4294967295
40.469727 840.78961 811.37134 4294967295
42.155964 840.78961 811.37134 4294967295
60.704586 842.07874 812.45825 4294967295
-13.46055 843.49701 811.03809 4280549465
-4.2064219 843.49701 811.03809 4282515490
-1.6825688 843.49701 811.03809 4283764309
4.2064219 843.49701 811.03809 4280360733
7.5715594 843.49701 811.03809 4287791774
10.095413 843.49701 811.03809 4282196126
3.5926607 750.09113 813.37854 4294967295
-10.689908 764.34082 814.9292 4282470825
-8.0174313 763.65979 814.35498 4286285008
-8.8807335 767.95233 814.05029 4278198618
-8.8623857 770.80701 813.84119 4282668406
-8.8348627 775.75397 814.08838 4287996612
-12.368808 777.10486 815.22729 4284504727
-10.601835 777.10486 815.22729 4283917489
-8.8073397 779.33746 813.18579 4286614746
-10.568808 781.35748 814.88892 4281153155
-10.53578 785.59747 814.53992 4289305783
-8.7798166 784.255 813.40796 4285362383
-10.53578 786.93988 815.67188 4289045718
-8.7614679 787.74731 813.73651 4291083748
-10.480734 791.96838 813.37146 4288719317
-10.480734 793.30377 814.49756 4289569484
-7.8440366 794.77539 813.12231 4290031067
-10.458715 796.77435 814.80774 4284955477
-8.7155962 796.10803 814.24597 4285022570
-7.8192658 800.30383 813.85962 4285809220
-5.2128439 799.63959 813.29956 4285615170
-8.6880732 802.29645 815.53979 4286665307
-7.7944956 805.14911 814.02094 4287259739
-6.9137616 807.2688 813.19214 4287586393
40.601833 839.95129 814.58862 4294967295
43.421406 839.5202 814.2251 4294967295
46.522934 839.30463 814.04333 4294967295
49.906422 839.30457 814.04333 4294967295
52.444038 839.30463 814.04333 4294967295
54.981651 839.30457 814.04333 4294967295
58.365139 839.30457 814.04333 4294967295
0 841.24463 815.67908 4281277027
19.455046 841.24463 815.67908 4283128976
22.838531 841.24463 815.67908 4281885344
25.376146 841.24463 815.67908 4289786879
27.913761 841.24463 815.67908 4294967295
31.297249 841.24463 815.67908 4294967295
34.680733 841.24463 815.67908 4294967295
38.06422 841.24463 815.67908 4294967295
40.601833 841.24463 815.67908 4294967295
42.293579 841.24463 815.67908 4294967295
58.365135 841.24463 815.67908 4294967295
60.902752 841.24463 815.67908 4294967295
-16.019266 843.36786 813.54529 4279238676
-13.489908 844.01245 814.08875 4286347149
-10.96055 844.01245 814.08875 4287729057
-7.5880733 844.01245 814.08875 4288453034
-4.2155962 844.01245 814.08875 4288847532
-1.6862385 844.01245 814.08875 4288453029
1.6862385 843.36786 813.54529 4278190128
4.4966359 843.79761 813.90753 4283255127
7.5880728 844.01245 814.08875 4287331262
10.96055 844.01245 814.08875 4282664554
13.489908 844.01245 814.08875 4278985050
16.019266 844.01245 814.08875 4279902550
-3.6036696 749.1897 816.54248 4289821659
-1.8018348 749.1897 816.54248 4290282210
0 749.1897 816.54248 4291667676
-12.510092 763.45343 818.1051 4282006378
-10.722936 763.45343 818.1051 4279712114
-10.689908 767.06494 817.2262 4285036954
-13.362385 768.42706 818.37463 4286413226
-10.65688 770.66809 816.34009 4287799719
-13.293577 773.51715 816.12634 4287139002
-10.634862 773.51715 816.12634 4287536061
-12.957798 778.90601 816.74603 4284832919
-13.252294 781.15747 818.64441 4286543007
-10.458715 800.1059 817.61682 4286270549
-10.425688 803.62488 816.65979 4287262311
44.080734 839.82916 817.10168 4294967295
46.623856 839.82916 817.10168 4294967295
50.014679 839.82916 817.10168 4294967295
52.557796 839.82916 817.10168 4294967295
55.100918 839.82916 817.10168 4294967295
-16.07156 842.53802 816.76965 4291346909
0.84587157 842.53802 816.76965 4293979391
3.3834863 842.53802 816.76965 4293583359
19.455046 842.53802 816.76965 4281416308
22.838531 842.53802 816.76965 4282279319
25.376146 842.53802 816.76965 4289324799
27.913761 842.53802 816.76965 4294180095
31.297249 842.53802 816.76965 4294967295
34.680733 842.53802 816.76965 4294967295
38.106422 841.83167 817.48212 4294967295
40.689907 841.12531 818.19458 4294967295
42.385323 841.12531 818.19458 4294967295
45.776146 841.12531 818.19458 4294967295
50.014679 841.12531 818.19458 4294967295
52.557796 841.12531 818.19458 4294967295
55.100918 841.12531 818.19458 4294967295
58.427521 841.83167 817.48212 4294967295
61.748623 842.53802 816.76965 4294967295
-16.07156 843.83136 817.86011 4292993790
-10.99633 843.83136 817.86011 4293192191
-7.612844 843.83136 817.86011 4293324287
4.2293577 843.83136 817.86011 4294835711
7.612844 843.83136 817.86011 4293781759
10.99633 843.83136 817.86011 4292200951
13.533945 843.83136 817.86011 4283309280
16.07156 843.83136 817.86011 4281467015
-12.510092 764.8197 819.25708 4286083732
-14.179816 777.5824 819.55408 4287728827
-14.135779 782.5083 819.78345 4285429123
44.223854 839.00635 820.33203 4294967295
47.625687 839.00635 820.33203 4294967295
-19.530275 841.36414 820.35791 4292596948
-13.563303 842.42151 819.28735 4293389311
-4.2385321 842.42151 819.28735 4293587455
-1.6954129 842.42151 819.28735 4293981951
0.84770644 842.42151 819.28735 4294704383
19.497248 842.42151 819.28735 4281996639
22.888073 842.42151 819.28735 4284180644
25.431192 842.42151 819.28735 4289189375
27.974312 842.42151 819.28735 4293062911
31.365139 842.42151 819.28735 4294967295
34.755962 842.42151 819.28735 4294967295
37.420185 840.3067 821.42847 4294967295
39.971558 840.3067 821.42847 4294967295
42.522934 840.3067 821.42847 4294967295
46.77523 840.3067 821.42847 4294967295
49.326607 840.3067 821.42847 4294967295
51.877983 840.3067 821.42847 4294967295
55.279816 840.3067 821.42847 4294967295
58.58532 841.36414 820.35791 4294967295
61.984406 841.36414 820.35791 4294967295
-16.954128 843.71765 820.38025 4290105343
-11.020184 843.71765 820.38025 4291351295
-8.4770641 843.71765 820.38025 4290562301
5.0862384 843.71765 820.38025 4290298879
7.6293578 843.71765 820.38025 4290825215
11.302752 844.14972 820.74457 4294241791
13.563303 844.36572 820.9267 4294766591
16.106422 844.36572 820.92676 4294964223
23.735781 843.71765 820.38025 4282804875
44.319267 838.89679 822.85571 4294967295
-22.159634 840.19995 823.95447 4292534780
-19.291742 841.57147 823.36688 4292009724
-15.87523 842.47394 823.25586 4291616255
-13.60734 842.2572 823.07312 4292272383
-11.055964 842.90741 823.62134 4291088383
-7.3706422 842.47394 823.25586 4289970929
-4.2522936 842.2572 823.07312 4291220990
-1.7009175 842.2572 823.07312 4289970932
0.85045874 841.60706 822.5249 4289837558
4.2522936 842.2572 823.07312 4289773564
7.6541286 842.90741 823.62134 4290495474
10.205504 842.90741 823.62134 4292730092
19.560551 842.25726 823.07312 4290487781
22.6789 842.47394 823.25586 4283520426
25.513762 842.2572 823.07312 4285241537
27.781652 842.04053 822.89038 4290107391
31.466972 841.60706 822.5249 4294967295
34.868805 841.60706 822.5249 4294967295
37.500916 840.19995 823.95447 4294967295
40.015594 840.9035 823.23969 4294967295
43.466972 840.19995 823.95447 4294967295
46.876144 840.19995 823.95447 4294967295
49.433029 840.19995 823.95447 4294967295
51.989906 840.19995 823.95447 4294967295
55.399082 840.19995 823.95447 4294967295
58.681648 841.60706 822.5249 4294967295
62.083488 841.60706 822.5249 4294967295
-17.009174 844.20776 824.71777 4293916671
11.906422 844.20776 824.71777 4289836515
13.60734 844.20776 824.71777 4289375726
16.158716 844.20776 824.71777 4291479294
-23.941284 839.39679 827.20129 4293126911
-22.159634 842.15479 825.60266 4291878141
-19.88685 842.37201 825.78583 4292996351
-15.341285 842.80634 826.1521 4291942639
-13.636697 842.80634 826.1521 4291615231
-11.079817 842.80634 826.1521 4291220223
-7.6706419 842.80634 826.1521 4292338943
-4.2614679 842.80634 826.1521 4292601855
-1.7045871 842.80634 826.1521 4292469503
0.85229355 841.50317 825.05322 4288853216
3.97737 842.37201 825.78583 4290300662
7.6706419 842.80634 826.1521 4291416829
10.227523 842.80634 826.1521 4290165480
19.602753 842.80634 826.1521 4294570239
23.011927 842.80634 826.1521 4292732415
25.568808 842.80634 826.1521 4283591334
28.409784 842.37201 825.78583 4288535015
31.534863 842.15472 825.60266 4294967295
34.659939 841.93756 825.41949 4294967295
37.500916 841.50317 825.05322 4294967295
40.0578 841.50317 825.05322 4294967295
43.466972 841.50317 825.05322 4294967295
46.876144 841.50317 825.05322 4294967295
49.433029 841.50317 825.05322 4294967295
51.98991 842.15479 825.60266 4294967295
55.399082 842.15472 825.60266 4294967295
58.808258 842.15479 825.60266 4294967295
61.365139 842.15479 825.60266 4294967295
63.92202 842.15472 825.60266 4294967295
-19.602753 844.1095 827.25085 4294244863
-16.193579 844.1095 827.25085 4292863732
-13.636697 844.1095 827.25085 4289973247
-11.079817 844.1095 827.25085 4290367231
-6.8183484 844.1095 827.25085 4292930303
-3.4091742 844.1095 827.25085 4292996607
-1.7045871 844.1095 827.25085 4293128191
11.93211 844.1095 827.25085 4289112527
13.636697 844.1095 827.25085 4288980940
16.193579 844.1095 827.25085 4290954221
19.602753 844.1095 827.25085 4294243071
23.011927 844.1095 827.25085 4293915391
25.568808 844.1095 827.25085 4286744758
-29.133945 839.30273 829.73804 4290365412
-25.706423 839.30273 829.73804 4291683071
-25.706423 840.61292 830.84277 4292274431
-23.38838 841.10956 829.51752 4292470783
-8.5504589 842.01154 829.40601 4292011263
-5.1302752 842.01154 829.40601 4292930303
0.85504586 841.35785 828.85486 4291877882
4.2752295 842.01154 829.40601 4291549439
7.6954126 842.01154 829.40601 4292073727
10.26055 842.01154 829.40601 4291349488
28.216515 842.01154 829.40601 4287219171
31.636698 842.01154 829.40601 4294967295
35.341896 841.57574 829.03857 4294967295
37.622017 841.35785 828.85486 4294967295
40.230278 840.65857 829.57324 4294967295
43.607338 841.35785 828.85486 4294967295
47.027527 841.35785 828.85486 4294967295
49.592659 841.35785 828.85486 4294967295
52.157799 842.01154 829.40601 4294967295
55.57798 842.01154 829.40601 4294967295
58.998165 842.01154 829.40601 4294967295
61.563301 842.01154 829.40601 4294967295
64.128441 842.01154 829.40601 4294967295
66.693581 842.01154 829.40601 4294967295
-22.231194 843.31891 830.50842 4292996095
-19.666054 843.31891 830.50842 4293588479
-16.245872 843.31891 830.50842 4292732917
-13.680734 843.31891 830.50842 4289579775
-11.115597 843.31891 830.50842 4288461303
-7.6954126 843.31891 830.50842 4290958335
-4.2752295 843.31891 830.50842 4292864767
-1.7100917 843.31891 830.50842 4292931071
1.7100917 843.31891 830.50842 4292536063
4.2752295 843.31891 830.50842 4292271615
7.6954126 843.31891 830.50842 4291615231
11.115597 843.31891 830.50842 4291744761
13.680734 843.31891 830.50842 4290559971
16.245872 843.31891 830.50842 4290033627
19.666054 843.31891 830.50842 4290955762
23.086239 843.31891 830.50842 4293061631
25.651377 843.31891 830.50842 4293587455
28.216515 843.31891 830.50842 4294245631
31.636698 843.31891 830.50842 4294967295
53.012844 843.31891 830.50842 4294967295
55.57798 843.31891 830.50842 4294967295
58.998165 843.31891 830.50842 4294967295
61.563301 843.31891 830.50842 4294967295
-30.946789 838.51495 832.99792 4290497775
-27.508257 838.51495 832.99792 4289642732
-25.706423 841.9231 831.94751 4291945983
-23.992661 841.9231 831.94751 4292798463
0 841.9231 831.94751 4293128191
35.132111 841.9231 831.94751 4294967295
37.702751 841.9231 831.94751 4294967295
40.273396 841.9231 831.94751 4294967295
43.700916 841.9231 831.94751 4294967295
47.128441 841.9231 831.94751 4294967295
49.699081 841.9231 831.94751 4294967295
51.412846 841.9231 831.94751 4294967295
64.266052 841.9231 831.94751 4294967295
66.8367 841.9231 831.94751 4294967295
-22.278898 843.23328 833.05212 4292667135
-19.708256 843.23328 833.05212 4293785087
-16.280735 843.23328 833.05212 4292929012
-13.710092 843.23328 833.05212 4290695679
-11.13945 843.23328 833.05212 4288592117
-7.7119265 843.23328 833.05212 4290301951
-4.2844038 843.23328 833.05212 4293325311
-1.7137614 843.23328 833.05212 4293127423
1.7137614 843.23328 833.05212 4292733951
4.2844038 843.23328 833.05212 4292272895
8.5688076 843.23328 833.05212 4292075519
11.99633 843.23328 833.05212 4291153405
13.710092 843.23328 833.05212 4290428401
16.280735 843.23328 833.05212 4289770196
19.708256 843.23328 833.05212 4290363093
23.086239 844.62628 831.61072 4291614709
25.651377 844.62628 831.61072 4293852415
28.277065 843.23328 833.05212 4294443007
31.704586 843.23328 833.05212 4294967295
34.27523 843.23328 833.05212 4294967295
52.269726 843.23328 833.05212 4294967295
55.697247 843.23328 833.05212 4294967295
59.124771 843.23328 833.05212 4294967295
61.695412 843.23328 833.05212 4294967295
-31.874311 839.0921 836.10059 4289444331
-28.367889 839.82935 834.1062 4289642730
-28.367889 841.8009 835.76862 4290167791
-24.929358 841.8009 835.76862 4292207103
-22.350458 842.45813 836.32275 4286747338
-19.771561 842.45813 836.32275 4288914646
-16.333027 842.45813 836.32275 4290626047
-12.894495 842.45813 836.32275 4288460538
-10.315597 842.45813 836.32275 4286489792
-7.7366972 842.45813 836.32275 4289842674
-5.1577983 842.45813 836.32275 4293392639
0.57308871 842.02002 835.95331 4292668415
4.2981653 842.45813 836.32275 4292865535
7.4501534 842.02002 835.95331 4292141823
10.315597 841.8009 835.76862 4292338175
12.894495 842.45813 836.32275 4290693369
16.333027 842.45813 836.32275 4289770205
19.771561 842.45813 836.32275 4290363113
28.367889 842.45813 836.32275 4293851135
31.806421 842.45813 836.32275 4294967295
34.385323 842.45813 836.32275 4294967295
36.964218 841.14374 835.21448 4294967295
40.402752 841.14374 835.21448 4294967295
43.841286 841.14374 835.21448 4294967295
46.420185 841.14374 835.21448 4294967295
49.285629 841.58185 835.58392 4294967295
52.437614 842.45813 836.32275 4294967295
55.876144 842.45813 836.32275 4294967295
58.455048 842.45813 836.32275 4294967295
61.033943 842.45813 836.32275 4294967295
64.185928 841.58185 835.58392 4294967295
67.051376 841.14374 835.21448 4294967295
-3.4275229 844.54346 834.15686 4294180095
-1.7137614 844.54346 834.15686 4293390591
23.13578 844.54346 834.15686 4287998945
25.706423 844.54346 834.15686 4290962175
-31.874313 841.72644 838.3219 4290035951
-28.42844 842.38507 838.8772 4289641960
-25.844036 842.38507 838.8772 4291549430
0.8614679 842.38507 838.8772 4292931327
4.3073397 842.38507 838.8772 4292996351
7.753211 842.38507 838.8772 4292733695
10.337615 842.38507 838.8772 4292863743
12.060551 842.38507 838.8772 4291942655
16.367889 842.38507 838.8772 4290622183
31.874311 842.38507 838.8772 4294967295
34.458717 842.38507 838.8772 4294967295
37.043121 841.72644 838.3219 4294967295
40.488991 841.72644 838.3219 4294967295
43.93486 841.72644 838.3219 4294967295
46.519264 841.72644 838.3219 4294967295
48.816513 841.94598 838.50702 4294967295
51.688072 842.38507 838.8772 4294967295
62.025688 842.38507 838.8772 4294967295
64.897247 841.94598 838.50702 4294967295
67.194496 841.72644 838.3219 4294967295
-31.874311 843.70227 839.98779 4289773038
-28.42844 843.70227 839.98779 4288128983
-24.678289 843.72565 839.13556 4288917230
-22.350458 844.42969 837.98517 4286087122
-19.792662 843.73743 838.70941 4284843405
-16.35046 843.73743 838.70947 4282538420
-12.908257 843.73743 838.70941 4282205317
-10.326606 843.73743 838.70941 4281222740
-7.7449541 843.73743 838.70941 4290828517
-4.3027525 843.73743 838.70941 4294508543
-1.7211009 843.73743 838.70941 4293916671
8.6146793 843.70227 839.98779 4290826220
10.337615 843.70227 839.98779 4291545080
13.199388 843.72565 839.13556 4290952178
16.367889 843.70227 839.98779 4290355921
19.792662 843.73743 838.70941 4290751461
22.374311 843.73743 838.70941 4290358004
24.955963 843.73743 838.70941 4290167010
28.398165 843.73743 838.70941 4291222523
31.874311 843.70227 839.98779 4293850879
34.458717 843.70227 839.98779 4294967295
36.181652 843.70227 839.98779 4294967295
46.519264 843.70227 839.98779 4294967295
49.103668 843.70227 839.98779 4294967295
52.798779 843.72577 839.13556 4294967295
55.935776 843.73743 838.70941 4294967295
58.517433 843.73743 838.70941 4294967295
60.834248 843.72577 839.13556 4294967295
64.610092 843.70227 839.98779 4294967295
67.194496 843.70227 839.98779 4294967295
0.8642202 841.62537 842.16064 4293786111
4.3211012 841.62537 842.16064 4293193983
6.9137616 841.62537 842.16064 4292866047
38.025688 841.62537 842.16064 4294967295
40.618347 841.62537 842.16064 4294967295
44.07523 841.62537 842.16064 4294967295
-31.012844 845.01947 841.09851 4289379560
-28.42844 845.01947 841.09851 4287867349
-24.982569 845.01947 841.09851 4287603923
-22.398165 845.01947 841.09851 4289116138
-19.813763 845.01947 841.09851 4285102517
-16.367889 845.01947 841.09851 4278197270
-12.922018 845.01947 841.09851 4278190119
-10.337615 845.01947 841.09851 4278190118
-7.753211 845.01947 841.09851 4291547379
18.952293 845.01947 841.09851 4290747067
22.398165 845.01947 841.09851 4292396031
24.121101 845.01947 841.09851 4291349486
29.289907 845.01947 841.09851 4289576669
58.579815 845.01947 841.09851 4294967295
61.164223 845.01947 841.09851 4294967295
65.471558 845.01947 841.09851 4294967295
68.917435 845.01947 841.09851 4294967295
-31.874311 846.33667 842.20911 4290035693
-28.42844 846.33667 842.20911 4288457694
-24.982569 846.33667 842.20911 4286944971
-22.398165 846.33667 842.20911 4287800792
-19.813763 846.33667 842.20911 4287863757
-4.3256884 842.91797 844.55859 4294573311
-1.7302753 842.91797 844.55865 4294245887
0.86605507 841.56494 844.72583 4294114559
4.3302751 841.56494 844.72583 4294048767
7.7862387 842.91797 844.55859 4292335079
10.381651 842.91797 844.55865 4289171150
13.261162 842.92755 844.13068 4290683874
16.14312 842.92755 844.13068 4290286793
20.741285 842.94678 843.2749 4290093276
25.926605 842.94678 843.2749 4290691813
27.655046 842.94678 843.2749 4289774304
31.976147 842.94678 843.2749 4292142591
34.568806 842.94678 843.2749 4294967295
37.161469 842.94678 843.2749 4294967295
40.618347 842.94678 843.2749 4294967295
43.817738 842.92755 844.13068 4294967295
46.156574 842.90839 844.98657 4294967295
49.260551 842.94678 843.2749 4294967295
52.71743 842.94678 843.2749 4294967295
55.310093 842.94678 843.2749 4294967295
57.038532 842.94678 843.2749 4294967295
63.952293 842.94678 843.2749 4294967295
67.409172 842.94678 843.2749 4294967295
-25.062386 845.5896 845.50317 4287471320
-22.469725 845.5896 845.50317 4287668172
-19.877064 845.5896 845.50317 4288782794
-16.420183 844.26819 844.38904 4283850870
-12.963303 844.26819 844.38904 4280292156
-10.370643 844.26819 844.38904 4287330153
-7.7779818 844.26819 844.38904 4292990170
12.099083 844.26819 844.38904 4290154959
17.284403 844.26819 844.38904 4289624738
19.588991 844.70868 844.76044 4290155716
22.469725 844.92889 844.94611 4291409641
25.062386 844.26819 844.38904 4292138747
28.807341 844.70868 844.76044 4292007925
31.976147 844.26819 844.38904 4290696696
34.568806 844.26819 844.38904 4294049791
37.161469 844.26819 844.38904 4294967295
40.618347 844.26819 844.38904 4294967295
49.260551 844.26819 844.38904 4294967295
52.71743 844.26819 844.38904 4294967295
55.310093 844.26819 844.38904 4294967295
57.902752 844.26819 844.38904 4294967295
61.359634 844.26819 844.38904 4294967295
64.816513 844.26819 844.38904 4294967295
67.409172 844.26819 844.38904 4294967295
69.137611 844.26819 844.38904 4294967295
-32.735779 847.65387 843.3197 4290364917
-28.42844 847.65387 843.3197 4288786933
0.86880732 840.82068 848.02234 4294443007
4.3440366 840.82068 848.02234 4294639103
-25.115597 845.5376 848.07544 4290823926
-22.517431 845.5376 848.07544 4290493676
-19.919266 845.5376 848.07544 4290228957
-16.455046 844.21338 846.95898 4288191691
-12.990826 844.21338 846.95898 4286944161
-10.39266 844.21338 846.95898 4287337705
-8.6605501 844.21338 846.95898 4291285247
7.7944956 844.21338 846.95898 4291937498
10.39266 844.21338 846.95898 4289562066
12.702141 844.65479 847.33112 4290222548
16.455046 844.21338 846.95898 4288841399
20.78532 844.21338 846.95898 4290095578
25.115597 844.21338 846.95898 4292531705
28.579817 844.87549 847.51721 4292529663
32.044037 844.21338 846.95898 4290104567
34.6422 844.87549 847.51721 4291880191
37.240368 844.87549 847.51721 4294901759
40.415901 844.65479 847.33112 4294967295
45.900917 844.21338 846.95898 4294967295
49.365139 844.21338 846.95898 4294967295
52.829357 844.21338 846.95898 4294967295
55.427525 844.21338 846.95898 4294967295
58.025688 844.21338 846.95898 4294967295
61.489906 844.21338 846.95898 4294967295
65.242821 844.65479 847.33112 4294967295
-27.655046 846.91101 846.61743 4290891004
-6.9504585 842.14911 849.14246 4292666111
-4.3440366 842.14911 849.14246 4294245119
-1.7376146 842.14911 849.14246 4294639615
0.87155962 840.08478 851.32593 4294901759
4.3440366 842.14911 849.14246 4294572543
43.440369 842.14911 849.14246 4294967295
-24.326605 844.80591 851.38269 4291480575
-22.588991 844.80591 851.38269 4290625529
-19.982569 844.80591 851.38269 4290752986
-16.507339 844.14172 850.82263 4291281118
-13.03211 844.14172 850.82263 4292073208
-10.425688 844.14172 850.82263 4291286010
-8.1088686 843.92035 850.63593 4291351805
7.8192658 843.47754 850.26257 4292193259
10.425688 843.47754 850.26257 4292724732
13.900917 843.47754 850.26257 4292200447
16.507339 843.47754 850.26257 4291676150
19.982569 843.47754 850.26257 4292071924
22.588991 843.47754 850.26257 4288913087
25.195412 843.47754 850.26257 4290089190
28.670643 844.14172 850.82263 4291015934
31.277063 843.47754 850.26257 4287934160
33.593884 844.3631 851.00928 4290696186
37.358719 844.80591 851.38269 4294901759
40.833946 844.14172 850.82263 4294967295
43.440369 843.47754 850.26257 4294967295
46.046791 843.47754 850.26257 4294967295
49.522018 843.47754 850.26257 4294967295
52.997246 843.47754 850.26257 4294967295
55.603668 843.47754 850.26257 4294967295
58.210091 843.47754 850.26257 4294967295
61.685318 843.47754 850.26257 4294967295
64.29174 843.47754 850.26257 4294967295
-25.981651 846.86182 849.19202 4291416575
-6.972477 842.75006 853.57324 4291941631
-4.3577981 842.08374 853.01147 4292994815
-1.7431192 842.08374 853.01141 4292665342
0.87155962 841.41742 852.44958 4292929535
4.3577981 841.41742 852.44958 4292464631
7.8440366 842.75006 853.57324 4292395499
10.458715 842.75006 853.57324 4294503423
13.073395 842.75006 853.57324 4293648895
16.559633 842.75006 853.57324 4293387519
20.045872 842.75006 853.57324 4292533246
22.660551 842.75006 853.57324 4288059073
25.27523 842.75006 853.57324 4287990241
27.889908 842.75006 853.57324 4289306867
31.376146 842.75006 853.57324 4288458204
41.834862 842.75006 853.57324 4294967295
43.57798 842.75006 853.57324 4294967295
46.192661 842.75006 853.57324 4294967295
49.678898 842.75006 853.57324 4294967295
52.293579 842.75006 853.57324 4294967295
54.908257 842.75006 853.57324 4294967295
58.394493 842.75006 853.57324 4294967295
61.880733 842.75006 853.57324 4294967295
64.495415 842.75006 853.57324 4294967295
-22.660551 844.0827 854.6969 4289376226
-19.174313 844.0827 854.6969 4289239999
-17.431192 844.0827 854.6969 4289436349
-13.073395 844.0827 854.6969 4291152110
-10.458715 844.0827 854.6969 4291744767
-7.8440366 844.0827 854.6969 4290822899
17.431192 844.0827 854.6969 4293717759
22.660551 844.0827 854.6969 4290099674
24.403669 844.0827 854.6969 4288781023
29.633028 844.0827 854.6969 4289836777
31.376146 844.0827 854.6969 4289246691
33.990826 844.0827 854.6969 4290760441
37.477066 844.0827 854.6969 4294508543
40.091743 844.0827 854.6969 4294967295
54.908257 844.0827 854.6969 4294967295
58.394493 844.0827 854.6969 4294967295
61.880733 844.0827 854.6969 4294967295
64.495415 844.0827 854.6969 4294967295
-25.195412 846.13434 852.50269 4290692346
-20.851376 846.13434 852.50269 4288516533
-15.638532 846.13434 852.50269 4290686160
-4.3669724 842.7149 856.15967 4290163179
-1.746789 842.7149 856.15967 4291544575
0.87339449 841.37946 855.03369 4290888184
4.3669724 841.37946 855.03369 4290292967
7.8605504 842.7149 856.15967 4293650684
10.480734 842.7149 856.15967 4293321727
13.100918 842.7149 856.15967 4291019503
15.721101 842.7149 856.15967 4292993535
20.088074 842.7149 856.15967 4293454847
26.201836 842.7149 856.15967 4288386521
27.948624 842.7149 856.15967 4288520917
41.922935 842.7149 856.15967 4294967295
43.669724 842.7149 856.15967 4294967295
46.289909 842.7149 856.15967 4294967295
49.783485 842.7149 856.15967 4294967295
52.403671 842.7149 856.15967 4294967295
-25.27523 845.41528 855.82056 4289767402
-22.660551 845.41528 855.82056 4289371599
-20.045872 845.41528 855.82056 4289958591
-16.559633 845.41528 855.82056 4290222522
-13.073395 845.41528 855.82056 4290230481
-10.458715 845.41528 855.82056 4291678975
-7.8440366 845.41528 855.82056 4290625773
-4.3669724 844.05029 857.28564 4290230236
-1.746789 844.05029 857.28564 4292598527
19.21468 844.05029 857.28564 4293586175
22.708258 844.05029 857.28564 4292271871
25.328442 844.05029 857.28564 4289639666
28.822018 844.05029 857.28564 4289706215
31.442202 844.05029 857.28564 4289246706
34.062386 844.05029 857.28564 4290299901
37.555962 844.05029 857.28564 4294245887
41.049541 844.05029 857.28564 4294967295
43.669724 844.05029 857.28564 4294967295
46.289909 844.05029 857.28564 4294967295
49.783485 844.05029 857.28564 4294967295
52.403671 844.05029 857.28564 4294967295
55.023853 844.05029 857.28564 4294967295
58.517433 844.05029 857.28564 4294967295
61.944954 844.73279 856.5531 4294967295
64.495415 845.41528 855.82056 4294967295
-25.27523 846.74792 856.94421 4289103038
-15.688073 846.74792 856.94421 4290084776
62.752293 846.74792 856.94421 4294967295
0.87706423 840.99182 859.28491 4292070398
4.3853211 840.65057 859.65125 4292926202
7.901835 840.63788 860.94861 4293190904
10.53578 840.63788 860.94861 4291742686
13.142202 842.00287 859.4834 4291348187
16.64679 842.00287 859.4834 4293849087
21.027523 842.00287 859.4834 4293061375
-22.708258 845.38574 858.41162 4289100983
-20.088074 845.38574 858.41162 4289757342
-17.46789 845.38574 858.41162 4289821347
-13.100918 845.38574 858.41162 4289961678
-10.480734 845.38574 858.41162 4290956543
-7.8605504 845.38574 858.41162 4291021558
-4.3724771 844.36414 859.51227 4290691043
-1.7522936 843.34247 860.61292 4290953445
19.275229 843.34247 860.61292 4292008447
22.779816 843.34247 860.61292 4292536319
25.408257 843.34247 860.61292 4292732669
28.912844 843.34247 860.61292 4289182710
31.541285 843.34247 860.61292 4287667899
34.169724 843.34247 860.61292 4290628335
37.674309 843.34247 860.61292 4294574079
40.302753 843.34247 860.61292 4294967295
42.93119 843.34247 860.61292 4294967295
46.43578 843.34247 860.61292 4294967295
49.940369 843.34247 860.61292 4294967295
52.403671 845.38574 858.41162 4294967295
55.023853 845.38574 858.41162 4294967295
58.517433 845.38574 858.41162 4294967295
61.137615 845.38574 858.41162 4294967295
-10.480734 846.72119 859.53772 4291677951
-7.8605504 846.72119 859.53772 4291678202
