# .PCD v0.7 - Point Cloud Data file format
VERSION 0.7
FIELDS x y z rgb
SIZE 4 4 4 4
TYPE F F F U
COUNT 1 1 1 1
WIDTH 1160
HEIGHT 1
VIEWPOINT 0 0 0 1 0 0 0
POINTS 1160
DATA ascii
-22.521101 831.30176 1291.2666 4286418875
-9.4825687 831.30176 1291.2666 4292199167
-7.1119266 832.20795 1292.0306 4294174975
-4.7412844 832.20795 1292.0306 4293916671
-28.337614 839.28162 1291.4548 4288180131
-25.976147 839.28162 1291.4548 4292390884
-22.433945 839.28162 1291.4548 4290425338
-25.976147 841.08698 1292.9771 4291734727
-22.433945 841.08698 1292.9771 4291873535
-7.0844035 841.08698 1292.9771 4292211455
-16.466055 845.42102 1290.0913 4291015423
-14.113762 845.42102 1290.0913 4287796696
-34.473396 758.60126 1295.3689 4293650943
-32.011009 757.66003 1294.5752 4294045695
-28.317432 756.71875 1293.7816 4293589247
-13.953517 757.97382 1294.8397 4284964795
-31.891743 766.02905 1295.0917 4285038521
-29.438532 766.02905 1295.0917 4283663819
-12.266055 765.09131 1294.301 4287534766
-9.8128443 765.09131 1294.301 4292926704
-4.9064221 765.09131 1294.301 4294967295
-29.32844 773.42188 1294.7849 4293652223
-26.069723 772.79907 1294.2598 4290757086
-21.99633 773.42188 1294.7849 4283255169
-19.552294 772.48767 1293.9972 4279718024
-17.108257 772.48767 1293.9972 4287218682
-14.66422 772.48767 1293.9972 4292929279
-2.4440367 773.42188 1294.7849 4294705151
1.2220184 773.42188 1294.7849 4294836223
4.8880734 773.42188 1294.7849 4294639615
-24.348623 779.84888 1293.6639 4293719551
-21.913761 779.84888 1293.6639 4287534774
0 779.84888 1293.6639 4294114559
-24.348623 781.71033 1295.2334 4293521663
-21.913761 781.71033 1295.2334 4292797951
-19.478899 781.71033 1295.2334 4289776639
-14.609175 781.71033 1295.2334 4288460799
-24.238533 788.63611 1293.2249 4292272124
-21.814678 788.63611 1293.2249 4293785343
-19.390825 788.63611 1293.2249 4294049791
-16.966972 788.63611 1293.2249 4284904841
-14.543119 788.63611 1293.2249 4284719087
-25.450459 790.48914 1294.7874 4290893055
-21.814678 790.48914 1294.7874 4291618815
-19.390825 790.48914 1294.7874 4294967295
-16.966972 790.48914 1294.7874 4289047733
-14.543119 790.48914 1294.7874 4287142568
-25.35413 796.8432 1293.6047 4290420966
-21.732111 796.8432 1293.6047 4292990463
-12.073395 796.8432 1293.6047 4292671487
-9.6587152 796.8432 1293.6047 4293522943
-31.390825 798.68921 1295.1613 4288636556
-28.976147 798.68921 1295.1613 4288637328
-24.14679 798.68921 1295.1613 4290154428
-9.6587152 798.68921 1295.1613 4293654015
-7.2440367 798.68921 1295.1613 4293851647
-4.8293576 798.68921 1295.1613 4294048511
-31.271559 805.92767 1294.7244 4291531681
-28.866055 805.92767 1294.7244 4291661992
-25.257797 805.92773 1294.7245 4291069597
-12.027523 805.92767 1294.7244 4292139007
-9.6220188 805.92767 1294.7244 4292733695
-7.2165136 805.92767 1294.7244 4293325567
-4.8110094 805.92767 1294.7244 4293390079
-22.765137 814.04712 1295.0303 4294155192
-19.170643 814.04712 1295.0303 4293960153
-16.774311 814.04712 1295.0303 4294947562
-14.377981 814.04712 1295.0303 4291011813
-10.783486 814.04712 1295.0303 4291674869
-7.1889906 814.04712 1295.0303 4293719295
-4.7926607 814.04712 1295.0303 4293653759
-2.3963304 814.04712 1295.0303 4293719551
0 814.96313 1295.8027 4293719551
-28.645872 821.21198 1294.5314 4293700055
-26.258715 821.21198 1294.5314 4293305553
-22.677982 821.21198 1294.5314 4292250796
-19.097248 821.21198 1294.5314 4293041318
-16.710093 821.21198 1294.5314 4294817729
-14.322936 821.21198 1294.5314 4291867095
-10.742202 821.21198 1294.5314 4291280872
-7.161468 821.21198 1294.5314 4293655295
-4.774312 821.21198 1294.5314 4294048511
-30.937614 826.91858 1294.111 4286672053
-28.557798 826.91858 1294.111 4287785896
-26.177982 826.91858 1294.111 4289891015
-23.798164 826.91858 1294.111 4290219706
-7.1394496 826.91858 1294.111 4293980671
-4.7596331 826.91858 1294.111 4293982463
-2.3798165 826.91858 1294.111 4294048255
0 826.91858 1294.111 4293850879
-28.557798 828.73798 1295.645 4284643758
-2.3798165 828.73798 1295.645 4293587711
0 828.73798 1295.645 4293259263
-40.300919 835.8327 1295.0869 4289438164
-37.930275 836.73889 1295.851 4290552295
-34.374313 836.73889 1295.851 4290813661
-30.818348 835.8327 1295.0869 4289429183
-28.447706 834.92651 1294.3229 4289230512
-4.7412844 834.92651 1294.3229 4293521663
-25.976147 842.89233 1294.4993 4290939092
-22.433945 842.89233 1294.4993 4290160613
-18.891743 842.89233 1294.4993 4291278591
-10.626606 842.89233 1294.4993 4284643266
-7.0844035 842.89233 1294.4993 4291621887
-12.311927 760.48376 1296.9562 4282539178
-4.9247708 760.48376 1296.9562 4294967295
-7.387156 762.36627 1298.5435 4294967295
-2.4623854 762.36627 1298.5435 4294967295
0 762.36627 1298.5435 4294967295
-31.891743 768.84229 1297.4637 4294967295
-29.438532 768.84229 1297.4637 4293258495
-9.8128443 768.84229 1297.4637 4294967295
-7.359633 768.84229 1297.4637 4294967295
-4.9064221 768.84229 1297.4637 4294967295
-2.4532111 768.84229 1297.4637 4294967295
1.2266055 768.84229 1297.4637 4294967295
-29.32844 775.29034 1296.3604 4290825720
-25.662384 775.29034 1296.3604 4294835711
-21.99633 775.29034 1296.3604 4283388009
-19.552294 775.29034 1296.3604 4278206852
-17.108257 775.29034 1296.3604 4286896639
-14.66422 775.29034 1296.3604 4291943935
-7.3321099 775.29034 1296.3604 4294574079
-4.8880734 775.29034 1296.3604 4294574079
-2.4440367 775.29034 1296.3604 4294836223
2.4440367 775.29034 1296.3604 4294770687
4.8880734 775.29034 1296.3604 4294770687
-29.32844 777.15887 1297.9358 4291088383
-26.884403 777.15887 1297.9358 4293785855
-19.552294 777.15887 1297.9358 4284709261
-17.108257 777.15887 1297.9358 4287735739
-13.442202 777.15887 1297.9358 4292206335
-9.7761469 777.15887 1297.9358 4293785855
-7.3321099 777.15887 1297.9358 4293785855
-4.8880734 777.15887 1297.9358 4293982719
-2.4440367 777.15887 1297.9358 4294114303
2.4440367 777.15887 1297.9358 4294377471
4.8880734 777.15887 1297.9358 4294180607
-29.218349 785.43329 1298.3726 4294375167
-25.971865 784.19232 1297.3262 4293586175
-21.913761 783.57184 1296.803 4294442239
-19.478899 783.57184 1296.803 4294574079
-17.044037 783.57184 1296.803 4287337635
-12.985932 784.19232 1297.3262 4289913087
-9.7394495 785.43329 1298.3726 4294180607
-7.3045874 785.43329 1298.3726 4293654271
-31.510092 794.19525 1297.9122 4289360283
-29.086239 793.26868 1297.131 4291211487
-25.450459 792.34216 1296.3497 4292532991
-21.814678 792.34216 1296.3497 4292600063
-19.390825 792.34216 1296.3497 4292867071
-16.966972 792.34216 1296.3497 4290235370
-13.331193 792.34216 1296.3497 4289846759
-7.2715597 794.19525 1297.9122 4293720319
-4.8477063 794.19525 1297.9122 4293588991
-2.4238532 794.19525 1297.9122 4293523199
-31.390825 800.53528 1296.7178 4290085526
-28.976147 800.53528 1296.7178 4291269284
-7.2440367 800.53528 1296.7178 4293521663
-4.8293576 800.53528 1296.7178 4293456127
-2.4146788 800.53528 1296.7178 4293456127
-33.805504 802.38135 1298.2743 4289952393
-2.4146788 802.38135 1298.2743 4293258751
0 802.38135 1298.2743 4293455615
-33.677063 808.68622 1297.0503 4289887894
-31.271559 808.68622 1297.0503 4292256442
-28.866055 808.68622 1297.0503 4292119466
-25.257797 808.68622 1297.0503 4291985827
-16.838531 808.68622 1297.0503 4294490074
-12.027523 808.68622 1297.0503 4291542783
-9.6220188 808.68622 1297.0503 4291615231
-4.8110094 808.68622 1297.0503 4293653503
-2.4055047 808.68622 1297.0503 4293719551
0 808.68622 1297.0503 4293587711
-36.082569 810.52527 1298.601 4288376229
-33.677063 810.52527 1298.601 4289097095
-31.271559 810.52527 1298.601 4290478748
-28.866055 810.52527 1298.601 4291984784
-26.46055 810.52527 1298.601 4293037473
0 810.52527 1298.601 4293654015
-40.737614 818.62714 1298.8921 4284573062
-38.341286 818.62714 1298.8921 4288118911
-34.746788 817.71118 1298.1198 4291733437
-31.152294 817.71118 1298.1198 4293244880
-28.755962 816.79517 1297.3474 4293963465
-26.359632 816.79517 1297.3474 4293634500
-23.963303 816.79517 1297.3474 4292648900
-19.170643 816.79517 1297.3474 4293176279
-16.774311 816.79517 1297.3474 4294426346
-14.377981 816.79517 1297.3474 4291538646
-10.783486 816.79517 1297.3474 4291346664
-7.1889906 816.79517 1297.3474 4293588479
-4.7926607 816.79517 1297.3474 4293653503
-2.3963304 817.71118 1298.1198 4293521919
0 817.71118 1298.1198 4293390335
-40.58165 824.862 1297.609 4284245948
-38.194496 824.862 1297.609 4283851415
-34.613762 824.862 1297.609 4285492138
-31.033028 823.03699 1296.0702 4288900016
-28.645872 823.03699 1296.0702 4290802351
-26.258715 823.03699 1296.0702 4292184004
-22.677982 823.03699 1296.0702 4292839092
-19.097248 823.03699 1296.0702 4291979683
-16.710093 823.03699 1296.0702 4292769199
-9.548624 823.03699 1296.0702 4290561535
-7.161468 823.03699 1296.0702 4293587967
-4.774312 823.03699 1296.0702 4293785599
-2.387156 823.03699 1296.0702 4293654015
0 823.03699 1296.0702 4293391615
-40.456882 830.55737 1297.1791 4287271104
-38.077065 830.55737 1297.1791 4288649145
-34.507339 830.55737 1297.1791 4289436878
-30.937614 830.55737 1297.1791 4288513993
-2.3798165 830.55737 1297.1791 4293653503
0 830.55737 1297.1791 4293390079
-38.077065 832.37677 1298.7131 4290158299
-34.507339 832.37677 1298.7131 4290681566
-2.3798165 832.37677 1298.7131 4293126911
0 832.37677 1298.7131 4292600831
-42.671558 838.55127 1297.3792 4286009760
-40.300919 838.55127 1297.3792 4286470311
-37.930275 838.55127 1297.3792 4286073508
-34.374313 838.55127 1297.3792 4286204317
-30.818348 838.55127 1297.3792 4286006418
-28.447706 838.55127 1297.3792 4285287013
-4.7412844 838.55127 1297.3792 4293259263
-2.3706422 838.55127 1297.3792 4292798719
0 838.55127 1297.3792 4292601599
-42.671558 840.36365 1298.9072 4287268580
-40.300919 840.36365 1298.9072 4285952720
-37.930275 840.36365 1298.9072 4286076316
-34.374313 840.36365 1298.9072 4285875081
-30.818348 840.36365 1298.9072 4286726791
-28.447706 840.36365 1298.9072 4286662547
-4.7412844 840.36365 1298.9072 4293325055
-2.3706422 840.36365 1298.9072 4292996351
0 840.36365 1298.9072 4293061119
-30.699083 844.69769 1296.0215 4293114111
-28.337614 844.69769 1296.0215 4292851434
-25.976147 844.69769 1296.0215 4292522726
-22.433945 844.69769 1296.0215 4286610401
-18.891743 844.69769 1296.0215 4285032413
-16.530275 844.69769 1296.0215 4284571862
-14.168807 844.69769 1296.0215 4284045492
-10.626606 844.69769 1296.0215 4283720886
-7.0844035 844.69769 1296.0215 4291488511
-33.060551 846.50305 1297.5438 4293317375
-30.699083 846.50305 1297.5438 4293251583
-28.337614 846.50305 1297.5438 4292922879
-25.976147 846.50305 1297.5438 4292857087
-22.433945 846.50305 1297.5438 4288513784
-18.891743 846.50305 1297.5438 4286473904
-16.530275 846.50305 1297.5438 4285355680
-14.168807 846.50305 1297.5438 4284044460
-11.80734 846.50305 1297.5438 4282333842
-9.8862381 755.86212 1299.5995 4278195827
-7.4146791 755.86212 1299.5995 4281424567
-4.943119 755.86212 1299.5995 4284974577
-2.4715595 755.86212 1299.5995 4291751423
-34.601833 757.75165 1301.1926 4279192014
-9.8862381 757.75165 1301.1926 4287531932
-7.4146791 757.75165 1301.1926 4293124337
-2.4715595 757.75165 1301.1926 4294967295
0 757.75165 1301.1926 4294967295
-34.473396 764.24878 1300.1307 4291942143
-12.311927 764.24878 1300.1307 4294967295
-9.8495417 764.24878 1300.1307 4294967295
-7.387156 764.24878 1300.1307 4294967295
-4.9247708 764.24878 1300.1307 4294967295
-2.4623854 764.24878 1300.1307 4294967295
1.2311927 764.24878 1300.1307 4294770687
-34.473396 766.13135 1301.718 4293785855
-31.891743 770.71783 1299.0452 4289715455
-12.266055 770.71783 1299.0452 4294836223
-9.8128443 770.71783 1299.0452 4294639615
-7.359633 770.71783 1299.0452 4294508543
-4.9064221 770.71783 1299.0452 4294508543
-34.344955 772.59332 1300.6265 4289120255
-31.891743 772.59332 1300.6265 4286949362
-12.266055 772.59332 1300.6265 4294311935
-9.8128443 772.59332 1300.6265 4294574079
-29.32844 779.02734 1299.5114 4293652479
-26.884403 779.02734 1299.5114 4293915903
-17.108257 779.02734 1299.5114 4286289617
-12.220183 779.02734 1299.5114 4293000447
-9.7761469 779.02734 1299.5114 4294048767
-7.3321099 779.02734 1299.5114 4293720063
-4.8880734 779.02734 1299.5114 4293916927
-2.4440367 779.02734 1299.5114 4294048511
0 779.02734 1299.5114 4294114559
-31.772476 780.89581 1301.0868 4293522175
-29.32844 780.89581 1301.0868 4293980927
-9.7761469 780.89581 1301.0868 4293983743
-7.3321099 780.89581 1301.0868 4293457407
-4.8880734 780.89581 1301.0868 4293325823
-2.4440367 780.89581 1301.0868 4293588991
0 780.89581 1301.0868 4293916927
-29.218349 787.2948 1299.942 4294114559
-12.174312 787.2948 1299.942 4293392895
-9.7394495 787.2948 1299.942 4293719551
-7.3045874 787.2948 1299.942 4293587967
-4.8697248 787.2948 1299.942 4293587711
-2.4348624 787.2948 1299.942 4293719551
0 787.2948 1299.942 4293653759
-34.088074 789.15625 1301.5116 4290025908
-31.653212 789.15625 1301.5116 4293183972
-9.7394495 789.15625 1301.5116 4294114559
-7.3045874 789.15625 1301.5116 4293982975
-4.8697248 789.15625 1301.5116 4293720063
-2.4348624 789.15625 1301.5116 4293654271
0 789.15625 1301.5116 4293587967
-33.933945 797.90137 1301.0371 4289361802
-2.4238532 796.04828 1299.4746 4294048511
0 796.97485 1300.2559 4293324543
-37.025074 805.45801 1300.8685 4288836754
-33.805504 804.22736 1299.8308 4290611092
-2.4146788 804.22736 1299.8308 4293390079
0 804.22736 1299.8308 4293455615
14.488073 805.15039 1300.6091 4293456127
-37.285324 812.36426 1300.1516 4290679768
-33.677063 812.36426 1300.1516 4291598751
-31.271559 812.36426 1300.1516 4291532958
-28.866055 812.36426 1300.1516 4292711585
-26.46055 812.36426 1300.1516 4293764273
19.244038 812.36426 1300.1516 4293258751
-43.299084 814.20331 1301.7021 4288051644
-40.893578 814.20331 1301.7021 4289038539
-38.488075 814.20331 1301.7021 4291140035
14.433027 814.20331 1301.7021 4293258751
19.244038 814.20331 1301.7021 4293061631
-40.737614 820.45917 1300.4368 4282340238
-38.341286 820.45917 1300.4368 4283386471
-34.746788 820.45917 1300.4368 4286143115
-43.133945 822.2912 1301.9814 4285759187
2.3963304 822.2912 1301.9814 4293719551
14.377981 822.2912 1301.9814 4293258751
-40.58165 826.68701 1299.1478 4286351299
-38.194496 826.68701 1299.1478 4285235112
-34.613762 826.68701 1299.1478 4286549699
-31.033028 826.68701 1299.1478 4286022082
2.387156 826.68701 1299.1478 4293193471
-42.968807 828.51196 1300.6866 4286876346
2.387156 828.51196 1300.6866 4293258751
-45.216515 836.0155 1301.7812 4285228729
-42.836697 834.19617 1300.2472 4285950366
-2.3798165 834.19617 1300.2472 4293323519
0 834.19617 1300.2472 4292929279
-46.227524 842.17603 1300.4354 4291416831
-42.671558 842.17603 1300.4354 4292138495
-40.300919 842.17603 1300.4354 4291480575
-37.930275 842.17603 1300.4354 4292133374
-34.374313 842.17603 1300.4354 4292656639
-4.7412844 842.17603 1300.4354 4292997375
-2.3706422 842.17603 1300.4354 4292668159
0 842.17603 1300.4354 4292798463
-46.227524 843.9884 1301.9636 4291350522
-42.671558 843.9884 1301.9636 4291678719
-40.300919 843.9884 1301.9636 4291941631
-37.930275 843.9884 1301.9636 4292465407
-35.559631 843.9884 1301.9636 4292925695
-9.4825687 843.9884 1301.9636 4282674861
-7.1119266 843.9884 1301.9636 4291030527
-4.7412844 843.9884 1301.9636 4293194239
-2.3706422 843.9884 1301.9636 4292733695
0 843.9884 1301.9636 4292864255
-33.060551 848.30841 1299.066 4290624511
-30.699083 848.30841 1299.066 4290229754
-28.337614 848.30841 1299.066 4289901036
-25.976147 848.30841 1299.066 4290690809
-22.433945 848.30841 1299.066 4293121279
-18.891743 848.30841 1299.066 4294302975
-16.530275 848.30841 1299.066 4294302975
-14.168807 848.30841 1299.066 4290427647
-37.073395 761.5307 1304.379 4292137727
-34.601833 759.64117 1302.7859 4279059342
-36.93578 768.95508 1304.0989 4292470015
-34.473396 768.01379 1303.3053 4289386495
-34.344955 775.40662 1302.9985 4289709567
-31.891743 775.40662 1302.9985 4290038527
2.4532111 776.34436 1303.7893 4294508543
4.9064221 776.34436 1303.7893 4294377215
7.359633 776.34436 1303.7893 4294311423
-31.772476 782.76428 1302.6622 4294571519
-4.8880734 782.76428 1302.6622 4293653759
-2.4440367 782.76428 1302.6622 4293982463
0 782.76428 1302.6622 4293851135
-36.660549 784.63281 1304.2377 4289301456
-34.216515 784.63281 1304.2377 4292065279
-31.772476 784.63281 1304.2377 4294762751
-36.522934 791.0177 1303.0812 4288640128
-34.088074 791.0177 1303.0812 4288504974
0 791.0177 1303.0812 4293128447
-36.522934 792.87921 1304.6508 4289034373
-34.088074 792.87921 1304.6508 4288965777
-36.3578 799.75439 1302.5996 4289231236
14.543119 799.75439 1302.5996 4293719551
-38.781651 801.60742 1304.162 4289429394
-43.464222 809.7655 1304.5005 4291606008
-41.049541 809.7655 1304.5005 4291145457
-38.634861 807.91943 1302.9438 4289100209
2.4146788 808.84247 1303.7222 4293785599
4.8293576 809.7655 1304.5005 4293916927
7.2440367 809.7655 1304.5005 4293587967
9.6587152 809.7655 1304.5005 4293587711
13.280735 808.84247 1303.7222 4293456383
16.902752 808.84247 1303.7222 4293456127
-64.948624 816.04236 1303.2528 4282929799
-45.704586 816.96185 1304.0281 4283585142
-43.299084 816.96185 1304.0281 4283456650
2.4055047 816.96185 1304.0281 4293654271
4.8110094 817.88135 1304.8035 4293259775
7.2165136 817.88135 1304.8035 4293259775
13.631192 817.26837 1304.2866 4293193215
-45.530273 824.12317 1303.5262 4286744256
-43.133945 824.12317 1303.5262 4287338194
4.7926607 824.12317 1303.5262 4292995071
7.1889906 824.12317 1303.5262 4293061119
10.783486 824.12317 1303.5262 4293126911
14.377981 824.12317 1303.5262 4293390079
-42.968807 830.33698 1302.2253 4287004336
-45.355965 832.16199 1303.7642 4284638364
2.387156 832.16199 1303.7642 4293192703
-52.355965 837.8349 1303.3153 4288850633
-49.976147 838.74463 1304.0823 4290364135
-46.406422 837.8349 1303.3153 4288388095
2.3798165 838.74463 1304.0823 4292929791
4.7596331 839.6543 1304.8494 4292535807
7.1394496 839.6543 1304.8494 4293062143
9.5192661 839.6543 1304.8494 4292799743
-46.227524 845.80078 1303.4917 4290496247
-42.671558 845.80078 1303.4917 4290232303
-40.300919 845.80078 1303.4917 4289113821
-37.930275 845.80078 1303.4917 4288585449
-35.559631 845.80078 1303.4917 4289769466
-10.667891 845.80078 1303.4917 4283326349
-7.1119266 845.80078 1303.4917 4291159549
-4.7412844 845.80078 1303.4917 4292733439
-2.3706422 845.80078 1303.4917 4292799231
0 845.80078 1303.4917 4292864767
-37.238533 754.47314 1306.2765 4281030888
-39.7211 756.37109 1307.8767 4286416895
-37.238533 756.37109 1307.8767 4283916778
2.4825687 756.37109 1307.8767 4294967295
4.9651375 756.37109 1307.8767 4294836223
-37.073395 763.42023 1305.9723 4293719039
-12.357799 763.42023 1305.9723 4294967295
-39.544952 765.30975 1307.5654 4291614719
-39.398167 771.77887 1306.4799 4288128491
-36.93578 771.77887 1306.4799 4290102271
-36.798164 778.21985 1305.3706 4292338943
-34.344955 778.21985 1305.3706 4292601087
2.4532111 778.21985 1305.3706 4293982719
4.9064221 778.21985 1305.3706 4294113535
7.359633 778.21985 1305.3706 4294179583
-36.798164 780.09534 1306.952 4294834431
-34.344955 780.09534 1306.952 4294900223
2.4532111 780.09534 1306.952 4293916927
4.9064221 780.09534 1306.952 4293982207
7.359633 780.09534 1306.952 4294179583
9.8128443 780.09534 1306.952 4293982719
-39.919266 787.74689 1306.8634 4287062395
-36.660549 786.50128 1305.8131 4288574365
2.4440367 788.36975 1307.3887 4293391359
9.7761469 788.36975 1307.3887 4293192959
12.220183 788.36975 1307.3887 4293653503
-37.740364 794.74066 1306.2202 4289822604
-41.392662 796.60217 1307.7898 4289953703
-38.957798 796.60217 1307.7898 4289625994
2.4348624 796.60217 1307.7898 4293916159
4.8697248 796.60217 1307.7898 4293850623
9.7394495 796.60217 1307.7898 4293521919
12.174312 796.60217 1307.7898 4293719551
-43.629356 803.46051 1305.7245 4287719540
-41.205505 803.46051 1305.7245 4289035399
2.4238532 803.46051 1305.7245 4293587711
4.8477063 803.46051 1305.7245 4293851135
9.6954126 803.46051 1305.7245 4293719551
12.119267 803.46051 1305.7245 4293653759
-60.596329 805.3136 1307.2869 4286143635
-58.172478 805.3136 1307.2869 4286867597
-43.629356 805.3136 1307.2869 4289434310
-41.205505 805.3136 1307.2869 4288776636
4.8477063 805.3136 1307.2869 4293785855
7.2715597 805.3136 1307.2869 4293720063
9.6954126 805.3136 1307.2869 4293588223
-45.878899 811.61151 1306.057 4285617037
2.4146788 811.61151 1306.057 4293587711
4.8293576 811.61151 1306.057 4293325055
7.2440367 811.61151 1306.057 4293391103
9.6587152 811.61151 1306.057 4293587711
12.073395 811.61151 1306.057 4293587711
16.902752 811.61151 1306.057 4293390079
-62.781651 813.45758 1307.6135 4283256952
-48.293579 813.45758 1307.6135 4283518064
4.8293576 813.45758 1307.6135 4293653759
7.2440367 813.45758 1307.6135 4293719551
9.6587152 813.45758 1307.6135 4293719551
12.073395 813.45758 1307.6135 4293850879
16.902752 813.45758 1307.6135 4293390079
19.31743 813.45758 1307.6135 4293061631
-62.543118 821.55945 1307.9047 4284376221
-57.732109 821.55945 1307.9047 4283717764
-52.921101 821.55945 1307.9047 4286479787
-48.911926 820.94647 1307.3878 4286086314
-45.704586 819.7204 1306.354 4286219429
4.8110094 819.7204 1306.354 4293456127
7.2165136 819.7204 1306.354 4293390335
9.6220188 819.7204 1306.354 4293061119
12.027523 819.7204 1306.354 4293192703
-52.719265 827.78723 1306.6156 4287400378
-50.322937 826.87122 1305.8433 4288453071
-46.728439 826.87122 1305.8433 4287468235
4.7926607 825.9552 1305.0709 4292995071
7.1889906 825.9552 1305.0709 4293192703
-52.517429 833.987 1305.303 4287205815
-50.130276 833.987 1305.303 4287929281
-47.743118 833.987 1305.303 4288716015
2.387156 833.987 1305.303 4292864511
4.774312 833.987 1305.303 4292930047
7.161468 833.987 1305.303 4293127423
4.774312 835.81201 1306.8418 4292930047
7.161468 835.81201 1306.8418 4293324799
10.742202 835.81201 1306.8418 4293325055
14.322936 835.81201 1306.8418 4293127423
-49.976147 841.47369 1306.3834 4291350270
2.3798165 841.47369 1306.3834 4292864255
4.7596331 841.47369 1306.3834 4292667391
7.1394496 841.47369 1306.3834 4293259519
10.709174 841.47369 1306.3834 4292864767
14.278899 841.47369 1306.3834 4292930559
-49.976147 843.29309 1307.9175 4290627061
2.3798165 843.29309 1307.9175 4292798975
4.7596331 843.29309 1307.9175 4292536319
14.278899 843.29309 1307.9175 4292930559
-40.300919 847.61316 1305.0199 4288719315
-37.930275 847.61316 1305.0199 4288390868
-34.374313 847.61316 1305.0199 4289047774
-30.818348 847.61316 1305.0199 4288586199
-28.447706 847.61316 1305.0199 4288849105
-26.077065 847.61316 1305.0199 4290033379
-22.521101 847.61316 1305.0199 4292729336
-18.965137 847.61316 1305.0199 4294174719
-16.594496 847.61316 1305.0199 4294306303
-14.223853 847.61316 1305.0199 4292332799
-10.667891 847.61316 1305.0199 4287007431
-7.1119266 847.61316 1305.0199 4290893055
-4.7412844 847.61316 1305.0199 4292601087
-2.3706422 847.61316 1305.0199 4292863999
0 847.61316 1305.0199 4292864255
-34.374313 849.42554 1306.5481 4289508066
-30.818348 849.42554 1306.5481 4289507301
-28.447706 849.42554 1306.5481 4289441239
-26.077065 849.42554 1306.5481 4290362341
-22.521101 849.42554 1306.5481 4290165233
-18.965137 849.42554 1306.5481 4289573622
-16.594496 849.42554 1306.5481 4290231551
-14.223853 849.42554 1306.5481 4292595711
-11.853211 849.42554 1306.5481 4293056255
0 849.42554 1306.5481 4292272895
-39.7211 758.26904 1309.4771 4291874559
4.9651375 758.26904 1309.4771 4294770687
-43.252296 767.19928 1309.1587 4289642751
-39.544952 767.19928 1309.1587 4291877887
-43.252296 769.08881 1310.7518 4285040608
-39.398167 773.66138 1308.0671 4287209158
-36.93578 773.66138 1308.0671 4289182949
-40.629356 775.54388 1309.6545 4292730879
-40.477982 781.97083 1308.5333 4287919542
2.4532111 781.97083 1308.5333 4293719551
4.9064221 781.97083 1308.5333 4293521919
7.359633 781.97083 1308.5333 4293719551
9.8128443 781.97083 1308.5333 4293719551
-41.704586 783.84631 1310.1147 4286209130
2.4532111 783.84631 1310.1147 4293850879
4.9064221 783.84631 1310.1147 4293653759
7.359633 783.84631 1310.1147 4293850879
9.8128443 783.84631 1310.1147 4293653759
-40.326607 790.23828 1308.9641 4289495961
2.4440367 790.23828 1308.9641 4293653503
4.8880734 790.23828 1308.9641 4293456127
7.3321099 790.23828 1308.9641 4293259007
9.7761469 790.23828 1308.9641 4293258751
13.442202 790.23828 1308.9641 4293850879
-43.992661 792.10675 1310.5396 4288309390
-41.548622 792.10675 1310.5396 4290085800
2.4440367 792.10675 1310.5396 4293455871
4.8880734 792.10675 1310.5396 4293456127
7.3321099 792.10675 1310.5396 4293456127
9.7761469 792.10675 1310.5396 4293192959
13.442202 792.10675 1310.5396 4293785087
-58.436699 800.32507 1310.9288 4286605201
-56.001835 800.32507 1310.9288 4286210444
-53.566971 800.32507 1310.9288 4286931586
-46.262386 800.32507 1310.9288 4287590016
-41.392662 798.46362 1309.3594 4289757076
2.4348624 798.46362 1309.3594 4293916159
4.8697248 798.46362 1309.3594 4293982207
7.3045874 799.39435 1310.144 4293982463
9.7394495 798.46362 1309.3594 4293391103
12.174312 798.46362 1309.3594 4293391103
-63.020184 809.01965 1310.4117 4283190907
-60.596329 808.09314 1309.6306 4284109955
-58.172478 808.09314 1309.6306 4284897149
-55.748623 809.01965 1310.4117 4284437639
-53.324772 809.01965 1310.4117 4286076559
-49.688992 809.01965 1310.4117 4285748109
-46.053211 807.16663 1308.8494 4291803864
-62.781651 815.30359 1309.17 4283388029
-57.952293 815.30359 1309.17 4283715727
-53.122936 815.30359 1309.17 4284113026
-49.500916 815.30359 1309.17 4284113026
9.6587152 815.30359 1309.17 4293192959
16.902752 815.30359 1309.17 4292930047
-62.781651 817.14966 1310.7266 4283256965
-57.952293 817.14966 1310.7266 4283979165
-55.537613 817.14966 1310.7266 4285360818
-53.122936 817.14966 1310.7266 4285495177
-50.708256 817.14966 1310.7266 4285429384
-61.340366 823.39844 1309.4553 4285230517
-57.732109 823.39844 1309.4553 4285033109
-55.326607 823.39844 1309.4553 4286546604
-52.921101 823.39844 1309.4553 4287268804
9.6220188 823.39844 1309.4553 4293192959
13.230275 823.39844 1309.4553 4293192959
-52.719265 829.61926 1308.1604 4286874811
-50.322937 829.61926 1308.1604 4287006653
-47.926605 829.61926 1308.1604 4287599306
4.7926607 829.61926 1308.1604 4293061631
7.1889906 829.61926 1308.1604 4293193215
-55.115597 831.45123 1309.7051 4287534803
-58.087463 838.85358 1309.4064 4290099699
-54.904587 838.54944 1309.1499 4290757117
-52.517429 838.54944 1309.1499 4290561009
11.93578 837.63696 1308.3806 4292931071
14.322936 837.63696 1308.3806 4292996607
-49.976147 845.11249 1309.4515 4290167023
-46.406422 845.11249 1309.4515 4290495992
-42.836697 845.11249 1309.4515 4290298348
2.3798165 845.11249 1309.4515 4292864255
4.7596331 845.11249 1309.4515 4292601599
7.1394496 845.11249 1309.4515 4292864767
10.709174 845.11249 1309.4515 4292864767
14.278899 845.11249 1309.4515 4292930559
16.658716 845.11249 1309.4515 4292930559
-46.406422 846.93188 1310.9856 4289970938
-42.836697 846.93188 1310.9856 4291218428
-40.456882 846.93188 1310.9856 4290626547
-38.077065 846.93188 1310.9856 4289772517
-9.5192661 846.93188 1310.9856 4292532718
-7.1394496 846.93188 1310.9856 4292993269
-4.7596331 846.93188 1310.9856 4292273151
-2.3798165 846.93188 1310.9856 4292404991
2.3798165 846.93188 1310.9856 4292601855
4.7596331 846.93188 1310.9856 4292469759
7.1394496 846.93188 1310.9856 4292798719
10.709174 846.93188 1310.9856 4292798975
14.278899 846.93188 1310.9856 4292798463
16.658716 846.93188 1310.9856 4292732671
0 851.23792 1308.0762 4293060863
-43.190216 754.91595 1313.1899 4289902051
-42.203671 760.16699 1311.0774 4289114575
-39.7211 760.16699 1311.0774 4291877118
-47.168808 762.06494 1312.6776 4288657145
-43.444954 762.06494 1312.6776 4289313519
-43.252296 770.97833 1312.3451 4286941149
-46.959633 772.86786 1313.9382 4291279866
-44.488075 772.86786 1313.9382 4292070655
-44.322937 779.3089 1312.8291 4287787695
-40.629356 777.42639 1311.2418 4293714431
4.9064221 785.7218 1311.6962 4293521919
7.359633 785.7218 1311.6962 4293259007
-56.212845 793.97522 1312.115 4285946476
-52.546791 793.97522 1312.115 4286733957
-48.880733 793.97522 1312.115 4287259783
-46.436699 793.97522 1312.115 4287523212
-43.992661 793.97522 1312.115 4288308878
7.3321099 793.97522 1312.115 4293982207
-58.656879 795.84375 1313.6904 4285552761
-56.212845 795.84375 1313.6904 4285486968
-52.546791 795.84375 1313.6904 4286601856
-46.436699 795.84375 1313.6904 4287652481
-43.992661 795.84375 1313.6904 4288046458
-56.001835 802.18652 1312.4984 4288512165
-52.349541 802.18652 1312.4984 4289301947
-48.697247 802.18652 1312.4984 4290357186
-46.262386 802.18652 1312.4984 4290225600
-65.444038 812.72583 1313.5366 4283322757
-60.596329 811.79932 1312.7554 4283520126
-58.172478 810.87274 1311.9742 4283649421
-55.748623 811.79932 1312.7554 4283912849
-53.324772 810.87274 1311.9742 4284634239
-50.900917 810.87274 1311.9742 4284502653
-65.196327 818.99573 1312.2831 4283849353
-60.366974 818.99573 1312.2831 4283915670
-55.537613 818.99573 1312.2831 4285428382
-60.939449 825.85052 1311.5228 4287467450
-57.732109 826.15698 1311.7812 4288060361
-55.326607 826.15698 1311.7812 4287928775
2.4055047 825.23749 1311.006 4292863999
4.8110094 825.23749 1311.006 4292995071
7.2165136 825.23749 1311.006 4293258495
9.6220188 826.15698 1311.7812 4293455871
12.829358 825.85052 1311.5228 4293390079
-55.115597 833.28326 1311.2498 4288652768
-54.904587 841.28699 1311.4581 4291151615
-52.517429 841.28699 1311.4581 4290561267
7.161468 841.28699 1311.4581 4292799487
10.742202 841.28699 1311.4581 4292864767
-57.291744 843.112 1312.9969 4291876607
-54.904587 843.112 1312.9969 4290955519
-52.517429 843.112 1312.9969 4290035694
-42.836697 848.75128 1312.5198 4291876607
-40.456882 848.75128 1312.5198 4291218682
-38.077065 848.75128 1312.5198 4290627824
-34.507339 848.75128 1312.5198 4289443304
-30.937614 848.75128 1312.5198 4290232318
-28.557798 848.75128 1312.5198 4290362860
-26.177982 848.75128 1312.5198 4290691824
-22.608257 848.75128 1312.5198 4289770988
-19.038532 848.75128 1312.5198 4288718804
-16.658716 848.75128 1312.5198 4289639906
-14.278899 848.75128 1312.5198 4291020776
-10.709174 848.75128 1312.5198 4292796671
-7.1394496 848.75128 1312.5198 4293388799
-4.7596331 848.75128 1312.5198 4293258239
-2.3798165 848.75128 1312.5198 4293060863
2.3798165 848.75128 1312.5198 4293126655
4.7596331 848.75128 1312.5198 4292731903
14.278899 848.75128 1312.5198 4292798463
16.658716 848.75128 1312.5198 4292732671
-47.343121 757.45593 1315.3315 4289639150
-44.851376 757.45593 1315.3315 4288917197
-49.834862 759.36084 1316.9377 4286091475
-49.651375 763.96289 1314.278 4286288595
-47.168808 763.96289 1314.278 4288854779
-49.651375 765.86084 1315.8783 4287273185
-47.168808 765.86084 1315.8783 4286549205
-49.431194 774.75739 1315.5315 4290487752
-46.959633 774.75739 1315.5315 4291737819
-44.488075 774.75739 1315.5315 4292725759
-46.78532 781.19141 1314.4164 4288049054
-44.322937 781.19141 1314.4164 4287196026
-46.78532 783.07397 1316.0037 4288180374
-44.322937 783.07397 1316.0037 4287525770
-56.423855 789.47284 1314.8589 4286339965
-52.744034 789.47284 1314.8589 4286930821
-49.06422 789.47284 1314.8589 4287325577
-46.611008 789.47284 1314.8589 4287523212
-51.324772 797.71222 1315.2659 4287063172
-48.880733 797.71222 1315.2659 4287524223
-56.001835 804.04803 1314.068 4288119708
-52.349541 804.04803 1314.068 4289433028
-48.697247 804.04803 1314.068 4290488004
-65.444038 814.57886 1315.0991 4282864002
-60.596329 814.57886 1315.0991 4283651467
-60.137615 829.83508 1314.8826 4287930057
-57.732109 829.83508 1314.8826 4288455647
9.6220188 828.91553 1314.1072 4292864767
13.230275 828.91553 1314.1072 4292799231
-62.304588 838.7793 1315.8839 4291942655
-58.710091 838.7793 1315.8839 4291547135
-50.130276 844.93701 1314.5358 4288525035
19.097248 844.93701 1314.5358 4292600831
-46.549541 846.76196 1316.0745 4290627071
7.161468 846.76196 1316.0745 4292929023
10.742202 846.76196 1316.0745 4292798463
19.097248 846.76196 1316.0745 4292732671
-34.507339 850.57068 1314.0537 4288852464
-30.937614 850.57068 1314.0537 4289707257
-28.557798 850.57068 1314.0537 4290166512
-26.177982 850.57068 1314.0537 4290561269
-22.608257 850.57068 1314.0537 4290100469
-19.038532 850.57068 1314.0537 4288850133
-16.658716 850.57068 1314.0537 4289179355
-14.278899 850.57068 1314.0537 4289047524
0 850.57068 1314.0537 4292994815
16.658716 850.57068 1314.0537 4292667391
-28.557798 852.39001 1315.5879 4290361839
-50.018349 754.74481 1319.5859 4290297080
-52.326607 761.26581 1318.5439 4285496251
-49.651375 767.75873 1317.4785 4288519411
-47.168808 767.75873 1317.4785 4287335394
-54.616512 769.65668 1319.0789 4287204026
-52.133945 769.65668 1319.0789 4289309658
-49.651375 769.65668 1319.0789 4290424300
-54.374313 776.64697 1317.1246 4286405006
-51.902752 776.64697 1317.1246 4286470799
-49.431194 776.64697 1317.1246 4286536856
-46.959633 776.64697 1317.1246 4287984302
-55.610092 778.5365 1318.7179 4286734732
-51.902752 778.5365 1318.7179 4286339204
-49.431194 778.5365 1318.7179 4286535815
-51.710091 784.95642 1317.5909 4287655573
-46.78532 784.95642 1317.5909 4287918733
-44.322937 784.95642 1317.5909 4288181137
-49.06422 793.22382 1318.0216 4287257724
-59.109478 841.8327 1318.4584 4291286527
-55.115597 842.44336 1318.9733 4290825215
-52.719265 842.44336 1318.9733 4288261606
-45.355965 848.58698 1317.6133 4291744511
-42.968807 848.58698 1317.6133 4291680511
-40.58165 848.58698 1317.6133 4291614463
-38.194496 848.58698 1317.6133 4290563583
-10.742202 848.58698 1317.6133 4289574388
-7.161468 848.58698 1317.6133 4292403711
-4.774312 848.58698 1317.6133 4292864255
-2.387156 848.58698 1317.6133 4292667135
2.387156 848.58698 1317.6133 4293126399
4.774312 848.58698 1317.6133 4292994559
11.93578 848.58698 1317.6133 4292798463
26.258715 848.58698 1317.6133 4292864511
-34.613762 850.41199 1319.1521 4290033399
-31.033028 850.41199 1319.1521 4290230008
-26.258715 850.41199 1319.1521 4290888183
-22.677982 850.41199 1319.1521 4290494191
-19.097248 850.41199 1319.1521 4289309667
-16.710093 850.41199 1319.1521 4289507303
-14.322936 850.41199 1319.1521 4289375463
26.258715 850.41199 1319.1521 4293062143
28.557798 856.02881 1318.656 4292995071
-52.519264 756.6568 1321.198 4286743754
-52.326607 765.07574 1321.7565 4288785374
-54.616512 771.55463 1320.6792 4288185514
-52.133945 771.55463 1320.6792 4289172409
-55.610092 780.42603 1320.311 4286734728
-51.902752 780.42603 1320.311 4287062922
-49.431194 781.37079 1321.1077 4287325574
-62.543118 838.11066 1321.8602 4291746047
-58.710091 844.27539 1320.5181 4290759679
-55.115597 844.27539 1320.5181 4291218943
-52.719265 844.27539 1320.5181 4289444095
-50.322937 844.27539 1320.5181 4289115388
22.765137 844.27539 1320.5181 4293258495
-57.511925 846.10736 1322.0627 4289903871
-55.115597 846.10736 1322.0627 4290956287
-52.719265 846.10736 1322.0627 4291416574
-50.322937 846.10736 1322.0627 4291022072
-47.926605 846.10736 1322.0627 4291021055
7.1889906 846.10736 1322.0627 4293192191
9.5853214 846.10736 1322.0627 4292667135
14.377981 846.10736 1322.0627 4292798719
19.170643 846.10736 1322.0627 4292667391
22.765137 846.10736 1322.0627 4292535807
26.258715 853.14954 1321.4603 4293324543
-52.519264 760.48071 1324.4222 4286417090
-67.354126 839.94971 1323.4109 4289444599
-64.948624 839.94971 1323.4109 4289115890
-62.543118 839.94971 1323.4109 4287933173
-69.759636 841.78876 1324.9615 4289970412
-67.354126 841.78876 1324.9615 4289641449
-64.948624 841.78876 1324.9615 4289180898
-62.543118 841.78876 1324.9615 4288523760
-46.728439 847.93939 1323.6074 4290955260
-43.133945 847.93939 1323.6074 4291875832
-40.737614 847.93939 1323.6074 4292533759
-38.341286 847.93939 1323.6074 4291349759
-10.783486 847.93939 1323.6074 4288981475
-7.1889906 847.93939 1323.6074 4291811583
-4.7926607 847.93939 1323.6074 4292009727
-2.3963304 847.93939 1323.6074 4291088639
0 847.93939 1323.6074 4291614975
10.783486 847.93939 1323.6074 4293323519
14.377981 847.93939 1323.6074 4293060863
16.774311 847.93939 1323.6074 4292995071
19.170643 847.93939 1323.6074 4292667391
22.765137 847.93939 1323.6074 4292667391
-40.737614 849.77142 1325.1521 4291150335
-38.341286 849.77142 1325.1521 4291281407
-34.746788 849.77142 1325.1521 4290425328
-31.152294 849.77142 1325.1521 4290227174
-28.755962 849.77142 1325.1521 4289570275
-26.359632 849.77142 1325.1521 4289833447
-22.765137 849.77142 1325.1521 4289504995
-19.170643 849.77142 1325.1521 4289374427
-16.774311 849.77142 1325.1521 4289374427
-14.377981 849.77142 1325.1521 4288915677
-11.981651 849.77142 1325.1521 4289507814
-7.1889906 849.77142 1325.1521 4290298111
0 849.77142 1325.1521 4284054477
14.377981 849.77142 1325.1521 4293258239
16.774311 849.77142 1325.1521 4293389567
19.170643 849.77142 1325.1521 4292930815
22.765137 849.77142 1325.1521 4293062399
23.871559 855.88696 1323.7686 4291937791
26.258715 855.88696 1323.7686 4293385215
-72.165138 845.4668 1328.0627 4291153663
-69.759636 844.54724 1327.2875 4291022591
-67.354126 844.54724 1327.2875 4290758655
-64.948624 844.54724 1327.2875 4289837817
-61.340366 844.54724 1327.2875 4289575675
-57.732109 845.4668 1328.0627 4290033917
-55.326607 845.4668 1328.0627 4291021055
-52.921101 845.4668 1328.0627 4291350009
-50.515594 845.4668 1328.0627 4291547131
2.4055047 845.4668 1328.0627 4292930559
4.8110094 845.4668 1328.0627 4293519871
7.2165136 845.4668 1328.0627 4293717503
-34.746788 851.60339 1326.6968 4289965027
-31.152294 851.60339 1326.6968 4289833185
-28.755962 851.60339 1326.6968 4289703910
-16.774311 851.60339 1326.6968 4288850652
-14.377981 851.60339 1326.6968 4289442012
-7.1889906 851.60339 1326.6968 4290494719
22.765137 851.60339 1326.6968 4293652735
21.566973 853.43542 1328.2416 4289767127
-69.759636 847.30579 1329.6134 4290429177
-64.948624 847.30579 1329.6134 4290364415
-61.340366 847.30579 1329.6134 4290299135
-57.732109 847.30579 1329.6134 4289703921
-55.326607 847.30579 1329.6134 4290098679
-52.921101 847.30579 1329.6134 4290099181
-49.312843 847.30579 1329.6134 4291086075
-45.704586 847.30579 1329.6134 4290625779
-43.299084 847.30579 1329.6134 4290821627
-9.6220188 847.30579 1329.6134 4289113838
-4.8110094 847.30579 1329.6134 4289184767
-2.4055047 847.30579 1329.6134 4287210994
7.2165136 847.30579 1329.6134 4289309933
9.6220188 847.30579 1329.6134 4292003839
12.027523 847.30579 1329.6134 4293582847
-48.110092 849.14484 1331.1641 4291414526
-45.704586 849.14484 1331.1641 4290098922
-43.299084 849.14484 1331.1641 4290491642
-40.893578 849.14484 1331.1641 4291149567
-38.488075 849.14484 1331.1641 4290952178
-25.257797 849.14484 1331.1641 4289375972
-21.649542 849.14484 1331.1641 4288389849
-19.244038 849.14484 1331.1641 4288719065
-12.027523 849.14484 1331.1641 4290231271
-9.6220188 849.14484 1331.1641 4290099965
-4.8110094 849.14484 1331.1641 4290102015
-2.4055047 849.14484 1331.1641 4288983535
0 849.14484 1331.1641 4286679287
14.433027 849.14484 1331.1641 4292468223
16.838531 849.14484 1331.1641 4293192191
19.244038 849.14484 1331.1641 4293389567
23.963303 856.18347 1330.5586 4287075766
2.4146788 844.84027 1334.0746 4285436130
4.8293576 844.84027 1334.0746 4288257501
-45.704586 850.98389 1332.7146 4291020031
-40.893578 850.98389 1332.7146 4290622713
-37.285324 850.98389 1332.7146 4290819061
-33.677063 850.98389 1332.7146 4290690557
-31.271559 850.98389 1332.7146 4291545855
-28.866055 850.98389 1332.7146 4291350527
-25.257797 850.98389 1332.7146 4290759423
-19.244038 850.98389 1332.7146 4288785890
-16.838531 850.98389 1332.7146 4288983268
-13.230275 850.98389 1332.7146 4290428651
-9.6220188 850.98389 1332.7146 4290561019
-7.2165136 850.98389 1332.7146 4290758399
-4.8110094 850.98389 1332.7146 4291283199
-2.4055047 850.98389 1332.7146 4291743743
0 850.98389 1332.7146 4292269567
14.433027 850.98389 1332.7146 4283721641
16.838531 850.98389 1332.7146 4285037501
19.244038 850.98389 1332.7146 4289174990
-2.4055047 852.82288 1334.2653 4290035453
21.649542 852.82288 1334.2653 4288126631
-72.440369 846.68634 1335.6311 4290297580
-70.025688 846.68634 1335.6311 4290363373
-65.196327 846.68634 1335.6311 4290889719
-61.976757 847.3017 1336.15 4290559993
-57.952293 847.60938 1336.4094 4290032878
-55.537613 846.68634 1335.6311 4289901038
-53.122936 846.68634 1335.6311 4290099183
-49.903362 847.91699 1336.6688 4291612413
-43.464222 848.53235 1337.1876 4290556920
-21.732111 848.53235 1337.1876 4289707253
2.4146788 847.60938 1336.4094 4286744021
4.8293576 847.60938 1336.4094 4286153655
7.2440367 847.60938 1336.4094 4286351033
9.6587152 847.60938 1336.4094 4287010235
12.073395 847.60938 1336.4094 4287404993
21.649542 854.66193 1335.8159 4286546602
24.055046 856.50098 1337.3665 4283132582
-67.867889 842.37469 1338.5359 4290167039
-67.867889 844.22778 1340.0984 4290363375
-41.049541 850.37842 1338.7441 4290361083
-37.427521 850.37842 1338.7441 4291018233
-33.805504 850.37842 1338.7441 4291348991
-31.390825 850.37842 1338.7441 4292006655
-28.976147 850.37842 1338.7441 4291613695
-25.35413 850.37842 1338.7441 4291219711
-21.732111 850.37842 1338.7441 4290365183
-19.31743 850.37842 1338.7441 4289838314
-16.902752 850.37842 1338.7441 4289048798
-13.280734 850.37842 1338.7441 4290428913
-9.6587152 850.37842 1338.7441 4290692856
-7.2440367 850.37842 1338.7441 4291087614
-4.8293576 850.37842 1338.7441 4290890751
0 850.37842 1338.7441 4289642736
14.488073 850.37842 1338.7441 4283588747
16.902752 850.37842 1338.7441 4284378007
19.31743 850.37842 1338.7441 4287600287
-26.561468 852.22449 1340.3008 4290759679
-14.488073 852.22449 1340.3008 4288983785
-2.4146788 852.22449 1340.3008 4283132323
14.488073 852.22449 1340.3008 4289045716
16.902752 852.22449 1340.3008 4290427369
19.31743 852.22449 1340.3008 4291020526
-64.232109 847.00732 1342.4419 4289966817
-60.596329 846.08081 1341.6608 4290230256
-55.748623 846.08081 1341.6608 4290230510
-53.324772 846.08081 1341.6608 4290691563
-48.477066 847.93384 1343.2231 4291743999
-46.053211 847.93384 1343.2231 4291546623
-43.629356 847.93384 1343.2231 4290492926
2.4238532 847.93384 1343.2231 4287931862
4.8477063 847.93384 1343.2231 4283987923
7.2715597 847.93384 1343.2231 4282934978
9.6954126 847.93384 1343.2231 4283131819
12.119267 847.93384 1343.2231 4282737061
19.31743 854.0705 1341.8573 4291876607
21.732111 854.0705 1341.8573 4286218173
21.732111 855.91656 1343.4138 4288652766
-41.205505 849.78693 1344.7856 4290035707
-37.569725 849.78693 1344.7856 4290427887
-33.933945 849.78693 1344.7856 4290231551
-31.510092 849.78693 1344.7856 4290626303
-29.086239 849.78693 1344.7856 4290364927
-25.450459 850.7135 1345.5669 4290563071
-21.814678 849.78693 1344.7856 4290169343
-19.390825 849.78693 1344.7856 4290299124
-16.966972 850.7135 1345.5669 4289510129
-12.927218 851.02228 1345.8273 4287997671
-9.6954126 849.78693 1344.7856 4288588509
-7.2715597 849.78693 1344.7856 4290496506
-4.8477063 849.78693 1344.7856 4289053437
0 849.78693 1344.7856 4282538413
4.8477063 849.78693 1344.7856 4282604723
7.2715597 849.78693 1344.7856 4282604723
9.6954126 849.78693 1344.7856 4282934928
12.927218 851.02228 1345.8273 4287801054
16.966972 851.64001 1346.3481 4293125631
19.31743 857.76257 1344.9703 4292796159
-73.045868 843.13898 1347.0284 4290362608
-70.611008 844.0697 1347.8132 4289243360
-68.176147 844.0697 1347.8132 4289177301
-65.741287 845.00043 1348.598 4289572828
-60.871559 845.00043 1348.598 4290033379
-58.436699 845.00043 1348.598 4290098922
-56.001835 845.00043 1348.598 4290493680
-52.349541 845.00043 1348.598 4290888938
14.543119 853.49304 1347.9105 4292074239
16.966972 853.49304 1347.9105 4292666367
19.390825 853.49304 1347.9105 4292140031
14.543119 855.34607 1349.473 4293650943
16.966972 855.34607 1349.473 4293848319
-73.045868 846.86194 1350.1675 4289570012
-64.929665 847.48242 1350.6907 4289770723
-58.436699 846.86194 1350.1675 4289638371
-56.001835 846.86194 1350.1675 4290098922
-52.349541 846.86194 1350.1675 4290165998
-48.697247 846.86194 1350.1675 4290365183
-46.262386 846.86194 1350.1675 4290167551
-43.827522 847.79266 1350.9523 4289311985
-41.392662 848.72339 1351.7371 4289378293
-37.740364 848.72339 1351.7371 4289836779
-34.088074 848.72339 1351.7371 4289378293
-31.653212 848.72339 1351.7371 4290035966
-29.218349 848.72339 1351.7371 4290299135
-24.348623 848.72339 1351.7371 4290957055
-21.913761 848.72339 1351.7371 4290628095
-19.478899 848.72339 1351.7371 4289576187
-9.7394495 848.72339 1351.7371 4288588257
-7.3045874 848.72339 1351.7371 4290364667
-4.8697248 848.72339 1351.7371 4289249507
-2.4348624 848.72339 1351.7371 4281814898
1.6232415 848.10284 1351.2139 4282019501
4.8697248 848.72339 1351.7371 4283659962
7.3045874 848.72339 1351.7371 4282475431
9.7394495 848.72339 1351.7371 4282803369
14.543119 857.19916 1351.0354 4292862207
16.966972 857.19916 1351.0354 4292796159
-70.877068 844.42438 1354.6523 4289833183
-68.433029 844.42438 1354.6523 4290032093
-61.100918 844.42438 1354.6523 4289638882
-43.827522 850.58484 1353.3066 4286354640
-41.392662 850.58484 1353.3066 4286683605
-21.913761 850.58484 1353.3066 4290495743
-19.478899 850.58484 1353.3066 4289246958
-17.044037 850.58484 1353.3066 4288983787
-13.391743 850.58484 1353.3066 4289114870
-9.7394495 850.58484 1353.3066 4290694139
-7.3045874 850.58484 1353.3066 4291088895
-4.8697248 850.58484 1353.3066 4290628351
-2.4348624 850.58484 1353.3066 4289180911
0 850.58484 1353.3066 4288854249
7.3045874 850.58484 1353.3066 4291024127
9.7394495 850.58484 1353.3066 4291088125
12.174312 850.58484 1353.3066 4292009215
-17.044037 852.44635 1354.8762 4289245410
-13.391743 852.44635 1354.8762 4289969914
-9.7394495 852.44635 1354.8762 4291548927
-4.8697248 852.44635 1354.8762 4292337407
-2.4348624 852.44635 1354.8762 4290889982
12.174312 852.44635 1354.8762 4293652479
-70.877068 847.22711 1357.0156 4290298866
-68.433029 847.22711 1357.0156 4290298616
-64.766968 847.22711 1357.0156 4289969907
-61.100918 846.29285 1356.2278 4289640165
-58.656879 847.22711 1357.0156 4289837294
-56.212845 847.22711 1357.0156 4290034930
-52.546791 847.22711 1357.0155 4288983790
-48.880733 847.22711 1357.0156 4286947551
-46.436699 847.22711 1357.0156 4286684122
-39.104588 848.16138 1357.8033 4286945237
-36.660549 848.16138 1357.8033 4289247736
-34.216515 848.16138 1357.8033 4289313533
-31.772476 848.16138 1357.8033 4289774079
-29.32844 848.16138 1357.8033 4290036735
-25.662384 848.16138 1357.8033 4291154431
2.4440367 848.16138 1357.8033 4291288575
4.8880734 848.16138 1357.8033 4291813631
12.174312 854.3078 1356.4457 4291613439
-68.433029 850.02985 1359.3788 4290694399
-65.988991 850.02985 1359.3788 4290497279
-58.656879 850.02985 1359.3788 4290627578
-56.212845 850.96411 1360.1665 4290101494
-52.546787 850.96411 1360.1665 4289115121
-48.880733 850.02985 1359.3788 4286092499
-46.436699 850.02985 1359.3788 4285961170
-43.992661 850.96411 1360.1665 4287931353
-40.733944 850.65265 1359.9039 4288127972
-36.660549 850.02985 1359.3788 4290034943
-34.216515 850.02985 1359.3788 4289970687
-29.32844 850.02985 1359.3788 4290628607
-24.440367 850.02985 1359.3788 4291219455
-21.99633 850.02985 1359.3788 4290035444
-19.552294 850.02985 1359.3788 4289837547
-17.108257 851.89832 1360.9542 4289507562
-13.442202 851.89832 1360.9542 4289376993
-9.7761469 851.89832 1360.9542 4291089151
-7.3321099 850.96411 1360.1665 4292338687
-4.8880734 851.89832 1360.9542 4292535039
0 850.96411 1360.1665 4291682303
7.3321099 850.96411 1360.1665 4288921837
9.7761469 850.96411 1360.1665 4290626031
-63.783485 845.73785 1362.3 4290298872
-61.330276 845.73785 1362.3 4290167543
-63.783485 847.61334 1363.8815 4290299903
-61.330276 847.61334 1363.8815 4290431743
-31.891743 847.61334 1363.8815 4290431231
-26.985321 847.61334 1363.8815 4291089151
2.4532111 847.61334 1363.8815 4292537087
4.9064221 847.61334 1363.8815 4292142079
-51.324772 853.76685 1362.5297 4289839861
-17.108257 853.76685 1362.5297 4287276787
-13.442202 853.76685 1362.5297 4287211720
-9.7761469 853.76685 1362.5297 4290495224
-4.8880734 853.76685 1362.5297 4293060351
-2.4440367 853.76685 1362.5297 4292994559
0 853.76685 1362.5297 4292207103
7.3321099 853.76685 1362.5297 4282082461
9.7761469 853.76685 1362.5297 4286289842
-17.108257 855.63531 1364.1051 4279270084
-13.442202 855.63531 1364.1051 4282351793
-2.4440367 855.63531 1364.1051 4290495743
0 855.63531 1364.1051 4289642751
