# .PCD v0.7 - Point Cloud Data file format
VERSION 0.7
FIELDS x y z rgb
SIZE 4 4 4 4
TYPE F F F U
COUNT 1 1 1 1
WIDTH 1160
HEIGHT 1
VIEWPOINT 0 0 0 1 0 0 0
POINTS 1160
DATA ascii
-26.077065 822.23987 1283.6259 4287670741
-21.335779 822.23987 1283.6259 4286220251
-16.401834 842.57568 1281.1521 4287866348
-14.058716 842.57568 1281.1521 4287144154
-14.058716 844.36707 1282.6625 4287472104
-7.0293579 844.36707 1282.6625 4286812154
-4.6862388 844.36707 1282.6625 4282078922
-29.438532 755.71381 1286.3942 4289551043
-25.349848 755.08862 1285.8671 4293701621
-22.078899 754.77606 1285.6035 4294956031
-19.625689 754.77606 1285.6035 4294043391
-17.172478 755.71381 1286.3942 4294962943
-14.719266 755.71381 1286.3942 4294967295
-9.8128443 755.71381 1286.3942 4294967295
-34.216515 762.21094 1285.3322 4287403233
-31.772476 762.21094 1285.3322 4287337440
-24.238533 781.22388 1286.9751 4288065023
-19.390825 781.22388 1286.9751 4286879471
-21.732111 787.61298 1285.822 4288263167
-19.31743 787.61298 1285.822 4289182719
-31.271559 793.974 1284.6454 4287535852
-28.866055 793.974 1284.6454 4287142889
-25.257797 793.974 1284.6454 4287274732
-21.649542 793.974 1284.6454 4286814439
-19.244038 793.974 1284.6454 4286816756
-16.838531 793.974 1284.6454 4290895871
-14.433027 793.974 1284.6454 4292799487
-33.677063 795.81299 1286.196 4287732198
-25.257797 795.81299 1286.196 4287996656
-21.649542 795.81299 1286.196 4287996403
-19.244038 795.81299 1286.196 4287014135
-16.838531 795.81299 1286.196 4289250815
-14.433027 795.81299 1286.196 4290630911
-34.347401 802.74969 1285.5046 4286681043
-22.765137 802.13904 1284.9897 4287736319
-19.170643 802.13904 1284.9897 4287606271
-16.774311 803.97107 1286.5344 4288788735
-14.377981 803.97107 1286.5344 4289840383
-31.033028 812.08698 1286.8374 4286021051
-16.710093 811.17444 1286.0681 4285960148
-14.322936 811.17444 1286.0681 4286421744
-33.317432 816.91199 1285.6736 4284051366
-30.937614 816.91199 1285.6736 4283722657
-28.557798 816.91199 1285.6736 4283394972
-26.177982 816.00226 1284.9066 4287999202
-23.798164 816.00226 1284.9066 4288524287
-19.038532 817.82166 1286.4407 4286419154
-30.818348 824.05225 1285.1539 4285956023
-28.447706 824.05225 1285.1539 4285167793
-26.077065 824.05225 1285.1539 4286023101
-22.521101 824.05225 1285.1539 4285298387
-18.965137 824.05225 1285.1539 4283723940
-40.300919 825.86462 1286.6821 4286746309
-37.930275 825.86462 1286.6821 4286876608
-33.188992 825.86462 1286.6821 4286613701
-30.818348 825.86462 1286.6821 4286679750
-28.447706 825.86462 1286.6821 4286022346
-26.077065 825.86462 1286.6821 4285561795
-22.521101 825.86462 1286.6821 4283984825
-18.965137 825.86462 1286.6821 4283265456
-28.337614 833.86554 1286.8882 4286153162
-25.976147 832.96289 1286.1271 4286416590
-22.040367 833.26373 1286.3807 4286418388
-16.530275 832.96289 1286.1271 4287341547
-14.168807 833.86554 1286.8882 4287341799
-10.626606 833.86554 1286.8882 4290827007
-16.466055 838.22766 1284.026 4287472876
-14.113762 838.22766 1284.026 4287079383
-10.585321 838.22766 1284.026 4290104055
-21.170643 840.026 1285.5424 4286615250
-7.056881 840.026 1285.5424 4285435117
-4.704587 840.026 1285.5424 4281031110
-10.544037 846.15839 1284.1729 4289179114
-31.891743 757.58936 1287.9755 4286677461
-24.53211 757.58936 1287.9755 4291270049
-22.078899 757.58936 1287.9755 4294757335
-19.625689 757.58936 1287.9755 4293054975
-17.172478 757.58936 1287.9755 4293186303
-13.492661 757.58936 1287.9755 4294770431
-9.8128443 757.58936 1287.9755 4294967295
-7.359633 757.58936 1287.9755 4294967295
-36.798164 759.46484 1289.5569 4287403233
-25.758717 759.46484 1289.5569 4288911321
-22.078899 759.46484 1289.5569 4291077093
-19.625689 759.46484 1289.5569 4288710103
-17.172478 759.46484 1289.5569 4285091488
-13.492661 759.46484 1289.5569 4287999199
-9.8128443 759.46484 1289.5569 4294967295
-7.359633 759.46484 1289.5569 4294967295
-4.9064221 759.46484 1289.5569 4294770687
-2.4532111 759.46484 1289.5569 4294770687
-39.104588 765.94794 1288.4832 4287141592
-36.660549 765.94794 1288.4832 4287075799
-34.216515 765.94794 1288.4832 4287008991
-29.086239 783.0769 1288.5375 4286486242
-24.238533 783.0769 1288.5375 4287473919
-21.814678 783.0769 1288.5375 4287276539
-19.390825 783.0769 1288.5375 4289313791
-16.966972 783.0769 1288.5375 4292472063
-28.976147 789.45898 1287.3785 4286551522
-25.35413 789.45898 1287.3785 4287276019
-21.732111 789.45898 1287.3785 4286618864
-16.902752 789.45898 1287.3785 4292274175
-13.280734 790.38202 1288.1567 4294114303
-36.082569 797.65204 1287.7466 4288127710
-16.838531 797.65204 1287.7466 4288658943
-14.433027 797.65204 1287.7466 4290629375
-38.488075 799.49109 1289.2972 4286680012
-16.838531 799.49109 1289.2972 4288527359
-14.433027 799.49109 1289.2972 4290562815
-16.774311 805.80304 1288.0791 4286684137
-14.377981 805.80304 1288.0791 4289705983
-11.981651 805.80304 1288.0791 4293850879
-59.908257 807.63507 1289.6239 4283778431
-11.981651 807.63507 1289.6239 4292671487
-40.58165 814.82446 1289.1456 4286680259
-38.194496 814.82446 1289.1456 4285957564
-35.807339 815.73694 1289.915 4284116134
-19.097248 813.91199 1288.3762 4287011569
-16.710093 814.82446 1289.1456 4286221786
-14.322936 814.82446 1289.1456 4286353625
-54.735779 821.46045 1289.5088 4283388550
-52.355965 820.55072 1288.7417 4283191674
-40.456882 820.55072 1288.7417 4286482372
-38.077065 820.55072 1288.7417 4286153151
-34.903976 820.854 1288.9974 4285758648
-30.937614 819.64099 1287.9747 4282339738
-28.557798 819.64099 1287.9747 4283394196
-23.798164 819.64099 1287.9747 4288391677
-19.038532 819.64099 1287.9747 4285696183
-16.658716 821.46045 1289.5088 4287868899
-14.278899 821.46045 1289.5088 4287539184
-40.300919 827.677 1288.2102 4286352832
-37.930275 827.677 1288.2102 4286483139
-34.374313 827.677 1288.2102 4286417352
-30.818348 827.677 1288.2102 4286417101
-28.447706 827.677 1288.2102 4286351310
-26.077065 827.677 1288.2102 4286351310
-22.521101 827.677 1288.2102 4286089421
-18.965137 827.677 1288.2102 4284776128
-16.594496 827.677 1288.2102 4287605227
-14.223853 827.677 1288.2102 4288261626
-11.853211 827.677 1288.2102 4290630143
-42.671558 829.48938 1289.7384 4283522450
-40.300919 829.48938 1289.7384 4286680514
-37.930275 829.48938 1289.7384 4286745803
-34.374313 829.48938 1289.7384 4287206098
-30.818348 829.48938 1289.7384 4287337172
-28.447706 829.48938 1289.7384 4286416590
-23.706423 829.48938 1289.7384 4286615763
-14.223853 829.48938 1289.7384 4287801589
-10.667891 829.48938 1289.7384 4291483903
-33.060551 835.6709 1288.4104 4285823697
-30.699083 835.6709 1288.4104 4286152662
-28.337614 835.6709 1288.4104 4286022348
-25.976147 835.6709 1288.4104 4286614485
-22.433945 835.6709 1288.4104 4286549711
-7.0844035 835.6709 1288.4104 4292076031
-42.50642 837.47626 1289.9326 4286075794
-40.144955 837.47626 1289.9326 4286470551
-37.783485 837.47626 1289.9326 4285421482
-34.241287 837.47626 1289.9326 4284635562
-30.699083 837.47626 1289.9326 4284244655
-28.337614 837.47626 1289.9326 4285035439
-25.976147 837.47626 1289.9326 4286482885
-23.614679 837.47626 1289.9326 4287075801
-2.3614678 837.47626 1289.9326 4281162696
-25.875229 841.82434 1287.0586 4287530417
-21.170643 841.82434 1287.0586 4287137749
-18.818348 841.82434 1287.0586 4286746584
-16.466055 841.82434 1287.0586 4288522995
-2.3522935 841.82434 1287.0586 4280894648
-25.875229 843.62268 1288.575 4291012315
-22.34679 843.62268 1288.575 4287068126
-18.818348 843.62268 1288.575 4285562045
-16.466055 843.62268 1288.575 4286943697
-14.113762 843.62268 1288.575 4286419143
-7.056881 843.62268 1288.575 4292991487
-4.704587 843.62268 1288.575 4292204543
-2.3522935 843.62268 1288.575 4286151606
-36.93578 754.83624 1292.1943 4287007194
-34.473396 754.83624 1292.1943 4286874841
-28.317432 754.83624 1292.1943 4287917759
-4.9247708 754.83624 1292.1943 4294770687
-2.4623854 754.83624 1292.1943 4294770687
-39.251377 761.34033 1291.1383 4287403739
-36.798164 761.34033 1291.1383 4288258792
-34.344955 761.34033 1291.1383 4287600360
-31.891743 761.34033 1291.1383 4287337444
-24.53211 761.34033 1291.1383 4289899775
-22.078899 761.34033 1291.1383 4288649718
-19.625689 761.34033 1291.1383 4285032663
-17.172478 761.34033 1291.1383 4279966602
-13.492661 761.34033 1291.1383 4284325038
-9.8128443 761.34033 1291.1383 4293587199
-7.359633 761.34033 1291.1383 4294967295
-4.9064221 761.34033 1291.1383 4294967295
-2.4532111 761.34033 1291.1383 4294770687
-46.611008 763.21582 1292.7196 4282013826
-44.157799 763.21582 1292.7196 4284642480
-41.704586 763.21582 1292.7196 4287208150
-31.891743 763.21582 1292.7196 4287074784
-24.53211 763.21582 1292.7196 4288918527
-22.078899 763.21582 1292.7196 4287931647
-19.625689 763.21582 1292.7196 4283595463
-17.172478 763.21582 1292.7196 4279911055
-13.492661 763.21582 1292.7196 4280639615
-9.8128443 763.21582 1292.7196 4279328383
-7.359633 763.21582 1292.7196 4288539135
-4.9064221 763.21582 1292.7196 4294375423
-2.4532111 763.21582 1292.7196 4294967295
-40.326607 767.81641 1290.0586 4287405273
-36.660549 767.81641 1290.0586 4287010258
-34.216515 767.81641 1290.0586 4286813143
-19.552294 767.81641 1290.0586 4283202254
-12.220183 767.81641 1290.0586 4278194284
-9.7761469 767.81641 1290.0586 4278200658
-7.3321099 767.81641 1290.0586 4288599550
-4.8880734 767.81641 1290.0586 4294574079
-2.4440367 767.81641 1290.0586 4294967295
-43.992661 769.68494 1291.634 4284510640
-40.326607 769.68494 1291.634 4287273690
-36.660549 769.68494 1291.634 4287010006
-34.216515 769.68494 1291.634 4287141596
-31.772476 769.68494 1291.634 4287075803
-21.99633 769.68494 1291.634 4288127999
-19.552294 769.68494 1291.634 4284581064
-17.108257 769.68494 1291.634 4284515271
-13.442202 769.68494 1291.634 4287273434
-9.7761469 769.68494 1291.634 4292135130
-7.3321099 769.68494 1291.634 4293516783
-4.8880734 769.68494 1291.634 4294967295
-2.4440367 769.68494 1291.634 4294967295
-24.348623 776.12592 1290.5248 4288459775
-21.913761 776.12592 1290.5248 4287341047
-19.478899 776.12592 1290.5248 4287927764
-17.044037 776.12592 1290.5248 4292533247
-34.088074 777.98743 1292.0944 4287141857
-31.653212 777.98743 1292.0944 4287207651
-29.218349 777.98743 1292.0944 4286552035
-26.783485 777.98743 1292.0944 4287999481
-21.913761 777.98743 1292.0944 4287012082
-17.044037 777.98743 1292.0944 4291945471
-13.391743 777.98743 1292.0944 4294967295
-9.7394495 777.98743 1292.0944 4294574079
-7.3045874 777.98743 1292.0944 4294311423
-31.510092 784.92993 1290.1 4287143132
-29.086239 784.92993 1290.1 4286618082
-25.450459 784.92993 1290.1 4287671034
-16.966972 784.92993 1290.1 4292801023
-14.543119 784.92993 1290.1 4294047999
-33.933945 786.78302 1291.6624 4286352857
-31.510092 786.78302 1291.6624 4286879201
-12.119267 786.78302 1291.6624 4294508543
-9.6954126 786.78302 1291.6624 4294508543
-7.2715597 786.78302 1291.6624 4294377471
-37.427521 794.0741 1291.2698 4287337938
-12.073395 794.0741 1291.2698 4293787647
-37.285324 802.24963 1291.6232 4286614220
-12.027523 801.33008 1290.8479 4293787647
-9.6220188 802.24963 1291.6232 4294836223
-7.2165136 803.16913 1292.3984 4294113023
-34.746788 809.46704 1291.1686 4286416065
-11.981651 809.46704 1291.1686 4292014847
-59.908257 811.29907 1292.7133 4285419658
-55.115597 811.29907 1292.7133 4284371324
-52.719265 811.29907 1292.7133 4283454595
-50.322937 811.29907 1292.7133 4283388802
-46.728439 811.29907 1292.7133 4282996355
-43.133945 811.29907 1292.7133 4283720858
-35.944954 811.29907 1292.7133 4285627569
-11.981651 811.29907 1292.7133 4291751167
-57.291744 817.56201 1291.4539 4283847556
-54.904587 817.56201 1291.4539 4283715970
-45.355965 817.56201 1291.4539 4282733440
-42.968807 817.56201 1291.4539 4283785117
-33.420185 817.56201 1291.4539 4283326633
-16.710093 817.56201 1291.4539 4288196061
-14.322936 817.56201 1291.4539 4287341285
-11.93578 817.56201 1291.4539 4290959871
-57.291744 819.38696 1292.9927 4283322757
-46.549541 819.38696 1292.9927 4282996358
-42.968807 819.38696 1292.9927 4283653014
-11.93578 819.38696 1292.9927 4290631167
-54.735779 823.27979 1291.0428 4283388300
-52.355965 823.27979 1291.0428 4282995593
-35.697247 823.27979 1291.0428 4286547899
-16.658716 823.27979 1291.0428 4287607537
-14.278899 823.27979 1291.0428 4288196344
-11.899082 823.27979 1291.0428 4290630655
-52.355965 825.09918 1292.5769 4283258760
-45.216515 825.09918 1292.5769 4283192969
-42.836697 825.09918 1292.5769 4283194512
-9.5192661 825.09918 1292.5769 4292469503
-46.227524 833.11414 1292.7947 4283847306
-42.671558 832.20795 1292.0306 4283914127
-40.300919 832.20795 1292.0306 4286940605
-37.930275 832.20795 1292.0306 4286546634
-34.769421 831.90594 1291.776 4286152391
-30.818348 831.30176 1291.2666 4286218957
-4.7412844 833.11414 1292.7947 4290430975
-42.50642 839.28162 1291.4548 4286474924
-40.144955 839.28162 1291.4548 4286277545
-37.783485 839.28162 1291.4548 4285621418
-34.241287 839.28162 1291.4548 4284898978
-30.699083 839.28162 1291.4548 4284307866
-28.337614 839.28162 1291.4548 4286280093
-23.614679 839.28162 1291.4548 4287400920
0 839.28162 1291.4548 4282343584
-47.229359 841.08698 1292.9771 4291086847
-43.687157 841.08698 1292.9771 4291348991
-40.144955 841.08698 1292.9771 4291676671
-37.783485 841.08698 1292.9771 4291937790
-34.241287 841.08698 1292.9771 4291608570
-30.699083 841.08698 1292.9771 4291081972
-28.337614 841.08698 1292.9771 4291275487
0 841.08698 1292.9771 4283392690
-25.875229 845.42102 1290.0913 4291215077
-21.170643 845.42102 1290.0913 4287397114
-16.466055 845.42102 1290.0913 4286810303
-14.113762 845.42102 1290.0913 4285630140
-10.585321 845.42102 1290.0913 4287865573
-7.056881 845.42102 1290.0913 4293719551
-4.704587 845.42102 1290.0913 4294441471
-14.113762 847.21942 1291.6075 4287474675
-10.585321 847.21942 1291.6075 4285107152
-44.322937 758.60126 1295.3689 4284642478
-40.629356 757.66003 1294.5752 4287141336
-28.727829 757.97382 1294.8398 4287996399
0 758.60126 1295.3689 4294770687
-49.06422 765.09131 1294.301 4279842417
-46.611008 766.02905 1295.0917 4282342027
-44.157799 765.09131 1294.301 4284642480
-31.891743 765.09131 1294.301 4287339743
-29.438532 766.02905 1295.0917 4286879214
-25.758717 766.02905 1295.0917 4288852223
-22.078899 765.09131 1294.301 4288259839
-17.172478 765.09131 1294.301 4278662538
-14.719266 765.09131 1294.301 4278207904
0 766.02905 1295.0917 4294770687
-43.992661 773.42188 1294.7849 4283195295
-40.733944 772.79907 1294.2598 4286419411
-36.660549 772.48767 1293.9972 4286550744
-34.216515 772.48767 1293.9972 4286746847
-31.772476 772.48767 1293.9972 4287207399
-29.32844 772.48767 1293.9972 4286683365
-25.662384 772.48767 1293.9972 4288393724
-21.99633 771.55341 1293.2095 4287603190
-19.552294 771.55341 1293.2095 4287667920
-17.108257 771.55341 1293.2095 4288918244
-13.442202 772.48767 1293.9972 4294441210
-9.7761469 772.48767 1293.9972 4294967295
-7.3321099 772.48767 1293.9972 4294770687
-4.8880734 772.48767 1293.9972 4294639615
-2.4440367 772.48767 1293.9972 4294770687
0 772.48767 1293.9972 4294508543
-34.088074 779.84888 1293.6639 4287275231
-31.653212 779.84888 1293.6639 4287077596
-26.783485 779.84888 1293.6639 4287802102
-13.391743 779.84888 1293.6639 4294114559
-9.7394495 779.84888 1293.6639 4294311935
-7.3045874 779.84888 1293.6639 4294180607
-4.8697248 779.84888 1293.6639 4294311167
-36.522934 781.71033 1295.2334 4287273694
-34.088074 781.71033 1295.2334 4287143132
-12.174312 781.71033 1295.2334 4294770687
-9.7394495 781.71033 1295.2334 4294639615
-7.3045874 781.71033 1295.2334 4294574079
-4.8697248 781.71033 1295.2334 4294310655
-2.4348624 781.71033 1295.2334 4294442239
-36.3578 788.63611 1293.2249 4287272662
-33.933945 788.63611 1293.2249 4287206887
-9.6954126 788.63611 1293.2249 4294705151
-7.2715597 788.63611 1293.2249 4294443007
-38.781651 790.48914 1294.7874 4287008461
-9.6954126 790.48914 1294.7874 4294311679
-7.2715597 790.48914 1294.7874 4294114559
-41.049541 796.8432 1293.6047 4286680010
-12.073395 796.8432 1293.6047 4294115327
-9.6587152 796.8432 1293.6047 4294901759
-7.2440367 796.8432 1293.6047 4294377215
-43.464222 798.68921 1295.1613 4283260057
-41.049541 798.68921 1295.1613 4286483914
-7.2440367 798.68921 1295.1613 4294573823
-4.8293576 798.68921 1295.1613 4294048767
0 798.68921 1295.1613 4294114559
9.6587152 798.68921 1295.1613 4294573823
12.073395 798.68921 1295.1613 4294705151
-61.340366 806.84717 1295.4998 4285091715
-57.732109 805.92767 1294.7244 4284043651
-55.326607 805.92767 1294.7244 4283911809
-52.921101 805.92767 1294.7244 4283322242
-49.71376 806.23419 1294.9828 4283191683
-45.704586 806.84717 1295.4998 4283061897
-43.299084 805.92767 1294.7244 4283326867
-40.893578 806.84717 1295.4998 4286287552
-37.285324 805.92767 1294.7244 4286548415
-9.6220188 805.92767 1294.7244 4294639615
-7.2165136 805.92767 1294.7244 4294179327
-4.8110094 805.00818 1293.9491 4294113791
0 805.92767 1294.7244 4293916927
14.433027 805.92767 1294.7244 4293982719
-59.109478 813.74176 1294.7728 4284830085
-55.115597 813.1311 1294.2579 4284305538
-52.719265 813.1311 1294.2579 4283127674
-50.322937 814.04712 1295.0303 4283126904
-47.127827 813.74176 1294.7728 4282864770
-43.133945 813.1311 1294.2579 4284113306
-10.384098 813.74176 1294.7728 4293587455
-46.549541 821.21198 1294.5314 4283193485
-42.968807 821.21198 1294.5314 4283522452
-9.548624 821.21198 1294.5314 4292338687
-54.735779 826.91858 1294.111 4283258510
-52.355965 826.91858 1294.111 4283456142
-45.216515 826.91858 1294.111 4283257995
-46.406422 828.73798 1295.645 4282930313
-54.524769 836.73889 1295.851 4287336407
-49.783485 835.8327 1295.0869 4286611898
-46.227524 835.83264 1295.0869 4286608313
0 834.92651 1294.3229 4282867879
-43.687157 842.89233 1294.4993 4292137471
-40.144955 842.89233 1294.4993 4292597503
-37.783485 842.89233 1294.4993 4292466175
-34.241287 842.89233 1294.4993 4292335103
-30.699083 842.89233 1294.4993 4291874815
-28.337614 842.89233 1294.4993 4291741421
-23.614679 842.89233 1294.4993 4288976383
-18.891743 842.89233 1294.4993 4286546875
-2.3614678 842.89233 1294.4993 4289178308
0 842.89233 1294.4993 4284184800
-11.761468 849.01776 1293.1239 4286285282
-49.247707 760.48376 1296.9562 4279579485
-28.317432 760.48376 1296.9562 4287208948
0 760.48376 1296.9562 4294574079
-51.710091 762.36627 1298.5435 4282465135
2.4623854 762.36627 1298.5435 4294770687
-46.611008 768.84229 1297.4637 4282276492
-44.157799 768.84229 1297.4637 4283591334
-39.251377 768.84229 1297.4637 4287011037
-26.985321 768.84229 1297.4637 4288590335
4.9064221 768.84229 1297.4637 4294901759
-43.992661 775.29034 1296.3604 4283129754
-40.326607 775.29034 1296.3604 4286419152
-36.660549 775.29034 1296.3604 4286484693
-4.8880734 775.29034 1296.3604 4294377215
-2.4440367 775.29034 1296.3604 4294770687
0 775.29034 1296.3604 4294705151
-43.992661 777.15887 1297.9358 4283392156
-40.326607 777.15887 1297.9358 4286747603
-36.660549 777.15887 1297.9358 4287207900
-2.4440367 777.15887 1297.9358 4294377215
0 777.15887 1297.9358 4294508031
-58.436699 785.43329 1298.3726 4282862208
-56.001835 785.43329 1298.3726 4282993794
-37.740364 784.50256 1297.5878 4286615248
-4.8697248 784.50256 1297.5878 4294179583
-2.4348624 784.50256 1297.5878 4294311423
0 784.50256 1297.5878 4294376703
7.3045874 784.50256 1297.5878 4294574079
9.7394495 784.50256 1297.5878 4294508543
-43.629356 794.19525 1297.9122 4283521946
-41.205505 792.34216 1296.3497 4286483660
-9.6954126 792.34216 1296.3497 4294770687
-7.2715597 792.34216 1296.3497 4294377215
-4.8477063 794.19525 1297.9122 4293916927
-2.4238532 794.19525 1297.9122 4294180095
0 794.19525 1297.9122 4294245375
7.2715597 794.19525 1297.9122 4294639615
9.6954126 794.19525 1297.9122 4294244863
-55.537613 800.53528 1296.7178 4282732418
-53.122936 800.53528 1296.7178 4282864002
-50.708256 800.53528 1296.7178 4282929795
-43.464222 800.53528 1296.7178 4283326100
-41.049541 800.53528 1296.7178 4286352834
-4.8293576 800.53528 1296.7178 4293851135
-2.4146788 800.53528 1296.7178 4294114303
0 800.53528 1296.7178 4293982719
9.6587152 800.53528 1296.7178 4294443007
13.280734 800.53528 1296.7178 4294180095
-48.293579 802.38135 1298.2743 4283061901
-45.878899 802.38135 1298.2743 4283127694
-41.049541 802.38135 1298.2743 4286616517
-38.634861 802.38135 1298.2743 4287008963
-2.4146788 802.38135 1298.2743 4294311167
9.6587152 802.38135 1298.2743 4294180351
12.073395 802.38135 1298.2743 4294180351
-62.543118 808.68622 1297.0503 4285288071
-57.732109 808.68622 1297.0503 4284634239
-9.6220188 808.68622 1297.0503 4294639615
-7.2165136 808.68622 1297.0503 4294245119
-4.8110094 808.68622 1297.0503 4294244863
-2.4055047 808.68622 1297.0503 4294573823
0 808.68622 1297.0503 4294048767
14.433027 808.68622 1297.0503 4293982719
-7.2165136 810.52527 1298.601 4294442495
-4.8110094 810.52527 1298.601 4294113023
-2.4055047 810.52527 1298.601 4294441983
0 810.52527 1298.601 4293916927
14.433027 810.52527 1298.601 4294113535
16.838531 810.52527 1298.601 4293982207
-59.908257 816.79517 1297.3474 4283125125
-50.322937 817.71118 1298.1198 4283521161
-9.5853214 816.79517 1297.3474 4292667135
-7.1889906 817.71118 1298.1198 4293983231
0 816.79517 1297.3474 4293720063
-50.130276 824.862 1297.609 4283850899
-47.743118 823.94946 1296.8396 4283719057
-2.3798165 830.55737 1297.1791 4287864811
0 830.55737 1297.1791 4283855319
-54.524769 838.55127 1297.3792 4291348734
-52.154129 838.55127 1297.3792 4291482367
-49.783485 838.55127 1297.3792 4291153405
2.3706422 838.55127 1297.3792 4283326897
-54.524769 840.36365 1298.9072 4292335103
-52.154129 840.36365 1298.9072 4291940351
-49.783485 840.36365 1298.9072 4291808767
-47.412846 840.36365 1298.9072 4291742975
2.3706422 840.36365 1298.9072 4282737354
4.7412844 840.36365 1298.9072 4282999717
-40.144955 844.69769 1296.0215 4290360831
-37.783485 844.69769 1296.0215 4289835510
-34.241287 844.69769 1296.0215 4290823935
-30.699083 844.69769 1296.0215 4290627583
-28.337614 844.69769 1296.0215 4290429949
-25.976147 844.69769 1296.0215 4290627071
-22.433945 844.69769 1296.0215 4291808511
-18.891743 844.69769 1296.0215 4291610616
-16.530275 844.69769 1296.0215 4291412981
-7.0844035 844.69769 1296.0215 4291687679
-4.7229357 844.69769 1296.0215 4293982207
-2.3614678 844.69769 1296.0215 4293587455
0 844.69769 1296.0215 4292009727
-40.144955 846.50305 1297.5438 4290228479
-37.783485 846.50305 1297.5438 4289573357
-34.241287 846.50305 1297.5438 4290297851
-30.699083 846.50305 1297.5438 4290364415
-28.337614 846.50305 1297.5438 4290494974
-25.976147 846.50305 1297.5438 4290100217
-22.433945 846.50305 1297.5438 4290888431
-18.891743 846.50305 1297.5438 4291676927
-16.530275 846.50305 1297.5438 4291940351
-14.168807 846.50305 1297.5438 4289509119
-9.4458714 846.50305 1297.5438 4286286287
-7.0844035 846.50305 1297.5438 4292536319
-4.7229357 846.50305 1297.5438 4294572799
-2.3614678 846.50305 1297.5438 4294507007
0 846.50305 1297.5438 4293915647
-49.431194 755.86212 1299.5995 4280301173
-46.959633 755.86212 1299.5995 4282406293
2.4715595 757.75165 1301.1926 4294574079
-49.247707 764.24878 1300.1307 4280499299
2.4623854 764.24878 1300.1307 4294901759
4.9247708 764.24878 1300.1307 4294967295
7.387156 764.24878 1300.1307 4294836223
-49.247707 766.13135 1301.718 4280631923
2.4623854 766.13135 1301.718 4294836223
-51.517429 770.71783 1299.0452 4282335641
-49.06422 770.71783 1299.0452 4281878894
-46.611008 770.71783 1299.0452 4282207859
2.4532111 770.71783 1299.0452 4294836223
4.9064221 770.71783 1299.0452 4294639615
-51.517429 772.59332 1300.6265 4282599033
-49.06422 772.59332 1300.6265 4281485179
-46.611008 772.59332 1300.6265 4281748351
2.4532111 772.59332 1300.6265 4294967295
4.9064221 772.59332 1300.6265 4294770687
-43.992661 779.02734 1299.5114 4283129754
-40.326607 779.02734 1299.5114 4286813652
1.2220184 779.02734 1299.5114 4294573823
4.8880734 779.02734 1299.5114 4294574079
7.3321099 779.02734 1299.5114 4294770687
9.7761469 779.02734 1299.5114 4294901759
-56.212845 780.89581 1301.0868 4282861956
-53.768806 780.89581 1301.0868 4282928253
-43.992661 780.89581 1301.0868 4282801554
-40.326607 780.89581 1301.0868 4286353612
2.4440367 780.89581 1301.0868 4294508031
4.8880734 780.89581 1301.0868 4294311423
-58.436699 787.2948 1299.942 4282796412
-56.001835 787.2948 1299.942 4282927999
-52.349541 787.2948 1299.942 4283059584
-41.392662 787.2948 1299.942 4286287300
-4.8697248 787.2948 1299.942 4294114559
-2.4348624 787.2948 1299.942 4294443007
0 787.2948 1299.942 4294574079
7.3045874 787.2948 1299.942 4294377471
9.7394495 787.2948 1299.942 4294114559
12.174312 787.2948 1299.942 4294377471
-56.001835 789.15625 1301.5116 4282796664
-52.349541 789.15625 1301.5116 4282928001
-48.697247 789.15625 1301.5116 4282732418
-46.262386 789.15625 1301.5116 4282929797
-43.827522 789.15625 1301.5116 4283194010
-4.8697248 789.15625 1301.5116 4294114559
-2.4348624 789.15625 1301.5116 4294508543
0 789.15625 1301.5116 4294639615
7.3045874 789.15625 1301.5116 4294967295
9.7394495 789.15625 1301.5116 4294377215
-60.596329 796.97485 1300.2559 4283057281
-58.172478 796.97485 1300.2559 4282535295
-55.748623 796.04828 1299.4746 4282469758
-53.324772 796.04828 1299.4746 4282732418
-49.285015 796.66602 1299.9955 4282798725
-46.053211 796.97485 1300.2559 4282798981
-2.4238532 796.04828 1299.4746 4294311679
2.4238532 796.97485 1300.2559 4294048511
4.8477063 797.90137 1301.0371 4294180351
7.2715597 796.97485 1300.2559 4294508543
-4.8293576 804.22736 1299.8308 4294245375
-2.4146788 804.22736 1299.8308 4294377215
2.4146788 805.15039 1300.6091 4294114559
4.8293576 806.07336 1301.3873 4294114559
7.2440367 806.07336 1301.3873 4294048767
9.6587152 805.15039 1300.6091 4293587967
12.073395 805.15039 1300.6091 4293719551
-7.2165136 812.36426 1300.1516 4294639615
-4.8110094 812.36426 1300.1516 4294245375
-2.4055047 812.36426 1300.1516 4294377215
0 812.36426 1300.1516 4294048767
13.230275 812.36426 1300.1516 4293982207
16.838531 812.36426 1300.1516 4294441983
19.244038 812.36426 1300.1516 4294441983
-4.8110094 814.20331 1301.7021 4293916927
-2.4055047 814.20331 1301.7021 4294048511
13.230275 814.20331 1301.7021 4294770687
16.838531 814.20331 1301.7021 4294967295
19.244038 814.20331 1301.7021 4294048511
-50.322937 820.45917 1300.4368 4283653518
-7.1889906 820.45917 1300.4368 4294179839
-4.7926607 820.45917 1300.4368 4294377471
-2.3963304 820.45917 1300.4368 4294443007
0 820.45917 1300.4368 4294508543
-7.1889906 822.2912 1301.9814 4294770687
-4.7926607 822.2912 1301.9814 4294967295
-2.3963304 822.2912 1301.9814 4294967295
0 822.2912 1301.9814 4294836223
-4.774312 826.68701 1299.1478 4293916159
-2.387156 826.68701 1299.1478 4291547633
0 826.68701 1299.1478 4289049343
-52.355965 834.19617 1300.2472 4287534542
2.3798165 834.19617 1300.2472 4283198636
4.7596331 836.0155 1301.7812 4284180646
-55.710091 842.17603 1300.4354 4290293739
-52.154129 842.17603 1300.4354 4289962723
-49.783485 842.17603 1300.4354 4290159845
-46.227524 842.17603 1300.4354 4291148280
-42.671558 842.17603 1300.4354 4290624255
2.3706422 842.17603 1300.4354 4287141065
4.7412844 842.17603 1300.4354 4284051387
7.1119266 842.17603 1300.4354 4283130286
10.667891 842.17603 1300.4354 4283656112
14.223853 842.17603 1300.4354 4283721893
-54.524769 843.9884 1301.9636 4289110993
-52.154129 843.9884 1301.9636 4289371599
-49.783485 843.9884 1301.9636 4289569234
-46.227524 843.9884 1301.9636 4291279861
-42.671558 843.9884 1301.9636 4290820607
2.3706422 843.9884 1301.9636 4290099674
4.7412844 843.9884 1301.9636 4285104367
7.1119266 843.9884 1301.9636 4282275268
10.667891 843.9884 1301.9636 4282214315
14.223853 843.9884 1301.9636 4283526327
16.594496 843.9884 1301.9636 4283920829
-25.976147 848.30841 1299.066 4289638130
-22.433945 848.30841 1299.066 4290230258
-18.891743 848.30841 1299.066 4291282943
-16.530275 848.30841 1299.066 4291677695
-14.168807 848.30841 1299.066 4291416575
-10.626606 848.30841 1299.066 4290891000
-7.0844035 848.30841 1299.066 4292996607
-4.7229357 848.30841 1299.066 4293390591
-2.3614678 848.30841 1299.066 4293324799
0 848.30841 1299.066 4293520895
-10.626606 850.11377 1300.5883 4291482623
-7.0844035 850.11377 1300.5883 4292864767
-2.3614678 850.11377 1300.5883 4293390079
0 850.11377 1300.5883 4293652735
-51.902752 761.5307 1304.379 4282795912
4.943119 759.64117 1302.7859 4294770687
-54.172478 768.95508 1304.0989 4282730381
-56.423855 775.40662 1302.9985 4282535301
-52.744034 775.40656 1302.9987 4282535291
-49.06422 775.40662 1302.9985 4282207617
-46.611008 775.40662 1302.9985 4282536582
2.4532111 774.46881 1302.2079 4294705151
4.9064221 774.46881 1302.2079 4294311935
7.359633 774.46881 1302.2079 4294443007
-52.546791 782.76428 1302.6622 4282732416
-48.880733 782.76428 1302.6622 4282864265
-46.436699 782.76428 1302.6622 4282732936
-43.992661 782.76428 1302.6622 4282604430
-41.548622 782.76428 1302.6622 4286156996
2.4440367 782.76428 1302.6622 4294443007
4.8880734 782.76428 1302.6622 4294114559
-48.880733 784.63281 1304.2377 4282929799
-46.436699 784.63281 1304.2377 4282864006
-43.992661 784.63281 1304.2377 4282997650
2.4440367 784.63281 1304.2377 4294443007
4.8880734 784.63281 1304.2377 4294114559
-60.871559 791.0177 1303.0812 4282796162
-58.436699 791.0177 1303.0812 4282272889
-56.001835 791.0177 1303.0812 4282404218
-52.349541 791.0177 1303.0812 4282535551
-48.697247 791.0177 1303.0812 4282666623
-46.262386 791.0177 1303.0812 4282798209
2.4348624 791.0177 1303.0812 4294245375
4.8697248 791.0177 1303.0812 4294310655
4.8697248 792.87921 1304.6508 4294442239
2.4238532 799.75439 1302.5996 4294048511
4.8477063 799.75439 1302.5996 4294180351
7.2715597 799.75439 1302.5996 4294180351
4.8477063 801.60742 1304.162 4294180607
7.2715597 801.60742 1304.162 4294048767
2.4146788 808.84247 1303.7222 4294180095
4.8293576 808.84247 1303.7222 4294114559
7.2440367 808.84247 1303.7222 4294048767
9.6587152 808.84247 1303.7222 4293916927
12.073395 807.91943 1302.9438 4293851135
-4.8110094 816.04236 1303.2528 4294376959
-2.4055047 816.04236 1303.2528 4294376959
0 816.04236 1303.2528 4294311167
13.631192 816.65533 1303.7697 4292075513
-7.1889906 824.12317 1303.5262 4293588479
2.387156 830.33698 1302.2253 4283328430
-58.305504 838.74463 1304.0823 4290954491
7.1394496 837.8349 1303.3153 4283591598
10.709174 837.8349 1303.3153 4284575165
-49.783485 845.80078 1303.4917 4290029531
-46.227524 845.80078 1303.4917 4290818797
-42.671558 845.80078 1303.4917 4290360563
-40.300919 845.80078 1303.4917 4290360563
-37.930275 845.80078 1303.4917 4289509363
-34.374313 845.80078 1303.4917 4289246709
-30.818348 845.80078 1303.4917 4289510142
-28.447706 845.80078 1303.4917 4289901559
2.3706422 845.80078 1303.4917 4293652223
4.7412844 845.80078 1303.4917 4292863487
7.1119266 845.80078 1303.4917 4289310684
-51.902752 763.42023 1305.9723 4283584368
-51.517429 778.21985 1305.3706 4282994046
-49.06422 778.21985 1305.3706 4282535814
-46.611008 778.21985 1305.3706 4282667656
-61.100918 786.50128 1305.8131 4281944449
-58.656879 786.50128 1305.8131 4282730871
2.4440367 786.50128 1305.8131 4294639615
4.8880734 786.50128 1305.8131 4294639615
2.4146788 811.61151 1306.057 4294049023
4.8293576 811.61151 1306.057 4294114559
7.2440367 811.61151 1306.057 4294180351
9.6587152 811.61151 1306.057 4294377471
2.4146788 813.45758 1307.6135 4294574079
4.8293576 813.45758 1307.6135 4294442751
7.2440367 813.45758 1307.6135 4294705151
9.6587152 813.45758 1307.6135 4294836223
16.902752 813.45758 1307.6135 4293653503
19.31743 813.45758 1307.6135 4292667135
2.4055047 820.63989 1307.1294 4290034918
9.6220188 821.55945 1307.9047 4279258543
13.230275 820.63995 1307.1294 4285042643
16.838531 821.55945 1307.9047 4291289087
2.3963304 825.9552 1305.0709 4282407873
11.981651 825.9552 1305.0709 4285698786
14.377981 825.9552 1305.0709 4291417828
7.161468 833.987 1305.303 4284049059
10.742202 833.987 1305.303 4285560514
-61.875229 841.47369 1306.3834 4290955262
-58.305504 841.47369 1306.3834 4290164714
-57.115597 843.29309 1307.9175 4290625266
-54.735779 843.29309 1307.9175 4289440735
-52.355965 843.29309 1307.9175 4289568980
10.709174 843.29309 1307.9175 4283791807
14.278899 843.29309 1307.9175 4282674080
16.658716 843.29309 1307.9175 4283398059
-46.227524 847.61316 1305.0199 4290424557
-40.300919 847.61316 1305.0199 4290229213
-37.930275 847.61316 1305.0199 4289705209
-34.374313 847.61316 1305.0199 4289442290
-30.818348 847.61316 1305.0199 4290429951
-28.447706 847.61316 1305.0199 4289770750
-26.077065 847.61316 1305.0199 4289375992
-22.521101 847.61316 1305.0199 4290559997
-18.965137 847.61316 1305.0199 4292072703
-16.594496 847.61316 1305.0199 4291809791
-14.223853 847.61316 1305.0199 4291482111
-4.7412844 847.61316 1305.0199 4293587455
2.3706422 847.61316 1305.0199 4294244863
-45.042202 849.42554 1306.5481 4290621421
-30.818348 849.42554 1306.5481 4291940863
-28.447706 849.42554 1306.5481 4291613439
-26.077065 849.42554 1306.5481 4291153151
-22.521101 849.42554 1306.5481 4290430975
-18.965137 849.42554 1306.5481 4290889983
-16.594496 849.42554 1306.5481 4290955775
-14.223853 849.42554 1306.5481 4290101759
-10.667891 849.42554 1306.5481 4290167549
-7.1119266 849.42554 1306.5481 4292602367
-4.7412844 849.42554 1306.5481 4293522943
-2.3706422 849.42554 1306.5481 4292996607
0 849.42554 1306.5481 4292601599
2.4146788 815.30359 1309.17 4294639615
4.8293576 815.30359 1309.17 4294770687
7.2440367 815.30359 1309.17 4294179327
9.6587152 815.30359 1309.17 4291617279
12.073395 815.30359 1309.17 4289248751
16.902752 815.30359 1309.17 4283395770
4.8293576 817.14966 1310.7266 4294574079
7.2440367 817.14966 1310.7266 4291547874
9.6587152 817.14966 1310.7266 4288393983
16.902752 817.14966 1310.7266 4282610604
4.8110094 823.39844 1309.4553 4280962208
7.2165136 823.39844 1309.4553 4280962208
9.6220188 823.39844 1309.4553 4281225119
4.7926607 829.61926 1308.1604 4283788968
-54.735779 845.11249 1309.4515 4289637869
-52.355965 845.11249 1309.4515 4289634785
-49.976147 845.11249 1309.4515 4290555887
-42.836697 845.11249 1309.4515 4289834198
4.7596331 845.11249 1309.4515 4293850367
7.1394496 845.11249 1309.4515 4291613424
10.709174 845.11249 1309.4515 4285235672
14.278899 845.11249 1309.4515 4281034138
16.658716 845.11249 1309.4515 4283534015
19.038532 845.11249 1309.4515 4285697008
-49.976147 846.93188 1310.9856 4290160616
-47.596329 846.93188 1310.9856 4290489834
-42.836697 846.93188 1310.9856 4290163179
-40.456882 846.93188 1310.9856 4290492144
-38.077065 846.93188 1310.9856 4289837045
-34.507339 846.93188 1310.9856 4290165241
2.3798165 846.93188 1310.9856 4292930559
4.7596331 846.93188 1310.9856 4293126655
7.1394496 846.93188 1310.9856 4293718783
10.709174 846.93188 1310.9856 4292008177
14.278899 846.93188 1310.9856 4285242321
16.658716 846.93188 1310.9856 4282676395
23.798164 846.93188 1310.9856 4288587519
-18.965137 851.23792 1308.0762 4291020285
-16.594496 851.23792 1308.0762 4291546623
-14.223853 851.23792 1308.0762 4290627071
-10.667891 851.23792 1308.0762 4290101492
-7.1119266 851.23792 1308.0762 4292404991
-4.7412844 851.23792 1308.0762 4293587967
-2.3706422 851.23792 1308.0762 4293259007
0 851.23792 1308.0762 4292864767
-54.616512 760.16699 1311.0774 4287992498
4.8293576 818.99573 1312.2831 4285228750
7.2440367 818.99573 1312.2831 4283649462
4.8110094 825.23749 1311.006 4283524258
7.2165136 826.15698 1311.7812 4283590819
9.6220188 826.15698 1311.7812 4285693616
12.829358 825.85052 1311.5228 4291945471
-62.066055 841.28699 1311.4581 4290955263
-59.678898 841.28699 1311.4581 4290692095
-62.066055 843.112 1312.9969 4290890495
-58.485321 843.112 1312.9969 4290757375
21.484404 843.112 1312.9969 4291749887
-47.596329 848.75128 1312.5198 4290622699
-40.456882 848.75128 1312.5198 4291150079
-38.077065 848.75128 1312.5198 4290626551
-34.507339 848.75128 1312.5198 4290626554
-30.937614 848.75128 1312.5198 4292139775
-28.557798 848.75128 1312.5198 4291745023
-26.177982 848.75128 1312.5198 4291350015
-22.608257 848.75128 1312.5198 4290889471
2.3798165 848.75128 1312.5198 4292864767
4.7596331 848.75128 1312.5198 4293323775
10.709174 848.75128 1312.5198 4293192189
14.278899 848.75128 1312.5198 4288130559
16.658716 848.75128 1312.5198 4282538174
23.798164 848.75128 1312.5198 4286812350
26.177982 848.75128 1312.5198 4286614970
-58.485321 844.93701 1314.5358 4290692351
-54.904587 844.93701 1314.5358 4289638128
-52.517429 844.93701 1314.5358 4289700321
19.097248 844.93701 1314.5358 4284903883
21.484404 844.93701 1314.5358 4288324862
-57.291744 846.76196 1316.0745 4291019775
-54.904587 846.76196 1316.0745 4289769718
-52.517429 846.76196 1316.0745 4289700593
-50.130276 846.76196 1316.0745 4289700593
-45.355965 846.76196 1316.0745 4291543801
-42.968807 846.76196 1316.0745 4291018751
7.161468 846.76196 1316.0745 4294113279
19.097248 846.76196 1316.0745 4282673830
21.484404 846.76196 1316.0745 4284516034
-28.557798 850.57068 1314.0537 4290431487
-26.177982 850.57068 1314.0537 4289115647
-22.608257 850.57068 1314.0537 4289242854
-19.038532 850.57068 1314.0537 4290098157
-16.658716 850.57068 1314.0537 4291479807
-14.278899 850.57068 1314.0537 4290824703
-10.709174 850.57068 1314.0537 4290824957
-7.1394496 850.57068 1314.0537 4290891002
-4.7596331 850.57068 1314.0537 4290629631
-2.3798165 850.57068 1314.0537 4292471807
0 850.57068 1314.0537 4293259007
26.177982 850.57068 1314.0537 4293784831
-21.418348 852.39001 1315.5879 4288652257
-19.038532 852.39001 1315.5879 4289704414
-16.658716 852.39001 1315.5879 4291809533
-14.278899 852.39001 1315.5879 4291679231
-64.70092 841.52734 1318.2009 4290956031
-62.304588 842.44336 1318.9733 4290627839
-54.904587 848.58698 1317.6133 4289836543
-52.517429 848.58698 1317.6133 4290293482
-50.130276 848.58698 1317.6133 4291148791
-46.549541 848.58698 1317.6133 4291282175
-42.968807 848.58698 1317.6133 4290624764
-40.58165 848.58698 1317.6133 4290953727
-38.194496 848.58698 1317.6133 4290626813
-34.613762 848.58698 1317.6133 4290495485
-31.033028 848.58698 1317.6133 4291088127
10.742202 848.58698 1317.6133 4293651967
14.322936 848.58698 1317.6133 4293062143
16.710093 848.58698 1317.6133 4290561769
19.097248 848.58698 1317.6133 4288788704
22.677982 848.58698 1317.6133 4291286782
-28.645872 850.41199 1319.1521 4290298367
-26.258715 850.41199 1319.1521 4289377524
-23.871559 850.41199 1319.1521 4288718050
-10.742202 850.41199 1319.1521 4291285502
-7.161468 850.41199 1319.1521 4290562047
-4.774312 850.41199 1319.1521 4290299903
-2.387156 850.41199 1319.1521 4292602623
0 850.41199 1319.1521 4293521663
23.871559 850.41199 1319.1521 4294704127
26.258715 850.41199 1319.1521 4294835967
-64.70092 844.27539 1320.5181 4291152639
-62.304588 844.27539 1320.5181 4290890239
-59.908257 844.27539 1320.5181 4290824447
-62.304588 846.10736 1322.0627 4290626047
-58.710091 846.10736 1322.0627 4290955007
2.3963304 846.10736 1322.0627 4293061631
4.7926607 846.10736 1322.0627 4292929279
7.1889906 846.10736 1322.0627 4293455615
-22.677982 852.237 1320.6909 4289902309
-19.097248 852.237 1320.6909 4290165226
-16.710093 852.237 1320.6909 4291744511
-14.322936 852.237 1320.6909 4291218431
-10.742202 852.237 1320.6909 4290692860
-7.161468 852.237 1320.6909 4290430461
26.258715 852.237 1320.6909 4293653503
-72.165138 841.78876 1324.9615 4288983785
-67.354126 841.78876 1324.9615 4290757887
-57.511925 847.93939 1323.6074 4291282687
-55.115597 847.93939 1323.6074 4290756351
-52.719265 847.93939 1323.6074 4290690539
-50.322937 847.93939 1323.6074 4292203775
-46.728439 847.93939 1323.6074 4291216383
-43.133945 847.93939 1323.6074 4290625527
-40.737614 847.93939 1323.6074 4290691320
-38.341286 847.93939 1323.6074 4290494719
-34.746788 847.93939 1323.6074 4290692607
-31.152294 847.93939 1323.6074 4291087871
10.783486 847.93939 1323.6074 4293388799
14.377981 847.93939 1323.6074 4293455615
16.774311 847.93939 1323.6074 4292600319
19.170643 847.93939 1323.6074 4292338943
21.566973 847.93939 1323.6074 4293128191
-47.926605 849.77142 1325.1521 4290954495
-31.152294 849.77142 1325.1521 4290430463
-28.755962 849.77142 1325.1521 4290033917
-26.359632 849.77142 1325.1521 4289771002
-4.7926607 849.77142 1325.1521 4290365183
-2.3963304 849.77142 1325.1521 4292470527
0 849.77142 1325.1521 4293192703
23.963303 849.77142 1325.1521 4293653503
-67.354126 843.62775 1326.5122 4286153150
-64.948624 843.62775 1326.5122 4289969401
-61.340366 845.4668 1328.0627 4291151356
2.4055047 845.4668 1328.0627 4293258495
4.8110094 845.4668 1328.0627 4293257983
7.2165136 845.4668 1328.0627 4293652735
-26.359632 851.60339 1326.6968 4289705209
-22.765137 851.60339 1326.6968 4290362607
-19.170643 851.60339 1326.6968 4290494972
-16.774311 851.60339 1326.6968 4291547647
-14.377981 851.60339 1326.6968 4290956027
-10.783486 851.60339 1326.6968 4290232821
-7.1889906 851.60339 1326.6968 4290299645
-4.7926607 851.60339 1326.6968 4290628095
-2.3963304 851.60339 1326.6968 4292404223
-60.137615 847.30579 1329.6134 4291214838
-57.732109 847.30579 1329.6134 4290886911
-55.326607 847.30579 1329.6134 4290689279
-52.921101 847.30579 1329.6134 4290559723
-50.515594 847.30579 1329.6134 4291217653
-45.704586 847.30579 1329.6134 4290625791
-43.299084 847.30579 1329.6134 4290691322
-40.893578 847.30579 1329.6134 4290757115
-37.285324 847.30579 1329.6134 4290429439
-33.677063 847.30579 1329.6134 4290627839
2.4055047 847.30579 1329.6134 4292995071
4.8110094 847.30579 1329.6134 4292731903
7.2165136 847.30579 1329.6134 4293126655
9.6220188 847.30579 1329.6134 4292731903
13.230275 847.30579 1329.6134 4293126911
16.838531 847.30579 1329.6134 4293390079
19.244038 847.30579 1329.6134 4293455359
21.649542 847.30579 1329.6134 4293652735
-60.137615 849.14484 1331.1641 4290756586
-57.732109 849.14484 1331.1641 4290491640
-55.326607 849.14484 1331.1641 4290294518
-52.921101 849.14484 1331.1641 4290098159
-49.312843 849.14484 1331.1641 4291216895
-45.704586 849.14484 1331.1641 4290756863
-43.299084 849.14484 1331.1641 4290757115
-40.893578 849.14484 1331.1641 4291349247
-36.082569 849.14484 1331.1641 4291283967
-33.677063 849.14484 1331.1641 4290692604
-31.271559 849.14484 1331.1641 4290232053
-28.866055 849.14484 1331.1641 4290033917
0 849.14484 1331.1641 4293126655
19.244038 849.14484 1331.1641 4293455359
21.649542 849.14484 1331.1641 4293323775
24.055046 849.14484 1331.1641 4293192959
-65.196327 842.99426 1332.5181 4288983785
-62.781651 844.84027 1334.0746 4291214838
-48.110092 850.98389 1332.7146 4291020031
-28.866055 850.98389 1332.7146 4290428664
-25.257797 850.98389 1332.7146 4290165747
-21.649542 850.98389 1332.7146 4290889469
-19.244038 850.98389 1332.7146 4290759162
-16.838531 850.98389 1332.7146 4290496247
-13.230275 850.98389 1332.7146 4290035191
-9.6220188 850.98389 1332.7146 4288854249
-7.2165136 850.98389 1332.7146 4290169853
-4.8110094 850.98389 1332.7146 4291746559
-2.4055047 850.98389 1332.7146 4292667647
0 850.98389 1332.7146 4293060863
21.649542 850.98389 1332.7146 4292995071
24.055046 850.98389 1332.7146 4292797951
24.055046 852.82288 1334.2653 4293127167
-67.867889 840.52161 1336.9734 4285036204
-61.57431 847.60938 1336.4094 4291151346
-57.952293 848.53235 1337.1876 4290163179
-55.537613 848.53235 1337.1876 4289768422
-53.122936 848.53235 1337.1876 4289768674
-50.708256 848.53235 1337.1876 4291084533
-45.878899 848.53235 1337.1876 4290559482
-43.464222 848.53235 1337.1876 4290362360
-41.049541 848.53235 1337.1876 4290625275
-37.829967 847.91699 1336.6688 4290888955
-33.805504 848.53235 1337.1876 4290626047
-31.390825 848.53235 1337.1876 4290560254
2.4146788 846.68634 1335.6311 4292995071
4.8293576 846.68634 1335.6311 4292731903
7.2440367 846.68634 1335.6311 4293192447
9.6587152 847.60938 1336.4094 4293126911
13.280734 847.60931 1336.4094 4293061119
16.902752 847.60938 1336.4094 4293258495
19.31743 848.53235 1337.1876 4292995071
-73.045868 835.69305 1340.7502 4283657895
-70.611008 835.69305 1340.7502 4284381874
-65.444038 842.37469 1338.5359 4289903072
-65.444038 844.22778 1340.0984 4291021311
-48.293579 850.37842 1338.7441 4290822909
-45.878899 850.37842 1338.7441 4290428151
-33.805504 850.37842 1338.7441 4290560511
-28.976147 850.37842 1338.7441 4289312763
-25.35413 850.37842 1338.7441 4289312251
-19.31743 850.37842 1338.7441 4290693108
-16.902752 850.37842 1338.7441 4290298350
-13.280734 850.37842 1338.7441 4289838582
-9.6587152 850.37842 1338.7441 4289444590
-7.2440367 850.37842 1338.7441 4291023359
-4.8293576 850.37842 1338.7441 4291877887
-2.4146788 850.37842 1338.7441 4292732927
0 850.37842 1338.7441 4293060863
14.488073 850.37842 1338.7441 4293061119
16.902752 850.37842 1338.7441 4293061119
19.31743 850.37842 1338.7441 4293061119
21.732111 850.37842 1338.7441 4293258495
-12.073395 852.22449 1340.3008 4289904370
-9.6587152 852.22449 1340.3008 4291020533
-2.4146788 852.22449 1340.3008 4292928767
16.902752 852.22449 1340.3008 4292995071
19.31743 852.22449 1340.3008 4292929279
21.732111 852.22449 1340.3008 4292995071
-70.611008 837.55457 1342.3198 4282871711
-68.176147 839.41602 1343.8894 4289047763
-63.020184 846.08081 1341.6608 4291940607
-58.172478 847.93384 1343.2231 4289900271
-55.748623 847.93384 1343.2231 4289505513
-53.324772 847.93384 1343.2231 4289571822
-50.900917 847.93384 1343.2231 4290821887
-43.629356 847.93384 1343.2231 4290100217
-41.205505 847.93384 1343.2231 4290034423
-36.3578 847.93384 1343.2231 4290560756
-31.510092 847.93384 1343.2231 4290494719
-21.814678 847.93384 1343.2231 4291087871
2.4238532 847.00732 1342.4419 4293060863
4.8477063 847.00732 1342.4419 4292797951
7.2715597 847.00732 1342.4419 4293061119
9.6954126 847.93384 1343.2231 4293126911
12.119267 847.93384 1343.2231 4293061119
19.31743 854.0705 1341.8573 4293061119
21.732111 854.0705 1341.8573 4293126911
-73.321098 835.08191 1346.7751 4283398055
-68.176147 841.27747 1345.4589 4290626559
-58.172478 849.78693 1344.7856 4290822388
-55.748623 849.78693 1344.7856 4290888181
-53.324772 849.78693 1344.7856 4291019770
-50.900917 849.78693 1344.7856 4291151612
-46.053211 849.78693 1344.7856 4290823167
-19.390825 849.78693 1344.7856 4290166260
-16.966972 849.78693 1344.7856 4289968880
-13.735168 851.02228 1345.8273 4290430447
-7.2715597 849.78693 1344.7856 4291810303
-4.8477063 850.7135 1345.5669 4292205567
-2.4238532 851.64001 1346.3481 4292863743
0 850.7135 1345.5669 4292798207
4.8477063 849.78693 1344.7856 4292600063
7.2715597 849.78693 1344.7856 4292929023
9.6954126 849.78693 1344.7856 4292929279
13.735168 850.4046 1345.3065 4292929279
16.966972 851.64001 1346.3481 4292995071
-70.877068 836.95044 1348.3506 4288326356
-70.877068 838.81891 1349.926 4289839094
-64.523857 844.0697 1347.8132 4291679231
-60.871559 845.00043 1348.598 4290823413
-38.957798 845.00043 1348.598 4290297328
-4.8477063 853.49304 1347.9105 4292665855
-2.4238532 853.49304 1347.9105 4292600063
0 853.49304 1347.9105 4292403967
14.543119 853.49304 1347.9105 4292995071
16.966972 853.49304 1347.9105 4292995071
-76.049538 834.48486 1352.8118 4288654306
-73.596329 834.48486 1352.8118 4288260563
-70.877068 840.68738 1351.5015 4291351039
-68.433029 840.68738 1351.5015 4291548159
-63.306423 846.86194 1350.1675 4291942143
-60.871559 846.86194 1350.1675 4291021055
-58.436699 848.72339 1351.7371 4291085567
-56.001835 848.72339 1351.7371 4291151615
-53.566971 848.72339 1351.7371 4291612415
-48.697247 847.79266 1350.9523 4290823167
-46.262386 848.72339 1351.7371 4290955007
-43.827522 847.79266 1350.9523 4290232062
-41.392662 847.79266 1350.9523 4290166014
-37.740364 847.7926 1350.9523 4290232316
-34.088074 847.79266 1350.9523 4290232063
-31.653212 847.79266 1350.9523 4289968895
-29.218349 847.79266 1350.9523 4288589299
-25.566055 847.7926 1350.9523 4288983282
-21.913761 847.79266 1350.9523 4290298108
-19.478899 848.72339 1351.7371 4290232053
-17.044037 848.72339 1351.7371 4290429431
-9.7394495 848.72339 1351.7371 4291876607
-7.3045874 848.72339 1351.7371 4292337151
2.4348624 846.86194 1350.1675 4292600831
4.8697248 848.72339 1351.7371 4292600063
7.3045874 848.72339 1351.7371 4292797695
9.7394495 848.72339 1351.7371 4292797951
12.174312 848.72339 1351.7371 4292995071
14.543119 857.19916 1351.0354 4292666111
9.6954126 859.05219 1352.5979 4292402431
13.331193 859.05219 1352.5979 4292600319
-76.049538 836.36035 1354.3932 4288853245
-73.596329 836.36035 1354.3932 4289575921
