# .PCD v0.7 - Point Cloud Data file format
VERSION 0.7
FIELDS x y z rgb
SIZE 4 4 4 4
TYPE F F F U
COUNT 1 1 1 1
WIDTH 1157
HEIGHT 1
VIEWPOINT 0 0 0 1 0 0 0
POINTS 1157
DATA ascii
-26.884403 764.07947 1286.9076 4285360279
-19.552294 763.1452 1286.1199 4284834965
-17.108257 763.1452 1286.1199 4284374413
-13.442202 764.07947 1286.9076 4283847551
31.152294 803.97107 1286.5344 4292797951
33.548622 802.13904 1284.9897 4292732415
38.341286 803.97107 1286.5344 4292666623
40.737614 803.05505 1285.7621 4292601087
43.133945 803.05505 1285.7621 4292535039
35.011623 811.47858 1286.3246 4292337407
38.194496 812.08698 1286.8374 4292666623
35.697247 817.82166 1286.4407 4293259263
-21.25321 833.86554 1286.8882 4290032343
-16.530275 832.06018 1285.366 4289242831
-10.626606 833.86554 1286.8882 4289967587
-14.113762 838.22766 1284.026 4290229463
-31.891743 757.58936 1287.9755 4285360279
-29.438532 757.58936 1287.9755 4285425818
-26.985321 757.58936 1287.9755 4285425818
-19.625689 757.58936 1287.9755 4287335864
-13.492661 757.58936 1287.9755 4286216631
-31.891743 759.46484 1289.5569 4284901521
-26.985321 759.46484 1289.5569 4285163927
-22.078899 759.46484 1289.5569 4285557908
-13.492661 759.46484 1289.5569 4283783562
-4.9064221 759.46484 1289.5569 4283585385
-31.772476 765.94794 1288.4832 4285360275
-29.32844 765.94794 1288.4832 4285031566
-26.884403 765.94794 1288.4832 4285228689
-21.99633 765.94794 1288.4832 4285294218
-19.552294 765.94794 1288.4832 4284242566
-17.108257 765.94794 1288.4832 4284110723
-13.442202 765.94794 1288.4832 4285819015
-9.7761469 765.94794 1288.4832 4287005077
-4.8880734 765.94794 1288.4832 4288982222
-2.4440367 765.94794 1288.4832 4291745528
-19.478899 774.26447 1288.9552 4286873235
-21.649542 799.49109 1289.2972 4285096839
-19.244038 799.49109 1289.2972 4285032861
-16.838531 799.49109 1289.2972 4289045977
-14.433027 799.49109 1289.2972 4289507555
-9.6220188 799.49109 1289.2972 4289508327
-7.2165136 799.49109 1289.2972 4290298100
31.271559 799.49109 1289.2972 4292601599
-19.170643 805.80304 1288.0791 4285755035
-16.774311 805.80304 1288.0791 4289110478
-14.377981 805.80304 1288.0791 4288914912
-10.783486 805.80304 1288.0791 4290362349
-7.1889906 805.80304 1288.0791 4291020272
31.152294 805.80304 1288.0791 4292797695
38.341286 805.80304 1288.0791 4292468223
40.737614 805.80304 1288.0791 4292731647
43.133945 805.80304 1288.0791 4292600575
-21.566973 807.63507 1289.6239 4284572530
-19.170643 807.63507 1289.6239 4284901513
-16.774311 807.63507 1289.6239 4287598770
-14.377981 807.63507 1289.6239 4289111243
-10.783486 807.63507 1289.6239 4290624483
-7.1889906 807.63507 1289.6239 4291479537
-4.7926607 807.63507 1289.6239 4291741695
31.152294 807.63507 1289.6239 4292929023
33.548622 807.63507 1289.6239 4292600063
38.341286 807.63507 1289.6239 4292469247
40.737614 807.63507 1289.6239 4292863999
43.133945 807.63507 1289.6239 4292731903
31.033028 815.73694 1289.915 4292536313
34.2159 814.52032 1288.8892 4292535550
38.194496 813.91199 1288.3762 4292995071
-21.335779 829.48938 1289.7384 4288782015
-18.965137 829.48938 1289.7384 4288650438
-14.223853 829.48938 1289.7384 4289572566
-11.853211 829.48938 1289.7384 4289769689
-10.626606 835.6709 1288.4104 4290296287
-7.0844035 835.6709 1288.4104 4289639132
-34.473396 754.83624 1292.1943 4285557658
-24.623854 754.83624 1292.1943 4284770959
-22.161469 754.83624 1292.1943 4286481320
-7.387156 754.83624 1292.1943 4282531723
-4.9247708 754.83624 1292.1943 4281614423
-2.4623854 754.83624 1292.1943 4281548630
29.548624 754.83624 1292.1943 4293389567
32.011009 754.83624 1292.1943 4293455359
34.473396 754.83624 1292.1943 4293257983
-31.891743 761.34033 1291.1383 4285163927
-24.53211 761.34033 1291.1383 4285360529
-22.078899 761.34033 1291.1383 4285097357
-9.8128443 761.34033 1291.1383 4283715186
-7.359633 761.34033 1291.1383 4284767874
-4.9064221 761.34033 1291.1383 4284242575
-2.4532111 761.34033 1291.1383 4286018986
-34.344955 763.21582 1292.7196 4285755033
-24.53211 763.21582 1292.7196 4285491597
-7.359633 763.21582 1292.7196 4289044403
-31.772476 767.81641 1290.0586 4285361290
-29.32844 767.81641 1290.0586 4285032077
-25.662384 767.81641 1290.0586 4285294734
-21.99633 767.81641 1290.0586 4285162632
-19.552294 767.81641 1290.0586 4284768140
-17.108257 767.81641 1290.0586 4284110210
-13.442202 767.81641 1290.0586 4287004039
-9.7761469 767.81641 1290.0586 4289372841
-7.3321099 767.81641 1290.0586 4290096564
-4.8880734 767.81641 1290.0586 4291808995
-2.4440367 767.81641 1290.0586 4293782783
-31.772476 769.68494 1291.634 4285164683
-29.32844 769.68494 1291.634 4285098374
-25.662384 769.68494 1291.634 4285295243
-21.99633 769.68494 1291.634 4285689489
-19.552294 769.68494 1291.634 4285294736
-17.108257 769.68494 1291.634 4285689238
-13.442202 769.68494 1291.634 4288779953
-9.7761469 769.68494 1291.634 4290163148
-7.3321099 769.68494 1291.634 4290952921
-4.8880734 769.68494 1291.634 4292401407
-2.4440367 769.68494 1291.634 4293783039
-21.913761 776.12592 1290.5248 4285562521
-19.478899 776.12592 1290.5248 4287136426
-17.044037 776.12592 1290.5248 4289570768
-13.391743 776.12592 1290.5248 4289573087
-9.7394495 776.12592 1290.5248 4288984539
-7.3045874 776.12592 1290.5248 4290563314
-4.8697248 776.12592 1290.5248 4291351551
-2.4348624 776.12592 1290.5248 4292798975
-24.348623 777.98743 1292.0944 4284376451
-21.913761 777.98743 1292.0944 4285758104
-19.478899 777.98743 1292.0944 4286875065
-17.044037 777.98743 1292.0944 4290559473
-13.391743 777.98743 1292.0944 4290033127
-9.7394495 777.98743 1292.0944 4289246943
-7.3045874 777.98743 1292.0944 4290628596
-4.8697248 777.98743 1292.0944 4291285759
-2.4348624 777.98743 1292.0944 4292930815
-4.8477063 786.78302 1291.6624 4290956799
-21.732111 794.99713 1292.0481 4285361294
-19.31743 794.99713 1292.0481 4285035939
-16.902752 794.99713 1292.0481 4288786140
-13.683181 794.38177 1291.5292 4289376996
-9.6587152 794.0741 1291.2698 4289443055
-7.2440367 794.0741 1291.2698 4290298108
-4.8293576 794.0741 1291.2698 4290430463
-2.4146788 794.99713 1292.0481 4292535807
-25.257797 802.24963 1291.6232 4284309118
-21.649542 802.24963 1291.6232 4284572551
-19.244038 801.33008 1290.8479 4285230237
-16.838531 801.33008 1290.8479 4288783060
-13.230275 801.33008 1290.8479 4289704423
-9.6220188 801.33008 1290.8479 4289902309
-7.2165136 801.33008 1290.8479 4290626031
-4.8110094 802.24963 1291.6232 4291217662
-2.4055047 802.24963 1291.6232 4292467711
28.866055 803.16913 1292.3984 4292600063
45.704586 802.24963 1291.6232 4292732415
-21.566973 809.46704 1291.1686 4284834171
-19.170643 809.46704 1291.1686 4283915648
-16.774311 809.46704 1291.1686 4284770957
-14.377981 809.46704 1291.1686 4285427617
-10.783486 809.46704 1291.1686 4287992256
-7.1889906 809.46704 1291.1686 4289306828
-4.7926607 809.46704 1291.1686 4289176032
-2.3963304 809.46704 1291.1686 4286741691
31.152294 809.46704 1291.1686 4292337407
40.737614 809.46704 1291.1686 4292798207
43.133945 809.46704 1291.1686 4292929023
-21.566973 811.29907 1292.7133 4284703113
-19.170643 811.29907 1292.7133 4284375949
-16.774311 811.29907 1292.7133 4284507278
-14.377981 811.29907 1292.7133 4284310154
-10.783486 811.29907 1292.7133 4286743207
-7.1889906 811.29907 1292.7133 4287860145
-4.7926607 811.29907 1292.7133 4286742441
-2.3963304 811.29907 1292.7133 4285558424
31.152294 811.29907 1292.7133 4292403711
40.737614 811.29907 1292.7133 4293192447
-19.097248 817.56201 1291.4539 4285297325
-16.710093 817.56201 1291.4539 4283455121
-14.322936 817.56201 1291.4539 4283784059
-10.742202 817.56201 1291.4539 4284638601
-7.161468 817.56201 1291.4539 4285229972
-21.484404 819.38696 1292.9927 4288650958
-19.097248 819.38696 1292.9927 4288389317
-16.710093 819.38696 1292.9927 4287139507
-14.322936 819.38696 1292.9927 4286086828
-10.742202 819.38696 1292.9927 4285955233
-7.161468 819.38696 1292.9927 4285757331
-4.774312 819.38696 1292.9927 4285889674
-19.038532 823.27979 1291.0428 4289177036
-16.658716 823.27979 1291.0428 4289308623
-14.278899 823.27979 1291.0428 4287796950
-21.418348 825.09918 1292.5769 4288782278
-19.038532 825.09918 1292.5769 4289044420
-16.658716 825.09918 1292.5769 4289833935
-14.278899 825.09918 1292.5769 4289704927
-23.706423 832.20795 1292.0306 4289374150
-7.1119266 831.30176 1291.2666 4289704929
-4.7412844 832.20795 1292.0306 4289311716
-2.3706422 833.11414 1292.7947 4291153919
-36.93578 758.60126 1295.3689 4285886875
-34.473396 757.66003 1294.5752 4285296023
-24.623854 756.71875 1293.7816 4285360529
-9.8495417 756.71875 1293.7816 4283518060
-7.387156 756.71875 1293.7816 4284175989
-2.4623854 756.71875 1293.7816 4283388007
1.2311927 758.60126 1295.3689 4289440463
32.011009 757.66003 1294.5752 4293258239
34.473396 757.66003 1294.5752 4292929279
36.93578 756.71875 1293.7816 4293060863
-36.798164 766.02905 1295.0917 4285690005
-34.344955 766.02905 1295.0917 4285493390
1.2266055 766.02905 1295.0917 4293916159
4.9064221 766.02905 1295.0917 4294047487
7.359633 766.9668 1295.8823 4288849861
-36.660549 773.42188 1294.7849 4285820826
-34.216515 773.42188 1294.7849 4285362062
-31.772476 772.48767 1293.9972 4285032841
-29.32844 772.48767 1293.9972 4284770690
-25.662384 772.48767 1293.9972 4284705156
-21.99633 771.55341 1293.2095 4285822611
-17.108257 771.55341 1293.2095 4287202199
-13.442202 771.55341 1293.2095 4289570259
-9.7761469 771.55341 1293.2095 4290033880
-7.3321099 771.55341 1293.2095 4291415533
-4.8880734 771.55341 1293.2095 4292008191
-2.4440367 771.55341 1293.2095 4293586943
-24.348623 779.84888 1293.6639 4284244864
-21.913761 779.84888 1293.6639 4285560468
-19.478899 779.84888 1293.6639 4286154165
-17.044037 779.84888 1293.6639 4289115107
-13.391743 779.84888 1293.6639 4289508845
-9.7394495 779.84888 1293.6639 4289772517
-7.3045874 779.84888 1293.6639 4290693619
-4.8697248 779.84888 1293.6639 4291154431
-2.4348624 779.84888 1293.6639 4292667391
-24.348623 781.71033 1295.2334 4284375680
-21.913761 781.71033 1295.2334 4285494162
-19.478899 781.71033 1295.2334 4285825968
-17.044037 781.71033 1295.2334 4288786653
-13.391743 781.71033 1295.2334 4289639915
-9.7394495 781.71033 1295.2334 4289969130
-7.3045874 781.71033 1295.2334 4290758903
-4.8697248 781.71033 1295.2334 4291022591
-2.4348624 781.71033 1295.2334 4292733183
-13.331193 788.63611 1293.2249 4289442538
-9.6954126 788.63611 1293.2249 4289377774
-7.2715597 788.63611 1293.2249 4290562047
-4.8477063 788.63611 1293.2249 4290890495
-2.4238532 788.63611 1293.2249 4292732671
-31.510092 790.48914 1294.7874 4285491597
-29.086239 790.48914 1294.7874 4285621638
-25.450459 790.48914 1294.7874 4284964994
-21.814678 790.48914 1294.7874 4285361294
-19.390825 790.48914 1294.7874 4285168041
-16.966972 790.48914 1294.7874 4288786655
-12.119267 790.48914 1294.7874 4289639915
-2.4238532 790.48914 1294.7874 4292272639
0 790.48914 1294.7874 4292994559
-25.35413 796.8432 1293.6047 4284965249
-12.073395 796.8432 1293.6047 4289967850
-4.8293576 796.8432 1293.6047 4290430463
-2.4146788 796.8432 1293.6047 4292470015
-31.390825 798.68921 1295.1613 4286281379
-28.976147 798.68921 1295.1613 4285755789
1.2073394 798.68921 1295.1613 4290231265
4.8293576 798.68921 1295.1613 4285892002
7.2440367 798.68921 1295.1613 4292668415
28.976147 798.68921 1295.1613 4292929279
-33.677063 805.92767 1294.7244 4287401398
-31.271559 805.92767 1294.7244 4286875054
-28.866055 805.92767 1294.7244 4286742945
-25.257797 805.92773 1294.7245 4285492873
-2.4055047 805.00818 1293.9491 4291215359
0 806.84717 1295.4998 4284508059
28.866055 805.92767 1294.7244 4292402687
-31.152294 814.96313 1295.8027 4287992767
-28.755962 814.96313 1295.8027 4287992765
-26.359632 814.96313 1295.8027 4288255936
-22.765137 814.04712 1295.0303 4287136958
-19.170643 813.1311 1294.2579 4285099154
-16.774311 813.1311 1294.2579 4284046466
-14.377981 813.1311 1294.2579 4283915131
-10.783486 813.1311 1294.2579 4284638598
-7.1889906 813.1311 1294.2579 4285164429
-4.7926607 814.04712 1295.0303 4284901259
-2.3963304 814.04712 1295.0303 4286545827
28.755962 814.04712 1295.0303 4292207081
-21.484404 821.21198 1294.5314 4289176525
-10.742202 821.21198 1294.5314 4286481590
-7.161468 821.21198 1294.5314 4286153125
-4.774312 821.21198 1294.5314 4287401629
-9.5192661 826.91858 1294.111 4290165728
-7.1394496 826.91858 1294.111 4289902813
-4.7596331 826.91858 1294.111 4290033379
-2.3798165 828.73798 1295.645 4291153918
-39.398167 760.48376 1296.9562 4285952666
-36.93578 760.48376 1296.9562 4285821080
1.2311927 760.48376 1296.9562 4292995839
4.9247708 760.48376 1296.9562 4293783295
7.387156 760.48376 1296.9562 4287664567
9.8495417 760.48376 1296.9562 4285561252
13.543119 760.48376 1296.9562 4289904370
32.011009 760.48376 1296.9562 4293192703
34.473396 760.48376 1296.9562 4293060607
36.93578 760.48376 1296.9562 4293191935
-39.398167 762.36627 1298.5435 4285821078
7.387156 762.36627 1298.5435 4288652224
9.8495417 762.36627 1298.5435 4284578733
13.543119 762.36627 1298.5435 4289182706
-36.798164 768.84229 1297.4637 4285821078
-34.344955 768.84229 1297.4637 4285362062
1.2266055 768.84229 1297.4637 4293718527
4.9064221 768.84229 1297.4637 4293719039
7.359633 768.84229 1297.4637 4289047756
9.8128443 768.84229 1297.4637 4285301178
12.266055 768.84229 1297.4637 4288327399
-36.660549 775.29034 1296.3604 4285820828
-34.216515 775.29034 1296.3604 4285361812
-31.772476 775.29034 1296.3604 4285164177
-29.32844 775.29034 1296.3604 4284900741
-26.884403 775.29034 1296.3604 4284703619
1.2220184 775.29034 1296.3604 4293390079
-39.104588 777.15887 1297.9358 4286020256
-36.660549 777.15887 1297.9358 4285822876
-34.216515 777.15887 1297.9358 4285296269
-31.772476 777.15887 1297.9358 4284967304
-29.32844 777.15887 1297.9358 4284768124
-26.884403 777.15887 1297.9358 4285097089
1.2220184 777.15887 1297.9358 4293126399
4.8880734 777.15887 1297.9358 4293192191
-36.522934 785.43329 1298.3726 4286282142
-34.088074 785.43329 1298.3726 4286478740
-31.653212 784.50256 1297.5878 4285097858
-29.218349 784.50256 1297.5878 4285292936
-25.566055 784.50256 1297.5878 4284833667
-21.913761 784.50256 1297.5878 4285427086
-19.478899 784.50256 1297.5878 4285693867
-17.044037 784.50256 1297.5878 4288983518
-13.391743 783.57184 1296.803 4289376746
-9.7394495 783.57184 1296.803 4289377772
-7.3045874 783.57184 1296.803 4290562303
-2.4348624 783.57184 1296.803 4292535807
0.81162077 784.81281 1297.8494 4293060607
-36.3578 792.34216 1296.3497 4287006372
-33.933945 793.26868 1297.131 4287136935
-31.510092 793.26868 1297.131 4285755025
-29.086239 793.26868 1297.131 4285557380
-25.450459 792.34216 1296.3497 4284965761
1.2119266 793.26868 1297.131 4291613941
4.8477063 793.26868 1297.131 4287533271
7.2715597 794.19525 1297.9122 4292662527
29.086239 794.19525 1297.9122 4292601599
-33.805504 800.53528 1296.7178 4287334067
-31.390825 800.53528 1296.7178 4286676137
-28.976147 800.53528 1296.7178 4286019988
1.2073394 800.53528 1296.7178 4288124894
4.8293576 800.53528 1296.7178 4285954685
7.2440367 800.53528 1296.7178 4293323501
26.561468 800.53528 1296.7178 4292600063
48.293579 800.53528 1296.7178 4292798207
-36.220184 802.38135 1298.2743 4287138482
1.2073394 802.38135 1298.2743 4286745019
4.8293576 802.38135 1298.2743 4286744769
7.2440367 802.38135 1298.2743 4291745279
26.561468 802.38135 1298.2743 4292600063
-37.285324 808.68622 1297.0503 4287138735
-33.677063 808.68622 1297.0503 4287532725
-31.271559 808.68622 1297.0503 4287532725
-28.866055 808.68622 1297.0503 4287728323
-25.257797 808.68622 1297.0503 4287005105
0 808.68622 1297.0503 4285034921
26.46055 808.68622 1297.0503 4292140543
28.866055 808.68622 1297.0503 4292337919
-40.893578 810.52527 1298.601 4286809260
-37.285324 810.52527 1298.601 4287072946
-33.677063 810.52527 1298.601 4287466934
-31.271559 810.52527 1298.601 4287664313
-28.866055 810.52527 1298.601 4287992767
-26.46055 810.52527 1298.601 4287860924
1.2027524 810.52527 1298.601 4287860897
25.257797 810.52527 1298.601 4292009471
-38.341286 818.62714 1298.8921 4286940588
-34.347401 818.01654 1298.3772 4287335606
-31.152294 817.71118 1298.1198 4287796415
-28.755962 817.71118 1298.1198 4287861952
-26.359632 817.71118 1298.1198 4288256710
-23.963303 817.71118 1298.1198 4288518855
-2.3963304 817.71118 1298.1198 4288191658
26.359632 816.79517 1297.3474 4292731647
28.755962 816.79517 1297.3474 4292338419
-26.258715 824.862 1297.609 4288649925
-23.871559 823.94946 1296.8396 4288650432
-10.742202 823.03699 1296.0702 4289178839
-7.161468 823.03699 1296.0702 4289113558
-4.774312 823.03699 1296.0702 4289966023
-2.387156 823.94946 1296.8396 4292072180
-46.959633 755.86212 1299.5995 4285756818
-43.252296 755.86212 1299.5995 4285953170
-39.544952 755.86212 1299.5995 4285952668
4.943119 755.86212 1299.5995 4290493412
7.4146791 755.86212 1299.5995 4285295765
9.8862381 755.86212 1299.5995 4285497787
13.593578 755.86212 1299.5995 4290760191
17.300917 755.86212 1299.5995 4293127423
19.772476 755.86212 1299.5995 4293521151
22.244038 755.86212 1299.5995 4293323775
-46.959633 757.75165 1301.1926 4285757072
-43.252296 757.75165 1301.1926 4286084238
17.300917 757.75165 1301.1926 4292405247
19.772476 757.75165 1301.1926 4293192703
-44.322937 764.24878 1300.1307 4286019215
-39.398167 764.24878 1300.1307 4285756568
9.8495417 764.24878 1300.1307 4285104253
13.543119 764.24878 1300.1307 4289248471
17.236698 764.24878 1300.1307 4291879167
19.699083 764.24878 1300.1307 4292535295
-44.322937 766.13135 1301.718 4286018961
-40.629356 766.13135 1301.718 4285952916
14.774312 766.13135 1301.718 4289838325
17.236698 766.13135 1301.718 4291943679
19.699083 766.13135 1301.718 4292403199
-39.251377 770.71783 1299.0452 4286018461
1.2266055 770.71783 1299.0452 4293258239
4.9064221 770.71783 1299.0452 4293587199
7.359633 770.71783 1299.0452 4289244878
9.8128443 770.71783 1299.0452 4285958549
12.266055 770.71783 1299.0452 4289182406
-39.251377 772.59332 1300.6265 4286281379
4.9064221 772.59332 1300.6265 4293455615
7.359633 772.59332 1300.6265 4289244880
9.8128443 772.59332 1300.6265 4285957054
12.266055 772.59332 1300.6265 4289641462
-39.104588 779.02734 1299.5114 4286151324
-36.660549 779.02734 1299.5114 4286019738
-34.216515 779.02734 1299.5114 4285953933
-31.772476 779.02734 1299.5114 4285164418
-29.32844 779.02734 1299.5114 4285293952
-26.884403 779.02734 1299.5114 4285359745
1.2220184 779.02734 1299.5114 4293324031
4.8880734 779.02734 1299.5114 4293126399
-39.104588 780.89581 1301.0868 4286151326
-36.660549 780.89581 1301.0868 4286085533
-34.216515 780.89581 1301.0868 4286019474
2.4440367 780.89581 1301.0868 4293192447
4.8880734 780.89581 1301.0868 4293060095
7.3321099 780.89581 1301.0868 4287862208
-37.740364 787.2948 1299.942 4286283166
-34.088074 787.2948 1299.942 4286675871
2.4348624 787.2948 1299.942 4292797439
4.8697248 787.2948 1299.942 4289314047
7.3045874 787.2948 1299.942 4286616543
-41.392662 789.15625 1301.5116 4286743465
-38.957798 789.15625 1301.5116 4286874785
7.3045874 789.15625 1301.5116 4288127989
-37.165752 797.28369 1300.5162 4286874796
-33.933945 796.04828 1299.4746 4287202481
9.6954126 797.90137 1301.0371 4294506751
13.331193 797.90137 1301.0371 4290429664
16.966972 797.90137 1301.0371 4291878911
19.390825 797.90137 1301.0371 4292797695
24.238533 797.90137 1301.0371 4292402431
-43.464222 806.07336 1301.3873 4286085799
-41.049541 806.07336 1301.3873 4286743729
-37.427521 804.22736 1299.8308 4287007151
2.4146788 805.15039 1300.6091 4287074245
4.8293576 805.15039 1300.6091 4288454598
7.2440367 805.15039 1300.6091 4289244114
9.6587152 805.15039 1300.6091 4288587224
13.280734 806.07336 1301.3873 4291811071
16.902752 806.07336 1301.3873 4292600319
19.31743 806.07336 1301.3873 4292205567
21.732111 806.07336 1301.3873 4292205567
25.35413 805.15039 1300.6091 4292140031
-40.893578 812.36426 1300.1516 4286940838
-37.285324 812.36426 1300.1516 4287269557
-33.677063 812.36426 1300.1516 4287532216
1.2027524 812.36426 1300.1516 4287073974
4.8110094 812.36426 1300.1516 4288848322
9.6220188 812.36426 1300.1516 4291086330
21.649542 812.36426 1300.1516 4292074751
25.257797 812.36426 1300.1516 4292337663
-43.299084 814.20331 1301.7021 4285755033
-40.893578 814.20331 1301.7021 4287136686
-37.285324 814.20331 1301.7021 4287137967
1.2027524 814.20331 1301.7021 4288715452
4.8110094 814.20331 1301.7021 4291543006
7.2165136 814.20331 1301.7021 4292464108
9.6220188 814.20331 1301.7021 4292598271
13.230275 814.20331 1301.7021 4292204798
16.838531 814.20331 1301.7021 4292008447
19.244038 814.20331 1301.7021 4292139775
21.649542 814.20331 1301.7021 4292337151
24.055046 814.20331 1301.7021 4292665599
-40.737614 820.45917 1300.4368 4287005868
-38.341286 820.45917 1300.4368 4287072176
-34.746788 820.45917 1300.4368 4287598775
-31.152294 820.45917 1300.4368 4288125118
-28.755962 820.45917 1300.4368 4287993030
-26.359632 820.45917 1300.4368 4288321739
-43.133945 822.2912 1301.9814 4286347937
-40.737614 822.2912 1301.9814 4287071917
-38.341286 822.2912 1301.9814 4287596973
-34.746788 822.2912 1301.9814 4288123573
-31.152294 822.2912 1301.9814 4289044674
-28.755962 822.2912 1301.9814 4288781767
1.1981652 822.2912 1301.9814 4292336639
4.7926607 822.2912 1301.9814 4292206079
7.1889906 822.2912 1301.9814 4292469503
9.5853214 822.2912 1301.9814 4292271871
-26.258715 826.68701 1299.1478 4289044422
4.774312 828.51196 1300.6866 4292008703
-49.431194 761.5307 1304.379 4284967304
-46.959633 760.58594 1303.5825 4285756820
-42.840366 760.271 1303.3169 4285953422
17.300917 759.64117 1302.7859 4292536319
19.772476 759.64117 1302.7859 4293258495
-46.78532 768.95508 1304.0989 4285756822
-44.322937 768.95508 1304.0989 4285953681
-41.86055 768.95508 1304.0989 4286019475
14.774312 768.95508 1304.0989 4290231797
17.236698 768.95508 1304.0989 4291547903
19.699083 768.01379 1303.3053 4292139007
-44.157799 776.34436 1303.7893 4285888154
-41.704586 776.34436 1303.7893 4286019740
7.359633 775.40662 1302.9985 4288520651
9.8128443 775.40662 1302.9985 4285563818
13.492661 775.40662 1302.9985 4290168050
17.172478 776.34436 1303.7893 4291548415
-43.992661 782.76428 1302.6622 4286347935
-40.326607 782.76428 1302.6622 4286479521
4.8880734 782.76428 1302.6622 4292338431
7.3321099 782.76428 1302.6622 4286548662
-46.436699 784.63281 1304.2377 4286020256
-43.992661 784.63281 1304.2377 4286282914
-41.548622 784.63281 1304.2377 4286545830
9.7761469 784.63281 1304.2377 4289047767
12.220183 784.63281 1304.2377 4290889971
17.108257 784.63281 1304.2377 4291546868
-41.392662 791.0177 1303.0812 4286677933
-37.740364 791.0177 1303.0812 4287006120
9.7394495 791.0177 1303.0812 4294374399
-43.827522 792.87921 1304.6508 4286282924
-41.392662 792.87921 1304.6508 4286743475
-38.957798 792.87921 1304.6508 4286874281
9.7394495 792.87921 1304.6508 4294506239
13.391743 792.87921 1304.6508 4291020525
17.044037 792.87921 1304.6508 4291745791
19.478899 792.87921 1304.6508 4292666367
26.783485 792.87921 1304.6508 4292929791
-41.205505 799.75439 1302.5996 4286809018
-38.781651 799.75439 1302.5996 4286743724
9.6954126 799.75439 1302.5996 4292138737
13.331193 799.75439 1302.5996 4290100451
16.966972 799.75439 1302.5996 4292207103
19.390825 799.75439 1302.5996 4292731647
24.238533 799.75439 1302.5996 4292402431
-41.205505 801.60742 1304.162 4286743477
13.331193 801.60742 1304.162 4290889970
16.966972 801.60742 1304.162 4292403455
19.390825 801.60742 1304.162 4292337407
21.814678 801.60742 1304.162 4292205567
24.238533 801.60742 1304.162 4292271103
-45.878899 809.7655 1304.5005 4285690260
-43.464222 808.84247 1303.7222 4285756568
4.8293576 807.91943 1302.9438 4287536059
7.2440367 808.84247 1303.7222 4290034394
9.6587152 807.91943 1302.9438 4290429668
13.280735 808.84253 1303.7222 4292336895
16.902752 808.84247 1303.7222 4292402687
19.31743 808.84247 1303.7222 4291746047
21.732111 807.91943 1302.9438 4291812351
-45.704586 817.88135 1304.8035 4286215574
-43.299084 816.96185 1304.0281 4286084511
-40.893578 816.04236 1303.2528 4287070894
1.2027524 816.96185 1304.0281 4291743723
4.8110094 816.96185 1304.0281 4291875838
7.2165136 816.96185 1304.0281 4292599551
9.6220188 816.96185 1304.0281 4292073983
13.230275 816.96185 1304.0281 4292205311
16.838531 816.96185 1304.0281 4292402175
19.244038 816.96185 1304.0281 4292468223
21.649542 816.96185 1304.0281 4291678712
24.055046 816.96185 1304.0281 4290561269
-43.133945 824.12317 1303.5262 4286348189
-40.737614 824.12317 1303.5262 4286874533
-38.341286 824.12317 1303.5262 4287070881
-34.746788 824.12317 1303.5262 4287662760
-31.152294 824.12317 1303.5262 4288320433
-28.755962 824.12317 1303.5262 4288452284
1.1981652 824.12317 1303.5262 4291614463
4.7926607 824.12317 1303.5262 4291812351
7.1889906 824.12317 1303.5262 4291812351
9.5853214 824.12317 1303.5262 4291943167
4.774312 830.33698 1302.2253 4292139519
-52.133945 754.47314 1306.2765 4285098374
-49.651375 754.47314 1306.2765 4285230728
-52.133945 756.37109 1307.8767 4285163916
-49.651375 756.37109 1307.8767 4285164683
22.343119 756.37109 1307.8767 4293389823
-49.431194 763.42023 1305.9723 4285098636
-46.959633 763.42023 1305.9723 4285756566
-51.902752 765.30975 1307.5654 4284968079
-49.431194 765.30975 1307.5654 4285098636
-49.247707 771.77887 1306.4799 4285033363
-46.78532 771.77887 1306.4799 4285756829
-44.322937 771.77887 1306.4799 4285888154
-41.86055 771.77887 1306.4799 4286085533
17.236698 771.77887 1306.4799 4291351039
19.699083 771.77887 1306.4799 4291614207
-51.517429 778.21985 1305.3706 4285361042
-49.06422 778.21985 1305.3706 4285295767
-46.611008 778.21985 1305.3706 4285822111
-44.157799 778.21985 1305.3706 4286149788
-41.704586 778.21985 1305.3706 4286347424
9.8128443 778.21985 1305.3706 4285169800
13.492661 778.21985 1305.3706 4290234084
17.172478 778.21985 1305.3706 4291548159
19.625689 778.21985 1305.3706 4291942911
22.078899 778.21985 1305.3706 4292863999
-56.423855 780.09534 1306.952 4284570493
-52.744034 780.09534 1306.952 4284900244
-49.06422 780.09534 1306.952 4285427606
-46.611008 780.09534 1306.952 4286085279
9.8128443 780.09534 1306.952 4285695415
13.492661 780.09534 1306.952 4290167795
17.172478 780.09534 1306.952 4291416061
19.625689 780.09534 1306.952 4291746047
22.078899 780.09534 1306.952 4292732927
-46.436699 787.43555 1306.6008 4286217119
-43.992661 787.43555 1306.6008 4286217380
9.7761469 786.50128 1305.8131 4292729855
13.442202 787.43555 1306.6008 4291809777
17.108257 787.43555 1306.6008 4292008185
19.552294 788.36975 1307.3887 4292468991
-46.262386 794.74066 1306.2202 4286020762
-43.827522 794.74066 1306.2202 4286217132
-41.392662 794.74066 1306.2202 4286743477
21.913761 794.74066 1306.2202 4292534271
-48.697247 796.60217 1307.7898 4284769671
-46.262386 796.60217 1307.7898 4286151324
-43.827522 796.60217 1307.7898 4286216880
21.913761 796.60217 1307.7898 4292600063
-46.053211 803.46051 1305.7245 4286150811
-46.053211 805.3136 1307.2869 4286149781
-45.878899 811.61151 1306.057 4285755023
-48.293579 813.45758 1307.6135 4285557908
-45.878899 813.45758 1307.6135 4285821080
-52.921101 821.55945 1307.9047 4285822093
-48.911926 820.94647 1307.3878 4285953682
-45.704586 820.63989 1307.1294 4286348441
13.230276 820.63995 1307.1294 4291878399
16.838531 820.63989 1307.1294 4288852970
19.244038 820.63989 1307.1294 4283991517
21.649542 820.63989 1307.1294 4282675664
24.055046 820.63989 1307.1294 4281751980
-57.511925 826.87122 1305.8433 4285033867
-40.737614 826.87122 1305.8433 4285558161
-38.341286 825.9552 1305.0709 4286478994
-35.146175 826.56592 1305.5858 4286215825
-31.152294 825.9552 1305.0709 4287399833
-28.755962 825.9552 1305.0709 4287927194
-26.359632 825.9552 1305.0709 4288519331
1.1981652 825.9552 1305.0709 4291680255
7.1889906 826.87122 1305.8433 4292205567
9.5853214 825.9552 1305.0709 4292008447
-52.133945 758.26904 1309.4771 4285098122
22.343119 758.26904 1309.4771 4293127679
-54.374313 767.19928 1309.1587 4284113024
-51.902752 767.19928 1309.1587 4285034126
-49.431194 767.19928 1309.1587 4285164429
19.772476 767.19928 1309.1587 4291810559
-54.374313 769.08881 1310.7518 4284112511
-51.902752 769.08881 1310.7518 4285033613
-54.172478 773.66138 1308.0671 4284177021
-51.710091 773.66138 1308.0671 4285229709
-49.247707 773.66138 1308.0671 4285230233
-46.78532 773.66138 1308.0671 4285756833
19.699083 773.66138 1308.0671 4291680255
22.161469 773.66138 1308.0671 4292732927
-55.403671 775.54388 1309.6545 4284242560
-56.423855 781.97083 1308.5333 4284572030
-52.744034 781.97083 1308.5333 4285163917
-49.06422 781.97083 1308.5333 4285362326
14.719266 781.97083 1308.5333 4290888937
19.625689 781.97083 1308.5333 4292008191
22.078899 781.97083 1308.5333 4292863487
24.53211 781.97083 1308.5333 4292863999
-56.423855 783.84631 1310.1147 4284900739
-52.744034 783.84631 1310.1147 4285098892
-49.06422 783.84631 1310.1147 4285427606
19.625689 783.84631 1310.1147 4292206591
-56.212845 790.23828 1308.9641 4284900743
-51.324772 790.23828 1308.9641 4285690514
-48.880733 790.23828 1308.9641 4285296521
-46.436699 790.23828 1308.9641 4286217623
21.99633 790.23828 1308.9641 4292797951
24.440367 790.23828 1308.9641 4292666623
-58.656879 792.10675 1310.5396 4283716472
-56.212845 792.10675 1310.5396 4284242816
-52.546791 792.10675 1310.5396 4284637574
-48.880733 792.10675 1310.5396 4284770438
-51.132111 799.39435 1310.144 4284900744
-48.697247 799.39435 1310.144 4284835463
-46.262386 798.46362 1309.3594 4286151324
-43.827522 798.46362 1309.3594 4286085803
-49.688992 808.09314 1309.6305 4285031556
-49.500916 815.30359 1309.17 4285755534
-57.952293 817.14966 1310.7266 4285098374
-55.537613 817.14966 1310.7266 4285229961
-53.122936 817.14966 1310.7266 4285493132
-50.708256 817.14966 1310.7266 4285690512
-60.137615 823.39844 1309.4553 4285296015
-55.326607 823.39844 1309.4553 4285822613
-52.921101 823.39844 1309.4553 4285691277
-49.312843 823.39844 1309.4553 4285888142
-45.704586 823.39844 1309.4553 4286150544
-43.299084 823.39844 1309.4553 4286085268
13.230275 823.39844 1309.4553 4292009215
16.838531 823.39844 1309.4553 4287865042
19.244038 823.39844 1309.4553 4281690837
21.649542 823.39844 1309.4553 4279256496
24.055046 823.39844 1309.4553 4279195026
-62.304588 829.61926 1308.1604 4285759914
-58.710091 829.61926 1308.1604 4284575633
-55.115597 829.61926 1308.1604 4285101970
-57.511925 831.45123 1309.7051 4285363870
-55.115597 831.45123 1309.7051 4285627299
-54.818348 754.59845 1312.9222 4284571778
-54.616512 760.16699 1311.0774 4284113026
-52.133945 760.16699 1311.0774 4284836750
22.343119 760.16699 1311.0774 4293390079
-54.616512 762.06494 1312.6776 4284046977
22.343119 762.06494 1312.6776 4293125887
24.825687 762.06494 1312.6776 4292994559
-56.845871 770.97833 1312.3451 4284177023
-61.78899 772.86786 1313.9382 4284702583
-59.317432 772.86786 1313.9382 4284505985
-61.559631 778.36768 1312.0354 4284703096
-59.097248 778.36768 1312.0354 4284703104
-61.330276 785.7218 1311.6962 4284703619
-58.877064 785.7218 1311.6962 4284507521
-56.423855 785.7218 1311.6962 4284639107
-52.744034 785.7218 1311.6962 4285098892
-49.06422 785.7218 1311.6962 4285230222
24.53211 785.7218 1311.6962 4292470271
-61.330276 787.59735 1313.2775 4284243329
-58.877064 787.59735 1313.2775 4284505985
-53.970642 787.59735 1313.2775 4284966534
-61.100918 793.97522 1312.115 4284176769
-58.656879 793.97522 1312.115 4284177021
-56.212845 793.97522 1312.115 4284308607
-52.546791 793.97522 1312.115 4284571531
-58.656879 795.84375 1313.6904 4284439162
-56.212845 795.84375 1313.6904 4284439162
-53.768806 795.84375 1313.6904 4284112513
-63.306423 802.18652 1312.4984 4284440192
-60.871559 802.18652 1312.4984 4284440192
-58.436699 802.18652 1312.4984 4284636538
-56.001835 802.18652 1312.4984 4284768124
-52.349541 802.18652 1312.4984 4285162369
-48.697247 802.18652 1312.4984 4285096837
-58.172478 812.72583 1313.5366 4284966532
-55.748623 811.79932 1312.7554 4285032584
-53.324772 811.79932 1312.7554 4285229700
-50.900917 810.87274 1311.9742 4285623687
-60.366974 818.99573 1312.2831 4285164168
-57.952293 818.99573 1312.2831 4285361544
-55.537613 818.99573 1312.2831 4285558923
-60.137615 825.23749 1311.006 4284970398
-55.326607 825.23749 1311.006 4284968331
-52.921101 826.15698 1311.7812 4285033614
-49.312843 826.15698 1311.7812 4284901517
-45.704586 826.15698 1311.7812 4285032079
-43.299084 826.15698 1311.7812 4285031313
-40.893578 827.07648 1312.5565 4285031314
-38.488075 825.23749 1311.006 4284637574
9.6220188 825.23749 1311.006 4292205311
16.838531 825.23749 1311.006 4292402431
19.244038 825.23749 1311.006 4291746047
21.649542 825.23749 1311.006 4290693369
-57.511925 833.28326 1311.2498 4285299894
-57.310093 757.45593 1315.3315 4284046970
-57.310093 759.36084 1316.9377 4283718520
-57.099083 763.96289 1314.278 4283980923
22.343119 763.96289 1314.278 4293126399
24.825687 763.96289 1314.278 4293192703
-57.099083 765.86084 1315.8783 4284177019
22.343119 765.86084 1315.8783 4292798719
-61.559631 781.19141 1314.4164 4284703615
-59.097248 781.19141 1314.4164 4284703617
22.161469 781.19141 1314.4164 4292930047
24.623854 781.19141 1314.4164 4293192703
27.086239 781.19141 1314.4164 4293192703
22.161469 783.07397 1316.0037 4292797951
27.086239 783.07397 1316.0037 4292733439
-61.330276 789.47284 1314.8589 4283849082
-63.544952 797.71222 1315.2659 4284242814
-61.100918 797.71222 1315.2659 4284177021
-58.656879 797.71222 1315.2659 4284307573
-56.212845 797.71222 1315.2659 4284439416
-53.768806 797.71222 1315.2659 4284767874
-63.306423 805.90955 1315.6376 4284110975
-60.871559 804.97876 1314.8528 4284308353
-58.436699 804.97876 1314.8528 4284373115
-56.001835 804.97876 1314.8528 4284767873
-53.566971 804.97876 1314.8528 4284833918
-60.596329 814.57886 1315.0991 4285032577
7.2440367 824.53381 1316.9528 4292402687
9.6587152 824.53381 1316.9528 4292205823
13.683181 823.30304 1315.915 4292270847
16.902752 824.53381 1316.9528 4292665599
19.31743 824.53381 1316.9528 4292600063
21.732111 824.53381 1316.9528 4291876607
24.14679 823.61078 1316.1746 4288001778
-60.137615 829.83508 1314.8826 4285431473
-55.326607 830.75458 1315.6578 4284970930
-52.921101 828.91553 1314.1072 4285231759
-49.312843 828.91553 1314.1072 4285296272
-45.704586 828.91553 1314.1072 4285557908
-63.783485 793.22382 1318.0216 4284308607
-61.330276 793.22382 1318.0216 4284177021
-63.306423 808.70172 1317.9918 4284374660
-60.871559 808.70172 1317.9918 4284571782
-58.436699 807.771 1317.207 4284505985
-60.022018 758.56879 1322.8102 4284178558
-59.801834 763.17078 1320.1503 4284308861
24.917431 763.17078 1320.1503 4293126655
-59.801834 765.07574 1321.7565 4284308609
24.917431 765.07574 1321.7565 4293061119
12.119267 821.99109 1321.3489 4291942655
14.543119 823.84412 1322.9114 4291942655
16.966972 823.84412 1322.9114 4292139775
19.390825 823.84412 1322.9114 4292073215
21.814678 823.84412 1322.9114 4292270591
24.238533 823.84412 1322.9114 4292731647
-53.122936 828.22589 1320.0658 4285099667
-49.500916 828.22589 1320.0658 4285361557
21.814678 825.6972 1324.4739 4292139775
24.238533 825.6972 1324.4739 4292402431
-60.596329 827.55023 1326.0363 4287404500
-58.172478 827.55023 1326.0363 4286878406
26.662386 829.40332 1327.5988 4291942655
-56.001835 824.52423 1331.333 4285694389
-53.566971 824.52423 1331.333 4285758628
19.478899 822.66278 1329.7634 4291942655
26.662386 831.25635 1329.1611 4291745791
12.266055 815.72986 1336.998 4292139775
-58.656879 823.87103 1337.3223 4287338957
-56.212845 823.87103 1337.3223 4286154940
21.99633 822.93677 1336.5345 4291811583
24.440367 822.93677 1336.5345 4291810815
24.348623 830.10864 1336.0416 4292140031
14.719266 817.60535 1338.5795 4292008447
17.172478 817.60535 1338.5795 4292139775
19.625689 819.48083 1340.1609 4291746047
24.440367 825.7395 1338.8978 4291679999
19.625689 821.35632 1341.7422 4291877119
-58.877064 823.23181 1343.3236 4288587494
-56.423855 823.23181 1343.3236 4287863770
22.078899 823.23181 1343.3236 4292008703
21.99633 831.34497 1343.6241 4292270591
9.8862381 810.65845 1345.8022 4292271615
-54.172478 818.84167 1346.1621 4285628092
22.078899 826.0451 1345.6957 4292270847
12.357799 812.54797 1347.3955 4292337407
-51.902752 814.4375 1348.9886 4285627299
14.829358 814.4375 1348.9886 4291679743
17.300917 814.4375 1348.9886 4291679743
19.699083 820.72424 1347.7494 4291877119
-59.097248 822.60675 1349.3367 4288654583
-56.634861 822.60675 1349.3367 4288062446
19.699083 822.60675 1349.3367 4292271103
9.930275 809.51355 1352.6851 4292337407
-54.374313 818.21655 1352.175 4286944715
14.829358 817.27179 1351.3784 4291876863
17.300917 817.27179 1351.3784 4291876863
-59.097248 824.48926 1350.924 4289773311
19.699083 824.48926 1350.924 4291876607
19.699083 826.37177 1352.5112 4292007167
7.4752293 805.07983 1355.4868 4292008447
-49.651375 811.4115 1354.2854 4285756820
12.412844 811.4115 1354.2854 4291942655
-52.133945 813.30945 1355.8857 4285364663
12.412844 813.30945 1355.8857 4291942655
-55.198166 821.36572 1354.8304 4288654824
14.829358 821.05084 1354.5649 4291876351
17.300917 821.05084 1354.5649 4292073471
19.699083 828.25427 1354.0985 4291678975
7.4752293 806.98486 1357.093 4291942655
7.4752293 808.88977 1358.6993 4292008447
9.9669724 808.88977 1358.6993 4292139775
-52.133945 815.2074 1357.486 4286089406
12.412844 815.2074 1357.486 4291876607
-59.317432 823.88513 1356.9547 4290562047
-55.610092 823.88513 1356.9547 4289706989
-51.902752 823.88513 1356.9547 4287996108
14.829358 823.88513 1356.9547 4291810815
17.300917 823.88513 1356.9547 4291810815
-55.610092 825.77466 1358.5479 4290429435
-51.902752 825.77466 1358.5479 4289508077
17.300917 825.77466 1358.5479 4291810815
-45.016514 802.54413 1359.889 4285361558
5.0018349 802.54413 1359.889 4291876863
-46.266972 804.45612 1361.5012 4285690008
5.0018349 804.45612 1361.5012 4291876863
-49.834862 811.74719 1361.1086 4285824413
-47.343121 812.69971 1361.9117 4285759652
-44.851376 811.74719 1361.1086 4285756317
4.9834862 811.74719 1361.1086 4291613950
7.4752293 811.74719 1361.1086 4291811327
9.9669724 811.74719 1361.1086 4291679486
-52.133945 817.10535 1359.0863 4286746568
-49.651375 817.10535 1359.0863 4286614970
12.412844 817.10535 1359.0863 4291745278
-52.133945 819.0033 1360.6866 4287602645
9.930275 819.0033 1360.6866 4291482623
12.412844 819.0033 1360.6866 4291614207
-55.610092 827.66418 1360.1411 4290824703
-51.902752 827.66418 1360.1411 4290100214
-49.431194 827.66418 1360.1411 4289641201
-46.959633 827.66418 1360.1411 4288522464
17.300917 827.66418 1360.1411 4291746047
-46.959633 829.55371 1361.7343 4288721142
-46.266972 806.36804 1363.1133 4285756823
5.0018349 806.36804 1363.1133 4292008447
-47.517429 808.28003 1364.7255 4285560722
-42.515594 808.28003 1364.7255 4285822111
-2.5009174 808.28003 1364.7255 4291286783
2.5009174 808.28003 1364.7255 4291942655
-47.343121 814.60468 1363.5179 4285891248
-44.851376 814.60468 1363.5179 4285954465
-2.4917431 814.60468 1363.5179 4291288572
4.9834862 814.60468 1363.5179 4291811071
7.4752293 814.60468 1363.5179 4292008447
9.9669724 814.60468 1363.5179 4291547899
-49.651375 820.90125 1362.2869 4287404752
-47.168808 820.90125 1362.2869 4286286015
-44.686237 820.90125 1362.2869 4286219197
-2.4825687 820.90125 1362.2869 4291745535
9.930275 820.90125 1362.2869 4291745023
12.412844 820.90125 1362.2869 4291876863
-49.651375 822.79913 1363.8872 4288982505
-47.168808 822.79913 1363.8872 4288061403
-43.444954 822.79913 1363.8872 4287206088
-2.4825687 822.79913 1363.8872 4292007419
9.930275 822.79913 1363.8872 4291547903
13.654128 822.79913 1363.8872 4291745023
-31.51376 793.11072 1366.3234 4284441731
-27.732111 793.11072 1366.3234 4284376453
-25.21101 793.11072 1366.3234 4285426070
-22.689909 793.11072 1366.3234 4287860411
-20.168808 793.11072 1366.3234 4290027214
-16.387156 793.11072 1366.3234 4290357463
-7.5633025 793.11072 1366.3234 4289901790
-5.042202 793.11072 1366.3234 4288983266
-2.521101 793.11072 1366.3234 4291022847
-31.51376 795.03815 1367.9485 4284967566
-27.732111 795.03815 1367.9485 4284507530
-25.21101 795.03815 1367.9485 4284703378
-22.689909 795.03815 1367.9485 4286150824
-20.168808 795.03815 1367.9485 4287926412
-16.387156 795.03815 1367.9485 4289110449
-12.605505 795.03815 1367.9485 4290952671
-10.084404 795.03815 1367.9485 4290691309
-7.5633025 795.03815 1367.9485 4290428136
-5.042202 795.03815 1367.9485 4289443302
-2.521101 795.03815 1367.9485 4291417343
2.521101 795.03815 1367.9485 4292206079
5.042202 795.03815 1367.9485 4292271359
2.5119267 799.50128 1365.1716 4291942655
-42.702751 801.42169 1366.7908 4285624982
-10.047707 801.42169 1366.7908 4286876360
-7.53578 801.42169 1366.7908 4289771252
-5.0238533 801.42169 1366.7908 4289640167
-2.5119267 801.42169 1366.7908 4291087614
2.5119267 801.42169 1366.7908 4291942655
-42.515594 811.14801 1367.1436 4285888159
-40.014679 810.19202 1366.3375 4286019234
-17.506422 812.104 1367.9497 4286678185
-12.504587 812.104 1367.9497 4286809770
-10.00367 811.14801 1367.1436 4286219177
-7.5027523 811.14801 1367.1436 4285758883
-5.0018349 811.14801 1367.1436 4286353075
-2.5009174 810.19202 1366.3375 4291483903
1.6672783 811.46661 1367.4122 4291745791
-49.834862 816.50964 1365.1241 4287338696
-47.343121 816.50964 1365.1241 4286220215
-43.605507 817.4621 1365.9272 4286284469
-39.867889 818.41455 1366.7303 4286020260
-7.4752293 817.4621 1365.9272 4286154666
-4.9834862 817.4621 1365.9272 4287798477
-2.4917431 816.50964 1365.1241 4291746813
2.4917431 817.4621 1365.9272 4291679999
4.9834862 817.4621 1365.9272 4291614207
7.4752293 817.4621 1365.9272 4291877119
-43.444954 824.69708 1365.4874 4287733454
13.654128 824.69708 1365.4874 4291679487
-54.616512 826.59503 1367.0878 4291087615
-52.133945 826.59503 1367.0878 4290166523
-49.651375 826.59503 1367.0878 4289510655
-43.444954 826.59503 1367.0878 4287867105
-39.7211 826.59503 1367.0878 4287339209
13.654128 826.59503 1367.0878 4291548157
-42.858715 796.96558 1369.5736 4285361558
-40.337616 796.96558 1369.5736 4285296278
-37.816513 796.96558 1369.5736 4285296278
-35.295414 796.96558 1369.5736 4285362062
-31.51376 796.96558 1369.5736 4285625234
-27.732111 796.96558 1369.5736 4285559185
-25.21101 796.96558 1369.5736 4285099667
-22.689909 796.96558 1369.5736 4285099667
-20.168808 796.96558 1369.5736 4284837254
-16.387156 796.96558 1369.5736 4285231251
-12.605505 796.96558 1369.5736 4287204279
-10.084404 796.96558 1369.5736 4289307091
-7.5633025 796.96558 1369.5736 4290491366
-5.042202 796.96558 1369.5736 4289574372
-2.521101 796.96558 1369.5736 4291219454
0 796.96558 1369.5736 4291613951
-42.702751 803.34204 1368.41 4285624728
-40.190826 803.34204 1368.41 4285690777
-37.678898 803.34204 1368.41 4285624728
-20.095413 803.34204 1368.41 4285888672
-12.559633 803.34204 1368.41 4285758878
-10.047707 803.34204 1368.41 4285693605
-7.53578 803.34204 1368.41 4287864774
-5.0238533 803.34204 1368.41 4288981468
-2.5119267 803.34204 1368.41 4291481855
2.5119267 803.34204 1368.41 4291942655
-40.190826 805.26245 1370.0293 4286019486
-37.678898 805.26245 1370.0293 4285888156
-35.166973 805.26245 1370.0293 4286018713
-31.399082 805.26245 1370.0293 4285887641
-27.631193 805.26245 1370.0293 4285822361
-25.119267 805.26245 1370.0293 4285887905
-22.60734 805.26245 1370.0293 4286019234
-20.095413 805.26245 1370.0293 4285954211
-16.327522 805.26245 1370.0293 4286218152
-12.559633 805.26245 1370.0293 4286087077
-10.047707 805.26245 1370.0293 4285628064
-7.53578 805.26245 1370.0293 4286877875
-5.0238533 805.26245 1370.0293 4287536589
0 805.26245 1370.0293 4291942655
-42.515594 814.01599 1369.5618 4285955496
-40.014679 814.01599 1369.5618 4286281377
-22.508257 814.01599 1369.5618 4286284711
-20.007339 814.01599 1369.5618 4286284711
-16.255962 814.01599 1369.5618 4286678954
-12.504587 814.01599 1369.5618 4286743976
-10.00367 814.01599 1369.5618 4285234336
0 814.01599 1369.5618 4292008703
-39.867889 820.31952 1368.3365 4286547630
-37.376148 820.31952 1368.3365 4286547630
-17.442202 820.31952 1368.3365 4286416812
-12.458715 820.31952 1368.3365 4285036441
-9.9669724 820.31952 1368.3365 4285889170
-7.4752293 820.31952 1368.3365 4289705420
-4.9834862 820.31952 1368.3365 4291415281
2.4917431 820.31952 1368.3365 4291417855
4.9834862 820.31952 1368.3365 4290891516
7.4752293 820.31952 1368.3365 4291286271
-39.867889 822.22449 1369.9427 4287272119
-37.376148 822.22449 1369.9427 4286679982
-17.442202 822.22449 1369.9427 4285759652
-13.704587 822.22449 1369.9427 4285430692
-9.9669724 822.22449 1369.9427 4288124864
-7.4752293 822.22449 1369.9427 4291677686
-4.9834862 822.22449 1369.9427 4291809279
-2.4917431 822.22449 1369.9427 4291940863
2.4917431 822.22449 1369.9427 4291679999
4.9834862 822.22449 1369.9427 4291548415
7.4752293 822.22449 1369.9427 4291482623
9.9669724 822.22449 1369.9427 4291679231
-54.616512 828.49298 1368.6881 4291020799
-52.133945 828.49298 1368.6881 4290560254
-49.651375 829.44196 1369.4883 4289769971
-47.168808 829.44196 1369.4883 4289441265
-43.444954 829.44196 1369.4883 4288455384
-39.7211 829.44196 1369.4883 4287534535
-37.238533 830.39093 1370.2883 4286943168
-34.755962 830.39093 1370.2883 4286218416
-40.51376 791.98688 1373.2239 4284900757
-37.981651 791.98688 1373.2239 4284834964
-35.449543 791.01898 1372.4077 4284572547
-12.66055 790.05109 1371.5917 4291214055
-10.12844 790.05109 1371.5917 4290493928
0.84403664 790.69635 1372.1357 4291745791
-40.337616 798.89294 1371.1987 4285624982
-37.816513 798.89294 1371.1987 4285427603
-35.295414 799.85669 1372.0114 4285427606
-31.51376 799.85669 1372.0115 4285493399
-27.732111 799.85669 1372.0114 4285690777
-25.21101 799.85669 1372.0114 4285625245
-22.689909 799.85669 1372.0114 4285625245
-20.168808 798.89294 1371.1987 4285427867
-16.387156 799.85663 1372.0115 4285428890
-12.605505 798.89294 1371.1987 4286285224
0 799.85669 1372.0114 4291679743
-40.190826 809.10327 1373.2677 4286085283
-37.678898 808.14307 1372.458 4286019234
-35.166973 808.14307 1372.458 4285888157
-31.399082 808.14307 1372.458 4285888157
-27.631193 808.14307 1372.458 4285953950
-25.119267 808.14307 1372.458 4285954208
-22.60734 808.14307 1372.458 4286151329
-20.095413 808.14307 1372.458 4286283427
-15.908868 807.823 1372.1881 4286547112
-12.559633 807.18286 1371.6484 4286416551
0 807.18286 1371.6484 4292008447
-37.51376 815.92798 1371.174 4286217382
-35.012844 815.92798 1371.174 4286348707
-31.261467 815.92798 1371.174 4286414755
-27.510092 815.92798 1371.174 4286349473
-22.508257 815.92798 1371.174 4286350504
-20.007339 815.92798 1371.174 4286350252
-16.255962 815.92798 1371.174 4286547628
-12.504587 815.92798 1371.174 4286284711
-10.00367 815.92798 1371.174 4285627551
0 815.92798 1371.174 4292074751
-35.012844 817.8399 1372.7861 4286152873
-32.511925 817.8399 1372.7861 4286218666
-25.009174 817.8399 1372.7861 4286284713
-22.508257 817.8399 1372.7861 4286613422
-20.007339 817.8399 1372.7861 4286679728
-15.005505 817.8399 1372.7861 4285760163
0 817.8399 1372.7861 4291746815
-37.376148 824.12946 1371.549 4287010245
-34.884403 824.12946 1371.549 4286547899
-17.442202 824.12946 1371.549 4285432997
-13.704587 824.12946 1371.549 4289112774
-9.9669724 824.12946 1371.549 4291808493
-7.4752293 824.12946 1371.549 4292334837
-4.9834862 824.12946 1371.549 4292139007
-2.4917431 824.12946 1371.549 4291941628
2.4917431 824.12946 1371.549 4291614207
4.9834862 824.12946 1371.549 4291745278
7.4752293 824.12946 1371.549 4291745278
9.9669724 824.12946 1371.549 4291745278
-37.376148 826.03442 1373.1553 4287731657
-34.884403 826.03442 1373.1553 4286939838
-13.704587 826.03442 1373.1553 4291350243
-9.9669724 826.03442 1373.1553 4292335871
-7.4752293 826.03442 1373.1553 4292270079
-4.9834862 826.03442 1373.1553 4291745530
-2.4917431 826.03442 1373.1553 4291679480
4.9834862 826.03442 1373.1553 4291482619
7.4752293 826.03442 1373.1553 4291548412
9.9669724 826.03442 1373.1553 4291679480
-39.7211 832.28888 1371.8887 4286219431
-37.238533 832.28888 1371.8887 4285495708
-34.755962 832.28888 1371.8887 4285167774
-4.9651375 832.28888 1371.8887 4291153919
-2.4825687 832.28888 1371.8887 4291417087
-37.238533 834.18683 1373.489 4282276482
-34.755962 834.18683 1373.489 4282406533
-37.678898 811.02362 1374.887 4286281377
-35.166973 811.02362 1374.887 4286215584
-31.399082 811.02362 1374.887 4286348194
-27.631193 811.02362 1374.887 4286415268
-25.119267 811.98383 1375.6965 4286218918
