# .PCD v0.7 - Point Cloud Data file format
VERSION 0.7
FIELDS x y z rgb
SIZE 4 4 4 4
TYPE F F F U
COUNT 1 1 1 1
WIDTH 1164
HEIGHT 1
VIEWPOINT 0 0 0 1 0 0 0
POINTS 1164
DATA ascii
-13.100918 787.29431 809.43048 4285618771
-10.458715 788.11224 807.50403 4285817705
50.550457 788.11224 807.50403 4294373625
52.293579 788.11224 807.50403 4294373627
55.023853 786.62659 808.86743 4294504702
58.455048 787.36938 808.18573 4294240761
-13.073395 790.11121 809.18951 4285487185
54.036697 789.44489 808.62769 4294570750
57.522934 789.44489 808.62769 4294372605
-12.742508 793.88312 808.4458 4285224012
-15.638532 795.65436 809.93933 4284566859
-12.990826 797.86597 807.88 4285026894
-12.977982 799.9259 808.30884 4284436556
-10.370643 800.66174 807.62122 4284961616
57.038532 800.66174 807.62122 4294570239
-13.251376 802.42365 809.10675 4283184167
-12.634862 806.38165 808.52002 4284170804
-10.337615 806.16211 808.33496 4284827724
55.995415 805.50354 807.77966 4294504443
58.579815 805.50354 807.77966 4294504445
60.302753 806.16211 808.33496 4294636286
-10.315597 809.59833 808.61621 4284567361
-8.5963306 808.28394 807.50793 4285748566
56.162689 808.72211 807.87738 4294505214
58.455048 808.94116 808.06207 4294373627
61.320484 809.16022 808.24677 4294439165
-12.034863 810.91272 809.72449 4283385408
56.735779 810.91272 809.72449 4294636286
58.455048 810.91272 809.72449 4294110199
61.893578 810.91272 809.72449 4294636797
-11.133945 814.77295 808.40112 4283056704
-8.5596333 814.48151 807.5014 4283517771
52.480732 814.94232 807.45392 4294438902
55.667889 814.77295 808.40112 4294504698
58.267891 815.06433 809.30078 4294175735
-10.26055 817.82501 809.01257 4282594605
47.882568 818.4787 809.56372 4294504443
49.592659 817.82501 809.01257 4294636029
52.157799 817.82501 809.01257 4294570232
54.722935 817.82501 809.01257 4294438647
-7.6706419 821.30396 808.02197 4284960330
-5.1137614 821.30396 808.02191 4285421396
46.023853 820.6524 807.47253 4294438650
-8.5229359 823.25873 809.67004 4286012508
-17.012844 751.68549 810.79877 4282725695
55.515594 751.68549 810.79877 4294109430
-19.699083 753.73914 812.53027 4282986809
-16.977982 754.57251 810.61694 4282461756
55.401836 755.25562 811.19299 4293977588
-19.658716 756.62195 812.34497 4283582792
-16.925688 758.89246 810.33533 4284304718
55.231194 758.89246 810.33533 4294108915
58.082569 756.62195 812.34497 4293978101
-16.925688 760.25452 811.48376 4284436810
57.903671 760.25452 811.48376 4294241271
-16.873394 763.87872 810.61548 4284173120
-19.537615 766.59448 812.90527 4283186241
-16.838531 766.74182 810.41357 4283581763
58.491745 766.74182 810.41357 4294175735
-16.786238 772.37683 811.24078 4282858556
-16.761469 775.52368 811.93207 4282594600
-14.091743 776.64417 810.91479 4284566343
-15.853211 777.99084 812.05029 4282594604
-15.80367 782.91254 812.27612 4283183155
-14.047707 780.22766 810.01221 4284959818
-14.018349 784.39819 810.9126 4284697673
-16.594496 789.96521 811.6825 4284631367
-16.559633 792.77643 811.43683 4284632138
-15.638532 796.98279 811.05945 4284304713
-16.482569 799.41278 811.14624 4283515201
-15.588991 802.50067 811.7879 4284171080
-15.555964 805.94739 812.07788 4284369227
-13.209174 808.57697 810.37109 4284040768
60.302753 809.45514 811.11145 4294307834
-15.506422 810.77234 812.22217 4284170052
-13.754128 812.22711 810.83264 4283254083
61.099998 811.49976 811.5274 4294307064
-13.754128 813.5415 811.94092 4282923833
60.174313 813.5415 811.94092 4294175735
-13.710092 817.68469 811.51025 4284105026
-11.99633 817.0296 810.95789 4283052854
56.554127 817.68469 811.51025 4294438648
58.839142 817.90308 811.69434 4294307064
-13.680734 821.09344 811.76843 4285355329
-11.115597 820.43976 811.21729 4285420365
47.882568 819.78607 810.66614 4294372344
49.592659 820.43976 811.21729 4294306551
52.157799 820.43976 811.21729 4294569723
54.722935 820.43976 811.21729 4294503930
-13.680734 822.40082 812.87085 4284961351
-11.099083 823.48132 811.81989 4285026631
-8.5229359 824.56189 810.76892 4285684560
52.157799 822.40082 812.87085 4294043125
55.57798 822.40082 812.87085 4294437369
-11.079817 826.51672 812.41705 4285880913
54.546787 827.16827 812.96643 4294108915
-21.555964 752.83777 815.69434 4283582792
-19.759632 750.09113 813.37854 4283052352
58.380737 751.46442 814.53638 4294109687
-21.489908 757.16187 815.41632 4284174925
-19.658716 757.98822 813.49695 4283977799
-21.445871 760.72083 815.80103 4284501847
-19.658716 759.35455 814.64905 4283648585
-21.379816 764.34082 814.9292 4284304465
-19.598166 762.9787 813.78076 4283317316
-19.537615 767.95233 814.05029 4283186237
-19.537615 769.31024 815.19519 4283909458
-17.669725 775.75397 814.08838 4282726190
-19.436697 777.10486 815.22729 4283583044
-16.733946 779.33746 813.18579 4282528059
-17.614679 781.35748 814.88892 4283381302
-15.80367 784.255 813.40796 4283974208
-19.21468 793.9715 815.06055 4284041546
-17.431192 794.77539 813.12231 4284370763
-17.376146 800.30383 813.85962 4284039493
-19.113762 802.29645 815.53979 4283845963
-19.053211 805.81122 814.57922 4282594098
-17.3211 805.14911 814.02094 4283514687
-19.053211 807.13544 815.6958 4282986809
-16.708258 808.59015 814.30634 4283645501
-15.506422 812.08954 813.33276 4283711802
62.025688 812.08954 813.33276 4294306551
-16.644037 814.32886 814.34882 4283577139
61.099998 814.13135 813.74628 4294307064
-15.473394 816.82751 814.71161 4284631093
61.893578 816.82751 814.71161 4294372855
-15.423853 820.96014 814.27209 4284830278
56.554127 819.64996 813.16736 4294438137
59.124771 820.30505 813.71973 4294372855
-13.680734 823.70819 813.97314 4284960581
-11.970642 823.70819 813.97314 4284829252
52.157799 823.70819 813.97314 4294108917
55.57798 823.70819 813.97314 4294174711
58.267891 822.27032 815.37671 4294306549
-13.680734 825.01556 815.07544 4285749583
53.012844 825.01556 815.07544 4294174708
56.433029 825.01556 815.07544 4294108915
-23.423853 750.56726 817.70398 4283842118
-23.352293 754.21106 816.85229 4284041546
-23.280733 760.58466 818.30225 4284038979
-55.231194 765.70288 816.07776 4285552711
-21.379816 766.38391 816.65198 4284238674
-60.576145 768.42706 818.37463 4286275916
-21.379816 768.42706 818.37463 4284108634
-19.537615 770.66809 816.34009 4283648083
-21.313761 773.38385 818.63 4283845959
-19.497248 773.51715 816.12634 4283451724
-21.269724 776.22729 818.4115 4284041798
-19.436697 779.13116 816.93585 4283910212
-19.376146 784.72412 817.72766 4284566859
-17.614679 783.37744 816.59216 4284630853
-21.137615 786.0708 818.86304 4284304717
-19.315596 788.28235 816.80371 4284370511
-21.07156 789.62482 817.93567 4284238668
-19.21468 795.97467 816.74951 4282724155
-19.174313 798.77325 816.49316 4283975240
-20.917431 801.43854 818.74048 4282923062
-20.851376 804.95331 817.77991 4283315774
-19.053211 808.45966 816.81226 4284369225
-19.012844 811.89374 817.09174 4283907379
-19.012844 813.87585 818.76294 4284631370
-17.229359 817.35834 817.77521 4284698176
-15.473394 820.11346 817.4823 4285026374
-15.423853 823.58051 816.48145 4285486925
-15.390825 826.97668 816.729 4284239939
-13.680734 826.323 816.17786 4285817425
-23.423853 753.32227 820.02698 4284502349
-23.352293 756.95764 819.16821 4284502347
-53.889908 759.70428 821.48401 4285290053
-23.280733 761.95374 819.45667 4284103505
-59.097248 764.69196 821.7655 4286144330
-55.515594 763.32288 820.61108 4285618504
-23.280733 764.00745 821.18829 4284565064
-62.550457 767.55231 821.56116 4286340687
-21.379816 769.78912 819.52319 4283780688
-24.943119 772.51331 821.82007 4283116330
-23.161469 772.51331 821.82007 4283576881
-21.313761 776.09961 820.9198 4284041798
-19.497248 778.93744 820.69666 4284566093
-21.269724 780.29254 821.83923 4284566859
-24.737616 783.85919 820.92236 4284370763
-22.970642 783.85919 820.92236 4284370763
-24.660551 787.41742 819.99854 4284370763
-22.899082 787.41742 819.99854 4284370763
-21.07156 790.96729 819.06763 4284107339
-21.07156 792.30969 820.19946 4283579208
-20.851376 808.27429 820.5802 4284038965
-19.012844 815.19727 819.8772 4284632650
-17.229359 820.65137 820.55182 4285356362
-25.302752 752.44189 823.20874 4284370761
-25.302752 753.82361 824.37378 4283447099
-54.055046 758.83234 824.67297 4285290053
-25.225689 758.14355 824.09222 4283511871
-57.482571 761.07764 822.64197 4285815626
-58.380737 763.13757 824.37891 4286013003
-55.686237 762.45093 823.79993 4285618756
-60.888073 766.06104 822.9198 4286275664
-23.280733 766.06104 822.9198 4284498754
-23.233028 768.91858 822.71313 4284236374
-24.943119 773.87537 822.96851 4282920753
-23.161469 773.87537 822.96851 4283117875
-23.161469 775.23749 824.11707 4284303923
-24.866055 778.81537 823.20972 4284304967
-22.201836 778.13647 822.63721 4284369737
-28.822018 805.32269 824.63159 4284369223
-25.302753 806.0459 823.93329 4283842619
-22.660551 806.10272 822.67316 4283712058
-24.403669 808.10168 824.35864 4283644473
-22.588991 810.26697 822.26025 4283644473
-20.851376 811.5954 823.38037 4284434759
-19.053211 815.08069 822.39502 4284501063
-19.053211 817.06702 824.06982 4285355338
-52.572475 752.95593 827.56628 4285158466
-27.192661 752.95593 827.56628 4283580211
-54.220184 757.96881 827.8689 4285486918
-57.658714 761.5874 826.99597 4286078285
-55.85688 761.5874 826.99597 4285749320
-25.225689 760.89862 826.41522 4283248690
-61.973396 765.88416 826.69482 4286736472
-28.741285 766.57086 827.2738 4284895821
-26.046789 765.88416 826.69482 4283316030
-66.260551 770.16833 826.38306 4286869854
-64.469727 769.48376 825.80585 4287131487
-62.678898 770.16833 826.38306 4287001183
-64.469727 771.53748 827.53735 4282924837
-62.678898 771.53748 827.53735 4282924837
-25.941284 772.27747 826.85333 4284303162
-26.807339 774.38379 827.32129 4284501065
-31.541285 804.49286 827.85596 4284763722
-28.822018 806.65814 825.75757 4284303429
-26.201836 806.65814 825.75757 4283514170
-25.302753 808.71399 826.18292 4284435018
-22.660551 809.43433 825.4823 4284501065
-22.660551 811.43323 827.16779 4284631880
-20.851376 814.9165 826.18066 4284763457
-19.053211 819.71545 826.30292 4284106305
-17.3211 819.71545 826.30292 4283252549
-50.004585 752.09656 830.76587 4283448875
-46.367889 752.09656 830.76587 4283578662
-43.640366 752.09656 830.76587 4283972921
-41.822018 752.09656 830.76587 4283972921
-36.366974 751.40149 830.17981 4284631618
-34.548622 751.40149 830.17981 4284895047
-31.821098 751.40149 830.17981 4284895055
-29.093578 750.70642 829.59375 4284830278
-52.572475 755.03479 829.31915 4284960831
-28.099083 755.03485 829.31909 4284435270
-57.834862 760.7323 830.19897 4285947726
-54.220184 760.04144 829.61646 4285749572
-52.412846 760.7323 830.19897 4285354814
-27.110092 760.7323 830.19897 4283381556
-58.85994 763.88324 828.93164 4286540119
-55.85688 763.65369 828.7381 4286014288
-61.07523 767.94415 828.43164 4286804318
-58.468807 766.83203 829.45599 4286804573
-55.85688 765.71997 830.48035 4286738779
-61.674007 770.23309 830.36157 4282592296
-59.2789 770.00415 830.16858 4283777590
-55.686237 770.6908 830.74756 4284632874
-66.260551 772.90656 828.69177 4283250721
-64.469727 772.90656 828.69177 4282524461
-66.260551 774.27563 829.84619 4283181333
-64.469727 774.27563 829.84619 4283048740
-54.605503 798.86401 829.65002 4288381032
-34.241287 803.04932 829.25488 4284829515
-40.387157 804.39172 830.38672 4284631868
-34.241287 804.39172 830.38672 4285026126
-31.541285 805.83246 828.98547 4284763468
-28.912844 805.83246 828.98547 4284500298
-31.541285 807.17212 830.11499 4285025611
-28.912844 807.17212 830.11499 4284894544
-25.328442 809.32898 828.00952 4284697678
-24.455046 811.33215 829.69855 4284828488
-22.660551 814.09851 829.41504 4285222474
-20.917431 814.76483 829.97681 4284895821
-40.084404 750.59973 832.11975 4284104763
-38.262386 751.2962 832.70703 4284631107
-50.004585 754.18182 832.52405 4284039724
-46.367889 754.18182 832.52405 4283644718
-43.640366 753.48676 831.93799 4283973423
-41.2159 753.95013 832.32867 4284105012
-36.366974 754.18182 832.52405 4284762947
-34.548622 754.18182 832.52405 4285026119
-31.8211 754.18182 832.52405 4284894803
-52.572475 757.11371 831.07202 4285354814
-28.401224 757.57568 831.46161 4284368964
-54.220184 762.11401 831.36401 4286079827
-52.412846 762.11401 831.36401 4285685326
-57.658714 767.09747 831.64185 4284633908
-55.85688 767.09747 831.64185 4285160252
-57.658714 768.47498 832.80334 4284106530
-61.973396 772.75073 832.4845 4282655766
-58.380737 772.75073 832.4845 4283050517
-66.260551 775.64478 831.00061 4282919208
-64.469727 775.64478 831.00061 4282787366
-64.469727 778.38293 833.30933 4283512342
-57.306423 778.38293 833.30933 4282851596
-64.337616 781.21527 833.08142 4286934875
-67.493576 788.3205 831.22412 4288248934
-65.030273 786.13416 833.30481 4288314986
-65.71743 791.03625 833.51404 4288576875
-61.277065 791.03625 833.51404 4288315233
-58.612843 791.03625 833.51404 4288315233
-56.836697 791.03625 833.51404 4288446318
-61.150459 793.84326 833.26477 4288642920
-60.077065 797.36786 832.3125 4288445284
-58.310093 796.69238 831.74304 4288511077
-56.543118 796.69238 831.74304 4288183909
-63.611008 798.71869 833.45154 4288577126
-60.960548 798.71869 833.45154 4288445285
-58.310093 798.71869 833.45154 4288445286
-55.486237 800.88397 831.35327 4288446819
-52.844036 800.88397 831.35327 4288447085
-36.990826 800.88397 831.35327 4284763457
-55.192657 803.12842 833.24561 4290092178
-51.963303 802.90399 833.0564 4289958810
-49.321102 802.23065 832.48865 4287396708
-37.871559 802.23065 832.48865 4284829249
-49.166973 805.73419 831.51868 4288974429
-46.533028 805.73419 831.51868 4283118605
-43.021103 805.73419 831.51868 4284171824
-40.387157 805.73419 831.51868 4284369979
-37.753212 805.73419 831.51868 4284829249
-34.241287 805.73419 831.51868 4284895058
-50.044956 807.7478 833.21655 4290225319
-46.533028 807.7478 833.21655 4282789919
-42.976151 808.46545 832.51355 4284368434
-40.344955 808.46545 832.51349 4284566592
-37.753212 807.7478 833.21655 4284829249
-34.241283 807.74786 833.21655 4284894542
-31.60734 807.74786 833.21655 4284828745
-28.973396 807.7478 833.21655 4284828491
-26.284403 809.18164 831.80933 4284894029
-28.912844 811.19104 833.50366 4285156423
-25.328442 814.00305 831.95056 4286144340
-25.003057 817.39966 833.0705 4282463276
-22.660551 816.76379 831.66229 4283712311
-20.220184 817.69666 832.44885 4283314999
-43.728439 753.38562 834.46875 4283907629
-40.084404 753.38562 834.46875 4284302656
-38.262386 753.38562 834.46875 4284631620
-50.004585 756.26703 834.28223 4284368421
-31.518042 756.73041 834.67291 4285026381
-66.464218 775.49731 834.80035 4283643674
-64.667892 774.81067 834.22144 4283052059
-61.973396 775.49731 834.80042 4282853132
-58.680126 775.26837 834.60742 4283048976
-61.973396 777.55731 836.53723 4286080597
-59.2789 777.55731 836.53723 4284305217
-66.124771 782.58154 834.2334 4287920485
-64.337616 782.58154 834.2334 4287920485
-61.783485 781.80573 836.19537 4287919714
-59.097248 781.12115 835.61816 4285880407
-62.550457 783.94788 835.3855 4288314731
-58.976147 783.94788 835.3855 4288576872
-64.733337 787.95026 834.83618 4288314979
-61.466972 787.49628 834.45337 4288380765
-58.794495 787.49628 834.45337 4288774749
-67.493576 793.75208 835.80383 4288773484
-65.125389 792.84686 835.04053 4288642665
-67.354126 796.55341 835.54993 4288576875
-64.400002 796.55341 835.54999 4288840304
-62.036697 795.19836 834.40735 4288577126
-60.960548 800.06958 834.59058 4289695363
-58.310093 800.06958 834.59058 4289695619
-56.543118 800.06958 834.59058 4289433217
-63.611008 802.09583 836.29913 4290422172
-60.960548 802.09583 836.29907 4290619554
-58.310093 802.09583 836.29913 4290816935
-55.486237 805.59729 835.32733 4292199880
-52.844036 805.59729 835.32733 4293053657
-52.678898 809.76154 834.91443 4294568447
-50.044952 809.76154 834.91443 4291211467
-46.533028 809.76154 834.91443 4283182898
-43.021103 809.76154 834.91443 4284696375
-40.387157 809.76154 834.91443 4284828733
-37.753212 809.76154 834.91443 4285025611
-34.241287 809.76154 834.91443 4285025611
-31.60734 809.76154 834.91443 4285091404
-50.044952 811.104 836.04639 4290228156
-46.533028 811.104 836.04639 4283251515
-43.021103 811.104 836.04639 4284433984
-40.387157 811.104 836.04639 4284697413
-37.753212 811.104 836.04639 4284960322
-34.241287 811.104 836.04639 4284894025
-31.60734 811.104 836.04639 4285091404
-28.944036 811.81738 835.33978 4285157450
-26.201836 817.34161 834.76562 4281806385
-22.708258 817.34161 834.76562 4282463013
-25.27523 820.09534 834.47144 4283118129
-22.660551 820.76166 835.03326 4283316014
-20.336391 820.53955 834.84601 4283249972
-61.07523 778.9306 837.69519 4286669922
-67.493576 796.46777 838.09375 4289235581
-65.71743 796.46777 838.09375 4289301375
-65.58165 799.26355 837.83508 4289631884
-60.666058 804.57245 838.38739 4292199879
-58.310093 804.12219 838.00769 4291870148
-58.128441 808.29065 837.59827 4293450719
-55.779816 808.06616 837.409 4293517800
-52.844036 808.96393 838.16602 4294308095
-50.044952 812.44641 837.17822 4283328142
-46.533028 812.44641 837.17822 4282337618
-43.021103 812.44641 837.17822 4283975482
-40.387157 812.44641 837.17822 4284369979
-37.753212 812.44641 837.17822 4285090634
-34.348625 810.31061 839.30151 4285222724
-31.706423 810.31061 839.30151 4285946463
-28.973394 812.44641 837.17822 4284830549
-46.533028 813.78888 838.31018 4284042801
-43.021103 813.78888 838.31018 4284171584
-38.631191 813.78888 838.31018 4285025611
-28.680735 814.23633 838.6875 4283646021
-24.455046 820.01245 837.01758 4283382065
-54.776146 806.82391 840.28564 4294504695
-40.51376 811.65723 840.43689 4284499778
-36.990826 811.65723 840.43689 4285091404
-34.348625 811.65723 840.43689 4285290068
-31.706423 811.65723 840.43689 4285487709
-31.706423 813.00391 841.57239 4283315268
-29.944954 813.00391 841.57239 4283249475
-24.583487 817.81622 841.70593 4283447601
-33.572475 810.87646 843.70276 4283647040
-22.018349 815.6972 843.84338 4283447088
59.099998 814.6377 844.91205 4294372345
59.889908 817.04388 844.97876 4294372094
59.702751 820.5011 843.96985 4294306810
61.458717 820.5011 843.96985 4294306810
58.794495 803.84131 848.23511 4294372344
60.576145 803.84131 848.23511 4294307064
56.836697 808.68872 848.39807 4294306551
58.612843 807.33081 847.25317 4294307064
61.277065 807.33081 847.25317 4294241017
56.719265 811.45923 848.11816 4294306551
58.491745 810.10413 846.97559 4294306551
60.264221 810.10413 846.97559 4294307064
-24.737616 814.92908 847.11975 4283578680
-22.970642 814.92908 847.11975 4283578680
56.543118 814.92908 847.11975 4294438650
58.310093 814.92908 847.11975 4294767615
56.543118 816.27997 848.25879 4294372855
58.128441 818.39056 846.11426 4294438904
59.302753 820.18604 847.62823 4294372600
61.651375 819.73718 847.24976 4294767615
55.686237 795.41034 851.59045 4294504695
52.829357 800.28857 851.77966 4294175221
55.515594 798.91949 850.62524 4294372344
58.082569 800.34338 849.20984 4294307062
55.401836 802.39282 850.93781 4294241016
57.188992 801.70972 850.36182 4294372344
-19.598166 806.56549 850.53198 4283380785
55.231194 806.56549 850.53198 4294306299
57.012844 805.20343 849.38354 4294307064
-19.598166 807.92761 851.68054 4283446830
55.231194 807.92761 851.68054 4294437369
-21.313761 812.08337 851.26044 4283644980
53.284405 812.76233 851.83289 4294437885
55.060551 811.40448 850.68799 4294569466
-25.700916 814.16937 850.4032 4284038970
-23.042202 814.84692 850.97449 4284039227
53.174313 815.52441 851.54578 4294437885
54.946789 814.84692 850.97449 4294569470
56.543118 818.30627 849.96729 4294306806
58.310093 818.98169 850.53674 4294569466
55.65963 820.33252 851.67578 4294306296
59.009178 823.10382 850.08838 4294503674
58.128441 825.12384 851.79163 4294437115
49.194496 777.06573 854.43518 4294504443
51.874313 778.4826 854.32184 4294109428
54.385323 784.8324 854.44373 4294306551
52.412846 789.74854 854.66479 4294175733
55.038532 790.82068 853.60669 4294043895
52.253212 793.95905 854.29083 4294372341
54.055046 793.27026 853.71008 4294438902
53.889908 796.78363 852.74841 4294306551
-17.963303 798.15698 853.90637 4283118127
-17.908257 801.65771 852.93396 4283118897
52.530884 802.11407 853.31879 4294241273
-17.871559 805.12543 853.24188 4283316526
53.018963 805.35321 853.4339 4294371577
-19.598166 809.28967 852.82898 4283644723
-16.950459 808.2323 853.89941 4283513137
-14.297248 807.17487 854.96985 4283447862
52.638535 808.2323 853.89941 4294372345
-19.598166 810.65173 853.97742 4283579700
-17.816513 810.65173 853.97742 4283710516
51.667889 810.65173 853.97742 4294372346
-25.754128 814.12024 852.97778 4284171069
-21.313761 815.47809 854.1228 4284500282
-25.700916 817.55707 853.25964 4284434495
-23.042202 817.55707 853.25964 4284500282
53.174313 817.55707 853.25964 4294306553
54.946789 816.87952 852.68835 4294372346
-24.814678 819.58966 854.97351 4284566857
-23.042202 819.58966 854.97351 4284566857
53.174313 819.58966 854.97351 4294503162
55.65963 821.68341 852.81482 4294305783
53.009174 823.0343 853.95386 4294306551
55.65963 823.0343 853.95386 4294174710
58.128441 826.47046 852.92712 4294306551
47.658714 769.93243 856.2688 4294438650
47.515594 773.5033 855.35559 4294306551
49.343121 773.5033 855.35559 4294438137
47.515594 775.599 857.12262 4294043893
49.194496 779.15515 856.19696 4293978100
51.016514 779.15515 856.19696 4294109173
49.194496 781.24463 857.95874 4294175735
52.160244 781.73798 856.63068 4294306295
50.913761 784.06989 857.72485 4294240758
-12.689908 788.99023 857.94946 4282396718
48.946789 788.99023 857.94946 4294438902
52.572475 786.21832 855.6123 4294240758
54.385323 786.21832 855.6123 4294174710
50.605503 791.13025 855.82983 4294307316
-18.073395 792.51196 856.99487 4282920753
-16.266054 792.51196 856.99487 4282723117
-13.555046 792.51196 856.99487 4282660141
50.605503 792.51196 856.99487 4294042863
-16.216515 796.02533 856.03308 4282921005
-13.513762 796.02533 856.03308 4282725420
-10.811009 797.40283 857.19458 4283118897
49.550461 796.71411 856.61383 4294438903
-16.166973 800.21692 855.64331 4283053357
-13.472477 800.21692 855.64331 4283118640
50.297249 800.21692 855.64331 4294438653
-12.574312 802.27692 857.38013 4282660656
48.500916 802.27692 857.38013 4294307062
-16.117432 804.39587 855.2428 4283250732
-14.326606 804.39587 855.2428 4282858292
50.14312 805.08044 855.82001 4294371833
-16.084404 808.5412 856.12195 4283710516
-13.710092 808.52759 856.98242 4283710266
50.091743 808.52075 857.41272 4294240504
-21.379816 812.01385 855.12598 4283974204
-19.598166 812.01385 855.12598 4283908411
-16.925688 812.01385 855.12598 4283776573
51.667889 812.01385 855.12598 4294372092
-19.598166 814.05701 856.84863 4284237365
-16.628746 813.8299 856.65723 4284237373
-14.253211 814.05701 856.84863 4284303169
49.886238 814.73804 857.42285 4294306297
51.667889 813.37592 856.27441 4294306297
-21.313761 816.836 855.2677 4284632120
-17.761467 817.51489 855.84015 4284304192
51.508255 817.51489 855.84015 4294372345
-17.761467 819.55176 857.5575 4284566857
49.732109 819.55176 857.5575 4294306551
51.401836 820.94476 856.11609 4294438137
52.288074 822.2998 857.25867 4294306551
55.65963 824.38513 855.0929 4294174708
55.365131 826.18628 856.61151 4294240501
44.256882 765.58502 860.45129 4294438137
46.100918 765.58502 860.45129 4294569466
44.124771 770.56989 860.73035 4294240504
45.963303 769.16431 859.54517 4294306551
45.825687 772.73517 858.63196 4294240504
45.825687 774.83722 860.40436 4293978354
47.515594 778.39331 859.4787 4294109685
47.372478 782.63757 859.13318 4294175733
49.194496 782.63757 859.13318 4294175733
-13.637615 785.46002 858.89697 4283051557
-10.010092 784.74524 859.60236 4282855193
47.372478 784.03052 860.30774 4294175733
50.004585 785.46002 858.89697 4294241269
-16.365137 786.85016 860.06909 4282001209
-14.546789 786.85016 860.06909 4282001961
-10.000917 786.85016 860.06909 4282331427
47.277065 786.85016 860.06909 4294438902
-9.9706421 790.37616 859.11804 4282726190
47.133945 791.06909 859.70233 4294175733
48.946789 790.37616 859.11804 4294175733
-9.9403667 793.89368 858.15991 4283052334
48.798164 793.89368 858.15991 4294570491
-9.0366974 795.27545 859.32495 4283118897
46.388378 796.19659 860.10156 4294109941
-10.210397 799.23956 858.74323 4283249970
46.847706 800.1579 859.51758 4294307062
48.64954 798.7804 858.35608 4294307062
-12.574312 803.65021 858.53809 4283382069
-9.8935776 802.59277 859.60858 4283382319
46.847706 801.5354 860.67908 4294307064
48.500916 803.65021 858.53809 4294175735
-10.777982 805.71014 860.27502 4283645236
-8.9816513 806.39679 860.854 4283842616
48.500916 805.0235 859.69604 4294307064
-12.53578 808.50317 858.70593 4283776573
-10.744954 809.87231 859.86035 4283842618
48.352295 808.50317 858.70593 4294372857
-12.510092 811.95691 859.00201 4284105791
48.848927 811.72919 858.81006 4294241016
-10.722936 814.00635 860.72998 4284304967
48.253212 814.00635 860.72998 4294372857
-21.379816 817.46222 859.71979 4284632646
-19.598166 816.78113 859.14557 4284501315
-16.034863 817.46216 859.71979 4284566857
-13.362385 817.46222 859.71979 4284566858
48.698471 817.46222 859.71979 4294306551
-19.537615 820.90961 858.70251 4284698699
-17.761467 820.90961 858.70251 4284632650
49.732109 820.90961 858.70251 4294240758
-19.537615 822.26752 859.84741 4284961614
-16.873394 822.94641 860.41986 4284895818
-14.209174 823.62537 860.99231 4284961101
49.732109 822.26752 859.84741 4294306551
52.06361 823.18262 859.74701 4294174966
38.955963 759.8194 863.43811 4294240758
-3.6990826 764.82532 863.73486 4286868080
-1.8495413 764.82532 863.73486 4287657597
0 764.82532 863.73486 4287592569
38.840366 764.82532 863.73486 4294239990
40.689907 764.11829 863.13873 4294305527
42.539448 763.41132 862.5426 4294438139
43.334862 766.99481 861.64001 4294371832
-7.3761468 768.4046 862.82874 4286078281
-4.6100917 768.4046 862.82874 4286933607
42.412846 768.4046 862.82874 4294240758
-9.1926603 773.38104 863.10059 4286078035
-7.3541284 772.67822 862.508 4285946443
-4.9027524 772.91254 862.70557 4286406994
44.124771 772.67822 862.508 4294044148
45.825687 776.93927 862.17676 4294175733
-9.1651373 778.34064 863.35828 4286211668
-7.3321099 778.34064 863.35828 4286539867
-5.4990826 778.34064 863.35828 4286737247
43.992661 778.34064 863.35828 4293978353
-12.792661 780.48907 861.24573 4286080854
-10.965137 780.48907 861.24573 4286211668
-7.310092 781.88623 862.42383 4282920484
45.688072 781.18762 861.83478 4294241526
-7.2880735 785.42346 861.48218 4282265891
-4.5688076 783.28339 863.60193 4282395427
43.86055 783.28339 863.60193 4294109686
45.550457 785.42346 861.48218 4294372857
-7.2733946 788.2403 861.24133 4282660393
-4.2513766 787.28076 863.04816 4282987565
43.728439 787.51288 863.24396 4294175223
45.550457 786.81641 862.65674 4294307064
-7.2733946 789.63043 862.41345 4282921005
-5.4550457 790.3255 862.99951 4282987308
43.640366 791.02057 863.58557 4294372344
45.458717 789.63043 862.41345 4294372346
-7.2513762 793.84094 862.03949 4283119147
43.508255 794.53394 862.62378 4294175735
45.321102 793.14801 861.4552 4294372344
-7.2513762 795.91986 863.79236 4283512624
-5.4385319 795.91986 863.79236 4283512624
41.695412 795.91986 863.79236 4294372346
-9.0366974 798.03888 861.65491 4283447349
-7.2293577 800.11145 863.40247 4283513651
43.376148 799.42065 862.82001 4294241271
45.183487 798.72974 862.23743 4294241271
-9.0091743 802.9129 861.84058 4283776309
45.946789 802.9129 861.84058 4294241271
-7.2073393 804.29047 863.00208 4283842618
45.946789 804.29047 863.00208 4294438906
-8.3828745 808.68573 862.78394 4284303680
44.908257 809.14343 863.16992 4294438139
46.704586 808.45679 862.59094 4294372857
-10.744954 811.24139 861.01477 4284369477
-8.0587158 812.61047 862.16919 4284239174
46.561466 812.61047 862.16919 4294372857
-10.722936 815.37268 861.88208 4284501063
-8.0495415 814.67615 862.60278 4284501063
44.770641 813.97961 863.32349 4294372855
46.466057 815.37268 861.88208 4294307062
-10.722936 816.73895 863.03406 4284698699
-8.9357796 816.73895 863.03406 4284698699
46.466057 816.73895 863.03406 4293977588
-13.065442 820.64044 862.3996 4284895565
-10.689908 820.86743 862.591 4284895821
48.995415 820.86743 862.591 4294372089
-16.873394 824.98328 862.13721 4284831062
-13.3211 824.98328 862.13721 4285093201
-15.985321 826.34113 863.28223 4285096031
31.722937 754.03687 866.41064 4294239472
34.522018 754.03687 866.41064 4294504188
37.21101 757.64148 865.52576 4294174708
38.083488 760.15076 865.6795 4294239990
37.100918 762.65576 865.82971 4294042611
-1.8495413 766.23926 864.92712 4287920518
0 766.23926 864.92712 4287921020
38.22385 767.18195 865.72198 4294240506
40.689907 766.23926 864.92712 4294306551
-3.6880734 769.81433 864.01746 4286670435
-1.8440367 769.81433 864.01746 4287854710
0 769.81433 864.01746 4287527546
40.568806 769.81433 864.01746 4294175735
42.412846 769.81433 864.01746 4294109686
-1.8440367 771.92902 865.80042 4288248941
0 771.92902 865.80042 4288183932
40.568806 771.92902 865.80042 4294109686
42.412846 771.22412 865.20605 4294109686
-10.111927 774.78662 864.28577 4286474074
-7.3541284 774.78662 864.28577 4287129690
-4.2899079 775.25513 864.68085 4287459683
-1.8385321 776.19214 865.47083 4287789934
0 776.19214 865.47083 4287790704
42.899082 775.25513 864.68085 4294109428
-4.5825686 779.742 864.53992 4282591519
-1.8385321 777.59772 866.65601 4282789155
0 777.59772 866.65601 4282463013
43.13945 778.66986 865.59796 4293912048
-1.8330275 781.14337 865.72156 4282656804
0 781.84406 866.31232 4282788908
40.326607 782.54474 866.90308 4294306810
42.159634 781.14337 865.72156 4294240758
-1.827523 784.68054 864.77991 4282986798
42.033028 784.68054 864.77991 4294109688
-1.827523 786.0777 865.95801 4283118127
0 786.0777 865.95801 4283118127
42.033028 786.0777 865.95801 4294240504
-3.6440368 789.60229 865.00574 4283118897
-1.8220184 790.29877 865.59296 4283316019
0 790.99524 866.18018 4283382069
40.995415 790.29877 865.59296 4294372346
-4.2428136 792.87408 865.14844 4283316530
41.822018 792.41071 864.75769 4294306297
-5.4385319 797.30579 864.96094 4283644723
41.695412 797.30579 864.96094 4294701055
-4.5321102 798.69177 866.12964 4283644980
41.695412 798.69177 866.12964 4294306810
-4.819572 803.10522 865.92676 4283974719
-1.8073394 803.5658 866.31506 4284106310
41.568806 802.87494 865.73254 4294437880
43.376148 802.18408 865.15002 4294307062
-7.2073393 805.66797 864.16357 4284172353
43.244038 805.66797 864.16357 4294438137
45.045872 805.66797 864.16357 4294569466
-4.2042813 807.50464 865.7121 4284303682
-1.8018348 807.73425 865.9057 4284435015
0 808.42297 866.48645 4284501063
41.442204 807.73425 865.9057 4294372344
43.244038 807.73425 865.9057 4294306809
-4.7902141 811.43231 865.09979 4284435784
-1.7963303 811.89008 865.48572 4284632650
0 811.89008 865.48572 4284632650
44.010094 811.20337 864.90674 4294372856
-7.1633029 815.34869 864.47791 4284632650
-4.4825687 814.30603 865.56079 4284698443
-1.7963303 813.26337 866.64368 4284830028
0 813.26337 866.64368 4284830028
41.315598 813.26337 866.64368 4294307064
43.941284 814.30603 865.56079 4294240758
-8.0495415 817.4115 864.90924 4284895821
-5.3724771 817.40234 866.20953 4284961614
44.173702 817.63055 866.40192 4294305783
46.466057 818.10522 864.18616 4294306551
-8.042202 820.15466 865.91412 4285158480
46.466057 820.15466 865.91412 4294108915
48.253212 820.15466 865.91412 4294438137
-13.362385 824.27264 865.46216 4285356372
-10.689908 823.59155 864.88794 4285421139
49.886238 822.91052 864.31372 4294240252
-13.362385 825.6347 866.61072 4285947476
26.201836 751.85474 868.49475 4292001227
29.009174 751.85474 868.49475 4292396755
9.3577986 753.28558 869.70117 4289631130
26.201836 753.28558 869.70117 4291869896
29.009174 753.28558 869.70117 4292462548
31.722937 755.4635 867.61353 4294042096
34.522018 755.4635 867.61353 4294306297
1.866055 756.89014 868.81641 4284566093
5.598165 756.89014 868.81641 4288973929
29.85688 756.89014 868.81641 4292398038
31.722937 756.89014 868.81641 4293976814
34.522018 756.89014 868.81641 4294240501
1.8605504 760.48627 867.92444 4287132018
4.6513758 761.90869 869.12378 4288578951
7.4422016 761.90869 869.12378 4289367963
31.629358 761.90869 869.12378 4293909744
34.420185 761.19751 868.52411 4294108407
1.8550459 764.07397 867.02551 4288315522
35.245872 764.07397 867.02551 4294568703
37.100918 764.07397 867.02551 4294306551
1.8550459 766.20129 868.81909 4288250499
4.3284402 766.43768 869.01837 4288711301
7.4201837 766.9104 869.41699 4289237898
31.53578 766.9104 869.41699 4294041327
34.318352 766.20129 868.81909 4294042614
1.8495413 770.48126 868.50378 4289170568
3.6990826 770.48126 868.50378 4289041552
34.216515 770.48126 868.50378 4294174967
37.915596 769.77429 867.90765 4294241276
1.8495413 771.89526 869.69604 4288251255
4.6238532 771.89526 869.69604 4289369493
7.3981652 771.89526 869.69604 4290092453
29.592661 771.89526 869.69604 4292264653
31.442202 771.89526 869.69604 4293712100
34.216515 771.89526 869.69604 4294239990
36.990826 771.89526 869.69604 4294569466
1.8440367 776.15839 869.36658 4282461223
3.6880734 776.86328 869.96094 4282654764
34.114677 776.86328 869.96094 4294108404
37.987156 775.73547 869.00995 4294372089
40.568806 774.7486 868.17786 4294306551
40.447708 779.0033 867.84119 4294372344
1.8385321 780.40887 869.02637 4282855211
38.609173 780.40887 869.02637 4294372346
1.8330275 785.34747 869.26636 4283316276
37.577065 785.34747 869.26636 4294372346
40.326607 783.94611 868.08472 4294372346
0.9137615 788.17346 867.72504 4283316019
38.377983 788.87201 868.31409 4294635513
40.205505 787.47485 867.13599 4294372346
1.827523 790.26917 869.49207 4283513655
36.550457 790.26917 869.49207 4294438137
-1.8220184 792.38818 867.35474 4283447862
0.91100919 793.08466 867.94196 4283513912
37.655048 793.31683 868.1377 4294438135
40.084404 792.38818 867.35474 4294438139
-3.6366973 795.19104 867.10193 4283448375
-1.8183486 795.88611 867.68799 4283579446
0.4555046 796.22937 868.63147 4283777083
3.6440368 795.17407 869.70374 4283777856
36.997555 796.5755 869.1413 4294504442
40.00367 795.88611 867.68799 4294372347
-3.6256881 800.0777 867.29822 4283842618
-1.812844 800.0777 867.29822 4284040253
38.069725 800.0777 867.29822 4294438904
39.882568 800.0777 867.29822 4294438137
0.90642202 802.15662 869.05109 4284303935
4.5321102 802.84955 869.63538 4284435270
7.2513762 802.84955 869.63538 4284567361
9.0642204 802.84955 869.63538 4284633154
34.444038 802.84955 869.63538 4294963455
37.163303 802.15662 869.05109 4294701565
39.882568 801.46362 868.4668 4294635259
0.90366971 805.63837 868.06262 4284435270
4.5183487 806.32922 868.64514 4284566857
37.954128 805.63837 868.06262 4294307063
39.761467 805.63837 868.06262 4294306294
1.8073394 807.71094 869.81018 4284632650
4.5183487 807.71094 869.81018 4284566857
7.2293577 807.71094 869.81018 4284698445
9.0366974 807.71094 869.81018 4284961616
34.339451 807.71094 869.81018 4294966527
37.050461 807.71094 869.81018 4294702586
40.541283 809.80054 867.64795 4294635511
1.8018348 811.86682 869.3902 4284830029
37.237919 812.09637 869.5838 4294569722
39.640366 811.86682 869.3902 4294438394
-3.5926607 814.63666 867.80164 4284961614
-1.7963303 814.63666 867.80164 4284961614
0 814.63666 867.80164 4284961616
41.315598 814.63666 867.80164 4294306297
43.111927 814.63666 867.80164 4294305784
-3.5926607 816.01001 868.95959 4285027410
-1.7963303 816.01001 868.95959 4285093203
0 816.01001 868.95959 4285289812
41.315598 816.01001 868.95959 4294240756
-7.1633029 820.82513 869.09546 4285421654
-5.3724771 820.14056 868.51825 4285421140
41.188992 820.82513 869.09546 4294372342
43.576756 819.91235 868.32587 4294305782
-10.722936 823.57043 868.79419 4286078805
-8.9357796 822.88727 868.2182 4285749587
44.678898 822.2041 867.64221 4294240244
46.466057 822.2041 867.64221 4294042609
22.524771 749.67261 870.57898 4291409595
24.401834 749.67261 870.57898 4292001731
11.262385 751.10767 871.78894 4289303453
13.139449 751.10767 871.78894 4290224555
15.955046 751.8252 872.39392 4290684844
19.709175 751.8252 872.39392 4291472826
22.524771 751.10767 871.78894 4291343801
24.401834 751.10767 871.78894 4291870146
3.7431192 754.71637 870.90771 4286473794
7.4862385 754.71637 870.90771 4289302167
10.293578 754.71637 870.90771 4289565601
13.100918 754.71637 870.90771 4290420916
22.458715 754.71637 870.90771 4291408826
25.266056 754.71637 870.90771 4292067017
28.073395 754.71637 870.90771 4292856793
4.6651373 758.31671 870.01929 4288052073
7.46422 758.31671 870.01929 4289171351
10.263303 758.31671 870.01929 4289895074
14.036697 756.14722 872.11414 4290486698
16.844036 756.14722 872.11414 4291078578
19.651377 756.14722 872.11414 4291342264
22.458715 756.14722 872.11414 4291474621
25.266056 756.14722 872.11414 4292001224
28.965137 757.23193 871.06671 4292462547
31.722937 758.31671 870.01929 4294042096
33.588989 758.31671 870.01929 4294174199
10.263303 759.74335 871.22217 4289894560
14.306422 760.21893 871.62311 4290552233
16.794495 760.45667 871.82361 4291144372
19.593578 761.16992 872.42505 4291277494
22.39266 761.16992 872.42505 4291213247
25.191742 761.16992 872.42505 4291936713
28.612844 760.21893 871.62311 4292462290
5.5816512 763.33112 870.32312 4289171855
7.4422016 763.33112 870.32312 4289302419
10.233027 764.04236 870.92285 4290092190
13.644036 764.27936 871.12274 4290552487
16.744955 764.75354 871.52246 4291408052
19.53578 764.75354 871.52246 4291539901
25.117432 764.75354 871.52246 4292133322
29.148623 764.27936 871.12274 4292265171
31.629358 763.33112 870.32312 4293843949
10.233027 766.1759 872.7218 4290422183
13.954128 766.1759 872.7218 4290619049
16.744955 766.1759 872.7218 4291276723
19.53578 766.1759 872.7218 4291539386
22.326605 766.1759 872.7218 4291671233
5.5651374 768.32861 870.61279 4289567897
7.4201837 768.32861 870.61279 4289698974
10.202752 769.74677 871.80859 4290684074
13.912844 769.74677 871.80859 4291078318
16.695414 769.74677 871.80859 4291538870
19.477982 769.74677 871.80859 4291342004
22.26055 769.74677 871.80859 4291671753
25.043119 769.03772 871.21069 4292329421
28.444036 768.80133 871.01141 4292264397
31.53578 768.32861 870.61279 4293844201
4.6238532 773.3092 870.88831 4284697164
7.3981652 773.3092 870.88831 4286602069
10.172478 773.3092 870.88831 4288442992
13.871559 773.3092 870.88831 4291668909
16.645872 773.3092 870.88831 4291934909
19.420183 773.3092 870.88831 4291671485
22.194496 773.3092 870.88831 4291868360
24.968807 773.3092 870.88831 4292394957
28.667891 773.3092 870.88831 4292527311
31.442202 773.3092 870.88831 4293580513
34.216515 773.3092 870.88831 4294174197
5.548624 774.72321 872.08057 4283707453
7.3981652 774.72321 872.08057 4284366634
10.172478 774.72321 872.08057 4286934094
13.871559 774.72321 872.08057 4290225284
16.645872 774.72321 872.08057 4291673507
19.420183 774.72321 872.08057 4291934403
22.194496 774.72321 872.08057 4292197323
24.968807 774.72321 872.08057 4292395211
28.667891 774.72321 872.08057 4292593359
31.442202 774.72321 872.08057 4293383904
4.9174314 778.74298 871.54572 4282788908
7.3761468 778.97797 871.7439 4282723863
9.8348627 779.21289 871.94208 4282723355
14.752294 779.68286 872.33826 4281603359
19.362385 779.68286 872.33826 4289371269
23.050459 779.68286 872.33826 4293118945
25.816513 779.68286 872.33826 4293119699
28.582569 779.68286 872.33826 4292725199
31.348623 778.97797 871.7439 4293515230
34.114677 778.97791 871.7439 4294108400
36.880733 778.97797 871.7439 4294437882
1.8385321 781.81445 870.21143 4283118127
3.6770642 781.81445 870.21143 4283117625
38.609173 781.81445 870.21143 4294438139
4.9027524 783.68854 871.79169 4283381563
7.3541284 784.62561 872.58179 4283448125
9.1926603 784.62561 872.58179 4283448125
20.223854 784.62561 872.58179 4282658346
28.497248 784.62561 872.58179 4293712092
31.255045 784.62561 872.58179 4293580511
34.012844 783.92279 871.98914 4294174193
4.2770638 787.68311 871.23566 4283382329
32.07798 788.15021 871.62952 4293646568
34.827522 788.15021 871.62952 4294831357
36.660549 786.74884 870.44788 4294635513
4.5688076 791.66632 870.67017 4283579711
7.3321099 789.55157 872.81104 4283776573
10.081652 789.55157 872.81104 4283974208
13.747706 789.55157 872.81104 4284303429
16.497248 789.55157 872.81104 4284697673
19.246788 789.55157 872.81104 4284762955
22.912844 789.55157 872.81104 4283251528
25.662386 789.55157 872.81104 4283449366
28.411926 789.55157 872.81104 4290290850
32.028442 790.60895 871.7406 4293712373
34.722935 791.66632 870.67017 4294766335
5.4825687 793.06348 871.84814 4283843649
7.310092 793.06348 871.84814 4283974208
10.051376 793.06348 871.84814 4284171843
13.706423 793.06348 871.84814 4284369479
16.447706 793.06348 871.84814 4284632654
19.188992 793.06348 871.84814 4284698699
21.930275 793.06348 871.84814 4284632400
25.585321 793.06348 871.84814 4283189049
28.326607 793.06348 871.84814 4285028442
31.981651 793.06348 871.84814 4293975022
34.722935 793.06348 871.84814 4294897663
1.8220184 796.56702 870.87817 4284040766
4.5550461 796.56702 870.87817 4283844419
7.2880735 797.95996 872.05273 4284107589
9.7174311 797.49561 871.66119 4284238919
13.665138 797.95996 872.05273 4284764235
16.398165 797.95996 872.05273 4284895821
19.131193 797.95996 872.05273 4285027409
29.152294 797.95996 872.05273 4283382069
32.188992 797.49561 871.66119 4292068822
34.618347 796.56702 870.87817 4294964735
1.8183486 799.36145 870.61829 4284369979
4.5458717 799.36145 870.61829 4284107589
10.910091 800.75159 871.79041 4284829515
12.72844 800.75159 871.79041 4284895308
31.8211 800.75159 871.79041 4288451499
34.548622 799.36145 870.61829 4294768127
36.366974 799.36145 870.61829 4294569468
13.637615 802.14172 872.96265 4285027152
16.365137 802.14172 872.96265 4285224019
29.093578 802.14172 872.96265 4283783237
30.911926 802.14172 872.96265 4284375374
7.2513762 804.23547 870.80396 4284632650
10.272782 804.69745 871.19354 4284961358
12.689908 805.6214 871.97253 4285224019
29.005505 805.6214 871.97253 4284570439
32.026913 805.15942 871.58301 4286806655
34.444038 804.23547 870.80396 4294964735
36.256882 804.23547 870.80396 4294964991
4.5183487 809.09271 870.97522 4285026124
7.2293577 809.09271 870.97522 4284895821
9.0366974 809.09271 870.97522 4285093201
31.628441 809.09271 870.97522 4285947483
34.339451 809.09271 870.97522 4294964219
36.14679 809.09271 870.97522 4294964735
4.5183487 810.47443 872.14026 4285420882
7.2293577 810.47443 872.14026 4285421902
9.9403667 810.47443 872.14026 4285421649
28.013762 810.47443 872.14026 4286013268
31.628441 810.47443 872.14026 4285947481
34.339451 810.47443 872.14026 4294964212
1.8018348 814.62183 871.7132 4285355605
4.5045872 814.62183 871.71313 4285355860
27.92844 815.31061 872.29395 4285485133
31.832418 814.85138 871.90674 4288115839
34.234863 814.62183 871.7132 4294963446
36.937614 814.62183 871.7132 4294701052
39.640366 814.62183 871.7132 4294306803
-3.5926607 818.06995 870.69647 4285486677
-1.7963303 818.06995 870.69647 4285618263
0 818.06995 870.69647 4285487447
35.926605 818.75659 871.27539 4294767102
37.722935 818.75659 871.27539 4294108915
40.417431 818.06995 870.69647 4294175217
-3.5926607 820.12994 872.43335 4285683805
-1.7963303 820.12994 872.43335 4285749854
0 820.12994 872.43335 4285880670
35.926605 820.12994 872.43335 4294635259
37.722935 820.12994 872.43335 4294108915
-7.1633029 822.19421 870.24988 4285814873
-5.3724771 822.19421 870.24988 4285814873
37.607338 823.56329 871.4043 4294174708
40.114494 823.28955 871.17346 4294306550
42.979816 822.19421 870.24988 4294306549
19.651377 757.57806 873.32056 4291342770
22.458715 757.57806 873.32056 4291409599
25.266056 757.57806 873.32056 4292133065
22.39266 762.59656 873.62793 4291343805
11.097248 776.13721 873.27283 4281673502
13.871559 776.13721 873.27283 4282461993
16.645872 776.13721 873.27283 4285882203
19.420183 776.13721 873.27283 4291666859
22.194496 776.13721 873.27283 4293118425
24.968807 776.13721 873.27283 4292658127
28.667891 776.13721 873.27283 4292593615
12.946789 777.55121 874.46497 4281604373
16.645872 777.55121 874.46497 4285287767
7.3761468 781.09259 873.52698 4283447862
10.449542 781.5625 873.92316 4283513403
13.830275 781.79749 874.12134 4283578942
16.596331 781.79749 874.12134 4282789425
19.055046 781.5625 873.92316 4282135337
23.050457 781.79749 874.12134 4288510606
25.816513 781.79749 874.12134 4293054164
28.582569 781.09259 873.52698 4293120218
31.348623 781.09259 873.52698 4293514718
7.3541284 786.03119 873.76685 4283644473
10.111927 786.03119 873.76685 4283841595
13.788991 786.03119 873.76685 4284170307
16.546789 786.03119 873.76685 4284104774
19.304588 786.03119 873.76685 4284761925
22.981651 786.03119 873.76685 4283381299
25.73945 786.03119 873.76685 4285289564
28.497248 786.03119 873.76685 4292329675
23.829357 790.95288 873.99268 4284698193
7.310092 794.46063 873.02625 4283910212
10.965137 794.46063 873.02625 4284435270
13.706423 794.46063 873.02625 4284501064
16.447706 794.46063 873.02625 4284632652
19.188992 794.46063 873.02625 4285092174
22.844036 794.46063 873.02625 4285158226
25.585321 794.46063 873.02625 4284436304
28.326607 794.46063 873.02625 4283910732
31.06789 794.46063 873.02625 4292333010
22.844036 795.85779 874.20435 4285420882
25.585321 795.85779 874.20435 4285420884
27.412844 795.85779 874.20435 4284565575
14.576147 799.35291 873.22717 4284961103
16.398165 799.35291 873.22717 4285026896
19.131193 800.04944 873.81445 4285158228
22.77523 800.04944 873.81445 4285421397
25.508257 800.04938 873.81445 4285684314
27.937614 799.8172 873.61865 4284765003
14.546789 803.53186 874.13477 4285223767
16.365137 803.53186 874.13477 4285223767
19.092661 803.53186 874.13477 4285289560
22.729359 803.53186 874.13477 4285815640
25.456881 803.53186 874.13477 4286012506
27.275229 803.53186 874.13477 4286012506
18.183487 804.922 875.30688 4285289812
22.729359 804.922 875.30688 4285816660
10.877064 807.00739 873.14111 4285420882
13.596331 807.70038 873.72534 4285421140
16.315596 807.70032 873.7254 4285420884
19.337004 807.93134 873.92017 4285815897
22.660549 808.39331 874.30969 4286014034
25.379816 807.70032 873.7254 4286210903
28.099083 807.00739 873.14111 4285881937
7.2293577 811.85614 873.3053 4285422165
9.9403667 811.85614 873.3053 4285422165
13.555046 811.85614 873.3053 4285618776
16.266054 811.85614 873.3053 4285881435
18.977064 811.85614 873.3053 4286013019
22.591743 811.85614 873.3053 4286145112
25.302752 811.85614 873.3053 4286539354
28.013762 811.85614 873.3053 4285683528
30.724771 811.85614 873.3053 4284564530
7.2293577 813.92871 875.05286 4285749590
9.9403667 813.92871 875.05286 4285749849
13.555046 813.92871 875.05286 4285815898
16.266054 813.92871 875.05286 4285947484
18.977064 813.92871 875.05286 4286144862
22.591743 813.92871 875.05286 4286341986
25.302752 813.23785 874.47034 4286539867
1.8018348 817.37683 874.03619 4285618265
4.5045872 817.37689 874.03619 4285815129
7.2073393 818.06561 874.61694 4285816412
25.225689 817.37683 874.03619 4286277989
27.92844 817.37683 874.03625 4283839775
31.532112 817.37683 874.03625 4291865485
34.234863 817.37683 874.03619 4294964723
-8.0834866 821.50323 873.59131 4286012508
-4.4908257 821.50323 873.59131 4286210400
-1.7963303 821.50323 873.59131 4286145375
0.90091741 820.47314 874.68488 4285947998
4.5045872 819.44312 875.77844 4286079582
7.2073393 819.44312 875.77844 4286079326
9.0091743 819.44312 875.77844 4286145375
14.414679 819.44312 875.77844 4286276961
16.216515 819.44312 875.77844 4286342754
25.225689 819.44312 875.77844 4285293409
27.92844 819.44312 875.77844 4282461458
31.532112 819.44312 875.77844 4294369730
35.028442 821.50323 873.59131 4294504184
-4.1914372 823.79205 875.52124 4286276703
-1.7963303 823.56317 875.32825 4286276958
0 823.56317 875.32825 4286277211
5.3889909 824.24982 875.90723 4286408797
35.028442 823.56317 875.32825 4294372087
37.722935 822.87653 874.74927 4294240756
-1.7908257 827.67059 874.86743 4286408295
0 827.67059 874.86743 4286409310
5.3614678 830.40192 874.55432 4286606946
7.1486239 830.40192 874.55432 4286671967
5.344954 833.80725 873.50159 4286737762
8.0311928 832.78772 874.60394 4287000164
10.722936 831.76819 875.7063 4287067256
12.510092 831.76819 875.7063 4287001463
8.0174313 835.16931 874.65002 4287067243
10.24159 816.46191 877.18878 4286013790
13.253822 816.46191 877.18878 4286145373
16.266054 816.00134 876.80042 4286211418
