# .PCD v0.7 - Point Cloud Data file format
VERSION 0.7
FIELDS x y z rgb
SIZE 4 4 4 4
TYPE F F F U
COUNT 1 1 1 1
WIDTH 1157
HEIGHT 1
VIEWPOINT 0 0 0 1 0 0 0
POINTS 1157
DATA ascii
-25.450459 768.25244 1276.038 4288389591
-21.814678 768.25244 1276.038 4289047774
-19.390825 768.25244 1276.038 4288916445
-16.966972 768.25244 1276.038 4289311203
-13.331193 768.25244 1276.038 4289574372
-9.6954126 768.25244 1276.038 4289968374
-7.2715597 768.25244 1276.038 4288652770
-4.8477063 768.25244 1276.038 4287605438
-2.4238532 768.25244 1276.038 4290302695
0 770.10547 1277.6003 4291614975
-31.390825 776.53674 1276.4828 4288189887
-28.976147 776.53674 1276.4828 4287926981
-26.561468 776.53674 1276.4828 4288453325
-16.902752 776.53674 1276.4828 4289047774
-7.2440367 776.53674 1276.4828 4293060607
-4.8293576 776.53674 1276.4828 4293784063
-2.4146788 776.53674 1276.4828 4293520895
-28.866055 782.93982 1275.3417 4287927487
-25.257797 782.93982 1275.3417 4288585939
-21.649542 782.93982 1275.3417 4288718302
-19.244038 782.93982 1275.3417 4288718816
-16.838531 782.93982 1275.3417 4289245160
-13.230275 782.93982 1275.3417 4289180384
-9.6220188 782.93982 1275.3417 4289050354
-7.2165136 782.93982 1275.3417 4292077055
-4.8110094 782.93982 1275.3417 4292797951
-2.4055047 782.93982 1275.3417 4292863743
-28.866055 784.77881 1276.8922 4288060359
-25.257797 784.77881 1276.8922 4288323537
-19.244038 784.77881 1276.8922 4288784859
-16.838531 784.77881 1276.8922 4289113823
-14.433027 784.77881 1276.8922 4288851419
-9.6220188 784.77881 1276.8922 4289050608
-7.2165136 784.77881 1276.8922 4291550719
-4.8110094 784.77881 1276.8922 4292601343
-2.4055047 784.77881 1276.8922 4292798463
-21.566973 791.14691 1275.7214 4288587998
-19.170643 791.14691 1275.7214 4288719577
-14.377981 791.14691 1275.7214 4288785370
-11.981651 791.14691 1275.7214 4289509349
-19.170643 792.97894 1277.2662 4288784857
-11.981651 792.97894 1277.2662 4289443556
-11.93578 799.31195 1276.0659 4289113823
-28.645872 801.13696 1277.6047 4287337151
-22.677982 801.13696 1277.6047 4288978906
-19.097248 801.13696 1277.6047 4289373397
-14.322936 801.13696 1277.6047 4288915929
-10.742202 801.13696 1277.6047 4288916708
-7.161468 801.13696 1277.6047 4291088639
-28.557798 806.90527 1277.2363 4287664063
-26.177982 806.90527 1277.2363 4288321993
-23.798164 806.90527 1277.2363 4288060368
-19.038532 806.90527 1277.2363 4288915675
-10.709174 805.99561 1276.4692 4289048291
-7.1394496 806.90527 1277.2363 4291088383
-30.818348 814.99036 1277.5132 4287534276
-28.447706 814.99036 1277.5132 4287337662
-26.077065 814.08417 1276.7491 4288126920
-22.916208 813.78204 1276.4945 4288389849
-18.965137 813.17798 1275.9851 4288981468
-16.594496 813.17798 1275.9851 4288915675
-14.223853 813.17798 1275.9851 4288850654
-10.667891 814.08411 1276.7491 4288982756
-7.1119266 814.08417 1276.7491 4290891007
-4.7412844 814.08417 1276.7491 4291416831
-2.3706422 814.08417 1276.7491 4292206079
-21.25321 821.22803 1276.2325 4289179101
-18.891743 821.22803 1276.2325 4289178581
-16.530275 821.22803 1276.2325 4289178581
-14.168807 821.22803 1276.2325 4289047776
-11.80734 821.22803 1276.2325 4289245412
-4.7229357 821.22803 1276.2325 4291351295
-22.433945 823.03333 1277.7548 4288981722
-18.891743 823.03333 1277.7548 4289244376
-16.530275 823.03333 1277.7548 4289178583
-14.168807 823.03333 1277.7548 4289113569
-10.626606 823.03333 1277.7548 4288982495
-7.0844035 823.03333 1277.7548 4290824955
-4.7229357 823.03333 1277.7548 4291154431
-43.992661 756.60547 1280.6058 4286020758
-41.548622 756.60547 1280.6058 4286678687
0 756.60547 1280.6058 4293061119
-37.740364 763.09564 1279.538 4286942137
-34.088074 763.09564 1279.538 4287139768
-17.044037 763.09564 1279.538 4289574372
-14.609175 763.09564 1279.538 4289245662
-9.7394495 763.09564 1279.538 4290033917
-36.3578 772.88513 1279.9441 4287533247
-33.933945 772.88513 1279.9441 4287664314
-16.966972 771.95856 1279.1628 4289245410
0.80795103 773.19391 1280.2045 4293127167
-31.390825 778.38275 1278.0393 4287992515
-33.805504 780.22882 1279.5958 4287334330
-31.390825 780.22882 1279.5958 4287926468
-40.893578 788.45691 1279.9935 4286743211
-36.082569 788.45691 1279.9935 4287073723
-33.677063 788.45691 1279.9935 4287073721
-31.271559 787.53735 1279.2183 4287862722
-28.866055 787.53735 1279.2183 4287666374
-25.257797 787.53741 1279.2183 4288127184
-21.649542 786.61786 1278.4429 4288850654
-19.244038 786.61786 1278.4429 4288719577
-16.838531 787.53735 1279.2183 4288917212
-14.433027 786.61786 1278.4429 4288851419
-9.6220188 787.53735 1279.2183 4289377772
-7.2165136 787.53735 1279.2183 4291614975
-4.8110094 787.53735 1279.2183 4292534783
-2.4055047 787.53735 1279.2183 4292666367
-33.548622 794.81097 1278.8109 4287073721
-31.152294 794.81097 1278.8109 4287666114
-28.755962 794.81097 1278.8109 4287469764
-26.359632 794.81097 1278.8109 4288061901
-22.765137 794.81097 1278.8109 4288521437
-19.170643 794.81097 1278.8109 4288915415
-16.774311 794.81097 1278.8109 4289244124
-14.377981 794.81097 1278.8109 4288850906
-10.783486 794.81097 1278.8109 4289376997
-7.1889906 794.81097 1278.8109 4291613695
-4.7926607 794.81097 1278.8109 4291679999
-2.3963304 794.81097 1278.8109 4292140543
-34.746788 796.64294 1280.3556 4287205047
-31.152294 796.64294 1280.3556 4287600319
-28.755962 796.64294 1280.3556 4287534526
-26.359632 796.64294 1280.3556 4288192456
-22.765137 796.64294 1280.3556 4288783326
-19.170643 796.64294 1280.3556 4289111513
-16.774311 796.64294 1280.3556 4289440222
-14.377981 796.64294 1280.3556 4288784859
-9.5853214 796.64294 1280.3556 4288983789
-7.1889906 796.64294 1280.3556 4291088895
-4.7926607 796.64294 1280.3556 4291679999
-2.3963304 796.64294 1280.3556 4292272127
-33.420185 802.96198 1279.1434 4287598272
-31.033028 802.96198 1279.1434 4287598272
-28.645872 802.96198 1279.1434 4287467717
-26.258715 802.96198 1279.1434 4288059855
-22.677982 802.96198 1279.1434 4288454613
-19.097248 802.96198 1279.1434 4289111509
-16.710093 802.96198 1279.1434 4289177559
-14.322936 802.96198 1279.1434 4288784857
-9.548624 802.96198 1279.1434 4288785901
-7.161468 802.96198 1279.1434 4291154431
-4.774312 802.96198 1279.1434 4291679999
-2.387156 802.96198 1279.1434 4292535039
-33.420185 804.78699 1280.6823 4287335866
-31.033028 804.78699 1280.6823 4287598781
-4.774312 804.78699 1280.6823 4291417343
-2.387156 804.78699 1280.6823 4292075263
-30.937614 808.72467 1278.7704 4287468480
-28.557798 808.72467 1278.7704 4287599033
-4.7596331 808.72467 1278.7704 4291417343
-2.3798165 808.72467 1278.7704 4292075263
-33.317432 810.54407 1280.3044 4287073723
-30.937614 810.54407 1280.3044 4287468480
-28.557798 810.54407 1280.3044 4287468732
-30.818348 817.70892 1279.8054 4287535043
-28.447706 817.70892 1279.8054 4287403972
-26.077065 817.70892 1279.8054 4287930316
-23.706423 817.70892 1279.8054 4288324051
-10.272783 817.40692 1279.5508 4288916962
-7.1119266 817.70892 1279.8054 4290825214
-4.7412844 816.80273 1279.0414 4291417087
-2.3706422 817.70892 1279.8054 4292140799
-18.891743 824.83875 1279.277 4289179353
-16.530275 824.83875 1279.277 4288915925
-14.168807 824.83875 1279.277 4288916449
-9.4458714 824.83875 1279.277 4289113569
-7.0844035 824.83875 1279.277 4290692858
-4.7229357 824.83875 1279.277 4290956287
-2.3614678 824.83875 1279.277 4292272127
-16.530275 826.6441 1280.7992 4288785111
-14.168807 826.6441 1280.7992 4288850654
-10.626606 826.6441 1280.7992 4289179617
-7.0844035 826.6441 1280.7992 4290100718
-4.7229357 826.6441 1280.7992 4290429177
-2.3614678 826.6441 1280.7992 4292074239
-46.436699 758.474 1282.1813 4286020773
-43.992661 758.474 1282.1813 4286086805
-41.548622 758.474 1282.1813 4286678685
1.2220184 758.474 1282.1813 4293192447
-46.436699 760.34247 1283.7567 4286348971
-43.992661 760.34247 1283.7567 4286283927
-41.548622 760.34247 1283.7567 4286810272
1.2220184 760.34247 1283.7567 4292798719
4.8880734 760.34247 1283.7567 4292929279
-41.392662 764.95709 1281.1075 4286614178
-37.740364 764.95709 1281.1075 4286942137
-34.088074 764.95709 1281.1075 4287270071
0 764.95709 1281.1075 4291417855
-41.392662 766.8186 1282.6771 4286876069
-37.740364 766.8186 1282.6771 4286942141
2.4348624 766.8186 1282.6771 4292733439
4.8697248 766.8186 1282.6771 4292995071
-36.3578 775.66467 1282.2877 4287269819
-33.933945 775.66467 1282.2877 4287400378
1.2119266 775.66467 1282.2877 4292798463
-36.3578 777.5177 1283.8501 4287137980
1.2119266 777.5177 1283.8501 4292798207
4.8477063 777.5177 1283.8501 4292732415
-36.220184 782.07483 1281.1523 4287137980
-33.805504 782.07483 1281.1523 4286941110
-31.390825 782.07483 1281.1523 4287862212
0 782.07483 1281.1523 4292469759
-43.464222 783.9209 1282.709 4285822623
-41.049541 783.9209 1282.709 4286677931
-37.427521 783.9209 1282.709 4286876092
-33.805504 783.9209 1282.709 4287204277
1.2073394 783.9209 1282.709 4292995071
-43.299084 790.2959 1281.5442 4286217130
-40.893578 790.2959 1281.5442 4286677681
-37.285324 790.2959 1281.5442 4287006899
-33.677063 790.2959 1281.5442 4287008698
-31.271559 790.2959 1281.5442 4287666627
-28.866055 790.2959 1281.5442 4287469251
-25.257797 790.2959 1281.5442 4288324307
-21.649542 790.2959 1281.5442 4288718814
-16.838531 790.2959 1281.5442 4289048028
-14.433027 790.2959 1281.5442 4288785370
-9.6220188 790.2959 1281.5442 4289443819
-7.2165136 790.2959 1281.5442 4291812351
-4.8110094 790.2959 1281.5442 4292337663
-2.4055047 790.2959 1281.5442 4292140543
-43.299084 792.13495 1283.0947 4286086053
-40.893578 792.13495 1283.0947 4286677933
-37.285324 792.13495 1283.0947 4287006898
1.2027524 792.13495 1283.0947 4292403711
-43.133945 799.39099 1282.6726 4286282144
-40.737614 799.39099 1282.6726 4286742695
-38.341286 799.39099 1282.6726 4286743463
-35.146175 799.08563 1282.4152 4287532982
-31.152294 798.47498 1281.9003 4287598781
-26.359632 798.47498 1281.9003 4287994825
-16.774311 798.47498 1281.9003 4289504984
-4.7926607 798.47498 1281.9003 4291811583
-2.3963304 798.47498 1281.9003 4292272127
2.3963304 800.30701 1283.4451 4292600575
-33.420185 806.61194 1282.2211 4287007930
1.193578 806.61194 1282.2211 4292075007
-35.807339 808.43701 1283.7599 4287073973
1.193578 808.43701 1283.7599 4291747071
4.774312 808.43701 1283.7599 4292206591
7.161468 808.43701 1283.7599 4292206591
-33.317432 812.36346 1281.8385 4287073725
1.1899083 812.36346 1281.8385 4292008959
-33.317432 814.18286 1283.3726 4286942907
1.1899083 814.18286 1283.3726 4291811839
4.7596331 814.18286 1283.3726 4292402431
-33.188992 820.42749 1282.0977 4287074747
-30.818348 820.42749 1282.0977 4287666627
-28.447706 820.42749 1282.0977 4287469764
-26.077065 820.42749 1282.0977 4287930315
-2.3706422 820.42749 1282.0977 4292207103
-30.818348 822.23987 1283.6259 4287797700
-28.447706 822.23987 1283.6259 4287666366
-26.077065 822.23987 1283.6259 4288258503
-22.521101 822.23987 1283.6259 4289244892
-11.853211 822.23987 1283.6259 4289245158
0 822.23987 1283.6259 4292403199
-4.7229357 829.35217 1283.0825 4290036211
-2.3614678 829.35217 1283.0825 4291943935
4.9064221 754.77606 1285.6035 4292731903
7.359633 754.77606 1285.6035 4292666111
9.8128443 755.71381 1286.3942 4292600575
-48.880733 763.1452 1286.1199 4285165206
-46.436699 763.1452 1286.1199 4286020516
-43.992661 763.1452 1286.1199 4286152601
2.4440367 762.21094 1285.3322 4292404991
4.8880734 762.21094 1285.3322 4292797695
7.3321099 764.07947 1286.9076 4292995071
9.7761469 764.07947 1286.9076 4292929279
12.220183 764.07947 1286.9076 4292929279
-46.262386 770.5415 1285.8162 4286086566
-43.827522 769.61078 1285.0314 4286086049
-41.392662 769.61078 1285.0314 4286743722
-38.957798 769.61078 1285.0314 4286809268
2.4348624 768.68005 1284.2466 4293061375
4.8697248 769.61078 1285.0314 4292732927
-43.629356 779.37079 1285.4126 4285888670
-41.205505 779.37079 1285.4126 4286678185
-38.781651 779.37079 1285.4126 4286743223
2.4238532 779.37079 1285.4126 4292667135
4.8477063 779.37079 1285.4126 4292732415
-48.477066 781.22388 1286.9751 4285362062
-46.053211 781.22388 1286.9751 4285822613
4.8477063 781.22388 1286.9751 4292797951
7.2715597 781.22388 1286.9751 4292732159
-48.293579 785.76697 1284.2655 4285558158
-45.878899 785.76697 1284.2655 4286216088
-43.464222 785.76697 1284.2655 4286085281
-38.634861 785.76697 1284.2655 4286678965
1.2073394 785.76697 1284.2655 4292666111
4.8293576 785.76697 1284.2655 4292666111
-48.293579 787.61298 1285.822 4285427083
-45.878899 787.61298 1285.822 4286348185
1.2073394 787.61298 1285.822 4292534783
4.8293576 787.61298 1285.822 4292600063
-45.704586 793.974 1284.6454 4286216867
-43.299084 793.974 1284.6454 4286151074
-40.893578 793.974 1284.6454 4286809260
-38.488075 793.974 1284.6454 4286743724
1.2027524 793.974 1284.6454 4292535039
4.8110094 793.974 1284.6454 4292600063
-48.110092 795.81299 1286.196 4285426324
-45.704586 795.81299 1286.196 4286347426
1.2027524 795.81299 1286.196 4292599807
4.8110094 795.81299 1286.196 4292403455
7.2165136 795.81299 1286.196 4292666367
-43.133945 803.05505 1285.7621 4286151074
-40.737614 803.05505 1285.7621 4286940590
-38.341286 803.05505 1285.7621 4286875564
-35.944954 803.05505 1285.7621 4287204529
1.1981652 802.13904 1284.9897 4292140543
4.7926607 803.05505 1285.7621 4292271359
7.1889906 803.97107 1286.5344 4292205823
-38.194496 811.17444 1286.0681 4286678963
-35.807339 811.17444 1286.0681 4287073977
4.774312 810.26196 1285.2987 4292337407
7.161468 811.17444 1286.0681 4292534271
9.548624 811.17444 1286.0681 4292336639
-38.077065 816.91199 1285.6736 4286678452
-34.903976 816.6087 1285.418 4287205308
1.1899083 816.91199 1285.6736 4292271871
4.7596331 816.91199 1285.6736 4292074495
7.1394496 816.91199 1285.6736 4292140031
-33.188992 824.05225 1285.1539 4287732159
-30.818348 824.05225 1285.1539 4288192710
-28.447706 824.05225 1285.1539 4288190913
-26.077065 824.05225 1285.1539 4288585415
-22.521101 824.05225 1285.1539 4289244894
-18.965137 824.05225 1285.1539 4289113819
0 824.05225 1285.1539 4292074495
-34.374313 825.86462 1286.6821 4288387270
-30.818348 825.86462 1286.6821 4288716485
-28.447706 825.86462 1286.6821 4288387523
-22.521101 825.86462 1286.6821 4289834462
-18.965137 825.86462 1286.6821 4289769435
-16.594496 825.86462 1286.6821 4289440726
-14.223853 825.86462 1286.6821 4289047776
-10.667891 825.86462 1286.6821 4289311201
-7.1119266 825.86462 1286.6821 4289706213
0 825.86462 1286.6821 4292140543
-51.517429 757.58936 1287.9755 4285557656
-49.06422 757.58936 1287.9755 4285296282
7.359633 757.58936 1287.9755 4293060863
9.8128443 757.58936 1287.9755 4292995071
12.266055 757.58936 1287.9755 4293192703
-51.517429 759.46484 1289.5569 4285426837
7.359633 759.46484 1289.5569 4293060863
9.8128443 759.46484 1289.5569 4293126911
13.492661 759.46484 1289.5569 4292929279
-48.880733 765.94794 1288.4832 4285361558
-46.436699 765.94794 1288.4832 4286216867
7.3321099 765.94794 1288.4832 4292601599
9.7761469 765.94794 1288.4832 4292797695
12.220183 765.94794 1288.4832 4293060863
-46.262386 772.40302 1287.3857 4286151074
-43.827522 772.40302 1287.3857 4286020256
-41.392662 772.40302 1287.3857 4286743978
-38.957798 772.40302 1287.3857 4286875317
4.8697248 772.40302 1287.3857 4292667391
-46.262386 774.26447 1288.9552 4286151328
-43.827522 774.26447 1288.9552 4285954717
-41.392662 774.26447 1288.9552 4286743976
-38.957798 774.26447 1288.9552 4286875065
7.3045874 774.26447 1288.9552 4292666623
-50.900917 783.0769 1288.5375 4285426833
7.2715597 783.0769 1288.5375 4292666111
-53.122936 791.30505 1288.9351 4284769160
-49.098469 790.6897 1288.4161 4285361553
-45.878899 789.45898 1287.3785 4286151578
4.8293576 789.45898 1287.3785 4292271615
7.2440367 790.38202 1288.1567 4292534527
9.6587152 790.38202 1288.1567 4292337407
13.280734 791.30505 1288.9351 4292469503
16.902752 791.30505 1288.9351 4292469759
19.31743 790.38202 1288.1567 4292403967
-48.110092 797.65204 1287.7466 4285426070
-45.704586 797.65204 1287.7466 4286347172
0 797.65204 1287.7466 4292732159
4.8110094 797.65204 1287.7466 4292600063
7.2165136 797.65204 1287.7466 4292665855
9.6220188 797.65204 1287.7466 4292403455
-48.110092 799.49109 1289.2972 4285492117
-45.704586 799.49109 1289.2972 4286347426
7.2165136 799.49109 1289.2972 4292271103
9.6220188 799.49109 1289.2972 4292205567
14.433027 799.49109 1289.2972 4292469759
-43.133945 805.80304 1288.0791 4285954465
-40.737614 805.80304 1288.0791 4286809774
-38.341286 805.80304 1288.0791 4286613422
9.5853214 805.80304 1288.0791 4292337407
-45.530273 807.63507 1289.6239 4286217119
-43.133945 807.63507 1289.6239 4286217380
-40.737614 807.63507 1289.6239 4286809774
19.170643 807.63507 1289.6239 4292469247
21.566973 807.63507 1289.6239 4292403455
-42.968807 815.73694 1289.915 4286151324
-40.58165 814.82446 1289.1456 4286678179
9.548624 814.82446 1289.1456 4291811327
-40.456882 820.55072 1288.7417 4286810795
-38.077065 820.55072 1288.7417 4286679220
-34.903976 820.2475 1288.4861 4287337150
2.3798165 820.55072 1288.7417 4292008447
4.7596331 820.55072 1288.7417 4292008959
7.1394496 820.55072 1288.7417 4292140543
9.5192661 820.55072 1288.7417 4292271871
-40.300919 827.677 1288.2102 4285294470
-37.930275 827.677 1288.2102 4285885340
-34.374313 827.677 1288.2102 4286280347
-30.818348 827.677 1288.2102 4286806939
-28.447706 827.677 1288.2102 4286939563
-7.1119266 827.677 1288.2102 4289969128
0 827.677 1288.2102 4292009215
-40.300919 829.48938 1289.7384 4284178554
0 829.48938 1289.7384 4292140543
14.774312 754.83624 1292.1943 4293061119
-51.517429 761.34033 1291.1383 4285624217
14.719266 761.34033 1291.1383 4292929279
-51.517429 763.21582 1292.7196 4285492626
14.719266 763.21582 1292.7196 4292929279
17.172478 763.21582 1292.7196 4292929279
-48.880733 767.81641 1290.0586 4285165464
7.3321099 767.81641 1290.0586 4292864255
9.7761469 767.81641 1290.0586 4293061119
12.220183 767.81641 1290.0586 4293258495
-48.880733 769.68494 1291.634 4285295765
7.3321099 769.68494 1291.634 4292601599
9.7761469 769.68494 1291.634 4292797695
12.220183 769.68494 1291.634 4292929023
-48.697247 776.12592 1290.5248 4285361812
-46.262386 776.12592 1290.5248 4286019486
7.3045874 776.12592 1290.5248 4292666623
9.7394495 776.12592 1290.5248 4292600575
-51.132111 777.98743 1292.0944 4285427087
9.7394495 777.98743 1292.0944 4292666623
-50.900917 784.92993 1290.1 4285492878
7.2715597 784.92993 1290.1 4292600063
9.6954126 784.92993 1290.1 4292469247
-50.900917 786.78302 1291.6624 4285361810
13.331193 786.78302 1291.6624 4292469503
16.966972 786.78302 1291.6624 4292535551
-53.122936 794.0741 1291.2698 4284571275
-50.708256 794.0741 1291.2698 4285294998
9.6587152 793.15112 1290.4916 4292600575
13.280734 794.0741 1291.2698 4292403455
16.902752 794.0741 1291.2698 4292600831
19.31743 794.0741 1291.2698 4292535039
21.732111 794.99713 1292.0481 4292798207
-48.911926 802.55615 1291.8816 4285558931
-45.704586 802.24963 1291.6232 4286216350
9.6220188 801.33008 1290.8479 4292271615
13.230275 802.24963 1291.6232 4292403455
16.838531 802.24963 1291.6232 4292403711
19.244038 802.24963 1291.6232 4292338175
21.649542 802.24963 1291.6232 4292338175
-45.530273 809.46704 1291.1686 4286217634
-43.133945 809.46704 1291.1686 4285956000
-40.737614 809.46704 1291.1686 4286547880
11.981651 809.46704 1291.1686 4292271103
14.377981 809.46704 1291.1686 4292271103
16.774311 809.46704 1291.1686 4292402431
21.566973 809.46704 1291.1686 4292337407
-46.728439 811.29907 1292.7133 4285757084
-43.133945 811.29907 1292.7133 4286020760
11.981651 811.29907 1292.7133 4292205567
14.377981 811.29907 1292.7133 4292271615
16.774311 811.29907 1292.7133 4292205567
-45.355965 817.56201 1291.4539 4286217380
-42.968807 817.56201 1291.4539 4286283425
11.93578 817.56201 1291.4539 4292337407
14.322936 817.56201 1291.4539 4292469503
-46.549541 819.38696 1292.9927 4285627296
-42.968807 819.38696 1292.9927 4286219170
11.93578 819.38696 1292.9927 4292535295
14.322936 819.38696 1292.9927 4292535551
16.710093 819.38696 1292.9927 4291285759
-45.216515 823.27979 1291.0428 4286545569
-40.456882 823.27979 1291.0428 4287270311
-38.077065 823.27979 1291.0428 4287465917
-26.177982 823.27979 1291.0428 4288848074
2.3798165 823.27979 1291.0428 4291942911
4.7596331 823.27979 1291.0428 4291877887
7.1394496 823.27979 1291.0428 4292272639
10.709174 823.27979 1291.0428 4292009983
-45.216515 825.09918 1292.5769 4285162630
-42.836697 825.09918 1292.5769 4285031298
2.3798165 825.09918 1292.5769 4291812095
4.7596331 825.09918 1292.5769 4291877887
7.1394496 825.09918 1292.5769 4292338431
9.5192661 825.09918 1292.5769 4291551743
-55.403671 757.66003 1294.5752 4284768390
-51.517429 766.02905 1295.0917 4285361040
14.719266 766.02905 1295.0917 4292929023
-51.324772 772.48767 1293.9972 4285361552
-48.880733 771.55341 1293.2095 4285361812
9.7761469 771.55341 1293.2095 4292731903
13.034863 772.79907 1294.2598 4292666623
-53.566971 779.84888 1293.6639 4284769160
9.7394495 779.84888 1293.6639 4292469247
-56.001835 781.71033 1295.2334 4285096335
-53.566971 781.71033 1295.2334 4284900741
13.391743 781.71033 1295.2334 4292732415
-55.748623 788.63611 1293.2249 4284571524
-55.748623 790.48914 1294.7874 4284767622
-50.708256 796.8432 1293.6047 4285361040
12.073395 796.8432 1293.6047 4292600319
16.902752 796.8432 1293.6047 4292535551
19.31743 796.8432 1293.6047 4292469759
21.732111 796.8432 1293.6047 4292601343
-53.122936 798.68921 1295.1613 4285032579
-50.708256 798.68921 1295.1613 4285558923
-55.326607 806.84717 1295.4998 4284900743
-52.921101 805.92767 1294.7244 4284769671
-49.312843 805.92773 1294.7245 4285559189
13.230275 805.00818 1293.9491 4292402687
16.838531 805.00818 1293.9491 4292666367
19.244038 806.84717 1295.4998 4292271615
-52.719265 814.96313 1295.8027 4285031312
-50.322937 814.04712 1295.0303 4285690012
-47.127827 813.74176 1294.7728 4285822622
11.981651 813.1311 1294.2579 4292074495
14.377981 813.1311 1294.2579 4292403199
16.774311 814.04712 1295.0303 4292403455
19.170643 814.96313 1295.8027 4292338431
21.566973 814.04712 1295.0303 4292732415
-50.130276 821.21198 1294.5314 4286216590
-47.743118 821.21198 1294.5314 4286282140
-42.968807 821.21198 1294.5314 4286546332
14.322936 821.21198 1294.5314 4289645055
16.710093 821.21198 1294.5314 4288263423
21.484404 821.21198 1294.5314 4282278852
-45.216515 826.91858 1294.111 4284637823
-42.836697 826.91858 1294.111 4284310139
2.3798165 826.91858 1294.111 4292008703
4.7596331 826.91858 1294.111 4292008959
7.1394496 826.91858 1294.111 4292601087
-55.403671 760.48376 1296.9562 4284834437
-54.172478 762.36627 1298.5435 4284703367
17.236698 762.36627 1298.5435 4292797951
14.719266 768.84229 1297.4637 4292731903
-53.768806 775.29034 1296.3604 4284900743
13.442202 775.29034 1296.3604 4292929535
-58.656879 777.15887 1297.9358 4284307075
-56.212845 777.15887 1297.9358 4284899213
13.442202 777.15887 1297.9358 4292601087
-56.001835 783.57184 1296.803 4284703367
-53.566971 783.57184 1296.803 4284703880
-55.748623 793.26868 1297.131 4284701831
-53.324772 794.19525 1297.9122 4284505731
-55.537613 800.53528 1296.7178 4285032329
-53.122936 800.53528 1296.7178 4284901509
-57.952293 802.38135 1298.2743 4284308607
-55.537613 802.38135 1298.2743 4284966536
-55.326607 808.68622 1297.0503 4284900743
-52.921101 808.68622 1297.0503 4285031566
-50.515594 808.68622 1297.0503 4285886875
19.244038 808.68622 1297.0503 4292271103
21.649542 808.68622 1297.0503 4292665599
-57.732109 810.52527 1298.601 4284308609
-55.326607 810.52527 1298.601 4284966282
-52.921101 810.52527 1298.601 4284835216
19.244038 810.52527 1298.601 4292008191
-55.115597 817.71118 1298.1198 4285688974
-52.719265 817.71118 1298.1198 4285427340
-50.322937 816.79517 1297.3474 4285690777
19.170643 818.62714 1298.8921 4284449764
-50.130276 823.03699 1296.0702 4284900993
-47.743118 823.94946 1296.8396 4284900227
11.14006 824.25366 1297.0961 4290628854
14.322936 823.03699 1296.0702 4284521453
16.710093 823.03699 1296.0702 4280047786
-59.317432 755.86212 1299.5995 4284439166
17.300917 755.86212 1299.5995 4292797951
-59.317432 757.75165 1301.1926 4284439164
-54.172478 764.24878 1300.1307 4284703367
17.236698 764.24878 1300.1307 4292797695
-54.172478 766.13135 1301.718 4284703880
17.236698 766.13135 1301.718 4292929023
-53.970642 770.71783 1299.0452 4284900743
17.172478 770.71783 1299.0452 4292601343
19.625689 770.71783 1299.0452 4292666623
-56.423855 772.59332 1300.6265 4284637068
17.172478 772.59332 1300.6265 4292995071
19.625689 772.59332 1300.6265 4292797695
-61.100918 779.02734 1299.5114 4284373117
-58.656879 779.02734 1299.5114 4284569991
17.108257 779.02734 1299.5114 4292666623
19.552294 779.02734 1299.5114 4292337919
-61.100918 780.89581 1301.0868 4284439164
-58.656879 780.89581 1301.0868 4284439938
-58.436699 787.2948 1299.942 4284241278
-60.871559 789.15625 1301.5116 4284175485
-58.436699 789.15625 1301.5116 4284241282
-58.172478 797.90137 1301.0371 4284242814
-55.748623 796.04828 1299.4746 4285098122
-60.366974 805.15039 1300.6091 4284243065
-57.952293 805.15039 1300.6091 4284374399
-57.732109 812.36426 1300.1516 4284636038
-55.326607 812.36426 1300.1516 4285162382
-57.732109 814.20331 1301.7021 4284702081
19.244038 814.20331 1301.7021 4289773311
21.649542 814.20331 1301.7021 4286944213
-52.719265 820.45917 1300.4368 4284769664
14.377981 822.2912 1301.9814 4286028534
16.774311 822.2912 1301.9814 4281357231
-59.317432 759.64117 1302.7859 4284440192
-56.845871 760.58594 1303.5825 4284703620
-56.634861 768.01379 1303.3053 4284703367
17.172478 774.46881 1302.2079 4292535551
19.625689 774.46881 1302.2079 4292403967
-63.544952 782.76428 1302.6622 4284110196
-61.100918 782.76428 1302.6622 4284373368
-58.656879 782.76428 1302.6622 4284242816
-63.544952 784.63281 1304.2377 4283912818
-61.100918 784.63281 1304.2377 4284175989
-60.871559 791.0177 1303.0812 4284241780
-58.436699 791.0177 1303.0812 4284307071
-60.871559 792.87921 1304.6508 4284307825
-58.436699 792.87921 1304.6508 4284242814
-60.596329 799.75439 1302.5996 4284177021
-60.366974 807.91943 1302.9438 4284636540
-57.732109 816.96185 1304.0281 4285163399
-55.326607 817.88135 1304.8035 4285032327
19.244038 817.88135 1304.8035 4279058075
-56.845871 763.42023 1305.9723 4284769158
-60.871559 794.74066 1306.2202 4284373622
-60.366974 811.61151 1306.057 4284833151
-60.366974 813.45758 1307.6135 4285098120
-50.515594 819.7204 1306.354 4284507517
13.230275 821.55945 1307.9047 4292666111
19.244038 819.7204 1306.354 4278932632
-59.58165 758.26904 1309.4771 4284571776
-61.78899 767.19928 1309.1587 4284242814
-59.317432 767.19928 1309.1587 4284242566
-61.78899 769.08881 1310.7518 4284373117
-63.783485 783.84631 1310.1147 4284109692
-64.523857 799.39435 1310.144 4283651188
-60.596329 807.16663 1308.8494 4284570495
-60.366974 815.30359 1309.17 4284967306
-57.952293 817.14966 1310.7266 4284573325
-55.537613 817.14966 1310.7266 4284375947
-53.122936 817.14966 1310.7266 4284441723
14.433027 823.39844 1309.4553 4292731903
-59.58165 760.16699 1311.0774 4284505985
-59.58165 762.06494 1312.6776 4284505731
-63.783485 785.7218 1311.6962 4284175987
-63.783485 787.59735 1313.2775 4283979117
-64.766968 793.97522 1312.115 4283979639
-64.523857 802.18652 1312.4984 4284308091
-63.828136 811.49042 1312.495 4284703621
-49.500916 818.99573 1312.2831 4284639367
-45.878899 818.99573 1312.2831 4284705161
-66.236694 789.47284 1314.8589 4284175989
-63.783485 789.47284 1314.8589 4284307573
-64.523849 804.97882 1314.8528 4284439422
-60.596329 814.57886 1315.0991 4284639118
-55.748623 816.43188 1316.6616 4284375951
-53.324772 816.43188 1316.6616 4284573573
16.966972 816.43188 1316.6616 4292402431
19.390825 816.43188 1316.6616 4289185279
16.966972 818.28497 1318.224 4292666111
19.390825 818.28497 1318.224 4292140031
-64.523857 811.4939 1320.3462 4284574095
-60.871559 813.35541 1321.9156 4284510349
-58.436699 813.35541 1321.9156 4284573073
-60.871559 815.21686 1323.4852 4284510601
-58.436699 815.21686 1323.4852 4284442266
-56.001835 815.21686 1323.4852 4284376473
-53.566971 815.21686 1323.4852 4284639120
-64.766968 810.79163 1326.2942 4284641941
-51.324772 812.6601 1327.8696 4284770707
-61.100918 814.52856 1329.4451 4284970650
-58.656879 814.52856 1329.4451 4285296282
-56.212845 814.52856 1329.4451 4285033111
-53.768806 814.52856 1329.4451 4284967057
14.66422 814.52856 1329.4451 4292271359
17.108257 814.52856 1329.4451 4291942655
19.552294 814.52856 1329.4451 4292270591
-61.100918 816.39709 1331.0205 4285430962
-58.656879 816.39709 1331.0205 4284773539
-56.212845 816.39709 1331.0205 4284707490
19.552294 816.39709 1331.0205 4291942911
-66.236694 811.04108 1333.0447 4285432497
-63.783485 810.10333 1332.2539 4284576394
-51.517429 811.97882 1333.8353 4285164179
12.266055 811.97882 1333.8353 4291812607
-61.100918 818.26556 1332.5959 4286811848
-58.656879 818.26556 1332.5959 4285694902
-56.212845 818.26556 1332.5959 4285234351
19.552294 818.26556 1332.5959 4291483391
-61.100918 820.13403 1334.1714 4287404260
-58.656879 820.13403 1334.1714 4286615241
19.478899 826.38568 1332.9026 4291549439
-49.247707 807.54663 1336.6384 4284770959
-66.236694 814.79211 1336.2074 4287470299
-52.744034 814.79211 1336.2074 4285101719
14.719266 814.79211 1336.2074 4291943423
17.172478 814.79211 1336.2074 4291877375
14.66422 823.87103 1337.3223 4291483391
17.108257 822.93677 1336.5345 4291483647
19.552294 822.00256 1335.7468 4291746559
-70.333946 770.69543 1340.8833 4283782263
-67.822021 770.69543 1340.8833 4283782263
-64.022018 809.42914 1338.2256 4285694116
-49.247707 809.42914 1338.2256 4285164177
-64.022018 811.31165 1339.813 4286088893
-49.247707 811.31165 1339.813 4285427855
-56.423855 817.60535 1338.5795 4285825468
-52.744034 817.60535 1338.5795 4284708495
14.719266 817.60535 1338.5795 4291746559
17.172478 817.60535 1338.5795 4291746559
19.625689 817.60535 1338.5795 4291746815
-61.330276 819.48083 1340.1609 4288458485
-58.877064 819.48083 1340.1609 4288062683
-56.423855 819.48083 1340.1609 4287207117
-52.744034 819.48083 1340.1609 4285958060
-49.06422 819.48083 1340.1609 4285627812
13.492661 819.48083 1340.1609 4291483903
-56.212845 826.67371 1339.6855 4288785636
-52.954132 826.3623 1339.423 4288062163
14.66422 826.67371 1339.6855 4291483647
17.108257 826.67371 1339.6855 4291681023
-70.590828 764.19971 1341.9463 4283914877
-68.069725 764.19971 1341.9463 4283651962
-70.590828 766.12708 1343.5714 4283520374
-70.333946 772.61584 1342.5024 4284175989
-64.022018 814.13538 1342.1938 4287864801
-49.247707 814.13538 1342.1938 4285231006
12.311927 814.13538 1342.1938 4291877631
-58.877064 821.35632 1341.7422 4288785120
-56.423855 821.35632 1341.7422 4287535309
-52.744034 821.35632 1341.7422 4286417855
-49.06422 821.35632 1341.7422 4285759909
12.266055 821.35632 1341.7422 4291615231
-49.06422 823.23181 1343.3236 4287010748
-46.611008 823.23181 1343.3236 4285892011
9.8128443 823.23181 1343.3236 4291023359
12.266055 823.23181 1343.3236 4291220991
13.442202 829.47644 1342.0487 4291351807
12.220183 831.34497 1343.6241 4291482623
-70.899086 759.07794 1345.476 4284242814
-68.366974 759.07794 1345.476 4283979641
-73.111923 768.0545 1345.1965 4283652212
-22.425688 793.65015 1345.8496 4290886887
7.4477062 800.0238 1344.6836 4292469503
9.930275 800.0238 1344.6836 4292337151
-47.168808 801.92175 1346.2839 4284770959
-44.686237 801.92175 1346.2839 4284770954
7.4477062 801.92175 1346.2839 4292468991
9.930275 801.92175 1346.2839 4292468223
12.412844 801.92175 1346.2839 4292665599
12.357799 808.76892 1344.2091 4291942911
-46.959633 810.65845 1345.8022 4285295769
-44.488075 810.65845 1345.8022 4285361558
9.8862381 810.65845 1345.8022 4292140543
-46.78532 817.90045 1345.3684 4285496482
-44.322937 817.90045 1345.3684 4285558940
-41.86055 818.84167 1346.1621 4285756318
9.8495417 817.90045 1345.3684 4291615487
-56.423855 826.98285 1346.4863 4289445631
-53.970642 826.98285 1346.4863 4289444088
9.8128443 826.0451 1345.6957 4291417343
12.266055 825.10736 1344.905 4291417343
-46.436699 833.2135 1345.1997 4287600598
-43.992661 833.2135 1345.1997 4287927487
-22.425688 796.50757 1348.2589 4288191931
-17.442202 796.50757 1348.2589 4288914132
-13.704588 796.50757 1348.2589 4290096863
-9.9669724 796.50757 1348.2589 4289376996
-7.4752293 796.50757 1348.2589 4289969132
-4.9834862 796.50757 1348.2589 4290364663
-2.4917431 796.50757 1348.2589 4291943679
2.4917431 797.46002 1349.062 4291877887
4.9834862 797.46002 1349.062 4292074751
-47.168808 803.8197 1347.8842 4285098384
-44.686237 803.8197 1347.8842 4285164429
-9.930275 803.8197 1347.8842 4288586453
-7.4477062 803.8197 1347.8842 4290691572
7.4477062 803.8197 1347.8842 4292141055
9.930275 803.8197 1347.8842 4291615231
-47.168808 805.71765 1349.4845 4285230476
-44.686237 805.71765 1349.4845 4285230226
-17.377981 805.71765 1349.4845 4285690534
-13.654128 805.71765 1349.4845 4285626795
-9.930275 805.71765 1349.4845 4286154184
-7.4477062 805.71765 1349.4845 4290299135
-4.9651375 805.71765 1349.4845 4290694141
-2.4825687 805.71765 1349.4845 4292075775
7.4477062 805.71765 1349.4845 4292337919
9.930275 805.71765 1349.4845 4292008959
-46.959633 812.54797 1347.3955 4285166498
-44.488075 812.54797 1347.3955 4285558683
9.8862381 812.54797 1347.3955 4292009471
-64.260551 814.4375 1348.9886 4289050879
-42.016514 814.4375 1348.9886 4285690525
-41.86055 820.72424 1347.7494 4286282664
-51.710091 822.60675 1349.3367 4287799245
-49.247707 822.60675 1349.3367 4287667649
-46.78532 822.60675 1349.3367 4286154154
7.387156 822.60675 1349.3367 4291746047
-56.423855 828.85834 1348.0677 4290429439
-52.744034 829.79608 1348.8584 4289507828
-49.06422 829.79608 1348.8584 4288258018
-46.611008 828.85834 1348.0677 4288257763
7.359633 829.79608 1348.8584 4291285503
9.8128443 828.85834 1348.0677 4291482623
-73.69725 758.35883 1351.4097 4284046970
-75.963303 764.88544 1350.3727 4283915127
-75.963303 766.82123 1352.0049 4284045686
-73.43119 766.82123 1352.0049 4283979637
-25.009174 791.07227 1350.2163 4289899992
-20.007339 791.07227 1350.2163 4290427371
-16.255962 791.07227 1350.2163 4289572321
-12.504587 791.07227 1350.2163 4289770472
-10.00367 791.07227 1350.2163 4289245662
-27.510092 792.98425 1351.8285 4287598763
-25.009174 792.98425 1351.8285 4289505974
-20.007339 792.98425 1351.8285 4290558960
-24.917431 799.36499 1350.6682 4284572310
-22.425688 799.36499 1350.6682 4285032861
-19.933945 799.36499 1350.6682 4284967055
-17.442202 799.36499 1350.6682 4287072174
-13.704587 799.36499 1350.6682 4288980936
-9.9669724 799.36499 1350.6682 4289573870
-7.4752293 799.36499 1350.6682 4290166008
-4.9834862 799.36499 1350.6682 4290562553
-2.4917431 799.36499 1350.6682 4292075775
1.2458715 799.36499 1350.6682 4292141055
4.9834862 799.36499 1350.6682 4292337407
-42.359634 801.26996 1352.2744 4285164429
-27.409174 801.26996 1352.2744 4285164181
-24.917431 801.26996 1352.2744 4285427615
-22.425688 801.26996 1352.2744 4285427615
-19.933945 801.26996 1352.2744 4285098384
-17.442202 801.26996 1352.2744 4285361812
-13.704587 801.26996 1352.2744 4285825453
-4.9834862 801.26996 1352.2744 4290825468
-2.4917431 801.26996 1352.2744 4292075775
1.2458715 801.26996 1352.2744 4292075263
4.9834862 801.26996 1352.2744 4291877887
-67.029358 809.51355 1352.6851 4288392179
-42.203671 808.56458 1351.885 4285493145
-39.7211 809.51355 1352.6851 4285690775
-17.377981 808.56458 1351.885 4286151587
-13.654128 808.56458 1351.885 4285692581
-9.930275 808.56458 1351.885 4284380318
-7.4477062 808.56458 1351.885 4288722399
-4.9651375 808.56458 1351.885 4290102524
-2.4825687 808.56458 1351.885 4291944703
4.9651375 809.51355 1352.6851 4291613951
7.4477062 808.56458 1351.885 4292205823
-64.260551 817.27179 1351.3784 4290299391
-61.78899 816.32703 1350.5819 4288852730
-59.317432 818.21655 1352.175 4289509359
-44.488075 818.21655 1352.175 4286348458
-39.544952 817.27179 1351.3784 4285822626
-37.073395 818.21655 1352.175 4285954211
-34.601833 818.21655 1352.175 4286020256
-32.130276 818.21655 1352.175 4286020256
-17.300917 818.21655 1352.175 4286547628
-14.829358 818.21655 1352.175 4285826472
-9.8862381 818.21655 1352.175 4285562004
-7.4146791 818.21655 1352.175 4290759907
-4.943119 818.21655 1352.175 4291877119
-2.4715595 818.21655 1352.175 4291942911
4.943119 818.21655 1352.175 4291154431
7.4146791 817.27179 1351.3784 4291548927
-51.710091 824.48926 1350.924 4288522986
-49.247707 824.48926 1350.924 4287732950
-46.78532 824.48926 1350.924 4287338192
-39.398167 824.48926 1350.924 4285956010
7.387156 824.48926 1350.924 4291417087
-51.710091 826.37177 1352.5112 4289376246
-44.322937 826.37177 1352.5112 4287535044
-40.629356 826.37177 1352.5112 4286679477
-36.93578 826.37177 1352.5112 4286284461
-32.011009 826.37177 1352.5112 4286546604
-44.157799 832.60938 1351.2305 4285694911
-39.251377 832.60938 1351.2305 4286152873
-76.238533 760.30164 1353.0479 4283850107
-73.69725 760.30164 1353.0479 4283586678
-75.963303 768.75708 1353.6371 4284111225
-73.43119 768.75708 1353.6371 4284045432
-27.631193 787.97894 1355.4563 4288649925
-70.025688 794.89624 1353.4406 4286155188
-27.510092 794.89624 1353.4406 4284244108
-25.009174 794.89624 1353.4406 4283850897
-20.007339 794.89624 1353.4406 4286611375
0 794.89624 1353.4406 4291877887
-70.025688 796.80823 1355.0527 4287075773
-42.515594 796.80823 1355.0527 4284770954
-30.011009 796.80823 1355.0527 4284769169
-27.510092 796.80823 1355.0527 4284637583
-69.768806 803.17493 1353.8806 4288259811
-42.359634 803.17493 1353.8806 4285230226
-39.867889 803.17493 1353.8806 4285164429
-27.409174 803.17493 1353.8806 4285493662
-24.917431 803.17493 1353.8806 4285493664
-22.425688 803.17493 1353.8806 4285690786
-19.933945 803.17493 1353.8806 4285559205
1.2458715 803.17493 1353.8806 4292206591
4.9834862 803.17493 1353.8806 4292074751
-69.768806 805.07983 1355.4868 4289115384
-39.867889 805.07983 1355.4868 4285361812
-32.392662 805.07983 1355.4868 4285558935
-28.655045 805.07983 1355.4868 4285559450
-24.917431 805.07983 1355.4868 4285822623
-22.425688 805.07983 1355.4868 4285954465
-19.933945 805.07983 1355.4868 4286020258
1.2458715 805.07983 1355.4868 4291811583
4.9834862 805.07983 1355.4868 4291810559
-67.029358 811.4115 1354.2854 4289773051
-39.7211 811.4115 1354.2854 4285691036
-32.273396 811.4115 1354.2854 4285822874
-24.825687 811.4115 1354.2854 4285954463
-19.86055 811.4115 1354.2854 4285955746
-17.377981 811.4115 1354.2854 4286218918
-13.654128 811.4115 1354.2854 4285955492
-9.930275 811.4115 1354.2854 4284576920
-7.4477062 811.4115 1354.2854 4288458708
-4.9651375 811.4115 1354.2854 4289970162
-2.4825687 811.4115 1354.2854 4291812351
2.4825687 811.4115 1354.2854 4291548159
4.9651375 811.4115 1354.2854 4291351295
7.4477062 811.4115 1354.2854 4291746047
-69.511925 813.30945 1355.8857 4291614975
-67.029358 813.30945 1355.8857 4290430715
-37.238533 813.30945 1355.8857 4285822627
-34.755962 813.30945 1355.8857 4285888670
-32.273396 813.30945 1355.8857 4285954463
-28.549541 813.30945 1355.8857 4285954463
-24.825687 813.30945 1355.8857 4286020260
-22.343119 813.30945 1355.8857 4286283176
-19.86055 813.30945 1355.8857 4286218918
-17.377981 813.30945 1355.8857 4286350504
-13.654128 813.30945 1355.8857 4285758628
-9.930275 813.30945 1355.8857 4284774550
-7.4477062 813.30945 1355.8857 4288787922
-4.9651375 813.30945 1355.8857 4291022318
-2.4825687 813.30945 1355.8857 4291943420
1.2412844 813.30945 1355.8857 4292008959
4.9651375 813.30945 1355.8857 4291548415
-66.732109 821.99561 1355.3615 4291615743
-64.260551 821.05084 1354.5649 4291155967
-59.317432 821.05084 1354.5649 4289905145
-43.252296 821.05084 1354.5648 4286417079
-39.544952 820.10608 1353.7683 4285758376
-37.073395 821.05084 1354.5649 4285890218
-34.601833 821.05084 1354.5649 4286283177
-32.130276 821.05084 1354.5649 4286414763
-28.834862 821.36572 1354.8304 4286415782
-24.715597 821.99561 1355.3615 4286351269
-19.772476 821.99561 1355.3615 4285036954
-17.300917 821.05084 1354.5649 4285496736
-13.593578 821.05084 1354.5648 4286677929
-9.8862381 821.05084 1354.5649 4289504726
-7.4146791 821.05084 1354.5649 4292004857
-4.943119 821.05084 1354.5649 4291875583
-2.4715595 821.05084 1354.5649 4291875583
4.943119 821.05084 1354.5649 4291022335
-41.039753 828.88184 1354.6276 4286482359
-36.93578 829.19556 1354.8921 4285824165
-34.473396 829.19556 1354.8921 4285756835
-32.011009 829.19556 1354.8921 4285296028
2.4623854 830.13678 1355.6858 4291547647
4.9247708 828.25427 1354.0985 4290890750
-78.779816 766.13013 1357.9623 4283914879
-73.111923 781.54633 1356.5725 4284966534
-70.590828 781.54633 1356.5725 4284571778
-73.111923 783.47375 1358.1978 4284966532
-70.590828 783.47375 1358.1978 4284703367
-72.845871 791.8197 1358.6947 4287993028
-70.333946 789.89935 1357.0754 4284903573
-45.21468 791.8197 1358.6947 4284639622
-42.702751 791.8197 1358.6947 4284376451
-31.399082 790.8595 1357.8851 4285427857
-70.025688 798.72021 1356.6648 4287013079
-40.014679 798.72021 1356.6648 4285229709
-35.012844 800.63214 1358.277 4285229972
-31.261467 799.67615 1357.4708 4285229717
-69.768806 806.98486 1357.093 4289576447
-37.376148 806.98486 1357.093 4285624982
-34.884403 806.98486 1357.093 4285494675
-32.392662 806.98486 1357.093 4285560468
-28.655045 806.98486 1357.093 4285757081
-24.917431 806.98486 1357.093 4285822623
-22.425688 806.98486 1357.093 4285954465
-19.933945 806.98486 1357.093 4286086051
1.2458715 806.98486 1357.093 4291745535
-69.768806 808.88977 1358.6993 4291154687
-37.376148 808.88977 1358.6993 4285756829
-34.884403 808.88977 1358.6993 4285757081
-28.655045 808.88977 1358.6993 4285888670
-22.425688 808.88977 1358.6993 4286086049
0 808.88977 1358.6993 4291877119
-62.06422 815.2074 1357.486 4290035453
-28.549541 815.2074 1357.486 4286217373
-24.825687 815.2074 1357.486 4286217632
-22.343119 815.2074 1357.486 4286349219
-19.86055 815.2074 1357.486 4286284713
-12.412844 815.2074 1357.486 4284642198
1.2412844 815.2074 1357.486 4291286015
-66.732109 823.88513 1356.9547 4292206591
-64.260551 823.88513 1356.9547 4291614719
-59.317432 823.88513 1356.9547 4290824191
-34.601833 823.88513 1356.9547 4286480811
-28.422935 823.88513 1356.9547 4285891498
-24.715597 823.88513 1356.9547 4285890207
-22.244038 823.88513 1356.9547 4285626778
-19.772476 823.88513 1356.9547 4285494675
-17.300917 823.88513 1356.9547 4285758104
-13.593578 823.88513 1356.9547 4289902308
-9.8862381 823.88513 1356.9547 4292335103
-7.4146791 823.88513 1356.9547 4292269311
-4.943119 823.88513 1356.9547 4291482110
-2.4715595 823.88513 1356.9547 4291350268
4.943119 823.88513 1356.9547 4290890495
-28.422935 825.77466 1358.5479 4284182410
-24.715597 825.77466 1358.5479 4285822623
-22.244038 825.77466 1358.5479 4287138482
-19.772476 825.77466 1358.5479 4289503691
-17.300917 825.77466 1358.5479 4291345639
-13.593578 825.77466 1358.5479 4291876600
-9.8862381 825.77466 1358.5479 4292008447
-7.4146791 825.77466 1358.5479 4291810815
-4.943119 825.77466 1358.5479 4291416574
-2.4715595 825.77466 1358.5479 4291416574
2.4715595 825.77466 1358.5479 4291416575
-32.011009 832.01929 1357.2731 4291544567
-79.121101 760.05103 1360.6848 4283915391
-75.963303 776.50037 1360.166 4284308609
-73.43119 776.50037 1360.166 4284308609
-70.899086 776.50037 1360.166 4284308607
-75.963303 778.43616 1361.7983 4285098120
-73.111923 787.32855 1361.448 4285297553
-37.816513 787.32855 1361.448 4284440712
-35.295414 787.32855 1361.448 4284966532
-72.845871 793.74011 1360.314 4287535044
-40.190826 793.74011 1360.314 4284705165
-37.678898 793.74011 1360.314 4284770959
-35.166973 793.74011 1360.314 4284966805
-32.655045 793.74011 1360.314 4284901011
-75.357796 795.66052 1361.9331 4289117181
-72.845871 795.66052 1361.9331 4288196079
-37.678898 795.66052 1361.9331 4285229709
-35.166973 795.66052 1361.9331 4285360275
-37.51376 802.54413 1359.889 4285427606
-35.012844 802.54413 1359.889 4285427606
-72.260551 810.79474 1360.3055 4291746303
-69.768806 812.69971 1361.9117 4291614975
-67.277061 812.69971 1361.9117 4291351807
-62.06422 817.10535 1359.0863 4290168310
-27.308256 817.10535 1359.0863 4286678181
-24.825687 817.10535 1359.0863 4286678181
-22.343119 817.10535 1359.0863 4286546852
-19.86055 817.10535 1359.0863 4286285226
1.2412844 817.10535 1359.0863 4291482367
-62.06422 819.0033 1360.6866 4290630143
-22.343119 819.0033 1360.6866 4286022305
1.2412844 819.0033 1360.6866 4291416061
-28.422935 827.66418 1360.1411 4285955755
-24.715597 827.66418 1360.1411 4288059853
-22.244038 827.66418 1360.1411 4289836263
-19.772476 827.66418 1360.1411 4291283182
-17.300917 827.66418 1360.1411 4292532991
-14.829358 827.66418 1360.1411 4292402431
-7.4146791 827.66418 1360.1411 4291614462
-4.943119 827.66418 1360.1411 4291548415
-2.4715595 827.66418 1360.1411 4291548415
0 827.66418 1360.1411 4291810559
-28.422935 829.55371 1361.7343 4291022572
-24.715597 829.55371 1361.7343 4291349234
-19.772476 829.55371 1361.7343 4291349755
-81.673393 763.95349 1363.9753 4283979905
-79.121101 764.92914 1364.798 4284110723
-76.56881 764.92914 1364.798 4284111225
-74.01651 764.92914 1364.798 4284111225
-78.779816 773.90149 1364.5149 4284045701
-75.633026 790.21967 1363.8857 4288652241
-40.337616 789.25598 1363.0731 4284375947
-37.816513 789.25598 1363.0731 4284507532
-35.295414 789.25598 1363.0731 4284639109
-72.845871 797.58093 1363.5524 4288786405
-37.678898 797.58093 1363.5524 4285164429
-75.027519 806.36804 1363.1133 4291681535
-72.526604 806.36804 1363.1133 4291549695
-80.029358 808.28003 1364.7255 4293127679
-76.277985 808.28003 1364.7255 4292338175
-69.768806 814.60468 1363.5179 4291944191
-67.277061 814.60468 1363.5179 4291549439
-62.06422 820.90125 1362.2869 4291483135
1.2412844 820.90125 1362.2869 4291219450
0 822.79913 1363.8872 4291482367
-22.244038 831.44324 1363.3275 4291612665
-81.966972 758.39276 1365.8267 4283849857
-81.673393 766.88037 1366.4431 4283914627
-79.121101 766.88037 1366.4431 4283980421
-81.321098 775.8443 1366.1531 4284702081
-78.779816 775.8443 1366.1531 4284899717
-81.321098 777.78717 1367.7913 4285098626
-78.779816 777.78717 1367.7913 4285032577
-78.495415 784.24365 1366.6949 4284178569
-40.51376 784.24365 1366.6949 4284374663
-79.41468 793.11072 1366.3234 4291022079
-75.633026 795.03815 1367.9485 4290299645
-75.357796 799.50128 1365.1716 4290432767
-72.845871 799.50128 1365.1716 4289379837
-75.357796 801.42169 1366.7908 4291483391
-72.845871 801.42169 1366.7908 4290430461
-80.029358 810.19202 1366.3375 4292603647
-76.277985 811.14795 1367.1436 4292536575
-72.526604 811.14801 1367.1436 4292141311
-69.768806 816.50964 1365.1241 4292076287
-12.412844 824.69708 1365.4874 4291941887
-9.930275 824.69708 1365.4874 4291482619
-22.343119 826.59503 1367.0878 4291546870
-17.377981 826.59503 1367.0878 4291810303
-13.654128 826.59503 1367.0878 4291613439
-9.930275 826.59503 1367.0878 4290825471
-7.4477062 826.59503 1367.0878 4291286015
-4.9651375 826.59503 1367.0878 4291417343
-84.528442 763.28845 1369.9546 4283783805
-76.84404 764.26758 1370.7802 4284111227
-74.28257 764.26758 1370.7802 4284111227
-89.330276 770.7829 1369.7336 4283915150
-84.225685 770.7829 1369.7336 4284244360
-81.673393 769.80725 1368.911 4283980164
-79.121101 768.83167 1368.0884 4283848834
-81.321098 779.72998 1369.4293 4284967055
-73.69725 779.72998 1369.4293 4284769412
-71.15596 779.72998 1369.4293 4284901513
-68.614677 779.72998 1369.4293 4284901513
-81.027519 787.14734 1369.1433 4287073989
-78.495415 787.14734 1369.1433 4287929298
-79.41468 796.96558 1369.5736 4291811583
-82.893578 803.34204 1368.41 4293061119
-80.381653 803.34204 1368.41 4292733439
-77.869728 803.34204 1368.41 4292272895
-82.893578 805.26245 1370.0293 4293850623
-75.027519 814.01599 1369.5618 4292204799
-72.526604 814.01599 1369.5618 4292665343
-19.86055 828.49298 1368.6881 4291087615
-17.377981 828.49298 1368.6881 4291350527
-13.654128 828.49298 1368.6881 4291482367
-9.930275 828.49298 1368.6881 4290891007
-84.891747 757.19873 1372.6681 4283914625
-87.089905 766.22583 1372.4314 4282536307
-84.528442 766.22583 1372.4314 4283457409
-76.84404 766.22583 1372.4314 4283914879
-74.28257 766.22583 1372.4314 4283980673
-91.882568 772.73413 1371.3789 4288587225
-89.330276 772.73413 1371.3789 4283586958
-85.501831 772.73413 1371.3789 4284112508
-91.882568 774.68536 1373.0242 4288520919
-89.330276 774.68536 1373.0242 4283520651
-85.501831 774.68536 1373.0242 4284309889
-76.56881 774.68536 1373.0242 4284966532
