# .PCD v0.7 - Point Cloud Data file format
VERSION 0.7
FIELDS x y z rgb
SIZE 4 4 4 4
TYPE F F F U
COUNT 1 1 1 1
WIDTH 1162
HEIGHT 1
VIEWPOINT 0 0 0 1 0 0 0
POINTS 1162
DATA ascii
23.086239 808.01965 800.745 4294834687
25.651377 808.01965 800.745 4294636799
-7.6706419 812.83337 800.87964 4287921786
-4.5455661 811.9646 800.14716 4288842378
-1.7045871 810.87866 799.23151 4289303455
0.5681957 811.9646 800.14716 4289829019
4.2614679 811.53021 799.78088 4290879916
7.95474 811.09589 799.41461 4291473076
11.079817 810.87866 799.23151 4291606463
13.636697 811.53027 799.78094 4291935435
16.193579 812.18182 800.3302 4292593621
19.602753 812.18176 800.33026 4294898941
23.011927 812.83337 800.87964 4294702078
-6.8036699 815.59973 800.59619 4288249983
-3.9688072 815.16632 800.23071 4288907920
-1.7009175 814.29938 799.49976 4289565857
0.85045874 814.94958 800.04797 4289830046
4.2522936 814.94958 800.04797 4290684334
7.6541286 814.94958 800.04797 4291275695
11.055964 814.94958 800.04797 4291606204
13.60734 815.59973 800.59619 4292000452
16.158716 815.59973 800.59619 4292659155
18.710093 815.59973 800.59619 4294502901
-1.6954129 817.79449 798.52258 4289697179
1.6954129 817.79449 798.52258 4289962402
-3.3908257 819.73877 800.16193 4288842120
-1.6954129 819.73877 800.16193 4289565844
1.1302752 819.95477 800.34406 4289699232
4.2385321 819.73871 800.16193 4290224811
7.6293573 819.73877 800.16199 4291079602
13.563303 820.38684 800.70837 4291934657
16.106422 820.38684 800.70837 4292330187
18.649542 820.38684 800.70837 4294305006
-1.6917431 823.13776 800.41187 4289434258
-16.034863 749.35785 802.29602 4291017151
25.833946 747.99573 801.14746 4294242039
28.506422 747.99573 801.14746 4294044146
30.881956 748.90381 801.91315 4294109941
-16.925688 750.71991 803.44446 4285092701
32.069725 750.71991 803.44446 4294176248
33.851376 750.71991 803.44446 4294110199
-16.57737 755.27881 803.36426 4286407530
-13.498715 754.10193 802.37195 4286343275
-10.634862 755.90118 801.27307 4286277506
26.587156 755.90118 801.27307 4294373627
28.359632 755.90118 801.27307 4294372855
31.066973 754.75543 802.26904 4294175732
33.746788 755.73145 803.74585 4294109940
-13.293577 757.93384 802.98694 4287198078
31.018349 757.93384 802.98694 4294109939
-12.368808 760.89447 801.5592 4287789964
-10.601835 760.89447 801.5592 4287463048
28.271559 760.89447 801.5592 4294110199
30.038532 760.89447 801.5592 4294176248
-13.252294 762.92078 803.26764 4287263870
30.922018 762.24536 802.69812 4294241782
33.572475 763.59619 803.83716 4294109940
-12.330276 766.54425 802.3988 4287658368
-10.568808 766.54425 802.3988 4287659396
29.944954 766.54425 802.3988 4294241784
31.706423 766.54425 802.3988 4294307063
-10.53578 770.83051 802.08887 4287790464
29.851376 770.83051 802.08887 4294241789
31.60734 770.83051 802.08887 4294307064
-13.156881 772.927 802.54846 4287132536
-10.513762 773.68103 801.87622 4287527548
29.78899 773.68103 801.87622 4294438650
31.60734 772.17297 803.2207 4294372857
33.363304 772.17297 803.2207 4294438650
-14.018349 775.02069 803.00574 4286868850
31.541285 775.02069 803.00574 4294438650
-19.21468 779.94946 803.23743 4286209378
-16.594496 779.94946 803.23743 4286342252
-13.974312 778.61401 802.11145 4287000180
28.822018 778.61401 802.11145 4294637051
31.442202 779.28174 802.67444 4294570236
33.188992 779.94946 803.23743 4294767615
-16.559633 782.78174 803.00952 4286276711
-13.363914 781.89331 802.26044 4287066482
-10.458715 781.4491 801.88586 4287724157
25.27523 781.4491 801.88586 4294702590
28.761467 782.11542 802.44769 4294504955
-15.638532 787.68384 803.21875 4286604907
-13.321712 786.79828 802.47198 4287131763
-10.425688 786.35541 802.09863 4287724155
26.06422 786.35541 802.09863 4294506231
28.960245 786.79828 802.47198 4294307834
-12.124771 790.58276 801.73901 4287328376
-10.39266 789.92065 801.18079 4287526776
-8.6605501 789.92065 801.18079 4288118913
25.115597 789.92065 801.18079 4294572260
28.291132 790.80347 801.92511 4294439420
-15.588991 792.56909 803.41382 4286473572
-12.977982 793.31189 802.73206 4286999151
25.926605 794.05469 802.05029 4294310605
28.519266 794.05469 802.05029 4294439420
32.044037 792.56909 803.41382 4294307064
-12.099083 795.3761 803.16455 4287460215
-10.337615 797.60034 801.11584 4287329913
-7.753211 797.60034 801.11584 4287922302
0 797.60034 801.11584 4290026912
20.67523 797.60034 801.11584 4294967261
24.982569 797.60034 801.11584 4294440671
28.519266 795.3761 803.16455 4294570750
31.111927 795.3761 803.16455 4294373627
-12.634862 799.79565 802.9668 4287065970
-10.337615 798.91754 802.22644 4287066995
25.844036 798.91754 802.22644 4294440436
28.42844 798.91754 802.22644 4294701820
31.012844 800.23474 803.33704 4294372857
-12.034863 803.02637 803.07483 4287591031
-10.315597 802.36914 802.52069 4287264118
-7.7366972 801.71198 801.96655 4288053628
0 801.71198 801.96655 4289895572
25.78899 801.71198 801.96655 4294768895
28.367889 801.71198 801.96655 4294637051
30.946789 803.02637 803.07483 4294307064
-11.13945 806.5481 802.12024 4287526007
-7.9975533 805.67462 801.38379 4287922045
-4.2844038 805.23792 801.0155 4288908689
0 805.23792 801.0155 4289829531
23.992661 805.23792 801.0155 4294439934
25.706423 805.23792 801.0155 4294637311
28.277063 805.89301 801.56787 4294768637
30.847706 806.5481 802.12024 4294504443
-11.13945 807.85828 803.22485 4287394675
-7.6954126 809.32703 801.84729 4287987066
23.086239 809.32703 801.84729 4294636542
25.651377 809.32703 801.84729 4294504957
28.216515 809.32703 801.84729 4294439420
31.704586 807.85828 803.22485 4294373371
-11.115597 810.6344 802.94971 4287329395
25.651377 810.6344 802.94971 4294373627
28.216515 810.6344 802.94971 4294701822
30.781651 810.6344 802.94971 4294636284
-10.795719 815.00531 802.711 4287198324
-8.5229359 814.78809 802.52789 4287659645
20.455046 814.13654 801.97852 4294636543
23.011927 814.13654 801.97852 4294768126
25.568808 814.13654 801.97852 4294570491
28.125687 814.78809 802.52789 4294636284
30.68257 815.4397 803.07727 4294898943
-7.3706422 817.76703 802.42358 4288053119
-5.1027522 817.55029 802.24084 4288908174
0 816.90009 801.69263 4289501599
11.055964 817.55029 802.24084 4291869115
13.60734 816.90009 801.69263 4292131780
16.158716 816.90009 801.69263 4292396237
19.844038 817.33356 802.05811 4294372089
22.962385 817.55029 802.24084 4294833661
25.513762 817.55029 802.24084 4294571002
27.21468 818.20044 802.78906 4294571004
-10.205504 819.50085 803.8855 4287132009
-7.6541286 819.50085 803.8855 4288184448
-4.2385321 821.68298 801.80127 4288842125
0.84770644 821.68298 801.80127 4289829267
4.2385321 821.68298 801.80127 4290224300
7.6293578 821.68298 801.80127 4290816428
20.344954 821.68298 801.80127 4294306814
22.888073 821.68298 801.80127 4294768125
25.513762 819.50085 803.8855 4294373879
27.21468 819.50085 803.8855 4294373879
-5.0862384 822.97913 802.89417 4288711052
23.684404 824.43109 801.50232 4294768383
25.431192 822.97913 802.89417 4294373627
27.126606 824.27527 803.98706 4294504443
23.684404 825.72443 802.5929 4294965247
25.376146 825.72443 802.5929 4294636284
-21.445871 749.79047 806.58484 4284566345
35.1474 747.51324 804.66479 4293978612
37.530273 749.1073 806.00885 4293978614
39.764221 748.76575 805.72083 4294110452
-19.598166 752.08203 804.5929 4284961103
-17.816513 752.08203 804.5929 4285091417
34.742203 752.08203 804.5929 4293978612
-21.379816 754.80615 806.88989 4285551455
-19.598166 754.12512 806.31567 4286209380
35.633026 753.44409 805.74146 4293978866
37.41468 754.12512 806.31567 4293912818
39.196331 754.12512 806.31567 4293978357
-19.537615 758.44714 806.03577 4286209378
-17.169418 757.54193 805.27246 4286473320
34.930885 757.54193 805.27246 4294044404
-15.952293 760.64392 805.27197 4286999921
-14.179816 759.96643 804.70068 4286737271
34.563301 760.64392 805.27197 4294044404
-16.813763 763.81183 805.98102 4286604907
-14.135779 764.94708 804.9762 4287000180
34.455963 764.94708 804.9762 4294109172
37.222019 762.67657 806.98584 4294372344
-16.78624 766.29791 806.11523 4286605163
37.106422 766.29791 806.11523 4294307316
-16.733946 769.91089 805.23743 4286473834
-13.21101 768.56421 804.10205 4287394938
34.6422 769.01312 804.48047 4294372855
-16.681652 773.51544 804.35266 4286342504
34.241287 773.51544 804.35266 4294438905
36.990826 771.25757 806.37292 4294504697
-21.07156 776.20032 806.61646 4285551705
-19.315596 774.85785 805.48462 4286209630
-16.64679 776.36035 804.13525 4286342504
34.206421 775.60913 804.80994 4294438393
37.460552 775.75287 806.2392 4294635772
-21.027523 779.03961 806.39441 4285355609
35.045872 777.69995 805.26489 4294438650
37.674309 779.03961 806.39441 4294504442
-20.088074 781.95258 804.92651 4285618781
31.442202 781.28485 804.36353 4294702590
34.353516 781.72998 804.73883 4294373369
36.682568 782.6203 805.4895 4294702590
-19.770031 784.50568 805.33514 4285750620
-16.850153 784.55859 804.50775 4286341734
31.376146 784.7807 804.69501 4294373368
33.700306 785.00275 804.88232 4294439162
37.555962 783.95575 806.61548 4294570750
-20.045872 786.7796 806.38049 4285553240
34.862385 786.7796 806.38049 4294636797
36.605503 786.7796 806.38049 4294834175
-19.113762 791.00488 806.01898 4285684576
-16.941742 790.00854 805.17896 4286209888
-13.900917 789.01227 804.33887 4286669933
31.277063 789.01227 804.33887 4294306812
33.883484 789.67651 804.89893 4294571005
-15.588991 793.89331 804.5304 4286671206
-13.856881 793.89331 804.5304 4286604907
32.910091 793.89331 804.5304 4294504957
34.6422 793.89331 804.5304 4294571004
-16.455046 795.87964 806.20514 4286276194
-13.827523 796.69751 804.27869 4286408811
31.976147 796.69751 804.27869 4294439164
34.568806 796.69751 804.27869 4294570237
36.374313 796.54175 806.76343 4294372855
-15.555964 798.01892 805.39282 4286473061
32.840366 798.01892 805.39282 4294570237
34.568806 798.67963 805.94995 4294636027
36.297249 799.34033 806.50708 4294635513
-15.506422 802.21057 805.00305 4286275428
-13.783486 801.55194 804.44775 4286735979
32.735779 802.21057 805.00305 4294636286
34.458717 802.86914 805.55835 4294636284
-16.069725 805.11407 806.57916 4286341473
-13.754128 804.99792 804.73724 4286604391
34.385323 805.65515 805.29138 4294636284
36.730274 805.11407 806.57916 4294636284
-13.710092 809.16846 804.32959 4286605161
32.561466 809.16846 804.32959 4294636284
34.27523 809.16846 804.32959 4294636286
-15.423853 811.78882 806.53906 4286670181
-13.680734 811.94177 804.052 4286605161
-11.970642 811.94177 804.052 4287394420
31.636698 811.94177 804.052 4294899199
35.095413 811.21021 804.74316 4294702077
39.416515 811.78882 806.53906 4294636795
-15.390825 814.55658 806.25671 4286408549
-13.680734 813.24915 805.1543 4286605161
32.491745 813.24915 805.1543 4294965503
35.341896 813.68488 805.52179 4294768127
37.622017 813.90283 805.70551 4294636796
-13.636697 817.39453 804.72546 4286604904
-11.363914 817.17731 804.5423 4286999918
28.977982 817.39453 804.72546 4294636796
31.534863 817.39453 804.72546 4294833919
34.091743 817.39453 804.72546 4294768127
-13.636697 819.34924 806.37366 4286736999
-11.079817 819.34924 806.37366 4287197294
-7.6541286 820.80121 804.98193 4288184193
28.096331 820.0752 805.6778 4294636027
31.534863 819.34924 806.37366 4294899455
34.091743 819.34924 806.37366 4294767615
-11.055964 822.10156 806.07837 4287394932
-8.5045872 822.10156 806.07837 4288118398
28.915596 822.10156 806.07837 4294767615
-25.07156 749.63184 809.06714 4285420371
43.875229 748.26276 807.91272 4294043894
-22.339451 751.8399 808.31287 4285749082
41.104588 751.8399 808.31287 4294175736
43.78532 751.83984 808.31287 4294109687
-21.379816 756.8493 808.61261 4285551705
37.41468 756.16827 808.03833 4294044406
40.384098 756.62231 808.4212 4294109687
43.353516 757.07635 808.80402 4294109686
-21.313761 761.16296 808.32556 4285617750
-19.537615 760.48401 807.75311 4286275426
-17.761467 759.80505 807.18066 4286341734
37.299084 759.80505 807.18066 4294109688
39.667278 760.71027 807.94391 4294241272
-21.313761 762.52081 809.47058 4285880920
-19.497248 764.03162 808.12842 4286209884
38.994495 764.03162 808.12842 4294372857
40.851376 762.52081 809.47058 4294307064
43.515594 762.52081 809.47058 4294504443
-21.269724 765.38672 809.271 4286012506
-19.436697 767.6488 807.25427 4286275678
37.989906 767.6488 807.25427 4294438904
40.766972 765.38672 809.271 4294438904
43.42569 765.38672 809.271 4294438650
46.084404 765.38672 809.271 4294175733
-19.436697 768.99963 808.39319 4285947998
38.873394 768.99963 808.39319 4294504697
40.640366 768.99963 808.39319 4294767613
42.996326 769.90021 809.15253 4294307832
46.824768 770.35052 809.53223 4294373879
-21.137615 772.60419 807.50842 4285486164
38.752293 772.60419 807.50842 4294570491
40.51376 773.27753 808.07617 4294438904
43.155964 773.95087 808.64392 4294373879
-22.899082 775.29749 809.7793 4285289299
43.155964 775.29749 809.7793 4294505209
46.678898 775.29749 809.7793 4294439415
-22.827522 778.88519 808.88037 4285290066
40.387157 778.21399 808.31439 4294636539
42.14312 778.88519 808.88037 4294767867
38.550457 780.37927 807.52393 4294571002
40.302753 781.71893 808.65356 4294636286
-22.779816 783.05853 809.78308 4285356109
38.429359 785.2912 807.74146 4294570750
40.302753 783.05853 809.78308 4294570750
-22.708258 786.62659 808.86743 4285421652
-20.917431 788.11224 807.50403 4285356120
37.517433 787.36938 808.18573 4294374140
40.176147 787.29431 809.43048 4294571005
-22.660551 790.11121 809.18951 4285355091
-20.917431 790.11121 809.18951 4285223512
37.477066 789.44489 808.62769 4294504955
40.091743 790.77753 809.75134 4294569720
-19.113762 793.66174 808.25916 4285750111
-17.376146 792.9975 807.6991 4285947998
37.648319 793.44037 808.07245 4294372856
-19.952293 796.76013 808.90967 4285749849
-17.3211 797.86597 807.88 4286078049
38.106422 797.86597 807.88 4294438650
40.770641 796.76013 808.90967 4294175478
-19.053211 799.19012 808.99646 4285684322
-17.284403 800.66174 807.62122 4286012256
37.161469 800.66174 807.62122 4294504699
40.704586 799.19012 808.99646 4294372856
-19.877064 802.64386 809.29248 4285486424
40.618347 802.64386 809.29248 4294504696
-18.952293 806.16211 808.33496 4286012508
-17.229359 805.50354 807.77966 4286012508
37.904587 805.50354 807.77966 4294570491
40.201832 806.38165 808.52002 4294636283
-16.619572 808.72211 807.87738 4286144094
37.823853 808.28394 807.50793 4294636795
41.262386 809.59833 808.61621 4294570237
-18.911926 810.91272 809.72449 4285749079
41.262386 810.91272 809.72449 4294176248
-18.851376 815.71942 809.85315 4285749850
-16.555351 814.45746 807.91705 4285947486
35.911926 815.86395 807.35901 4294636286
37.622017 815.86395 807.35901 4294570750
39.959637 814.45746 807.91705 4294504700
42.844036 815.71942 809.85315 4294636799
-16.530888 817.60712 808.82886 4286079584
35.911926 817.17133 808.46143 4294833407
37.622017 817.17133 808.46143 4294702591
40.187157 817.82501 809.01257 4294504957
-15.909481 821.52118 808.20508 4286144611
-13.636697 820.6524 807.47253 4286671467
31.81896 821.08673 807.83881 4294899455
34.944038 821.30396 808.02197 4294899455
37.500916 821.30396 808.02191 4294833407
-16.193579 823.25873 809.67004 4286013539
-13.60734 823.40192 807.1748 4286671467
-11.055964 823.40192 807.1748 4287592311
28.065138 823.40192 807.1748 4294701561
31.206728 823.7876 808.37207 4294965247
34.944038 823.25873 809.67004 4294966527
-25.07156 751.00092 810.22156 4285420119
-25.045872 753.81421 811.28558 4285223767
-23.233028 754.57251 810.61694 4285355609
44.678898 753.88934 810.04089 4294306810
-25.020184 756.62195 812.34497 4285157974
-23.161469 758.89246 810.33533 4285223767
43.650459 758.89246 810.33533 4294503675
-24.943119 761.61658 812.63232 4285223767
-23.161469 760.25452 811.48376 4285223767
-23.089909 763.87872 810.61548 4285289816
-24.866055 766.59448 812.90527 4285420371
-22.179817 765.9892 811.08698 4285487193
44.311928 766.74182 810.41357 4294373627
46.970642 766.74182 810.41357 4294504698
-23.042202 768.09686 811.55615 4285486164
-22.970642 771.70142 810.67126 4285223767
46.824768 771.70142 810.67126 4294373879
-24.737616 774.40314 812.94934 4285158224
44.036697 776.64417 810.91479 4294636282
46.678898 776.64417 810.91479 4294439164
49.321102 776.64417 810.91479 4294504697
44.036697 777.99084 812.05029 4294636284
45.798164 777.99084 812.05029 4294307832
-24.583487 782.91254 812.27612 4284961101
-22.827522 780.22766 810.01221 4285290829
42.728443 781.57013 811.14423 4294636284
-24.53211 785.73785 812.04211 4285091919
42.055046 785.06799 811.47736 4294636540
-24.455046 789.96521 811.6825 4285026385
41.922935 789.29749 811.11951 4294372855
43.669724 790.63293 812.24548 4294570237
-22.660551 792.77643 811.43683 4285290070
-20.917431 792.11011 810.875 4285355609
40.963303 792.11011 810.875 4294372857
43.57798 793.44275 811.99866 4294175735
-22.588991 796.98279 811.05945 4285288528
-20.851376 796.98279 811.05945 4285223771
43.440369 796.98279 811.05945 4294438904
-22.588991 798.31122 812.17944 4285420369
-20.78532 800.51434 810.11304 4285157974
41.570641 800.51434 810.11304 4294373109
43.302753 800.51434 810.11304 4294438902
45.177982 798.31122 812.17944 4294307062
-22.517431 802.50067 811.7879 4285354576
43.302753 801.83856 811.22961 4294570488
45.034863 803.16278 812.34619 4294372596
-22.469725 805.94739 812.07788 4285157199
-20.741285 804.62598 810.96375 4285354322
44.07523 805.28668 811.52081 4294570490
-22.398165 809.45514 811.11145 4285157453
-20.10092 808.57697 810.37109 4285617750
43.073395 808.79651 810.55615 4294438907
-22.398165 810.77234 812.22217 4285158224
-19.771561 812.22711 810.83264 4285420884
43.888992 811.49976 811.5274 4294701820
-22.350458 813.5415 811.94092 4285224273
-20.631193 813.5415 811.94092 4285420884
-19.708256 817.68469 811.51025 4285749335
42.844036 817.68469 811.51025 4294899199
-18.811008 820.43976 811.21729 4285814871
37.622017 821.09344 811.76843 4294768383
40.187157 820.43976 811.21729 4294702078
-18.811008 822.40082 812.87085 4286012506
-16.193579 824.56189 810.76892 4286079584
32.387157 824.56189 810.76892 4294965503
35.001835 823.48132 811.81989 4294768383
37.622017 822.40082 812.87085 4294834175
40.187157 822.40082 812.87085 4294636542
-28.741285 752.83777 815.69434 4284895823
-26.944954 750.77777 813.95746 4284961364
-26.862385 755.10828 813.68469 4284961616
-28.653212 757.84644 815.99353 4284895569
-25.941284 757.23279 814.16803 4285092438
-26.807339 760.03772 815.22504 4284961361
-25.833946 763.65979 814.35498 4285157715
-24.866055 767.95233 814.05029 4285157974
-25.728439 770.05859 814.51819 4285157712
-24.737616 775.75397 814.08838 4284961864
47.708256 775.75397 814.08838 4294242039
49.475231 775.75397 814.08838 4294175733
-25.582569 778.22119 814.20654 4284895048
44.036697 779.33746 813.18579 4294899455
46.678898 779.33746 813.18579 4294504697
49.321102 779.33746 813.18579 4294109686
-33.467892 782.03082 815.45667 4284698699
-31.706423 781.35748 814.88892 4284763980
-29.357798 781.13306 814.69971 4284829772
-26.422018 780.68414 814.32117 4284961101
46.972473 781.13306 814.69971 4294505467
49.321102 781.35748 814.88892 4294241525
-28.680735 785.14996 814.1626 4284830026
-26.339449 784.92627 813.97394 4285026637
43.899082 784.255 813.40796 4294570491
46.240368 785.14996 814.1626 4294439159
50.337616 785.14996 814.1626 4294307577
-28.973394 786.93988 815.67188 4284764485
-26.339449 786.93988 815.67188 4284961101
43.807339 787.07751 813.17175 4294438904
46.485321 787.67847 814.98657 4294373109
49.166973 786.93988 815.67188 4294307064
-28.036697 789.75677 815.43079 4285026124
-25.369724 790.86255 814.40112 4285026382
46.36422 790.86255 814.40112 4294241526
-27.948624 794.63922 815.62354 4285025611
-25.328442 793.30377 814.49756 4285026383
46.242203 794.03955 813.80994 4294373371
49.783485 793.30377 814.49756 4294109688
-27.889908 797.44067 815.36951 4284959820
-25.56575 796.55225 814.62042 4285157197
47.06422 796.10803 814.24597 4294438904
49.969418 796.55225 814.62042 4294043637
-24.905809 800.52521 814.04633 4285091405
46.336395 800.08246 813.67291 4294504439
48.65321 800.30383 813.85962 4294306552
-27.801834 802.29645 815.53979 4284894273
-26.06422 802.29645 815.53979 4285026115
-25.115597 805.14911 814.02094 4285025865
46.766972 804.487 813.46265 4294636284
48.499084 805.14911 814.02094 4294438651
-27.684404 808.52356 815.55811 4284829515
-25.062386 808.59021 814.30627 4284960844
44.939449 807.2688 813.19214 4294504697
46.667889 807.9295 813.74921 4294570489
49.006729 808.98627 815.51221 4294372602
-24.121101 812.08954 813.33276 4285026894
44.796329 812.08954 813.33276 4294767615
46.519264 812.08954 813.33276 4294636286
-27.566973 814.72394 815.55396 4284829515
-24.982569 814.06531 814.99866 4285091914
-22.350458 814.8559 813.04919 4285420619
-20.631193 814.8559 813.04919 4285486164
44.700916 814.8559 813.04919 4294833407
46.519264 813.40674 814.44336 4294636286
49.103668 814.06531 814.99866 4294569467
-22.350458 816.82751 814.71161 4285289036
-20.631193 817.48468 815.26575 4285354322
44.700916 816.82751 814.71161 4294767614
46.420185 816.82751 814.71161 4294636285
48.999084 817.48468 815.26575 4294833407
42.844036 820.30505 813.71973 4294899455
47.128441 820.96014 814.27209 4294636542
49.699081 820.96014 814.27209 4294768383
-18.811008 823.70819 813.97314 4286275164
35.911926 823.70819 813.97314 4294965247
37.622017 823.70819 813.97314 4294899455
40.187157 823.70819 813.97314 4294702334
42.844036 822.27032 815.37671 4294966271
47.128441 822.27032 815.37671 4294636542
49.699081 822.27032 815.37671 4294965759
-30.631193 751.25598 818.28473 4284829774
-30.537615 755.58435 818.01025 4284895821
-28.741285 754.21106 816.85229 4284895571
-28.653212 759.90015 817.72504 4284961103
-26.724771 765.70288 816.07776 4285091919
-30.288073 768.42706 818.37463 4285026126
-28.506422 768.42706 818.37463 4285091919
-26.642202 770.66809 816.34009 4285157712
-30.194496 772.026 817.48499 4284895310
-28.418348 772.026 817.48499 4284829776
-26.587156 773.51715 816.12634 4284829776
-31.018349 774.87225 817.26892 4284895310
-28.359632 774.87225 817.26892 4285026124
-33.467892 784.05078 817.15991 4284501834
-31.706423 784.05078 817.15991 4284436542
-34.348625 786.0708 818.86304 4284698445
-31.60734 788.28235 816.80371 4284698949
-29.851376 788.28235 816.80371 4284830278
49.166973 788.28235 816.80371 4294307064
-34.241287 789.62482 817.93567 4284828748
-31.60734 789.62482 817.93567 4284632650
-28.944036 790.3606 817.24805 4284763980
-31.541285 793.7757 818.81946 4284828748
-29.78899 792.43604 817.68994 4284697673
-31.442202 797.31006 817.87549 4284697673
-29.695414 795.97467 816.74951 4284762955
52.403671 796.64233 817.3125 4294109942
-31.376146 800.1059 817.61682 4284828748
-29.051987 799.21747 816.86768 4284829003
50.550457 799.43958 817.05499 4294241274
-31.376146 801.43854 818.74048 4284829515
-28.670643 803.62488 816.65979 4284894792
50.550457 801.43854 818.74048 4294372857
-31.277063 805.61755 818.33997 4284895048
-29.53945 804.95331 817.77991 4284960581
-31.177982 809.78381 817.92883 4284829515
-29.445871 808.45966 816.81226 4284829515
-31.111927 812.55444 817.6488 4284763970
-28.807341 811.67352 816.90607 4284894792
-31.111927 813.87585 818.76294 4284763457
-28.428438 817.35834 817.77521 4284763465
-24.982569 817.35834 817.77533 4285091916
-22.374311 818.7373 817.62994 4285354573
-20.631193 818.79907 816.37402 4285617748
44.700916 818.79907 816.37402 4294438650
-20.631193 820.11346 817.4823 4285551185
44.127827 820.98975 818.22119 4294702078
46.420185 821.42786 818.59058 4294833406
48.999084 821.42786 818.59058 4294833407
37.702751 823.58051 816.48145 4294833407
40.273396 823.58051 816.48145 4294636286
-34.234863 754.01099 820.60773 4284763725
-32.433029 754.01099 820.60773 4284764235
-31.136391 757.87323 819.94019 4284829775
-31.388992 760.82898 820.47034 4284895823
-28.653212 761.95374 819.45667 4285091919
-30.381651 764.8197 819.25708 4285091919
-28.594496 764.8197 819.25708 4285091919
-34.241287 790.96729 819.06763 4284763468
-31.60734 790.96729 819.06763 4284697673
-34.241287 792.30969 820.19946 4284828748
-34.461773 795.56183 820.32562 4284632395
52.568806 796.45496 821.07861 4294307062
-33.188992 799.31323 819.56451 4284829003
52.403671 799.98096 820.12756 4294438391
-33.119267 802.77118 819.86414 4284829515
50.550457 802.77118 819.86414 4294307064
52.403671 801.31641 821.25354 4294372344
-33.119267 804.10382 820.98779 4284829515
-33.014679 808.27429 820.5802 4284763210
-32.910091 812.43225 820.16199 4284763722
-32.011009 814.47687 820.57782 4284763979
-31.976147 816.51862 820.99133 4284895309
-34.458717 819.99274 819.99646 4284829515
-31.874311 820.65137 820.55188 4284894279
-28.42844 820.65137 820.55182 4284959816
-25.269724 820.87085 820.737 4285156683
-22.398165 820.65137 820.55182 4285221960
-20.67523 820.65137 820.55182 4285484615
37.904587 821.30994 821.10718 4294636286
36.104588 822.74225 819.69885 4294767102
40.402752 822.74225 819.69885 4294636285
43.841286 822.74225 819.69885 4294636282
46.420185 823.39941 820.25293 4294767868
48.999084 823.39941 820.25293 4294899455
46.420185 825.37103 821.91528 4294833406
48.999084 825.37103 821.91528 4294899967
-34.234863 756.07733 822.34998 4284698193
-36.990826 792.80408 824.54041 4284829265
-36.875229 797.0083 824.16119 4284959566
-35.045872 797.79462 822.20813 4284763722
-36.798164 800.47394 824.46729 4284959820
-35.045872 799.13428 823.33765 4284697673
-34.93578 803.31958 822.9425 4284829003
-34.862385 806.76904 823.23499 4284697673
-34.862385 808.10168 824.35864 4284763722
-34.6422 815.08069 822.39502 4284829515
-24.198166 817.84003 822.10547 4285222726
-36.297249 819.16144 823.21973 4284829515
-34.568806 819.16144 823.21973 4284959818
-36.181652 823.28577 822.77307 4284894792
-34.458717 823.28577 822.77307 4285091397
-31.874311 822.62714 822.21777 4284960325
-28.42844 822.62714 822.21777 4285750610
-24.982569 823.28577 822.77307 4286210390
-22.398165 823.28577 822.77307 4286209621
-20.67523 822.62714 822.21777 4287589989
37.904587 822.62714 822.21777 4294767102
40.488991 823.28577 822.77307 4294701565
43.93486 823.28577 822.77307 4294701821
43.93486 825.26154 824.43909 4294702078
46.519264 825.26154 824.43909 4294636797
48.242203 825.26154 824.43909 4294767613
-34.862385 809.43433 825.4823 4284829515
-31.976147 821.80426 825.448 4285026121
-32.840366 823.12567 826.56226 4285550408
44.796329 826.57874 825.54968 4294636797
46.519264 826.57874 825.54968 4294768383
-28.761467 816.09747 831.10046 4285881941
-31.60734 812.44641 837.17822 4284828748
-28.973394 812.44641 837.17822 4283710001
-26.339449 812.44641 837.17822 4283314977
-33.572475 809.52563 842.56372 4284368934
-30.922018 809.52563 842.56372 4283314241
-28.359632 807.39398 844.69043 4282788903
-25.700916 807.39398 844.69043 4282657061
47.708256 813.57825 845.98071 4294832893
49.321102 815.6972 843.84338 4294767100
-31.082569 808.00977 847.82562 4282986546
-33.677063 811.45923 848.11816 4283248950
-33.572475 814.92908 847.11975 4283118897
49.475231 814.92908 847.11975 4294767102
-36.990826 818.39056 846.11426 4283644473
-34.400917 817.33527 847.18652 4283316019
-30.922018 816.27997 848.25879 4283316526
49.475231 816.27997 848.25879 4294372857
51.242203 816.27997 848.25879 4294438650
-36.990826 819.73718 847.24976 4283513657
-35.229359 819.73718 847.24976 4283578680
51.082569 820.41052 847.8175 4294503673
-23.233028 803.07599 851.51379 4283118127
-28.506422 805.88446 849.95776 4283052334
-26.130888 805.65747 849.76636 4282986798
-28.506422 807.92761 851.68054 4283118127
46.322937 807.92761 851.68054 4294832893
-31.050459 811.43042 849.40192 4283118124
-28.418348 811.40448 850.68799 4283183920
-26.642202 812.76233 851.83289 4283316276
47.955963 812.08337 851.26044 4294570746
-28.359632 814.16937 850.4032 4283316276
47.85688 815.52441 851.54578 4294438902
-37.989906 818.98169 850.53674 4283778626
-34.161469 818.53143 850.15704 4283710780
-30.922018 818.30627 849.96729 4283644980
-28.271559 818.30627 849.96729 4283513399
49.475231 818.30627 849.96729 4294503930
-37.989906 820.33252 851.67578 4283910464
-35.339451 820.33252 851.67578 4283908159
-30.922018 820.33252 851.67578 4283842618
-28.271559 820.33252 851.67578 4283842618
49.475231 820.33252 851.67578 4294635513
-34.05505 823.32831 850.27765 4284237379
51.082569 823.10382 850.08838 4294635515
-34.348625 825.12384 851.79163 4284435270
43.875229 803.02679 854.08838 4294504700
46.561466 803.02679 854.08838 4294636797
-25.6159 805.35321 853.4339 4283118384
-23.233028 805.12543 853.24188 4283118384
44.678898 805.80859 853.81787 4294504443
-25.872478 808.2323 853.89941 4283250228
-23.233028 807.17487 854.96985 4283250230
44.678898 807.17487 854.96985 4294504443
46.322937 809.28967 852.82898 4294636284
-24.943119 810.65173 853.97742 4283250226
46.322937 810.65173 853.97742 4294571002
-25.754128 814.79919 853.55029 4283513396
46.179817 815.47809 854.1228 4294372344
-26.587156 817.55707 853.25964 4283776314
47.85688 816.87952 852.68835 4294569466
-37.106422 821.68341 852.81482 4284369979
-30.922018 821.68341 852.81482 4284040767
-28.271559 821.68341 852.81482 4284040766
-25.700916 819.58966 854.97351 4284040766
47.85688 819.58966 854.97351 4294635513
49.475231 821.68341 852.81482 4294701309
-30.922018 823.0343 853.95386 4284304186
-28.271559 823.0343 853.95386 4284238650
42.979816 805.08044 855.82001 4294307064
-23.233028 808.5412 856.12195 4283316276
43.807339 808.87256 857.0553 4294503930
-24.943119 812.01385 855.12598 4283448627
-23.161469 812.01385 855.12598 4283448627
46.322937 812.01385 855.12598 4294636282
-23.161469 814.05701 856.84863 4283842360
44.541283 814.05701 856.84863 4294372598
-24.866055 816.836 855.2677 4283908411
-23.089909 818.19385 856.4126 4284106560
46.771866 817.28857 855.64935 4294438134
-25.700916 820.94476 856.11609 4284172601
-23.089909 819.55176 857.5575 4284238650
47.018349 820.24829 856.83679 4294635514
-34.455963 824.38513 855.0929 4284370760
-30.922018 824.38513 855.0929 4284501063
-28.271559 824.38513 855.0929 4284501063
-25.700916 822.2998 857.25867 4284435522
47.85688 822.2998 857.25867 4294570491
-33.572475 825.73602 856.23181 4284632652
-30.922018 825.73602 856.23181 4284632652
-28.271559 825.73602 856.23181 4284632650
43.508255 791.76208 860.28662 4294504443
45.321102 791.76208 860.28662 4294767615
-21.688074 796.65717 860.48987 4283118127
40.665138 795.96631 859.90741 4294569978
43.376148 795.27545 859.32495 4294438650
-21.622019 800.1579 859.51758 4283250230
41.442204 799.46912 858.93683 4294634745
-21.622019 801.5354 860.67908 4283315770
40.477982 802.59277 859.60858 4294371577
-21.555964 805.71014 860.27502 4283447603
41.315598 805.71014 860.27502 4294240757
-21.489908 809.87231 859.86035 4283776309
41.188992 809.87231 859.86035 4294372342
-21.445871 812.64008 859.578 4283908411
42.891743 811.95691 859.00201 4294306549
-21.445871 814.00635 860.72998 4284106560
42.891743 814.00635 860.72998 4293713898
-40.087158 817.46216 859.71973 4284501321
-37.41468 818.14325 860.29407 4284369732
-21.379816 818.14325 860.29407 4284304444
43.828621 817.73456 859.94952 4294174962
-23.089909 820.90961 858.70251 4284435774
46.179817 820.90961 858.70251 4294175733
-25.700916 823.65491 858.40125 4284632903
-23.089909 822.94641 860.41986 4284698696
46.179817 822.26752 859.84741 4294240756
-30.132111 825.6875 860.11499 4284830794
-28.359632 825.6875 860.11499 4284830028
-25.405504 825.46167 859.92456 4284961357
40.205505 783.28339 863.60193 4294767102
38.262386 788.20935 863.83118 4294965503
40.663609 787.75537 862.57642 4294504444
43.640366 788.2403 861.24133 4294504443
38.185322 791.02057 863.58557 4294767102
41.822018 789.63043 862.41345 4294438652
-21.754128 793.14801 861.4552 4283118127
38.069725 794.53394 862.62378 4294701309
39.882568 793.14801 861.4552 4294636286
45.321102 793.14801 861.4552 4294767615
-19.941284 795.91986 863.79236 4283250230
38.069725 795.91986 863.79236 4294635259
-19.880733 800.11145 863.40247 4283316023
37.351685 800.3418 863.59668 4294306549
39.761467 798.03888 861.65491 4294436854
39.640366 802.9129 861.84058 4294240758
-19.820183 804.29047 863.00208 4283644723
37.838531 804.29047 863.00208 4294701304
39.640366 804.29047 863.00208 4294306549
-19.759632 807.77014 862.01196 4283776309
-17.963303 809.14343 863.16992 4283974208
39.519264 808.45679 862.59094 4294306549
-19.699083 811.9259 861.59198 4284040510
41.188992 811.9259 861.59198 4294109426
-19.699083 813.97961 863.32349 4284239163
40.251377 814.67615 862.60278 4294241523
-19.658716 816.73895 863.03406 4284435774
41.104588 816.73895 863.03406 4294240240
-21.379816 820.86743 862.591 4284698691
-19.598166 821.54846 863.16528 4284896071
43.650459 820.86743 862.59094 4294241009
-26.642202 824.98328 862.13721 4285158224
-23.089909 824.98328 862.13721 4285158224
-30.132111 827.72009 861.82886 4285028693
-28.359632 827.72009 861.82886 4285092167
-25.700916 827.72009 861.82886 4285289551
-23.089909 826.34113 863.28223 4285289299
-24.814678 829.0752 862.97144 4285290329
-7.4422016 759.0639 866.7251 4288315522
29.592661 766.94629 865.52325 4294702074
31.442202 766.23926 864.92712 4294899453
31.348623 769.81433 864.01746 4294899453
33.192661 769.81433 864.01746 4294965503
34.114677 771.92896 865.80042 4294965503
36.880733 771.22412 865.20605 4294965247
34.93211 776.19214 865.47083 4294965247
37.383484 775.25513 864.68085 4294964991
34.93211 777.59772 866.65601 4294899199
37.632111 778.66986 865.59796 4294832895
-21.99633 782.54474 866.90308 4282657313
-20.163303 782.54474 866.90308 4282591520
34.827522 782.54474 866.90308 4294832895
37.577065 781.14337 865.72156 4294833407
37.464218 784.68054 864.77991 4294833406
36.550457 786.0777 865.95801 4294636282
-19.131193 790.29877 865.59296 4283118637
-16.398165 790.99524 866.18018 4283119147
34.618347 790.99524 866.18018 4294636284
36.440369 789.60229 865.00574 4294306551
-19.092661 793.10583 865.34375 4283184177
36.366974 793.10583 865.34375 4294503673
36.256882 797.30579 864.96094 4294372344
-18.128441 798.69177 866.12964 4283447862
-16.315596 798.69177 866.12964 4283513655
34.444038 798.69177 866.12964 4294306551
-18.073395 802.18408 865.15002 4283514420
-16.266054 802.87494 865.73254 4283711287
-14.458715 803.5658 866.31506 4283908411
34.339451 803.5658 866.31506 4294569207
36.14679 802.87494 865.73254 4294240754
-18.018349 805.66797 864.16357 4283842618
37.838531 805.66797 864.16357 4294306549
-16.216515 807.73425 865.9057 4284106049
-14.414679 808.42297 866.48645 4284172099
36.937614 807.73419 865.9057 4294307320
-17.364527 811.43231 865.09979 4284238655
37.722935 811.89008 865.48572 4294438902
39.519264 810.51672 864.32776 4293978353
-17.037615 814.30603 865.56079 4284501567
37.722935 813.26337 866.64368 4294109167
39.398167 815.34869 864.47791 4294108654
-19.658716 818.10522 864.18616 4284567361
-16.714373 817.17413 866.01709 4284502347
35.816513 818.08691 866.78674 4293780203
37.607338 817.40234 866.20953 4293780204
40.21101 818.10522 864.18616 4293977838
-17.275841 820.38239 866.10614 4284830794
37.530273 820.83783 866.49011 4293846252
40.21101 820.15466 865.91412 4293911276
-21.379816 823.59155 864.88794 4285093197
-19.598166 823.59155 864.88794 4285092941
43.353516 823.36456 864.69653 4294174961
-28.418348 827.69904 864.42712 4284633935
-26.642202 827.69904 864.42712 4284831314
-22.234863 826.66687 865.51892 4285355605
-28.418348 829.05688 865.57202 4286015318
-25.754128 829.05688 865.57202 4285489237
-23.089909 829.73584 866.14447 4285554266
-19.537615 829.05688 865.57202 4285881433
-3.73211 755.4635 867.61353 4288841609
-1.8715596 753.28558 869.70117 4289499282
-4.6651373 756.89014 868.81641 4288907918
-9.3027525 761.19751 868.52411 4288315776
-7.4422016 761.19751 868.52411 4288381317
-5.5816512 761.19751 868.52411 4288841868
-13.912844 764.07397 867.02551 4287132018
-11.130275 764.07397 867.02551 4287789432
27.825687 764.07397 867.02551 4294504697
-16.695414 766.9104 869.41699 4286671206
-13.912844 766.20129 868.81909 4287000687
-11.130275 766.20129 868.81909 4287527025
27.825687 766.20129 868.81909 4294767868
-19.111925 770.00995 868.10638 4285815631
-16.645872 770.48126 868.50378 4286342486
-12.946789 770.48126 868.50378 4287527276
-11.097248 770.48126 868.50378 4287789680
29.592661 769.77429 867.90765 4294569979
31.442202 769.77429 867.90765 4294701565
-19.420183 771.89526 869.69604 4286405206
-16.645872 771.89526 869.69604 4286867035
-13.871559 771.89526 869.69604 4287525985
-11.097248 771.89526 869.69604 4288249466
28.667891 771.89526 869.69604 4294701822
-19.362385 775.45349 868.77222 4287459169
-16.596331 776.15839 869.36658 4287130974
-13.830275 776.15845 869.36658 4287921001
-10.449542 776.39337 869.5647 4288251507
-7.3761468 776.86328 869.96094 4289040517
31.348623 775.45343 868.77222 4294767614
33.192661 774.7486 868.17786 4294899455
-22.062386 779.0033 867.84119 4286275414
-19.304588 779.0033 867.84119 4286341719
34.012844 779.0033 867.84119 4294898687
-18.385321 780.40887 869.02637 4282591520
-16.546789 780.40887 869.02637 4282525726
-13.788991 780.40887 869.02637 4282525967
31.255045 780.40887 869.02637 4294635259
33.093578 780.40887 869.02637 4294701309
-22.912844 783.94611 868.08472 4282723108
-19.246788 783.94611 868.08472 4282788899
-16.497248 783.94611 868.08472 4282591520
-14.66422 784.64679 868.67554 4282854697
32.383488 784.88037 868.8725 4294438904
34.827522 783.94611 868.08472 4294570491
-18.275229 787.47485 867.13599 4283053354
-16.447706 787.47485 867.13599 4283053354
-14.620184 788.87201 868.31409 4283183920
31.981651 788.87201 868.31409 4294438903
34.722935 787.47485 867.13599 4294504697
28.326607 790.26917 869.49207 4294372601
31.06789 790.26917 869.49207 4294307062
-16.398165 792.38818 867.35474 4283250226
-14.576147 793.08466 867.94196 4283316272
32.188992 793.31683 868.1377 4294438394
34.618347 792.38818 867.35474 4294372857
-18.183487 795.19104 867.10193 4283382069
-16.365137 795.19104 867.10193 4283382069
-13.34312 796.5755 869.1413 4283514423
29.152294 795.17407 869.70374 4294569720
32.144955 796.5755 869.1413 4294372343
34.548622 795.19104 867.10193 4294372092
-14.502752 800.0777 867.29822 4283646520
34.444038 800.0777 867.29822 4294240758
-12.689908 801.46362 868.4668 4284040253
-10.877064 802.84955 869.63538 4283910208
31.72477 802.15662 869.05109 4294438134
-13.253822 805.40802 867.86847 4284106560
-10.844037 806.32922 868.64514 4284369477
32.532108 805.63837 868.06262 4294504437
34.339451 805.63837 868.06262 4294701816
-13.513762 809.80054 867.64795 4284435270
-9.9403667 807.71094 869.81018 4284239174
-7.2293577 807.71094 869.81018 4284304967
31.628441 807.71094 869.81018 4294307316
34.234863 809.80054 867.64795 4294438902
36.036697 809.80054 867.64795 4294373109
-13.213455 811.63721 869.19659 4284370760
-10.811009 811.86682 869.3902 4284632650
31.832418 812.09637 869.5838 4294372853
34.234863 811.17804 868.80945 4294307316
36.036697 811.17804 868.80945 4293977838
-14.370643 814.63666 867.80164 4284436554
35.028442 814.63666 867.80164 4294175474
-13.472477 816.01001 868.95959 4284634189
-10.777982 816.01001 868.95959 4284895821
32.333946 816.01001 868.95959 4294174962
34.130276 816.01001 868.95959 4294174962
-14.326606 820.82513 869.09546 4285224273
34.921101 820.14056 868.51825 4293977839
-19.658716 823.57043 868.79419 4285420882
-17.156696 823.29718 868.56384 4285224274
37.530273 823.57037 868.79425 4293911534
40.032295 823.29718 868.56384 4294108401
-21.379816 826.99683 867.75916 4285552468
-16.034863 826.99683 867.75916 4285685594
-21.379816 828.35889 868.90759 4286012506
-19.598166 828.35889 868.90759 4286012506
-16.925688 828.35889 868.90759 4286080082
0.93853211 751.8252 872.39392 4289894044
4.6926603 752.54266 872.9989 4290618027
7.5082569 752.54266 872.9989 4290882221
10.323853 752.54266 872.9989 4291276469
13.139449 751.8252 872.39392 4292065474
15.642201 752.06439 872.59552 4292066241
19.709175 752.54266 872.9989 4292858590
22.524771 752.54266 872.9989 4293978101
-1.8715596 754.71637 870.90771 4289302421
-3.73211 758.31671 870.01929 4288908429
-1.866055 758.31671 870.01929 4289566359
0 756.14722 872.11414 4289697177
20.587156 756.14722 872.11414 4293778921
22.458715 756.14722 872.11414 4293912308
25.227524 757.23193 871.06671 4294899199
27.990826 758.31671 870.01929 4294570237
-3.73211 759.74335 871.22217 4289040015
-1.866055 759.74335 871.22217 4289632152
20.526606 761.16992 872.42505 4293317855
22.39266 761.16992 872.42505 4293714159
24.880732 760.21893 871.62311 4294899454
-9.3027525 764.04236 870.92279 4288316797
-7.4422016 764.04236 870.92279 4288512905
-4.6513758 764.04236 870.92279 4288973968
-1.8605504 764.04236 870.92279 4289566617
25.427523 764.27948 871.12274 4294899198
-4.6513758 766.1759 872.7218 4289104779
-1.8605504 766.1759 872.7218 4289960602
24.187157 766.1759 872.7218 4294963711
-14.840367 768.32861 870.61279 4286343258
-9.2752295 769.03772 871.21069 4288644991
-7.4201837 769.03772 871.21069 4288907648
-4.6376147 769.74677 871.80859 4289433735
-1.8550459 769.74677 871.80859 4290157467
25.352295 769.27411 871.40997 4294832895
27.825687 768.32861 870.61279 4294767102
-9.2477064 773.3092 870.88831 4289237380
-7.3981652 773.3092 870.88831 4289698701
-4.6238532 773.3092 870.88831 4289961367
25.893578 773.3092 870.88831 4294767615
28.667891 773.3092 870.88831 4294636286
-4.6238532 774.72321 872.08057 4289961114
-1.8495413 774.72321 872.08057 4290750381
24.968807 774.72321 872.08057 4294898941
28.667891 774.72321 872.08057 4294636285
-9.8348627 778.74298 871.54572 4281870611
-7.3761468 778.97797 871.7439 4282986538
-4.6100917 778.97797 871.7439 4284236852
-1.8440367 778.97797 871.7439 4286079046
23.972477 779.68286 872.33826 4294766066
25.816513 779.68286 872.33826 4294504697
28.582569 778.97791 871.7439 4294372600
-12.869725 781.81445 870.21143 4282590754
-11.031193 781.81445 870.21143 4281673502
31.255045 781.81445 870.21143 4294504443
-12.869725 783.22003 871.39661 4283249713
-10.111927 783.92285 871.9892 4282922290
-7.3541284 783.92285 871.9892 4283118386
-4.5963302 784.62561 872.58179 4283183663
-1.8385321 784.62561 872.58179 4283051559
20.223854 784.62561 872.58179 4293184211
22.981651 784.62561 872.58179 4293909992
25.73945 784.62561 872.58179 4294504695
28.497248 783.22003 871.39661 4294373113
-12.831193 787.44952 871.0387 4283250223
20.163303 788.15021 871.62952 4293643987
22.912844 788.15021 871.62952 4293712867
25.662386 788.15021 871.62952 4294240504
28.411926 786.74884 870.44788 4294373109
-12.792661 791.66632 870.67017 4283316276
-10.081652 789.55157 872.81104 4283382069
19.246788 789.55157 872.81104 4293317076
22.912844 789.55157 872.81104 4293909476
25.585321 791.66632 870.67017 4294306551
28.326607 791.66632 870.67017 4294503929
-10.965137 793.06348 871.84814 4283448121
19.188992 793.06348 871.84814 4293316049
22.844036 793.06348 871.84814 4294041062
25.585321 793.06348 871.84814 4294306551
27.412844 793.06348 871.84814 4294569466
-9.7174311 797.03131 871.26971 4283777854
-7.2880735 797.95996 872.05273 4283909694
-5.4660549 797.95996 872.05273 4283975744
-1.8220184 797.95996 872.05273 4284172099
25.508257 797.95996 872.05273 4294438391
28.241283 797.26343 871.46545 4294372598
30.974312 796.56702 870.87817 4294372342
-10.000917 800.05652 871.20435 4283975231
-7.2733946 800.75159 871.79041 4284042050
29.093578 800.75159 871.79041 4294438902
30.911926 799.36145 870.61829 4294372342
-4.5458717 802.14172 872.96265 4284239174
-1.8183486 802.14172 872.96265 4284436554
25.456881 802.14172 872.96265 4294372344
27.275229 802.14172 872.96265 4294438137
-9.0642204 804.23547 870.80396 4284369477
-7.2513762 804.23547 870.80396 4284107589
-4.5321102 805.6214 871.97253 4284436040
-1.812844 805.6214 871.97253 4284830028
28.401224 805.15942 871.58301 4294438647
30.818348 804.23547 870.80396 4294373109
-9.0366974 809.09271 870.97522 4284632650
-7.2293577 809.09271 870.97522 4284698949
28.013762 809.09271 870.97522 4294372854
30.724771 809.09271 870.97522 4294307316
-9.0366974 810.47443 872.14026 4284830028
-7.2293577 810.47443 872.14026 4284961864
-3.6146789 810.47443 872.14026 4285158216
25.302752 810.47443 872.14026 4294963963
28.013762 810.47443 872.14026 4294569718
-9.0091743 814.62183 871.7132 4285092687
-7.2073393 814.62183 871.7132 4285224013
-4.5045872 815.31061 872.29395 4285289809
25.225689 815.31061 872.29395 4294964218
27.92844 814.62183 871.7132 4294503671
30.631193 814.62183 871.7132 4294174965
-13.173088 817.84106 870.50348 4285092944
-10.777982 818.06995 870.69647 4285289809
31.735168 818.29883 870.88947 4294174963
-12.574312 820.12994 872.43335 4285421402
-10.777982 820.12994 872.43335 4285421654
28.741285 820.12994 872.43335 4294306803
30.537615 820.12994 872.43335 4294174960
-14.326606 822.87878 870.82709 4285421143
32.234863 823.56329 871.4043 4294109169
34.921101 823.56329 871.4043 4294043377
-19.598166 829.72101 870.05615 4286406230
-17.816513 829.72101 870.05615 4286145111
4.7064219 748.92975 873.87671 4290486444
7.5302753 748.92975 873.87671 4290815659
10.354128 748.92975 873.87671 4291275956
16.943119 748.92975 873.87671 4292395208
19.766972 748.92975 873.87671 4292924382
22.590826 748.92975 873.87671 4294109690
24.473394 750.36896 875.09021 4294965247
1.8770642 753.97772 874.20886 4290223521
4.6926603 753.97772 874.20886 4290487211
7.5082569 754.69519 874.8139 4290751404
10.323853 753.97772 874.20886 4291276980
13.139449 753.97772 874.20886 4292065727
15.955046 753.97772 874.20886 4292132034
18.770641 753.97772 874.20886 4291936717
0.93577981 757.57806 873.32056 4289960863
4.6788988 757.57806 873.32056 4290552491
10.293578 757.57806 873.32056 4291277235
14.036697 757.57806 873.32056 4291869118
16.844036 757.57806 873.32056 4292329928
19.651377 757.57806 873.32056 4292529109
22.458715 757.57806 873.32056 4293845746
1.2477064 759.48584 874.92914 4289961109
4.6788988 759.72424 875.13019 4290814637
7.4862385 759.72424 875.13019 4291078825
10.293578 759.72424 875.13013 4291473845
14.036697 759.72424 875.13019 4291869119
16.844036 759.72424 875.13019 4292067010
18.715597 759.72424 875.13019 4292067787
0.62201834 763.54767 874.42987 4290091924
4.6651373 764.02319 874.83081 4290880938
13.995413 764.02319 874.83081 4292000450
16.794495 764.02319 874.83081 4292197827
19.904587 763.54767 874.42987 4292856531
22.39266 763.30988 874.22937 4293450474
22.326605 767.59833 873.92114 4293253095
0.9302752 769.02075 875.12048 4290291367
3.7211008 769.02075 875.12048 4290750633
16.744955 769.02075 875.12048 4292526278
19.53578 769.02075 875.12048 4292724171
22.326605 769.02075 875.12048 4293187554
-1.8550459 771.16498 873.00439 4290618277
0 772.58319 874.2002 4290816176
22.26055 772.58319 874.2002 4293055966
24.115597 771.16498 873.00439 4294964222
0.92752296 774.0014 875.396 4290286223
4.6376147 774.0014 875.396 4292129206
7.4201837 774.0014 875.396 4292327868
14.840367 774.0014 875.396 4292198597
16.695414 774.0014 875.396 4292132804
19.477982 774.0014 875.396 4292659400
22.26055 774.0014 875.396 4292923864
24.968807 776.13721 873.27283 4294503413
0.92477065 778.25818 875.06104 4285355824
4.3155961 778.49384 875.25977 4286342745
7.3981652 778.96521 875.65723 4290150271
10.172478 778.96521 875.65723 4294892258
13.871559 778.96521 875.65723 4292658127
16.645872 778.25818 875.0611 4292657867
19.420183 777.55121 874.46497 4292658632
22.194496 777.55121 874.46497 4292989655
-4.6100917 781.09259 873.52698 4282854423
-1.8440367 781.09259 873.52698 4282919941
0.92201835 782.50238 874.7157 4282459684
3.6880734 782.50238 874.7157 4282194713
14.752294 782.50238 874.7157 4293183957
16.596331 782.50238 874.7157 4292920784
19.055046 781.5625 873.92316 4292855755
23.050459 781.09259 873.52698 4293844967
25.816513 781.09259 873.52698 4294570237
0.92201835 783.91217 875.9043 4283776823
4.6100917 783.91217 875.9043 4283709735
7.3761468 783.91217 875.9043 4281607453
10.142202 783.91217 875.9043 4284368984
13.830275 783.91217 875.9043 4293382885
-10.111927 786.03119 873.76685 4283316019
-7.3541284 786.73401 874.35944 4283578420
-4.5963302 786.73395 874.3595 4283710262
-1.8385321 786.73401 874.35944 4283841847
7.3541284 787.43677 874.95203 4283381567
10.111927 787.43677 874.95203 4282460692
13.788991 787.43677 874.95203 4291935630
