# .PCD v0.7 - Point Cloud Data file format
VERSION 0.7
FIELDS x y z rgb
SIZE 4 4 4 4
TYPE F F F U
COUNT 1 1 1 1
WIDTH 1156
HEIGHT 1
VIEWPOINT 0 0 0 1 0 0 0
POINTS 1156
DATA ascii
-19.552294 763.1452 1286.1199 4286289882
-17.108257 763.1452 1286.1199 4285763282
-13.442202 763.14526 1286.1199 4285169336
-9.7761469 764.07947 1286.9076 4283525795
-7.3321099 763.1452 1286.1199 4284116657
-4.8880734 763.1452 1286.1199 4289508064
-2.4440367 763.1452 1286.1199 4292995327
-29.218349 769.61078 1285.0314 4288916459
-25.971865 769.92108 1285.293 4289377526
-21.913761 770.5415 1285.8162 4288522734
-19.478899 769.61078 1285.0314 4286618334
-17.044037 770.5415 1285.8162 4286288345
-13.391743 770.5415 1285.8162 4287733983
-9.7394495 770.5415 1285.8162 4291021276
-7.3045874 770.5415 1285.8162 4292073964
-4.8697248 769.61078 1285.0314 4291612669
-2.4348624 769.61078 1285.0314 4293323263
-33.677063 795.81299 1286.196 4287535822
-31.271559 795.81299 1286.196 4288720097
-21.649542 795.81299 1286.196 4288388829
-19.244038 795.81299 1286.196 4287798227
-33.548622 803.97107 1286.5344 4287535309
-31.152294 803.97107 1286.5344 4288456411
-28.755962 803.97107 1286.5344 4288587496
-26.359632 803.97107 1286.5344 4289048047
-22.765137 803.97107 1286.5344 4289245408
-19.170643 803.97107 1286.5344 4288983015
-33.420185 812.08698 1286.8374 4287403719
-31.033028 810.26196 1285.2987 4288390616
-28.645872 811.17444 1286.0681 4288455910
-26.258715 811.17444 1286.0681 4289179377
-22.280121 811.47858 1286.3246 4288982759
-19.097248 812.08698 1286.8374 4288258013
-33.317432 817.82166 1286.4407 4287535559
-30.937614 816.91199 1285.6736 4288390613
-28.557798 816.91199 1285.6736 4288390112
-26.177982 816.91199 1285.6736 4289640179
-22.211618 817.21515 1285.9293 4288456932
-19.038532 817.82166 1286.4407 4287274186
-26.077065 824.05225 1285.1539 4289508327
-30.818348 825.86462 1286.6821 4288258261
-28.447706 825.86462 1286.6821 4288718804
-26.077065 825.86462 1286.6821 4289639906
-44.157799 757.58936 1287.9755 4287205824
-40.477982 757.58936 1287.9755 4287863506
-36.798164 757.58936 1287.9755 4288126172
-12.266055 757.58936 1287.9755 4289246191
-9.8128443 757.58936 1287.9755 4292205815
-44.157799 759.46484 1289.5569 4287205826
-40.477982 759.46484 1289.5569 4287600334
-9.8128443 759.46484 1289.5569 4284641726
-43.992661 765.94794 1288.4832 4286876608
-40.326607 765.94794 1288.4832 4287731917
-36.660549 765.94794 1288.4832 4288389849
-34.216515 765.94794 1288.4832 4288389347
-31.772476 765.94794 1288.4832 4289047276
-24.440367 765.94794 1288.4832 4288919288
-21.99633 765.94794 1288.4832 4287866600
-17.108257 765.94794 1288.4832 4285960916
-13.442202 765.94794 1288.4832 4285762496
-9.7761469 765.94794 1288.4832 4285434044
-7.3321099 765.94794 1288.4832 4286223304
-34.088074 772.40302 1287.3857 4288193249
-31.653212 772.40302 1287.3857 4288785642
-29.218349 772.40302 1287.3857 4288785901
-25.566055 772.40302 1287.3857 4289443062
-21.913761 772.40302 1287.3857 4289771515
-19.478899 772.40302 1287.3857 4289509363
-17.044037 772.40302 1287.3857 4288061917
-13.391743 772.40302 1287.3857 4290624490
-9.7394495 772.40302 1287.3857 4293192703
-7.3045874 772.40302 1287.3857 4292863743
-4.8697248 772.40302 1287.3857 4292535551
-2.4348624 772.40302 1287.3857 4292535551
-34.088074 774.26447 1288.9552 4288061915
-31.653212 774.26447 1288.9552 4288719845
-29.218349 774.26447 1288.9552 4288785903
-25.566055 774.26447 1288.9552 4289246709
-21.913761 774.26447 1288.9552 4289246706
-19.478899 774.26447 1288.9552 4289115638
-17.044037 774.26447 1288.9552 4288786417
-13.391743 774.26447 1288.9552 4290824689
-9.7394495 774.26447 1288.9552 4293850367
-7.3045874 774.26447 1288.9552 4293455615
-4.8697248 774.26447 1288.9552 4292535551
-24.238533 783.0769 1288.5375 4289050106
-21.814678 783.0769 1288.5375 4288063211
-19.390825 783.0769 1288.5375 4288195313
-16.966972 783.0769 1288.5375 4288458485
-14.543119 783.0769 1288.5375 4287998952
-67.611008 791.30505 1288.9351 4284769671
-21.732111 790.38202 1288.1567 4288192223
-19.31743 790.38202 1288.1567 4287601630
-14.488073 791.30505 1288.9351 4287932904
-9.6587152 791.30505 1288.9351 4293259263
-36.082569 797.65204 1287.7466 4288059353
-33.677063 797.65204 1287.7466 4287601616
-31.271559 797.65204 1287.7466 4288785890
-28.866055 797.65204 1287.7466 4289311466
-25.257797 797.65204 1287.7466 4289574638
-21.649542 797.65204 1287.7466 4288916708
-19.244038 797.65204 1287.7466 4288654306
-14.433027 797.65204 1287.7466 4287933158
-36.082569 799.49109 1289.2972 4287928278
-33.677063 799.49109 1289.2972 4287731918
-31.271559 799.49109 1289.2972 4288653020
-28.866055 799.49109 1289.2972 4288718823
-25.257797 799.49109 1289.2972 4289245676
-21.649542 799.49109 1289.2972 4289048295
-19.244038 799.49109 1289.2972 4288982501
-16.838531 799.49109 1289.2972 4288916708
-13.230275 799.49109 1289.2972 4289642227
-9.6220188 799.49109 1289.2972 4290958335
-34.746788 805.80304 1288.0791 4287469515
-31.152294 805.80304 1288.0791 4288390616
-28.755962 805.80304 1288.0791 4288521702
-26.359632 805.80304 1288.0791 4288850411
-22.765137 805.80304 1288.0791 4288981988
-19.170643 805.80304 1288.0791 4288983787
-16.774311 805.80304 1288.0791 4289575667
-14.377981 805.80304 1288.0791 4289575921
-38.341286 807.63507 1289.6239 4287140549
-34.746788 807.63507 1289.6239 4287403721
-23.963303 807.63507 1289.6239 4289114344
-19.170643 807.63507 1289.6239 4289180148
-16.774311 807.63507 1289.6239 4290035455
-14.377981 807.63507 1289.6239 4289707757
-10.783486 807.63507 1289.6239 4289050077
-7.1889906 807.63507 1289.6239 4290826224
-4.7926607 807.63507 1289.6239 4291154431
-35.011623 814.52032 1288.8892 4287601101
-23.871559 813.91199 1288.3762 4289246445
-19.097248 813.91199 1288.3762 4287667157
-16.710093 814.82446 1289.1456 4288523488
-14.322936 814.82446 1289.1456 4289114877
-10.742202 815.73694 1289.915 4286615752
-4.774312 815.73694 1289.915 4284776128
-33.317432 820.55072 1288.7417 4287601354
-30.937614 820.55072 1288.7417 4288259027
-28.557798 820.55072 1288.7417 4288784352
-26.177982 819.64099 1287.9747 4289639152
-22.608257 820.55072 1288.7417 4289178857
-19.038532 820.55072 1288.7417 4288326105
-16.658716 820.55072 1288.7417 4288589276
-14.278899 820.55072 1288.7417 4288522991
-33.188992 827.677 1288.2102 4287995860
-30.818348 827.677 1288.2102 4288522204
-28.447706 827.677 1288.2102 4288719325
-26.077065 827.677 1288.2102 4289377511
-18.965137 827.677 1288.2102 4288193764
-40.300919 829.48938 1289.7384 4288518861
-33.188992 829.48938 1289.7384 4288717782
-30.818348 829.48938 1289.7384 4289244126
-28.447706 829.48938 1289.7384 4289834978
-16.594496 829.48938 1289.7384 4288258024
-4.7412844 829.48938 1289.7384 4282277777
-49.247707 754.83624 1292.1943 4286547628
-46.78532 754.83624 1292.1943 4287271608
0 754.83624 1292.1943 4292667391
-46.611008 761.34033 1291.1383 4287204807
-44.157799 761.34033 1291.1383 4287074243
-40.477982 761.34033 1291.1383 4287600332
0 761.34033 1291.1383 4293259519
-51.517429 763.21582 1292.7196 4286284461
-49.06422 763.21582 1292.7196 4286349754
-46.611008 763.21582 1292.7196 4287007428
0 763.21582 1292.7196 4293127935
-43.992661 767.81641 1290.0586 4286876608
-40.326607 767.81641 1290.0586 4287666124
-36.660549 767.81641 1290.0586 4288455898
-34.216515 767.81641 1290.0586 4288455909
-31.772476 767.81641 1290.0586 4289048047
-48.880733 769.68494 1291.634 4286218677
-46.436699 769.68494 1291.634 4286942657
-43.992661 769.68494 1291.634 4287008450
-40.326607 769.68494 1291.634 4287468489
-36.660549 769.68494 1291.634 4288454872
-41.392662 776.12592 1290.5248 4287337161
-37.740364 776.12592 1290.5248 4287732688
-34.088074 776.12592 1290.5248 4287995608
-31.653212 776.12592 1290.5248 4288850917
-29.218349 776.12592 1290.5248 4288654313
-25.566055 776.12592 1290.5248 4288984052
-21.913761 776.12592 1290.5248 4288195311
-19.478899 776.12592 1290.5248 4288457204
-17.044037 776.12592 1290.5248 4288917755
-13.391743 776.12592 1290.5248 4290366707
-9.7394495 776.12592 1290.5248 4292996607
-7.3045874 776.12592 1290.5248 4292667903
-4.8697248 776.12592 1290.5248 4292338943
-2.4348624 776.12592 1290.5248 4292470271
-46.262386 777.98743 1292.0944 4287007680
-43.827522 777.98743 1292.0944 4286942153
-41.392662 777.98743 1292.0944 4287402704
-37.740364 777.98743 1292.0944 4287797457
-34.088074 777.98743 1292.0944 4287995860
-31.653212 777.98743 1292.0944 4288850913
-29.218349 777.98743 1292.0944 4288719847
-25.566055 777.98743 1292.0944 4289246711
-21.913761 777.98743 1292.0944 4288194800
-19.478899 777.98743 1292.0944 4288391927
-17.044037 777.98743 1292.0944 4289181439
-13.391743 777.98743 1292.0944 4290498290
-9.7394495 777.98743 1292.0944 4293062143
-7.3045874 777.98743 1292.0944 4292667391
-4.8697248 777.98743 1292.0944 4292536319
-2.4348624 777.98743 1292.0944 4292602111
-24.238533 784.92993 1290.1 4289180398
-21.814678 784.92993 1290.1 4288325089
-19.390825 784.92993 1290.1 4288128491
-16.966972 784.92993 1290.1 4288654835
-14.543119 784.92993 1290.1 4287999218
-36.3578 786.78302 1291.6624 4287929302
-33.933945 786.78302 1291.6624 4287864018
-31.510092 786.78302 1291.6624 4288785120
-29.086239 786.78302 1291.6624 4288916458
-25.450459 786.78302 1291.6624 4289245424
-16.966972 786.78302 1291.6624 4288588009
-13.331193 786.78302 1291.6624 4289578741
-9.6954126 786.78302 1291.6624 4293390591
-7.2715597 786.78302 1291.6624 4293259007
-4.8477063 786.78302 1291.6624 4292536319
-41.049541 794.0741 1291.2698 4287402177
-37.829967 793.76642 1291.0104 4287795408
-28.976147 793.15112 1290.4916 4289245421
-25.35413 793.15112 1290.4916 4289376237
-16.902752 794.0741 1291.2698 4288456413
-12.878288 793.76642 1291.0104 4290039030
-9.6587152 794.0741 1291.2698 4292602111
-7.2440367 794.0741 1291.2698 4292865023
-4.8293576 794.0741 1291.2698 4292799743
-43.299084 803.16913 1292.3984 4286548149
-40.893578 802.24963 1291.6232 4287271615
-37.686237 801.94312 1291.3647 4287403215
-16.838531 801.33008 1290.8479 4289443565
-12.829358 801.94312 1291.3647 4289641972
-9.6220188 802.24963 1291.6232 4290167544
-7.2165136 802.24963 1291.6232 4292272895
-4.8110094 802.24963 1291.6232 4292404991
-2.4055047 803.16913 1292.3984 4292406015
-40.737614 809.46704 1291.1686 4287271617
-38.341286 809.46704 1291.1686 4287140549
-35.944954 809.46704 1291.1686 4287469514
-16.774311 809.46704 1291.1686 4289310701
-14.377981 809.46704 1291.1686 4289838846
-10.783486 809.46704 1291.1686 4287404498
-7.1889906 809.46704 1291.1686 4286746305
-4.7926607 809.46704 1291.1686 4288916469
-43.133945 811.29907 1292.7133 4286877121
-40.737614 811.29907 1292.7133 4287206343
-38.341286 811.29907 1292.7133 4287206345
-10.783486 811.29907 1292.7133 4287338971
-7.1889906 811.29907 1292.7133 4285892797
-4.7926607 811.29907 1292.7133 4286090732
-2.3963304 811.29907 1292.7133 4292012031
-38.194496 817.56201 1291.4539 4287403467
-35.807339 817.56201 1291.4539 4287798225
-10.742202 817.56201 1291.4539 4286221256
-7.161468 817.56201 1291.4539 4284248237
-4.774312 817.56201 1291.4539 4283988139
-2.387156 817.56201 1291.4539 4289646591
-40.58165 819.38696 1292.9927 4287468480
-38.194496 819.38696 1292.9927 4287403208
-35.807339 819.38696 1292.9927 4287929552
-10.742202 819.38696 1292.9927 4286483404
-7.161468 819.38696 1292.9927 4283916954
-4.774312 819.38696 1292.9927 4282672022
-2.387156 819.38696 1292.9927 4289119736
-34.507339 823.27979 1291.0428 4287929039
-22.608257 823.27979 1291.0428 4289704941
-19.038532 823.27979 1291.0428 4288916971
-16.658716 823.27979 1291.0428 4288982765
-14.278899 823.27979 1291.0428 4288719345
-11.899082 823.27979 1291.0428 4287337692
-4.7596331 823.27979 1291.0428 4281753228
-40.456882 825.09918 1292.5769 4287993030
-35.697247 825.09918 1292.5769 4288454864
-22.608257 825.09918 1292.5769 4289310950
-16.658716 825.09918 1292.5769 4288325350
-14.278899 825.09918 1292.5769 4288849898
-10.709174 825.09918 1292.5769 4286810825
-7.1394496 825.09918 1292.5769 4283784602
-4.7596331 825.09918 1292.5769 4282015625
-2.3798165 825.09918 1292.5769 4286292170
-9.4825687 831.30176 1291.2666 4285496505
-7.1119266 831.30176 1291.2666 4283522459
-4.7412844 832.20795 1292.0306 4282933127
-54.172478 758.60126 1295.3689 4286020258
-51.710091 757.66003 1294.5752 4286677932
-49.247707 757.66003 1294.5752 4286547130
-46.78532 756.71875 1293.7816 4287205313
1.2311927 757.66003 1294.5752 4292865023
-52.335163 766.34161 1295.3552 4286218156
-49.06422 765.09131 1294.301 4286283705
-46.611008 765.09131 1294.301 4287073221
1.2266055 766.02905 1295.0917 4292667647
4.9064221 766.9668 1295.8823 4292470527
-52.546791 773.42188 1294.7849 4285758632
-48.880733 772.48767 1293.9972 4286350256
-46.436699 772.48767 1293.9972 4287073723
-43.992661 772.48767 1293.9972 4286876607
-40.326607 771.55341 1293.2095 4287337414
-36.660549 771.55341 1293.2095 4288258261
-2.4440367 771.55341 1293.2095 4292403967
0 773.42188 1294.7849 4292798463
-48.697247 779.84888 1293.6639 4285955248
-46.262386 779.84888 1293.6639 4286876350
-43.827522 779.84888 1293.6639 4286876612
-41.392662 779.84888 1293.6639 4287205320
-37.740364 779.84888 1293.6639 4287469008
-34.088074 779.84888 1293.6639 4287798225
-31.653212 779.84888 1293.6639 4288719327
-29.218349 779.84888 1293.6639 4288784870
-26.783485 779.84888 1293.6639 4289442800
-12.174312 779.84888 1293.6639 4291946495
-9.7394495 779.84888 1293.6639 4292996607
-7.3045874 779.84888 1293.6639 4292667903
-4.8697248 779.84888 1293.6639 4292536319
-2.4348624 779.84888 1293.6639 4292602111
-51.132111 781.71033 1295.2334 4286414766
-48.697247 781.71033 1295.2334 4286152117
-46.262386 781.71033 1295.2334 4287007426
-43.827522 781.71033 1295.2334 4286810816
-41.392662 781.71033 1295.2334 4287205574
-37.740364 781.71033 1295.2334 4287600087
-34.088074 781.71033 1295.2334 4287798227
-31.653212 781.71033 1295.2334 4288719329
-29.218349 781.71033 1295.2334 4288850411
-26.783485 781.71033 1295.2334 4289377011
-12.174312 781.71033 1295.2334 4291880959
-9.7394495 781.71033 1295.2334 4293259263
-7.3045874 781.71033 1295.2334 4293127935
-4.8697248 781.71033 1295.2334 4292601599
-2.4348624 781.71033 1295.2334 4292470015
-43.629356 788.63611 1293.2249 4286744510
-41.205505 788.63611 1293.2249 4287665612
-37.569725 788.63611 1293.2249 4287862476
-33.933945 788.63611 1293.2249 4287667661
-31.510092 788.63611 1293.2249 4288720349
-29.086239 788.63611 1293.2249 4289048297
-25.450459 788.63611 1293.2249 4289179372
-16.966972 788.63611 1293.2249 4288654833
-12.119267 788.63611 1293.2249 4291683071
-7.2715597 788.63611 1293.2249 4293062143
-4.8477063 788.63611 1293.2249 4292799743
-2.4238532 788.63611 1293.2249 4292799743
-67.867889 790.48914 1294.7874 4284637835
-65.444038 790.48914 1294.7874 4284506506
-49.688992 790.48914 1294.7874 4286481331
-46.053211 790.48914 1294.7874 4286547897
-43.629356 790.48914 1294.7874 4286809018
-2.4238532 790.48914 1294.7874 4292733951
-43.464222 796.8432 1293.6047 4286547379
-41.049541 796.8432 1293.6047 4287271358
-38.634861 796.8432 1293.6047 4287467727
-7.2440367 796.8432 1293.6047 4292339967
-4.8293576 796.8432 1293.6047 4292864511
-2.4146788 796.8432 1293.6047 4292798719
-49.500916 798.68921 1295.1613 4286283696
-45.878899 798.68921 1295.1613 4286678715
-43.464222 798.68921 1295.1613 4286613172
-2.4146788 798.68921 1295.1613 4292864511
-55.326607 806.84717 1295.4998 4285822627
-52.921101 806.84717 1295.4998 4285888418
-49.312843 805.92773 1294.7244 4286283692
-45.704586 805.92767 1294.7244 4286942135
-43.299084 805.92767 1294.7244 4286745274
-40.893578 805.00818 1293.9491 4287271619
-2.4055047 805.92767 1294.7244 4292535551
-46.329052 814.35248 1295.2877 4286810548
-43.133945 814.04712 1295.0303 4286811576
-40.737614 814.04712 1295.0303 4287272128
-38.341286 813.1311 1294.2579 4287206345
-7.1889906 813.1311 1294.2579 4285103011
-2.3963304 813.1311 1294.2579 4290697215
-42.968807 821.21198 1294.5314 4287007676
-40.58165 821.21198 1294.5314 4287271104
-38.194496 821.21198 1294.5314 4287533511
-9.548624 821.21198 1294.5314 4285628094
-7.161468 821.21198 1294.5314 4283391132
-2.387156 821.21198 1294.5314 4286885082
-38.077065 826.91858 1294.111 4288321991
-35.697247 826.91858 1294.111 4288979921
-14.278899 826.91858 1294.111 4288718816
-9.5192661 826.91858 1294.111 4285562558
-7.1394496 826.91858 1294.111 4282996887
-2.3798165 826.91858 1294.111 4285962185
-2.3798165 828.73798 1295.645 4285695917
-54.172478 760.48376 1296.9562 4285889703
2.4623854 760.48376 1296.9562 4293062143
4.9247708 760.48376 1296.9562 4292536319
-55.403671 762.36627 1298.5435 4285822370
4.9247708 762.36627 1298.5435 4292536319
7.387156 762.36627 1298.5435 4292667903
-52.744034 768.84229 1297.4637 4286217637
1.2266055 768.84229 1297.4637 4292732927
4.9064221 768.84229 1297.4637 4292667647
7.359633 768.84229 1297.4637 4292798975
-52.546791 775.29034 1296.3604 4285626793
-48.880733 775.29034 1296.3604 4285889199
0 775.29034 1296.3604 4292864255
7.3321099 775.29034 1296.3604 4292798207
-56.212845 777.15887 1297.9358 4285822373
-52.546791 777.15887 1297.9358 4285692839
1.2220184 777.15887 1297.9358 4292995071
4.8880734 777.15887 1297.9358 4292403967
7.3321099 777.15887 1297.9358 4292535551
9.7761469 777.15887 1297.9358 4292601599
12.220183 777.15887 1297.9358 4292601599
-64.523857 785.43329 1298.3726 4284572043
-56.001835 785.43329 1298.3726 4285558687
-52.349541 784.50256 1297.5878 4285758379
-48.697247 784.50256 1297.5878 4286087347
-46.262386 784.50256 1297.5878 4286613434
-43.827522 783.57184 1296.803 4286810303
-41.392662 783.57184 1296.803 4287336647
-38.957798 783.57184 1296.803 4287402702
-2.4348624 783.57184 1296.803 4292470527
0 785.43329 1298.3726 4292930047
-49.688988 793.26868 1297.131 4286415280
-46.053211 793.26868 1297.131 4286876094
-43.629356 792.34216 1296.3497 4286678965
-2.4238532 792.34216 1296.3497 4292733951
1.2119266 794.19525 1297.9122 4292535807
-53.122936 800.53528 1296.7178 4285298079
-49.500916 800.53528 1296.7178 4286087341
-45.878899 800.53528 1296.7178 4286810553
0 800.53528 1296.7178 4292733695
-57.952293 802.38135 1298.2743 4285099158
-55.537613 802.38135 1298.2743 4285822625
-53.122936 802.38135 1298.2743 4285822627
1.2073394 802.38135 1298.2743 4292602111
-57.732109 808.68622 1297.0503 4285296282
-55.326607 808.68622 1297.0503 4285888420
-52.921101 808.68622 1297.0503 4285954211
-49.312843 808.68622 1297.0503 4286349738
-45.704586 808.68622 1297.0503 4287008181
0 808.68622 1297.0503 4293061887
-57.732109 810.52527 1298.601 4285362076
-55.326607 810.52527 1298.601 4285954213
-52.921101 810.52527 1298.601 4285954213
-49.312843 810.52527 1298.601 4286349741
1.2027524 810.52527 1298.601 4292403967
-52.719265 818.62714 1298.8921 4286151076
-50.322937 817.71118 1298.1198 4286677421
-46.728439 817.71118 1298.1198 4286810035
-43.133945 816.79517 1297.3474 4287007930
1.1981652 817.71118 1298.1198 4290696447
-42.968807 823.94946 1296.8396 4287729602
-38.194496 823.03699 1296.0702 4287796678
-11.93578 824.862 1297.609 4287665871
-2.3798165 830.55737 1297.1791 4285170350
-59.317432 755.86212 1299.5995 4285361560
-56.845871 755.86212 1299.5995 4286282662
4.943119 755.86212 1299.5995 4292733951
-59.317432 757.75165 1301.1926 4285296278
-56.845871 757.75165 1301.1926 4285954465
7.4146791 757.75165 1301.1926 4292733695
-56.634861 764.24878 1300.1307 4286019486
7.387156 764.24878 1300.1307 4292536319
-59.097248 766.13135 1301.718 4285033109
-56.634861 766.13135 1301.718 4285954211
9.8495417 766.13135 1301.718 4292667903
-56.423855 770.71783 1299.0452 4285495459
2.4532111 770.71783 1299.0452 4292864255
4.9064221 770.71783 1299.0452 4292601599
7.359633 770.71783 1299.0452 4292667391
9.8128443 770.71783 1299.0452 4292601599
-58.877064 772.59332 1300.6265 4284837274
-56.423855 772.59332 1300.6265 4285495461
2.4532111 772.59332 1300.6265 4292864255
4.9064221 772.59332 1300.6265 4292666623
9.8128443 772.59332 1300.6265 4292667391
12.266055 772.59332 1300.6265 4292996351
-56.212845 779.02734 1299.5114 4285887653
-53.768806 779.02734 1299.5114 4285888166
1.2220184 779.02734 1299.5114 4292732671
4.8880734 779.02734 1299.5114 4292666623
7.3321099 779.02734 1299.5114 4292666623
-64.766968 780.89581 1301.0868 4284309638
-61.100918 780.89581 1301.0868 4284966803
-58.656879 780.89581 1301.0868 4284966551
-56.212845 780.89581 1301.0868 4285756066
1.2220184 780.89581 1301.0868 4292602111
4.8880734 780.89581 1301.0868 4292864255
7.3321099 780.89581 1301.0868 4292798463
9.7761469 780.89581 1301.0868 4292798463
13.442202 780.89581 1301.0868 4292798463
-63.306423 787.2948 1299.942 4284506002
-60.871559 787.2948 1299.942 4285163675
-58.436699 787.2948 1299.942 4285229974
-56.001835 787.2948 1299.942 4285558683
-53.566971 787.2948 1299.942 4285427615
1.2174312 787.2948 1299.942 4292863999
4.8697248 787.2948 1299.942 4292798463
7.3045874 787.2948 1299.942 4292930047
-68.176147 789.15625 1301.5116 4284505483
-64.523857 789.15625 1301.5116 4284439950
-60.871559 789.15625 1301.5116 4285229470
-58.436699 789.15625 1301.5116 4285295767
-56.001835 789.15625 1301.5116 4285756318
-53.566971 789.15625 1301.5116 4285493660
1.2174312 789.15625 1301.5116 4292995839
4.8697248 789.15625 1301.5116 4293127423
7.3045874 789.15625 1301.5116 4293259007
-70.29174 796.97485 1300.2559 4284309641
-67.867889 796.97485 1300.2559 4284308866
-64.636086 797.28369 1300.5162 4284309126
-60.596329 797.90137 1301.0371 4284967577
-58.172478 797.90137 1301.0371 4285033109
-55.748623 796.97485 1300.2559 4285625502
-53.324772 796.04828 1299.4746 4285690784
1.6159021 796.66602 1299.9955 4292536063
4.8477063 797.90137 1301.0371 4292667391
-61.57431 805.15039 1300.609 4284638869
-57.952293 804.22736 1299.8308 4284967318
1.6097859 804.84271 1300.3497 4292666879
4.8293576 805.15039 1300.6091 4292732671
9.6587152 806.07336 1301.3873 4292601599
12.073395 805.15039 1300.6091 4292404479
-62.543118 812.36426 1300.1516 4284835216
-57.732109 812.36426 1300.1516 4285427354
-55.326607 812.36426 1300.1516 4286085283
-52.921101 812.36426 1300.1516 4285954213
-50.515594 812.36426 1300.1516 4286480557
1.2027524 812.36426 1300.1516 4291944191
4.8110094 812.36426 1300.1516 4292930047
-61.340366 814.20331 1301.7021 4285294988
-57.732109 814.20331 1301.7021 4285426070
-55.326607 814.20331 1301.7021 4286281379
-52.921101 814.20331 1301.7021 4286085029
4.8110094 814.20331 1301.7021 4292667135
7.2165136 814.20331 1301.7021 4292798463
9.6220188 814.20331 1301.7021 4292469759
-52.719265 820.45917 1300.4368 4286479787
-50.322937 820.45917 1300.4368 4287071924
-46.728439 820.45917 1300.4368 4287204282
1.1981652 820.45917 1300.4368 4290106111
4.7926607 820.45917 1300.4368 4293128191
-46.728439 822.2912 1301.9814 4287467200
1.1981652 822.2912 1301.9814 4289711605
-59.317432 760.58594 1303.5825 4284835469
9.8862381 760.58594 1303.5825 4292602111
-61.559631 769.89636 1304.8926 4285164177
-59.097248 768.01379 1303.3053 4284903321
12.311927 768.01379 1303.3053 4292798719
-63.783485 776.34436 1303.7893 4284637835
-61.330276 776.34436 1303.7893 4284901263
-58.877064 775.40662 1302.9985 4285032600
9.8128443 776.34436 1303.7893 4292601599
13.492661 776.34436 1303.7893 4292535807
-61.100918 782.76428 1302.6622 4285163675
-58.656879 782.76428 1302.6622 4285163929
2.4440367 782.76428 1302.6622 4293061375
4.8880734 782.76428 1302.6622 4292930047
7.3321099 782.76428 1302.6622 4293061631
9.7761469 782.76428 1302.6622 4292601599
13.442202 782.76428 1302.6622 4292667135
9.7761469 784.63281 1304.2377 4292536063
13.442202 784.63281 1304.2377 4292601343
-68.176147 791.0177 1303.0812 4284439938
-64.523857 791.0177 1303.0812 4284242566
-60.871559 791.0177 1303.0812 4285163675
-58.436699 791.0177 1303.0812 4285099158
-56.001835 791.0177 1303.0812 4285691038
-53.566971 791.0177 1303.0812 4285691038
4.8697248 791.0177 1303.0812 4292798975
7.3045874 791.0177 1303.0812 4292930559
9.7394495 791.0177 1303.0812 4292470271
12.174312 791.0177 1303.0812 4292338943
-63.306423 792.87921 1304.6508 4284308620
-60.871559 792.87921 1304.6508 4285163929
-58.436699 792.87921 1304.6508 4285033622
4.8697248 792.87921 1304.6508 4292667391
7.3045874 792.87921 1304.6508 4292996351
9.7394495 792.87921 1304.6508 4292601599
13.391743 792.87921 1304.6508 4292733183
-70.29174 799.75439 1302.5996 4284309135
-67.867889 799.75439 1302.5996 4284178315
-64.232109 799.75439 1302.5996 4284244109
-60.596329 799.75439 1302.5996 4285033626
4.8477063 799.75439 1302.5996 4292601599
7.2715597 799.75439 1302.5996 4292930559
9.6954126 799.75439 1302.5996 4292535551
12.119267 799.75439 1302.5996 4292798719
-65.444038 801.60742 1304.162 4284178567
7.2715597 801.60742 1304.162 4292864511
9.6954126 801.60742 1304.162 4292207103
-70.025688 809.7655 1304.5005 4284835720
-67.611008 809.7655 1304.5005 4284835720
-65.196327 808.84247 1303.7222 4284638858
-61.171864 808.53485 1303.4628 4284967572
4.8293576 807.91943 1302.9438 4292338687
7.2440367 808.84247 1303.7222 4292732927
9.6587152 808.84247 1303.7222 4292404223
12.073395 808.84247 1303.7222 4292404223
-69.759636 816.04236 1303.2528 4284638355
-64.948624 816.04236 1303.2528 4284835216
-61.340366 816.96185 1304.0281 4285229197
-57.732109 816.96185 1304.0281 4285690010
-55.326607 816.96185 1304.0281 4286216355
4.8110094 816.04236 1303.2528 4292930303
7.2165136 816.96185 1304.0281 4292798975
9.6220188 816.96185 1304.0281 4292601343
13.230275 816.96185 1304.0281 4291746302
-46.728439 824.12317 1303.5262 4285691040
-43.133945 824.12317 1303.5262 4285954211
1.1981652 824.12317 1303.5262 4289511404
4.7926607 824.12317 1303.5262 4292274943
9.930275 754.47314 1306.2765 4292930559
-62.06422 756.37109 1307.8767 4285229459
-61.78899 763.42023 1305.9723 4285098374
-64.260551 765.30975 1307.5654 4284639109
-61.78899 765.30975 1307.5654 4285099660
-64.022018 771.77887 1306.4799 4285032329
-61.559631 771.77887 1306.4799 4285163916
9.7761469 786.50128 1305.8131 4292601599
13.442202 786.50128 1305.8131 4292535295
7.3045874 794.74066 1306.2202 4292930559
9.7394495 794.74066 1306.2202 4292338943
12.174312 794.74066 1306.2202 4292602111
-70.29174 803.46051 1305.7245 4284835468
-67.867889 803.46051 1305.7245 4284573325
-65.444038 803.46051 1305.7245 4284244360
7.2715597 803.46051 1305.7245 4293061375
-70.29174 805.3136 1307.2869 4284639116
-67.867889 805.3136 1307.2869 4284573325
-70.025688 811.61151 1306.057 4284639120
-67.611008 811.61151 1306.057 4284835468
-65.196327 811.61151 1306.057 4284901261
12.073395 811.61151 1306.057 4292798463
-67.611008 813.45758 1307.6135 4284835216
-62.543118 819.7204 1306.354 4285691277
-57.732109 819.7204 1306.354 4285756831
-55.326607 820.63989 1307.1294 4286085796
-52.921101 820.63989 1307.1294 4286085281
-50.515594 820.63989 1307.1294 4286414246
4.8110094 819.7204 1306.354 4293194751
7.2165136 820.63989 1307.1294 4291748095
9.6220188 820.63989 1307.1294 4287151359
13.230275 821.55945 1307.9047 4278733737
1.1981652 825.9552 1305.0709 4288986344
-64.546791 758.26904 1309.4771 4285098120
-62.06422 758.26904 1309.4771 4285098120
-64.260551 767.19928 1309.1587 4284835468
-69.203667 769.08881 1310.7518 4284900741
-66.732109 769.08881 1310.7518 4284900741
-67.715599 773.66138 1308.0671 4284507267
-70.611008 798.46362 1309.3594 4284637581
-68.176147 798.46362 1309.3594 4284375947
-67.611008 815.30359 1309.17 4285031566
-65.196327 815.30359 1309.17 4285097359
-70.025688 817.14966 1310.7266 4284835227
-67.611008 817.14966 1310.7266 4285099156
-65.196327 817.14966 1310.7266 4285691036
-60.366974 817.14966 1310.7266 4285757070
13.280734 817.14966 1310.7266 4285305848
-52.921101 823.39844 1309.4553 4284771208
13.230275 823.39844 1309.4553 4279456676
16.838531 823.39844 1309.4553 4278215590
12.458715 754.59845 1312.9222 4292865279
-67.029358 760.16699 1311.0774 4284769158
-64.546791 760.16699 1311.0774 4284769410
12.412844 760.16699 1311.0774 4292799743
-67.029358 762.06494 1312.6776 4284769158
-70.025688 818.99573 1312.2831 4285166498
-67.611008 818.99573 1312.2831 4285298075
-65.196327 818.99573 1312.2831 4285298075
-61.57431 818.99573 1312.2831 4285166998
-57.952293 818.99573 1312.2831 4285493660
-65.196327 820.84174 1313.8396 4284970650
-62.781651 820.84174 1313.8396 4285034908
-55.537613 820.84174 1313.8396 4285033111
9.6587152 820.84174 1313.8396 4287082751
-55.326607 825.23749 1311.006 4284903067
16.838531 826.15698 1311.7812 4287078357
19.244038 827.07648 1312.5565 4283461363
-69.768806 759.36084 1316.9377 4284900743
-67.029358 763.96289 1314.278 4284769673
-70.025688 823.61078 1316.1746 4285630905
-67.611008 823.61078 1316.1746 4285694646
-65.196327 822.68774 1315.3962 4284840877
9.6587152 822.68774 1315.3962 4292601599
13.280735 823.61078 1316.1746 4291616255
-69.768806 761.26581 1318.5439 4284703880
-70.29174 818.28497 1318.224 4284839593
-67.867889 818.28497 1318.224 4285233565
-60.596329 818.28497 1318.224 4285034908
-58.172478 818.28497 1318.224 4285362076
4.8477063 818.28497 1318.224 4292601599
7.2715597 818.28497 1318.224 4291088125
-63.020184 820.13806 1319.7865 4285033622
-60.596329 820.13806 1319.7865 4285099671
-58.172478 820.13806 1319.7865 4284969116
16.902752 826.37988 1318.5093 4292338431
19.31743 826.37988 1318.5093 4292009727
-64.232109 821.99109 1321.3489 4284837794
-60.596329 821.99109 1321.3489 4284903069
9.6954126 821.99109 1321.3489 4292535295
-67.867889 823.84412 1322.9114 4287008713
-64.232109 823.84412 1322.9114 4285889455
13.331193 823.84412 1322.9114 4292141055
19.31743 828.22589 1320.0658 4292601599
21.732111 828.22589 1320.0658 4291680511
16.966972 825.6972 1324.4739 4292601087
-60.871559 820.80127 1328.1938 4285888420
-67.867889 827.55023 1326.0363 4288261356
4.8880734 814.52856 1329.4451 4292600063
7.3321099 814.52856 1329.4451 4292731647
-58.656879 816.39709 1331.0205 4285100705
-68.176147 822.66278 1329.7634 4287142107
-65.741287 823.59351 1330.5482 4286682068
14.609175 822.66278 1329.7634 4292206335
9.7761469 818.26556 1332.5959 4291614975
-63.544952 820.13403 1334.1714 4285628090
12.220183 820.13403 1334.1714 4292206591
-65.741287 826.38568 1332.9026 4287734758
-68.176147 828.24719 1334.472 4289445887
-51.710091 807.54663 1336.6384 4284771208
7.359633 813.85437 1335.4167 4292929023
-63.544952 822.00256 1335.7468 4286814158
14.66422 822.00256 1335.7468 4291549439
17.108257 822.00256 1335.7468 4291812351
19.552294 822.00256 1335.7468 4291746559
-17.300917 803.10034 1339.4294 4289705457
-13.593578 803.10034 1339.4294 4288586460
9.8128443 817.60535 1338.5795 4291877887
12.266055 819.48083 1340.1609 4291812095
-22.343119 798.12585 1343.0833 4289244378
-19.86055 798.12585 1343.0833 4288455403
-54.374313 806.87939 1342.6158 4284837524
-49.431194 804.98987 1341.0227 4284901525
-12.357799 804.98987 1341.0227 4287927753
-61.559631 815.07666 1342.9875 4285364917
-59.097248 813.19415 1341.4003 4285559455
7.387156 814.13538 1342.1938 4292008703
13.492661 821.35632 1341.7422 4291877375
17.172478 821.35632 1341.7422 4291877887
19.625689 821.35632 1341.7422 4291746559
-22.343119 800.0238 1344.6836 4289967079
-19.86055 800.0238 1344.6836 4289376748
-17.377981 801.92175 1346.2839 4290822388
-14.895412 801.92175 1346.2839 4290230508
-9.930275 801.92175 1346.2839 4285562049
-7.4477062 801.92175 1346.2839 4283654051
-56.845871 808.76892 1344.2091 4285166498
4.943119 808.76892 1344.2091 4292468479
-56.845871 810.65845 1345.8022 4285559455
4.943119 810.65845 1345.8022 4292140543
-61.559631 816.95923 1344.5748 4285695933
9.8495417 817.90045 1345.3684 4291877631
-65.988991 833.2135 1345.1997 4290892287
-64.766968 835.08191 1346.7751 4291153919
-52.133945 803.8197 1347.8842 4284837524
-54.616512 805.71765 1349.4845 4285296282
-52.133945 805.71765 1349.4845 4285296282
-59.317432 812.54797 1347.3955 4285299363
-56.845871 812.54797 1347.3955 4285233569
4.943119 812.54797 1347.3955 4292140031
-59.317432 814.4375 1348.9886 4285629098
-56.845871 814.4375 1348.9886 4285431462
4.943119 814.4375 1348.9886 4292074239
7.4146791 814.4375 1348.9886 4291942655
9.8495417 820.72424 1347.7494 4292139519
13.543119 820.72424 1347.7494 4292140031
17.236698 820.72424 1347.7494 4292008959
19.699083 820.72424 1347.7494 4291615231
7.387156 822.60675 1349.3367 4291810303
9.8495417 822.60675 1349.3367 4291876351
13.543119 822.60675 1349.3367 4292008447
17.236698 822.60675 1349.3367 4292140543
-68.689911 830.73383 1349.649 4291615999
-63.783485 829.79608 1348.8584 4290103039
-49.834862 801.26996 1352.2744 4285033109
-13.704587 801.26996 1352.2744 4289572323
-7.4752293 801.26996 1352.2744 4284638364
-54.616512 808.56458 1351.885 4285298078
-52.133945 808.56458 1351.885 4285298078
-2.4825687 809.51355 1352.6851 4285432496
2.4825687 808.56458 1351.885 4291484671
-64.260551 817.27179 1351.3784 4287735524
-61.78899 817.27179 1351.3784 4286288078
-59.317432 817.27179 1351.3784 4285957818
-56.022018 817.58673 1351.644 4285825719
4.943119 817.27179 1351.3784 4291679743
7.4146791 817.27179 1351.3784 4291811327
9.8495417 824.48926 1350.924 4291876607
13.543119 824.48926 1350.924 4291679487
-61.559631 826.37177 1352.5112 4289246463
7.387156 826.37177 1352.5112 4291613951
9.8495417 826.37177 1352.5112 4291745535
13.543119 826.37177 1352.5112 4291679743
-68.689911 832.60938 1351.2305 4291811583
-47.517429 796.80823 1355.0527 4284967318
-22.508257 796.80823 1355.0527 4290295529
-20.007339 796.80823 1355.0527 4290098922
-49.834862 803.17493 1353.8806 4285296282
-12.458715 803.17493 1353.8806 4288980434
-9.9669724 803.17493 1353.8806 4287074756
-7.4752293 803.17493 1353.8806 4284179864
-2.4917431 803.17493 1353.8806 4285366954
2.4917431 803.17493 1353.8806 4291484671
-49.834862 805.07983 1355.4868 4285166494
-12.458715 805.07983 1355.4868 4288914914
-9.9669724 805.07983 1355.4868 4287601354
-7.4752293 805.07983 1355.4868 4284377497
-4.9834862 805.07983 1355.4868 4283720063
-2.4917431 805.07983 1355.4868 4286022818
0 805.07983 1355.4868 4286879440
-54.616512 811.4115 1354.2854 4285888420
-52.133945 811.4115 1354.2854 4285954213
-49.651375 811.4115 1354.2854 4285561506
-7.4477062 811.4115 1354.2854 4284771999
-2.4825687 811.4115 1354.2854 4285629597
2.4825687 811.4115 1354.2854 4292008447
-54.616512 813.30945 1355.8857 4285561767
-52.133945 813.30945 1355.8857 4285627560
-49.651375 813.30945 1355.8857 4285627299
-9.930275 813.30945 1355.8857 4287405264
-7.4477062 813.30945 1355.8857 4284444835
-4.9651375 813.30945 1355.8857 4283656348
-2.4825687 813.30945 1355.8857 4286353861
2.4825687 813.30945 1355.8857 4291811327
-64.260551 821.05084 1354.5649 4289510141
-61.78899 821.05084 1354.5649 4288457715
-59.317432 821.05084 1354.5649 4287996386
-55.610092 821.05078 1354.5649 4287404245
-51.902752 821.99561 1355.3615 4286417090
-2.4715595 821.05084 1354.5649 4290035950
2.4715595 821.05084 1354.5649 4292073471
4.943119 821.05084 1354.5649 4291416575
7.4146791 821.99561 1355.3615 4291483135
-61.559631 829.19556 1354.8921 4290234623
7.387156 828.25427 1354.0985 4291549183
-25.119267 791.8197 1358.6947 4290691059
-46.683792 799.99481 1357.7396 4285033366
-22.508257 799.67615 1357.4709 4287665605
-20.007339 799.67615 1357.4709 4289176524
-16.672783 799.99481 1357.7396 4290690022
-10.00367 798.72021 1356.6648 4286941119
-5.0018349 799.67615 1357.4709 4283327110
-2.5009174 798.72021 1356.6648 4285432736
0 800.63214 1358.277 4286747601
-49.834862 806.98486 1357.093 4285429917
-44.851376 806.98486 1357.093 4285429917
-13.704587 806.98486 1357.093 4288586953
-9.9669724 806.98486 1357.093 4287536072
-7.4752293 806.98486 1357.093 4284378009
-4.9834862 806.98486 1357.093 4283656085
0 806.98486 1357.093 4287273934
-47.343121 808.88977 1358.6993 4285561506
-44.851376 808.88977 1358.6993 4285495457
-13.704587 808.88977 1358.6993 4287337413
-9.9669724 808.88977 1358.6993 4287601354
-4.9834862 808.88977 1358.6993 4283721600
0 808.88977 1358.6993 4288126674
-52.133945 815.2074 1357.486 4285956023
-49.651375 815.2074 1357.486 4285627297
-44.686237 815.2074 1357.486 4286283176
-12.412844 815.2074 1357.486 4287405252
-9.930275 815.2074 1357.486 4286946780
-7.4477062 815.2074 1357.486 4284972989
-4.9651375 815.2074 1357.486 4285430415
-2.4825687 815.2074 1357.486 4288193721
1.2412844 815.2074 1357.486 4291480055
-59.317432 823.88513 1356.9547 4288983798
-55.610092 823.88513 1356.9547 4287997153
-51.902752 823.88513 1356.9547 4286681543
-2.4715595 823.88513 1356.9547 4291811323
2.4715595 823.88513 1356.9547 4291876607
4.943119 823.88513 1356.9547 4291351039
-59.317432 825.77466 1358.5479 4288986367
-55.610092 825.77466 1358.5479 4288131061
-51.902752 825.77466 1358.5479 4287538919
-49.431194 825.77466 1358.5479 4287471831
-44.488075 825.77466 1358.5479 4286416570
-2.4715595 825.77466 1358.5479 4291680255
2.4715595 825.77466 1358.5479 4291614463
4.943119 825.77466 1358.5479 4291285759
-27.732111 787.32855 1361.448 4290295529
-25.21101 787.32855 1361.448 4289770722
-45.21468 793.74011 1360.314 4285098904
-27.631193 793.74011 1360.314 4291347930
-25.119267 793.74011 1360.314 4290822129
-45.21468 795.66052 1361.9331 4285099156
-42.702751 795.66052 1361.9331 4285033363
-40.190826 795.66052 1361.9331 4284573071
-31.399082 795.66052 1361.9331 4284443291
-27.631193 795.66052 1361.9331 4285825205
-25.119267 795.66052 1361.9331 4286874811
1.2559633 795.66052 1361.9331 4288723175
-46.266972 802.54413 1359.889 4285100956
-42.515594 802.54413 1359.889 4285298077
-20.007339 802.54413 1359.889 4285495461
-16.255962 802.54413 1359.889 4288060368
-47.517429 804.45612 1361.5012 4285429917
-42.515594 804.45612 1361.5012 4285495711
-40.014679 804.45612 1361.5012 4285822625
-20.007339 804.45612 1361.5012 4285627047
-17.506422 804.45612 1361.5012 4287074493
-47.343121 811.74719 1361.1086 4285758883
-43.190216 811.42969 1360.8409 4285889700
-39.867889 812.69971 1361.9117 4285758628
-17.442202 811.74719 1361.1086 4286415534
-14.119878 811.42969 1360.8409 4286614453
0 810.79474 1360.3055 4288192749
-52.133945 817.10535 1359.0863 4285956541
-49.651375 817.10535 1359.0863 4285824673
-47.168808 817.10535 1359.0863 4286022053
-43.444954 817.10535 1359.0863 4286152871
-13.654128 817.10535 1359.0863 4287337147
-9.930275 817.10535 1359.0863 4287864538
-7.4477062 817.10535 1359.0863 4286351299
-4.9651375 817.10535 1359.0863 4286483398
0 817.10535 1359.0863 4290955007
-49.651375 819.0033 1360.6866 4286284974
-47.168808 819.0033 1360.6866 4286416561
-43.444954 819.0033 1360.6866 4286219181
-39.7211 819.0033 1360.6866 4286218668
-24.825687 819.0033 1360.6866 4286943418
-22.343119 819.0033 1360.6866 4286417074
-19.86055 819.0033 1360.6866 4285496744
-17.377981 819.0033 1360.6866 4285299109
-13.654128 819.0033 1360.6866 4287730872
-9.930275 819.0033 1360.6866 4288851156
-7.4477062 819.0033 1360.6866 4288719313
-4.9651375 819.0033 1360.6866 4289180370
0 819.0033 1360.6866 4291941631
-59.317432 827.66418 1360.1411 4290035455
-55.610092 827.66418 1360.1411 4288983544
-51.902752 827.66418 1360.1411 4288325868
-49.431194 827.66418 1360.1411 4287865567
-44.488075 827.66418 1360.1411 4286614207
-2.4715595 827.66418 1360.1411 4291942399
2.4715595 827.66418 1360.1411 4291679743
4.943119 827.66418 1360.1411 4291614463
-64.260551 829.55371 1361.7343 4288917494
-61.78899 829.55371 1361.7343 4288654065
-59.317432 829.55371 1361.7343 4289112052
-55.610092 829.55371 1361.7343 4288389352
-44.488075 829.55371 1361.7343 4286417855
-24.623854 835.78436 1360.4476 4291746047
-42.858715 791.18335 1364.6982 4285888420
-37.816513 791.18335 1364.6982 4286414482
-35.295414 791.18335 1364.6982 4287204518
-31.51376 790.21967 1363.8857 4289571535
-27.732111 789.25598 1363.0731 4291412981
-42.702751 797.58093 1363.5524 4285099671
-40.190826 797.58093 1363.5524 4284968864
-37.678898 797.58093 1363.5524 4284903071
-35.166973 797.58093 1363.5524 4284640152
-31.399082 797.58093 1363.5524 4284574360
-27.631193 797.58093 1363.5524 4284968862
-25.119267 797.58093 1363.5524 4284969114
-42.515594 806.36804 1363.1133 4285627299
-40.014679 806.36804 1363.1133 4285495457
-22.508257 806.36804 1363.1133 4286022316
-20.007339 806.36804 1363.1133 4286152621
-17.506422 806.36804 1363.1133 4286284207
-40.014679 808.28003 1364.7255 4286020260
-37.51376 808.28003 1364.7255 4286020260
-35.012844 808.28003 1364.7255 4286217380
-27.510092 808.28003 1364.7255 4286284459
-25.009174 808.28003 1364.7255 4286284459
-22.508257 808.28003 1364.7255 4286350252
-20.007339 808.28003 1364.7255 4286350254
-39.867889 814.60468 1363.5179 4286086826
-24.917431 814.60468 1363.5179 4286416561
-22.425688 814.60468 1363.5179 4286548147
-19.933945 814.60468 1363.5179 4286416563
-17.442202 814.60468 1363.5179 4285956012
-49.651375 820.90125 1362.2869 4286352064
-47.168808 820.90125 1362.2869 4286286015
-43.444954 820.90125 1362.2869 4286350513
-39.7211 820.90125 1362.2869 4286218414
-37.238533 820.90125 1362.2869 4286350256
-34.755962 820.90125 1362.2869 4286350254
-32.273396 820.90125 1362.2869 4286613170
-28.549541 820.90125 1362.2869 4286483123
-24.825687 820.90125 1362.2869 4286482867
-22.343119 820.90125 1362.2869 4285693607
-19.86055 820.90125 1362.2869 4285627812
-17.377981 820.90125 1362.2869 4285693605
-13.654128 820.90125 1362.2869 4287206092
-9.930275 820.90125 1362.2869 4289310662
-7.4477062 820.90125 1362.2869 4290099922
-4.9651375 820.90125 1362.2869 4290561256
0 820.90125 1362.2869 4292139775
-47.168808 822.79913 1363.8872 4286813645
-42.203671 822.79913 1363.8872 4286285241
-39.7211 822.79913 1363.8872 4286416049
-37.238533 822.79913 1363.8872 4286613172
-34.755962 822.79913 1363.8872 4286547628
-32.273396 822.79913 1363.8872 4286218664
-28.549541 822.79913 1363.8872 4285430947
-24.825687 822.79913 1363.8872 4284708505
-22.343119 822.79913 1363.8872 4285169056
-19.86055 822.79913 1363.8872 4287992517
-17.377981 822.79913 1363.8872 4288518861
-13.654128 822.79913 1363.8872 4289769941
-9.930275 822.79913 1363.8872 4290823663
-7.4477062 822.79913 1363.8872 4291481336
-4.9651375 822.79913 1363.8872 4291482619
0 822.79913 1363.8872 4291746047
-64.260551 831.44324 1363.3275 4287865567
-61.78899 831.44324 1363.3275 4287273686
-59.317432 832.388 1364.124 4288655083
-56.845871 832.388 1364.124 4288852462
-32.130276 833.33276 1364.9207 4292139772
-28.422935 832.38806 1364.1241 4291679989
-24.715597 831.44324 1363.3275 4292533759
-37.816513 793.11072 1366.3234 4284836500
-35.295414 793.11072 1366.3234 4284311700
-40.190826 799.50128 1365.1716 4285429665
-37.678898 799.50128 1365.1716 4285363872
-35.166973 799.50128 1365.1716 4285691038
-31.399082 799.50128 1365.1716 4285494432
-27.631193 799.50128 1365.1716 4285429667
-25.119267 799.50128 1365.1716 4285166748
-22.60734 799.50128 1365.1716 4285495457
-37.678898 801.42169 1366.7908 4285822625
-35.166973 801.42169 1366.7908 4285495459
-31.399082 801.42169 1366.7908 4285495205
-27.631193 801.42169 1366.7908 4285955758
-25.119267 801.42169 1366.7908 4285823406
-22.60734 801.42169 1366.7908 4285757613
-37.51376 811.14801 1367.1436 4285955495
-35.012844 811.14801 1367.1436 4286021033
-31.261467 811.14801 1367.1436 4286218924
-27.510092 811.14801 1367.1436 4286284972
-25.009174 810.19202 1366.3375 4286219181
-22.508257 810.19202 1366.3375 4286284974
-20.007339 810.19202 1366.3375 4286809522
-37.376148 816.50964 1365.1241 4286152619
-34.884403 816.50964 1365.1241 4286152619
-32.392662 816.50964 1365.1241 4286547377
-28.655045 816.50964 1365.1241 4286548144
-47.168808 824.69708 1365.4874 4287273686
-42.203671 824.69708 1365.4874 4286482365
-39.7211 824.69708 1365.4874 4286022586
-37.238533 824.69708 1365.4874 4286417344
-34.755962 824.69708 1365.4874 4286021803
-32.273396 824.69708 1365.4874 4285627045
-28.549541 824.69708 1365.4874 4285364122
-24.825687 824.69708 1365.4874 4285168041
-22.343119 824.69708 1365.4874 4288326104
-19.86055 824.69708 1365.4874 4289706222
-17.377981 824.69708 1365.4874 4290364408
-13.654128 824.69708 1365.4874 4290758646
-9.930275 824.69708 1365.4874 4291614207
-7.4477062 824.69708 1365.4874 4291811583
-4.9651375 824.69708 1365.4874 4291942399
0 824.69708 1365.4874 4291679743
-52.133945 826.59503 1367.0878 4287206358
-49.651375 826.59503 1367.0878 4287338446
-47.168808 826.59503 1367.0878 4287140811
-42.203671 826.59503 1367.0878 4286023097
-39.7211 826.59503 1367.0878 4284578204
-37.238533 826.59503 1367.0878 4285104548
-34.755962 826.59503 1367.0878 4285760161
-32.273396 826.59503 1367.0878 4286878899
-28.549541 826.59503 1367.0878 4290163418
-24.825687 826.59503 1367.0878 4291086830
-22.343119 826.59503 1367.0878 4292402687
-19.86055 826.59503 1367.0878 4292141055
-17.377981 826.59503 1367.0878 4291877887
-14.895412 826.59503 1367.0878 4291746303
-4.9651375 826.59503 1367.0878 4291746047
-2.4825687 826.59503 1367.0878 4291680255
1.2412844 826.59503 1367.0878 4291613951
-37.073395 835.22229 1366.5139 4292662757
-40.51376 788.11523 1369.9595 4286151567
-35.449543 786.17944 1368.3273 4287991744
-37.678898 803.34204 1368.41 4285561506
-35.166973 803.34204 1368.41 4285954211
-31.399082 803.34204 1368.41 4285692068
-27.631193 803.34204 1368.41 4285956012
-25.119267 803.34204 1368.41 4285693607
-31.399082 805.26245 1370.0293 4286086565
-47.168808 828.49298 1368.6881 4285762242
-44.686237 828.49298 1368.6881 4286614207
-39.7211 829.44196 1369.4883 4289899447
-37.238533 829.44196 1369.4883 4290688964
-34.755962 829.44196 1369.4883 4290429147
-32.273396 828.49298 1368.6881 4289639625
-22.343119 828.49298 1368.6881 4292533759
-19.86055 828.49298 1368.6881 4292074495
-17.377981 828.49298 1368.6881 4292008447
-14.895412 828.49298 1368.6881 4291811839
-38.119267 783.61566 1372.7057 4286940588
-12.458715 824.12946 1371.549 4291680511
-9.9669724 824.12946 1371.549 4291483391
-7.4752293 824.12946 1371.549 4291483391
-54.818348 826.03442 1373.1553 4287602649
-52.326607 826.03442 1373.1553 4286615754
-49.834862 826.03442 1373.1553 4285893828
-42.359634 826.03442 1373.1553 4286877123
-12.458715 826.03442 1373.1553 4291680255
-9.9669724 826.03442 1373.1553 4291483391
-7.4752293 826.03442 1373.1553 4291812351
-4.9834862 826.03442 1373.1553 4291679999
-2.4917431 826.03442 1373.1553 4291548415
-39.7211 832.28888 1371.8887 4290754504
19.293579 761.13208 1375.9846 4292666879
23.152294 761.13208 1375.9846 4292863999
30.627523 776.6366 1374.6694 4283391350
28.07523 778.58789 1376.3147 4280634763
30.627523 778.58789 1376.3147 4283065735
33.179817 778.58789 1376.3147 4289513193
-54.818348 827.93933 1374.7615 4290036735
-52.326607 827.93933 1374.7615 4288589303
-49.834862 827.93933 1374.7615 4285043409
-47.343121 827.93933 1374.7615 4283530170
-43.605507 827.93933 1374.7615 4287466682
19.293579 763.09875 1377.6429 4292601087
23.152294 763.09875 1377.6429 4292667391
20.579817 765.06543 1379.3011 4292864511
23.152294 765.06543 1379.3011 4293062143
25.724771 765.06543 1379.3011 4293127679
28.297247 765.06543 1379.3011 4293456639
23.053211 772.10065 1377.3848 4289443808
25.614679 772.10065 1377.3848 4285435106
28.176147 772.10065 1377.3848 4281816234
30.737616 772.10065 1377.3848 4279588475
23.053211 774.0589 1379.036 4281354666
25.614679 774.0589 1379.036 4281356455
28.176147 774.0589 1379.036 4281093026
30.627523 781.51477 1378.7825 4285366715
33.179817 780.53912 1377.9598 4290367999
15.500917 757.99664 1381.1891 4292601599
15.500917 759.97174 1382.8545 4292732415
25.834862 759.97174 1382.8545 4292798463
28.418348 759.97174 1382.8545 4293259007
20.579817 767.0321 1380.9594 4293521663
23.152294 767.0321 1380.9594 4292140031
25.724771 767.0321 1380.9594 4289314815
28.297247 767.0321 1380.9594 4286090973
20.579817 768.99878 1382.6177 4292733439
23.053211 776.01715 1380.6871 4278997676
25.614679 776.01715 1380.6871 4281424278
-43.544952 777.9754 1382.3383 4286348969
-40.983486 777.9754 1382.3383 4286611879
23.053211 777.9754 1382.3383 4283326881
25.614679 777.9754 1382.3383 4283196829
28.176147 777.9754 1382.3383 4282868120
18.084404 761.94684 1384.5198 4292798207
20.579817 770.96545 1384.2759 4283855056
20.579817 772.93213 1385.9342 4278206875
23.053211 779.93372 1383.9895 4282344615
25.614679 779.93372 1383.9895 4283263139
28.176147 779.93372 1383.9895 4283855276
20.491743 781.89197 1385.6406 4281492661
23.053211 781.89197 1385.6406 4280769194
25.614679 781.89197 1385.6406 4282998934
28.176147 781.89197 1385.6406 4283327899
22.970642 788.34412 1384.5409 4290364921
