# .PCD v0.7 - Point Cloud Data file format
VERSION 0.7
FIELDS x y z rgb
SIZE 4 4 4 4
TYPE F F F U
COUNT 1 1 1 1
WIDTH 1165
HEIGHT 1
VIEWPOINT 0 0 0 1 0 0 0
POINTS 1165
DATA ascii
4.7363911 760.71027 807.94391 4284766569
7.9926605 759.80505 807.18066 4280172140
10.65688 760.48401 807.75311 4280296261
13.617126 760.25763 807.56232 4281151051
16.57737 760.71027 807.94391 4287466658
19.537615 761.16296 808.32556 4293913343
22.201836 761.16296 808.32556 4293846516
24.866055 761.16296 808.32556 4293583343
-7.1045871 762.52081 809.47058 4283584338
-4.4403667 762.52081 809.47058 4283517525
-1.772477 764.03162 808.12842 4285029488
0.88623852 764.03162 808.12842 4288384902
4.4311924 764.03162 808.12842 4288317350
7.0899081 764.03162 808.12842 4282791293
10.634862 764.03162 808.12842 4278190080
13.293577 764.03162 808.12842 4278190080
16.838531 764.03162 808.12842 4287860891
19.497248 764.03162 808.12842 4294504703
22.155964 764.03162 808.12842 4293978100
25.728439 763.27625 808.7995 4293780468
28.418348 762.52081 809.47058 4294175229
-3.5449541 765.38672 809.271 4284503644
-1.7669724 767.6488 807.25427 4284569437
0.88348621 767.6488 807.25427 4284900203
4.4174314 767.6488 807.25427 4287854739
7.951376 767.6488 807.25427 4289764771
10.601835 767.6488 807.25427 4287136395
13.252294 767.6488 807.25427 4278190080
16.78624 767.6488 807.25427 4288715421
19.436697 767.6488 807.25427 4294701309
22.155964 765.38672 809.271 4294240758
25.621101 767.6488 807.25427 4293780209
28.359632 765.38672 809.271 4294109688
-7.0678897 770.35052 809.53223 4284108886
-4.1229358 769.90021 809.15253 4284831584
-1.7669724 768.99963 808.39319 4284963945
0.88348621 768.99963 808.39319 4285163118
4.4174314 768.99963 808.39319 4287725427
13.252294 768.99963 808.39319 4279700755
16.491743 769.44989 808.77289 4288778088
19.436697 768.99963 808.39319 4294700799
22.087156 769.67505 808.96271 4294307064
25.621101 768.99963 808.39319 4293912306
28.271559 769.67505 808.96271 4293781232
30.038532 770.35052 809.53223 4294044408
49.475231 770.35052 809.53223 4293517296
-7.0458717 773.95087 808.64392 4284632404
-4.4036698 773.95087 808.64392 4284764502
-1.7614679 772.60419 807.50842 4285421665
1.174312 773.05304 807.8869 4285424996
4.1100917 773.05304 807.8869 4287593347
7.9266057 772.60419 807.50842 4290816692
10.568808 772.60419 807.50842 4291146172
13.21101 772.60419 807.50842 4288053323
17.027523 773.50195 808.26544 4291473852
19.376146 773.27753 808.07617 4294961914
22.018349 773.95087 808.64392 4294438650
25.541285 773.27753 808.07617 4293978357
29.06422 773.95087 808.64392 4293978869
-7.9266057 775.29749 809.7793 4288513930
-5.2844038 775.29749 809.7793 4287529345
29.944954 775.29749 809.7793 4294043892
31.706423 775.29749 809.7793 4293911541
-7.0238533 778.88519 808.88037 4288581263
-4.0972476 778.43774 808.50311 4287924100
-1.7559633 777.54279 807.74841 4286806389
0.87798166 777.54279 807.74841 4285424996
3.5119267 777.54279 807.74841 4284962898
8.7798166 777.54279 807.74841 4291737276
10.53578 777.54279 807.74841 4292196032
13.169725 777.54279 807.74841 4292394177
15.80367 777.54279 807.74841 4293118665
19.315596 777.54279 807.74841 4294962942
21.949541 778.21399 808.31439 4294175737
25.461468 778.21399 808.31445 4293912821
28.680735 778.43774 808.50311 4293912306
-4.380734 781.71893 808.65356 4287858566
-1.7522936 780.37927 807.52393 4288713614
1.1681957 780.82587 807.90045 4288119182
4.380734 780.37927 807.52393 4287986314
7.8853211 780.37927 807.52393 4290947260
10.513762 780.37927 807.52393 4292197312
13.142202 780.37927 807.52393 4292263362
16.35474 780.82587 807.90045 4293317084
19.275229 780.37927 807.52393 4294964223
21.903669 781.71893 808.65356 4294242301
25.408257 781.71893 808.65356 4293847799
28.912844 781.71893 808.65356 4293649650
-7.0091743 783.05853 809.78308 4285752663
-4.3752294 784.17487 808.76227 4287857532
-1.746789 785.2912 807.74146 4288185990
0.87339449 785.2912 807.74146 4289172368
4.3669724 785.2912 807.74146 4290619578
7.8605504 785.2912 807.74146 4291342000
10.480734 785.2912 807.74146 4291407800
13.974312 785.2912 807.74146 4292067270
16.594496 785.2912 807.74146 4292068812
20.088074 785.2912 807.74146 4294702075
22.708258 785.2912 807.74146 4294308095
25.369724 784.17487 808.76227 4293782776
28.868807 784.17487 808.76227 4293649652
31.541285 783.05853 809.78308 4293714678
-6.9871559 787.29431 809.43048 4285948760
-4.3669724 786.62659 808.86743 4287331191
-1.7431192 788.11224 807.50403 4286804861
0.87339449 787.36938 808.18573 4287399042
4.3577981 788.11224 807.50403 4290094516
7.8440366 788.11224 807.50403 4291341489
10.458715 788.11224 807.50403 4291538616
13.073395 788.11224 807.50403 4292329418
16.559633 788.11224 807.50403 4292265680
20.045872 788.11224 807.50403 4294504184
22.708258 786.62659 808.86743 4294110203
25.619574 787.07178 809.24286 4293387761
28.822018 787.29431 809.43054 4293517812
-6.972477 790.77753 809.75134 4285425248
-4.3577981 790.11121 809.18958 4286476404
-1.7431192 790.11121 809.18951 4287133831
1.1620795 789.8891 809.00226 4288317077
4.3577981 790.11121 809.18951 4290159787
7.8440366 789.44489 808.62769 4291211188
10.458715 789.44489 808.62769 4291473854
13.944954 789.44489 808.62769 4292198608
16.559633 789.44489 808.62769 4292462803
20.336391 789.8891 809.00226 4293978098
22.660551 790.11121 809.18951 4293913078
24.984711 790.33331 809.37677 4293453041
28.761467 790.77753 809.75134 4293517296
-1.7376146 794.32593 808.81921 4288317069
0 793.66174 808.25916 4287263863
4.3440366 794.32593 808.81921 4290356402
8.1088686 793.44037 808.07245 4291276727
10.425688 792.9975 807.6991 4291539651
13.321712 793.44037 808.07245 4291869644
16.507339 793.66168 808.25916 4292266450
19.692966 793.88312 808.4458 4293385700
22.588991 794.32593 808.81921 4293912308
-4.3440366 795.65436 809.93933 4286868340
-1.7376146 795.65436 809.93933 4288645007
0.86880732 796.76013 808.90967 4287068521
4.3357797 796.76013 808.90967 4290421169
7.7944956 797.86597 807.88 4291276727
13.856881 797.86597 807.88 4292001227
16.455046 797.86597 807.88 4292002763
19.919266 797.86597 807.88 4293188582
22.588991 795.65436 809.93933 4294043642
25.195412 795.65436 809.93933 4293715445
28.670643 795.65436 809.93933 4293912821
-3.4642203 799.19012 808.99646 4287987325
-1.7321101 799.19012 808.99646 4289040013
0.86605507 799.19012 808.99646 4287397475
4.3302751 799.19012 808.99646 4289171645
7.7779818 800.66174 807.62122 4291079864
10.370643 800.66174 807.62122 4291343813
12.963303 800.66174 807.62122 4291804105
16.420183 800.66174 807.62122 4292068300
19.877064 800.66174 807.62122 4293516521
22.517431 799.19012 808.99646 4294569215
25.115597 799.19012 808.99646 4294175996
28.579817 799.19012 808.99646 4294044408
-4.3211012 802.64386 809.29248 4287263339
-1.7284404 801.98315 808.73535 4289697168
0.8642202 802.64386 809.29248 4286280298
4.0330276 802.42365 809.10675 4288186781
6.9137616 801.98315 808.73535 4290816694
20.741285 801.98315 808.73535 4293188334
22.469725 801.98315 808.73535 4292990954
25.350458 802.42365 809.10675 4291084494
28.231194 802.86407 809.47821 4289566659
31.111927 803.30457 809.84961 4288710548
-4.0201836 806.38165 808.52002 4288316538
-1.7229358 806.16211 808.33496 4290487196
0.8614679 806.16211 808.33496 4287925386
4.5944958 806.38165 808.52002 4289437602
7.4660554 805.94257 808.1499 4291080379
20.67523 805.50354 807.77966 4291476446
22.398165 805.50354 807.77966 4290950102
24.695414 806.38165 808.52002 4289305773
27.566973 806.82074 808.89026 4290220973
-1.7192661 809.59833 808.61621 4289500303
0 808.94116 808.06207 4289107871
5.1577983 809.59833 808.61621 4290751412
8.023242 809.16016 808.24677 4291080378
10.315597 808.94116 808.06207 4291081153
12.034863 808.28394 807.50793 4291739595
17.192661 808.28394 807.50793 4292463311
19.771561 808.94116 808.06201 4290752694
22.350458 808.94116 808.06207 4289897131
24.069725 809.59833 808.61621 4290356404
-4.2981653 810.91272 809.72449 4288382341
-1.7192661 810.91272 809.72449 4289106321
1.7192661 810.91272 809.72449 4290157478
4.2981653 810.91272 809.72449 4290815395
25.78899 810.91272 809.72449 4293314264
27.508257 810.91272 809.72449 4294822635
-4.2844038 815.71942 809.85315 4285817957
-1.7137614 815.06433 809.30078 4288645773
0.57125384 814.40924 808.74847 4290091166
4.2844038 814.40924 808.74841 4290815406
7.70367 814.48151 807.5014 4291014584
11.127523 814.48151 807.5014 4291672257
13.680734 815.86395 807.35901 4292198862
16.543119 814.94232 807.45392 4292462288
19.698164 814.1178 807.84875 4292265423
23.13578 813.75415 808.19611 4290685370
25.706423 815.06433 809.30078 4291278535
28.277065 815.71942 809.85315 4282996607
-1.7100917 818.4787 809.56372 4287196026
0.85504586 817.82501 809.01257 4289829000
4.2752295 817.82501 809.01257 4290816945
7.9804282 817.60712 808.82886 4291146173
10.830582 817.60712 808.82886 4291475392
13.680734 817.17133 808.46143 4292132552
16.530886 817.60712 808.82886 4292263883
19.666054 817.82501 809.01257 4292593106
23.086239 817.82501 809.01257 4292133574
25.651377 818.4787 809.56372 4286936422
0 821.30396 808.02191 4287528301
5.1137614 821.95557 808.57129 4288579475
6.8183484 821.30396 808.02191 4291011757
11.93211 821.30396 808.02191 4292263113
13.636697 821.30396 808.02191 4292133062
15.909481 821.52118 808.20508 4292198858
0 823.25873 809.67004 4287200391
4.2614679 823.25873 809.67004 4287986825
7.6706419 823.25873 809.67004 4290354846
11.93211 823.25873 809.67004 4292198347
13.636697 823.25873 809.67004 4292461003
16.193579 823.25873 809.67004 4292329933
20.455046 823.25873 809.67004 4289896367
22.159634 823.25873 809.67004 4284962148
15.308257 826.00269 809.36768 4292658378
35.028442 748.03113 811.6416 4293715186
-10.744954 752.37006 811.37598 4286671996
-8.3571863 751.45728 810.60638 4291739854
32.234863 751.00092 810.22156 4293583343
34.921101 751.68549 810.79877 4293846004
-10.744954 753.73914 812.53027 4285490298
-7.7443428 754.80023 810.8089 4288054414
-5.3614678 753.88934 810.04089 4290354869
25.913761 753.88934 810.04089 4293583342
28.594496 753.88934 810.04089 4293517550
31.27523 753.88934 810.04089 4293714417
34.551682 754.80023 810.8089 4294042615
37.607338 753.73914 812.53027 4293976314
-10.722936 756.62195 812.34497 4284242786
-8.0311928 757.7572 811.34015 4283650389
-5.344954 758.89246 810.33533 4283650385
26.724771 758.89246 810.33533 4293846259
28.506422 758.89246 810.33533 4293977847
31.228439 757.7572 811.34015 4293780467
34.849541 756.62195 812.34497 4293846261
-12.47156 761.61658 812.63232 4284571233
-10.689908 760.93555 812.05804 4284176486
-8.9082565 760.25452 811.48376 4283715929
31.47584 760.7085 811.86664 4293977334
33.851376 761.61658 812.63232 4293976564
-7.9926605 763.87872 810.61548 4284110181
-5.3284402 763.87872 810.61548 4284635747
30.194496 763.87872 810.61548 4294109688
-12.433027 766.59448 812.90527 4284372828
-10.65688 765.91553 812.33282 4284569458
-7.985321 765.9892 811.08698 4284503916
-5.317431 766.74182 810.41357 4284898152
31.051376 765.9892 811.08698 4293912562
33.746788 766.59448 812.90527 4293518580
-10.634862 769.4519 812.69873 4285156961
-8.8623857 768.09686 811.55615 4284042341
31.904587 768.09686 811.55615 4293518580
33.677063 769.4519 812.69873 4293912308
-10.601835 773.05225 811.8103 4287590518
-8.8348627 771.70142 810.67126 4285025374
31.805504 771.70142 810.67126 4293912308
33.572475 773.05225 811.8103 4293911541
47.708256 772.37683 811.24078 4293912307
49.475231 772.37683 811.24078 4293978099
51.242203 772.37683 811.24078 4294043893
-12.368808 774.40314 812.94934 4286606944
-10.601835 774.40314 812.94934 4287132518
-8.8073397 776.64417 810.91479 4288974722
31.706423 776.64417 810.91479 4293911543
34.403671 775.52368 811.93207 4293846004
-10.568808 777.99084 812.05029 4286606944
35.229359 777.99084 812.05029 4293977588
-12.291743 782.91254 812.27612 4285291361
-10.53578 782.24133 811.71014 4286475879
-8.1944952 780.67511 810.38947 4286212962
31.60734 780.22766 810.01221 4293714678
33.948627 781.57007 811.14423 4293978104
-10.513762 785.73785 812.04211 4286541944
-8.7614679 785.06799 811.47736 4286278510
31.541285 785.06799 811.47736 4293583092
33.293579 785.06799 811.47736 4293912056
-10.480734 790.63293 812.24548 4286737523
-8.7339449 789.96521 811.6825 4287132540
31.442202 789.29749 811.11951 4293517298
33.188992 789.96521 811.6825 4293583092
-7.5535164 792.99854 811.62408 4286670702
-4.3577981 792.11011 810.875 4286737524
1.7431192 792.11011 810.875 4288251012
25.27523 792.11011 810.875 4293386478
28.761467 792.11011 810.875 4293451503
31.376146 792.77643 811.43683 4293714676
33.119267 793.44275 811.99866 4294175483
-6.9504585 796.98279 811.05945 4285947496
-5.2128439 796.98279 811.05945 4285486945
31.277063 796.98279 811.05945 4294175483
-7.8192658 798.31122 812.17944 4286408548
-5.1963301 800.51434 810.11304 4285356374
1.7321101 800.51434 810.11304 4285885285
29.445871 800.51434 810.11304 4290621643
31.177982 800.51434 810.11304 4290423998
33.014679 798.31122 812.17944 4290226363
-10.39266 803.16278 812.34619 4286805102
-8.0831804 802.27997 811.60181 4287330411
32.910091 801.83856 811.22961 4287657860
34.6422 803.16278 812.34619 4287527044
-7.7779818 805.28668 811.52081 4287790966
29.383486 804.62598 810.96375 4290615731
32.264221 805.06641 811.33514 4289038495
34.568806 805.94739 812.07788 4285093003
36.297249 805.94739 812.07788 4285093003
-7.4660549 809.01611 810.74121 4288185210
-4.3073397 808.13794 810.00085 4288316537
1.7229358 808.13794 810.00085 4288645522
3.4458716 808.13794 810.00085 4288580500
25.844036 808.13794 810.00085 4291080127
28.715597 808.57697 810.37109 4294234070
31.587156 809.01605 810.74121 4290157488
-12.922018 810.77234 812.22217 4286474083
-10.337615 810.77234 812.22217 4286607457
-7.7366972 812.22711 810.83264 4287857530
-4.2981653 812.22711 810.83264 4288251783
1.7192661 812.22711 810.83264 4290749869
28.367889 812.22711 810.83264 4291866340
31.874311 810.77234 812.22217 4285419851
34.458717 810.77234 812.22217 4282853632
-10.315597 813.5415 811.94092 4285290579
-7.7366972 813.5415 811.94092 4285621088
31.806421 813.5415 811.94092 4282259990
-10.282569 818.33978 812.06262 4286933088
-7.7119265 817.68469 811.51025 4286669921
-4.2844038 817.0296 810.95789 4286736237
28.277065 817.68469 811.51025 4289565042
30.847706 818.33978 812.06262 4294701297
-4.2752295 820.43976 811.21729 4288314740
-1.7100917 820.43976 811.21729 4288710786
1.7100917 820.43976 811.21729 4287003006
3.4201834 819.78607 810.66614 4287329409
8.5504589 819.78607 810.66614 4292326072
10.26055 820.43976 811.21729 4291605440
19.381041 820.22186 811.03351 4290225330
23.371254 820.22186 811.03351 4286668091
25.651377 820.43976 811.21729 4292653429
-7.6954126 822.40082 812.87085 4286474084
-4.2614679 824.56189 810.76892 4286343534
-1.7045871 824.56189 810.76892 4287264903
0.85504586 823.48132 811.81989 4286478197
4.2614679 824.56189 810.76892 4288776831
7.6706419 824.56189 810.76892 4290026397
11.079817 824.56189 810.76892 4291278787
13.636697 824.56189 810.76892 4292592585
17.045872 824.56189 810.76892 4291804102
19.602753 824.56189 810.76892 4291672515
23.011927 824.56189 810.76892 4292856769
25.651377 822.40082 812.87085 4294764490
-4.2614679 826.51666 812.41699 4286607213
-1.7045871 826.51672 812.41705 4287527808
0.85229355 825.86511 811.86768 4287921788
4.2614679 825.86511 811.86768 4289566582
7.6706419 825.86511 811.86768 4289633186
11.079817 825.86511 811.86768 4291540930
13.60734 827.30304 810.46411 4292461765
16.193579 825.86511 811.86768 4292067011
19.602753 825.86511 811.86768 4291672513
22.159634 825.86511 811.86768 4294698476
-13.472477 751.46442 814.53644 4284898895
37.722935 750.09113 813.37854 4293845748
39.519264 752.15112 815.11536 4293845748
-12.53578 755.10828 813.68469 4284176982
37.607338 755.10828 813.68469 4293845750
-16.117432 757.84644 815.99353 4284238672
-13.418348 757.23279 814.16803 4283781717
34.849541 757.98822 813.49695 4294043381
37.607338 756.47736 814.83911 4294174710
39.398167 757.16187 815.41632 4293846258
-16.084404 760.72083 815.80103 4284436304
-14.297248 759.35455 814.64905 4283650132
35.743118 759.35455 814.64905 4293911795
37.530273 760.03772 815.22504 4294174967
-16.034863 764.34082 814.9292 4284370261
-13.659328 763.4328 814.16357 4284570468
35.039143 763.4328 814.16357 4293649137
-13.3211 767.95233 814.05029 4284895321
35.522934 767.95233 814.05029 4293911795
-15.985321 769.31024 815.19519 4286540903
-13.308256 770.05859 814.51819 4286803818
35.449543 770.80701 813.84119 4293845233
37.299084 769.31024 815.19519 4294042611
-14.179816 772.16211 814.98376 4286475358
37.222019 772.16211 814.98376 4293911795
47.85688 772.16211 814.98376 4294175733
49.629356 772.16211 814.98376 4293978099
-13.252294 775.75397 814.08838 4284962648
37.106422 775.75397 814.08838 4293911795
-15.902752 777.10486 815.22729 4285422165
-13.21101 779.33746 813.18579 4284764767
35.229359 779.33746 813.18579 4293978101
37.93211 778.22119 814.20654 4293912308
-15.853211 782.03082 815.45667 4285029197
-14.091743 781.35748 814.88892 4283647824
37.577984 781.58197 815.07812 4294043895
-12.877065 785.14996 814.1626 4284437844
35.119267 784.255 813.40796 4293912308
36.875229 785.59747 814.53992 4293912054
-15.80367 786.93988 815.67188 4284567890
-13.156881 787.67847 814.98657 4283976280
-10.513762 787.07751 813.17175 4286606455
35.045872 787.74731 813.73651 4293648884
36.875229 786.93988 815.67188 4293714678
-13.122936 790.86255 814.40112 4284171331
-10.480734 791.96838 813.37146 4286538600
34.93578 791.96838 813.37146 4294306812
36.798164 789.75677 815.43079 4294438398
-13.100918 793.9715 815.06055 4285092953
-10.458715 794.77539 813.12231 4286407777
-8.7155962 794.77539 813.12231 4287460465
34.027523 794.03955 813.80994 4294767359
36.682568 793.9715 815.06055 4292530654
-12.782875 796.9964 814.99493 4285948501
-10.458715 796.10803 814.24597 4286539363
34.862385 796.10803 814.24597 4290095549
36.605503 797.44067 815.36951 4287134335
-12.163302 800.96802 814.41968 4286737762
-10.425688 799.63959 813.29956 4287001181
34.752293 799.63959 813.29956 4287134335
37.358719 800.96802 814.41968 4285157718
-13.900917 802.29645 815.53979 4285881953
39.965137 802.29645 815.53979 4283841868
-12.702141 805.36981 814.20703 4286539880
-10.39266 804.487 813.46265 4286869611
38.106422 804.487 813.46265 4284039247
39.838531 805.81122 814.57922 4284626476
-15.572477 808.52356 815.55811 4285618775
-10.370643 807.2688 813.19214 4286804068
34.568806 807.2688 813.19214 4283644473
37.334312 808.32599 814.08337 4283313186
39.754128 809.25092 814.86334 4282062615
-12.922018 812.08954 813.33276 4285355092
34.458717 812.08954 813.33276 4285417009
36.181652 812.08954 813.33276 4285285424
-15.506422 814.72394 815.55396 4285354322
-12.909174 814.13135 813.74628 4285616728
-10.315597 814.8559 813.04919 4285880418
31.806421 814.8559 813.04919 4288312710
34.385323 814.8559 813.04919 4290287772
37.043121 813.40674 814.44336 4288246943
40.201832 814.28485 815.18378 4291079631
-12.894495 816.82745 814.71155 4285550920
32.666054 816.17029 814.15747 4294964470
34.385323 816.17029 814.15747 4294964730
36.964218 816.82745 814.71155 4294899197
-10.282569 820.30505 813.71973 4286276185
-7.7119265 819.64996 813.16736 4286473301
28.277065 820.30505 813.71973 4294897135
31.704586 820.30505 813.71973 4294635771
34.27523 820.30505 813.71973 4294504700
-10.282569 822.27032 815.37671 4286869360
-7.6954126 823.70819 813.97314 4287791225
23.941284 823.70819 813.97314 4294964730
25.651377 823.70819 813.97314 4294965243
28.277065 822.27032 815.37671 4294371828
30.847706 822.27032 815.37671 4294174708
-6.8403668 825.01556 815.07544 4284765264
-18.018349 749.1897 816.54248 4284370511
-16.216515 749.1897 816.54248 4284765268
41.442204 749.1897 816.54248 4293911543
-18.618959 751.4856 818.47833 4285093461
-16.216515 750.56726 817.70398 4284436556
41.442204 751.25598 818.28473 4293845746
43.244038 751.94476 818.86548 4293714930
-17.065138 754.89771 817.43127 4284896857
41.315598 755.58435 818.01025 4293846513
43.111927 755.58435 818.01025 4293583345
-19.699083 760.58466 818.30225 4285158996
-17.908257 759.21558 817.14783 4285686370
40.592052 759.67194 817.53265 4293912304
42.979816 760.58466 818.30225 4293845233
-19.658716 763.45343 818.1051 4285157978
-17.871559 762.0871 816.95312 4284633433
37.530273 762.0871 816.95312 4293846259
39.913151 762.99799 817.72113 4293845996
-19.598166 767.06494 817.2262 4285750115
-17.22263 766.15692 816.46063 4285158740
37.41468 765.70288 816.07776 4294174710
39.196331 767.06494 817.2262 4293977840
-19.598166 768.42706 818.37463 4285750115
-16.873394 770.66809 816.34009 4286277211
40.026604 769.54761 817.35736 4294043894
43.650459 768.42706 818.37463 4294043894
46.322937 768.42706 818.37463 4294109940
-19.537615 772.70496 818.0575 4285618525
-16.85688 772.77161 816.80566 4285554008
38.994495 773.51715 816.12634 4294108404
40.851376 772.026 817.48499 4294239990
42.627522 772.70496 818.0575 4293977840
-19.497248 776.22729 818.4115 4286012506
-17.724771 774.87225 817.26892 4285553752
40.766972 775.5498 817.84021 4294109688
42.539448 776.22729 818.4115 4294175733
-19.436697 779.80658 817.50537 4285750104
-17.080734 778.90601 816.74603 4285488472
38.873394 778.45575 816.36633 4293846259
40.640366 779.80658 817.50537 4294175483
42.407341 779.80658 817.50537 4294307064
-19.436697 781.15747 818.64441 4285685340
40.640366 781.15747 818.64441 4294175483
42.407341 781.15747 818.64441 4294307064
-19.376146 784.72412 817.72766 4285684318
-17.027523 783.82635 816.9707 4285095517
38.752293 784.05078 817.15991 4293912055
40.51376 784.72412 817.72766 4294175229
-19.376146 786.0708 818.86304 4285487961
-16.681652 788.28235 816.80371 4285093984
38.631191 788.28235 816.80371 4294372605
40.51376 786.0708 818.86304 4294636031
42.27523 786.0708 818.86304 4294307582
-16.665138 790.3606 817.24805 4285158743
-14.018349 791.09644 816.56042 4284631898
38.550457 791.09644 816.56042 4294898943
40.387157 789.62482 817.93567 4294964735
-16.64679 793.10583 818.2547 4285618778
38.550457 792.43604 817.68994 4290357951
40.302753 793.7757 818.81946 4287989905
-15.721101 795.97467 816.74951 4286473570
38.429359 795.97467 816.74951 4287134596
40.176147 797.31006 817.87549 4283907129
-15.688073 799.43958 817.05499 4285618776
-13.944954 798.77325 816.49316 4286211418
-16.534863 802.53174 817.70013 4285552471
41.834862 801.43854 818.74048 4284037419
-17.376146 805.61755 818.33997 4285289810
41.702751 804.95331 817.77991 4283643678
-17.3211 809.78381 817.92883 4285224273
41.570641 808.45966 816.81226 4281991424
43.302753 809.1217 817.37054 4282126854
-16.420183 811.89374 817.09174 4285223248
41.482571 811.23303 816.53467 4283314475
43.21101 812.55444 817.6488 4292134862
-17.284403 813.87585 818.76294 4285025613
43.21101 813.87585 818.76294 4292991195
-16.367889 817.35834 817.77527 4285222990
-12.894495 818.79907 816.37402 4285552204
37.023853 818.37714 817.98022 4294109432
40.488991 817.35834 817.77521 4294306551
-15.473394 820.77063 818.03644 4285553239
-12.894496 820.77063 818.03644 4285290832
32.666054 820.11346 817.4823 4294438137
34.385323 820.11346 817.4823 4294438650
36.964218 821.42786 818.59058 4293912308
-10.282569 823.58051 816.48145 4284370261
-8.5688076 823.58051 816.48145 4284962398
32.561466 823.58051 816.48145 4294240504
34.27523 823.58051 816.48145 4293978101
-21.688074 749.67847 820.87866 4285354322
43.376148 748.29675 819.71362 4293714932
45.183487 748.98761 820.29614 4294043639
-21.622019 754.69977 821.18848 4285551957
-19.820183 753.32227 820.02698 4286538082
46.247097 753.78143 820.41412 4293846261
-21.555964 758.33099 820.32617 4285093203
-19.759632 756.95764 819.16821 4286670181
44.309479 757.41534 819.5542 4293911797
46.704586 758.33099 820.32617 4294043894
48.500916 758.33099 820.32617 4293978101
-22.421101 760.82898 820.47034 4285026387
43.875229 761.95374 819.45667 4294108915
46.561466 761.95374 819.45667 4293978101
-25.07156 764.69196 821.7655 4285157712
-22.363302 764.07129 819.93408 4285026644
41.104588 764.8197 819.25708 4294109169
43.78532 764.8197 819.25708 4294043892
46.466057 764.8197 819.25708 4293978099
-28.594496 767.55231 821.56116 4284960331
-25.913761 767.55231 821.56116 4285157967
-22.637308 766.64142 820.79315 4285092178
-21.379816 769.78912 819.52319 4284960851
44.541283 769.78912 819.52319 4294240756
46.322937 769.78912 819.52319 4294109940
48.995415 769.78912 819.52319 4294044148
51.667889 769.78912 819.52319 4294109686
-28.506422 772.51331 821.82007 4284960333
-26.130888 771.60529 821.05444 4284829517
-22.270641 771.15125 820.67163 4285157971
44.541283 771.15125 820.67163 4294438902
46.322937 771.83228 821.24585 4294109686
48.995411 771.83228 821.24585 4294044149
51.667889 771.15125 820.67163 4294175481
-28.418348 776.09961 820.9198 4284830028
-25.458105 775.64697 820.53815 4284895309
-22.497858 775.19434 820.15656 4285223761
44.403671 774.7417 819.7749 4294307062
47.06789 776.09961 820.9198 4294307064
49.732109 776.09961 820.9198 4294438904
-30.132111 778.93744 820.69666 4284698699
-21.86055 778.48578 820.31573 4285158481
44.311928 778.25989 820.12537 4294307064
46.970642 778.93744 820.69666 4294241269
-30.132111 780.29254 821.83923 4284829515
-24.814678 780.29254 821.83923 4285091917
-22.122936 781.40039 820.81134 4285026384
43.290825 782.5083 819.78345 4294438397
46.899082 781.40039 820.81134 4294373109
-21.203671 783.85919 820.92236 4284895823
44.174313 783.85919 820.92236 4294636543
45.941284 783.85919 820.92236 4294570488
-21.137615 788.7641 821.13403 4285158226
-19.376146 787.41742 819.99854 4285223767
43.155964 788.09076 820.56628 4294437110
45.798164 788.7641 821.13403 4294898940
-19.315596 790.96729 819.06763 4285355861
-17.559633 790.96729 819.06763 4285290329
40.387157 790.96729 819.06763 4290884295
42.14312 790.96729 819.06763 4291870157
-19.315596 792.98096 820.76544 4285486421
43.021103 792.98096 820.76544 4286803286
-19.275229 796.45496 821.07861 4285026644
-17.522936 795.11536 819.9491 4285355861
42.055046 795.11536 819.9491 4282853665
-19.21468 799.98096 820.12756 4285224019
-17.46789 798.64551 819.00146 4285289299
41.922935 798.64551 819.00146 4283380257
43.669724 799.98096 820.12756 4283971626
-19.174313 802.77118 819.86414 4285093203
43.57798 802.77118 819.86414 4284104229
45.416515 801.31641 821.25354 4283842618
-19.174313 804.10382 820.98779 4284962900
45.321102 804.10382 820.98779 4283049994
-19.113762 808.93854 821.14026 4284961101
45.177982 807.61011 820.02014 4281671168
-19.053211 812.43225 820.16199 4284829515
45.612232 811.99091 819.78979 4287597476
48.499084 812.43225 820.16199 4283975960
-19.012844 815.19727 819.8772 4285092167
43.21101 815.19727 819.8772 4294635261
45.900917 813.75647 821.27844 4294503930
48.499084 813.75647 821.27844 4291020483
-19.012844 816.51862 820.99133 4285158730
44.07523 816.51862 820.99133 4294569468
48.396332 816.51862 820.99133 4294700764
-16.655046 820.87085 820.737 4285224269
-12.922018 821.30994 821.10718 4284960322
-10.337615 821.30994 821.10718 4285419356
-6.8917432 821.30994 821.10718 4285222222
37.904587 821.30994 821.10718 4294109169
40.488991 820.65137 820.55188 4293846258
48.946789 748.7981 824.06055 4293977588
-22.591743 751.75104 822.62622 4285420376
48.798164 752.44189 823.20874 4294175483
-25.302752 753.82361 824.37378 4285091919
-27.027523 757.45483 823.51147 4284895310
-25.225689 757.45483 823.51147 4285157712
-23.423853 756.07733 822.34998 4285289299
-28.741285 761.07764 822.64197 4284698445
-26.046789 761.07764 822.64197 4284895567
-28.741285 762.45093 823.79993 4284829515
-26.944954 762.45093 823.79993 4284961101
-28.594496 768.91858 822.71313 4284632654
-28.506422 775.23749 824.11707 4284829515
-26.050154 777.91016 822.44635 4284895052
49.732109 778.13647 822.63721 4294241529
51.508255 778.81537 823.20972 4294504445
-25.728439 780.9104 823.66815 4284763467
-23.042202 781.64758 822.98169 4284829515
47.85688 781.64758 822.98169 4294438902
49.732109 780.17322 824.35461 4294372344
51.508255 780.17322 824.35461 4294767102
-24.814678 783.00269 824.12427 4284762955
-22.087156 785.21008 822.0614 4285026385
44.174313 785.21008 822.0614 4294965503
46.824768 785.21008 822.0614 4294833662
49.629356 783.00269 824.12427 4294636282
-24.737616 787.23633 823.76996 4284829515
-22.970642 786.56091 823.20044 4284829515
47.708256 786.56091 823.20044 4294966783
49.475231 787.23633 823.76996 4294966271
51.242203 787.9118 824.33948 4294966271
-22.018349 790.78406 822.83716 4284894539
44.036697 790.11072 822.26953 4292003486
46.678894 790.78406 822.83716 4289962388
-21.985321 793.89935 823.50189 4284829262
43.899082 794.99463 822.46338 4281998604
46.607338 793.89935 823.50189 4283770944
-25.461468 797.6795 824.72717 4284567109
-22.227524 797.27045 823.51019 4284763977
46.485321 797.0658 822.90167 4283184674
-25.408257 800.47394 824.46729 4284566600
-21.903669 799.80408 823.90247 4284566857
47.311928 799.13428 823.33765 4283316274
49.06422 800.47394 824.46729 4283841321
-20.961468 803.31958 822.9425 4284501836
47.163303 803.31958 822.9425 4283643412
-22.708258 805.32269 824.63159 4284829515
-20.06789 805.37952 823.37146 4285092945
47.06422 806.76904 823.23499 4280696642
48.910091 805.32269 824.63159 4283114752
-22.660551 808.10168 824.35864 4284960333
-20.917431 808.10168 824.35864 4284829515
-31.277063 811.5954 823.38037 4284959818
-22.588991 812.25964 823.94043 4284895052
-20.851376 812.25964 823.94043 4284961094
46.766972 815.08069 822.39502 4294832895
-22.517431 817.72913 824.62805 4284959820
-20.194494 817.32471 823.41504 4285026894
44.07523 817.84003 822.10547 4294174711
46.667889 817.84003 822.10547 4294832895
49.313763 817.12244 822.80853 4293450213
52.829357 817.72913 824.62805 4288713576
-19.588991 820.04242 823.96246 4285223503
-12.099083 820.48285 824.33386 4287260513
44.3633 819.60187 823.59113 4294043381
46.667889 819.82214 823.77679 4294306808
49.260551 819.16144 823.21973 4294436600
-16.367889 823.28577 822.77307 4285814866
-13.783486 822.62714 822.21777 4286404947
41.35046 822.62714 822.21777 4294042609
43.073395 822.62714 822.21777 4294042609
-17.229359 825.26154 824.43909 4285484867
-25.379816 750.18402 825.22913 4284829013
-28.506422 776.59955 825.2655 4284828748
-28.506422 778.6427 826.98822 4284829004
-28.418348 782.88904 826.64441 4284763216
-26.642202 782.21008 826.07196 4284762957
51.508255 781.53113 825.49951 4294767867
-28.359632 785.71283 826.40942 4284828500
-26.642202 784.24689 827.78943 4284959829
52.288074 785.03528 825.83813 4294768127
52.288074 787.06787 827.552 4294964735
-30.038532 791.96436 827.75647 4284697673
-28.271559 791.96436 827.75647 4284566859
-24.737616 789.93811 826.04797 4284894795
49.475231 789.93811 826.04797 4290419117
-25.541285 794.1507 825.6759 4284698187
49.321102 794.1507 825.6759 4281804588
-31.706423 796.84399 827.94678 4284829250
-29.357798 795.94623 827.18988 4284632131
49.321102 795.49738 826.8114 4282391842
-31.60734 800.36438 826.99097 4284697673
-28.680735 799.91693 826.61371 4284631880
-25.116209 802.26007 825.97333 4284632137
-22.779816 801.81354 825.5968 4284697675
49.06422 801.81354 825.5968 4283710516
-25.328442 806.65814 825.75757 4284697418
-33.119267 809.43433 825.4823 4285091406
-28.822018 807.99359 826.88354 4284762953
-25.27523 809.43433 825.4823 4284763722
-33.119267 812.09955 827.72961 4284500552
-31.376146 811.43323 827.16779 4284697673
-25.56575 811.21112 826.98047 4284762954
-24.905809 815.13788 826.36737 4284828747
-22.588991 814.25226 825.62061 4285025613
-25.195412 816.90906 827.86072 4284828746
52.128441 816.90906 827.86072 4294436590
-25.115597 821.03967 827.41956 4284697673
-22.517431 820.37762 826.86115 4284894539
-19.877064 821.80426 825.448 4285288270
-13.827523 821.80426 825.448 4286470740
44.07523 821.80426 825.448 4293911793
46.71743 821.75305 826.71289 4293977843
49.365139 820.3775 826.86115 4294437625
51.963303 820.37756 826.86121 4294963198
-19.877064 823.78638 827.11926 4285222206
-15.555964 823.12567 826.56226 4286142540
44.939449 823.12567 826.56226 4293780207
53.614677 775.75006 828.47327 4294504447
55.401836 775.75006 828.47327 4294504447
53.614677 777.11639 829.62537 4294438398
53.449543 780.68585 828.71094 4294438652
55.231194 782.04791 829.85938 4294833407
-30.194496 785.60474 828.93433 4284762955
-28.418348 785.60474 828.93433 4284763216
-26.642202 785.60474 828.93433 4284763216
-28.359632 788.42297 828.69458 4284697675
-26.587156 788.42297 828.69458 4284763468
52.288074 788.42297 828.69458 4294568182
52.583485 790.22974 830.21802 4285683325
51.831192 794.21582 829.65485 4282328097
-31.706423 799.53735 830.21777 4284500550
-29.06422 799.53735 830.21777 4284631880
-31.60734 803.04932 829.25488 4284566343
-28.973394 803.04932 829.25488 4284500550
-26.339449 801.70685 828.12292 4284697673
-35.045872 805.83246 828.98547 4284959820
-34.117432 808.25055 829.06226 4284566345
-28.822018 809.32898 828.00952 4284697673
-28.822018 810.66443 829.1355 4284829002
-33.119267 813.43219 828.85327 4284697675
-31.376146 813.43219 828.85327 4284762955
-28.470947 813.8764 829.22778 4284697417
54.036697 814.76483 829.97681 4286475637
-27.801834 819.56592 830.10095 4284632650
52.128441 819.56592 830.10095 4294964223
-25.115597 823.68811 829.65259 4285355597
-22.517431 823.026 829.09424 4284697673
46.766972 823.026 829.09424 4294438389
50.231194 823.026 829.09424 4294701304
55.515594 775.64478 831.00061 4294372605
57.306423 775.64478 831.00061 4294438398
55.515594 777.01385 832.15491 4294504445
55.231194 784.09106 831.58215 4294768127
55.231194 786.13416 833.30481 4294959357
79.729355 809.85144 832.37415 4294108913
-33.188992 813.33533 831.38757 4284697673
-31.442202 813.33533 831.38757 4284828748
-29.695414 814.00305 831.95056 4284828235
-29.051987 817.43011 832.22412 4284828489
54.036697 817.43011 832.22412 4288581531
-27.801834 820.89435 831.22107 4284632120
48.65321 820.89435 831.22107 4294109167
52.128441 820.89435 831.22107 4294964222
46.915596 822.22278 832.34106 4293977586
48.65321 822.22278 832.34106 4294109940
55.231194 787.49628 834.45337 4293709567
77.262383 809.76154 834.91443 4293845746
79.896332 809.76154 834.91443 4294174708
-33.293579 812.5307 834.63318 4284959818
-31.541285 812.5307 834.63318 4284959820
56.190826 811.104 836.04639 4284960808
-33.293579 813.87036 835.76282 4284959305
56.073395 814.54016 836.32758 4285486116
-28.470947 820.53955 834.84601 4284895044
47.06422 821.42798 835.59509 4293779953
49.678898 820.76166 835.03326 4294570490
52.293579 820.09534 834.47144 4294964223
54.036697 820.09534 834.47144 4287332243
-33.119267 822.76062 836.71863 4285748566
-28.761467 822.76062 836.71863 4284765006
-26.06422 824.87964 834.5813 4282990654
48.807339 822.76062 836.71863 4294372351
58.128441 808.96393 838.16602 4286737219
70.458717 808.96393 838.16602 4293978351
72.220184 808.96393 838.16602 4294109938
77.504585 808.96393 838.16602 4294108917
57.946789 812.44641 837.17822 4287000600
72.220184 810.31061 839.30151 4294175731
57.946789 814.46008 838.87616 4290154093
56.073395 817.21948 838.58667 4284759296
50.656879 820.01245 837.01758 4294965503
52.403671 820.01245 837.01758 4294570488
54.150459 820.68018 837.58057 4284966770
-28.79266 823.38831 838.55597 4283252027
-26.14679 824.09326 837.84229 4282594113
91.332108 789.33575 842.54443 4294372342
87.570641 792.14563 842.29761 4293912308
85.255043 799.18353 840.38354 4294043892
83.478897 801.89929 842.67346 4294174962
60.960548 806.82391 840.28564 4292133578
67.144951 806.82391 840.28564 4294044146
74.212845 806.82391 840.28564 4294240754
75.97982 806.82391 840.28564 4294569718
79.513763 806.82391 840.28564 4294108917
81.533943 804.68384 842.40527 4294174708
61.255047 808.62506 841.80438 4293317338
64.788994 809.07538 842.18408 4294240503
68.028442 808.85022 841.99426 4293977588
70.678902 808.85022 841.9942 4294109425
73.329361 808.85022 841.9942 4294372597
77.746788 808.17474 841.42468 4293978101
59.889908 811.65723 840.43689 4290487743
59.889908 813.67725 842.14014 4293316315
56.190826 817.81622 841.70593 4287396608
57.946789 817.14502 841.13995 4293645411
-33.293579 820.56854 841.41052 4285289816
-31.541285 821.2384 841.97528 4283645236
-28.912844 821.9082 842.54004 4282920496
-26.284403 821.9082 842.54004 4283183668
50.816513 819.22894 840.28101 4293582839
52.568806 819.22894 840.28101 4289310912
54.321102 820.56854 841.41052 4286609998
88.249542 752.29742 845.32349 4293977586
90.088074 752.29742 845.32349 4294108915
89.818352 757.32013 845.6344 4294109688
91.651375 757.32013 845.6344 4293978099
93.203667 760.92889 844.75317 4294109688
93.203667 762.32605 845.93115 4293846513
89.816513 787.17047 844.64282 4293977840
89.541283 790.7049 843.69885 4294108915
91.332108 790.7049 843.69885 4294108915
88.510086 793.83557 844.37659 4293978100
91.332108 792.07397 844.85327 4293912308
88.464218 796.24451 845.75366 4293977842
83.737617 798.39294 843.64111 4294109167
85.519264 799.07397 844.21539 4294043379
83.737617 801.11713 845.93811 4294174708
85.519264 801.11713 845.93811 4293978099
63.809174 806.03894 843.54785 4294635261
76.216515 806.03894 843.54785 4294175731
79.761467 806.03894 843.54785 4293978101
81.702751 804.61505 844.96338 4293846000
65.58165 808.74908 845.83301 4294108917
67.354126 808.74908 845.83301 4293911793
69.126602 808.74908 845.83301 4293977586
74.444038 808.07153 845.26172 4294109681
77.398163 807.8457 845.07129 4294307062
79.761467 807.39398 844.69043 4294175735
61.844036 811.55188 844.27222 4294961397
63.611008 810.87646 843.70276 4294306297
70.678902 810.87646 843.70276 4294240756
72.445869 810.87646 843.70276 4294372342
60.960548 813.57825 845.98071 4294501363
49.321102 817.04388 844.97876 4293452798
51.963303 817.04388 844.97876 4289768098
56.366974 817.04388 844.97876 4288706716
58.128441 817.04388 844.97876 4294364914
-33.363304 820.5011 843.96985 4282986809
54.434864 821.17236 844.53577 4292591567
57.946789 821.84357 845.10168 4294171878
-33.293579 823.24786 843.66968 4283117625
-31.541285 823.24786 843.66968 4282986296
-28.912844 823.24786 843.66968 4283052086
88.513763 748.6676 846.18701 4294306551
90.357796 748.6676 846.18701 4294240758
55.321102 750.07739 847.37573 4294504957
58.394497 750.54736 847.77197 4294373883
82.059631 751.48718 848.56445 4294372859
85.440369 750.54736 847.77197 4294109688
56.07523 753.703 846.50854 4294570239
86.411011 754.40576 847.10114 4293912054
88.249542 754.40576 847.10114 4293912052
91.007339 753.703 846.50854 4294240502
86.411011 756.51416 848.87891 4293912054
88.90184 758.7215 846.81604 4293978099
91.651375 758.7215 846.81604 4293912308
86.15229 760.12286 847.99756 4294043892
88.90184 760.12286 847.99756 4294044146
91.651375 760.12286 847.99756 4293649135
89.548622 763.72321 847.10925 4294044144
91.376144 763.72321 847.10925 4293845746
95.031189 763.72321 847.10925 4293977588
85.893578 765.12036 848.28723 4293978099
88.634857 765.12036 848.28723 4293912560
91.376144 765.12036 848.28723 4293976816
94.117432 765.12036 848.28723 4294306037
89.2789 770.10101 848.56274 4293912308
91.100914 770.10101 848.56274 4293846000
91.332108 794.12769 846.5849 4294109685
93.122932 794.81219 847.16211 4294109940
88.464218 797.61084 846.90576 4293978099
91.332108 796.18127 848.31641 4293978099
93.122932 796.18127 848.31641 4293911795
88.464218 798.97711 848.05774 4293912307
83.737617 803.16028 847.66083 4294438135
85.519264 803.16028 847.66083 4294109940
81.702751 805.97296 846.10828 4294240756
74.598167 808.68872 848.39807 4294109421
76.374313 808.00977 847.82562 4294174959
79.334557 808.23608 848.01642 4294306549
64.695412 810.78162 847.54688 4294240757
67.354126 810.78168 847.54688 4293912050
70.012848 810.78162 847.54688 4294043378
72.671562 810.78168 847.54688 4294306549
60.960548 814.92908 847.11975 4294238709
52.844036 818.39056 846.11426 4290419873
56.366974 818.39056 846.11426 4293705394
59.009174 818.39056 846.11426 4294301913
61.844036 816.27997 848.25879 4294306038
63.611008 816.27997 848.25879 4294174960
52.844036 819.73718 847.24976 4292658398
55.779816 820.63495 848.00677 4292134092
-33.363304 823.18604 846.23364 4283511858
-31.60734 823.18604 846.23364 4283315770
-28.973394 823.18604 846.23364 4283249973
61.959633 748.56445 850.02411 4294373883
73.365143 748.3288 849.82538 4294307318
75.831192 748.56445 850.02411 4294307316
79.530273 748.56445 850.02411 4294044151
59.009174 752.89697 849.75317 4294570237
75.831192 750.68542 851.8125 4294307062
82.304581 750.68542 851.8125 4294241271
84.825691 752.89697 849.75317 4293977847
84.825691 754.30676 850.94177 4293977847
82.733948 757.91974 850.06396 4294240758
84.572479 757.91974 850.06396 4294043892
85.235779 761.52423 849.1792 4293978099
87.985321 761.52423 849.1792 4294044144
93.484406 761.52423 849.1792 4294174710
84.319267 762.9256 850.36084 4293846513
93.484406 764.32697 851.54236 4294568955
88.634857 766.51752 849.46533 4293846002
91.376144 766.51752 849.46533 4294042611
94.42202 767.44891 850.25067 4294109171
94.117432 769.31183 851.82141 4294043122
89.2789 771.49396 849.73718 4294306810
91.100914 772.19043 850.32446 4294043634
88.464218 800.34338 849.20984 4293912561
87.570641 802.39282 850.93781 4294175219
82.846786 805.88446 849.95776 4294174965
85.519264 805.20343 849.38354 4294306549
80.174309 807.92761 851.68054 4294306551
64.695412 812.81427 849.26074 4294240754
67.354126 812.81427 849.26074 4294109169
70.012848 812.81427 849.26074 4293977841
74.116516 811.75696 850.33118 4294175475
76.374313 810.04657 849.54309 4294175731
78.150459 810.04657 849.54309 4294240758
51.401836 814.84692 850.97449 4288652451
65.58165 814.16937 850.4032 4294174960
67.354126 814.16937 850.4032 4293912306
70.012848 814.16937 850.4032 4293912307
72.671562 814.16937 850.4032 4294175481
53.009174 818.98169 850.53674 4294438902
54.776146 820.33252 851.67578 4291738282
-33.467892 823.10382 850.08838 4283513654
-31.706423 823.10382 850.08838 4283448370
-29.06422 822.43048 849.52063 4283382067
-26.422018 822.43048 849.52063 4283316276
56.366974 823.10382 850.08838 4292396745
54.605503 825.12384 851.79163 4292986566
79.766975 748.47382 853.87183 4294175481
79.530273 752.09937 853.00464 4294372346
82.304581 752.09937 853.00464 4294175479
83.102753 805.80859 853.81787 4294306038
85.783485 805.12543 853.24188 4294306807
76.611008 809.28967 852.82898 4294569718
79.283485 809.28967 852.82898 4294174711
83.102753 807.17487 854.96985 4294306551
49.886238 810.65173 853.97742 4287866044
76.611008 810.65173 853.97742 4294109169
79.283485 810.65173 853.97742 4293977332
49.732109 814.12024 852.97778 4288122997
52.288074 817.55707 853.25964 4294566364
-30.038532 821.68341 852.81482 4283514420
-28.271559 821.68341 852.81482 4283448627
-25.700916 819.58966 854.97351 4283448627
52.288074 819.58966 854.97351 4291801531
54.776146 821.68341 852.81482 4291802556
-34.455963 823.0343 853.95386 4283842618
-30.922018 823.0343 853.95386 4283710516
53.009174 823.0343 853.95386 4291144362
-35.229359 826.47046 852.92712 4284236612
54.605503 827.1438 853.49481 4294696933
48.302753 808.52075 857.41272 4290359739
82.209175 808.5412 856.12195 4294175733
49.886238 814.05701 856.84863 4291077559
51.508255 816.836 855.2677 4294959615
-28.359632 820.94476 856.11609 4283645493
-25.754128 819.55176 857.5575 4283579190
51.508255 819.55176 857.5575 4291603877
-33.572475 824.38513 855.0929 4284236612
-30.922018 824.38513 855.0929 4283843388
-28.359632 822.2998 857.25867 4283842618
53.009174 824.38513 855.0929 4293181890
-33.572475 825.73602 856.23181 4284434507
-31.805504 826.41144 856.80133 4284237892
48.253212 811.95691 859.00201 4289565095
48.253212 814.00635 860.72998 4291142043
-23.161469 818.14325 860.29407 4283710521
49.886242 817.46216 859.71979 4291274399
-25.754128 820.90961 858.70251 4283776825
51.508255 820.90961 858.70251 4292326553
-30.132111 823.65491 858.40125 4283974721
-28.38899 823.64014 859.69678 4284237891
-26.642202 822.26752 859.84741 4283646009
52.06361 823.18262 859.74701 4294170581
-30.132111 825.00995 859.5437 4284501063
53.174313 825.00995 859.5437 4294700275
43.86055 783.28339 863.60193 4293976816
46.704586 808.45679 862.59094 4287393926
46.561466 812.61047 862.16919 4290484370
46.561466 813.97961 863.32349 4290484883
48.253212 815.37268 861.88208 4291077020
48.253212 816.73895 863.03406 4290485133
-25.537003 821.09442 862.78241 4284106819
49.886238 820.86743 862.591 4292722614
-31.082569 824.98328 862.13721 4284763722
-28.418348 824.98328 862.13721 4284829250
51.508255 824.98328 862.13721 4294963959
-31.082569 826.34113 863.28223 4285091404
-28.418348 826.34113 863.28223 4284959809
40.447708 777.59772 866.65601 4294107891
42.159634 779.742 864.53992 4294305013
42.770641 782.07764 866.50928 4293779951
45.688072 784.68054 864.77991 4293976816
46.087158 802.18408 865.15002 4293056226
45.045872 805.66797 864.16357 4287261054
45.045872 807.73425 865.9057 4288904299
44.908257 811.89008 865.48572 4290352529
44.908257 813.26337 866.64368 4290023300
46.561466 815.34869 864.47791 4289892995
-23.233028 818.10522 864.18616 4283975492
46.561466 817.40234 866.20953 4291797405
48.253212 818.10522 864.18616 4291206042
-23.233028 820.15466 865.91412 4284369990
48.253212 820.15466 865.91412 4294761689
-26.130888 823.36456 864.69653 4284763202
49.886238 823.59155 864.88794 4294767353
-31.082569 827.69904 864.42712 4285224275
-28.418348 827.69904 864.42712 4285354826
-26.724771 825.6347 866.61072 4285091910
-30.194496 829.05688 865.57202 4285224273
40.447708 779.0033 867.84119 4293845233
-23.829357 785.34747 869.26636 4286211168
43.992661 785.34747 869.26636 4293976816
46.742203 784.64679 868.67554 4294043120
42.946789 790.26917 869.49207 4293713899
46.601833 790.26917 869.49207 4293977329
49.343121 790.26917 869.49207 4294372857
43.728439 793.78113 868.52917 4293779691
46.461468 793.78113 868.52917 4294109169
49.194496 793.78113 868.52917 4294636282
41.906422 795.17407 869.70374 4294701307
43.684402 796.57269 869.57495 4294371834
46.367889 796.58118 868.27405 4294241275
43.508255 801.46362 868.4668 4287195260
43.376148 804.94751 867.4801 4287061835
-21.688074 807.71094 869.81018 4283644473
43.376148 807.71094 869.81018 4289036670
-21.622019 811.17804 868.80945 4283776823
-19.820183 812.55554 869.97095 4283711802
43.244038 812.55554 869.97095 4288508281
-21.555964 814.63666 867.80164 4283974717
44.908257 814.63666 867.80164 4289955727
-21.555964 816.01001 868.95959 4284304967
44.908257 816.01001 868.95959 4291861657
-23.280733 820.82513 869.09546 4284697665
46.561466 820.14056 868.51825 4294239205
-28.594496 824.93671 869.94629 4285288528
-25.6159 823.57037 868.79425 4285026122
48.253212 822.2041 867.64221 4294766836
38.840366 773.3092 870.88831 4294042609
38.840366 774.72321 872.08057 4293845746
-18.440367 779.68286 872.33826 4286208074
40.568806 778.97797 871.7439 4293714673
43.205505 781.81445 870.21143 4293911279
-27.577982 784.62561 872.58179 4285948759
-25.73945 784.62561 872.58179 4286080352
-22.062386 783.22003 871.39661 4286538323
-19.304588 783.92285 871.9892 4286275668
40.447708 784.62561 872.58179 4293779439
42.28624 783.22003 871.39661 4293715184
-22.912844 787.44952 871.0387 4284238143
-20.163303 788.15021 871.62952 4282134049
40.326607 788.15021 871.62952 4293648105
43.076149 786.74884 870.44788 4293713646
46.742203 786.74884 870.44788 4293977331
-22.912844 789.55157 872.81104 4282067754
-19.246788 789.55157 872.81104 4282658350
40.326607 789.55157 872.81104 4293714411
42.033028 791.66632 870.67017 4294109169
-21.930275 793.06348 871.84814 4282986798
-19.188992 793.06348 871.84814 4283250228
40.205505 793.06348 871.84814 4294701307
-21.86422 797.95996 872.05273 4283316276
-19.131193 797.95996 872.05273 4283250483
40.995415 797.26349 871.46545 4291079613
-20.001835 800.75159 871.79041 4283316272
41.822018 800.05652 871.20435 4286799471
-22.729359 802.14172 872.96265 4283316784
-19.092661 802.14172 872.96265 4283513396
41.822018 802.14172 872.96265 4288576371
-19.941284 805.6214 871.97253 4283710266
41.695412 805.6214 871.97253 4288840312
43.508255 804.23547 870.80396 4288905074
-19.880733 809.09271 870.97522 4283776823
41.568806 809.09271 870.97522 4288772971
