# .PCD v0.7 - Point Cloud Data file format
VERSION 0.7
FIELDS x y z rgb
SIZE 4 4 4 4
TYPE F F F U
COUNT 1 1 1 1
WIDTH 1169
HEIGHT 1
VIEWPOINT 0 0 0 1 0 0 0
POINTS 1169
DATA ascii
-3.5229359 775.29749 809.7793 4286933088
-1.7614679 775.29749 809.7793 4291473061
1.7614679 775.29749 809.7793 4288317087
31.706423 775.29749 809.7793 4294964991
34.348625 775.29749 809.7793 4294043892
44.036697 775.29749 809.7793 4293978101
-3.5119267 778.88519 808.88037 4286801509
-1.7559633 778.88519 808.88037 4291604141
0.87798166 778.21399 808.31439 4289961653
3.5119267 778.21399 808.31439 4287525497
34.241287 778.88519 808.88037 4293977587
37.753212 777.54279 807.74841 4293912051
40.387157 777.54279 807.74841 4293978101
43.021103 778.21399 808.31439 4293912308
-1.7522936 781.71893 808.65356 4291342509
0 781.04907 808.08875 4291474637
4.380734 781.04907 808.08875 4287724673
34.169724 781.71893 808.65356 4293912055
37.382263 780.82587 807.90045 4293714931
40.302753 780.37927 807.52393 4293977847
42.639145 781.2724 808.27704 4293977588
45.559631 781.71893 808.65356 4293845746
-1.7522936 783.05853 809.78308 4291735466
0.87614679 784.17487 808.76227 4289894826
4.3724771 784.17487 808.76227 4287921797
7.8605504 785.2912 807.74146 4289237130
34.062386 785.2912 807.74146 4293912055
37.555962 785.2912 807.74146 4293583088
41.049541 785.2912 807.74146 4293846260
43.669724 785.2912 807.74146 4294438139
46.43578 783.05853 809.78308 4293978099
-1.746789 787.29431 809.43048 4292258988
1.164526 787.07178 809.24286 4289105312
4.075841 787.07178 809.24286 4287527792
7.8440366 788.11224 807.50403 4289302158
34.862385 788.11224 807.50403 4293912308
37.555962 786.62659 808.86743 4293583087
41.049541 786.62659 808.86743 4293912051
43.669724 786.62659 808.86743 4293912308
45.998779 787.51691 809.61816 4293978101
48.910091 787.96204 809.99353 4294109940
57.644035 787.96204 809.99353 4294110201
0 790.11121 809.18951 4293248980
4.6483178 790.33331 809.37677 4288314485
7.8440366 789.44489 808.62769 4289367696
37.477066 789.44489 808.62769 4293912306
40.672783 789.8891 809.00226 4294043892
43.57798 790.11121 809.18951 4293977842
45.321102 790.77753 809.75134 4294240758
57.522934 790.77753 809.75134 4294110201
5.2128439 794.32593 808.81921 4289037183
7.8192658 792.9975 807.6991 4289236365
37.648319 793.44037 808.07245 4293977587
41.123547 793.88312 808.4458 4294108915
0 795.65436 809.93933 4294696703
4.3357797 796.76013 808.90967 4288575603
6.9284406 797.86597 807.88 4288775814
38.106422 797.86597 807.88 4294108915
40.704586 797.86597 807.88 4294108915
43.440369 795.65436 809.93933 4294240758
45.177982 795.65436 809.93933 4294240758
0 799.19012 808.99646 4294893539
4.3302751 799.19012 808.99646 4288051578
7.7779818 800.66174 807.62122 4289170824
10.370643 800.66174 807.62122 4289500064
38.025688 800.66174 807.62122 4294372344
40.662384 799.9259 808.30884 4294306808
43.302753 799.19012 808.99646 4294109686
0 803.30457 809.84961 4292327364
4.6091743 802.86407 809.47821 4288052346
7.7779818 801.98315 808.73535 4289236365
40.618347 801.98315 808.73535 4294241271
43.787155 802.86407 809.47821 4294306810
0 806.82074 808.89026 4291934417
5.1688075 806.82074 808.89026 4288382071
7.753211 806.16211 808.33496 4289039758
10.337615 805.50354 807.77966 4289499801
12.060551 805.50354 807.77966 4290223523
37.904587 805.50354 807.77966 4294306299
40.488991 806.16211 808.33496 4294372089
43.073395 806.82074 808.89026 4294438391
7.7366972 809.59833 808.61621 4288973708
10.315597 808.94116 808.06207 4289302419
12.607951 808.72211 807.87738 4290157986
15.473394 808.28394 807.50793 4290685104
37.823853 808.28394 807.50793 4294372346
40.402752 809.59833 808.61621 4294569978
-1.7192661 810.91272 809.72449 4292194987
0 810.91272 809.72449 4291934670
4.2981653 810.91272 809.72449 4287788903
41.262386 810.91272 809.72449 4294242041
42.981651 810.91272 809.72449 4294373627
0.85688072 815.71942 809.85315 4291998152
4.2844038 815.06433 809.30078 4288907649
7.7073393 814.11786 807.84875 4288841866
11.127523 814.48151 807.50134 4289697440
13.695413 814.48151 807.5014 4290157989
16.245872 815.86395 807.35901 4290553258
19.666054 815.86395 807.35901 4291342008
23.086239 815.86395 807.35901 4291934406
25.651377 815.86395 807.35901 4292395469
28.216515 815.86395 807.35901 4292002760
31.636698 815.86395 807.35901 4293714672
35.056881 815.86395 807.35901 4294768125
37.622017 815.86395 807.35901 4294504443
39.959637 814.45746 807.91705 4294570237
43.700916 815.06433 809.30078 4294569980
0 818.4787 809.56372 4292460735
4.560245 818.04291 809.19629 4289238398
7.6954126 817.17133 808.46143 4289104524
11.115597 817.17133 808.46143 4289696927
13.680734 817.82501 809.01257 4290158505
16.245872 817.17133 808.46143 4290553003
19.666056 817.82501 809.01257 4291210676
22.801224 817.60712 808.82886 4291868610
25.651377 817.82501 809.01257 4292330447
28.216515 817.82501 809.01257 4291871687
31.636696 817.82501 809.01257 4293450732
35.341896 817.60712 808.82886 4294767357
37.622017 817.17133 808.46143 4294242041
40.187157 817.82501 809.01257 4294175480
43.322327 818.04291 809.19629 4294504444
7.6706419 821.30396 808.02191 4288841101
11.079817 821.30396 808.02197 4289762973
13.636697 821.95557 808.57129 4290026660
16.193579 821.30396 808.02191 4290684590
19.602753 821.95557 808.57129 4291079091
23.296026 821.52118 808.20508 4291803332
25.568808 821.95557 808.57129 4292329930
27.273394 821.95557 808.57129 4291806412
32.387157 821.95557 808.57129 4294964222
34.659939 821.52118 808.20508 4294701308
37.500916 821.30396 808.02191 4294372345
39.205505 821.95557 808.57129 4294372344
5.1137614 823.25873 809.67004 4288382864
7.6706419 823.25873 809.67004 4288906646
11.079817 823.25873 809.67004 4289828768
13.636697 823.25873 809.67004 4290092453
16.193579 823.25873 809.67004 4290553003
23.011927 823.25873 809.67004 4291869120
25.568808 823.25873 809.67004 4292330180
28.125687 823.25873 809.67004 4291869643
31.534863 823.25873 809.67004 4293517798
34.944038 823.25873 809.67004 4294636028
37.500916 823.25873 809.67004 4294438137
-4.1785932 751.91364 810.99121 4285685348
-1.7908257 751.00092 810.22156 4291146170
46.561466 751.00092 810.22156 4294372857
48.352295 751.68549 810.79877 4294240759
-4.4733944 754.49738 811.86163 4285685602
-1.787156 753.88934 810.04089 4291276727
0.89357799 753.88934 810.04089 4288977570
44.678898 753.88934 810.04089 4294438137
46.466057 754.57251 810.61694 4294109174
49.198166 754.49738 811.86163 4293978101
-4.4623852 757.7572 811.34015 4286014299
-1.7816514 758.89246 810.33533 4291540905
43.650459 758.89246 810.33533 4294241017
46.322937 758.89246 810.33533 4294043892
48.253212 756.62195 812.34497 4293912306
-4.7510705 760.7085 811.86664 4286013010
44.541283 760.25452 811.48376 4294372855
46.322937 760.25452 811.48376 4294108915
48.104588 761.61658 812.63232 4294174962
-3.5522935 763.87872 810.61548 4287263075
-1.7761468 763.87872 810.61548 4291671206
44.403671 763.87872 810.61548 4294108404
46.179817 763.87872 810.61548 4294109169
-4.7363911 765.68921 812.14203 4286539353
-1.772477 766.74182 810.41357 4291998376
44.311928 766.74182 810.41357 4293911541
47.363911 765.68921 812.14203 4293978098
-4.4311924 768.77441 812.12744 4286473048
46.970642 768.77441 812.12744 4293978100
-4.4174314 772.37683 811.24078 4286538076
31.805504 771.70142 810.67126 4294570488
34.455963 771.70142 810.67126 4294043891
44.174313 771.70142 810.67126 4293912056
46.530273 772.60199 811.43066 4294043893
-7.0678897 774.40314 812.94934 4285815127
-5.2844038 776.64417 810.91479 4286012506
46.678898 776.64417 810.91479 4294108917
49.475231 774.40314 812.94934 4293978101
-7.0458717 777.99084 812.05029 4286077529
49.321102 777.99084 812.05029 4293846000
-7.0238533 782.91254 812.27612 4285681989
-4.565505 781.30157 810.91779 4286538332
1.7559633 780.22766 810.01221 4288053148
47.411011 780.22766 810.01221 4293911795
50.044952 782.24133 811.71014 4294043892
-4.088685 785.29126 811.66559 4287062107
47.311928 784.39819 810.9126 4294043892
49.940369 785.06799 811.47736 4294044148
52.568806 785.73785 812.04211 4294109686
-4.075841 790.18781 811.87012 4287651412
-1.746789 789.29749 811.11951 4294955470
1.746789 789.29749 811.11951 4287789196
47.163303 789.29749 811.11951 4294240758
49.783485 789.96521 811.6825 4294043636
52.403671 789.96521 811.6825 4293978352
55.023853 789.96521 811.6825 4293846768
-3.4862385 793.44275 811.99866 4288048232
-1.7431192 792.77643 811.43683 4294958552
1.1620795 792.55438 811.24951 4290353072
3.4862385 792.11011 810.875 4287589737
43.57798 792.11011 810.875 4294174710
46.483181 792.55438 811.24951 4294174965
49.678898 793.44275 811.99866 4294174965
52.293579 793.44275 811.99866 4293977586
54.036697 793.44275 811.99866 4294108915
58.394493 792.77649 811.43677 4294241526
61.009174 792.11011 810.875 4294044658
-1.7376146 796.98279 811.05945 4294958045
1.7376146 796.98279 811.05945 4288380032
46.046791 796.98279 811.05945 4294240758
-3.4752293 798.31122 812.17944 4288115570
-1.7321101 800.51434 810.11304 4292983995
0.86605507 800.51434 810.11304 4289894599
3.4642203 800.51434 810.11304 4287130721
45.900917 800.51434 810.11304 4294503932
49.522018 798.31122 812.17944 4294109174
-3.4642203 802.50067 811.7879 4288115307
-1.7321101 801.83856 811.22961 4292785328
1.7321101 801.83856 811.22961 4288248455
46.766972 801.83856 811.22961 4294570239
49.076458 802.72137 811.97394 4294307064
-3.4568808 805.94739 812.07788 4288508010
-1.7284404 804.62598 810.96375 4292064682
1.7284404 804.62598 810.96375 4287789458
3.4568808 804.62598 810.96375 4287066211
44.939449 804.62598 810.96375 4294438652
46.667889 805.28668 811.52081 4294372858
48.396332 805.94739 812.07788 4294372857
-3.4458716 809.45514 811.11145 4288115822
-1.7229358 808.13794 810.00085 4292587433
1.1486238 808.57697 810.37109 4289301913
4.3073397 808.13794 810.00085 4287789185
44.222015 808.57697 810.37109 4294373112
46.519264 809.45514 811.11145 4294242041
-3.4458716 810.77234 812.22217 4288311147
-1.7192661 812.22711 810.83264 4292521899
0.85963303 812.22711 810.83264 4290484899
3.4385321 812.22711 810.83264 4287853676
44.700916 812.22711 810.83264 4294570237
46.519264 810.77234 812.22217 4294636286
49.103668 810.77234 812.22217 4294176248
-1.7192661 813.5415 811.94092 4291864998
46.420185 813.5415 811.94092 4294570237
48.13945 813.5415 811.94092 4294504445
-1.7137614 817.68469 811.51025 4291536550
1.7137614 817.0296 810.95789 4292526528
46.271561 817.68469 811.51025 4294504444
0.85504586 820.43976 811.21729 4292330450
3.9902141 820.22186 811.03351 4290226100
29.07156 819.78607 810.66614 4291214532
30.781651 819.78607 810.66614 4292068817
40.472172 820.65765 811.40106 4294241271
43.607338 820.43976 811.21729 4294504443
0.85504586 822.40082 812.87085 4289963450
4.2669725 823.48132 811.81989 4288183958
6.8183484 824.56189 810.76892 4288774269
32.387157 824.56189 810.76892 4294964476
34.944038 824.56189 810.76892 4294636028
37.500916 824.56189 810.76892 4294438137
40.123856 823.48132 811.81989 4294241014
43.607338 822.40082 812.87085 4294241270
-7.7840981 751.46442 814.53644 4285290843
50.297249 750.09113 813.37854 4293978101
52.093578 752.15112 815.11536 4294043893
-7.1633029 755.10828 813.68469 4285487961
50.14312 755.10828 813.68469 4293715184
-10.744954 757.84644 815.99353 4284566093
-8.0513763 757.23279 814.16803 4285684316
49.198166 757.23279 814.16803 4293912050
52.829357 757.16187 815.41632 4294175479
-8.3400612 759.81 815.03302 4285947740
50.040367 759.35455 814.64905 4294240244
52.423237 760.26544 815.41699 4294043124
-7.7204895 763.88678 814.54639 4285290573
49.886238 763.65979 814.35498 4293846002
51.667889 764.34082 814.9292 4293845746
-7.9926605 767.95233 814.05029 4285092685
49.732109 767.95233 814.05029 4293846261
-7.985321 770.05859 814.51819 4285420625
49.629356 770.80701 813.84119 4293846259
52.396332 769.31024 815.19519 4294043894
-8.8623857 772.16211 814.98376 4285749320
51.401836 772.16211 814.98376 4294306810
-8.8348627 775.75397 814.08838 4285879623
51.242203 775.75397 814.08838 4293846000
-7.9403672 778.22119 814.20654 4285617737
52.045872 778.22119 814.20654 4293978099
54.776146 777.10486 815.22729 4294307064
58.310093 777.10486 815.22729 4293978099
60.077065 777.10486 815.22729 4293714932
-8.8073397 781.35748 814.88892 4285355335
52.844036 780.68414 814.32117 4294043892
55.486237 781.35748 814.88892 4294044151
-7.0238533 784.92627 813.97394 4286143305
54.434864 784.255 813.40796 4294109686
-7.8944955 787.67847 814.98657 4285750087
-5.2568808 787.07751 813.17175 4285749057
-6.9871559 791.96838 813.37146 4286078801
-5.2403669 791.96838 813.37146 4285815628
55.897247 791.96838 813.37146 4294174708
-6.9871559 793.30377 814.49756 4286079318
-4.3577981 794.77539 813.12231 4287588709
49.678898 794.77539 813.12231 4294109172
52.293579 794.77539 813.12231 4293912308
55.277065 794.23944 814.41449 4293978100
58.144337 794.72998 813.95605 4294043892
61.009174 794.77539 813.12231 4293846513
-6.972477 796.77435 814.80774 4286209621
-5.2293577 796.10803 814.24597 4286472537
52.293579 796.10803 814.24597 4293846259
54.908257 796.77435 814.80774 4294043894
58.685013 796.9964 814.99493 4293912306
-5.2128439 800.30383 813.85962 4286539097
50.390827 799.63959 813.29956 4294240758
52.997246 800.30383 813.85962 4294175735
-6.9504585 802.29645 815.53979 4286012488
53.866055 802.29645 815.53979 4294242041
-5.1963301 805.14911 814.02094 4286802006
50.231194 804.487 813.46265 4294372857
52.540668 805.36981 814.20703 4294109942
-5.1853213 809.25092 814.86334 4286472784
49.260551 807.2688 813.19214 4294176248
52.745872 808.88727 815.21069 4294307061
55.427525 807.13544 815.6958 4294175733
-3.4458716 812.08954 813.33276 4287786089
49.965137 812.08954 813.33276 4294438652
-4.5944953 813.84576 814.81354 4286669655
49.052292 814.13135 813.74628 4294307582
52.262386 814.28485 815.18378 4294373879
-4.011621 817.04657 814.8963 4287196773
48.999084 816.82751 814.71161 4294372860
-1.7137614 820.30505 813.71973 4291276206
46.842815 820.52344 813.90381 4294438394
0.85504586 823.70819 813.97314 4288644757
41.042202 823.70819 813.97314 4294175733
43.607338 823.70819 813.97314 4294307062
47.128441 822.27032 815.37671 4294306808
0 825.01556 815.07544 4287196798
42.752293 825.01556 815.07544 4294372855
-9.0091743 749.1897 816.54248 4285488197
54.055046 749.1897 816.54248 4293912308
-10.811009 750.56726 817.70398 4284434757
55.256268 751.02637 818.09113 4293978099
-10.777982 754.21106 816.85229 4284500300
53.889908 754.21106 816.85229 4294043892
55.686237 755.58435 818.01025 4293912308
-10.744954 759.90015 817.72504 4284500555
55.515594 759.21558 817.14783 4293911541
58.201836 760.58466 818.30225 4293846768
-10.722936 763.45343 818.1051 4284368710
53.614677 762.0871 816.95312 4293976564
55.401836 762.77026 817.52911 4294174457
58.082569 763.45343 818.1051 4294306547
-10.689908 767.06494 817.2262 4284236862
52.558716 765.70288 816.07776 4294043128
55.231194 767.06494 817.2262 4294109688
57.903671 767.06494 817.2262 4294306549
-10.689908 768.42706 818.37463 4284236081
53.284405 770.66809 816.34009 4293978099
55.231194 768.42706 818.37463 4293912306
57.903671 768.42706 818.37463 4293978101
-10.65688 772.026 817.48499 4284169261
53.174313 773.51715 816.12634 4293714930
55.891743 772.77161 816.80566 4293912308
58.491745 773.51715 816.12634 4293978101
60.264221 773.51715 816.12634 4293978099
-10.634862 774.87225 817.26892 4284236081
56.719265 774.87225 817.26892 4294043892
-10.601835 779.13116 816.93585 4284434489
56.543118 778.45575 816.36633 4294044408
58.310093 778.45575 816.36633 4293978614
-10.568808 784.05078 817.15991 4284170801
-8.8073397 783.37744 816.59216 4285551941
-12.330276 786.0708 818.86304 4284498733
-10.53578 788.28235 816.80371 4283973672
-8.7798166 788.28235 816.80371 4285618754
-10.53578 789.62482 817.93567 4284367667
-8.7614679 791.09644 816.56042 4286144078
-10.513762 793.7757 818.81946 4285158201
-8.7614679 792.43604 817.68994 4286341191
-8.7339449 795.97467 816.74951 4286210888
59.390827 797.31006 817.87549 4293781236
61.137615 797.31006 817.87549 4293320685
-8.1345568 799.21747 816.86768 4285947213
55.779816 799.43958 817.05499 4294109942
57.522934 799.43958 817.05499 4294175479
-7.8330274 802.53174 817.70013 4285683787
55.603668 803.62488 816.65979 4293978099
57.522934 801.43854 818.74048 4294043892
-8.1088686 805.39618 818.15332 4285287753
58.210091 805.61755 818.33997 4294109428
-6.9284406 808.45966 816.81226 4284762164
55.427525 808.45966 816.81226 4294109938
57.737003 809.34247 817.55664 4294241524
-6.9137616 811.89374 817.09174 4284631353
53.58165 811.23303 816.53467 4294308086
55.310093 811.89374 817.09174 4294373621
57.038532 812.55444 817.6488 4294242293
-8.6422014 813.87585 818.76294 4284105542
55.310093 813.87585 818.76294 4294175733
57.038532 813.87585 818.76294 4293846511
62.223854 813.87585 818.76294 4293715180
-10.337615 818.67554 818.88586 4283578680
-7.3224773 817.68762 818.05286 4284171826
-4.2981653 818.79907 816.37402 4286738017
49.858715 818.79907 816.37402 4294569468
52.522018 817.05994 816.86963 4294373110
55.133945 818.01697 818.33057 4293846259
-4.2981653 820.77063 818.03644 4285947472
-1.7192661 820.11346 817.4823 4289368968
49.858715 820.77063 818.03644 4294438138
52.437614 820.77063 818.03644 4294241014
-1.7137614 823.58051 816.48145 4287130986
44.557796 824.2356 817.03381 4294438137
47.128441 824.2356 817.03381 4294306551
52.269726 824.89069 817.58618 4294175479
52.269726 826.20087 818.69092 4294044410
53.012844 828.93774 818.38257 4294175229
54.546787 833.68414 818.46045 4293978101
54.429359 836.40558 818.13916 4293977586
-12.651376 748.98761 820.29614 4284369224
57.834862 748.98761 820.29614 4293978098
-12.612844 754.01099 820.60773 4284369477
57.658714 753.32227 820.02698 4293912308
58.380737 756.95764 819.16821 4294043894
-12.574312 759.70428 821.48401 4284237614
-12.53578 764.00745 821.18829 4284105009
-12.47156 769.78912 819.52319 4283646009
-13.362385 771.83228 821.24585 4283645229
-13.3211 775.42065 820.34735 4283842852
-12.407339 778.25989 820.12537 4283843366
-12.407339 780.29254 821.83923 4284301885
-12.330276 788.7641 821.13403 4284301874
-10.53578 790.96729 819.06763 4285354296
-12.291743 793.65216 821.33142 4284892741
-10.513762 795.11536 819.9491 4285355329
-10.480734 799.31323 819.56451 4285223493
59.390827 799.31323 819.56451 4293780211
61.137615 798.64551 819.00146 4293517296
-10.480734 801.31641 821.25354 4284893511
59.266056 802.77118 819.86414 4293845746
61.137615 801.31641 821.25354 4293517037
-10.458715 804.10382 820.98779 4284299839
-10.425688 808.93854 821.14026 4283577402
-8.6880732 807.61011 820.02014 4284761421
60.816513 808.27429 820.5802 4293714928
-10.39266 812.43225 820.16199 4283315770
-8.6605501 811.10803 819.04541 4284498504
58.891743 811.77014 819.6037 4293780720
60.623852 812.43225 820.16199 4293715184
-12.124771 813.75647 821.27844 4283117334
-10.370643 815.19727 819.8772 4283118127
-8.6422014 815.19727 819.8772 4284105022
57.902752 815.19727 819.8772 4293977073
61.423851 814.47687 820.57782 4293713901
57.902752 816.51862 820.99133 4293846002
61.359634 816.51862 820.99133 4293845745
-12.060551 821.30994 821.10718 4283908400
-10.337615 820.65137 820.55182 4284170028
-7.753211 819.99274 819.99646 4284367410
55.995415 819.99274 819.99646 4293912308
58.579815 821.30994 821.10718 4293648616
60.302753 821.30994 821.10718 4294174960
-10.315597 824.05664 820.80701 4284234786
-7.7366972 823.39941 820.25293 4284432686
-4.5847096 823.18036 820.06818 4285420099
-1.7192661 822.74225 819.69885 4286933340
49.858715 823.39941 820.25293 4294241528
55.876144 823.39941 820.25293 4293846513
58.455048 824.05664 820.80701 4293517287
61.033943 824.05664 820.80701 4294043377
-10.315597 825.37103 821.91528 4284693284
-7.7366972 825.37103 821.91528 4285088814
-5.1577983 825.37103 821.91528 4286142016
55.697247 827.51111 819.79565 4293780725
58.455048 825.37103 821.91528 4293714159
55.638531 829.5332 820.19257 4293715443
56.433029 832.85986 821.68958 4293911793
58.14312 832.85986 821.68958 4293714413
54.429359 837.70593 819.2356 4293911795
-14.458715 752.44189 823.20874 4284369477
59.6422 751.06018 822.0437 4294109688
-14.458715 753.82361 824.37378 4284368953
-12.612844 756.07733 822.34998 4284500282
-17.065138 763.82422 824.95789 4283777856
-16.117432 767.43018 824.07422 4283974721
-14.326606 766.74561 823.49701 4283908668
-16.084404 770.28491 823.86523 4284040262
-16.034863 773.87537 822.96851 4283778121
-16.925688 775.23749 824.11707 4283778374
-15.985321 778.81537 823.20972 4284040512
-14.209174 778.13647 822.63721 4283908145
-19.537615 780.17322 824.35461 4284041798
-16.85688 780.9104 823.66815 4284106055
-14.179816 781.64758 822.98169 4284235818
-16.838531 783.00269 824.12427 4284303439
-13.252294 785.21008 822.0614 4284236081
-21.203671 787.9118 824.33948 4284369477
-19.436697 787.9118 824.33948 4284369477
-16.78624 787.23633 823.76996 4284237638
-14.135779 786.56091 823.20044 4284433460
-15.853211 790.78406 822.83722 4284303172
-13.504588 790.55957 822.64795 4284629570
-15.853211 792.80408 824.54041 4283974469
-13.191744 793.89935 823.50189 4284432456
-15.80367 797.0083 824.16119 4283711296
-13.462386 796.78448 823.97247 4284170559
61.330276 797.79462 822.20813 4293648366
-12.266055 799.80408 823.90247 4284103479
-12.227523 803.98724 823.50549 4283642425
61.137615 802.65186 822.37952 4293517037
-15.721101 805.32269 824.63159 4283315508
-13.088074 806.0459 823.93329 4283575839
-10.458715 805.4364 822.11133 4283906112
62.752293 806.76904 823.23499 4293912558
64.495415 806.76904 823.23499 4294044144
-13.944954 808.10168 824.35864 4283182612
-13.321712 811.5954 823.38037 4283644194
-12.124771 815.08069 822.39502 4283316776
-12.977982 817.12244 822.80853 4283974195
58.766972 817.84003 822.10547 4293517287
61.359634 817.84003 822.10547 4293912048
-13.827523 819.16144 823.21973 4284237364
-15.506422 823.28577 822.77307 4284631102
-12.922018 823.28577 822.77307 4284367162
-12.909174 825.97351 823.73132 4285945166
-10.315597 827.34265 823.5777 4286801504
-7.7366972 826.68542 823.02356 4287721057
56.554127 830.13147 822.005 4293912308
59.124771 830.13147 822.005 4293912311
59.981651 831.44165 823.10974 4294108915
56.433029 834.16724 822.79187 4293911795
58.14312 834.82092 823.34308 4293977328
-14.458715 755.20538 825.53882 4284237614
-18.073395 757.96881 827.8689 4284040260
-16.266054 757.27795 827.28638 4284039747
-14.458715 756.5871 826.70386 4284367667
-14.414679 760.20984 825.83447 4284237364
-19.759632 765.19751 826.11584 4284106308
-17.963303 765.19751 826.11584 4284106308
-22.086851 769.71191 825.99823 4284237382
-19.699083 769.48376 825.80585 4284368710
-17.908257 768.79926 825.22864 4284237642
-22.385321 771.53748 827.53735 4284303430
-19.658716 773.01746 826.16931 4284369223
-17.871559 771.65118 825.01721 4284107087
-19.658716 774.38379 827.32129 4284369477
-17.816513 776.59955 825.2655 4284369477
-22.270641 779.32373 827.5625 4284172862
-19.537615 782.21008 826.07196 4284238406
-17.761467 782.88904 826.64441 4284369227
-21.203671 790.61353 826.61749 4284434243
-19.436697 790.61353 826.61749 4284368707
-17.669725 789.93811 826.04797 4284237383
-17.614679 794.1507 825.6759 4284171849
-17.614679 796.17065 827.37909 4284171847
63.412846 796.84399 827.94678 4293582312
-15.80367 799.02197 825.85913 4283645505
-14.047707 799.02197 825.85913 4283708206
-15.770642 801.81354 825.5968 4283777095
-14.018349 801.81354 825.5968 4283379253
63.082569 801.81354 825.5968 4293715434
-15.721101 806.65814 825.75757 4283118629
-15.721101 807.99359 826.88354 4283841584
-17.284403 821.80426 825.448 4284828729
-12.922018 826.57874 825.54968 4285619031
-16.365137 749.31628 828.42151 4284302406
-18.183487 752.09656 830.76587 4284170819
-16.365137 750.70642 829.59375 4284104770
-22.385321 772.90656 828.69177 4284369477
-22.339451 775.75006 828.47327 4283976004
-22.567583 781.13989 829.09375 4284172870
-21.203671 793.99072 829.46503 4284369478
-19.436697 793.99072 829.46503 4284303685
-21.137615 798.86401 829.65002 4284369224
-19.376146 798.19067 829.08228 4284369223
-17.614679 798.19067 829.08228 4284500561
-19.315596 802.37805 828.6889 4284566340
-17.559633 802.37805 828.6889 4284631618
-19.315596 804.39172 830.38672 4284697673
-17.559633 804.39172 830.38672 4284828479
-19.275229 807.17212 830.11499 4284434759
-16.64679 807.17212 830.11499 4284566077
-22.970642 797.36786 832.3125 4284566343
-21.137615 800.88397 831.35327 4284697663
-21.137615 802.90399 833.0564 4284500551
-23.042202 796.55341 835.54993 4284501063
-24.403669 821.42798 835.59509 4285486164
-22.660551 820.76166 835.03326 4285616724
-24.455046 821.3479 838.14355 4283644991
-22.708258 821.3479 838.14355 4282855219
-20.088074 821.3479 838.14355 4282788646
-25.328442 822.68335 839.26965 4283118641
-22.708258 822.68335 839.26965 4282920753
-20.088074 822.68335 839.26965 4282462261
-17.46789 822.68335 839.26965 4282789668
-25.408257 821.9082 842.54004 4283119155
-19.275229 821.9082 842.54004 4283118645
-17.522936 821.9082 842.54004 4282857521
-22.708258 824.0188 840.39563 4283380785
-20.961468 824.0188 840.39563 4283250230
-22.708258 826.02197 842.08459 4283578677
-20.961468 826.68964 842.64758 4283448114
-28.095413 821.84357 845.10168 4283249725
-26.339449 821.84357 845.10168 4283381567
-19.315596 821.84357 845.10168 4283316276
-24.53211 823.24786 843.66968 4283512374
-21.027523 823.24786 843.66968 4283316276
-28.036697 825.92712 845.92871 4284041012
-25.408257 825.92712 845.92871 4283712047
-22.708258 828.69281 844.33661 4283646003
-20.961468 828.02509 843.77356 4283646007
-17.614679 820.41052 847.8175 4283054638
65.174309 821.08386 848.38525 4294240758
-28.095413 823.18604 846.23364 4283710266
-25.461468 823.18604 846.23364 4283644726
-19.315596 823.18604 846.23364 4283316272
-25.408257 827.26678 847.05835 4284040511
62.036697 815.52441 851.54578 4294701055
63.809174 815.52441 851.54578 4294569718
-15.902752 818.30627 849.96729 4282988844
63.611008 818.98169 850.53674 4294240758
63.611008 820.33252 851.67578 4294240758
-19.376146 822.43048 849.52063 4283514420
-17.724771 818.23462 853.83093 4283514420
-14.179816 816.87952 852.68835 4283250226
61.445873 817.33124 853.06915 4294174710
-21.203671 821.68341 852.81482 4283776823
-19.436697 821.68341 852.81482 4283579700
-17.724771 819.58966 854.97351 4283448627
62.036697 819.58966 854.97351 4294306551
63.611008 821.68341 852.81482 4294306297
-14.253211 812.01385 855.12598 4282857771
-15.985321 817.51489 855.84015 4283448627
-14.209174 817.51489 855.84015 4283448373
60.388992 816.836 855.2677 4294174710
-19.537615 819.55176 857.5575 4283513657
-17.761467 819.55176 857.5575 4283448375
62.165138 819.55176 857.5575 4294438137
63.809174 820.94476 856.11609 4294306297
-16.166973 805.0235 859.69604 4282857521
-13.472477 805.71014 860.27502 4282594602
59.097248 808.50317 858.70593 4294108656
60.888073 808.50317 858.70593 4294240504
58.976147 811.95691 859.00201 4294174710
-12.510092 814.00635 860.72998 4283448375
-16.628746 818.3703 860.48553 4283909689
-14.253211 818.82428 860.86829 4283844155
61.021557 817.80267 860.00696 4294240758
63.941284 820.90961 858.70251 4294239990
-12.651376 800.80237 863.98499 4282528555
56.027523 800.80237 863.98499 4294175735
57.658714 802.9129 861.84058 4294042863
61.262386 802.9129 861.84058 4293977588
63.06422 802.9129 861.84058 4294372346
-10.811009 804.29047 863.00208 4282855461
57.658714 804.29047 863.00208 4294108656
-12.574312 807.77014 862.01196 4283118897
57.482571 809.14343 863.16992 4294108917
-12.53578 811.24139 861.01477 4283251249
59.097248 812.61047 862.16919 4294306038
-13.416513 814.67615 862.60278 4283514168
58.141285 814.67615 862.60278 4294174965
58.976147 816.73895 863.03406 4294240758
-19.598166 820.1864 862.01672 4284369725
-16.925688 820.1864 862.01672 4284370231
-14.253211 820.1864 862.01672 4284238650
61.466972 820.86743 862.59094 4294438391
64.13945 820.86743 862.591 4294438136
51.478901 777.59772 866.65601 4294242041
-16.398165 790.29877 865.59296 4283843385
-13.665138 790.29871 865.59296 4283317060
56.482571 790.99524 866.18018 4293978353
-16.315596 797.30579 864.96094 4282921255
-13.596331 797.30579 864.96094 4283117875
56.198166 797.30579 864.96094 4294372342
-10.877064 798.69177 866.12964 4282528555
54.385323 798.69177 866.12964 4294175735
-10.844037 803.5658 866.31506 4283118897
55.425079 803.10522 865.92676 4294108661
57.658714 805.66797 864.16357 4294174708
-9.9100914 807.73425 865.9057 4283382326
55.256268 807.96387 866.0993 4294174965
-10.777982 811.20337 864.90674 4283514169
55.686237 811.89008 865.48572 4294438391
57.482571 810.51672 864.32776 4294174451
-12.53578 815.34869 864.47791 4283778106
-10.777982 813.26337 866.64368 4283712063
-8.9816513 813.26337 866.64368 4283712063
57.482571 813.26337 866.64368 4294372344
-12.53578 817.40234 866.20953 4284238143
-10.744954 817.40234 866.20953 4284237894
57.862995 817.63666 865.5351 4294306551
-14.297248 819.47156 865.33813 4284435270
58.976147 820.15466 865.91412 4294503418
61.466972 822.91052 864.31372 4294504443
64.13945 822.91052 864.31372 4294569720
66.583488 771.89526 869.69604 4294240504
-3.6880734 776.15839 869.36658 4286272848
49.78899 776.15839 869.36658 4294372601
55.321102 776.86328 869.96094 4294306814
52.398167 779.0033 867.84119 4294307064
52.398167 780.40887 869.02637 4294241271
56.07523 780.40887 869.02637 4294109690
-9.1651373 785.34747 869.26636 4283056447
-7.3321099 785.34747 869.26636 4283055414
52.546795 784.88037 868.8725 4294307318
55.907341 783.94611 868.08472 4294241271
-10.965137 788.17346 867.72504 4282856758
52.998165 788.87201 868.31409 4294767613
55.43486 787.94061 867.52863 4294241269
-9.1376143 790.26917 869.49207 4283182123
51.170643 790.26917 869.49207 4294306551
-12.754128 792.38818 867.35474 4283378483
-10.021101 793.08466 867.94196 4282985771
52.838531 793.08466 867.94196 4294241015
55.267887 792.85254 867.74628 4294240756
58.304588 792.38818 867.35474 4294174708
-10.000917 795.88611 867.68799 4282856494
-7.2807341 796.57269 869.57495 4283052336
51.874313 795.87762 868.98889 4294175735
-9.0642204 800.0777 867.29822 4283118377
52.572475 800.0777 867.29822 4294240758
54.385323 800.0777 867.29822 4294240504
-9.0642204 801.46362 868.4668 4283250226
50.759632 802.84955 869.63538 4294108917
52.572475 801.46362 868.4668 4294174197
-9.0366974 804.94751 867.4801 4283382069
-7.2293577 805.63837 868.06262 4283316277
50.605503 806.32922 868.64514 4294174962
52.412846 805.63837 868.06262 4294240758
54.220184 804.94751 867.4801 4294108915
-9.0091743 809.80054 867.64795 4283579963
-7.2073393 809.80054 867.64795 4283646270
-5.4220185 807.71094 869.81018 4283646270
49.701836 807.71094 869.81018 4294241268
52.253212 809.80054 867.64795 4294307316
54.055046 809.80054 867.64795 4294372342
-7.2073393 811.86682 869.3902 4283843906
52.253212 811.86682 869.3902 4294043378
54.655659 811.63721 869.19659 4294174709
-8.9816513 814.63666 867.80164 4284172101
55.686237 814.63666 867.80164 4294437369
-8.9816513 816.01001 868.95959 4284369223
55.686237 816.01001 868.95959 4294370806
-12.53578 820.14056 868.51825 4284763465
57.306423 820.14056 868.51825 4294240758
58.976147 822.2041 867.64221 4294372855
61.35902 822.65948 868.02618 4294438903
-1.8495413 773.3092 870.88831 4287720543
48.088074 773.3092 870.88831 4294174708
-1.8495413 774.72321 872.08057 4287720043
46.238533 774.72321 872.08057 4294306299
48.088074 774.72321 872.08057 4294043892
-4.6100917 778.97791 871.7439 4288051310
-1.8440367 779.68286 872.33826 4288644478
47.944954 779.68286 872.33826 4294307062
49.78899 778.97797 871.7439 4294373111
-9.1926603 781.81445 870.21143 4288052859
-7.3541284 781.81445 870.21143 4287592560
51.478901 781.81445 870.21143 4294307062
-4.5963302 783.92279 871.98914 4282659884
-1.8385321 784.62561 872.58179 4282134049
47.801834 784.62561 872.58179 4294306549
49.640366 783.92285 871.9892 4294306805
-9.1651373 786.74884 870.44788 4282262053
-7.3321099 787.44952 871.0387 4282461482
-5.4990826 788.15021 871.62952 4282921005
49.491745 788.15021 871.62952 4294306549
51.324772 786.74884 870.44788 4294307062
-7.310092 791.66632 870.67017 4282986546
-5.4990826 789.55157 872.81104 4282986546
49.491745 789.55157 872.81104 4294175735
51.170643 791.66632 870.67017 4294175735
-5.4825687 793.06348 871.84814 4283117875
49.343121 793.06348 871.84814 4294175735
-5.4660549 797.26349 871.46545 4283184176
49.194496 796.56702 870.87817 4294175735
51.016514 796.56702 870.87817 4294240758
-7.2733946 799.36145 870.61829 4283118897
-4.5458717 800.75159 871.79041 4283250226
49.701527 799.82489 871.00897 4294043381
-3.6366973 802.14172 872.96265 4283514168
-1.8183486 802.14172 872.96265 4283579961
47.277065 802.14172 872.96265 4294174708
-4.5321102 804.92847 871.38824 4283514427
47.133945 805.6214 871.97253 4294240756
48.946789 804.23547 870.80396 4294240758
-5.4220185 809.09271 870.97522 4283777856
49.701836 809.09271 870.97522 4294043633
-4.5183487 810.47443 872.14026 4284041028
46.990826 810.47443 872.14026 4294044146
49.701836 810.47443 872.14026 4294109172
-7.2073393 814.62183 871.7132 4284435273
-5.4055047 814.62183 871.7132 4284435273
50.451378 814.62183 871.7132 4294109168
52.253212 814.62183 871.7132 4294109168
54.055046 813.93304 871.13245 4293976305
-10.777982 818.06995 870.69647 4284698187
-8.3828745 818.29883 870.88947 4284698187
53.889908 818.06995 870.69647 4294174965
55.686237 818.06995 870.69647 4294240501
-12.574312 820.12994 872.43335 4285223760
-10.777982 820.12994 872.43335 4285027408
-8.0834866 820.12994 872.43335 4284961101
53.889908 820.12994 872.43335 4294174708
55.686237 820.12994 872.43335 4294438137
58.022755 823.28943 871.17346 4294503929
4.6788988 760.4397 875.7334 4288184442
0 767.59833 873.92114 4287196526
44.65321 767.59833 873.92114 4294307064
46.51376 767.59833 873.92114 4294438650
0 769.02075 875.12048 4287459184
43.722935 769.02075 875.12048 4294372345
0 772.58319 874.2002 4287983218
46.376148 771.16498 873.00439 4294372346
-1.8495413 776.13721 873.27283 4289036151
0 776.13721 873.27283 4288774269
44.521099 774.0014 875.396 4294372346
46.238533 776.13721 873.27283 4294306297
48.088074 776.13721 873.27283 4294044146
0 777.55121 874.46497 4288447614
44.388992 778.96521 875.65723 4294306297
46.238533 777.55121 874.46497 4294306297
-1.8440367 781.09259 873.52698 4283579698
0 781.79749 874.12134 4283184687
44.256882 782.50238 874.7157 4294240504
46.715595 781.5625 873.92316 4294240759
0 783.91217 875.9043 4282855461
43.334862 783.91217 875.9043 4294306551
-3.6770642 786.73401 874.35944 4282922030
-1.8385321 786.73401 874.35944 4282987823
0 787.43677 874.95203 4282987048
46.882568 786.73395 874.3595 4294240758
-3.666055 790.95288 873.99268 4283118127
-1.8330275 790.95288 873.99268 4283183920
47.658714 790.95288 873.99268 4294043892
-3.666055 792.35425 875.17432 4283118127
-1.8330275 792.35425 875.17432 4283118127
46.670639 793.40747 874.10028 4294109940
-3.655046 795.85779 874.20435 4283118897
-1.827523 795.85779 874.20435 4283250226
43.86055 797.25494 875.38232 4293912308
46.297245 796.32355 874.59698 4293846515
-1.8220184 799.35291 873.22717 4283382069
0 800.04938 873.81445 4283514164
46.461468 800.04938 873.81445 4294108661
-1.8183486 803.53186 874.13477 4283646270
0.91100919 802.83533 874.85547 4283908411
43.728439 802.13879 875.57617 4294042611
45.458717 803.53186 874.13477 4294305784
0 804.922 875.30688 4284040514
45.458717 804.922 875.30688 4294108656
-3.6256881 807.00739 873.14111 4283843649
-1.8128439 808.39331 874.30975 4284172101
0 809.0863 874.89398 4284369223
45.925385 808.39331 874.30975 4293977841
-3.6146789 811.85614 873.3053 4284434759
46.990826 811.85614 873.3053 4294109940
48.798164 811.85614 873.3053 4294175733
-3.6146789 813.23785 874.47034 4284697675
-1.8073394 813.92871 875.05286 4284763468
46.087158 813.92871 875.05286 4294043381
48.798164 813.23785 874.47034 4294306551
-4.5045872 817.37683 874.03625 4284960845
49.550461 817.37689 874.03619 4294240756
52.253212 817.37683 874.03619 4294174962
-10.777982 821.50323 873.59131 4285093201
-8.0834866 821.50323 873.59131 4285092944
-4.5045872 819.44312 875.77844 4285158480
49.550461 819.44312 875.77844 4293978101
53.07156 820.47314 874.68488 4294043380
55.686237 821.50323 873.59131 4294240758
-8.0834866 822.87653 874.74927 4285356116
55.686237 823.56317 875.32825 4294240503
10.354128 754.68671 878.73083 4289695891
7.5082569 758.28284 877.83887 4288776066
37.541283 758.28284 877.83887 4294899199
40.238533 761.87048 876.93982 4294504186
43.981651 761.87048 876.93982 4294306807
1.8715596 763.30133 878.14624 4287854712
3.7431192 763.30133 878.14624 4288052616
37.431194 763.30133 878.14624 4294767615
39.302753 763.30133 878.14624 4294372857
40.431194 766.40088 876.83563 4294504187
42.919266 765.44983 876.03369 4294372344
1.866055 768.30304 878.43945 4288838527
3.73211 768.30304 878.43945 4288578182
40.120186 768.30304 878.43945 4294372857
43.722935 770.44312 876.31982 4294306810
65.119263 770.44312 876.31982 4293977588
67.910095 770.44312 876.31982 4294306296
1.8605504 772.57678 878.11884 4288972931
3.7211008 773.28796 878.71851 4288842372
40.93211 773.28796 878.71851 4294636282
42.79266 771.86554 877.51917 4294372855
1.8550459 776.83777 877.7876 4283909948
40.811008 776.83777 877.7876 4294307064
43.284405 775.89227 876.99042 4294438649
3.7100918 778.25598 878.98328 4283313973
38.955963 778.25598 878.98328 4294964479
1.8495413 781.08618 877.44562 4282854437
3.6990826 781.79315 878.04175 4282134053
38.840366 781.79315 878.04175 4294570239
40.689907 781.08618 877.44562 4294306551
42.539448 780.37921 876.84949 4294240758
43.334862 785.32196 877.09302 4294503927
0.92201835 787.78705 877.20947 4283118127
3.6880734 786.73175 878.28174 4283118645
40.568806 786.73175 878.28174 4294372855
43.268806 787.78705 877.20947 4294175733
45.963303 788.84235 876.13721 4294175733
0.91926605 790.95068 877.91486 4283183922
3.6770642 791.65344 878.50745 4283447862
40.447708 791.65344 878.50745 4294504443
42.899082 790.71649 877.71729 4294109940
0 793.75562 876.35583 4283250226
43.992661 793.75562 876.35583 4293846513
1.8330275 795.15698 877.53748 4283513907
4.5825686 795.85767 878.1283 4283579957
7.3321099 796.55835 878.71912 4283908411
10.081652 796.55835 878.71912 4283842618
42.159634 795.85767 878.1283 4294240249
1.827523 798.6521 876.56042 4283449397
4.2642207 799.58356 877.3457 4283842874
7.310092 800.04926 877.7384 4284106560
9.1376143 800.04926 877.7384 4284172353
42.946789 799.35071 877.14941 4294108404
1.8220184 803.5318 876.75073 4284106308
4.563303 802.48914 877.83362 4284172353
7.310092 801.44641 878.9165 4284369477
10.051376 801.44641 878.9165 4284369477
38.377983 801.44641 878.9165 4294502910
41.055962 802.48914 877.83362 4294108658
43.728439 803.5318 876.75073 4293779691
1.8220184 804.92474 877.92517 4284237894
4.5550461 804.92474 877.92517 4284501567
41.906422 804.92474 877.92517 4294174708
43.640366 806.31213 876.479 4293912045
1.8183486 809.09247 878.82324 4284697675
41.822018 808.3974 878.23718 4293977586
43.640366 807.70233 877.65112 4293912308
0 811.85815 877.23114 4284763468
41.695412 812.55109 877.81543 4294174710
43.508255 811.85815 877.23114 4294043897
40.78899 813.93701 878.98401 4294372087
-1.8073394 816.6922 877.38293 4285157968
0 816.6922 877.38293 4285224017
41.568806 817.38306 877.96545 4293978099
43.376148 816.6922 877.38293 4293978099
46.087154 816.69226 877.38293 4294109428
-12.612844 820.82068 876.93982 4285421913
-10.811009 820.82068 876.93982 4285422165
-4.5045872 820.82068 876.93982 4285487185
-1.8018348 820.82068 876.93982 4285684560
0 820.82068 876.93982 4285618767
50.451378 820.82068 876.93982 4294174710
52.253212 820.82068 876.93982 4294306297
54.055046 820.82068 876.93982 4294108917
-12.612844 822.19818 878.10132 4285882716
-9.9100914 822.19818 878.10132 4285554008
-7.2073393 822.19818 878.10132 4285684824
-4.5045872 822.19818 878.10132 4285684564
-1.8018348 822.19818 878.10132 4285684560
0 822.19818 878.10132 4285618261
49.550461 822.19818 878.10132 4294043379
52.253212 822.19818 878.10132 4293977586
54.055046 822.19818 878.10132 4293846000
-8.0834866 826.99646 878.22302 4286013529
-4.7902141 826.53876 877.8371 4286012506
-7.1633029 830.40881 877.17627 4286144862
-4.4770641 830.40881 877.17627 4286079069
13.216514 752.52563 880.83276 4290288805
15.104588 752.52563 880.83276 4290421155
19.82477 752.52563 880.83276 4290947760
22.656881 752.52563 880.83276 4291210428
24.544954 752.52563 880.83276 4292000200
31.153212 752.52563 880.83276 4292198345
33.985321 752.52563 880.83276 4292725716
7.5302753 757.56519 881.15784 4288712069
10.66789 756.60565 880.34882 4289697432
24.473394 756.12592 879.94434 4292065223
31.376146 757.08545 880.75336 4292396234
34.51376 756.60571 880.34882 4293187812
40.475227 756.12592 879.94434 4294438139
43.299084 756.12592 879.94434 4294503162
1.8770642 759.71783 879.04883 4287657349
5.0055046 760.19623 879.45215 4288250504
7.5082569 761.15289 880.25879 4289039752
35.038532 760.67456 879.85547 4294042612
37.541283 759.71783 879.04883 4294833407
1.8715596 764.73218 879.35266 4288183163
4.6788988 764.73218 879.35266 4288841616
7.5082569 762.58789 881.46875 4289564042
11.262385 762.58789 881.46875 4289499280
31.910091 762.58789 881.46875 4291737794
34.673393 763.66003 880.41071 4293515239
37.431194 764.73218 879.35266 4294833407
5.6146789 766.16296 880.55908 4289301906
7.4862385 766.87842 881.16229 4289499794
10.293578 767.59381 881.7655 4290290338
31.816513 767.59381 881.7655 4291409597
34.93578 767.11688 881.36334 4293121503
37.431194 766.87842 881.16229 4294833663
4.6651373 769.72961 879.64233 4289629583
40.120186 769.72961 879.64233 4294438907
64.378899 769.72961 879.64233 4293780722
67.177979 769.72961 879.64233 4294174708
5.598165 771.15625 880.84521 4289895061
7.46422 771.15625 880.84521 4289960354
37.321102 771.15625 880.84521 4294833407
39.187157 771.15625 880.84521 4294767359
4.6513758 775.42151 880.51752 4284761924
7.4422016 776.13275 881.11719 4285618474
35.35046 776.13275 881.11719 4293780195
37.21101 776.13275 881.11719 4294306303
39.07156 774.71033 879.91785 4294767103
5.5651374 779.67419 880.17908 4282134053
37.100918 779.67419 880.17908 4293846261
5.5651374 781.09235 881.37488 4282462262
7.4201837 781.09235 881.37488 4282788903
10.202752 781.09235 881.37488 4282066467
20.405504 781.09235 881.37488 4290092160
34.318352 781.09235 881.37488 4292791249
1.8495413 783.20715 879.23401 4283118377
4.6238532 783.91418 879.83014 4282856247
7.3981652 784.62115 880.42627 4282857771
10.172478 784.62115 880.42627 4283185969
37.915596 783.91418 879.83008 4294109937
40.689907 783.20715 879.23401 4294635511
1.8440367 788.14154 879.47046 4283249717
4.6183486 787.08838 880.54443 4282923315
7.3981652 786.03516 881.61841 4283056166
10.172478 786.03516 881.61841 4283252268
13.871559 786.03516 881.61841 4283448119
16.645872 786.03516 881.61841 4283381819
19.420183 786.03516 881.61841 4282657074
22.194496 786.03516 881.61841 4282785280
28.667891 786.03516 881.61841 4293908437
34.216515 786.03516 881.61841 4292659146
37.857796 787.08838 880.54443 4294306803
40.568806 788.14154 879.47046 4294372855
5.5321102 789.55133 880.65906 4283579448
7.3761468 789.55133 880.65906 4283056434
10.142202 789.55133 880.65906 4283384116
13.830275 790.96106 881.84778 4284039999
16.596331 790.96106 881.84778 4284106560
19.362385 790.96106 881.84778 4284303434
22.128441 790.96106 881.84778 4284237646
29.504587 790.96106 881.84778 4286140555
31.348623 790.96106 881.84778 4293443322
34.114677 790.96106 881.84778 4293776877
37.495411 790.02124 881.05536 4293977068
5.5155964 793.05902 879.69263 4283514420
7.3541284 793.05902 879.69263 4283514420
10.111927 793.05902 879.69263 4283579446
12.869725 794.4646 880.87769 4283974204
38.609173 793.76184 880.28516 4294635253
40.447708 793.76184 880.28516 4294437627
10.998165 797.95972 879.90063 4284369979
12.831193 797.95972 879.90063 4284435772
38.49358 797.95972 879.90063 4294766587
40.326607 797.95972 879.90063 4294239990
13.747706 799.36108 881.08228 4284632650
16.497248 799.36108 881.08228 4284698699
18.330275 799.36108 881.08228 4284829774
29.32844 799.36108 881.08228 4284568142
32.994495 799.36108 881.08228 4285485662
34.827522 799.36108 881.08228 4293841373
36.660549 799.36108 881.08228 4294239994
7.310092 802.84363 880.09448 4284567361
10.051376 802.84363 880.09448 4284567109
13.706423 802.84363 880.09448 4284764235
32.895412 802.84363 880.09448 4283188517
34.722935 802.84363 880.09448 4291676070
37.464218 802.84363 880.09448 4293911032
40.205505 802.84363 880.09448 4294306551
1.8220184 806.31769 879.09973 4284500552
4.5550461 806.31769 879.09973 4284566857
7.2880735 806.31769 879.09973 4284698949
10.051376 804.24072 881.27258 4284830025
13.706423 804.24072 881.27258 4284895564
16.447706 804.24072 881.27258 4284961101
19.188992 804.24072 881.27258 4285158226
22.844036 804.24072 881.27258 4285355861
25.585321 804.24072 881.27258 4285421652
28.326607 804.24072 881.27258 4285882203
31.981651 804.24072 881.27258 4283384884
34.722935 804.24072 881.27258 4290032791
37.406422 805.27917 880.18616 4292599021
40.084404 806.31769 879.09973 4294372344
4.8587155 808.17499 880.66571 4284697931
7.2880735 808.4071 880.86145 4284960589
9.1100922 809.10358 881.44873 4285158224
14.576147 809.10358 881.44873 4285421652
23.686239 809.10358 881.44873 4285947226
25.508257 809.10358 881.44873 4286012756
28.241283 809.10358 881.44873 4286341981
31.885321 809.10358 881.44873 4284895042
34.618347 808.4071 880.86145 4288251501
37.351379 808.4071 880.86145 4292856801
40.084404 807.71063 880.27417 4294438137
1.8183486 811.17767 880.58142 4284960590
3.6366973 811.17767 880.58142 4284895312
38.185322 811.87274 881.16748 4294962934
40.00367 810.4826 879.99536 4294569468
1.812844 815.32294 880.15259 4285224273
3.6256881 815.32294 880.15259 4284698447
39.882568 815.32294 880.15259 4294438650
1.812844 816.70892 881.32117 4285421132
4.5321102 816.70892 881.32117 4285224534
38.069725 816.70892 881.32117 4294963939
40.725685 817.73682 880.22583 4294438137
43.376148 818.76477 879.13049 4294175733
46.087158 818.76477 879.13049 4294175477
48.798164 818.76477 879.13049 4294306551
1.8073394 820.8374 880.87805 4285684567
3.6146789 820.8374 880.87805 4285815641
37.954128 821.52826 881.46057 4294964210
40.665138 820.8374 880.87805 4294438136
43.376148 820.8374 880.87805 4294372856
46.087158 820.8374 880.87805 4294241015
48.798164 821.52826 881.46057 4294108917
-9.9100914 823.57568 879.26282 4285751130
-7.2073393 823.57568 879.26282 4285947226
-3.6036696 823.57568 879.26282 4285750617
-1.8018348 824.2644 879.84357 4285947482
0 824.2644 879.84357 4285816663
50.451378 823.57568 879.26282 4294108917
52.253212 824.2644 879.84357 4294109173
54.055046 823.57568 879.26282 4294109686
50.451378 826.33075 881.58582 4293977840
-1.7963303 828.36975 879.38098 4286210655
0 829.0564 879.95996 4286342490
17.042202 750.3645 882.93469 4290750119
26.510092 750.3645 882.93469 4292000702
28.403669 750.3645 882.93469 4292461253
9.4403667 755.41248 883.26685 4289567122
13.216514 754.6908 882.65833 4290092450
16.048624 754.69073 882.65833 4290552223
19.82477 754.69073 882.65833 4290947247
22.656881 754.6908 882.65833 4291275963
25.803671 754.93134 882.86115 4291999679
28.3211 754.6908 882.65833 4292723655
30.209175 753.96906 882.0498 4292528075
20.768806 756.85596 884.48401 4291406262
22.656881 756.85596 884.48401 4291341753
26.433027 756.85596 884.48401 4291868866
10.040367 759.48413 882.77588 4289630864
13.177981 759.724 882.97815 4290157468
16.001835 759.724 882.97815 4290682532
19.578716 760.73151 883.82764 4291274414
22.590826 761.16327 884.19171 4291342512
25.226421 760.73145 883.82764 4291868862
28.238533 760.4436 883.58496 4292197832
30.748625 759.48413 882.77588 4292264650
10.323853 764.02295 882.67883 4289499792
13.139449 764.02295 882.67883 4290223775
15.955046 764.02295 882.67883 4290879655
30.97156 764.02295 882.67883 4291672514
33.787155 764.02295 882.67883 4291278792
13.139449 765.45795 883.88879 4290356897
15.955046 765.45795 883.88879 4290815395
19.709175 765.45795 883.88879 4291472559
