# .PCD v0.7 - Point Cloud Data file format
VERSION 0.7
FIELDS x y z rgb
SIZE 4 4 4 4
TYPE F F F U
COUNT 1 1 1 1
WIDTH 1159
HEIGHT 1
VIEWPOINT 0 0 0 1 0 0 0
POINTS 1159
DATA ascii
-69.759636 772.8252 1266.8132 4284638070
-67.354126 772.8252 1266.8132 4285294225
-64.948624 771.90564 1266.038 4289174738
-57.732109 772.8252 1266.8132 4289636064
-55.326607 773.74469 1267.5885 4285161117
-74.28624 780.15485 1266.4532 4284506487
-70.691742 781.07086 1267.2256 4284374397
-67.097244 781.07086 1267.2256 4283912808
-64.70092 781.07086 1267.2256 4284176236
-62.304588 780.15485 1266.4532 4285096328
-58.710091 781.07086 1267.2256 4284898957
-55.115597 781.07086 1267.2256 4284964499
-66.84037 788.36194 1266.8331 4284440190
-64.453209 788.36194 1266.8331 4284440190
-62.066055 788.36194 1266.8331 4284505735
-69.227524 790.18695 1268.3719 4284637569
-66.84037 790.18695 1268.3719 4284637572
-64.453209 790.18695 1268.3719 4284703365
-62.066055 790.18695 1268.3719 4284703367
-57.291744 790.18695 1268.3719 4284112513
-54.904587 790.18695 1268.3719 4284507015
-64.255043 795.98895 1268.0319 4284900993
-61.875229 795.98895 1268.0319 4284965519
-68.748627 802.30371 1266.8162 4284966786
-60.596329 760.84021 1269.7881 4284631439
-58.172478 760.84021 1269.7881 4283256702
-72.165138 775.58368 1269.1392 4284112513
-69.759636 775.58368 1269.1392 4283520120
-70.292351 784.4295 1270.0575 4284243581
-67.097244 783.81885 1269.5426 4284243316
-59.109478 785.04022 1270.5724 4284374149
-55.115597 785.65088 1271.0874 4284900239
-69.227524 792.92444 1270.6802 4284900742
-66.84037 792.92444 1270.6802 4284703617
-64.453209 792.01196 1269.9108 4284703619
-62.066055 792.01196 1269.9108 4284769160
-58.485321 793.83698 1271.4495 4284702855
-54.904587 793.83698 1271.4495 4284769158
-66.634865 797.80835 1269.5659 4284769660
-64.255043 797.80835 1269.5659 4285361540
-66.634865 799.62775 1271.1001 4284966532
-64.255043 799.62775 1271.1001 4284966532
-61.875229 799.62775 1271.1001 4285031566
-57.115597 799.62775 1271.1001 4284703617
-68.748627 805.92847 1269.8724 4284966532
-68.748627 807.74084 1271.4006 4284705161
-60.871559 755.64972 1273.2598 4283649659
-58.436699 755.64972 1273.2598 4284177034
-56.001835 755.64972 1273.2598 4284506256
-63.306423 757.51123 1274.8293 4290618602
-56.001835 757.51123 1274.8293 4284374926
-53.566971 757.51123 1274.8293 4284506506
-59.908257 787.48291 1272.6321 4284571524
-58.710091 789.31494 1274.1768 4284637574
-55.115597 789.31494 1274.1768 4284703367
-69.227524 795.66199 1272.9883 4284769158
-62.066055 795.66199 1272.9883 4285097105
-58.883179 796.27032 1273.5012 4284768391
-69.014679 801.44714 1272.6342 4284966534
-66.634865 802.35681 1273.4011 4284900741
-64.255043 802.35681 1273.4011 4284966534
-61.875229 802.35681 1273.4011 4284966537
-66.377983 809.55322 1272.9287 4284439686
-61.636696 811.3656 1274.4569 4284308620
-59.266056 811.3656 1274.4569 4284506256
-53.566971 759.37268 1276.3989 4284703630
-4.8697248 761.23413 1277.9684 4287803124
-2.4348624 760.30341 1277.1836 4292473343
-58.485321 799.31195 1276.0659 4284703619
-54.904587 799.31195 1276.0659 4284900741
-58.485321 801.13696 1277.6047 4284900489
-66.634865 805.08594 1275.7023 4285098122
-64.255043 805.99561 1276.4692 4284769160
-61.875229 805.99561 1276.4692 4284768909
-58.702137 806.29883 1276.725 4284505738
-61.636696 813.17798 1275.9851 4288255430
-59.266056 813.17798 1275.9851 4288387273
-55.710091 813.17798 1275.9851 4285626277
-51.324772 754.737 1279.0303 4284506506
-7.3321099 754.737 1279.0303 4288788479
-4.8880734 754.737 1279.0303 4291940863
-2.4440367 754.737 1279.0303 4294441215
-36.660549 756.60547 1280.6058 4287007930
-34.216515 756.60547 1280.6058 4287205311
-31.772476 756.60547 1280.6058 4288257999
-29.32844 756.60547 1280.6058 4288389333
-25.662384 756.60547 1280.6058 4289310951
-17.108257 756.60547 1280.6058 4287075271
-9.7761469 756.60547 1280.6058 4286091475
-7.3321099 756.60547 1280.6058 4287867630
-4.8880734 756.60547 1280.6058 4288327679
-4.8697248 763.09564 1279.538 4287474423
-2.4348624 763.09564 1279.538 4291421695
-2.4238532 772.88513 1279.9441 4291877887
4.8477063 773.81165 1280.7252 4294507775
-79.381653 787.53735 1279.2183 4288256463
-21.649542 788.45691 1279.9935 4289047776
-19.244038 788.45691 1279.9935 4287339198
-16.838531 788.45691 1279.9935 4287536320
-13.230275 788.45691 1279.9935 4288719088
-9.6220188 788.45691 1279.9935 4288259557
-55.115597 794.81097 1278.8109 4284769410
-57.291744 802.96198 1279.1434 4284768140
-54.904587 804.78699 1280.6823 4284440460
-64.255043 808.72467 1278.7704 4283653518
-57.115597 808.72467 1278.7704 4284374665
-52.355965 810.54407 1280.3044 4284308607
-49.976147 810.54407 1280.3044 4284769158
-7.1119266 818.61511 1280.5696 4289113558
-4.7412844 818.61511 1280.5696 4288654315
-2.3706422 818.61511 1280.5696 4289444088
-7.0844035 826.6441 1280.7992 4287666657
-4.7229357 826.6441 1280.7992 4287404237
-2.3522935 834.63098 1280.9934 4290165998
-36.660549 758.474 1282.1813 4286877114
-34.216515 758.474 1282.1813 4287271356
-31.772476 758.474 1282.1813 4288192458
-29.32844 758.474 1282.1813 4288258265
-25.662384 758.474 1282.1813 4289245418
-21.99633 758.474 1282.1813 4287140299
-19.552294 758.474 1282.1813 4287204026
-17.108257 758.474 1282.1813 4288256970
-13.442202 758.474 1282.1813 4290031330
-9.7761469 758.474 1282.1813 4286356187
-7.3321099 758.474 1282.1813 4286948580
1.2220184 758.474 1282.1813 4293982463
4.8880734 758.474 1282.1813 4293982207
7.3321099 758.474 1282.1813 4294113535
9.7761469 758.474 1282.1813 4293784575
-34.216515 760.34247 1283.7567 4287008952
-31.772476 760.34247 1283.7567 4287864261
-29.32844 760.34247 1283.7567 4288454876
-25.662384 760.34247 1283.7567 4289310693
-21.99633 760.34247 1283.7567 4287468999
-19.552294 760.34247 1283.7567 4287205824
-17.108257 760.34247 1283.7567 4288192719
-13.442202 760.34247 1283.7567 4288982235
-9.7761469 760.34247 1283.7567 4286553321
-7.3321099 760.34247 1283.7567 4287013872
1.2220184 760.34247 1283.7567 4293719807
4.8880734 760.34247 1283.7567 4294310655
7.3321099 760.34247 1283.7567 4294310655
9.7761469 760.34247 1283.7567 4294113791
12.220183 760.34247 1283.7567 4294113791
-12.174312 764.95709 1281.1075 4287603942
-7.3045874 764.95709 1281.1075 4285895888
-4.8697248 764.95709 1281.1075 4287668200
-2.4348624 764.95709 1281.1075 4291813119
-29.218349 766.8186 1282.6771 4288322772
-25.566055 766.8186 1282.6771 4289375462
-21.913761 766.8186 1282.6771 4290296564
-19.478899 766.8186 1282.6771 4290166248
-17.044037 766.8186 1282.6771 4290495213
-13.391743 766.8186 1282.6771 4289113849
-9.7394495 766.8186 1282.6771 4287339239
-7.3045874 766.8186 1282.6771 4286615259
-4.8697248 766.8186 1282.6771 4287340534
-2.4348624 766.8186 1282.6771 4291485439
0 766.8186 1282.6771 4292140799
4.8697248 766.8186 1282.6771 4294244863
-24.238533 775.66467 1282.2877 4289179362
-21.814678 775.66467 1282.2877 4288850654
-19.390825 775.66467 1282.2877 4287075269
-16.966972 775.66467 1282.2877 4288456922
-13.331193 775.66467 1282.2877 4288982265
-9.6954126 775.66467 1282.2877 4289180157
-7.2715597 775.66467 1282.2877 4289640703
-4.8477063 775.66467 1282.2877 4290560765
-2.4238532 775.66467 1282.2877 4292008191
4.8477063 775.66467 1282.2877 4293587711
-24.238533 777.5177 1283.8501 4289310682
-21.814678 777.5177 1283.8501 4289113560
-19.390825 777.5177 1283.8501 4287336920
-16.966972 777.5177 1283.8501 4288850415
-13.331193 777.5177 1283.8501 4288719606
-9.6954126 777.5177 1283.8501 4288127987
-7.2715597 777.5177 1283.8501 4289246463
-4.8477063 777.5177 1283.8501 4290167295
-2.4238532 777.5177 1283.8501 4291811839
4.8477063 777.5177 1283.8501 4293849855
-24.14679 782.07483 1281.1523 4288980966
-21.732111 782.07483 1281.1523 4288915173
-19.31743 782.07483 1281.1523 4287075256
-16.902752 782.07483 1281.1523 4288391116
-13.280734 782.07483 1281.1523 4289113337
-9.6587152 782.07483 1281.1523 4288194286
-24.14679 783.9209 1282.709 4289112806
-21.732111 783.9209 1282.709 4289178599
-19.31743 783.9209 1282.709 4287338694
-16.902752 783.9209 1282.709 4288128210
-13.280734 783.9209 1282.709 4288850677
-9.6587152 783.9209 1282.709 4288390894
-7.2440367 783.9209 1282.709 4289772543
-4.8293576 783.9209 1282.709 4290101502
-2.4146788 783.9209 1282.709 4291811839
-55.326607 790.2959 1281.5442 4284703615
-21.649542 790.2959 1281.5442 4289113560
-19.244038 790.2959 1281.5442 4287601100
-16.838531 790.2959 1281.5442 4287535307
-13.230275 790.2959 1281.5442 4288456936
-9.6220188 790.2959 1281.5442 4288587494
-7.2165136 790.2959 1281.5442 4289771767
-4.8110094 790.2959 1281.5442 4289311464
-2.4055047 790.2959 1281.5442 4291417087
-21.649542 792.13495 1283.0947 4289048028
-19.244038 792.13495 1283.0947 4288915925
-16.838531 792.13495 1283.0947 4289113560
-13.230275 792.13495 1283.0947 4288784352
-9.6220188 792.13495 1283.0947 4288784357
-7.2165136 792.13495 1283.0947 4289244908
-4.8110094 792.13495 1283.0947 4288851167
-2.4055047 792.13495 1283.0947 4291351295
-55.115597 799.39099 1282.6726 4284834441
-11.981651 800.30701 1283.4451 4290887931
-7.1889906 800.30701 1283.4451 4290822638
-4.7926607 800.30701 1283.4451 4290627061
-2.3963304 800.30701 1283.4451 4291350783
-54.904587 806.61194 1282.2211 4284243079
-14.322936 806.61194 1282.2211 4289375460
-16.710093 808.43701 1283.7599 4288126928
-14.322936 808.43701 1283.7599 4287798754
-10.742202 808.43701 1283.7599 4287996388
-7.161468 808.43701 1283.7599 4289180659
-4.774312 808.43701 1283.7599 4290494709
-2.387156 808.43701 1283.7599 4291284223
-49.976147 812.36346 1281.8385 4284966536
-14.278899 812.36346 1281.8385 4288785392
-7.1394496 812.36346 1281.8385 4288523245
-4.7596331 812.36346 1281.8385 4289114353
-14.278899 814.18286 1283.3726 4287798493
-9.5192661 814.18286 1283.3726 4287997142
-7.1394496 814.18286 1283.3726 4288654815
-4.7596331 814.18286 1283.3726 4288654313
-2.3798165 814.18286 1283.3726 4289575415
-16.594496 820.42749 1282.0977 4288647890
-14.223853 820.42749 1282.0977 4290225361
-10.667891 820.42749 1282.0977 4290687969
-7.1119266 820.42749 1282.0977 4289900510
-4.7412844 820.42749 1282.0977 4288062694
-2.3706422 820.42749 1282.0977 4289444347
-16.594496 822.23987 1283.6259 4287926479
-14.223853 822.23987 1283.6259 4288978628
-10.667891 822.23987 1283.6259 4289834716
-7.1119266 822.23987 1283.6259 4289638371
-4.7412844 822.23987 1283.6259 4288324335
-2.3706422 822.23987 1283.6259 4289705983
-4.7229357 829.35217 1283.0825 4289048551
-2.3614678 830.25482 1283.8436 4289706213
-40.477982 754.77606 1285.6034 4286283689
13.083793 755.08862 1285.8671 4294113791
-36.660549 764.07947 1286.9076 4287335868
-34.216515 763.1452 1286.1199 4287074232
-31.772476 763.1452 1286.1199 4287929797
-29.32844 762.21094 1285.3322 4288126424
-25.662384 762.21094 1285.3322 4289113319
-21.99633 762.21094 1285.3322 4289244906
-19.552294 762.21094 1285.3322 4288983768
-17.108257 762.21094 1285.3322 4289049562
-14.66422 762.21094 1285.3322 4288196079
-9.7761469 762.21094 1285.3322 4285698766
1.6293578 762.8338 1285.8573 4292667135
4.8880734 762.21094 1285.3322 4293653759
7.3321099 763.1452 1286.1199 4294113791
9.7761469 763.1452 1286.1199 4294113535
13.442202 763.14526 1286.1199 4294113535
-31.653212 770.5415 1285.8162 4288256966
-29.218349 769.61078 1285.0314 4287929300
-25.566053 769.61084 1285.0314 4288784607
-21.913761 769.61078 1285.0314 4289179620
-19.478899 769.61078 1285.0314 4288324563
-17.044037 769.61078 1285.0314 4288653528
-13.391744 769.61078 1285.0314 4290362107
-9.7394495 769.61078 1285.0314 4291021055
-7.3045874 769.61078 1285.0314 4291021052
-4.8697248 769.61078 1285.0314 4290430461
1.2174312 769.61084 1285.0314 4293258495
4.8697248 768.68005 1284.2466 4294376959
7.3045874 769.61078 1285.0314 4294376447
9.7394495 769.61078 1285.0314 4293915903
12.985932 769.92108 1285.293 4293850367
-26.662386 779.37079 1285.4126 4288455894
-7.2715597 779.37079 1285.4126 4289444095
-4.8477063 779.37079 1285.4126 4290298623
-2.4238532 779.37079 1285.4126 4291746047
4.8477063 779.37079 1285.4126 4293652735
7.2715597 779.37079 1285.4126 4293323775
-29.086239 781.22388 1286.9751 4287994827
-26.662386 781.22388 1286.9751 4288718550
2.4238532 781.22388 1286.9751 4293324543
4.8477063 781.22388 1286.9751 4293521407
7.2715597 781.22388 1286.9751 4293192191
-24.14679 785.76697 1284.2655 4288784861
-7.2440367 785.76697 1284.2655 4289180659
-4.8293576 785.76697 1284.2655 4289245421
-2.4146788 785.76697 1284.2655 4291548159
-24.14679 787.61298 1285.822 4288850131
1.2073394 787.61298 1285.822 4292338175
4.8293576 787.61298 1285.822 4293454591
-52.921101 793.974 1284.6454 4284899463
-21.649542 793.974 1284.6454 4289310434
-19.244038 793.974 1284.6454 4289113058
-16.838531 793.974 1284.6454 4289770731
-13.230275 793.974 1284.6454 4289443038
-9.6220188 793.974 1284.6454 4289638632
-7.2165136 793.974 1284.6454 4289309667
-4.8110094 793.974 1284.6454 4288719845
-2.4055047 793.974 1284.6454 4291088383
-52.921101 795.81299 1286.196 4285227144
-24.055046 795.81299 1286.196 4288586451
-21.649542 795.81299 1286.196 4288783573
-19.244038 795.81299 1286.196 4288652770
-16.838531 795.81299 1286.196 4289705459
-13.230275 795.81299 1286.196 4290428400
-9.6220188 795.81299 1286.196 4290428655
-7.2165136 795.81299 1286.196 4290099433
-4.8110094 795.81299 1286.196 4289838060
-2.4055047 795.81299 1286.196 4291219711
1.2027524 795.81299 1286.196 4292075007
-52.719265 803.05505 1285.7621 4284703362
-50.322937 803.97107 1286.5344 4284769412
-28.755962 803.97107 1286.5344 4287403719
-26.359632 803.05505 1285.7621 4288193236
-22.365747 803.36035 1286.0195 4288061641
-19.170643 803.97107 1286.5344 4287337664
-16.774311 803.05505 1285.7621 4288916185
-14.377981 802.13904 1284.9897 4290492914
-10.783485 803.05505 1285.7621 4290493172
-7.1889906 803.05505 1285.7621 4291282941
-4.7926607 803.05505 1285.7621 4291021307
-2.3963304 803.05505 1285.7621 4291153148
0 803.97107 1286.5344 4290889978
-57.291744 811.17444 1286.0681 4290227669
-54.904587 810.26196 1285.2987 4285425277
-52.517429 810.26196 1285.2987 4284177021
-50.130276 812.08698 1286.8374 4284966532
-28.645872 812.08698 1286.8374 4287797450
-26.258715 812.08698 1286.8374 4288258001
-22.677982 811.17444 1286.0681 4287469514
-19.097248 811.17444 1286.0681 4286680523
-16.710093 811.17444 1286.0681 4288259812
-11.14006 810.8703 1285.8116 4288193510
-2.387156 810.26196 1285.2987 4290956543
0 812.08698 1286.8374 4290101752
-26.177982 817.82166 1286.4407 4288454874
-22.211622 817.21515 1285.9293 4288322507
-19.038532 816.91199 1285.6736 4287926481
-16.658716 816.00226 1284.9066 4287928026
-14.278899 816.00226 1284.9066 4288913617
-10.709174 816.00226 1284.9066 4289046484
0 817.82166 1286.4407 4290167545
-16.594496 824.05225 1285.1539 4288586966
-14.223853 824.05225 1285.1539 4288389330
-10.667891 824.05225 1285.1539 4288455905
-2.3706422 824.05225 1285.1539 4289575406
-14.223853 825.86462 1286.6821 4290297066
-10.667891 825.86462 1286.6821 4289507310
-7.1119266 825.86462 1286.6821 4288125672
-2.3706422 825.86462 1286.6821 4289245941
-7.0844035 832.06018 1285.366 4291611627
-40.477982 757.58936 1287.9755 4286218665
-36.798164 757.58936 1287.9755 4286942905
14.719266 757.58936 1287.9755 4293982719
-39.251377 759.46484 1289.5569 4286219181
-36.798164 759.46484 1289.5569 4286877111
17.172478 759.46484 1289.5569 4294048511
-36.660549 765.94794 1288.4832 4287466432
-34.216515 765.94794 1288.4832 4287204277
-31.772476 765.94794 1288.4832 4288191173
14.66422 765.94794 1288.4832 4293784063
17.108257 765.94794 1288.4832 4293784063
19.552294 765.94794 1288.4832 4293259007
-31.653212 772.40302 1287.3857 4288126665
-29.218349 772.40302 1287.3857 4287929552
-26.783485 772.40302 1287.3857 4288653018
1.2174312 772.40302 1287.3857 4292929535
7.3045874 772.40302 1287.3857 4293587711
9.7394495 772.40302 1287.3857 4293652735
13.391743 772.40302 1287.3857 4293719295
17.044037 772.40302 1287.3857 4293653759
-31.653212 774.26447 1288.9552 4288126665
-29.218349 774.26447 1288.9552 4287929550
-26.783485 774.26447 1288.9552 4288390101
1.2174312 774.26447 1288.9552 4292798463
7.3045874 774.26447 1288.9552 4293849855
9.7394495 774.26447 1288.9552 4293718783
13.391743 774.26447 1288.9552 4293850623
17.044037 774.26447 1288.9552 4293784575
-31.510092 783.0769 1288.5375 4287797698
-29.086239 783.0769 1288.5375 4287798477
-26.662386 783.0769 1288.5375 4288456407
1.2119266 783.0769 1288.5375 4292271615
4.8477063 783.0769 1288.5375 4293060351
7.2715597 783.0769 1288.5375 4292928767
9.6954126 783.0769 1288.5375 4293257983
-53.122936 789.45898 1287.3785 4285096839
-25.35413 790.38208 1288.1567 4288586709
1.2073394 790.38202 1288.1567 4292338175
4.8293576 790.38202 1288.1567 4293520895
7.2440367 790.38202 1288.1567 4293389567
9.6587152 791.30505 1288.9351 4293060607
-52.921101 797.65204 1287.7466 4284703115
-31.271559 797.65204 1287.7466 4287796415
-28.866055 797.65204 1287.7466 4287731403
-25.257797 797.65204 1287.7466 4288455376
-21.649542 797.65204 1287.7466 4288521419
-19.244038 797.65204 1287.7466 4288914921
-16.838531 797.65204 1287.7466 4290362623
-14.433027 797.65204 1287.7466 4290625016
-9.6220188 797.65204 1287.7466 4290625516
1.2027524 797.65204 1287.7466 4291877887
4.8110094 797.65204 1287.7466 4293390079
7.2165136 797.65204 1287.7466 4293521663
9.6220188 797.65204 1287.7466 4293192959
-50.515594 799.49109 1289.2972 4284900741
-31.271559 799.49109 1289.2972 4287534272
-28.866055 799.49109 1289.2972 4287403721
-24.055046 799.49109 1289.2972 4288390605
-19.244038 799.49109 1289.2972 4288586966
1.2027524 799.49109 1289.2972 4291680254
4.8110094 799.49109 1289.2972 4293192703
7.2165136 799.49109 1289.2972 4292995071
9.6220188 799.49109 1289.2972 4292995071
12.027523 799.49109 1289.2972 4293126911
-31.152294 805.80304 1288.0791 4287599815
-28.755962 805.80304 1288.0791 4287468999
-26.359632 805.80304 1288.0791 4288126928
-22.765137 805.80304 1288.0791 4288060104
-19.170643 805.80304 1288.0791 4287074241
0 805.80304 1288.0791 4291021818
-34.746788 807.63507 1289.6239 4287007416
-31.152294 807.63507 1289.6239 4287731403
-28.755962 807.63507 1289.6239 4287796678
-26.359632 807.63507 1289.6239 4288323022
1.1981652 807.63507 1289.6239 4291877117
4.7926607 807.63507 1289.6239 4293126655
-47.743118 815.73694 1289.915 4285623181
-38.194496 815.73694 1289.915 4286416045
-35.011623 815.1286 1289.4021 4287007412
-31.033028 814.82446 1289.1456 4287731392
-28.645872 814.82446 1289.1456 4287796686
-26.258715 813.91199 1288.3762 4288586201
-23.871559 813.91199 1288.3762 4288257999
1.193578 814.82446 1289.1456 4291220477
4.774312 815.73694 1289.915 4292733695
-28.557798 821.46045 1289.5088 4287796680
-22.608257 820.55078 1288.7417 4288585937
-19.038532 820.55072 1288.7417 4288454102
1.1899083 820.55072 1288.7417 4291285243
4.7596331 821.46045 1289.5088 4292469503
7.1394496 821.46045 1289.5088 4292930047
-14.223853 827.677 1288.2102 4290625525
-10.667891 827.677 1288.2102 4290954486
-7.1119266 827.677 1288.2102 4290888431
0 827.677 1288.2102 4288721142
-33.188992 829.48938 1289.7384 4287531430
-30.818348 829.48938 1289.7384 4287860395
-28.447706 829.48938 1289.7384 4287926688
1.1853211 829.48938 1289.7384 4290233340
-44.322937 754.83624 1292.1943 4285165716
17.236698 754.83624 1292.1943 4293851135
19.699083 754.83624 1292.1943 4293916415
-39.251377 761.34033 1291.1383 4286480559
17.172478 761.34033 1291.1383 4294245375
19.625689 761.34033 1291.1383 4293850623
-40.477982 763.21582 1292.7196 4286545580
22.078899 763.21582 1292.7196 4293719551
25.758717 763.21582 1292.7196 4293785343
-39.104588 767.81641 1290.0586 4286873016
-36.660549 767.81641 1290.0586 4287596483
-34.216515 767.81641 1290.0586 4287204277
17.108257 767.81641 1290.0586 4293916415
19.552294 767.81641 1290.0586 4293784575
21.99633 767.81641 1290.0586 4294179327
25.662384 767.81641 1290.0586 4294245375
-39.104588 769.68494 1291.634 4286609324
-36.660549 769.68494 1291.634 4287596476
-34.216515 769.68494 1291.634 4287139770
19.552294 769.68494 1291.634 4293521919
21.99633 769.68494 1291.634 4293587711
25.662384 769.68494 1291.634 4293719295
-34.088074 776.12592 1290.5248 4286679219
-31.653212 776.12592 1290.5248 4287994823
-29.218349 776.12592 1290.5248 4287863757
1.2174312 776.12592 1290.5248 4292469759
9.7394495 776.12592 1290.5248 4293192191
13.391743 776.12592 1290.5248 4293455615
17.044037 776.12592 1290.5248 4293390079
-36.522934 777.98743 1292.0944 4287203514
-34.088074 777.98743 1292.0944 4286745010
-31.653212 777.98743 1292.0944 4288060870
0 777.98743 1292.0944 4291942911
9.7394495 777.98743 1292.0944 4293257983
13.391743 777.98743 1292.0944 4293784319
17.044037 777.98743 1292.0944 4293521407
-31.510092 784.92993 1290.1 4287928255
-29.086239 784.92993 1290.1 4287929298
-26.662386 784.92993 1290.1 4288718814
7.2715597 784.92993 1290.1 4292994046
9.6954126 784.92993 1290.1 4293059839
12.119267 784.92993 1290.1 4293520383
-31.510092 786.78302 1291.6624 4287862208
-29.086239 786.78302 1291.6624 4287994573
9.6954126 786.78302 1291.6624 4293125631
12.119267 786.78302 1291.6624 4293191423
-33.805504 794.99713 1292.0481 4287007155
-31.390825 793.15112 1290.4916 4287862210
-28.976147 793.15112 1290.4916 4287796680
-26.561468 793.15112 1290.4916 4288520404
4.8293576 793.15112 1290.4916 4293389823
7.2440367 793.15112 1290.4916 4293389823
9.6587152 793.15112 1290.4916 4292929279
12.878288 794.38177 1291.5292 4292995327
16.902752 794.99713 1292.0481 4292929279
19.31743 794.99713 1292.0481 4292732159
21.732111 794.99713 1292.0481 4292732159
-48.110092 802.24963 1291.6232 4285031314
-43.299084 803.16913 1292.3984 4285624728
-40.893578 803.16913 1292.3984 4286348707
-36.082569 802.24963 1291.6232 4287072445
-33.677063 802.24963 1291.6232 4286942139
-31.271559 801.33008 1290.8479 4287600067
2.4055047 802.24963 1291.6232 4292863999
4.8110094 802.24963 1291.6232 4293126655
7.2165136 802.24963 1291.6232 4292995071
9.6220188 802.24963 1291.6232 4292995071
12.027523 802.24963 1291.6232 4293061119
-55.115597 809.46704 1291.1686 4285095574
-52.719265 809.46704 1291.1686 4284045686
-38.341286 809.46704 1291.1686 4286348456
-34.746788 809.46704 1291.1686 4287007414
-31.152294 809.46704 1291.1686 4287666373
2.3963304 809.46704 1291.1686 4292536063
4.7926607 809.46704 1291.1686 4293061375
7.1889906 809.46704 1291.1686 4293061375
-55.115597 811.29907 1292.7133 4284964724
-52.719265 811.29907 1292.7133 4283848308
-50.322937 811.29907 1292.7133 4284966532
-46.728439 811.29907 1292.7133 4285492878
-43.133945 811.29907 1292.7133 4285952677
-40.737614 811.29907 1292.7133 4286413228
-38.341286 811.29907 1292.7133 4286480557
-33.548622 811.29907 1292.7133 4286810803
2.3963304 811.29907 1292.7133 4292536319
4.7926607 811.29907 1292.7133 4292996351
7.1889906 811.29907 1292.7133 4293259263
9.5853214 811.29907 1292.7133 4293061631
-52.517429 817.56201 1291.4539 4285164168
-50.130276 817.56201 1291.4539 4285229961
-47.743118 817.56201 1291.4539 4285688724
-40.58165 817.56201 1291.4539 4287398842
-38.194496 817.56201 1291.4539 4286940842
-34.613762 817.56201 1291.4539 4287138224
-31.033028 817.56201 1291.4539 4287862208
-28.645872 817.56201 1291.4539 4287797198
-26.258715 817.56201 1291.4539 4288454872
4.774312 817.56201 1291.4539 4292863999
7.161468 817.56201 1291.4539 4293324543
-42.968807 819.38696 1292.9927 4285952414
-40.58165 819.38696 1292.9927 4286610344
-38.194496 819.38696 1292.9927 4286282660
-34.613762 819.38696 1292.9927 4287138226
-31.033028 819.38696 1292.9927 4287862462
-26.258715 819.38696 1292.9927 4288454610
9.548624 819.38696 1292.9927 4292535807
-34.507339 823.27979 1291.0428 4287531442
-30.937614 823.27979 1291.0428 4288321214
-28.557798 823.27979 1291.0428 4288255423
-26.177982 823.27979 1291.0428 4289044683
-22.608257 823.27979 1291.0428 4288849118
-19.038532 823.27979 1291.0428 4288718298
-16.658716 823.27979 1291.0428 4289442021
1.1899083 823.27979 1291.0428 4290233343
4.7596331 823.27979 1291.0428 4291877887
7.1394496 823.27979 1291.0428 4292930303
-34.507339 825.09918 1292.5769 4287991217
-30.937614 825.09918 1292.5769 4288649918
-28.557798 825.09918 1292.5769 4288584372
-26.177982 825.09918 1292.5769 4289373888
-22.608257 825.09918 1292.5769 4289112792
-19.038532 825.09918 1292.5769 4288916445
-16.658716 825.09918 1292.5769 4289705961
2.3798165 825.09918 1292.5769 4290892287
4.7596331 825.09918 1292.5769 4291679999
7.1394496 825.09918 1292.5769 4292732927
-33.188992 831.30176 1291.2666 4284835468
-30.818348 831.30176 1291.2666 4284835468
-28.447706 831.30176 1291.2666 4284573573
-44.322937 758.60126 1295.3689 4285361812
-41.86055 757.66003 1294.5752 4286545830
19.699083 756.71875 1293.7816 4293916927
22.161469 758.60126 1295.3689 4294113535
24.623854 758.60126 1295.3689 4293851135
-41.704586 766.02905 1295.0917 4286741413
-39.104588 772.48767 1293.9972 4286347691
-36.660549 772.48767 1293.9972 4287269049
-34.216515 771.55341 1293.2095 4287073721
19.552294 772.48767 1293.9972 4293389823
21.99633 772.48767 1293.9972 4293521407
-36.522934 779.84888 1293.6639 4287203264
-34.088074 779.84888 1293.6639 4286679217
13.391743 779.84888 1293.6639 4293258239
17.044037 779.84888 1293.6639 4293127167
-53.566971 781.71033 1295.2334 4284900743
-36.522934 781.71033 1295.2334 4287203778
-34.088074 781.71033 1295.2334 4286875567
14.609175 781.71033 1295.2334 4293323775
17.044037 781.71033 1295.2334 4293257983
19.478899 781.71033 1295.2334 4292929279
-33.933945 788.63611 1293.2249 4286875315
-31.510092 788.63611 1293.2249 4287862210
-29.086239 788.63611 1293.2249 4287862471
13.331193 788.63611 1293.2249 4292994815
16.966972 788.63611 1293.2249 4293126911
19.390825 788.63611 1293.2249 4292929279
-36.3578 790.48914 1294.7874 4286546875
-33.933945 790.48914 1294.7874 4286875315
14.543119 790.48914 1294.7874 4292995071
16.966972 790.48914 1294.7874 4292995071
19.390825 790.48914 1294.7874 4292797951
-48.293579 796.8432 1293.6047 4285031314
-45.878899 796.8432 1293.6047 4285820830
-36.220184 796.8432 1293.6047 4287137982
-33.805504 796.8432 1293.6047 4287007927
14.488073 796.8432 1293.6047 4293126911
16.902752 796.8432 1293.6047 4293061119
19.31743 796.8432 1293.6047 4292601599
21.732111 796.8432 1293.6047 4292535807
24.14679 796.8432 1293.6047 4292732671
-45.878899 798.68921 1295.1613 4285886623
-43.464222 798.68921 1295.1613 4285558935
-41.049541 798.68921 1295.1613 4286348707
-38.634861 798.68921 1295.1613 4286414262
14.488073 798.68921 1295.1613 4293061119
16.902752 798.68921 1295.1613 4293126911
19.31743 798.68921 1295.1613 4292995071
21.732111 798.68921 1295.1613 4292929279
-48.110092 805.92767 1294.7244 4285163153
-45.704586 805.92767 1294.7244 4285887133
-43.299084 805.92767 1294.7244 4285822112
-40.893578 805.92767 1294.7244 4286282663
-38.488075 805.00818 1293.9491 4286217380
7.2165136 805.00818 1293.9491 4293192447
9.6220188 805.92767 1294.7244 4292798207
13.230275 805.92773 1294.7244 4292863999
16.838531 806.84717 1295.4998 4292995071
-52.719265 813.1311 1294.2579 4284177270
-50.322937 813.1311 1294.2579 4285098372
-45.530273 814.04712 1295.0303 4285755027
-43.133945 814.04712 1295.0303 4285689251
-40.737614 813.1311 1294.2579 4286676916
7.1889906 813.1311 1294.2579 4292996607
10.384098 814.35248 1295.2877 4293061887
-40.58165 821.21198 1294.5314 4286741417
-38.194496 821.21198 1294.5314 4286938793
10.742202 821.21198 1294.5314 4293258495
-38.077065 826.91858 1294.111 4287465374
-35.697247 826.91858 1294.111 4287465374
-26.177982 826.91858 1294.111 4288190117
-23.798164 826.91858 1294.111 4288980416
4.7596331 826.91858 1294.111 4291548415
7.1394496 826.91858 1294.111 4292930047
9.5192661 826.91858 1294.111 4293060351
-35.697247 828.73798 1295.645 4284967306
9.5192661 828.73798 1295.645 4292600063
-44.322937 760.48376 1296.9562 4285164177
-44.322937 762.36627 1298.5435 4285492115
-41.704586 768.84229 1297.4637 4286478760
25.758717 768.84229 1297.4637 4293784575
-39.104588 775.29034 1296.3604 4286348206
19.552294 775.29034 1296.3604 4293257983
21.99633 775.29034 1296.3604 4293521151
25.662384 775.29034 1296.3604 4293652991
29.32844 775.29034 1296.3604 4293718271
-40.326607 777.15887 1297.9358 4286413483
19.552294 777.15887 1297.9358 4292929279
21.99633 777.15887 1297.9358 4293126911
25.662384 777.15887 1297.9358 4293061119
29.32844 777.15887 1297.9358 4293127167
-37.740364 784.50256 1297.5878 4286611642
-34.088074 783.57184 1296.803 4286875313
14.609175 783.57184 1296.803 4293061119
17.044037 783.57184 1296.803 4292995327
19.478899 783.57184 1296.803 4292732159
21.913761 785.43329 1298.3726 4292995071
26.783485 785.43329 1298.3726 4292995071
-50.900917 792.34216 1296.3497 4284900237
-43.629356 794.19525 1297.9122 4285624732
-41.205505 794.19525 1297.9122 4286348456
-37.569725 793.26868 1297.131 4286545846
25.450459 792.34216 1296.3497 4292797951
-45.878899 800.53528 1296.7178 4285886623
-38.634861 800.53528 1296.7178 4286282926
14.488073 800.53528 1296.7178 4292797951
16.902752 800.53528 1296.7178 4292929279
19.31743 800.53528 1296.7178 4292995071
21.732111 800.53528 1296.7178 4292929279
16.902752 802.38135 1298.2743 4292995071
19.31743 802.38135 1298.2743 4293191935
21.732111 802.38135 1298.2743 4293060607
25.35413 802.38135 1298.2743 4292995071
28.976147 802.38135 1298.2743 4292797951
13.230275 808.68622 1297.0503 4292798207
16.838531 808.68622 1297.0503 4292797951
21.649542 808.68622 1297.0503 4292928767
25.257797 808.68622 1297.0503 4292929279
13.230275 810.52527 1298.601 4292864255
16.838531 810.52527 1298.601 4292995071
21.649542 810.52527 1298.601 4292995071
25.257797 810.52527 1298.601 4293258239
-52.719265 817.71118 1298.1198 4285098633
-50.322937 817.71118 1298.1198 4285164427
-46.728439 817.71118 1298.1198 4285951383
-43.133945 818.62714 1298.8921 4286215073
11.981651 816.79517 1297.3474 4292864511
14.377981 817.71118 1298.1198 4293259263
16.774311 818.62714 1298.8921 4293916159
-42.968807 823.94946 1296.8396 4286807965
-40.58165 823.94946 1296.8396 4286873758
-38.194496 823.03699 1296.0702 4287990446
11.14006 823.64532 1296.5831 4292797439
14.322936 824.862 1297.609 4291548926
-33.317432 830.55737 1297.1791 4284836498
-46.959633 755.86212 1299.5995 4285360275
-49.431194 757.75165 1301.1926 4285164179
-46.959633 757.75165 1301.1926 4285164179
-44.322937 764.24878 1300.1307 4285885336
-44.322937 766.13135 1301.718 4285754781
-44.157799 770.71783 1299.0452 4285886623
-41.704586 770.71783 1299.0452 4286478760
25.758717 770.71783 1299.0452 4293587199
-44.157799 772.59332 1300.6265 4285886875
-41.704586 772.59332 1300.6265 4286610341
-43.992661 779.02734 1299.5114 4285755285
-40.326607 779.02734 1299.5114 4286347946
21.99633 779.02734 1299.5114 4293258495
25.662384 779.02734 1299.5114 4293061119
-48.880733 780.89581 1301.0868 4285294482
-46.436699 780.89581 1301.0868 4285820826
-43.992661 780.89581 1301.0868 4285557908
-41.548622 780.89581 1301.0868 4286413217
21.99633 780.89581 1301.0868 4292929279
25.662384 780.89581 1301.0868 4292863487
-51.132111 787.2948 1299.942 4285292937
-48.697247 787.2948 1299.942 4285096335
-41.392662 787.2948 1299.942 4286610341
-38.957798 787.2948 1299.942 4286086324
21.913761 787.2948 1299.942 4292797951
25.566055 787.2948 1299.942 4292797439
-48.697247 789.15625 1301.5116 4285161619
-46.262386 789.15625 1301.5116 4286082721
-43.827522 789.15625 1301.5116 4285756318
-41.392662 789.15625 1301.5116 4286479785
-38.957798 789.15625 1301.5116 4286348467
25.450459 796.97485 1300.2559 4292863743
19.31743 805.15039 1300.6091 4293060095
21.732111 804.22736 1299.8308 4293191423
25.35413 804.22736 1299.8308 4292995327
28.976147 805.15039 1300.6091 4292732159
14.433027 812.36426 1300.1516 4293192703
16.838531 812.36426 1300.1516 4293192703
19.244038 812.36426 1300.1516 4293191935
21.649542 812.36426 1300.1516 4293389567
24.055046 812.36426 1300.1516 4293783551
16.838531 814.20331 1301.7021 4293325311
19.244038 814.20331 1301.7021 4293520895
21.649542 814.20331 1301.7021 4293849855
25.257797 814.20331 1301.7021 4292008442
-46.728439 820.45917 1300.4368 4286675354
14.377981 820.45917 1300.4368 4292665855
16.774311 820.45917 1300.4368 4288915665
31.152294 820.45917 1300.4368 4282538665
-46.728439 822.2912 1301.9814 4286413978
28.755962 822.2912 1301.9814 4284244892
31.152294 822.2912 1301.9814 4284573857
-42.968807 826.68701 1299.1478 4285033363
-40.58165 826.68701 1299.1478 4285033363
-38.194496 826.68701 1299.1478 4284835720
11.93578 826.68701 1299.1478 4292665855
-40.58165 828.51196 1300.6866 4285295769
-35.807339 828.51196 1300.6866 4285098636
-54.374313 759.64117 1302.7859 4284900743
-51.902752 759.64117 1302.7859 4284900743
-49.431194 760.58594 1303.5825 4284834961
-46.959633 760.58594 1303.5825 4285427099
-54.172478 768.95508 1304.0989 4284703621
-49.247707 768.95508 1304.0989 4284965520
-46.78532 768.95508 1304.0989 4285755036
-51.517429 776.34436 1303.7893 4285229709
-49.06422 776.34436 1303.7893 4285163664
-46.611008 775.40662 1302.9985 4285821338
-44.157799 774.46881 1302.2079 4285755287
-51.324772 782.76428 1302.6622 4285096841
-48.880733 782.76428 1302.6622 4285031314
-46.436699 782.76428 1302.6622 4285754781
-43.992661 782.76428 1302.6622 4285689240
-41.548622 782.76428 1302.6622 4286479012
24.440367 782.76428 1302.6622 4292731903
-46.436699 784.63281 1304.2377 4285951644
-43.992661 784.63281 1304.2377 4285886875
19.31743 807.91943 1302.9438 4292929279
26.561468 809.7655 1304.5005 4293980927
28.976147 808.84247 1303.7222 4293389823
31.390825 809.7655 1304.5005 4293192191
-52.921101 817.88135 1304.8035 4285360266
-50.515594 817.88135 1304.8035 4285952146
19.244038 816.96185 1304.0281 4290888432
21.649542 816.96185 1304.0281 4288717266
25.257797 816.96185 1304.0281 4286808777
28.866055 816.96185 1304.0281 4283065274
31.271559 816.04236 1303.2528 4281684401
-46.728439 824.12317 1303.5262 4285164951
14.377981 824.12317 1303.5262 4291483391
28.755962 824.12317 1303.5262 4288188094
31.152294 824.12317 1303.5262 4288780232
-54.374313 763.42023 1305.9723 4284900741
-49.431194 763.42023 1305.9723 4285031316
-46.959633 763.42023 1305.9723 4285688990
-51.902752 765.30975 1307.5654 4284900741
-54.172478 771.77887 1306.4799 4284900741
-51.710091 771.77887 1306.4799 4284966534
-49.247707 771.77887 1306.4799 4284965773
-51.517429 778.21985 1305.3706 4285294218
28.976147 811.61151 1306.057 4288590074
31.390825 811.61151 1306.057 4285300424
-52.921101 820.63989 1307.1294 4285953938
-50.515594 820.63989 1307.1294 4286019987
16.838531 820.63989 1307.1294 4286614715
19.244038 820.63989 1307.1294 4284907692
21.649542 820.63989 1307.1294 4281881214
25.257797 820.63995 1307.1294 4281883030
-45.530273 825.9552 1305.0709 4285296028
-43.133945 826.87122 1305.8433 4285623964
-40.737614 827.78723 1306.6156 4285886623
-38.341286 826.87122 1305.8433 4285230991
-54.616512 758.26904 1309.4771 4284966534
-52.133945 758.26904 1309.4771 4284966534
-51.902752 767.19928 1309.1587 4284703367
-52.921101 823.39844 1309.4553 4285495181
-49.312843 823.39844 1309.4553 4285296787
26.46055 823.39844 1309.4553 4282475681
-52.133945 760.16699 1311.0774 4285032327
19.31743 820.84174 1313.8396 4286550271
21.732111 820.84174 1313.8396 4283194582
24.14679 820.84174 1313.8396 4282015130
-52.921101 825.23749 1311.006 4285627297
-48.110092 825.23749 1311.006 4285886882
-45.704586 825.23749 1311.006 4285689760
-49.500916 823.61078 1316.1746 4285561254
-45.878899 824.53381 1316.9528 4285297575
26.561468 823.61078 1316.1746 4286156999
16.966972 818.28497 1318.224 4290626551
21.814678 820.13806 1319.7865 4292205567
24.238533 820.13806 1319.7865 4288660214
-53.324772 821.99109 1321.3489 4285628846
-50.900917 821.99109 1321.3489 4285563052
-43.629356 821.99109 1321.3489 4285756320
-41.205505 821.99109 1321.3489 4286085029
24.348623 818.93982 1326.6244 4291746303
-51.132111 820.80127 1328.1938 4285629109
26.783485 820.80127 1328.1938 4292930303
19.552294 814.52856 1329.4451 4292731903
21.99633 816.39709 1331.0205 4292797695
14.719266 810.10333 1332.2539 4292271103
17.172478 811.97882 1333.8353 4293060095
-48.880733 818.26556 1332.5959 4285889705
24.440367 818.26556 1332.5959 4292864511
-51.324772 820.13403 1334.1714 4286417603
-48.880733 820.13403 1334.1714 4285759410
26.884403 820.13403 1334.1714 4293062141
29.218349 826.38568 1332.9026 4292600063
-46.611008 815.72986 1336.998 4285692070
19.625689 813.85437 1335.4167 4292731903
22.078899 815.72986 1336.998 4292600319
-52.13945 823.24823 1336.7971 4288194283
-48.880733 822.93677 1336.5345 4287536084
26.884403 822.93677 1336.5345 4292403711
26.783485 831.97009 1337.6112 4292008959
17.236698 811.31165 1339.813 4292994303
24.53211 817.60535 1338.5795 4292272626
-46.611008 819.48083 1340.1609 4286483389
24.53211 819.48083 1340.1609 4292075007
-52.546791 826.67371 1339.6855 4290168317
-48.880733 827.60797 1340.4733 4289246202
26.884403 826.67371 1339.6855 4292337407
14.829358 806.87939 1342.6158 4292994303
-46.78532 815.07666 1342.9875 4285759410
19.699083 813.19415 1341.4003 4292205567
22.161469 815.07666 1342.9875 4292337663
-46.611008 821.35632 1341.7422 4287075540
24.53211 821.35632 1341.7422 4292469247
-49.06422 823.23181 1343.3236 4288719856
24.53211 823.23181 1343.3236 4292271615
-44.488075 810.65845 1345.8022 4285821080
17.300917 810.65845 1345.8022 4292270847
-44.322937 817.90045 1345.3684 4286416563
22.161469 817.90045 1345.3684 4292403711
-52.744034 826.98285 1346.4863 4291286271
-49.06422 826.98285 1346.4863 4290627583
-46.611008 825.10736 1344.905 4288259307
22.078899 826.98285 1346.4863 4292205567
24.53211 826.0451 1345.6957 4292140287
-46.436699 833.2135 1345.1997 4291351039
-43.992661 833.2135 1345.1997 4290234111
14.895412 805.71765 1349.4845 4292731135
-44.488075 812.54797 1347.3955 4285888670
17.300917 812.54797 1347.3955 4292402431
19.772476 812.54797 1347.3955 4292403455
-42.016514 814.4375 1348.9886 4286087850
17.300917 814.4375 1348.9886 4292271615
19.772476 814.4375 1348.9886 4292403711
-46.78532 820.72424 1347.7494 4287930597
-44.322937 820.72424 1347.7494 4287601616
22.161469 820.72424 1347.7494 4292009215
-44.322937 822.60675 1349.3367 4287602143
19.699083 822.60675 1349.3367 4292205567
22.161469 822.60675 1349.3367 4292271615
-46.611008 828.85834 1348.0677 4290232063
-44.157799 828.85834 1348.0677 4289312761
-41.704586 830.73383 1349.649 4289641983
22.078899 830.73383 1349.649 4292205311
24.53211 828.85834 1348.0677 4292139775
12.458715 801.26996 1352.2744 4292731647
-42.203671 808.56458 1351.885 4286019486
14.067889 808.88086 1352.1517 4292402431
-42.016514 817.27179 1351.3784 4286482876
14.829358 817.27179 1351.3784 4292337151
17.300917 817.27179 1351.3784 4292205567
19.772476 817.27179 1351.3784 4291943679
-46.78532 824.48926 1350.924 4289574652
-44.322937 824.48926 1350.924 4288654833
19.699083 824.48926 1350.924 4292205567
-41.86055 826.37177 1352.5112 4288523245
19.699083 826.37177 1352.5112 4292139775
22.161469 826.37177 1352.5112 4292139775
14.719266 834.48486 1352.8118 4291942911
12.458715 803.17493 1353.8806 4292534271
12.458715 805.07983 1355.4868 4292271359
-39.7211 811.4115 1354.2854 4286151074
13.654128 811.4115 1354.2854 4292336895
-39.7211 813.30945 1355.8857 4286087075
9.930275 813.30945 1355.8857 4292534015
12.412844 813.30945 1355.8857 4292534015
-42.016514 821.05084 1354.5649 4287470558
14.005505 821.36572 1354.8304 4292073983
17.300917 821.05084 1354.5649 4292140031
14.774312 830.13678 1355.6858 4292402687
17.236698 829.19556 1354.8921 4292337151
19.699083 828.25427 1354.0985 4292402431
-25.119267 791.8197 1358.6947 4284574105
-22.60734 790.8595 1357.885 4287533751
-20.095413 790.8595 1357.885 4287730626
-16.746178 791.1795 1358.1549 4288912845
-12.559633 791.8197 1358.6947 4291935982
-20.007339 799.67615 1357.4709 4285821602
-16.255962 799.67615 1357.4709 4285559202
-12.504587 799.67615 1357.4709 4285494181
-10.00367 800.63214 1358.277 4285100705
10.00367 800.63214 1358.277 4292731647
-39.867889 806.98486 1357.093 4286151076
-13.704587 806.98486 1357.093 4286282665
9.9669724 806.98486 1357.093 4292534015
-17.442202 808.88977 1358.6993 4286349223
-13.704587 808.88977 1358.6993 4286480041
-9.9669724 808.88977 1358.6993 4286283178
7.4752293 808.88977 1358.6993 4292403199
9.9669724 808.88977 1358.6993 4292600063
-39.7211 815.2074 1357.486 4286285754
-37.238533 815.2074 1357.486 4285825203
-34.755962 815.2074 1357.486 4286479787
-32.273396 815.2074 1357.486 4286545580
-24.825687 815.2074 1357.486 4286348456
-19.86055 815.2074 1357.486 4286677418
-17.377981 815.2074 1357.486 4286743211
-13.654128 815.2074 1357.486 4286941105
-9.930275 815.2074 1357.486 4286810803
9.930275 815.2074 1357.486 4292271615
12.412844 815.2074 1357.486 4292271615
-39.544952 823.88513 1356.9547 4288193753
-37.073395 823.88513 1356.9547 4287206858
-32.130276 823.88513 1356.9547 4287074241
-24.715597 823.88513 1356.9547 4286940336
-19.772476 823.88513 1356.9547 4286941108
13.593578 823.88513 1356.9547 4292139775
17.300917 823.88513 1356.9547 4292008959
-39.544952 825.77466 1358.5479 4289312500
-37.073395 825.77466 1358.5479 4288522984
-32.130276 825.77466 1358.5479 4287470548
-19.772476 825.77466 1358.5479 4286546350
13.593578 825.77466 1358.5479 4291942911
12.311927 832.01929 1357.2731 4292008447
-15.126605 787.32855 1361.448 4290953967
-12.605505 787.32855 1361.448 4291480312
-10.084404 787.32855 1361.448 4291414248
-27.631193 793.74011 1360.314 4285296028
-25.119267 793.74011 1360.314 4285033109
-22.60734 793.74011 1360.314 4285033109
-20.095413 793.74011 1360.314 4285098136
-16.327522 793.74011 1360.314 4287005860
-12.559633 793.74011 1360.314 4289900480
-10.047707 793.74011 1360.314 4290559208
-7.53578 793.74011 1360.314 4290953965
-31.399082 795.66052 1361.9331 4285231512
-27.631193 795.66052 1361.9331 4285363870
-25.119267 795.66052 1361.9331 4285691038
-22.60734 795.66052 1361.9331 4285756831
-10.047707 795.66052 1361.9331 4285034921
-7.53578 795.66052 1361.9331 4286153402
10.047707 795.66052 1361.9331 4292731647
-40.014679 802.54413 1359.889 4285954463
-25.009174 802.54413 1359.889 4285822111
-22.508257 802.54413 1359.889 4286019234
-20.007339 802.54413 1359.889 4286019236
-16.255962 802.54413 1359.889 4286085287
-12.504587 802.54413 1359.889 4286348717
-10.00367 802.54413 1359.889 4286414764
-7.5027523 802.54413 1359.889 4286283178
10.00367 802.54413 1359.889 4292205567
-37.51376 804.45612 1361.5012 4286151076
-35.012844 804.45612 1361.5012 4286020258
-32.511925 804.45612 1361.5012 4286020258
-27.510092 804.45612 1361.5012 4286217121
-25.009174 804.45612 1361.5012 4286217121
-22.508257 804.45612 1361.5012 4286217121
-20.007339 804.45612 1361.5012 4286217121
-17.506422 804.45612 1361.5012 4286217121
-10.00367 804.45612 1361.5012 4286348717
-7.5027523 804.45612 1361.5012 4286809268
-5.0018349 804.45612 1361.5012 4285759909
-2.5009174 804.45612 1361.5012 4285825959
5.0018349 804.45612 1361.5012 4291613695
7.5027523 804.45612 1361.5012 4292403199
-37.376148 810.79474 1360.3055 4285955746
-34.884403 810.79474 1360.3055 4286348971
-32.392662 810.79474 1360.3055 4286348971
-28.655045 811.74719 1361.1086 4286348201
-24.917431 810.79474 1360.3055 4286348709
-22.425688 811.74719 1361.1086 4286480040
-19.933945 810.79474 1360.3055 4286611625
-17.442202 810.79474 1360.3055 4286611625
-13.704587 810.79474 1360.3055 4286940588
-9.9669724 810.79474 1360.3055 4286941360
-7.4752293 811.74719 1361.1086 4286876082
-4.9834862 811.74719 1361.1086 4286744762
-2.4917431 811.74719 1361.1086 4285823661
2.4917431 811.74719 1361.1086 4289905905
4.9834862 811.74719 1361.1086 4291811327
7.4752293 811.74719 1361.1086 4292337663
-39.7211 817.10535 1359.0863 4286811850
-37.238533 817.10535 1359.0863 4286022334
-34.755962 817.10535 1359.0863 4286348971
-32.273396 817.10535 1359.0863 4286546350
-28.549541 817.10535 1359.0863 4286282676
-24.825687 817.10535 1359.0863 4286282926
-22.343119 817.10535 1359.0863 4286677683
-19.86055 817.10535 1359.0863 4286743211
-17.377981 817.10535 1359.0863 4286940590
-13.654128 817.10535 1359.0863 4286941106
-9.930275 817.10535 1359.0863 4286876596
-7.4477062 817.10535 1359.0863 4286810803
-2.4825687 817.10535 1359.0863 4285295526
9.930275 817.10535 1359.0863 4292271615
12.412844 817.10535 1359.0863 4292008447
-39.7211 819.0033 1360.6866 4287535568
-37.238533 819.0033 1360.6866 4286812102
-34.755962 819.0033 1360.6866 4287204026
-32.273396 819.0033 1360.6866 4287204026
-28.549541 819.0033 1360.6866 4286547379
-24.825687 819.0033 1360.6866 4286809006
-22.343119 819.0033 1360.6866 4286809006
-19.86055 819.0033 1360.6866 4286809006
-17.377981 819.0033 1360.6866 4287006385
-13.654128 819.0033 1360.6866 4286810548
-9.930275 819.0033 1360.6866 4286876598
-7.4477062 819.0033 1360.6866 4285889703
-4.9651375 819.0033 1360.6866 4285690512
-2.4825687 819.0033 1360.6866 4286940578
7.4477062 819.0033 1360.6866 4292532735
9.930275 819.0033 1360.6866 4292402431
-32.130276 827.66418 1360.1411 4287667168
-27.187157 827.66418 1360.1411 4286548664
-24.715597 827.66418 1360.1411 4286217912
-22.244038 827.66418 1360.1411 4285954996
-19.772476 827.66418 1360.1411 4285889451
12.357799 827.66418 1360.1411 4292337407
9.8862381 829.55371 1361.7343 4292139775
-31.51376 791.18335 1364.6982 4284835988
-27.732111 789.25598 1363.0731 4284837002
-10.084404 789.25598 1363.0731 4291021037
-7.5633025 789.25598 1363.0731 4291152623
-5.042202 790.21967 1363.8857 4291086070
-2.521101 790.21967 1363.8857 4291480828
7.5633025 791.18335 1364.6982 4292206335
10.084404 791.18335 1364.6982 4292665855
12.605505 791.18335 1364.6982 4292994815
-35.166973 797.58093 1363.5524 4285822874
-31.399082 797.58093 1363.5524 4285756827
-27.631193 797.58093 1363.5524 4285691036
-25.119267 797.58093 1363.5524 4285756320
-22.60734 797.58093 1363.5524 4285822113
-7.53578 797.58093 1363.5524 4285955758
-5.0238533 797.58093 1363.5524 4286153656
-2.5119267 797.58093 1363.5524 4289772015
7.53578 797.58093 1363.5524 4292469503
-37.51376 806.36804 1363.1133 4286282660
-35.012844 806.36804 1363.1133 4286282662
-31.261467 806.36804 1363.1133 4286216868
-27.510092 806.36804 1363.1133 4286282660
-25.009174 806.36804 1363.1133 4286151328
-22.508257 806.36804 1363.1133 4286348707
-20.007339 806.36804 1363.1133 4286283173
-7.5027523 806.36804 1363.1133 4286809522
-5.0018349 806.36804 1363.1133 4286416558
-2.5009174 806.36804 1363.1133 4286022057
1.2504587 806.36804 1363.1133 4287865304
5.0018349 806.36804 1363.1133 4291416319
0 808.28003 1364.7255 4285168304
-4.9834862 814.60468 1363.5179 4286545850
1.2458715 814.60468 1363.5179 4288060890
4.9834862 814.60468 1363.5179 4292336127
7.4752293 814.60468 1363.5179 4292467711
-34.755962 820.90125 1362.2869 4287074241
-28.549541 820.90125 1362.2869 4286876596
-22.343119 820.90125 1362.2869 4287006385
-17.377981 820.90125 1362.2869 4287270073
-13.654128 820.90125 1362.2869 4286679228
-9.930275 820.90125 1362.2869 4286547377
-7.4477062 820.90125 1362.2869 4285165724
-4.9651375 820.90125 1362.2869 4286939795
-2.4825687 820.90125 1362.2869 4290163652
4.9651375 820.90125 1362.2869 4292599551
7.4477062 820.90125 1362.2869 4292401919
9.930275 820.90125 1362.2869 4292402431
-34.755962 822.79913 1363.8872 4287799256
-28.549541 822.79913 1363.8872 4286746556
-24.825687 822.79913 1363.8872 4287006133
-22.343119 822.79913 1363.8872 4286940340
-17.377981 822.79913 1363.8872 4286348971
-13.654128 822.79913 1363.8872 4285234340
-9.930275 822.79913 1363.8872 4285759398
-7.4477062 822.79913 1363.8872 4287667395
-4.9651375 822.79913 1363.8872 4291017684
-2.4825687 822.79913 1363.8872 4292596460
2.4825687 822.79913 1363.8872 4292664575
4.9651375 822.79913 1363.8872 4291613951
7.4477062 822.79913 1363.8872 4291876863
9.930275 822.79913 1363.8872 4291745535
-27.187157 831.44324 1363.3275 4288192471
-24.715597 831.44324 1363.3275 4288520667
-22.244038 831.44324 1363.3275 4289178853
-19.772476 831.44324 1363.3275 4290297818
-5.06422 784.24365 1366.6949 4290626549
-35.295414 793.11072 1366.3234 4285362326
-5.042202 793.11072 1366.3234 4288846025
-2.521101 793.11072 1366.3234 4291543538
5.042202 793.11072 1366.3234 4291088383
7.5633025 793.11072 1366.3234 4292206847
-40.337616 795.03815 1367.9485 4286019486
-37.816513 795.03815 1367.9485 4285822363
1.2605505 795.03815 1367.9485 4290627582
