# .PCD v0.7 - Point Cloud Data file format
VERSION 0.7
FIELDS x y z rgb
SIZE 4 4 4 4
TYPE F F F U
COUNT 1 1 1 1
WIDTH 1177
HEIGHT 1
VIEWPOINT 0 0 0 1 0 0 0
POINTS 1177
DATA ascii
0 843.18671 776.76758 4286082441
4.0871563 843.18671 776.76758 4285819265
7.3568807 843.18671 776.76758 4285688962
10.60734 844.28198 775.72906 4285688963
13.871559 844.28198 775.72906 4285885830
17.108257 845.37726 774.69055 4285951119
19.552294 845.37726 774.69055 4285886873
21.99633 845.37726 774.69055 4286544542
25.255047 845.37726 774.69055 4287465123
27.699083 845.37726 774.69055 4287530401
31.772476 845.37726 774.69055 4287661475
35.031193 845.37726 774.69055 4287464353
39.919266 845.37726 774.69055 4287398811
43.177982 845.37726 774.69055 4287398549
46.436699 845.37726 774.69055 4287726236
49.695412 845.37726 774.69055 4287594649
0 847.86853 776.79114 4285883780
3.8018351 847.03809 776.091 4285556097
7.3321099 846.62292 775.74084 4285753992
10.590826 846.62292 775.74084 4285754755
13.849541 846.62292 775.74084 4285950853
17.088074 847.35168 775.0473 4286082187
19.552294 846.62292 775.74084 4285951381
21.946789 848.08044 774.35376 4286477724
25.198166 848.08044 774.35376 4286938268
28.449541 848.08044 774.35376 4286740369
31.700916 848.08044 774.35376 4286740370
34.952293 848.08044 774.35376 4286609041
37.390827 848.08044 774.35376 4286675090
39.829357 848.08044 774.35376 4286609799
43.080734 848.08044 774.35376 4286477695
46.332108 848.08044 774.35376 4286477449
49.583488 848.08044 774.35376 4286607239
52.834862 848.08044 774.35376 4286542729
4.0642204 849.9447 775.92572 4285752707
7.3155961 849.32324 775.40173 4285687945
10.566973 849.32324 775.40173 4285491586
13.818348 849.32324 775.40173 4285557381
17.069725 849.32324 775.40173 4285951115
19.508257 849.32324 775.40173 4285755285
21.946789 849.32324 775.40173 4285951386
25.141285 850.77802 774.01221 4287396255
28.385323 850.77802 774.01221 4287723664
31.629358 850.77802 774.01221 4287263627
34.873394 850.77802 774.01221 4286935176
38.117432 850.77802 774.01221 4287395976
40.550457 850.77802 774.01221 4287659398
42.983486 850.77802 774.01221 4287330176
46.227524 850.77802 774.01221 4287001479
49.471558 850.77802 774.01221 4287067272
52.715595 850.77802 774.01221 4287462280
55.148624 850.77802 774.01221 4287264649
4.3253822 852.84473 775.75488 4285752448
7.2990828 852.63806 775.58069 4285621889
10.543119 852.01807 775.05786 4285491586
13.787157 852.63806 775.58069 4285688462
17.031193 852.63806 775.58063 4285885323
19.46422 852.63806 775.58063 4285623446
21.897247 852.01807 775.05786 4285556113
25.141285 852.01807 775.05786 4291542751
28.385323 852.01807 775.05786 4292332251
31.629358 852.01807 775.05786 4292198865
34.873394 852.01807 775.05786 4292198608
38.117432 852.01807 775.05786 4292133067
40.550457 852.01807 775.05786 4292199112
42.983486 852.01807 775.05786 4292264905
46.227524 852.01807 775.05786 4292265935
49.471558 852.01807 775.05786 4292134602
52.985931 852.4314 775.40643 4292727503
55.148624 852.01807 775.05786 4292266191
4.8495412 857.9035 776.09619 4285687945
7.274312 857.9035 776.09619 4285621888
10.507339 856.66766 775.0542 4285556607
13.740367 857.9035 776.09619 4285621884
17.242813 857.49152 775.74884 4285753992
19.398165 857.28558 775.5752 4285688730
21.822937 856.66766 775.0542 4284964495
24.894314 856.42053 774.84583 4292266216
28.28899 856.04974 774.5332 4294634736
31.360367 856.42053 774.84583 4293977581
34.916698 856.42053 774.84583 4293911788
37.988075 856.04974 774.5332 4293911786
40.412846 855.43182 774.01221 4293582562
42.837616 855.43182 774.01221 4293714146
46.070641 856.04974 774.5332 4293648868
49.303673 856.04974 774.5332 4293714658
52.536697 856.04974 774.5332 4293780449
54.961468 856.04974 774.5332 4293648870
10.483486 860.58008 775.73694 4285621887
13.709174 860.58008 775.73694 4285687934
16.934864 860.58008 775.73694 4285623174
25.805504 859.34705 774.69727 4293253851
28.22477 859.34705 774.69727 4294701301
31.719267 860.16913 775.39038 4294044144
34.407337 860.16913 775.39038 4294044143
37.901833 859.96356 775.21704 4293912813
41.127525 859.34705 774.69727 4293846765
43.546787 859.34705 774.69727 4293846765
45.966057 859.34705 774.69727 4293978603
49.191742 859.34705 774.69727 4293649137
53.223854 859.96356 775.2171 4293779947
54.836697 859.96356 775.2171 4293649388
0 861.81311 776.77661 4285294204
4.838532 861.81311 776.77661 4285425790
7.2577982 861.81311 776.77661 4285359743
10.470642 862.5321 776.07477 4285425790
13.709174 861.81311 776.77661 4285425793
16.91468 862.5321 776.07477 4285622150
20.114677 862.63599 774.85431 4285096845
22.52844 862.63599 774.85431 4284834195
24.942204 862.63599 774.85431 4291741927
28.160551 862.63599 774.85431 4294307318
31.378899 863.2511 775.37292 4294044142
34.597248 863.2511 775.37292 4293912555
37.815598 863.2511 775.37292 4293649639
41.033943 862.63599 774.85437 4293715178
43.447708 862.63599 774.85431 4293517800
45.861465 862.63599 774.85431 4293780969
49.079819 862.63599 774.85437 4293386215
52.029968 862.841 775.02716 4293517284
54.711926 863.2511 775.37292 4293649638
7.2412844 864.48132 776.41028 4285162882
10.459633 864.48132 776.41028 4285359999
13.677982 864.48132 776.41028 4285491585
16.896332 864.48132 776.41028 4285491332
20.090824 865.19885 775.70728 4284834698
22.477064 865.91638 775.00427 4284835216
24.885323 865.91638 775.00427 4291873768
28.096329 865.91638 775.00427 4294372597
31.307339 865.91638 775.00427 4293912298
34.518349 865.91638 775.00427 4293846763
37.773392 865.19885 775.70728 4293780713
40.988075 865.19885 775.70728 4293912044
43.348625 865.91638 775.00427 4293714409
45.861465 864.48132 776.41028 4293649386
49.024773 865.19885 775.70728 4293517801
52.239449 865.19885 775.70728 4293386212
54.711926 864.48132 776.41028 4293452007
10.43578 867.1438 776.03918 4285293954
13.64679 867.1438 776.03918 4285425791
16.8578 867.1438 776.03918 4285294722
20.068806 867.1438 776.03918 4285031310
22.477064 867.1438 776.03918 4284374915
24.885323 867.1438 776.03918 4291742692
28.096329 867.1438 776.03918 4294241781
31.307339 867.1438 776.03918 4293847019
34.518349 867.1438 776.03918 4293780716
37.729355 867.1438 776.03918 4293780461
40.940369 867.1438 776.03918 4293845998
44.151375 867.1438 776.03918 4293714667
46.559631 867.1438 776.03918 4293649387
48.967888 867.1438 776.03918 4293517800
52.178902 867.1438 776.03918 4293452007
54.587154 867.1438 776.03918 4293451753
10.4 871.73871 775.98938 4285293950
13.866666 871.33099 775.64557 4285293697
16.799999 871.12708 775.47369 4285228415
20 871.12708 775.47363 4284637570
22.4 871.12708 775.47369 4284111229
24.799999 871.12708 775.47363 4291610852
28 871.12714 775.47363 4294504701
31.200001 871.12708 775.47363 4293846513
34.133335 871.33099 775.64557 4293846254
37.599998 871.73871 775.98938 4293846000
40.799999 871.73871 775.98938 4293714417
52 871.73871 775.98938 4293715434
10.376146 875.6062 776.63428 4285293952
13.834863 875.1994 776.29132 4285293443
16.761467 874.99597 776.11987 4285359230
19.954128 874.99597 776.11987 4284833664
22.880732 875.1994 776.29132 4286085019
25.541285 874.99597 776.11981 4292464355
27.93578 875.6062 776.63428 4294306806
31.128441 875.6062 776.63428 4293714922
33.522934 875.6062 776.63428 4294044144
51.082569 875.6062 776.63428 4293649118
13.537615 878.24493 776.24316 4285490050
16.722935 878.24493 776.24316 4285425793
19.908257 878.24493 776.24316 4284835457
22.297247 878.24493 776.24316 4284241278
25.482569 878.24493 776.24316 4292530403
28.667891 878.24493 776.24316 4294306801
14.300918 880.87799 775.84717 4285292924
17.478899 880.87799 775.84717 4285557129
19.862385 880.87799 775.84717 4285097089
28.601835 880.87799 775.84717 4294372594
11.122936 882.09277 776.87146 4285293698
13.506422 882.09277 776.87146 4285162369
16.684402 882.09277 776.87146 4285293955
20.111315 882.96771 776.73712 4284702586
23.040367 882.09277 776.87146 4287398827
25.913149 883.84259 776.60284 4292793833
28.050154 882.96771 776.73712 4294570237
30.949541 883.40515 776.67004 4293649389
34.163303 882.09277 776.87146 4293649132
37.341286 882.09277 776.87146 4293780205
40.519264 882.09277 776.87146 4293715177
44.491745 882.09277 776.87146 4293846000
46.080734 882.09277 776.87146 4293780207
50.053211 882.09277 776.87146 4293582823
52.436699 882.09277 776.87146 4293714409
20.561468 887.33649 776.06079 4284504436
28.469725 887.33649 776.06079 4294570237
10.244954 893.06201 776.96436 4285031035
12.609175 893.06201 776.96436 4285030781
16.549541 891.85706 775.94824 4284965256
19.701836 891.85706 775.94824 4284702333
22.85413 891.85706 775.94824 4286741917
26.006422 892.45953 776.4563 4293056745
28.896025 892.66034 776.62567 4294241269
31.522936 893.06201 776.96436 4293912045
37.039452 893.06201 776.96436 4293912559
39.403671 893.06201 776.96436 4293715180
43.344036 893.06201 776.96436 4293583340
46.49633 893.06201 776.96436 4293714921
49.648624 893.06201 776.96436 4293451750
52.800919 893.06201 776.96436 4293385960
55.165138 893.06201 776.96436 4293385449
10.221101 895.66284 776.54114 4285227133
13.628135 895.26215 776.20331 4285031040
16.24893 894.86139 775.86542 4285096323
19.655964 894.46069 775.52747 4284702084
23.062998 894.86139 775.86542 4287070626
25.683792 895.26215 776.20331 4292267486
29.090824 895.66284 776.54114 4294043374
31.449541 895.66284 776.54114 4294042859
49.533028 895.66284 776.54114 4293517800
52.677982 895.66284 776.54114 4293385959
55.822937 895.66284 776.54114 4293450982
14.119267 898.25806 776.11328 4284899463
16.733946 897.85822 775.77618 4284965505
19.598164 898.00659 775.24731 4284701566
22.486238 897.85822 775.77618 4285360782
25.885323 898.25806 776.11328 4292991459
28.238533 898.25806 776.11328 4294635763
56.477066 898.25806 776.11328 4293385188
58.045872 898.25806 776.11328 4293319138
17.216515 902.04419 776.68958 4284833668
19.56422 901.44592 776.18512 4284701821
22.43364 901.64532 776.35327 4284834186
25.824772 902.04419 776.68958 4292662241
19.518349 904.62537 776.25 4284504957
22.641285 904.62537 776.25 4285754771
24.983486 904.62537 776.25 4290622404
20.251375 908.39185 776.80969 4284372598
22.588074 908.39185 776.80969 4285097616
25.703671 908.39185 776.80969 4292595426
28.819267 908.39185 776.80969 4293845995
31.934862 908.39185 776.80969 4293713380
35.050461 908.39185 776.80969 4293779946
38.944954 908.39185 776.80969 4293714409
-9.2807341 917.25903 776.43811 4285620351
-7.7339449 917.25903 776.43811 4285357435
55.48624 919.8999 774.74066 4293319653
-6.972477 752.13123 777.16589 4284832897
56.433029 780.5647 777.59558 4287135389
-10.205504 789.59241 778.66748 4287070350
-10.172477 793.16748 777.75769 4287004556
-8.4587154 795.97736 777.51086 4286741902
-7.5880733 800.82611 777.67517 4287004820
-10.117432 802.1153 778.76208 4286873227
-7.5715594 803.62054 777.41528 4287070347
-4.2064219 803.62054 777.41528 4287069831
-10.095413 804.90686 778.49988 4286806660
-8.4128437 804.90686 778.49988 4286806660
-10.062386 808.44269 777.55701 4286806408
-8.3853207 808.44269 777.55701 4286806408
-13.34312 816.65466 777.9411 4286741391
-10.563302 816.86719 778.1203 4286609285
-7.4889908 818.78064 777.11755 4286478211
-4.9926605 818.78064 777.11755 4286346631
56.708256 816.01709 777.40356 4287267742
-7.472477 823.44287 778.43256 4286280582
-4.9816513 822.80811 777.89734 4286280838
-6.6201835 827.56287 777.98242 4286083975
-4.9651375 827.56287 777.98242 4286018182
1.6550459 827.56287 777.98242 4286214278
-4.1284404 830.30255 777.67639 4286083205
-1.6513761 830.30255 777.67639 4286214280
0.82568806 830.30255 777.67639 4286279555
4.1284404 830.30255 777.67639 4286345348
-6.5908256 833.03662 777.3656 4286214530
-4.119266 833.03662 777.3656 4286214018
-1.6477064 833.03662 777.3656 4286279299
0.82568806 832.30084 778.05322 4286279299
4.119266 833.03662 777.3656 4286279299
-4.119266 834.29633 778.42773 4286148738
-1.6477064 834.29633 778.42773 4286082689
0.82385319 834.29633 778.42773 4286213505
3.2954128 834.29633 778.42773 4286213755
-4.1055045 838.38269 777.94922 4286016896
-1.6422018 838.38269 777.94922 4286082691
0.82110089 837.755 777.41992 4285951103
-6.5688071 840.26593 779.53711 4286213759
-4.0963306 842.35266 778.68048 4286016638
-1.6385322 841.72632 778.15234 4286016898
1.0923548 840.89117 777.44824 4286016647
3.2770643 840.47363 777.09619 4285755005
-3.2697248 845.6864 778.87537 4285818752
-1.6348624 845.06152 778.34845 4285884544
1.0899082 844.85321 778.17285 4285752964
-4.0871563 846.93628 779.9292 4285884538
-1.6348624 846.93628 779.9292 4286081154
-3.2587156 851.60553 779.94214 4285884804
-1.6293578 850.98267 779.41693 4285819265
0.81376147 850.46155 777.66956 4285752957
-4.0642204 854.29468 779.59351 4285688708
0.81284404 853.05182 778.54553 4285819253
4.0550461 854.49817 777.14893 4285687684
7.2990828 854.49817 777.14893 4285621888
13.787156 854.49817 777.14893 4285557381
16.220184 854.49817 777.14893 4285753736
-4.0550461 856.97827 779.24011 4285557636
-1.6220183 856.35828 778.71735 4285491333
1.0813456 856.15161 778.54315 4285557110
3.2440367 855.73822 778.19458 4285753738
-4.0412846 860.37518 778.1803 4285425792
-1.6165137 860.37518 778.1803 4285425792
0.80825686 859.75726 777.65924 4285425790
3.7718651 859.55127 777.48553 4285426050
7.274312 859.13934 777.13818 4285425792
-4.0412846 861.61102 779.22229 4285556092
-1.6165137 861.61102 779.22229 4285490300
0.80825686 862.32861 778.51929 4285490300
4.0321102 863.04614 777.81628 4285359995
-4.0321102 864.89569 779.37573 4285490813
-1.612844 864.89569 779.37579 4285425277
0.806422 865.61121 778.67096 4285227645
3.75474 866.12158 777.79327 4285424760
7.2412844 865.71155 777.44751 4285162886
-4.0229359 868.172 779.52209 4285490814
-1.6091744 868.172 779.52209 4285556093
0.80458719 868.88531 778.81555 4285227133
4.2813454 869.18945 777.76398 4285162108
7.2247705 868.98486 777.59155 4285228162
10.43578 868.37122 777.0741 4285293954
12.844037 868.37122 777.0741 4285359743
35.321102 868.37122 777.0741 4293912045
37.729355 868.37122 777.0741 4293780460
40.940369 868.37122 777.0741 4293583084
44.151375 868.98492 777.59155 4293780720
46.559631 868.98492 777.59155 4293912558
48.967888 868.98492 777.59155 4293583593
52.178902 868.37122 777.0741 4293517800
55.389908 868.98486 777.59155 4293451250
-3.2110093 870.82605 779.14404 4285359997
-1.6055046 870.82605 779.14404 4285359997
0.80275232 870.82605 779.14404 4285097080
4.0137615 870.82605 779.14404 4285293698
7.1999998 872.96191 777.02075 4285228411
10.4 872.96191 777.02075 4285293952
12.8 872.96191 777.02075 4285293698
24 872.96191 777.02075 4290361563
28 872.96191 777.02075 4294241018
31.200001 872.96191 777.02075 4293846512
34.400002 872.96191 777.02075 4293912304
37.599998 872.96191 777.02075 4293846512
40.799999 872.96191 777.02075 4293649388
44 872.96191 777.02075 4293583596
46.400002 872.96191 777.02075 4293649389
48.799999 872.96191 777.02075 4293649387
52 872.96191 777.02075 4293649638
55.296333 871.89398 778.0824 4293451503
0 874.79675 778.56787 4285227634
4.2666669 875.00067 778.73975 4285228159
6.9333329 874.59283 778.396 4285162359
35.200001 874.18512 778.05212 4293912308
37.599998 874.18512 778.05212 4293846768
40.799999 874.18512 778.05212 4293978351
44 874.18512 778.05212 4293780973
46.400002 874.18512 778.05212 4293517548
48.799999 874.18512 778.05212 4293583596
52.799999 874.18512 778.05212 4293780704
54.400002 874.18512 778.05212 4293451753
4.788991 878.04706 778.69238 4285359997
7.4495411 877.64032 778.34937 4285292924
10.376146 876.82666 777.66333 4285424255
23.944954 876.82666 777.66333 4290294234
27.137615 876.82666 777.66333 4294569983
31.128441 876.82666 777.66333 4293714922
34.321098 876.82666 777.66333 4293846512
37.513763 876.82666 777.66333 4293648877
40.706421 876.82666 777.66333 4293780714
43.633026 877.23346 778.00635 4293715435
47.091743 877.43689 778.17786 4293714926
49.48624 876.82666 777.66333 4293649387
51.880733 876.82666 777.66333 4293386466
54.27523 876.82666 777.66333 4293385960
0 879.26746 779.72131 4285490298
4.7834864 880.58258 779.52222 4285227890
6.9064217 880.61505 779.11359 4285228159
10.08685 879.86841 777.612 4285358720
12.741284 879.46252 777.26978 4285424253
15.926605 879.46252 777.26978 4285162371
23.093578 879.46252 777.26978 4287201968
25.482569 879.46252 777.26978 4292332256
27.07523 879.46252 777.26978 4294700799
31.056881 879.46252 777.26978 4293912300
34.242203 879.46252 777.26978 4293846767
37.427521 879.46252 777.26978 4293714670
40.612846 879.46252 777.26978 4293649128
43.798164 880.07129 777.78314 4293780973
47.779816 880.68011 778.29651 4293713896
50.168808 879.46252 777.26978 4293451751
52.557796 879.46252 777.26978 4293517287
54.150459 880.07129 777.78314 4293451498
0 884.52234 778.92004 4285292407
7.4152904 884.11737 778.57861 4285227388
10.328441 883.30756 777.89575 4285162369
13.506422 883.30756 777.89575 4285227907
16.684402 883.30756 777.89575 4285359750
19.06789 883.30756 777.89575 4285491845
23.040367 883.30756 777.89575 4287136427
34.163303 883.30756 777.89575 4293912559
37.341286 883.30756 777.89575 4293978092
40.519264 883.30756 777.89575 4293780712
43.69725 883.30756 777.89575 4293583594
46.875229 883.30756 777.89575 4293517542
49.78838 883.71246 778.23712 4293583336
52.436699 883.30756 777.89575 4293649389
54.025688 883.30756 777.89575 4293583345
-3.1779816 885.73718 779.94434 4285292653
-1.5889908 885.73718 779.94434 4285292653
0.7944954 885.73718 779.94434 4285226360
3.972477 885.73718 779.94434 4284965242
7.133945 887.14142 778.51233 4285096828
10.304587 886.5354 778.00134 4285030781
13.475229 886.5354 778.00134 4285097091
16.381651 886.33344 777.83105 4285360013
19.023853 885.92944 777.49036 4285557125
22.987156 885.92944 777.49036 4286939045
26.157799 885.92944 777.49036 4292860396
30.913761 885.92944 777.49036 4293780972
34.084404 886.53546 778.00134 4293781225
37.255047 886.5354 778.00134 4293649380
40.42569 886.5354 778.00134 4293714919
43.596329 886.53546 778.00134 4293517801
46.766968 886.5354 778.00134 4293452007
50.201832 886.73749 778.17169 4293385702
53.108253 886.5354 778.00134 4293583594
55.48624 887.14142 778.51233 4293649638
-3.9587154 889.65875 779.32684 4285227385
-1.5834862 889.65869 779.32684 4285423992
0 889.65869 779.32684 4285358205
3.9633026 888.35339 779.5343 4285031033
7.1256881 889.65875 779.32684 4285031035
10.280734 889.75488 778.09985 4285030781
13.444036 889.75488 778.09985 4285096576
17.398165 888.54572 777.08032 4285294223
19.770641 888.54572 777.08032 4285030271
22.933945 888.54572 777.08032 4286873502
26.360855 888.94873 777.42017 4293583346
28.469725 888.54572 777.08032 4294504697
30.842201 889.15027 777.59009 4293715178
34.005505 890.3595 778.60962 4293912301
37.168808 889.75488 778.09985 4293781226
40.595718 890.15796 778.4397 4293649132
43.495415 889.75488 778.09985 4293517033
46.658714 889.75488 778.09985 4293583080
49.822018 889.75488 778.09985 4293451752
52.985321 889.75488 778.09985 4293320424
55.3578 889.75488 778.09985 4293254631
-3.940367 895.47198 778.99634 4285227127
-1.5761468 895.47198 778.99634 4285161335
0 895.47198 778.99634 4285227129
3.940367 895.47198 778.99634 4285095544
7.084404 895.56604 777.76758 4285161087
10.221101 896.86505 777.55481 4284899196
12.579817 896.86505 777.55481 4284899463
29.877064 896.86505 777.55481 4294109419
31.449541 896.86505 777.55481 4294109419
33.847706 895.56604 777.76758 4293977579
36.99633 895.56604 777.76758 4293846252
40.144955 895.56604 777.76758 4293714923
43.293579 895.56604 777.76758 4293649387
46.442204 895.56604 777.76758 4293518056
49.533028 896.86505 777.55481 4293517798
52.677982 896.86505 777.55481 4293451495
55.036697 896.86505 777.55481 4293319654
0.78623855 899.26941 779.58203 4285095290
3.9311929 898.66833 779.07526 4284897655
6.8140678 898.46796 778.90631 4284963699
10.208257 898.76233 777.84656 4284833149
13.334863 899.4574 777.12463 4284768124
16.472477 899.4574 777.12463 4284769410
23.53211 899.4574 777.12463 4287991733
25.885323 899.4574 777.12463 4292728034
29.022936 899.4574 777.12463 4294109937
31.376146 899.4574 777.12463 4293978349
33.808258 898.0672 778.56848 4293780972
36.953209 898.0672 778.56848 4293649387
40.098167 898.0672 778.56848 4293649130
43.243118 898.0672 778.56848 4293714923
46.279816 899.4574 777.12463 4293583593
49.474312 898.76233 777.84656 4293386216
52.615597 898.76233 777.84656 4293319911
55.756882 898.76233 777.84656 4293385446
58.045872 899.4574 777.12463 4293385701
-1.5688074 901.85614 779.14709 4285029749
0 901.85614 779.14709 4285095290
3.9220183 901.85614 779.14709 4284963443
7.3211007 901.45636 778.81006 4284897902
10.197248 901.25647 778.64148 4284766330
13.334863 901.25647 778.64148 4284570484
15.688073 900.65674 778.13586 4284767874
29.022936 900.65674 778.13586 4294109685
32.160549 900.65674 778.13586 4293715180
34.51376 900.65674 778.13586 4293780203
36.866974 900.65674 778.13586 4293649130
40.004585 900.65674 778.13586 4293649127
43.142204 901.25647 778.64148 4293649127
46.279816 901.25647 778.64148 4293517545
49.417435 901.25647 778.64148 4293385705
52.555046 901.25647 778.64148 4293385450
55.692661 901.25647 778.64148 4293385449
58.045872 901.25647 778.64148 4293385448
-1.5651376 905.63391 779.71631 4284570743
0 905.03564 779.21185 4284636281
4.6954126 905.63391 779.71631 4284636275
7.0431194 905.63391 779.71631 4284766834
10.173394 905.63391 779.71631 4284766328
13.30367 905.03558 779.21191 4284766842
16.269358 904.47443 778.21545 4284767615
19.518349 905.81915 777.25647 4284570747
22.641285 905.81915 777.25647 4285426833
26.045259 904.95972 777.40381 4293385452
28.921103 904.52997 777.47742 4294109168
32.047707 904.52997 777.47742 4293780203
35.174313 904.52997 777.47748 4293714409
37.563301 903.83905 778.20294 4293714408
39.86422 904.52997 777.47742 4293648869
43.041283 904.43732 778.7074 4293714149
46.432419 904.83618 779.0437 4293583084
49.562695 905.23505 779.38007 4293385706
52.43211 905.63391 779.71631 4293451753
55.562386 905.63391 779.71631 4293254116
0 908.20667 779.26953 4284570484
16.655657 907.80878 778.93408 4284833150
18.737616 907.01288 778.26306 4285030785
37.475231 907.01288 778.26306 4293714409
40.598164 907.01288 778.26306 4293582310
42.940369 907.01288 778.26306 4293714152
45.803059 907.80878 778.93408 4293648616
49.186241 908.20667 779.26953 4293516777
51.528439 908.20667 779.26953 4293319402
-6.2311926 911.36926 779.32013 4284832123
-3.1155963 911.96472 779.82227 4284963706
-1.5577981 911.96472 779.82227 4284963706
0 911.36926 779.32013 4284701555
7.788991 911.96472 779.82227 4284702320
14.020184 911.96472 779.82227 4284570484
16.616514 911.56769 779.48749 4284702068
19.472477 910.17828 778.31592 4284504700
22.588074 910.17828 778.31592 4284768655
25.703671 910.17828 778.31592 4292660961
28.819267 909.58282 777.81384 4294043629
31.934862 909.58282 777.81384 4293911527
35.310093 909.9798 778.14862 4293779942
38.166058 910.17828 778.31592 4293714411
40.50275 910.17828 778.31592 4293451245
42.995228 910.53552 778.61719 4293582567
45.955048 911.36926 779.32013 4293516771
49.070641 911.36926 779.32013 4293451237
52.186241 910.77374 778.81799 4293319652
54.522934 910.77374 778.81799 4293451494
-7.7706423 913.33533 778.36182 4285161339
-3.8853211 914.52344 779.36365 4285029497
-1.5541284 914.52344 779.36365 4285029751
0 914.52344 779.36365 4284833399
13.987156 914.52344 779.36365 4284766580
16.318348 914.52344 779.36365 4284636274
19.426605 913.92944 778.86273 4284571515
22.534863 913.92944 778.86273 4284308869
25.64312 913.92938 778.86279 4292398302
28.906788 913.09778 778.16144 4294109678
31.859632 913.33539 778.36182 4293714668
34.812477 913.57294 778.56219 4293714666
38.076149 913.92944 778.86273 4293780459
41.184402 913.92944 778.86273 4293451752
43.515594 914.52344 779.36365 4293517539
45.846786 914.52344 779.36365 4293451748
48.955048 914.52344 779.36365 4293386468
52.063301 913.92944 778.86273 4293386217
55.171562 913.33533 778.36182 4293385705
-6.7186546 916.68146 778.5672 4284964218
13.954128 917.0766 778.90039 4284636277
16.279816 917.0766 778.90039 4284570997
19.380733 917.0766 778.90039 4284440190
22.481651 917.0766 778.90039 4284374399
25.582569 917.0766 778.90039 4292200920
28.425077 916.68146 778.5672 4294241010
31.784403 917.0766 778.90039 4293714928
34.110092 917.0766 778.90039 4293714409
52.715595 917.0766 778.90039 4293319656
54.266056 916.48389 778.40063 4293188328
-6.9770641 918.26196 779.89978 4284702327
10.840367 919.5343 779.66455 4284438900
13.155046 919.87482 779.29761 4284504952
16.241283 920.21533 778.93079 4284504947
19.334862 920.21533 778.93079 4284308091
22.42844 920.21533 778.93079 4284176253
25.522018 920.21533 778.93079 4292134876
28.615597 920.21533 778.93079 4294175473
31.746788 919.53424 779.66455 4293912044
34.844036 919.5343 779.66455 4293582818
37.941284 919.5343 779.66455 4293714410
41.312542 919.11017 779.74298 4293451241
44.188072 918.26196 779.89978 4293648105
46.51376 918.26196 779.89978 4293517800
48.839447 918.26196 779.89978 4293254370
52.157185 919.11017 779.74298 4293319654
54.696026 919.56421 779.25372 4293188069
55.48624 922.8457 777.22449 4293188836
12.330276 925.20233 779.21155 4284833149
21.577982 924.61316 778.71478 4283518844
26.201836 925.20233 779.21155 4294897919
28.513762 924.61322 778.71472 4294109937
31.339449 924.80957 778.88037 4293583080
53.431194 924.80957 778.88037 4293188325
55.420185 925.29004 777.97748 4293254371
55.35413 927.73157 778.72815 4293123294
-10.877064 815.05957 780.52026 4286675593
-10.007339 819.84247 780.62891 4286346631
-9.985321 823.23376 780.87231 4286281351
-8.3027525 825.34711 780.03821 4286149766
-6.5908256 839.33508 782.67627 4286016633
-6.5688071 842.77686 781.6543 4285753710
-6.5688071 844.03235 782.71289 4285885045
-4.9155965 844.23169 780.26477 4285819503
-4.0871563 848.18616 780.98303 4285819514
-4.9045873 849.43604 782.03687 4285753727
-6.5174313 854.09686 782.04272 4285557377
-7.0348625 858.56665 781.45148 4285622399
-6.4660549 862.84686 780.26428 4285687934
-6.4660549 864.70062 781.82739 4285753731
-6.451376 867.97833 781.97498 4285425790
-4.8275228 869.40222 780.55945 4285425790
-6.4366975 871.86267 782.63403 4285425788
-4.0137615 872.05347 780.17896 4285359484
-1.6055046 872.05347 780.17896 4285293178
1.6055046 872.05347 780.17896 4285425009
3.2110093 872.05347 780.17896 4285425538
-6.4220185 874.5083 782.24878 4285622388
-3.7461774 873.69 781.55884 4285490556
-1.6055046 873.28088 781.21387 4285556093
1.6055046 873.28088 781.21387 4285424759
-7.1999998 877.85474 781.14636 4285490293
-4.2666669 877.44702 780.80255 4285490296
-1.6 877.24316 780.63068 4285556093
1.0666667 877.03925 780.4588 4285490298
3.2 877.24316 780.63068 4285228409
-7.4495411 880.89459 781.09344 4285424507
-3.9908257 880.48785 780.75037 4285358460
-1.5963303 880.48785 780.75037 4285292924
0.79816514 880.48785 780.75037 4285227383
3.1926606 880.48785 780.75037 4285096044
-6.9015288 883.92706 781.03418 4285293181
-4.2470946 883.52124 780.69189 4285227130
-1.5926605 883.11536 780.34973 4285161335
1.5926605 883.11536 780.34973 4285292407
3.9816513 883.11536 780.34973 4285095794
-6.3706422 885.55054 782.40308 4285162621
1.5889908 886.95197 780.96863 4285357947
-7.133945 889.56543 780.55615 4285096829
1.5853211 890.17139 781.06714 4285162108
3.9633026 889.56543 780.55615 4285031035
-7.1174312 892.77783 780.6488 4285161850
-3.9541283 892.17328 780.13904 4285293177
-1.5816513 892.17328 780.13904 4285424507
0.79082566 892.77783 780.6488 4285359484
3.9541283 892.17328 780.13904 4285031035
-9.4899082 894.59161 782.1781 4285423740
-7.1174312 894.59161 782.1781 4285358195
-3.9458714 895.63428 781.09521 4285292912
-1.5761468 896.67694 780.01233 4285227381
0.78807342 896.67694 780.01233 4285095544
-6.3045874 899.08691 782.04431 4285227631
-3.9403672 898.48438 781.53632 4285030252
-1.5761468 897.88196 781.02832 4285490802
-3.9311926 901.67371 781.60938 4284898679
1.5724771 900.47156 780.5957 4284963704
-6.2752295 904.25488 781.16968 4285161337
-3.9220183 904.25488 781.16968 4284899193
-1.5688074 903.05548 780.15845 4284636027
1.5688074 903.65515 780.66406 4284636281
3.6605504 903.45526 780.49554 4284767091
7.0596333 903.05548 780.15845 4284963695
10.197248 903.05548 780.15845 4284832121
48.633026 903.05548 780.15845 4293385710
52.555046 903.05548 780.15845 4293451501
55.692661 903.05548 780.15845 4293319914
-6.2605505 906.83044 780.72522 4285029245
-3.9128439 906.83044 780.72522 4284832636
-1.5651376 906.83044 780.72522 4284570234
1.5651376 906.83044 780.72522 4284570484
3.9128439 906.83044 780.72522 4284570482
7.0431194 906.83044 780.72522 4284766580
10.173394 906.83044 780.72522 4284636025
13.30367 906.83044 780.72522 4284570232
53.21468 906.83044 780.72522 4293385951
54.779816 906.83044 780.72522 4293648866
-4.1639142 909.79834 780.61163 4284832635
-1.5614679 909.40039 780.27612 4284570232
1.5614679 909.99731 780.77942 4284635763
3.9036698 909.99731 780.77942 4284570472
6.7663612 909.79834 780.61163 4284636274
10.149542 909.99731 780.77942 4284636277
13.012233 909.79834 780.61163 4284636533
15.614679 909.40039 780.27612 4284636790
1.5577981 913.7511 781.32849 4284702070
3.8944955 913.7511 781.32849 4284570479
6.7504592 913.55267 781.16113 4284570482
10.125689 913.15564 780.82642 4284766580
12.462385 913.15564 780.82642 4284832373
-3.8853211 916.30573 780.86639 4284899449
-1.5541284 916.30566 780.86639 4284833655
0.51926607 916.04962 781.52246 4284899192
3.8853211 916.89978 781.36731 4284833399
7.2525992 916.50372 781.03339 4284570483
9.8428135 916.10767 780.6994 4284504947
12.433027 915.71161 780.36548 4284636277
35.744953 915.71161 780.36548 4293846252
38.076149 915.71161 780.36548 4293978353
41.184402 915.71161 780.36548 4293582823
43.515594 915.71161 780.36548 4293451494
45.846786 915.71161 780.36548 4293451749
48.955048 915.71161 780.36548 4293320417
51.28624 915.71161 780.36548 4293780708
-6.7186546 919.84235 781.23242 4285030001
-3.880734 919.36023 782.13391 4285293170
-1.5522935 919.36023 782.13391 4285358968
0.5180428 919.38922 781.72235 4285292924
3.8853211 918.08789 782.36914 4284899194
7.2403665 919.38922 781.72235 4284833145
9.3027525 920.03992 781.39899 4284701816
40.311928 919.44727 780.89929 4293385708
43.929661 919.84235 781.23242 4293517036
46.51376 920.03992 781.39899 4293254629
48.839447 920.03992 781.39905 4293254375
51.165138 919.44727 780.89929 4293254631
-6.2018347 921.81793 782.89807 4285358197
-1.5504587 921.81793 782.89807 4285752704
0 921.81793 782.89807 4285753725
4.6513762 921.81793 782.89807 4285622140
6.9770641 921.81793 782.89807 4285490802
10.311927 922.77753 781.09113 4284964470
13.405505 922.3833 780.75879 4284766842
16.241283 922.58044 780.92493 4284701303
19.334862 922.58038 780.92493 4284701816
23.201836 922.58044 780.92493 4284308104
25.264221 922.3833 780.75879 4290621647
32.482571 921.98914 780.42639 4293452007
34.80275 922.58044 780.92493 4293385957
37.896332 922.58044 780.92493 4293649129
40.989906 922.58038 780.92493 4293385448
44.34129 922.77753 781.09113 4293451494
47.232109 922.49481 782.16077 4293188840
49.49725 923.17169 781.42346 4293254381
51.559631 922.3833 780.75879 4293254122
10.054129 924.35419 782.42053 4285292924
13.147707 924.35419 782.42053 4284702072
16.241283 924.35419 782.42053 4284833149
19.334862 924.35419 782.42053 4284701563
22.348625 926.38068 780.20508 4283847803
25.431194 926.38068 780.20508 4291280603
28.513762 926.38068 780.20508 4294044149
31.596331 926.38068 780.20508 4293649386
34.678902 926.38068 780.20508 4293385701
37.896332 924.35419 782.42053 4293384931
40.915596 925.36743 781.31281 4293516517
44.083488 924.35419 782.42053 4293451746
47.177063 924.35419 782.42053 4293320421
49.49725 924.35419 782.42053 4293254633
52.464222 925.70514 780.94354 4293254630
21.577982 927.55902 781.19861 4283650424
25.431194 928.14819 781.69543 4290754260
28.513762 928.14819 781.69537 4294043634
31.596329 928.14819 781.69537 4293713896
34.678902 928.14819 781.69543 4293714407
52.403671 928.14819 781.69537 4293516772
-6.5394497 850.68591 783.0907 4285623424
-8.1284399 859.26611 783.78528 4285753979
-13.005505 861.75177 785.8811 4285884795
-8.1284399 861.75177 785.8811 4285885056
-8.0825691 866.55438 783.39038 4285687932
-7.5388379 868.67584 784.30713 4285491062
-8.0642204 871.67743 785.09387 4285753708
-9.4899082 895.80078 783.19763 4285489789
-7.1174312 895.80078 783.19763 4285292655
-7.908257 897.01001 784.21716 4285293176
-6.3045874 900.29187 783.0603 4285161587
-3.8853211 920.46417 784.37268 4285424249
1.5541284 919.87012 783.87177 4285622139
3.6262996 919.67212 783.70477 4285424509
6.2165136 919.27606 783.37085 4285161335
-6.2018347 923.0033 783.89758 4285882746
-3.8761468 923.0033 783.89758 4285686395
-1.5504587 923.0033 783.89758 4285818752
0.7770642 922.32782 784.63605 4285818750
3.8798165 922.32782 784.63605 4285687680
6.9770641 923.0033 783.89758 4285556347
-6.2018347 924.18866 784.89697 4285621625
-3.8761468 924.18866 784.89697 4285621116
-1.5504587 924.18866 784.89697 4285883780
0 924.18866 784.89697 4285884545
4.6513762 924.18866 784.89697 4286146949
6.9770641 924.78131 785.39673 4285818751
10.054129 926.12805 783.91614 4285621887
13.147707 926.12805 783.91614 4285161851
16.241283 926.12805 783.91614 4284832382
19.345873 925.79175 784.28662 4284766325
22.686239 926.32513 784.08234 4283387507
37.896332 926.12805 783.91614 4293516262
40.989906 926.12805 783.91614 4293648100
44.109177 925.79169 784.28662 4293451490
47.204586 925.79169 784.28662 4293320419
49.49725 926.12805 783.91614 4293188067
51.044037 926.12805 783.91614 4293516775
22.42844 927.90179 785.41187 4283650676
25.475231 928.90869 784.29877 4290490835
28.566055 928.90869 784.29877 4294043631
31.596331 929.91565 783.18567 4293648105
34.80275 927.90179 785.41187 4293648103
37.896332 927.90179 785.41187 4293450729
40.989906 927.90179 785.41187 4293582562
47.950459 927.90179 785.41187 4293056738
52.590824 927.90179 785.41187 4293188067
-6.5908256 844.37378 786.9248 4285885056
-6.2311926 922.68329 788.85986 4285621627
1.5541284 922.84045 786.37634 4285818752
3.1082568 922.84045 786.37634 4285883778
-3.6262996 924.42462 787.7121 4285621627
-1.5541284 924.02863 787.37817 4285818750
0.7770642 924.62268 787.87903 4285752952
3.8853211 924.62268 787.87909 4286146178
6.993578 925.21674 788.38 4286211459
10.077982 926.55933 786.89587 4285949571
13.178899 926.55933 786.89587 4285293700
16.279816 926.55933 786.89587 4284832900
19.380733 926.55933 786.89587 4284569982
44.188072 926.55933 786.89587 4293582562
46.51376 926.55933 786.89587 4293648618
49.614677 926.55933 786.89587 4293121255
51.165138 926.55933 786.89587 4293253097
10.853211 927.74463 787.89539 4285555328
12.403669 927.74463 787.89539 4285490048
16.279816 927.74463 787.89539 4285031044
20.155964 927.74463 787.89539 4284241269
22.740061 928.13971 788.22852 4283125091
25.552294 929.0072 787.65186 4290095313
28.649542 929.0072 787.65186 4293846252
31.709175 929.08435 786.40894 4293648616
34.844036 929.0072 787.65186 4293713896
37.896332 929.08435 786.40894 4293450724
40.989906 929.08435 786.40894 4293582562
44.188072 927.74463 787.89539 4293385183
46.51376 928.33728 788.39508 4293516769
48.839451 928.33728 788.39508 4293253343
51.940369 928.92999 788.89478 4293253345
31.709175 930.26685 787.40601 4293845734
37.896332 930.85809 787.90454 4293450724
40.989906 930.85809 787.90454 4293451234
44.083488 930.85809 787.90454 4293385183
46.403671 931.4494 788.40308 4293187291
43.155964 935.80731 788.15332 4293187806
-10.362691 859.37695 791.29083 4285687673
-6.2458715 922.53174 791.34814 4285687680
-4.6733947 923.87421 789.86401 4285687680
-1.5577981 923.87421 789.86401 4285752954
-6.2165136 926.40491 789.38171 4285556347
-3.8889909 925.73505 790.12494 4285424760
-1.5577981 925.06519 790.86816 4285161587
1.0385321 925.46216 791.20288 4285094509
3.8917432 925.99554 790.9986 4285357177
7.0018349 926.33044 790.62708 4285422456
9.3247709 926.40491 789.38171 4285357949
13.987156 926.40491 789.38171 4285555841
18.649542 926.40491 789.38171 4284438391
52.063301 926.40491 789.38171 4293253346
0 927.59308 790.38354 4285422699
9.8428135 927.98907 790.71747 4286671242
13.210092 927.59308 790.38354 4285752193
16.318348 928.18713 790.88446 4286081664
19.426605 928.18713 790.8844 4284767102
22.275841 928.38519 791.05145 4283059049
24.866055 928.78119 791.38538 4285095029
28.751377 928.78119 791.38538 4293977835
52.063301 928.78119 791.38538 4293253857
26.357798 930.11536 789.89429 4294240255
32.042812 930.51044 790.22736 4293779940
34.885323 931.30072 790.89362 4293582320
37.896332 932.63196 789.40015 4293319654
40.989906 932.63196 789.40015 4293385186
44.083488 932.63196 789.40015 4293253599
46.403671 932.63196 789.40015 4293319392
48.839447 931.30072 790.89362 4293516771
35.576145 934.99701 791.39429 4293582058
37.896332 934.40576 790.89575 4293516517
40.989906 933.81445 790.39722 4293319395
44.85688 933.81445 790.39722 4293319392
46.919266 934.60284 791.06195 4293253597
40.844036 937.57477 789.64368 4293384931
43.926605 937.57477 789.64368 4293384930
46.238533 938.16394 790.14038 4293319390
40.844036 939.34229 791.13391 4293319395
43.926605 939.34229 791.13391 4293319138
47.009174 939.34229 791.13391 4293319392
-13.137614 857.84259 794.3573 4285752956
-13.108257 860.51642 793.99573 4285818748
-11.469725 859.26373 792.93945 4285752956
-10.626606 861.93469 792.57544 4285621877
-7.0431194 923.58228 794.84998 4286013812
-3.9036698 924.91925 793.36121 4285751155
-1.5614679 924.91925 793.36121 4285685615
0 926.11298 794.3678 4288647065
1.5577981 927.44708 792.87659 4288647065
3.8944955 927.44708 792.87659 4288646304
7.0100918 927.44708 792.87659 4288513701
10.125689 928.04254 793.37866 4288447383
13.500918 927.84406 793.21124 4287723921
16.35688 928.638 793.88074 4290090125
19.472477 928.638 793.88074 4289301654
22.561468 929.89917 793.63605 4289829047
25.403669 929.92255 793.21973 4290421699
28.751377 929.96936 792.38721 4293977833
31.082569 929.96936 792.38721 4293648353
52.405502 929.47882 793.71759 4293319138
26.420183 931.15747 793.38904 4294829272
28.751377 931.15747 793.38904 4293715179
31.859631 931.75159 793.88995 4293450722
51.28624 931.15747 793.38904 4293386214
34.110092 934.26404 793.39233 4293516775
49.614677 933.67133 792.89258 4293188065
51.165138 934.26404 793.39233 4293122270
35.209629 937.03204 793.76422 4293517023
37.896332 937.36206 793.38843 4293385439
47.950459 936.17957 792.39136 4293253597
49.49725 937.36206 793.38843 4293253598
51.044037 937.95337 793.88696 4293450976
40.844036 940.52057 792.12756 4293252577
43.926605 941.10974 792.62433 4293253602
47.009174 940.52057 792.12756 4293319393
-14.829358 855.711 796.48401 4285687934
-7.0431194 924.77887 795.85889 4288382096
-3.9128439 925.37714 796.36328 4289171867
-1.5651376 925.37714 796.36334 4289501090
0 925.9754 796.8678 4290421164
3.9128439 925.9754 796.8678 4290945713
7.8256879 925.9754 796.8678 4289564853
0 927.172 797.87671 4290352783
6.7773705 927.21698 797.04254 4291933126
10.425688 927.21698 797.04254 4290618544
13.012233 928.10254 796.04535 4290485423
16.395412 928.50049 796.38086 4292522683
19.518349 928.50049 796.38086 4293906130
22.641285 929.69427 797.38733 4293316560
24.983486 929.69427 797.38733 4291146172
54.651375 927.30676 795.37427 4293187552
26.482569 931.0199 795.88904 4294238444
29.078897 931.41681 796.22382 4293780203
31.155964 932.21088 796.89331 4293648355
52.965137 931.0199 795.88904 4293187552
32.26651 934.39191 796.77026 4293648611
52.840366 934.72192 796.39447 4293187552
34.110092 937.22736 795.89099 4293122011
37.896332 939.72711 795.38257 4293450211
40.989906 940.31836 795.88116 4293187299
44.083488 940.90967 796.37976 4293187804
46.955963 939.68408 796.21826 4293188065
48.780735 939.6626 796.63617 4293188064
-6.2752295 925.24377 798.867 4289630102
-3.9220183 925.84344 799.37268 4289366673
-1.5688074 925.84344 799.37268 4289236628
1.5688074 925.24377 798.867 4291340972
3.9220183 925.84344 799.37268 4293117121
-1.5688074 927.04285 800.38391 4289499280
0 927.04285 800.38391 4289958314
4.7064219 927.04285 800.38391 4293444523
7.0596333 927.04285 800.38391 4293247146
10.197248 927.04285 800.38391 4292592823
13.318349 927.70569 799.63477 4292329404
16.433945 928.36853 798.88562 4292262327
19.56422 928.36853 798.88562 4293709494
21.911926 929.56512 799.89453 4292857056
25.042202 929.56512 799.89453 4289235802
26.064833 930.80377 800.06689 4292197294
28.626913 931.68384 799.06494 4293911532
29.667891 933.27551 800.40698 4293779689
31.67523 935.38672 799.57104 4293647849
52.965137 935.78369 799.90576 4293253345
31.934862 936.97467 800.90991 4293517032
34.967888 937.69226 798.89893 4293319394
38.076149 938.28638 799.3999 4293516002
49.732109 938.28638 799.3999 4293187552
51.886242 937.01587 800.07257 4293319136
35.744953 939.47449 800.40173 4293582562
38.076149 939.47449 800.40173 4293582562
41.087158 940.78339 798.88928 4293385184
44.446484 941.17847 799.22241 4293253595
46.51376 940.78339 798.88928 4293056734
48.898163 940.12891 799.64551 4293188063
-3.9311926 925.71716 801.8822 4288972685
-1.5724771 926.91931 802.89575 4293778658
1.5724771 926.31824 802.38898 4292592337
3.6691132 926.51855 802.55792 4293183169
7.0761471 926.91931 802.89575 4293445068
9.4348621 926.91931 802.89575 4291607743
0 928.18188 802.65228 4293976293
4.7174311 928.12152 803.90942 4293516515
7.0761471 928.12152 803.90942 4291869877
10.474618 928.1618 803.07129 4290817442
13.342202 928.51184 802.27655 4290292144
16.472477 928.84186 801.90076 4290620335
19.610092 928.84186 801.90076 4291871140
23.009176 929.04175 802.06934 4291080138
25.85413 931.29956 802.66504 4290485598
28.172478 931.95819 801.91235 4293845739
28.937616 934.08099 803.04822 4294043115
31.934862 938.16559 801.91418 4293714148
34.271561 938.16559 801.91418 4293582562
52.248627 937.51123 802.67041 4293253596
35.050461 939.35657 802.91833 4293318625
38.166054 939.95203 803.42041 4293516777
40.988987 940.18896 802.74811 4293450979
43.030579 941.02026 802.57715 4293385443
46.142506 941.02026 802.57715 4293056732
49.01376 940.60437 802.66248 4293188062
51.407341 939.35657 802.91833 4293187804
-3.940367 925.59644 804.39648 4294042343
-1.5761468 926.80139 805.41248 4294569196
1.5761468 926.80139 805.41248 4293516256
3.1522937 926.80139 805.41248 4293187806
0 928.00635 806.42847 4294174458
4.7284403 928.00635 806.42847 4287858317
7.0926609 928.00635 806.42847 4286806667
10.23211 928.66504 805.67578 4287330180
13.366055 929.32367 804.9231 4286540662
16.511009 929.32367 804.9231 4286212978
19.655964 929.32367 804.9231 4285491306
22.800919 929.32367 804.9231 4286672523
23.062998 930.92657 806.2746 4285161092
25.643427 931.80292 805.26935 4288906912
26.669725 933.03967 805.44031 4294499576
28.988075 934.89343 805.69531 4293977320
29.737616 936.74445 805.948 4293517287
31.774313 938.01398 805.27441 4293450726
32.790825 939.84119 805.94299 4293450216
35.133026 939.84119 805.94299 4293385188
37.475231 940.43805 806.44629 4293452007
39.769722 941.08826 805.68646 4293254628
42.839447 941.73846 804.92664 4293057249
46.010094 941.08826 805.68646 4293188577
49.129356 941.08826 805.68646 4293122271
51.528439 939.24432 805.4397 4293319390
43.618347 943.5249 806.43298 4293187552
45.176147 943.5249 806.43298 4293121759
49.330273 943.32642 806.26562 4293121757
-4.7559633 923.50116 809.16992 4294701297
-3.1633027 924.82129 807.66699 4294766318
-1.5816513 926.03046 808.68652 4294437871
1.5816513 926.03046 808.68652 4290753479
3.1633027 926.03046 808.68652 4290292658
0 927.23962 809.70605 4292859632
3.9541283 927.23962 809.70605 4287333552
7.1174312 927.23962 809.70605 4287333522
10.244954 929.21136 807.44446 4285950881
13.419266 928.22546 808.57526 4286409090
16.549541 929.21136 807.44446 4286607235
19.701836 929.21136 807.44446 4285753222
20.489908 930.41632 808.46045 4286541453
22.85413 931.0188 808.96844 4285096066
25.945873 932.93018 807.96399 4290619072
26.732111 934.13239 808.97766 4294435568
28.271561 935.38647 808.72711 4294043373
29.807339 936.63776 808.47412 4293845737
51.770641 937.8371 809.48535 4292990173
32.08532 939.73584 808.47028 4293384164
34.92783 941.16559 808.80371 4293384929
37.519264 941.5813 808.7182 4293450722
39.817429 941.63184 807.45276 4293450980
42.159634 941.63184 807.45276 4293319656
46.899082 941.5813 808.7182 4293122012
48.519264 941.5307 809.98364 4293121757
39.817429 942.82556 808.45935 4293253090
42.159634 942.82556 808.45935 4293187041
45.176147 945.31128 807.93921 4292727001
-4.7669725 923.39587 811.69714 4294305769
-3.1743119 924.66187 811.45667 4294108652
-1.5853211 925.92517 811.21375 4294174447
1.5853211 925.92517 811.21375 4289569982
-1.5853211 927.13715 812.23572 4292859101
0 927.13715 812.23572 4290887125
4.7559633 927.13715 812.23572 4288909994
7.133945 927.13715 812.23572 4287200121
10.304587 927.13715 812.23572 4284637044
13.475229 927.13715 812.23572 4284569455
16.645872 927.13715 812.23572 4285947774
19.023853 927.13715 812.23572 4286015109
25.218349 932.82629 810.49255 4287329924
29.877064 936.53668 811.00488 4293910761
31.376146 939.0365 810.4967 4293449956
36.866974 940.83557 812.01355 4293318879
39.220184 941.43524 812.51917 4293648103
-6.3853211 920.15112 814.19342 4294569454
-6.3853211 921.98175 815.73694 4294239720
-4.7779818 923.2962 814.22925 4294239720
-3.9779816 925.16962 814.50079 4293977578
1.5889908 925.82544 813.74573 4288650420
3.1779816 925.82544 813.74573 4288646565
-1.5889908 927.04022 814.77002 4292266704
0.52966362 927.88153 814.60724 4290489788
3.972477 927.04022 814.77002 4288450231
7.4152904 927.44513 815.11151 4286738792
10.322019 927.97491 814.90405 4286278769
13.498165 927.97491 814.90405 4285752187
16.665136 928.30212 814.526 4285291404
19.816513 928.95508 813.76855 4285753230
22.722937 929.15704 813.9389 4285556359
26.950459 930.77313 815.30139 4294370797
33.022018 938.94104 813.03223 4293253345
34.594494 940.14325 814.0459 4293187804
36.166973 940.14325 814.0459 4293187804
40.884403 940.14325 814.0459 4293187554
43.243118 940.14325 814.0459 4293121760
-8 920.66724 817.24475 4294305769
-7.183486 923.20215 816.76599 4294108645
-6.3853211 924.42255 817.79492 4294043111
-3.1889908 925.68719 817.55322 4294305772
-1.5926605 926.94904 817.3092 4293120727
1.5926605 926.94904 817.3092 4288318352
3.9816513 926.94904 817.3092 4287396253
6.3706422 926.94904 817.3092 4286869861
7.9633026 928.16663 818.33582 4291012522
10.352293 928.16663 818.33582 4290816694
13.521101 928.81824 817.57721 4290356152
16.702751 928.81824 817.57721 4287461333
19.862385 929.46985 816.8186 4285621634
23.040367 929.46985 816.8186 4284702333
25.423853 929.46985 816.8186 4288120462
23.834862 930.68463 817.8429 4284378249
28.050154 931.52301 817.6778 4294174189
30.913761 933.8031 817.85626 4293582051
-8 923.11365 819.3075 4294437342
-4.8000002 923.11365 819.3075 4294306539
-6.4000001 925.56006 821.37024 4294174949
-4.2666669 925.15234 821.02643 4294372073
-1.5963303 926.86334 819.85303 4292924114
0.79816514 926.86334 819.85303 4289436308
3.9908257 926.86334 819.85303 4288315804
6.3853211 926.86334 819.85303 4289630869
0 928.08374 820.88196 4290685576
3.9908257 928.08374 820.88196 4293447631
7.183486 928.08374 820.88196 4294240492
10.376146 928.08374 820.88196 4294437617
13.568808 928.69397 821.39648 4294306027
16.751375 929.0191 821.0166 4294107890
19.931194 929.34424 820.63672 4291805630
22.322935 929.34424 820.63672 4287072172
25.511927 929.34424 820.63672 4289043109
23.889908 930.60181 820.38916 4285489294
27.07523 930.60181 820.38916 4293978099
-7.2339449 921.72479 823.36847 4294174693
-4.0082569 925.80798 823.54126 4294503402
-1.6 926.78326 822.40161 4292529356
1.6 926.78326 822.40161 4291146127
0 928.00653 823.43298 4291606680
4 928.00653 823.43298 4294435255
7.4666667 928.41425 823.77679 4294108651
10.4 928.6181 823.94867 4293516767
13.6 929.22974 824.46436 4293384152
16.799999 929.22974 824.46436 4293516004
19.200001 929.22974 824.46436 4294041314
22.4 929.22974 824.46436 4291741905
24.799999 929.22974 824.46436 4288122258
20.752293 930.5246 822.94006 4294436072
27.93578 930.5246 822.94006 4293911526
33.522934 931.745 823.96912 4293187804
