# .PCD v0.7 - Point Cloud Data file format
VERSION 0.7
FIELDS x y z rgb
SIZE 4 4 4 4
TYPE F F F U
COUNT 1 1 1 1
WIDTH 1160
HEIGHT 1
VIEWPOINT 0 0 0 1 0 0 0
POINTS 1160
DATA ascii
-7.1119266 785.99237 1253.0629 4289634257
-4.7412844 785.99237 1253.0629 4289174456
-2.3706422 785.99237 1253.0629 4288384940
-22.433945 794.14758 1253.3989 4289832400
-18.891743 794.14758 1253.3989 4289371338
-16.530275 793.24487 1252.6378 4289897937
-14.168807 793.24487 1252.6378 4289766353
-10.626606 793.24493 1252.6378 4289568461
-7.0844035 793.24487 1252.6378 4289436619
-4.7229357 794.14758 1253.3989 4289764558
-2.3614678 794.14758 1253.3989 4289369800
-18.818348 800.46234 1252.1832 4290095054
-16.466055 800.46234 1252.1832 4290095054
-14.113762 800.46234 1252.1832 4289766091
-11.761468 800.46234 1252.1832 4289963727
-7.056881 800.46234 1252.1832 4289635525
-4.704587 800.46234 1252.1832 4289372623
-21.170643 802.26068 1253.6996 4290292703
-18.818348 802.26068 1253.6996 4290161092
-16.466055 802.26068 1253.6996 4290161092
-4.704587 802.26068 1253.6996 4289503174
-2.3522935 802.26068 1253.6996 4289305794
-21.088074 808.54034 1252.4543 4289568451
-18.744955 808.54034 1252.4543 4289634505
-4.6862388 808.54034 1252.4543 4289633731
-2.3431194 808.54034 1252.4543 4289633731
-28.117432 810.33167 1253.9647 4289502394
-22.259632 810.33167 1253.9647 4289634244
-2.3431194 810.33167 1253.9647 4289633731
-21.022018 814.25824 1252.0433 4289699005
-18.686239 814.25824 1252.0433 4289437383
-16.350458 814.25824 1252.0433 4289700298
-14.014679 814.25824 1252.0433 4289766334
-11.678899 814.25824 1252.0433 4289897663
-4.6715598 814.25824 1252.0433 4289830853
-2.3357799 814.25824 1252.0433 4289830853
-22.189907 816.04395 1253.5491 4289764545
-18.686239 816.04395 1253.5491 4289437129
-16.350458 816.04395 1253.5491 4289634507
-14.014679 816.04395 1253.5491 4289635005
-10.511009 816.04395 1253.5491 4289240508
-7.0073395 816.04395 1253.5491 4289503428
-4.6715598 816.04395 1253.5491 4289700037
-2.3357799 816.04395 1253.5491 4289897159
-23.266054 824.04199 1253.7527 4289568449
-19.776146 824.04199 1253.7527 4289568711
-16.286238 823.15265 1253.0027 4289240010
-13.959633 823.15265 1253.0027 4289502148
-10.469725 823.15259 1253.0028 4289305283
-6.9798164 823.15265 1253.0027 4289503177
-4.6532111 823.15265 1253.0027 4289634509
-2.3266056 823.15265 1253.0027 4289502667
-18.53945 830.22632 1252.427 4289371086
-16.222019 830.22632 1252.427 4289305292
-13.904587 830.22632 1252.427 4289239749
-9.2697248 830.22632 1252.427 4289174208
-2.3174312 830.22632 1252.427 4289173706
-19.698166 831.99805 1253.9208 4289304515
-16.222019 831.99805 1253.9208 4289435845
-13.904587 831.99805 1253.9208 4289108931
-2.3174312 831.99805 1253.9208 4289041091
0 831.99805 1253.9208 4289171644
-16.170643 835.86005 1251.9451 4289305794
-10.395412 835.86005 1251.9451 4289108674
-6.9302754 835.86005 1251.9451 4289305542
-4.6201835 835.86005 1251.9451 4289567686
-2.3100917 835.86005 1251.9451 4289501892
-18.480734 837.6261 1253.4341 4288582324
-16.170643 837.6261 1253.4341 4289239997
-13.860551 837.6261 1253.4341 4289240770
-10.395412 837.6261 1253.4341 4289042878
-2.3100917 837.6261 1253.4341 4289172155
0 837.6261 1253.4341 4289696705
-18.407339 845.50916 1253.5408 4288846009
-16.106422 844.62964 1252.7991 4289043128
-13.805505 844.62964 1252.7991 4288845756
-10.354129 844.62964 1252.7991 4289042877
-6.9027524 843.75006 1252.0575 4289042877
-4.6018348 844.62964 1252.7991 4289304506
-2.3009174 844.62964 1252.7991 4289896642
-16.042202 851.59808 1252.1346 4288648632
-13.750459 851.59808 1252.1346 4288845491
-10.312843 851.59808 1252.1346 4288911290
-6.8752294 851.59808 1252.1346 4288844989
-4.5834861 851.59808 1252.1346 4289041593
-18.333944 853.35016 1253.6119 4288779450
-16.042202 853.35016 1253.6119 4288779450
-10.312843 853.35016 1253.6119 4288779707
-6.8752294 853.35016 1253.6119 4288648380
-4.5834861 853.35016 1253.6119 4288845243
-15.990826 857.14764 1251.5817 4288909755
-13.706422 857.14764 1251.5817 4288713405
-10.279816 857.14764 1251.5817 4288648125
-15.990826 858.8941 1253.0543 4288975285
-13.706422 858.8941 1253.0543 4288909755
-10.279816 858.8941 1253.0543 4288778427
-6.8532109 858.8941 1253.0543 4288976578
-4.5688071 858.8941 1253.0543 4288714425
-10.238532 866.66211 1253.064 4288516280
-10.205505 872.15271 1252.4614 4288647861
-6.8036699 872.15271 1252.4614 4288582326
-13.60734 873.88654 1253.9233 4288516279
-10.205505 873.88654 1253.9233 4288516535
-6.8036699 873.88654 1253.9233 4288582585
-4.53578 873.88654 1253.9233 4288713655
-10.172478 877.62085 1251.8398 4288449978
-10.172478 879.34906 1253.297 4288580786
-6.7816515 879.34906 1253.297 4288711858
-13.508257 887.00629 1253.2133 4288055982
-10.131193 887.00629 1253.2133 4288383916
-11.220183 894.1311 1253.9886 4288055728
-8.9761467 894.1311 1253.9886 4288055730
-11.174312 901.70837 1253.8374 4287923358
-8.9394493 901.70837 1253.8374 4287990437
-33.677063 760.87146 1256.7341 4290819034
-31.271559 760.87146 1256.7341 4290819034
-28.866055 760.87146 1256.7341 4290490836
-25.658716 759.64551 1255.7004 4290293207
-21.649542 759.03247 1255.1836 4290292188
2.4055047 759.95197 1255.9589 4289567422
-34.347401 766.72003 1255.1254 4290884823
-31.152294 766.41473 1254.8679 4290226894
-28.755962 766.41473 1254.8679 4290226641
-26.359632 766.41473 1254.8679 4290292691
-22.765137 766.41473 1254.8679 4290422993
-19.170643 765.49872 1254.0956 4290619606
0 766.41473 1254.8679 4289896896
-34.613762 773.76196 1254.5228 4290950365
-7.161468 773.76196 1254.5228 4282068839
-4.774312 773.76196 1254.5228 4282203228
-2.387156 773.76196 1254.5228 4287072167
0 773.76196 1254.5228 4288844503
-38.194496 775.58698 1256.0615 4291214043
-35.807339 775.58698 1256.0615 4290885079
-2.387156 775.58698 1256.0615 4283782476
0 775.58698 1256.0615 4284833147
-33.317432 779.61444 1254.2253 4289963725
-30.937614 779.61444 1254.2253 4289897932
-28.557798 779.61444 1254.2253 4289964753
-7.1394496 779.61444 1254.2253 4288385474
-4.7596331 779.61444 1254.2253 4285689269
-2.3798165 779.61444 1254.2253 4281544310
-33.317432 781.43384 1255.7594 4290095560
-30.937614 781.43384 1255.7594 4289963975
-28.557798 781.43384 1255.7594 4289438925
-7.1394496 781.43384 1255.7594 4289371088
-4.7596331 781.43384 1255.7594 4288845241
-2.3798165 781.43384 1255.7594 4287134880
-30.818348 787.80475 1254.5909 4289896650
-28.447706 787.80475 1254.5909 4289700298
-26.077065 787.80475 1254.5909 4289766091
-22.521101 787.80475 1254.5909 4289832393
-18.965137 787.80475 1254.5909 4289833424
-16.594496 787.80475 1254.5909 4289833424
-14.223853 787.80475 1254.5909 4289569493
-7.1119266 787.80475 1254.5909 4289174476
-4.7412844 787.80475 1254.5909 4289632447
-2.3706422 787.80475 1254.5909 4288974261
-30.818348 789.61713 1256.1191 4289765843
-28.447706 789.61713 1256.1191 4289635277
-26.077065 789.61713 1256.1191 4289569484
-22.521101 789.61713 1256.1191 4289832141
-18.965137 789.61713 1256.1191 4289832400
-4.7412844 789.61713 1256.1191 4289435845
-2.3706422 789.61713 1256.1191 4289304259
0 789.61713 1256.1191 4289172928
-25.976147 797.7583 1256.4435 4289634505
-22.433945 796.85559 1255.6824 4289766358
-18.891743 795.95294 1254.9213 4289831635
-16.530275 795.95294 1254.9213 4289765841
-4.7229357 795.95294 1254.9213 4289634773
-2.3614678 796.85559 1255.6824 4289174733
0 797.7583 1256.4435 4289371586
-28.227524 805.85742 1256.7322 4289371590
-25.875229 805.85742 1256.7322 4289700298
-22.738838 804.65851 1255.7213 4289437125
-2.3522935 804.05908 1255.2159 4289633731
0 805.85742 1256.7322 4289764547
-28.117432 812.12305 1255.4751 4289567669
-23.431192 812.12305 1255.4751 4289699005
0 812.12305 1255.4751 4290027718
-30.46055 813.91437 1256.9856 4289502404
-28.117432 813.91437 1256.9856 4289764537
-25.774311 813.91437 1256.9856 4289961660
0 813.91437 1256.9856 4290028486
-28.029358 817.82971 1255.0547 4289698752
-22.189907 817.82971 1255.0547 4289502404
-18.686239 817.82971 1255.0547 4289240533
-16.350458 817.82971 1255.0547 4289372119
-14.014679 817.82971 1255.0547 4289634492
-4.6715598 817.82971 1255.0547 4289634505
-2.3357799 817.82971 1255.0547 4289766091
-28.029358 819.61542 1256.5604 4289371837
-25.693579 819.61542 1256.5604 4289503680
-22.189907 819.61542 1256.5604 4289371588
-18.686239 819.61542 1256.5604 4289042634
0 819.61542 1256.5604 4289568439
-27.919266 827.59943 1256.7522 4289042627
-25.592661 827.59943 1256.7522 4289305542
-23.266054 826.71008 1256.0023 4289436099
-20.163914 826.41357 1255.7523 4289501894
-16.286238 825.82068 1255.2524 4289567434
-13.959633 825.82068 1255.2524 4289435845
0 826.71008 1256.0023 4289829052
-23.174313 833.76971 1255.4147 4289042623
-19.698166 833.76971 1255.4147 4288976830
-13.904587 833.76971 1255.4147 4289108929
1.1587156 833.76971 1255.4147 4291342559
-30.126606 835.54144 1256.9084 4289371590
-27.809174 835.54144 1256.9084 4289108931
-25.491743 835.54144 1256.9084 4289108931
-23.174313 835.54144 1256.9084 4289239749
-20.85688 835.54144 1256.9084 4289042627
2.3174312 835.54144 1256.9084 4292657390
-19.63578 839.39221 1254.9232 4288977595
-16.170643 839.39221 1254.9232 4288911790
0 839.39221 1254.9232 4289305794
-23.100918 841.15833 1256.4124 4289109446
-19.63578 841.15833 1256.4124 4289108925
0 841.15833 1256.4124 4288519876
-18.407339 847.26819 1255.0239 4288714937
-16.106422 847.26819 1255.0239 4288649143
-4.6018348 847.26819 1255.0239 4289172407
-2.3009174 847.26819 1255.0239 4289764801
-23.009174 849.02728 1256.5071 4288779198
-19.557798 849.02728 1256.5071 4289108417
-2.3009174 849.02728 1256.5071 4289633731
-18.333944 855.97821 1255.8279 4288909752
-6.8752294 855.10217 1255.0892 4288714175
-4.5834861 855.10217 1255.0892 4288779450
-2.291743 855.97821 1255.8279 4289174464
-15.990826 860.6405 1254.5269 4288843949
-13.706422 860.6405 1254.5269 4288843706
-10.279816 860.6405 1254.5269 4288778426
-6.8532109 860.6405 1254.5269 4289239747
-4.5688071 860.6405 1254.5269 4289173682
-18.275229 862.38696 1255.9994 4288515499
-15.990826 862.38696 1255.9994 4288844208
-13.706422 862.38696 1255.9994 4288713403
-10.279816 862.38696 1255.9994 4288713402
-6.8532109 862.38696 1255.9994 4288713657
-4.5688071 862.38696 1255.9994 4288712627
-13.651376 868.40149 1254.5306 4288451771
-10.238532 868.40149 1254.5306 4288451513
-6.8256879 868.40149 1254.5306 4288516792
-4.5504589 868.40149 1254.5306 4288581040
-15.926605 870.14093 1255.9973 4288517035
-13.651376 870.14093 1255.9973 4288582324
-4.5504589 870.14093 1255.9973 4288712879
-15.875229 875.62036 1255.3853 4288384438
-13.60734 875.62036 1255.3853 4288515258
-6.8036699 875.62036 1255.3853 4288713405
-4.53578 875.62036 1255.3853 4288713657
-22.6789 877.35419 1256.8472 4288384692
-19.277065 877.35419 1256.8472 4287989934
-15.875229 877.35419 1256.8472 4288318897
-13.60734 877.35419 1256.8472 4288515506
-4.53578 877.35419 1256.8472 4288318645
-13.563303 881.07727 1254.7542 4288121521
-10.172478 881.07727 1254.7542 4288515249
-6.7816515 881.07727 1254.7542 4288514734
-22.605505 882.80548 1256.2114 4288187829
-19.21468 882.80548 1256.2114 4288187567
-15.823853 882.80548 1256.2114 4288122025
-13.563303 882.80548 1256.2114 4287529636
-10.172478 882.80548 1256.2114 4288384429
-6.7816515 882.80548 1256.2114 4288449450
-22.513762 890.44867 1256.1157 4287990450
-19.136696 890.44867 1256.1157 4287793065
-15.759633 890.44867 1256.1157 4288056232
-13.508257 889.58807 1255.3901 4288187311
-10.131193 889.58807 1255.3901 4288121520
-6.7541285 889.58807 1255.3901 4288121009
-11.220183 895.84668 1255.4352 4288055730
-8.9761467 895.84668 1255.4352 4287989935
-15.708257 897.56226 1256.8817 4287858348
-13.46422 897.56226 1256.8817 4287924389
-11.220183 897.56226 1256.8817 4288056232
-7.8541284 897.56226 1256.8817 4287990702
-4.4880733 897.56226 1256.8817 4287990439
-16.761467 905.12549 1256.7186 4287727278
-13.409174 904.27124 1255.9983 4287858596
-11.174312 904.27124 1255.9983 4287793059
-7.8220181 904.27124 1255.9983 4287858346
-4.4697247 904.27124 1255.9983 4287990186
-8.9100914 910.4646 1255.9883 4287792553
-15.425688 928.50403 1254.1943 4287398049
-13.222018 928.50403 1254.1943 4287528604
-11.018349 928.50403 1254.1943 4287528604
-7.7128439 928.50403 1254.1943 4287593380
-16.527523 930.18878 1255.6147 4287200419
-13.222018 930.18878 1255.6147 4287528602
-11.018349 930.18878 1255.6147 4287462809
-7.7128439 930.18878 1255.6147 4287527587
-31.390825 754.38422 1257.8043 4290753754
-28.976147 754.38422 1257.8043 4290424539
-26.561468 754.38422 1257.8043 4290819297
-41.049541 756.23022 1259.361 4291870690
-37.427521 756.23022 1259.361 4291805145
-33.805504 756.23022 1259.361 4290753754
-31.390825 756.23022 1259.361 4290622424
-28.976147 756.23022 1259.361 4290228441
-45.704586 764.54956 1259.8354 4291738841
-43.299084 763.63 1259.0601 4291673819
-40.893578 763.63 1259.0601 4291871198
-37.686237 763.32349 1258.8016 4291344852
-43.133945 770.99475 1258.7297 4291608790
-40.737614 770.07874 1257.9574 4291279570
-38.341286 770.07874 1257.9574 4291082202
-35.944954 769.16278 1257.1851 4291148250
0 769.16278 1257.1851 4289371851
-38.194496 778.32446 1258.3698 4291410906
-35.807339 778.32446 1258.3698 4290884562
0 778.32446 1258.3698 4285294190
-34.507339 784.1629 1258.0605 4290489297
-30.937614 783.25323 1257.2935 4290160586
0 784.16296 1258.0605 4288646580
-28.447706 791.42944 1257.6473 4289832141
-26.077065 791.42944 1257.6473 4289897934
0 791.42944 1257.6473 4289106362
-30.818348 793.24188 1259.1754 4289831887
-28.447706 793.24188 1259.1754 4289897932
-26.077065 793.24188 1259.1754 4290292690
0 793.24188 1259.1754 4289305794
-30.699083 799.56366 1257.9657 4289701054
-28.337614 799.56366 1257.9657 4289503439
-25.976147 799.56366 1257.9657 4289437646
-23.614679 799.56366 1257.9657 4289568980
0 799.56366 1257.9657 4289436608
-30.699083 801.36902 1259.4879 4289503680
-28.337614 801.36902 1259.4879 4288845505
-25.976147 801.36902 1259.4879 4289108933
0 801.36902 1259.4879 4289567165
-31.363914 808.85468 1259.2594 4289502403
-25.875229 808.55493 1259.0067 4289699514
0 807.65576 1258.2485 4290027205
-31.632111 815.70569 1258.496 4289371586
-25.774311 815.70569 1258.496 4289830594
0 815.70569 1258.496 4289896898
-31.533028 821.40112 1258.066 4288977343
-28.029358 821.40112 1258.066 4289370556
-25.693579 821.40112 1258.066 4289633729
0 821.40112 1258.066 4289633201
-35.036697 823.18689 1259.5718 4289503687
-31.533028 823.18689 1259.5718 4289173954
-28.029358 823.18689 1259.5718 4289304509
-25.693579 823.18689 1259.5718 4289502144
-30.245872 829.37817 1258.252 4288648382
-27.919266 829.37817 1258.252 4289107133
-25.592661 829.37817 1258.252 4289173182
-23.266054 829.37817 1258.252 4289107135
2.3266056 829.37817 1258.252 4293118968
-31.409174 831.15686 1259.7517 4289108163
-27.919266 831.15686 1259.7517 4289174208
-25.592661 831.15686 1259.7517 4289174208
4.6532111 831.15686 1259.7517 4293647851
-30.899084 838.49432 1259.3983 4289107133
-27.809174 838.19897 1259.1493 4288845505
-25.491743 838.19897 1259.1493 4289043140
-23.174313 837.31311 1258.4023 4289174986
2.3174312 837.31311 1258.4023 4289634503
-30.031193 842.92438 1257.9015 4289173180
-27.721102 842.92438 1257.9015 4288844991
-23.100918 842.92438 1257.9015 4288648128
-20.790825 842.92438 1257.9015 4288582335
0 842.92438 1257.9015 4288978374
-31.186239 844.69049 1259.3906 4289107133
-27.721102 844.69049 1259.3906 4288844991
-25.411009 844.69049 1259.3906 4288779198
-23.100918 844.69049 1259.3906 4288516027
-20.790825 844.69049 1259.3906 4288910785
0 844.69049 1259.3906 4289437381
-23.009174 850.78638 1257.9904 4288975548
-20.708258 850.78638 1257.9904 4288975548
-2.3009174 850.78638 1257.9904 4289371588
-27.61101 852.54541 1259.4735 4288713405
-25.310091 852.54541 1259.4735 4288844991
-23.009174 852.54541 1259.4735 4288975548
-20.708258 852.54541 1259.4735 4288975548
-27.500917 860.3584 1259.5211 4288645561
-25.209175 860.3584 1259.5211 4288843197
-22.917431 860.3584 1259.5211 4288712627
-19.861773 859.19037 1258.5363 4288712368
-2.291743 859.48236 1258.7825 4289370809
-18.275229 865.87988 1258.9445 4288516781
-15.990826 865.00665 1258.2083 4288582322
-13.706422 864.13342 1257.4719 4288582076
-6.8532109 864.13342 1257.4719 4288582326
-4.5688071 864.13342 1257.4719 4288646582
-2.2844036 865.87988 1258.9445 4289107385
-18.201836 871.88037 1257.4639 4288581292
-15.926605 871.88037 1257.4639 4288647086
-2.2752295 871.88037 1257.4639 4288779448
-22.752293 873.61981 1258.9305 4288515510
-19.339451 873.61981 1258.9305 4288318645
-2.2752295 873.61981 1258.9305 4288516279
0 873.61981 1258.9305 4288909994
-34.018349 880.82184 1259.771 4288383911
-31.750458 879.95496 1259.04 4287793063
-27.970642 880.2439 1259.2837 4288384431
-24.946789 879.95496 1259.04 4288449970
-22.6789 879.08801 1258.309 4288384690
-19.277065 879.08801 1258.309 4288056234
-15.875229 879.08801 1258.309 4288122023
-4.53578 879.95496 1259.04 4288383927
-2.26789 879.95496 1259.04 4288449720
0 880.82184 1259.771 4288253356
-24.866055 884.53369 1257.6686 4288318386
-22.605505 884.53369 1257.6686 4288252852
-19.21468 884.53369 1257.6686 4288253104
-15.823853 884.53369 1257.6686 4288055978
-6.7816515 884.53369 1257.6686 4288514984
-4.521101 884.53369 1257.6686 4288252852
-2.2605505 884.53369 1257.6686 4288121523
-33.908257 886.2619 1259.1257 4288448687
-31.647707 886.2619 1259.1257 4288514732
-28.256882 886.2619 1259.1257 4288449455
-24.866055 886.2619 1259.1257 4288318386
-22.605505 886.2619 1259.1257 4288252593
-19.21468 886.2619 1259.1257 4288187309
-15.823853 886.2619 1259.1257 4288056232
-4.521101 886.2619 1259.1257 4288514484
-2.2605505 886.2619 1259.1257 4288382642
0 886.2619 1259.1257 4288579507
-27.016514 893.89111 1259.0183 4288056232
-24.765137 893.03052 1258.2927 4288121772
-22.513762 893.03052 1258.2927 4288057005
-19.136696 893.03052 1258.2927 4287925165
-15.759633 893.03052 1258.2927 4287727532
-13.508257 893.03052 1258.2927 4287923886
-6.7541285 893.03052 1258.2927 4287989936
-4.5027523 893.03052 1258.2927 4287989937
-2.2513762 893.89111 1259.0183 4288055730
-24.684404 899.27783 1258.3282 4288056232
-22.440367 899.27783 1258.3282 4287924653
-20.196331 899.27783 1258.3282 4287793323
-16.830275 899.27783 1258.3282 4287792553
-13.46422 899.27783 1258.3282 4287923358
-6.73211 899.27783 1258.3282 4288122023
-4.4880733 899.27783 1258.3282 4288187038
-25.806423 900.99341 1259.7748 4288317350
-22.440367 900.99341 1259.7748 4287990448
-20.196331 900.99341 1259.7748 4287924655
-16.830275 900.99341 1259.7748 4287793325
-2.2440367 900.99341 1259.7748 4287793057
-22.348623 908.54266 1259.5999 4287529132
-20.113762 907.68835 1258.8796 4287595436
-16.761467 907.68842 1258.8796 4287857846
-13.409174 907.68835 1258.8796 4287792302
-11.174312 907.68835 1258.8796 4287726766
-7.4495411 907.40363 1258.6395 4288054698
-4.4697247 907.68835 1258.8796 4287858347
-2.2348623 908.54266 1259.5999 4287924141
-11.137614 913.87048 1258.8601 4287464102
-7.7963305 913.01904 1258.1421 4287529886
-4.4550457 913.87048 1258.8601 4287463592
-16.651375 920.87335 1259.5325 4287856548
-13.321101 920.87335 1259.5325 4287856034
-11.100918 920.87335 1259.5325 4287790241
-7.7706423 920.87335 1259.5325 4287658655
-19.915596 925.30481 1258.037 4287332007
-16.965139 925.02289 1257.7992 4287332003
-13.277064 924.45892 1257.3237 4287594145
-11.06422 924.45892 1257.3237 4287528352
-8.8513765 924.45892 1257.3237 4287593382
-16.527523 931.87354 1257.0353 4287265432
-13.222018 931.87354 1257.0353 4287462555
-11.018349 931.87354 1257.0353 4287462555
-7.7128439 931.87354 1257.0353 4287396762
-15.425688 933.55823 1258.4558 4287396762
-13.222018 934.40057 1259.166 4287396246
-11.018349 934.40057 1259.166 4287264917
-7.7128444 934.40051 1259.166 4287264406
-45.878899 758.07629 1260.9175 4292332247
-43.464222 758.07629 1260.9175 4291674079
-41.049541 758.07629 1260.9175 4291542493
-37.427521 758.07629 1260.9175 4291673813
-48.293579 759.92236 1262.474 4292199644
-45.878899 759.92236 1262.474 4292002008
2.4146788 759.92236 1262.474 4289633983
-48.110092 766.38855 1261.3861 4292002010
-45.704586 766.38855 1261.3861 4291936217
-43.299084 766.38855 1261.3861 4291739352
-49.312843 768.2276 1262.9366 4291805919
-45.704586 768.2276 1262.9366 4291674331
2.4055047 768.2276 1262.9366 4289634276
-45.530273 772.82678 1260.2744 4291674331
-43.133945 772.82678 1260.2744 4291674581
-40.737614 772.82678 1260.2744 4291542995
-45.530273 774.65881 1261.8191 4291608538
-43.133945 774.65881 1261.8191 4291608786
-40.737614 774.65881 1261.8191 4291608786
-40.58165 781.97449 1261.4474 4291148253
-38.194496 781.97449 1261.4474 4290884311
-34.507339 787.80176 1261.1285 4290226385
-30.937614 788.71143 1261.8956 4290028239
-34.374313 795.96045 1261.4677 4289963975
-30.818348 795.0542 1260.7036 4289700550
-28.447706 795.0542 1260.7036 4289634505
-33.060551 803.17438 1261.0101 4289897663
-30.699083 803.17438 1261.0101 4289568699
-34.241287 804.97974 1262.5323 4289634499
2.3614678 804.97974 1262.5323 4290224585
-32.93211 811.25244 1261.2811 4289502404
-35.284405 813.05078 1262.7975 4289701071
2.3522935 813.05078 1262.7975 4289962691
-31.632111 817.49701 1260.0063 4289043136
-39.833027 819.28833 1261.5167 4290687686
-37.48991 819.28833 1261.5167 4289898197
-35.14679 819.28833 1261.5167 4289437646
2.3431194 819.28833 1261.5167 4291343563
-39.708256 824.9726 1261.0774 4290621891
-37.372478 824.9726 1261.0774 4289898182
-35.036697 824.9726 1261.0774 4289503680
-31.533028 824.9726 1261.0774 4289173956
2.3357799 824.9726 1261.0774 4293512951
-42.044037 826.7583 1262.583 4290225598
-39.708256 826.7583 1262.583 4290291647
-37.372478 826.7583 1262.583 4290095045
-35.036697 826.7583 1262.583 4289634494
-32.700916 826.7583 1262.583 4288582589
-37.225689 832.93555 1261.2515 4289700035
-34.899082 832.93555 1261.2515 4289502656
-32.572475 832.93555 1261.2515 4289173954
4.6532111 832.93555 1261.2515 4292201450
-40.715595 834.71423 1262.7512 4290357703
-37.225689 834.71423 1262.7512 4289700039
-34.899082 834.71423 1262.7512 4289305281
-32.572475 834.71423 1262.7512 4289042373
4.6532111 834.71423 1262.7512 4288385487
-44.031193 842.62817 1262.8839 4290291145
-40.555046 842.62817 1262.8839 4290028740
-37.078899 841.74231 1262.137 4289437121
-34.761467 841.74231 1262.137 4288910778
-32.444038 840.85651 1261.39 4288975544
-25.491743 840.85651 1261.39 4288910785
-43.891743 848.22266 1262.3688 4290421961
-40.426605 847.3396 1261.6243 4290159806
-36.961468 847.3396 1261.6243 4289107650
-34.651375 847.3396 1261.6243 4288712892
-31.186237 847.3396 1261.6243 4288844473
-27.721102 847.3396 1261.6243 4288844992
-25.411009 847.3396 1261.6243 4288779199
0 847.3396 1261.6243 4289108161
-43.71743 854.3045 1260.9568 4289962943
-40.266056 854.3045 1260.9568 4289632697
-36.814678 854.3045 1260.9568 4289566654
-34.51376 854.3045 1260.9568 4289040310
-32.212845 854.3045 1260.9568 4288777650
-28.761467 854.3045 1260.9568 4288778426
-25.310091 854.3045 1260.9568 4288778946
-23.009174 854.3045 1260.9568 4288975546
-20.708258 854.3045 1260.9568 4288975546
0 854.3045 1260.9568 4288977345
-46.018349 856.0636 1262.4399 4290094784
-43.71743 856.0636 1262.4399 4290028990
-40.266056 856.0636 1262.4399 4289502397
-36.814678 856.0636 1262.4399 4289501111
-34.51376 856.0636 1262.4399 4288974767
-32.212845 856.0636 1262.4399 4288777150
-28.761467 856.0636 1262.4399 4288711874
-25.310091 856.0636 1262.4399 4288778183
-23.009174 856.0636 1262.4399 4288843958
0 856.0636 1262.4399 4288977343
-38.959633 863.86249 1262.4757 4289634746
-28.264832 863.2785 1261.9833 4288516023
-25.209175 862.98645 1261.7371 4288450486
-22.917431 862.98645 1261.7371 4288385462
-19.861773 862.6944 1261.4908 4288385205
-2.291743 862.11041 1260.9984 4289041339
0 862.98645 1261.7371 4288385201
-22.844036 869.3728 1261.8896 4288515506
-19.798164 868.2085 1260.9078 4288384941
-2.2844036 867.62634 1260.4171 4288976050
0 868.49957 1261.1533 4288516528
-31.85321 875.35925 1260.3972 4288449443
-28.440367 875.35925 1260.3972 4288515498
-25.027523 875.35925 1260.3972 4288384944
-2.2752295 875.35925 1260.3972 4288450488
0 875.35925 1260.3972 4288910507
-36.403671 877.09869 1261.8638 4289172909
-34.128441 877.09869 1261.8638 4288383650
-29.577982 877.09869 1261.8638 4288977084
0 877.09869 1261.8638 4288713133
-36.28624 883.42261 1261.9639 4288646837
-34.018349 882.55566 1261.2328 4288121521
-31.750458 882.55566 1261.2328 4287990434
-28.348625 882.55566 1261.2328 4288253100
0 882.55566 1261.2328 4288252852
-33.908257 887.99011 1260.5829 4288252076
-31.647707 887.99011 1260.5829 4288448691
-28.256882 887.99011 1260.5829 4288383412
-24.866055 887.99011 1260.5829 4288120499
-4.521101 887.99011 1260.5829 4288252341
-2.2605505 887.99011 1260.5829 4288186548
-33.908257 889.71832 1262.0402 4288120489
-31.647707 889.71832 1262.0402 4287988140
-28.256882 889.71832 1262.0402 4288120494
-2.2605505 889.71832 1262.0402 4287989937
0 889.71832 1262.0402 4287990450
-31.519266 895.6123 1260.4696 4288185262
-28.1422 895.6123 1260.4696 4287989162
-24.765137 895.6123 1260.4696 4288055978
-22.513762 895.6123 1260.4696 4288055982
-19.136696 895.6123 1260.4696 4287792555
-2.2513762 895.6123 1260.4696 4287661474
-33.770641 897.3335 1261.9208 4288054946
-31.519266 897.3335 1261.9208 4288053933
-28.1422 897.3335 1261.9208 4287923368
-2.2513762 897.3335 1261.9208 4287923610
-29.172478 902.70898 1261.2213 4287858094
-25.806423 902.70898 1261.2213 4287924139
-22.440367 902.70898 1261.2213 4287924141
-20.196331 902.70898 1261.2213 4287792555
-2.2440367 902.70898 1261.2213 4287660970
-31.416513 904.42462 1262.6678 4287661476
-29.172478 904.42462 1262.6678 4287858598
-25.806423 904.42462 1262.6678 4287858598
-22.440367 904.42462 1262.6678 4287529899
-2.2440367 904.42462 1262.6678 4287792553
-25.32844 911.39032 1262.0009 4287793062
-22.348623 911.10553 1261.7607 4287463594
-20.113762 911.10553 1261.7607 4287529387
-16.761467 911.10553 1261.7607 4287726765
-13.409174 911.10553 1261.7607 4287464103
-11.174312 910.25122 1261.0405 4287464104
-4.4697247 910.25122 1261.0405 4287463590
-2.2348623 911.10553 1261.7607 4287463591
0 911.95984 1262.4811 4288381601
-22.275229 917.27643 1261.7318 4287463850
-20.047707 917.27643 1261.7318 4287463850
-16.706421 916.42493 1261.0139 4287660195
-13.365138 916.42493 1261.0139 4287660196
-11.137614 916.42493 1261.0139 4287660196
-7.7963305 916.42493 1261.0139 4287660195
-4.4550457 916.42493 1261.0139 4287659940
-24.422018 922.57068 1260.9636 4287266729
-22.201836 922.57068 1260.9636 4287200934
-6.6605506 922.57068 1260.9636 4287593382
-4.4403667 922.57068 1260.9636 4287724200
-25.53211 924.26807 1262.3948 4287463590
-22.201836 924.26807 1262.3948 4287463592
-4.4403667 924.26807 1262.3948 4287856034
-24.341284 927.84241 1260.1766 4287332254
-22.128441 928.68829 1260.8899 4287266472
-19.915596 928.68829 1260.8899 4287200423
-4.4256883 928.68829 1260.8899 4287527321
-13.222018 937.77002 1262.0071 4286869907
-11.018349 937.77002 1262.0071 4287067286
-8.0801229 937.48926 1261.7704 4287067285
-49.688992 754.35449 1264.3196 4292332765
4.8477063 754.35449 1264.3196 4289699003
-48.293579 761.76837 1264.0305 4292001756
2.4146788 761.76837 1264.0305 4289568185
-50.708256 763.61444 1265.587 4291936997
2.4146788 763.61444 1265.587 4289371851
-49.312843 770.06665 1264.4873 4291805921
2.4055047 770.06665 1264.4873 4289109948
-45.530273 776.49084 1263.3638 4291542745
-43.133945 776.49084 1263.3638 4291411157
-40.737614 776.49084 1263.3638 4291476950
-46.728439 778.32281 1264.9086 4291542493
-43.133945 778.32281 1264.9086 4291279835
2.3963304 778.32281 1264.9086 4289503174
-42.968807 784.71198 1263.7555 4291280618
-40.58165 784.71198 1263.7555 4291083239
-38.194496 784.71198 1263.7555 4290686932
2.387156 784.71198 1263.7555 4290028237
-40.58165 786.53699 1265.2943 4291083225
-38.194496 786.53699 1265.2943 4290687699
2.387156 786.53699 1265.2943 4290225100
4.774312 786.53699 1265.2943 4290357186
-34.507339 790.53076 1263.4297 4289963720
-40.456882 792.35016 1264.9637 4291213262
-38.077065 792.35016 1264.9637 4290490834
2.3798165 792.35016 1264.9637 4289963979
-61.636696 800.49133 1265.2881 4291936213
-59.266056 800.49133 1265.2881 4291673298
-40.300919 800.49133 1265.2881 4291016399
-37.930275 800.49133 1265.2881 4290226896
-34.769421 799.28302 1264.2693 4289963978
2.3706422 799.58514 1264.5239 4290159304
-40.144955 806.7851 1264.0547 4290884295
-37.783485 806.7851 1264.0547 4290423244
-35.42202 806.7851 1264.0547 4289962693
2.3614678 806.7851 1264.0547 4290093511
-61.398167 808.59045 1265.5769 4291214032
-43.687157 808.59045 1265.5769 4290949580
-40.144955 808.59045 1265.5769 4290687434
-37.783485 808.59045 1265.5769 4290292690
-35.42202 808.59045 1265.5769 4289832139
2.3614678 808.59045 1265.5769 4290028486
-39.988991 814.84912 1264.3138 4290949320
-37.636696 814.84912 1264.3138 4289898197
-35.284405 814.84912 1264.3138 4289437646
2.3522935 814.84912 1264.3138 4289963197
-47.045872 816.64746 1265.8301 4290882764
-43.517433 816.64746 1265.8301 4290752200
-43.347706 821.07971 1263.0272 4290686662
-39.833027 821.07971 1263.0272 4290556611
-37.48991 821.07971 1263.0272 4289832652
2.3431194 821.07971 1263.0272 4293447919
-46.862385 822.87103 1264.5376 4290816967
-43.347706 822.87103 1264.5376 4290686404
-58.394497 830.32977 1265.5945 4291148237
-42.822632 829.73456 1265.0925 4290094271
-39.708256 829.43689 1264.8416 4290225858
-37.372478 828.54401 1264.0887 4290028990
-35.036697 828.54401 1264.0887 4289765562
-44.205505 836.49298 1264.251 4290291654
-40.715595 836.49298 1264.251 4290095047
-37.225689 836.49298 1264.251 4289503174
-34.899082 836.49298 1264.251 4288911037
2.3266056 836.49298 1264.251 4284440710
4.6532111 836.49298 1264.251 4282793319
-58.165138 838.27167 1265.7507 4291145938
-44.205505 838.27167 1265.7507 4290291658
-40.715595 838.27167 1265.7507 4290028486
2.3266056 838.27167 1265.7507 4284570243
4.6532111 838.27167 1265.7507 4282333270
-57.93578 844.3999 1264.3777 4291080658
-55.618347 844.3999 1264.3777 4290817989
-48.666054 844.3999 1264.3777 4290159556
-46.348625 844.3999 1264.3777 4290224585
-44.031193 844.3999 1264.3777 4290355914
-57.93578 846.17163 1265.8716 4290555594
-55.618347 846.17163 1265.8716 4290488771
-53.300919 846.17163 1265.8716 4290620357
-49.824768 846.17163 1265.8716 4290422213
-46.348625 846.17163 1265.8716 4290487754
-57.752293 851.75482 1265.347 4290292426
-53.132111 850.87177 1264.6025 4290751688
-49.281952 851.16608 1264.8507 4290357444
-46.201836 850.87177 1264.6025 4290159811
-43.891743 849.98871 1263.8579 4290159556
-40.426605 849.98871 1263.8579 4290225600
-36.961468 849.98871 1263.8579 4289369791
-34.651375 849.98871 1263.8579 4288711604
-31.186239 849.98871 1263.8579 4288712363
0 849.98871 1263.8579 4288780482
-48.319267 857.82263 1263.9231 4290291906
-46.018349 857.82263 1263.9231 4290161088
-43.71743 857.82263 1263.9231 4290095295
-40.266056 857.82263 1263.9231 4289766332
-36.814678 857.82263 1263.9231 4289436599
-34.51376 857.82263 1263.9231 4289041841
-32.212845 857.82263 1263.9231 4288843708
-29.911926 857.82263 1263.9231 4288712379
0 857.82263 1263.9231 4288845243
-48.319267 859.58173 1265.4064 4290292930
-46.018349 859.58173 1265.4064 4289832892
-43.71743 859.58173 1265.4064 4289832892
-40.266056 859.58173 1265.4064 4289700789
-36.814678 859.58173 1265.4064 4289569201
-34.51376 859.58173 1265.4064 4289042856
-32.212845 859.58173 1265.4064 4288581050
-29.911926 859.58173 1265.4064 4288581050
-41.251377 865.61456 1263.9529 4289568185
-38.959633 865.61456 1263.9529 4289765564
-27.500917 865.61456 1263.9529 4288450738
-22.917431 865.61456 1263.9529 4288451503
-45.834862 867.36658 1265.4302 4289963197
-43.543118 867.36658 1265.4302 4289963197
-41.251377 867.36658 1265.4302 4289567415
-37.813759 867.36658 1265.4302 4289567921
-34.376148 867.36658 1265.4302 4288515484
-32.084404 867.36658 1265.4302 4288645539
-28.64679 867.36658 1265.4302 4288712106
-25.209175 867.36658 1265.4302 4288581038
-41.119267 872.86566 1264.8347 4289502653
-37.692657 871.99243 1264.0985 4289371058
-34.266056 871.99243 1264.0984 4288384154
-36.403671 878.83813 1263.3304 4289041841
-38.678898 880.57751 1264.7971 4288977084
-40.822018 887.75708 1265.6187 4288911538
-37.420181 886.8902 1264.8877 4288844979
0 886.02332 1264.1566 4288186548
-36.168808 892.31067 1264.2258 4288713133
-33.908257 892.31067 1264.2258 4287989410
-31.647707 891.44653 1263.4973 4288185012
-29.387156 891.44653 1263.4973 4288777150
0 892.31067 1264.2258 4287726764
-33.770641 899.05469 1263.3721 4288251555
-31.519266 899.05469 1263.3721 4288053933
-29.267889 899.05469 1263.3721 4288185262
0 899.05469 1263.3721 4287792555
-36.022018 900.77588 1264.8234 4288713133
-33.770641 900.77588 1264.8234 4288054946
-31.519266 900.77588 1264.8234 4287858094
0 900.77588 1264.8234 4287792301
-33.660549 907.85577 1265.5609 4287661224
-31.416513 906.99799 1264.8376 4287791777
-29.172478 906.99799 1264.8376 4287923106
-26.180429 906.7121 1264.5966 4287792805
0 906.99799 1264.8376 4288316321
-25.700916 913.66833 1263.9218 4287793584
-22.348623 913.66833 1263.9218 4287333286
-20.113762 913.66833 1263.9218 4287333286
-2.2348623 913.66833 1263.9218 4287529634
0 913.66833 1263.9218 4288380829
-31.288073 915.37695 1265.3623 4287332752
-29.053211 915.37695 1265.3623 4287793303
-25.700916 915.37695 1265.3623 4287859382
-2.2348623 915.37695 1265.3623 4287988138
0 915.37695 1265.3623 4288380316
-31.185322 920.68237 1264.6036 4287594393
-28.957798 920.68237 1264.6036 4287660442
-25.987768 919.54706 1263.6464 4287135402
-22.275229 918.97937 1263.1677 4287200934
-20.047707 918.97937 1263.1677 4287266727
-4.4550457 918.97937 1263.1677 4287658142
-2.2275229 919.83087 1263.8857 4287658146
-28.862385 925.96539 1263.826 4287921813
-26.642202 925.96539 1263.826 4287398047
-2.2201834 925.96539 1263.826 4287724700
-25.53211 927.66272 1265.2572 4287596194
-2.2201834 927.66272 1265.2572 4287395735
-22.128441 931.22589 1263.0295 4287397547
-19.915596 931.22589 1263.0295 4287134376
-16.965139 932.35376 1263.9805 4287264911
-4.4256883 932.07178 1263.7427 4287461527
-16.596331 934.60938 1265.8823 4286741625
-4.4256883 934.60938 1265.8823 4287198354
-8.8146791 940.29712 1264.1379 4287265431
-50.900917 758.06067 1267.4445 4292198883
4.8477063 758.06067 1267.4445 4289633726
-55.537613 766.38348 1267.9219 4292266207
-53.122936 766.38348 1267.9219 4291871717
4.8293576 766.38348 1267.9219 4289698486
7.2440367 767.30652 1268.7001 4289961912
-49.312843 772.8252 1266.8132 4291739872
2.4055047 772.8252 1266.8132 4288847012
-52.719265 781.98688 1267.9979 4291871194
-50.322937 781.98688 1267.9979 4291739352
-46.728439 781.07086 1267.2256 4291542494
-43.133945 780.15485 1266.4532 4291280100
2.3963304 780.15485 1266.4532 4289961156
4.7926607 781.98688 1267.9979 4290225338
-45.355965 788.36194 1266.8331 4291213778
-42.968807 788.36194 1266.8331 4291148487
-40.58165 788.36194 1266.8331 4291345609
-38.194496 788.36194 1266.8331 4290687947
2.387156 788.36194 1266.8331 4290226896
4.774312 788.36194 1266.8331 4290553801
-50.130276 790.18695 1268.3719 4291542745
-46.549541 790.18695 1268.3719 4291213523
-42.968807 790.18695 1268.3719 4290686662
4.774312 790.18695 1268.3719 4290422209
7.161468 790.18695 1268.3719 4290225086
-45.216515 794.16956 1266.4978 4290818252
-42.836697 794.16956 1266.4978 4290752977
-40.456882 794.16956 1266.4978 4291081942
-38.077065 794.16956 1266.4978 4290687697
2.3798165 794.16956 1266.4978 4289963209
4.7596331 794.16956 1266.4978 4290159291
-58.305504 795.98895 1268.0319 4291607506
-54.735779 795.98895 1268.0319 4291607251
-52.355965 795.98895 1268.0319 4291147467
-49.976147 795.98895 1268.0319 4291279053
-46.406422 795.98895 1268.0319 4291014348
-42.836697 795.98895 1268.0319 4290884558
-40.456882 795.98895 1268.0319 4290950352
-38.077065 795.98895 1268.0319 4290358735
4.7596331 795.98895 1268.0319 4290159293
7.1394496 795.98895 1268.0319 4290159293
-56.895412 802.30371 1266.8162 4291279307
-45.042202 802.30371 1266.8162 4291016912
-42.671558 802.30371 1266.8162 4291015886
-40.300919 802.30371 1266.8162 4291147215
-37.930275 802.30371 1266.8162 4290292428
4.7412844 802.30371 1266.8162 4290486718
-61.636696 804.11609 1268.3444 4291673809
-59.266056 804.11609 1268.3444 4291608016
-55.710091 804.11609 1268.3444 4291148489
-52.154129 804.11609 1268.3444 4291213010
-49.783485 804.11609 1268.3444 4291213010
-46.227524 804.11609 1268.3444 4290949840
-42.671558 804.11609 1268.3444 4290950088
4.7412844 804.11609 1268.3444 4290290111
7.1119266 804.11609 1268.3444 4290618820
-61.398167 810.39581 1267.0991 4291476437
-59.036697 810.39581 1267.0991 4291739352
-49.590824 811.29846 1267.8602 4290949592
-47.229359 811.29846 1267.8602 4290948557
-43.687157 811.29846 1267.8602 4290883530
-40.144955 810.39581 1267.0991 4290818502
-37.783485 810.39581 1267.0991 4290030035
4.7229357 811.29846 1267.8602 4290159031
-47.045872 818.44586 1267.3464 4290685639
-51.750458 820.2442 1268.8628 4291146190
-49.398167 820.2442 1268.8628 4291014348
4.704587 820.2442 1268.8628 4293777904
-46.862385 824.66235 1266.048 4290554301
-44.519264 824.66235 1266.048 4290422715
4.6862388 824.66235 1266.048 4293581556
-51.548622 826.45374 1267.5583 4290884547
-49.205505 826.45374 1267.5583 4290950340
-46.862385 826.45374 1267.5583 4290422963
-44.519264 826.45374 1267.5583 4290422963
-58.394497 833.0083 1267.8529 4291080647
-56.058716 833.90118 1268.6057 4290620355
-51.387157 833.0083 1267.8529 4290555332
-49.051376 833.0083 1267.8529 4290884297
-46.715595 833.0083 1267.8529 4290357189
-44.379818 832.11548 1267.1001 4290291395
-58.165138 840.05042 1267.2505 4291342548
-55.838531 840.05042 1267.2505 4290950092
-52.348621 840.93976 1268.0004 4290752200
-48.858715 840.05042 1267.2505 4290620357
-46.532108 840.05042 1267.2505 4290225096
2.3266056 840.93976 1268.0004 4284831872
4.6532111 840.05042 1267.2505 4284498002
-57.93578 847.9433 1267.3655 4290817748
-55.618347 847.9433 1267.3655 4290554312
-50.983486 847.9433 1267.3655 4290488517
-64.888077 849.71497 1268.8593 4291016649
-62.570641 849.71497 1268.8593 4290950856
-55.618347 849.71497 1268.8593 4290422463
-55.442204 853.52087 1266.8362 4290554560
-53.132111 853.52087 1266.8362 4290949318
-49.666969 853.52087 1266.8362 4290357186
-57.752293 855.28699 1268.3253 4290620357
-53.132111 855.28699 1268.3253 4290488771
-50.822018 855.28699 1268.3253 4290028990
2.3100917 855.28699 1268.3253 4285621386
-62.124771 861.34082 1266.8895 4290687688
-52.921101 863.09985 1268.3728 4290226394
-49.469727 862.22034 1267.6311 4290227391
-46.018349 862.22034 1267.6311 4289766845
-43.71743 862.22034 1267.6311 4289766845
-41.416515 861.34082 1266.8895 4289503159
-36.814678 862.22034 1267.6311 4289437871
-34.51376 862.22034 1267.6311 4288582819
-32.212845 862.22034 1267.6311 4288318388
-29.911926 863.09985 1268.3728 4288581302
-25.310091 863.09985 1268.3728 4288450738
2.3009174 863.09985 1268.3728 4284438393
-45.834862 869.11865 1266.9075 4289896898
-43.543118 869.11865 1266.9075 4289962691
-41.251377 869.11865 1266.9075 4289502394
-32.084404 869.11865 1266.9075 4288317593
-28.64679 869.11865 1266.9075 4288580773
-25.209175 869.11865 1266.9075 4288581038
2.291743 869.11865 1266.9075 4290752198
-45.834862 870.87073 1268.3848 4289634757
-43.543118 870.87073 1268.3848 4289634757
2.291743 870.87073 1268.3848 4290950090
-41.119267 874.61212 1266.3073 4289369791
-38.834862 874.61212 1266.3073 4289238205
-41.119267 876.35852 1267.7799 4289370043
-38.834862 876.35852 1267.7799 4289238201
2.2844036 876.35852 1267.7799 4290819284
-40.954128 883.18665 1266.9971 4289042874
-38.678898 882.31696 1266.2638 4288845241
2.2752295 883.18665 1266.9971 4290751704
-40.822018 889.49091 1267.0804 4289173680
-38.554127 889.49091 1267.0804 4289305009
-45.3578 891.22473 1268.5424 4289567165
-43.089909 891.22473 1268.5424 4289567165
-40.822018 891.22473 1268.5424 4289305013
-38.554127 891.22473 1268.5424 4289173684
-42.950459 896.63116 1267.8689 4289174204
-40.689907 895.76709 1267.1403 4288450483
-37.299084 895.76703 1267.1403 4288581551
0 894.90295 1266.4116 4287595179
-36.022018 902.49707 1266.2747 4288779950
-33.770641 902.49707 1266.2747 4287793055
0 902.49707 1266.2747 4287792553
-37.147705 904.21826 1267.7258 4288844970
-33.770641 904.21826 1267.7258 4287923358
-38.148624 911.28693 1268.454 4288976048
-34.408562 910.71509 1267.9718 4287792556
-31.416513 910.42914 1267.7307 4287398817
-29.172478 910.42914 1267.7307 4287530147
-44.697247 917.08551 1266.803 4289173684
-37.992661 917.08551 1266.803 4288319399
-34.640366 917.08551 1266.803 4287857579
-31.288073 917.08551 1266.803 4287594645
-29.053211 917.08551 1266.803 4287857817
0 917.08551 1266.803 4288051099
-40.227524 918.79407 1268.2437 4288713129
-37.992661 918.79407 1268.2437 4288252578
-34.640366 918.79407 1268.2437 4287727265
0 918.79407 1268.2437 4288051616
-31.185322 922.38531 1266.0396 4288122027
-28.957798 922.38531 1266.0396 4287398047
-2.2275229 922.38531 1266.0396 4287724448
0 922.38531 1266.0396 4288051612
-37.867889 925.7912 1268.9113 4292392641
-34.526604 924.93976 1268.1934 4291867576
-31.185322 924.9397 1268.1934 4291079368
-28.957798 925.7912 1268.9113 4290026171
0 924.9397 1268.1934 4287853715
-28.862385 929.36011 1266.6884 4290160045
-25.53211 929.36011 1266.6884 4288185247
-2.2201834 929.36011 1266.6884 4287526551
-28.862385 931.05743 1268.1195 4288056484
-25.53211 931.05743 1268.1195 4288184733
-22.201836 931.05743 1268.1195 4287790754
-19.981651 931.05743 1268.1195 4287395997
-2.2201834 931.05743 1268.1195 4287396503
-15.489908 936.30115 1267.3088 4285886589
-13.277064 937.99286 1268.7352 4287133844
-11.06422 937.99286 1268.7352 4287462809
-6.6385322 937.14697 1268.022 4287396504
-4.4256883 937.14697 1268.022 4286871206
-53.566971 753.78827 1271.6902 4292264415
-55.748623 760.84021 1269.7881 4292069087
-53.324772 760.84021 1269.7881 4291936997
4.8477063 760.84021 1269.7881 4289698490
7.2715597 760.84021 1269.7881 4289566904
-58.172478 762.6933 1271.3506 4292266463
7.2715597 762.6933 1271.3506 4289435316
9.6954126 762.6933 1271.3506 4289698240
-60.366974 769.15259 1270.2567 4292069087
-57.952293 769.15259 1270.2567 4292134110
-55.537613 770.07556 1271.0349 4292068317
-53.122936 770.07556 1271.0349 4292068585
4.8293576 770.07556 1271.0349 4289896887
7.2440367 770.07556 1271.0349 4290489024
-55.326607 775.58368 1269.1392 4291937501
-52.921101 775.58368 1269.1392 4291871708
-50.515594 775.58368 1269.1392 4291871708
4.8110094 775.58368 1269.1392 4289896396
-61.340366 777.42273 1270.6898 4292263900
-57.732109 777.42273 1270.6898 4291937499
-55.326607 777.42273 1270.6898 4292003292
-52.921101 777.42273 1270.6898 4291805660
-50.515594 777.42273 1270.6898 4291674331
4.8110094 777.42273 1270.6898 4289896385
7.2165136 777.42273 1270.6898 4290027714
-59.109478 785.04022 1270.5724 4292198875
-55.115597 784.73486 1270.3149 4291804122
-52.719265 784.73486 1270.3149 4291673307
-50.322937 784.73486 1270.3149 4291673307
-47.127827 784.4295 1270.0575 4291279574
-43.133945 783.81885 1269.5426 4291214555
7.1889906 784.73486 1270.3149 4290290883
-58.485321 792.01196 1269.9108 4291870168
-54.904587 792.01196 1269.9108 4291607255
-52.517429 792.01196 1269.9108 4291476435
-50.130276 792.01196 1269.9108 4291607764
-47.743118 792.01196 1269.9108 4291213010
7.161468 792.01196 1269.9108 4290159291
9.548624 793.83698 1271.4495 4290225086
-57.115597 797.80835 1269.5659 4291410641
-54.735779 797.80835 1269.5659 4291673813
-52.355965 797.80835 1269.5659 4291608016
-49.976147 797.80835 1269.5659 4291673809
-46.406422 797.80835 1269.5659 4291148239
-42.836697 797.80835 1269.5659 4290950606
4.7596331 797.80835 1269.5659 4290355902
7.1394496 797.80835 1269.5659 4290290109
-61.875229 799.62775 1271.1001 4291804884
-59.495415 799.62775 1271.1001 4291673298
-54.735779 799.62775 1271.1001 4291476686
-52.355965 799.62775 1271.1001 4291542741
-49.976147 799.62775 1271.1001 4291542741
-47.596329 799.62775 1271.1001 4291016912
7.1394496 799.62775 1271.1001 4290618561
9.5192661 799.62775 1271.1001 4290552768
-59.266056 805.92847 1269.8724 4291476948
-56.895412 805.92847 1269.8724 4291344594
-52.154129 805.92847 1269.8724 4291146711
-49.783485 805.92847 1269.8724 4291015382
-47.412846 805.92847 1269.8724 4291080141
4.7412844 805.92847 1269.8724 4290159545
-55.710091 807.74084 1271.4006 4291344860
-52.154129 807.74084 1271.4006 4291146715
7.1119266 807.74084 1271.4006 4290356406
-59.036697 814.90918 1270.9047 4291081421
-56.675228 815.81189 1271.6658 4290948555
-51.952293 815.81189 1271.6658 4291080145
-49.590824 814.90918 1270.9047 4291079891
4.7229357 814.90918 1270.9047 4292133855
-58.807339 822.94171 1271.1372 4291278027
-54.886852 823.24146 1271.39 4291081165
-51.750458 822.04254 1270.3792 4291015884
-49.398167 822.04254 1270.3792 4290884297
-56.234863 830.03638 1270.5792 4290950088
-52.720184 829.14069 1269.824 4290687172
-49.205505 828.245 1269.0688 4290687686
-46.862385 828.245 1269.0688 4290488769
7.0293579 828.245 1269.0688 4290754004
-56.058716 835.68689 1270.1115 4291014602
-52.555046 835.68689 1270.1115 4290817734
-49.051376 835.68689 1270.1115 4291015111
-46.715595 835.68689 1270.1115 4290291658
-60.491745 845.38654 1271.7498 4290489039
2.3266056 844.49719 1270.9999 4284898181
4.6532111 845.38654 1271.7498 4282138217
-64.888077 851.48669 1270.3531 4290950342
-61.411926 851.48669 1270.3531 4290620360
-57.93578 851.48669 1270.3531 4290751442
2.3174312 851.48669 1270.3531 4285424777
-61.411926 853.25836 1271.8469 4290422979
-55.618347 853.25836 1271.8469 4290225600
4.6348624 853.25836 1271.8469 4285094529
-62.372478 857.0531 1269.8145 4290292676
-57.752293 857.0531 1269.8145 4290818243
-55.442204 857.0531 1269.8145 4290291654
-53.132111 857.0531 1269.8145 4290357703
-50.822018 857.0531 1269.8145 4290227137
2.3100917 857.0531 1269.8145 4285621638
-57.752293 858.81915 1271.3035 4290357953
-55.442204 858.81915 1271.3035 4289963206
-53.132111 858.81915 1271.3035 4290226635
2.3100917 858.81915 1271.3035 4284372085
4.6201835 858.81915 1271.3035 4283579169
-57.522934 865.73846 1270.5975 4290423748
-55.222019 865.73846 1270.5975 4289765829
-52.921101 865.73846 1270.5975 4290029001
-49.469727 865.73846 1270.5975 4289963712
2.3009174 864.85895 1269.856 4289370806
4.6018348 865.73846 1270.5975 4290489509
-57.293579 872.6228 1269.8621 4290356936
-52.710091 872.6228 1269.8621 4290555085
-49.272476 872.6228 1269.8621 4289963456
-45.834862 872.6228 1269.8621 4289371336
-43.543118 872.6228 1269.8621 4289239749
2.291743 872.6228 1269.8621 4291410389
-61.877064 874.37482 1271.3394 4290356938
-57.293579 874.37482 1271.3394 4290028486
-52.710091 874.37482 1271.3394 4289896898
-49.272476 874.37482 1271.3394 4289897404
-45.834862 874.37482 1271.3394 4289304509
-43.543118 874.37482 1271.3394 4289436095
-43.403671 878.10498 1269.2524 4289700287
-41.119267 878.10498 1269.2524 4289239999
2.2844036 878.10498 1269.2524 4290621400
-45.688072 879.85144 1270.725 4289437883
-43.403671 879.85144 1270.725 4289437883
-46.6422 887.53528 1270.6637 4289568178
-43.229359 887.53528 1270.6637 4289502642
2.2752295 886.66553 1269.9304 4290556119
-46.491745 892.95856 1270.0043 4289435843
-43.089909 892.95856 1270.0043 4289435845
2.26789 892.95856 1270.0043 4289897934
-49.893578 894.69238 1271.4662 4289304246
-46.491745 894.69238 1271.4662 4289305018
2.26789 894.69238 1271.4662 4289832139
-45.21101 898.35938 1269.326 4289437099
-42.950459 898.35938 1269.326 4289568941
-40.689907 898.35938 1269.326 4288582326
-38.429359 898.35938 1269.326 4288582326
-45.21101 900.08759 1270.7832 4289238956
-42.950459 900.08759 1270.7832 4289370543
-40.689907 900.08759 1270.7832 4289107888
-38.429359 900.08759 1270.7832 4289173682
-40.524769 905.93945 1269.1771 4289042093
-37.147705 905.93945 1269.1771 4288647599
-45.027523 907.66064 1270.6284 4288910244
-42.776146 907.66064 1270.6284 4288910244
-40.524769 907.66064 1270.6284 4288910255
-37.147705 907.66064 1270.6284 4288779188
2.2513762 907.66064 1270.6284 4289236654
-49.368809 914.71814 1271.347 4288582324
-47.124771 913.86035 1270.6238 4288911289
-43.384708 913.5744 1270.3827 4289107631
-40.392662 913.86035 1270.6238 4288911021
