# .PCD v0.7 - Point Cloud Data file format
VERSION 0.7
FIELDS x y z rgb
SIZE 4 4 4 4
TYPE F F F U
COUNT 1 1 1 1
WIDTH 1177
HEIGHT 1
VIEWPOINT 0 0 0 1 0 0 0
POINTS 1177
DATA ascii
51.28624 921.65234 785.37451 4292858843
32.559631 925.37396 785.89648 4285820830
34.885323 924.78131 785.39673 4285820833
37.91835 925.79102 784.28601 4285624479
40.732109 926.32513 784.08234 4285558167
44.083488 926.12805 783.91614 4287465150
46.51376 924.78131 785.39673 4292397017
48.839447 924.78131 785.39673 4293252579
38.669724 927.90179 785.41187 4285886380
40.989906 927.90179 785.41187 4285426331
43.310093 927.90179 785.41187 4284768667
14.091743 749.71106 788.20544 4287334571
15.853211 748.36438 787.07007 4285229722
59.889908 749.03772 787.63776 4286609297
15.80367 752.03625 786.24194 4285952918
57.946789 752.03625 786.24194 4286346388
13.169725 754.04993 787.93988 4287268783
15.770642 754.92603 786.0625 4286677418
56.073395 754.92603 786.0625 4286412436
58.824768 754.04993 787.93988 4286477969
13.142202 756.93555 787.75677 4287334829
58.701836 756.93555 787.75677 4286412688
13.974312 760.58563 786.9104 4287269808
15.721101 759.91791 786.34741 4287006381
58.517433 760.58563 786.9104 4286478221
13.086239 763.35681 787.93896 4287006379
16.269114 763.23651 786.52948 4286940846
58.394493 763.45862 786.71674 4286543502
61.137615 762.58875 788.59937 4286412170
13.944954 765.45752 788.40222 4287072174
16.507339 767.75751 786.41736 4286875053
59.078899 767.75751 786.41736 4286412688
13.900917 770.41437 788.65759 4287136954
15.638532 769.08594 787.53748 4287006131
60.816513 769.75012 788.09753 4286477968
16.455046 772.70587 786.66565 4286940341
13.856881 775.35431 788.8988 4286940336
16.14312 775.48712 787.26678 4286874802
58.766972 775.55499 786.4519 4286543504
61.158405 775.42023 788.08234 4286609551
62.223854 778.19781 788.68018 4286610317
15.506422 781.13538 787.23303 4287136685
58.579815 780.47675 786.67773 4286675342
61.164223 781.13538 787.23303 4286741134
13.768807 784.52515 788.7832 4286939308
15.473394 784.62482 787.5592 4286939563
58.455048 783.31042 786.45093 4286543504
61.033943 784.62482 787.5592 4286806929
15.423853 788.20551 786.65417 4286939309
59.981651 788.20551 786.65417 4287003541
13.710092 790.17078 788.31128 4286873770
16.245872 791.02374 786.41443 4287070892
18.811008 791.02374 786.41443 4287070892
59.85321 791.02374 786.41443 4287003541
61.563301 791.02374 786.41443 4286872721
63.409176 790.82587 788.86365 4287003793
13.680734 793.63849 788.61914 4286741415
15.960856 792.76691 787.88422 4287005099
61.563301 792.33112 787.51672 4287003793
63.273396 793.63849 788.61914 4287070088
17.045872 796.5437 787.14465 4286742446
18.750458 796.5437 787.14465 4286742447
61.365139 796.5437 787.14465 4286938244
16.193579 798.49847 788.79285 4286611628
19.560551 799.34521 786.89075 4286742960
22.111927 798.69501 786.34253 4286677168
59.532108 799.34521 786.89075 4287003793
61.365139 798.49847 788.79285 4287135882
17.009174 801.29572 788.5354 4286611377
18.649542 803.53674 786.50085 4286677170
58.491745 803.53674 786.50085 4287201434
16.954128 804.83289 787.59375 4286611373
19.475229 805.57849 786.91437 4286676657
58.429359 805.57849 786.91437 4287201175
61.034863 806.12909 788.68665 4287397266
16.917431 808.26416 787.87079 4286545834
18.609175 807.61749 787.32556 4286545580
59.21101 808.26416 787.87079 4287331990
60.902752 808.91089 788.41602 4287397012
16.862385 812.42841 787.45789 4286545830
18.548624 811.13928 786.37097 4286611625
58.175232 811.78381 786.91443 4287266453
16.000917 814.45758 787.86078 4286545571
18.508257 813.91125 786.09204 4286545830
58.048622 814.55444 786.63434 4287069591
60.704586 813.71759 788.54492 4287135641
16.825687 816.48395 788.26135 4286479777
18.447706 818.69971 786.20557 4286479777
57.858715 818.69971 786.20557 4287135643
61.413761 816.48395 788.26135 4287135641
16.770641 821.26398 788.36768 4286413478
18.447706 819.98187 787.28662 4286872998
60.933334 820.40924 787.64697 4286740360
16.733946 824.01483 788.07104 4286413730
18.965137 823.16193 787.35199 4286676904
56.895412 822.73553 786.99243 4287003801
58.568806 823.37518 787.53174 4286280838
60.242203 824.01483 788.07104 4287920739
19.180733 826.85559 786.54224 4286479782
56.708256 826.21802 786.00464 4286544257
58.376148 827.49316 787.07983 4288119947
16.6789 828.76825 788.15491 4286413730
19.158714 829.49988 787.46375 4286413729
58.247707 830.23145 786.77258 4292394417
60.044037 828.76825 788.15491 4292923853
16.642202 832.77606 788.91809 4286347426
19.116512 832.23395 787.15302 4286282398
59.314373 832.41461 787.74139 4293384408
16.605505 835.50317 788.60144 4286281377
18.819571 834.6568 787.88788 4286479270
59.779816 835.50317 788.60144 4292859101
16.550459 838.95056 787.58423 4286280866
19.308868 838.52881 787.22858 4286478254
21.515596 837.6853 786.51733 4286346931
59.58165 838.95056 787.58423 4292858841
14.895412 840.21588 788.651 4286018713
16.53211 841.57166 788.48615 4286084769
19.000917 841.93396 788.13757 4286216100
21.46789 841.03369 786.72461 4286281130
58.899082 841.66504 787.25684 4292728025
61.236698 840.21588 788.651 4292859093
19.772476 845.63348 787.98694 4286281379
21.420183 844.37378 786.9248 4286150822
57.669724 844.37378 786.9248 4292925661
18.874313 850.0415 787.12549 4286150048
21.300917 851.74768 786.60217 4286215584
57.981655 850.37054 787.18506 4292991457
16.385321 854.25305 788.7146 4285754785
18.57003 853.41797 788.01044 4286083490
22.070641 854.43549 786.25232 4286084259
24.522936 854.43549 786.25232 4286019236
55.58532 854.43549 786.25232 4292662493
58.167892 853.62671 788.18646 4292991202
60.625687 854.25305 788.7146 4292925409
19.618349 856.3103 787.83307 4285821600
21.25321 856.3103 787.83307 4285952930
58.037613 856.3103 787.83307 4293122275
21.181652 860.32513 787.29419 4286347172
57.842201 859.70227 786.76904 4293056225
19.552294 861.5708 788.34448 4285952668
21.133945 862.99463 786.92908 4285952668
56.899082 862.99463 786.92908 4292991206
58.524769 862.99463 786.92908 4292925663
60.28624 861.5708 788.34448 4292925663
22.183487 865.59821 787.38037 4285952673
24.330275 865.65857 786.5592 4286149541
56.770641 865.65857 786.5592 4292991206
58.458717 865.56805 787.79089 4292990943
19.46422 868.13867 788.65027 4286019488
21.086239 868.13867 788.65027 4286019488
58.392662 868.13867 788.65027 4292990943
19.398165 872.73358 788.60059 4286018461
22.075232 871.5567 786.73615 4285953446
24.220184 871.58618 786.32501 4285953192
55.706421 871.58618 786.32507 4292859618
58.194496 872.11566 788.07953 4292925406
20.429358 874.96552 787.86639 4285953183
56.449543 874.14349 787.17322 4292793828
58.062386 875.37653 788.21289 4293057238
20.919266 878.01379 787.82056 4285952666
22.52844 876.78357 786.7832 4285953709
56.321102 876.78357 786.7832 4292925411
57.930275 878.01379 787.82056 4292991426
20.079815 880.90875 788.29956 4285755036
22.477064 880.03174 786.90601 4285886884
24.082569 880.03174 786.90601 4285755555
56.192661 879.41803 786.38855 4293122792
58.668808 879.9447 788.14062 4292072135
22.4 883.97083 786.30322 4285821091
24 883.97083 786.30322 4285689762
58.400002 883.97083 786.30322 4292859852
20.266666 886.00952 788.02216 4285820061
22.897858 886.93823 787.06122 4285690016
24 885.19403 787.33459 4285624480
60.799999 886.41724 788.36597 4286286256
20.752293 890.2511 788.98254 4285624732
23.119267 889.72583 787.23157 4285822114
58.132111 890.42096 786.50964 4280630646
60.660549 890.2511 788.98254 4278190107
22.809784 892.50684 787.39648 4286018460
25.423853 893.02594 786.09009 4286084264
55.614677 893.02594 786.09009 4284112774
58.066055 892.33228 786.81317 4278193250
23.834862 894.84814 787.62653 4285820828
25.932722 895.51123 787.31366 4285690017
53.900917 896.83734 786.68774 4278190122
55.48624 896.83734 786.68774 4278190120
57.965137 895.1936 787.26379 4278190113
25.872782 898.91302 787.56586 4285690014
53.776146 899.42834 786.25635 4278190106
55.3578 899.42834 786.25635 4278386727
57.600002 898.85736 788.39093 4278322472
26.888073 901.24219 787.78564 4285820829
53.776146 900.63757 787.27588 4278190133
56.148624 901.24219 787.78564 4278191155
26.794495 905.11182 787.12439 4285557910
53.588989 903.9068 786.1084 4278190080
55.690521 904.71014 786.78571 4278190086
26.732111 908.28564 787.18433 4285623449
56.085018 908.08527 787.01538 4278190119
59.105507 906.31677 788.14038 4278190080
25.91468 910.77002 787.97107 4285491863
28.238533 910.25171 786.22607 4285755033
53.339451 910.25171 786.22607 4291609038
55.431194 911.05127 786.90021 4289503405
58.181652 910.08893 788.70483 4285556595
26.669725 912.65039 788.24866 4285361310
28.172478 914.00983 786.77869 4285427104
55.628441 913.33008 787.51367 4293779672
58.045872 912.65039 788.24866 4288911229
26.60734 916.40295 788.79651 4285361562
28.13945 916.48157 787.55475 4285688997
53.089909 916.56293 786.31543 4292792794
55.465134 916.82068 787.18671 4293055967
57.910091 916.40295 788.79651 4293845487
28.852295 919.62592 787.58997 4285559457
52.965137 920.30139 786.85144 4292727255
55.301834 920.30139 786.85144 4292792794
57.774311 918.95044 788.32849 4292858589
28.819267 922.08777 788.35773 4285557404
31.859632 922.84045 786.37634 4285624480
52.125687 922.16638 787.11597 4292858585
55.301834 922.08777 788.35767 4292792791
57.638531 922.68329 788.85986 4292923864
29.52844 924.62268 787.87909 4285951899
31.600611 924.82074 788.04608 4285820574
34.885323 926.55933 786.89587 4285689760
37.21101 926.55933 786.89587 4285557672
44.963303 926.55933 786.89587 4289900521
46.51376 926.55933 786.89587 4291805658
48.898163 925.88806 787.63794 4293121513
52.063301 924.62268 787.87909 4292858587
38.761467 927.74463 787.89539 4285952166
41.087158 927.74463 787.89539 4285426331
44.188072 927.74463 787.89539 4287137471
8.8348627 748.73669 791.30798 4287661735
61.844036 748.06128 790.73853 4286346637
64.199997 748.28638 790.92841 4286346894
10.568808 751.73102 789.90869 4287465136
12.330276 751.05768 789.34094 4287464883
59.889908 751.05768 789.34094 4286412686
61.651375 752.40436 790.47644 4286412172
63.412846 752.40436 790.47644 4286346894
8.8073397 753.75098 791.61194 4287530917
10.568808 753.75098 791.61194 4287597487
64.293579 753.75098 791.61194 4286346895
10.53578 757.40601 790.76965 4287268776
12.266055 758.94495 789.45117 4287400362
61.394497 757.50427 789.54443 4286346886
64.092659 758.07727 791.33563 4286477968
10.513762 760.95447 791.14545 4287071913
63.958717 760.95447 791.14545 4286477711
12.227523 763.92419 789.72546 4287202729
62.011009 763.92419 789.72546 4286477968
8.7339449 766.59509 791.97742 4287268494
10.480734 765.92737 791.41443 4287006374
13.073395 766.79016 789.52588 4287006381
62.752293 766.79016 789.52588 4286609036
64.631195 765.92737 791.41443 4286674828
10.458715 769.45544 791.77319 4286875819
12.201835 768.78912 791.21136 4286941097
62.752293 768.1228 790.64954 4286609034
64.495415 769.45544 791.77319 4286674827
13.03211 772.40698 790.33777 4286874799
62.554127 771.7428 789.77771 4286674827
64.29174 773.07117 790.89783 4286741135
13.856881 776.67853 790.01526 4287136686
64.088074 776.67853 790.01526 4286741902
12.976147 778.76099 790.46313 4287070893
63.952293 779.51923 789.79443 4286807182
12.099083 780.84064 790.90857 4287004584
63.952293 780.84064 790.90857 4286807182
12.060551 785.08691 790.56488 4287201962
64.610092 785.08691 790.56488 4286806929
12.034863 788.56799 790.88403 4287399329
64.472473 787.91077 790.3299 4286938514
11.99633 792.7912 790.52069 4286807201
13.680734 794.94586 789.72144 4286741932
15.390825 794.94586 789.72144 4286873518
64.459938 794.00928 789.80371 4287069838
66.8367 793.44629 791.073 4287003791
11.970642 797.56061 791.92615 4286545317
13.680734 796.90692 791.375 4286676651
64.128441 796.90692 791.375 4287069842
15.341285 799.80164 789.89172 4286807725
61.365139 799.80164 789.89172 4287201427
13.636697 801.10486 790.99048 4286480039
15.308257 803.24622 790.18005 4286479782
61.233028 802.59607 789.63184 4287135380
63.069725 801.10486 790.99048 4287069587
13.60734 805.19684 791.82471 4286282914
62.933945 805.19684 791.82471 4287397012
15.258716 807.42523 789.77942 4286611879
62.730274 808.72137 790.87231 4287135382
11.842202 812.79089 791.68762 4286281631
13.533945 812.14423 791.1424 4286413467
15.225688 810.20422 789.50659 4286611879
61.748623 810.85089 790.05188 4287069591
65.132111 812.14423 791.1424 4286936979
15.176147 815.00671 789.63184 4286873246
64.077065 815.00671 789.63184 4287265431
11.80367 817.58502 791.80579 4286348439
13.489908 816.94043 791.26233 4286610330
16.000917 817.03308 790.03241 4286676128
65.154747 817.21704 790.62354 4288842352
13.46055 820.34296 791.51514 4286478744
15.143119 819.05658 790.43054 4286610330
62.255047 819.05658 790.43054 4286606970
63.937614 819.69977 790.97284 4290616189
15.093578 823.18719 789.98926 4286478744
62.051376 822.54614 789.44873 4289960322
63.728439 823.82825 790.52979 4293054921
13.416513 825.11035 791.61084 4286348439
15.61835 826.57349 790.22852 4286282394
61.3578 825.72064 789.50934 4292133029
63.588989 827.21313 790.76782 4292991200
16.6789 830.04333 789.2301 4286151074
61.711926 830.04333 789.2301 4293187806
13.34312 832.59363 791.38037 4286019226
15.011009 831.31848 790.3053 4286019476
61.711926 831.31848 790.3053 4292728287
63.379818 832.59363 791.38037 4292727262
14.412232 835.38062 790.24219 4286018713
61.508255 835.41052 789.83142 4292727513
63.240368 835.32068 791.06372 4292529118
13.284404 839.31165 791.81274 4285822361
63.654434 838.88849 791.45587 4292662243
14.343731 842.32471 790.4292 4286083993
62.06422 842.11377 790.25134 4292793566
14.051376 844.73212 791.151 4286214553
16.513762 844.18994 789.38586 4286149793
18.165138 844.18994 789.38586 4286215586
59.449543 844.18994 789.38586 4292662493
61.697861 844.55133 790.56268 4292728286
14.862386 846.71497 791.51489 4286543520
16.477064 847.52307 789.58014 4285886363
59.317432 846.89319 789.04907 4292530651
61.858715 847.43396 790.81305 4292990945
14.829358 849.41254 791.17334 4285951383
16.422018 851.56525 789.06433 4285951133
59.119267 851.56525 789.06433 4292925409
61.687157 850.48889 790.11884 4292990946
14.779817 854.07617 791.18152 4285820826
62.403671 853.44843 790.65222 4292859365
16.385321 856.13202 790.29889 4285886620
18.023853 855.50568 789.77075 4286149793
61.444954 856.13202 790.29889 4292924896
14.746789 858.01105 791.8833 4285558685
17.32954 859.68494 790.67853 4285821083
19.618349 858.18512 789.41394 4286018207
61.579819 859.435 790.46777 4292859357
63.831192 859.3479 791.70245 4292859355
19.552294 862.81647 789.3949 4285952414
60.28624 862.81647 789.3949 4292925150
17.108257 865.30774 791.49548 4285756568
19.508257 865.48035 789.02502 4285887905
21.133945 865.48035 789.02502 4286019234
61.066971 865.03882 790.61462 4292990941
17.882568 867.96606 791.12085 4285756570
19.46422 869.37872 789.69592 4285822111
60.014679 869.37872 789.69592 4292925150
17.842201 871.23877 791.26422 4285886622
60.014679 870.61877 790.74146 4292991456
17.781651 875.20526 790.68457 4285624226
59.811008 873.96942 789.64258 4292793809
61.427525 875.20526 790.68457 4292201842
16.953213 877.14185 791.0094 4285624478
19.354128 876.60956 789.25256 4285886873
59.675228 876.60956 789.25256 4292201911
61.427525 876.4411 791.72656 4290953100
63.044037 876.4411 791.72656 4293321648
17.17676 880.41815 790.71979 4285886618
61.148624 880.47424 789.89514 4291677897
16.876148 883.63123 791.24896 4285623447
19.266054 883.10028 789.49329 4285951133
61.883484 883.01746 790.73151 4284443266
17.660551 885.55511 791.56311 4285754783
20 887.64044 789.39734 4285624478
60.799999 887.64044 789.39734 4278190136
17.6 890.08691 791.46008 4285558683
19.200001 889.47528 790.9444 4285558939
62.400002 890.08691 791.46008 4278190113
19.954128 892.08173 790.526 4285558682
61.458717 892.08173 790.526 4278256420
20.306423 895.59583 790.87292 4285361563
22.792662 895.80487 789.30518 4285558680
58.79266 896.67035 789.16296 4278388520
61.005505 895.34515 789.78955 4278322727
20.656881 899.09991 791.21143 4285624226
22.775536 898.29004 790.52856 4285755539
61.440979 898.29004 790.52856 4278454813
23.145687 901.92773 790.97974 4285623446
25.365137 901.07935 790.2644 4285755034
58.656879 900.47333 789.75342 4278585901
61.299084 901.68536 790.77539 4278520598
23.724771 905.4743 791.35413 4285557406
25.306421 904.26514 790.33447 4285689242
58.521099 903.05591 789.31494 4278190369
60.893578 904.26514 790.33453 4278322701
23.642202 908.72675 790.17236 4285491867
25.218349 907.52179 789.15637 4285557656
59.368195 907.9234 789.49506 4278191156
23.642202 909.9317 791.18835 4285163675
25.159634 911.29108 789.71851 4285229724
59.754128 911.29108 789.71851 4283580325
61.469727 909.9317 791.18835 4278190155
23.587156 913.69543 791.74573 4285098136
25.663 913.34619 790.57928 4285164182
58.830276 913.84979 789.25989 4293384678
62.112846 913.09436 791.23889 4288713660
25.85413 916.92401 790.54395 4285427351
59.544952 916.32434 790.03827 4293319388
61.183487 915.6488 790.77679 4292464079
25.793579 920.06842 790.57916 4285361554
28.106422 920.14423 789.33508 4285427104
58.624771 919.47009 790.07471 4292793046
61.040367 918.79602 790.81433 4293385437
26.00367 922.5813 790.51788 4285492362
28.040367 923.87421 789.86401 4285821080
55.301834 923.87421 789.86401 4292661719
58.770031 922.5813 790.51788 4292660951
60.897247 921.93481 790.84485 4292726744
26.482569 925.66064 791.37024 4285886352
28.801836 925.99554 790.9986 4285951901
31.625076 926.35529 790.21191 4285952415
34.967888 926.40491 789.38171 4285821093
37.299084 926.40491 789.38171 4285425822
46.623852 926.40491 789.38171 4291017178
48.955048 926.40491 789.38171 4293056749
52.155964 925.99554 790.99866 4292859097
55.301834 925.66064 791.37024 4292661977
57.638531 925.66064 791.37024 4292595419
32.636696 927.59308 790.38354 4286018461
34.967888 927.59308 790.38354 4285952430
38.076149 927.59308 790.38354 4285886886
41.184402 927.59308 790.38354 4285230237
43.515594 928.18713 790.88446 4284901021
45.84679 928.18713 790.8844 4289834199
48.955044 928.18713 790.8844 4293122282
7.6568809 751.43848 793.58612 4287333537
65.377983 750.08752 792.44702 4286346894
68.028442 750.763 793.01648 4286346640
70.678902 751.43842 793.58612 4286411908
73.329361 752.78931 794.7251 4286411909
8.8073397 755.09766 792.74731 4287333536
65.174309 755.09766 792.74731 4286412688
67.816513 755.09766 792.74731 4286477211
8.8073397 756.44434 793.88281 4287136924
67.816513 756.44434 793.88281 4286477463
7.901835 760.76215 793.59943 4287201944
67.604584 760.76215 793.59943 4286674578
7.8853211 763.63367 793.40454 4287136656
66.587158 763.63367 793.40454 4286805906
7.8605504 767.93054 793.10339 4286875287
66.377983 767.93054 793.10339 4286740887
7.8605504 769.26593 794.22937 4286808988
10.458715 770.78809 792.89673 4286940074
66.377983 769.26593 794.22937 4286806426
8.7155962 772.12073 794.02039 4287070872
10.458715 772.12073 794.02039 4287070377
66.238533 772.12073 794.02039 4286872725
10.425688 775.72803 793.13794 4286873770
12.163302 774.3996 792.01782 4287202220
66.029358 775.72803 793.13794 4286806928
10.425688 777.05646 794.25806 4286938791
65.820183 779.32697 792.24841 4286806930
6.9284406 781.9754 794.48145 4286412434
10.39266 780.65118 793.36499 4287004584
65.680733 782.16205 792.02271 4286806930
67.552292 780.65118 793.36499 4287004053
69.284401 781.9754 794.48145 4286938782
8.0660553 784.36444 793.8797 4286675604
10.370643 783.48346 793.13696 4287202218
67.409172 783.48346 793.13696 4287004053
69.137611 784.80487 794.2511 4287004055
8.6146793 788.37994 793.34143 4286807430
10.337615 787.72131 792.78613 4287070111
67.768806 787.94086 792.97119 4287004052
7.753211 789.69714 794.45203 4286478463
10.315597 791.19678 793.10046 4286675871
68.770645 791.19678 793.10046 4287069335
70.640366 789.69714 794.45203 4287003541
11.155964 793.63385 793.19324 4286545570
67.803673 793.63385 793.19324 4287069593
10.282569 797.37683 794.38721 4286610078
67.693581 796.72174 793.83484 4287069595
11.970642 799.52173 793.57971 4286610337
64.98349 798.86798 793.02856 4287135128
66.693581 799.52173 793.57971 4287135127
13.636697 802.40802 792.08923 4286413730
64.206116 802.84235 792.45557 4287266196
11.079817 805.01434 794.28687 4286019490
13.60734 806.49719 792.92114 4286282914
64.634865 806.49719 792.92114 4287135128
66.478897 805.01434 794.28687 4287135128
11.906422 807.79755 794.01758 4286347674
66.335777 807.79755 794.01758 4286871955
10.172477 812.60986 794.151 4285953170
67.816513 811.31372 793.05811 4287197048
10.99633 814.73096 793.32343 4286019475
67.669724 814.73096 793.32343 4291604647
8.4587154 816.67096 794.95923 4286082691
10.96055 818.87415 792.89282 4286083982
65.763306 818.87415 792.89282 4293576373
67.449539 818.87415 792.89282 4293448925
69.361465 816.67096 794.95923 4293251803
10.96055 820.16327 793.97974 4286215318
13.46055 821.62927 792.59973 4286478744
65.620186 821.62927 792.59973 4293515472
67.449539 820.16327 793.97974 4293187302
11.217125 823.77319 794.40741 4286083728
65.620186 822.91565 793.68433 4292728539
67.30275 824.20197 794.76892 4292793828
11.73945 827.67462 793.77295 4286215826
13.416513 826.39252 792.69189 4286151061
65.405502 827.03357 793.23242 4292662495
10.888073 829.68414 794.1593 4285755033
13.387156 829.13214 792.38586 4286085270
64.42569 829.77185 792.92523 4292728032
67.082565 828.95679 794.854 4292727516
10.857798 832.77979 793.49939 4285427087
65.047707 833.86871 792.45557 4292989669
11.675229 835.14386 793.53064 4286149539
13.313762 836.59302 792.13647 4286018713
64.904587 836.59302 792.13647 4292728037
67.271568 835.9939 794.24738 4292727512
11.649541 837.8653 793.20923 4286083984
66.56881 839.13763 794.28198 4292596437
11.623854 841.21594 793.4184 4285886601
64.761467 841.21594 793.4184 4292596189
11.585321 845.27704 792.91846 4285951896
13.240367 845.27704 792.91846 4286082969
64.546791 845.27704 792.91846 4292859101
11.585321 846.54236 793.98535 4285951373
13.211009 847.97742 792.57935 4285951383
64.403671 847.97742 792.57935 4292990691
66.201836 846.54236 793.98535 4292925663
11.559633 850.50238 794.70837 4285623181
13.740673 850.61475 793.0589 4285754263
64.332108 850.58594 793.4707 4292728036
66.055046 850.50238 794.70837 4292596187
13.181651 853.19159 794.35974 4285491863
13.685016 856.5871 793.29865 4285624222
64.866974 856.58716 793.29871 4292859357
14.746789 859.89008 793.46759 4285689502
65.541283 860.51642 793.99573 4292596183
17.166054 861.93469 792.57544 4285756570
64.304588 862.76788 793.27802 4292859866
14.713761 864.43445 794.68311 4285690512
16.293577 866.55341 792.54578 4285624728
61.915596 866.55341 792.54578 4292596700
64.469727 865.4939 793.61444 4292991202
14.66422 869.04474 794.64636 4285492880
16.293577 867.79907 793.59607 4285755035
61.776146 869.20892 792.16882 4292990689
64.583488 868.68427 793.4704 4293056222
16.25688 870.45178 793.2168 4285754781
61.776146 870.45178 793.2168 4293120955
64.214676 871.07318 793.74072 4293055930
16.220184 873.09888 792.83264 4285558433
64.069725 873.71887 793.35541 4293123763
14.548624 878.29486 793.28967 4285623447
64.121712 878.08887 793.11603 4287209392
13.723853 880.84515 794.13196 4285426070
16.128441 880.30865 792.37158 4285755287
62.900917 880.30865 792.37158 4285823878
64.513763 881.54169 793.41125 4278190105
66.277061 880.14862 794.85266 4278190102
14.515596 882.77472 794.45093 4285359762
16.091743 884.16492 793.00696 4285228439
62.757797 884.16492 793.00696 4278190131
64.513763 882.77472 794.45093 4278190080
16.8578 886.78253 792.59814 4285361056
62.614677 886.78253 792.59814 4278190103
64.366974 885.39514 794.04431 4278190080
14.449541 889.23737 794.66797 4285492628
16.055046 888.62366 794.15051 4285361042
64.220184 889.23737 794.66797 4278190629
17.066666 892.53339 793.52295 4285426835
19.155964 893.91235 792.06958 4285427867
64 892.53333 793.52295 4278520608
17.559633 895.74292 793.61304 4285294482
63.85321 895.13275 793.09851 4278455065
19.111927 898.33533 793.18286 4285163677
64.502747 898.33533 793.18286 4278388771
17.519266 900.16174 794.7229 4285360025
19.862387 901.52954 793.26001 4285426078
64.391739 901.18756 793.62573 4278388504
20.080734 904.9173 793.50049 4285163162
22.194496 904.10931 792.81921 4285096855
63.412846 904.71533 793.3302 4278387206
19.79266 907.21301 794.12811 4285098136
22.14312 907.28809 792.88342 4285097368
61.684402 906.68347 792.37366 4278190098
64.132111 907.21301 794.12811 4278190080
19.770641 909.10187 794.41272 4285163929
22.85413 911.13672 792.20435 4284966550
63.045872 911.13672 792.20435 4283326845
20.489908 912.94415 793.72839 4285229975
22.555964 914.04565 792.91309 4285229977
62.899082 914.89764 792.7594 4293713394
64.622017 913.54663 794.23645 4292529120
20.442202 916.70087 794.27985 4285163927
22.520491 916.94989 793.61786 4285295257
25.100918 917.44788 792.2937 4285295767
62.899082 916.09979 793.77307 4293319142
64.471558 917.30194 794.78662 4293121246
22.747707 919.24695 793.81067 4285491348
62.752293 918.64728 793.30505 4292594902
64.321098 919.84662 794.31628 4293187291
23.477064 922.38574 793.84106 4285885591
24.983486 923.72546 792.35461 4285820815
59.335781 923.72546 792.35461 4292726488
61.950825 922.89294 793.74554 4292792278
24.983486 925.51611 793.8645 4286149528
58.815292 925.71509 794.03223 4292726486
26.482569 927.44708 792.87659 4285951896
29.078901 927.84406 793.21124 4286280095
31.934862 927.44708 792.87659 4286215073
35.050461 927.44708 792.87659 4286018473
38.166054 928.04254 793.37866 4285558687
40.50275 928.04254 793.37866 4285427612
42.579815 928.24103 793.54608 4284901015
46.21468 929.03497 794.21552 4289504459
49.070641 929.23352 794.38281 4293253613
52.186237 928.638 793.88068 4292661207
55.301834 928.04254 793.37866 4292726229
5.317431 751.15845 797.27405 4287267224
5.3009176 755.49103 797.00305 4287463838
7.0678897 754.14014 795.86414 4287005338
70.678902 754.81555 796.43359 4286346634
73.329361 754.81555 796.43359 4286543503
7.0458717 757.79095 795.01831 4287004825
68.69725 757.79095 795.01831 4286346127
5.2844038 759.13763 796.15381 4287464090
70.458717 760.48425 797.28918 4286740883
5.26789 762.77582 795.29736 4287398295
68.482567 763.44702 795.86328 4286740628
4.6727829 766.53632 795.85187 4287727763
68.339447 766.98285 796.22839 4286806426
4.3724771 769.46191 796.35675 4287991190
6.9871559 770.60138 795.35547 4287070872
68.124771 770.60138 795.35547 4286872725
4.3669724 772.60455 797.04443 4287925401
7.8440366 773.45331 795.14404 4286873236
68.124771 771.93683 796.48145 4286806928
69.871559 773.27228 797.60742 4286806943
5.2293577 776.11859 797.39136 4287201673
7.8440366 774.78595 796.2677 4286938264
67.981651 774.78595 796.2677 4286872723
69.72477 776.11859 797.39136 4286938280
7.8192658 778.38489 795.37817 4286806687
5.2128439 781.04175 797.61829 4287267483
71.242203 781.04175 797.61829 4287004055
4.3302751 785.28589 797.27283 4287793566
71.01651 784.62378 796.7146 4287069335
72.748627 785.948 797.83105 4287199889
5.1853213 788.1084 797.03656 4287398035
6.9137616 786.12628 795.36523 4286346879
7.753211 791.01434 795.56274 4286609537
70.640366 791.01434 795.56274 4287003803
5.1688075 793.64874 797.78394 4286937744
7.7440367 793.07855 795.99518 4286477452
10.315597 793.82556 795.31702 4286413730
68.770645 793.82556 795.31702 4287135139
70.640366 792.33154 796.67334 4287003553
7.7366972 795.79724 796.97943 4286345607
70.489906 795.79718 796.97943 4287003800
8.5688076 799.99719 796.59656 4286345859
10.282569 798.68701 795.49194 4286215838
68.550461 799.3421 796.04425 4287135381
70.264221 799.99719 796.59656 4287069587
7.7027521 802.04877 797.01843 4286280323
11.115597 801.48279 795.23315 4286280859
67.54863 802.13647 795.78436 4287200404
70.264221 801.30737 797.70129 4286674829
7.6954126 804.09753 797.43787 4286083973
10.227523 806.3175 795.38562 4285755537
68.183487 806.3175 795.38562 4286412152
70.113762 804.09753 797.43787 4285754479
7.6706419 808.27234 797.03387 4286477969
10.205504 809.0979 795.11401 4285952666
7.6541286 811.04846 796.75867 4286346378
70.588074 811.04846 796.75867 4292856004
8.4770641 813.90601 795.2439 4285885826
69.511925 813.90601 795.2439 4293447619
7.6201835 817.23132 796.73969 4286346127
70.284401 817.23132 796.73969 4292661211
7.5990825 820.3551 796.10352 4286410634
10.117432 821.45245 795.06677 4286017930
67.449539 821.45245 795.06677 4292728035
69.13578 821.45245 795.06677 4292596448
7.5880733 823.38611 796.6972 4286082182
69.13578 823.38611 796.6972 4292793826
8.4128437 826.13147 796.39581 4285556093
10.095413 825.48828 795.85352 4285360518
67.30275 825.48828 795.85352 4292333531
8.3853207 830.23889 795.93506 4285424505
67.082565 830.23889 795.93506 4292793307
8.3669729 832.97009 795.62195 4285227383
10.040367 832.97009 795.62195 4285228437
68.609177 832.97009 795.62195 4292727001
7.809175 835.10229 797.41974 4285556863
10.040367 834.24945 796.70068 4285228675
8.3394499 838.96918 796.7561 4285293691
10.007339 837.69409 795.68103 4285097087
68.383484 838.33167 796.21857 4293122782
7.7712541 841.62701 797.25311 4285753731
9.985321 840.40991 795.35486 4285557379
67.400917 841.04608 795.89124 4292794075
8.3027525 845.65918 797.16479 4285293426
9.9633026 843.75488 795.55914 4285359498
67.529045 844.38965 796.09442 4292859870
10.757798 847.80762 795.05225 4285360263
66.201836 847.80762 795.05225 4292794080
10.473394 850.39203 796.35938 4285294478
67.256264 850.39203 796.35938 4292859101
10.450152 853.92285 796.7204 4285294993
65.908257 854.45129 795.42188 4292925148
67.706421 853.0274 796.83728 4293188319
11.533945 856.34082 797.01508 4285492111
67.555962 855.711 796.48401 4293254112
11.495413 860.35358 796.47449 4285557640
13.137614 859.09808 795.41589 4285426070
67.330276 859.09808 795.41589 4292859355
11.495413 861.60907 797.53308 4285754755
13.654434 862.18658 795.40399 4285624718
67.179817 862.39539 795.58002 4292991455
11.469725 864.27441 797.16431 4285557379
13.633639 865.63092 796.56415 4285427084
67.029358 866.3092 796.26398 4293121758
13.078899 868.18402 797.84473 4285229709
11.405504 872.78174 797.79724 4285360266
14.110091 871.58795 795.91876 4285426577
66.803673 870.91321 796.2218 4292531656
11.379816 875.42316 797.40845 4285162621
13.005505 874.1803 796.3606 4285294482
66.653214 874.1803 796.3606 4286547606
11.354129 878.05908 797.01489 4285097328
12.976147 876.81903 795.96936 4285031566
66.502754 876.81903 795.96936 4278191147
12.93211 881.38446 795.89465 4285162382
66.277061 881.38446 795.89465 4280093963
11.315597 883.23822 797.45776 4285096591
13.709174 884.00775 795.4906 4285031314
66.126602 884.00775 795.4906 4282927441
13.419572 886.57391 795.91016 4285097871
64.366974 886.62537 795.08154 4278190080
66.126602 885.8573 797.04999 4278190088
13.661469 889.77539 796.4295 4285294218
16.055046 890.46484 795.70288 4285296019
65.976151 889.08588 797.15613 4278191386
14.449541 892.30597 797.25525 4285490831
65.825691 891.69226 796.73779 4278455065
14.4 896.20294 796.61707 4285098120
16 895.59131 796.10138 4285294484
65.599998 894.97974 795.58569 4278454815
14.4 897.42615 797.64844 4285163916
16.761467 898.18372 795.67114 4285294487
67.199997 897.42615 797.64844 4278190093
16.469725 901.33026 796.58008 4285294231
66.968811 901.30566 796.99536 4280287232
14.333945 903.81458 797.80286 4285163916
16.949234 904.76898 795.99146 4285294230
65.148621 903.95911 795.30859 4278190080
66.891747 903.81458 797.80286 4278583296
14.300918 906.38867 797.35718 4285164429
16.655046 908.01215 796.76392 4285295254
64.998169 907.7453 795.88501 4278190093
66.737617 906.38867 797.35718 4278190080
16.645872 910.16925 797.92883 4285426324
18.979816 910.91565 795.94208 4285229719
64.84771 910.31104 795.43225 4278911040
17.398165 912.72943 797.47144 4285163927
18.979816 912.72943 797.47144 4285163929
64.622017 914.75165 795.25244 4293187300
18.913761 915.9566 796.26843 4285229974
19.262844 919.40576 796.56055 4285688727
20.394495 922.24536 796.33887 4285951641
21.963303 922.24536 796.33887 4285951385
62.752293 923.4447 797.3501 4292529106
64.321098 922.24536 796.33887 4292726486
22.955353 925.5766 796.53149 4285951141
61.040367 925.37714 796.36334 4292660950
23.477064 927.172 797.87671 4285690525
25.7789 927.57153 796.25153 4286083486
28.648932 927.65973 796.54395 4286347169
32.010094 927.90356 795.87756 4286215842
35.174313 927.23938 796.62549 4286149540
37.475231 928.50049 796.38086 4286018211
39.911011 927.172 797.87671 4285820575
42.940369 928.50049 796.38086 4285032088
46.063301 929.09741 796.88409 4288978633
49.186241 929.69427 797.38733 4293253360
52.309174 929.69427 797.38733 4292792795
55.432106 929.09741 796.88409 4292793051
58.398903 928.26172 796.1795 4292726489
61.040367 927.172 797.87671 4292726488
3.5522935 748.94202 798.02124 4288780202
1.7761468 751.65778 800.31116 4288517283
3.5522935 750.29993 799.16614 4288254124
1.772477 754.54614 800.13049 4288517798
3.5449541 753.19104 798.98792 4288516783
3.5339448 757.51733 798.71161 4288648363
70.678902 756.84186 798.14209 4286544276
72.445869 757.51733 798.71161 4286872726
1.7669724 759.54358 800.42017 4288780202
3.5229359 761.83093 798.42468 4288714407
70.458717 761.83093 798.42468 4286740883
72.220184 761.83093 798.42468 4286740883
-1.7614679 764.52423 800.69568 4288844964
0.88073397 763.85095 800.12793 4288910246
70.458717 763.17761 799.56018 4286740885
73.100922 763.85095 800.12793 4286740884
75.743118 764.52423 800.69568 4286872725
1.7559633 766.80316 798.69312 4288844451
71.116516 766.80316 798.69312 4286806932
-1.7559633 769.4881 800.95691 4288714911
0.87798166 768.81689 800.39093 4288910495
71.043121 768.90387 799.15625 4286806932
73.750458 769.4881 800.95691 4286610067
75.506424 769.4881 800.95691 4286741396
1.7522936 771.67163 800.18188 4288844445
71.84404 771.00177 799.61707 4286806943
73.596329 772.34143 800.7467 4286741400
75.348625 772.34143 800.7467 4286807193
1.746789 775.94312 799.8595 4288910503
3.493578 774.60767 798.7334 4288320153
71.618347 774.60767 798.7334 4286806437
75.111923 775.94312 799.8595 4286872471
-1.746789 777.27856 800.98547 4289042595
0.87339449 777.27856 800.98547 4289042606
4.0672784 777.89545 798.88959 4287990687
71.467888 777.45123 798.51501 4286872733
73.792046 778.3396 799.26416 4287003543
76.69725 778.78381 799.63867 4287069335
1.7431192 780.11646 800.76221 4288844712
3.4752293 782.37012 798.7384 4288122790
73.96698 781.24329 799.75031 4287003540
-1.7376146 785.02698 800.97864 4288911007
1.7376146 785.02698 800.97864 4288253856
74.71743 784.36279 800.41858 4287199889
76.455048 784.36279 800.41858 4287133837
78.192657 785.02698 800.97864 4287264910
1.7321101 788.59644 800.06421 4288516001
3.4642203 787.27222 798.94763 4288449954
73.614685 787.93433 799.50592 4287331219
76.212845 788.59644 800.06421 4287199889
1.7284404 791.41193 799.82202 4288647585
4.0330276 790.53101 799.07916 4287989662
72.594498 790.75122 799.26489 4287069068
1.7284404 792.73328 800.93616 4288253856
4.3128443 793.84961 799.91534 4287792278
73.458717 792.73328 800.93616 4286872703
4.3073397 796.28314 800.00525 4287725977
6.8770642 797.7688 798.64185 4286543238
72.363304 796.28314 800.00525 4286806914
4.5847096 799.95947 800.48895 4287725967
73.06881 800.39758 800.85828 4289170052
75.647705 800.39758 800.85828 4292063915
5.1412845 803.92773 799.91077 4287463300
73.691742 803.92773 799.91077 4292327868
5.1302752 806.71228 799.64258 4287856518
6.8403668 805.40491 798.54028 4286346642
70.968811 806.05859 799.09143 4290553001
73.533943 806.71228 799.64258 4292988365
76.099083 808.01965 800.745 4292793559
1.7045871 812.83337 800.87964 4288384409
4.5455656 811.53027 799.78094 4287792258
6.8036699 812.99902 798.40332 4286806158
71.43853 812.99902 798.40332 4292858841
73.297249 810.87866 799.23151 4293055703
75.57003 812.39899 800.51337 4292464857
4.2522936 814.94958 800.04797 4287727751
73.13945 814.94958 800.04797 4292595928
5.0862384 817.79449 798.52258 4287136132
71.207336 817.79449 798.52258 4292069841
4.5174313 820.44061 799.88165 4287595143
6.7669725 820.55103 798.23071 4286673806
71.207336 819.73877 800.16193 4292530394
5.0752292 823.13776 800.41187 4287463559
4.4966359 827.46844 800.13934 4287463314
6.7449541 825.31989 798.32764 4286806160
69.978897 826.60901 799.41461 4292727260
5.0477066 830.63367 800.19202 4287595929
6.7302752 828.7041 798.56506 4286806158
68.985321 828.06097 798.02271 4292793307
70.667892 830.63367 800.19202 4292727262
6.7082567 832.80316 798.09717 4286544526
4.1871557 836.08777 799.55865 4287726483
6.6935778 836.80811 798.85803 4286412172
70.359634 835.44666 799.01813 4292662242
72.952293 835.36743 800.25928 4292661982
4.183486 838.0874 799.93677 4287726735
71.119263 838.0874 799.93677 4292728032
5.0036697 842.79456 799.98157 4287791497
6.6715598 841.51941 798.90637 4286609036
70.051376 842.15698 799.44397 4292465115
6.6568809 844.86304 799.1095 4286872457
69.897247 845.49915 799.64587 4292530390
7.7541289 847.2995 799.41992 4285819767
69.897247 846.77148 800.71875 4292859355
8.2752295 851.60352 798.25281 4285359732
69.743118 849.46771 800.3761 4292596187
7.4477062 853.50146 799.85315 4286017664
70.339447 853.50146 799.85315 4292727260
8.2568808 856.18359 799.4986 4285358708
9.9082565 855.55237 798.96631 4285097091
70.183487 856.18359 799.4986 4292793818
8.2385321 860.74969 800.73254 4285357683
9.8862381 858.86023 799.13934 4284636534
70.027527 859.48999 799.67041 4292859870
72.499084 860.74969 800.73254 4293058031
9.8532114 862.8645 798.59167 4284570484
68.972481 862.8645 798.59167 4292793309
8.211009 864.74774 800.17944 4285161590
10.655964 865.80164 799.10608 4285097077
68.895416 865.44983 799.46344 4293649142
70.614677 864.74774 800.17944 4292925419
8.1926603 868.03241 800.33301 4285293426
10.637615 868.73315 799.61578 4285228673
68.818352 868.03241 800.33301 4286288836
70.456879 868.03241 800.33301 4278195526
9.8091745 870.68378 799.95239 4285096837
68.664223 870.68378 799.95239 4279451270
8.1467886 875.27301 799.89795 4284767082
9.7761469 874.65015 799.3728 4284768112
70.062386 875.27301 799.89795 4285677088
8.1467886 876.51868 800.94824 4285162089
9.7541285 877.90887 799.50439 4284701820
68.2789 877.28748 798.98041 4285939253
70.062386 876.51868 800.94824 4294958036
8.1284399 879.15173 800.55237 4285818988
10.280122 880.07666 799.5882 4284899208
68.124771 881.15918 799.62885 4282922882
69.904587 879.15173 800.55237 4294960383
10.768196 886.37555 799.23102 4285096333
67.893578 886.32782 800.06287 4278190093
11.289908 889.5564 800.16901 4285096584
12.873395 890.3161 798.19348 4285162382
11.26422 892.77655 800.26807 4284834169
12.873395 891.54633 799.23071 4285490570
67.58532 892.77655 800.26807 4278454815
11.238532 896.60193 800.87756 4285096837
12.844037 894.7608 799.32513 4285098121
13.333333 899.05713 799.02362 4285294218
10.4 901.09583 800.74255 4285096837
13.568808 901.84497 798.75818 4285229195
68.642204 901.84497 798.75818 4288442739
70.400002 901.09583 800.74255 4291932844
11.174312 903.6756 800.30164 4285030783
12.741284 905.03217 798.82947 4284967306
68.642204 903.6756 800.30164 4278190080
70.238533 903.6756 800.30164 4282320966
11.148623 907.46741 800.88281 4284899194
13.521101 907.53479 799.63153 4285163409
67.611008 907.53479 799.63153 4280428069
70.077065 907.46741 800.88281 4278190080
13.506422 910.03308 800.43005 4285097105
15.853211 911.38123 798.95068 4285098134
67.455048 910.70715 799.69037 4287069825
14.26789 913.19922 800.48358 4285229712
16.625689 913.26593 799.23181 4285164181
67.376144 913.19922 800.48358 4293450465
14.234862 916.35699 800.53003 4284900743
16.343731 915.55084 799.85034 4285228945
66.429359 915.75238 800.02026 4292989913
16.943579 919.87274 799.57043 4285623702
66.198166 920.17401 799.8244 4292595410
17.297247 923.31281 799.85486 4286147996
18.869724 922.71173 799.34802 4285951134
16.511009 924.51501 800.86853 4287329940
19.886238 925.00079 799.53418 4286411934
21.963303 925.84344 799.37268 4285756318
62.752293 925.24377 798.867 4292661204
64.396332 924.57959 799.61493 4292661204
22.747707 927.04285 800.38391 4286412940
25.85413 927.70569 799.63477 4285952652
28.955048 928.36853 798.88562 4286085029
32.08532 928.36853 798.88562 4286347683
35.215599 928.36853 798.88562 4286281125
37.563301 928.36853 798.88562 4286017959
39.911011 928.36853 798.88562 4285887140
43.302139 928.7674 799.22192 4284901785
45.910706 929.16626 799.55829 4287992507
48.519264 929.56512 799.89453 4293581043
55.562386 929.56512 799.89453 4292858330
58.692661 928.9668 799.39008 4292727001
61.967888 927.04285 800.38391 4292727254
46.954128 930.76166 800.90344 4289372341
49.523548 930.80377 800.06689 4293253348
52.370644 930.82483 799.64868 4292660950
-3.5633028 749.35785 802.29602 4289306546
-1.7816514 748.67676 801.72174 4288978349
0.59388381 748.44971 801.53027 4288912039
-3.5633028 750.71991 803.44446 4289240751
-3.5522935 755.73145 803.74585 4288976037
-1.7761468 753.69458 802.0285 4289174952
0.59082568 754.43018 801.77667 4288780458
74.598167 753.69458 802.0285 4286806681
76.374313 753.69458 802.0285 4286674839
-3.5449541 758.61133 803.55823 4288975785
-1.772477 757.25629 802.41565 4289238952
0 757.25629 802.41565 4288582824
74.444038 757.93384 802.98694 4286806679
76.216515 757.93384 802.98694 4286675093
-1.7669724 760.89447 801.5592 4289436336
0 760.89447 801.5592 4288910505
-3.5229359 767.21759 802.96655 4289175462
-1.7614679 765.87091 801.83105 4288714398
0 765.87091 801.83105 4288976287
73.981651 765.87091 801.83105 4286544272
75.743118 765.87091 801.83105 4286741650
-1.7559633 770.83051 802.08887 4288780691
0 770.83051 802.08887 4288976541
-3.5119267 772.17297 803.2207 4288977567
-1.7522936 773.68103 801.87622 4288845982
0 773.68103 801.87622 4288976552
-3.493578 779.94946 803.23743 4288845212
-1.746789 778.61401 802.11145 4289042593
0 778.61401 802.11145 4289042091
-3.4862385 782.78174 803.00952 4288911007
-1.7431192 781.4491 801.88586 4289042847
0.58103973 781.89331 802.26044 4288450716
-3.4752293 787.68384 803.21875 4288713885
-1.7376146 786.35541 802.09863 4288582042
0 786.35541 802.09863 4288449952
79.061462 787.01965 802.65869 4286871689
-1.7321101 790.58276 801.73901 4288845214
0 790.58276 801.73901 4288319135
74.480736 789.92065 801.18079 4287070088
77.078896 790.58276 801.73901 4286871956
-3.4642203 792.56909 803.41382 4288647837
-1.7284404 794.05469 802.05029 4288713631
0.8642202 794.05469 802.05029 4288188061
74.322937 794.05469 802.05029 4286083191
76.998169 793.31189 802.73206 4287067761
-3.4568808 795.3761 803.16455 4288647585
-1.7284404 795.3761 803.16455 4288581792
0.8614679 796.48822 802.1402 4288516249
3.4458716 797.60034 801.11584 4288384159
73.22477 797.60034 801.11584 4286803848
76.794495 796.48822 802.1402 4289499005
79.508255 795.3761 803.16455 4291803319
-3.4458716 800.23474 803.33704 4288844699
-1.7229358 799.57617 802.78174 4288844958
1.1486238 799.79572 802.9668 4288449430
77.532112 798.91754 802.22644 4293840326
79.255043 798.91754 802.22644 4293187806
-1.7192661 803.02637 803.07483 4288778907
1.7192661 803.02637 803.07483 4288448918
3.4385321 801.71198 801.96655 4288252559
72.209175 801.71198 801.96655 4290222236
76.507339 801.71198 801.96655 4293185492
79.086235 801.71198 801.96655 4293121757
3.4275229 805.89301 801.56787 4288383370
76.262383 805.23792 801.0155 4292858326
78.833031 805.23792 801.0155 4292202206
-1.7137614 807.85828 803.22485 4288515738
0.85504586 808.59265 802.53607 4288253079
3.4201834 809.32703 801.84729 4287923846
76.954132 809.32703 801.84729 4292530903
0 810.6344 802.94971 4288384409
-1.7045871 815.4397 803.07727 4288383896
0.85229355 814.78809 802.52789 4288252825
76.138222 814.57086 802.34473 4292596183
1.7009175 817.55029 802.24084 4288055446
3.401835 816.90009 801.69263 4287990409
73.989914 817.55029 802.24084 4292398806
-1.7009175 819.50085 803.8855 4288646039
0.84770644 820.59192 802.84338 4288055448
3.3908257 821.68298 801.80127 4287858317
71.207336 821.68298 801.80127 4292596187
73.871567 820.59192 802.84338 4292333018
-1.6954129 824.27527 803.98706 4288515738
0.84587157 824.35315 802.74469 4287924632
3.3834863 824.43109 801.50232 4287660690
71.053207 824.43109 801.50232 4292727516
74.033028 823.41113 803.25848 4292530650
1.6917431 825.72443 802.5929 4287859352
72.744957 825.72443 802.5929 4292727003
76.128441 827.01782 803.68335 4292530651
1.6862385 829.83191 802.13202 4287990168
3.3724771 829.18732 801.5885 4287464342
73.351379 829.18732 801.5885 4292661981
75.880737 830.47644 802.67554 4292727516
-1.6862385 831.76556 803.76245 4288449943
0.84128439 832.48596 803.06183 4287793559
4.2064219 831.91998 801.27661 4287726483
73.191742 831.91998 801.27661 4292530653
76.556885 833.2063 802.36121 4292727772
79.080734 833.2063 802.36121 4292662491
1.6770642 836.64954 801.34033 4287530639
73.790825 836.64954 801.34033 4292662491
76.433029 835.57111 802.39307 4292661979
79.080734 834.49268 803.4458 4292793309
-1.6770642 839.21381 803.50244 4288845202
0.83853209 838.57275 802.96191 4287858844
4.183486 839.36676 801.01538 4287660942
71.955963 839.36676 801.01538 4292663007
73.629356 839.36676 801.01538 4292662755
76.58593 838.35907 802.78174 4292530652
1.6733944 841.28577 802.63348 4287989147
3.3467889 840.64606 802.09412 4287988619
71.955963 840.64606 802.09412 4292794080
73.629356 841.28577 802.63348 4292727779
75.30275 841.28577 802.63348 4292661729
4.1697249 844.70715 801.59424 4287857543
71.719269 844.70715 801.59424 4293056733
-1.66789 846.61987 803.20703 4288055700
1.66789 846.61987 803.20703 4287595399
4.1642203 847.33179 802.49927 4287529606
6.6568809 848.04376 801.7915 4286675592
71.719269 846.61987 803.20703 4292727516
73.387154 846.61987 803.20703 4292728287
3.8831806 849.74023 803.22186 4287595135
6.6422019 850.73718 801.44641 4286675592
71.56147 849.3161 802.86426 4292595933
4.4281344 852.85303 803.23047 4287989126
73.064217 852.00671 802.51685 4293121509
4.4134555 857.50824 803.23151 4287790979
6.6201835 855.39941 801.45349 4287397518
73.925385 855.82123 801.80908 4292990696
4.9541283 860.60236 803.22437 4287856770
7.1559634 858.49823 801.4502 4286477192
73.486237 858.70862 801.62756 4293188847
6.5908256 862.63928 802.32574 4286872207
73.322937 862.63928 802.32574 4286286003
75.794495 863.2691 802.85681 4278190122
4.943119 864.52881 803.91895 4287726987
6.5688071 866.63098 801.76733 4286938250
73.077988 866.63098 801.76733 4278190132
76.362381 866.63098 801.76733 4279373838
4.9266057 869.14191 803.88452 4287660942
7.3807335 868.58575 802.1076 4286083191
70.456879 869.2851 801.38928 4278190147
73.351685 868.30493 803.17877 4282461982
76.362381 868.51416 803.35522 4290283385
4.9155965 871.79041 803.50171 4287463059
7.3642201 871.23572 801.72583 4286148986
68.664223 871.93359 801.00623 4278190080
70.29908 871.93359 801.00623 4278190080
72.641594 871.37286 803.1496 4289955643
75.372475 871.79041 803.50171 4294040553
6.5394497 873.80841 802.5871 4287069833
71.933945 874.43335 803.11401 4294437607
6.5174313 877.76434 801.99854 4287200641
7.3192658 880.66986 802.48633 4286411895
70.500305 880.34735 802.43243 4286018974
4.8770642 882.88025 803.69617 4287792012
7.3064222 883.56976 802.96948 4286608504
9.73211 883.01929 801.19727 4285030542
68.124771 883.01929 801.19727 4278190080
70.638535 883.56976 802.96948 4278190127
7.2990828 885.49933 803.28833 4286674297
9.6990824 887.56366 801.10486 4285162382
67.893578 887.56366 801.10486 4278322726
69.746788 885.49933 803.28833 4278190113
8.0825691 890.03534 803.18896 4286213494
9.6990824 888.7995 802.14685 4285162371
67.893578 888.7995 802.14685 4278520608
8.0642204 892.63898 802.76819 4286345336
9.6770639 891.40594 801.72852 4284768376
8.0458717 895.85211 802.86133 4286213750
10.191437 894.41681 801.65106 4284833919
69.999084 895.85211 802.86133 4286011741
8.027523 899.05676 802.94739 4286278258
10.43578 897.82935 801.91248 4285227909
7.2247705 900.28418 803.9823 4286870654
9.6000004 902.31903 801.77393 4285096576
72.247704 900.28418 803.9823 4287715735
76.261467 900.28418 803.9823 4278190080
78.400002 902.31903 801.77393 4278190080
8 904.15381 803.32098 4287067775
10.387156 904.21912 802.06799 4285031035
70.238533 904.896 801.33069 4278190080
72.800003 904.15381 803.32098 4280295493
