# .PCD v0.7 - Point Cloud Data file format
VERSION 0.7
FIELDS x y z rgb
SIZE 4 4 4 4
TYPE F F F U
COUNT 1 1 1 1
WIDTH 1161
HEIGHT 1
VIEWPOINT 0 0 0 1 0 0 0
POINTS 1161
DATA ascii
-13.805505 873.6543 1277.272 4287662015
-10.354128 873.6543 1277.272 4287925180
-45.834862 881.38306 1277.2485 4288057524
-43.543118 880.50702 1276.5099 4287859888
-38.959633 879.63098 1275.7712 4287924653
-18.333944 880.50702 1276.5099 4287793333
-16.042202 880.50702 1276.5099 4287727796
-13.750459 880.50702 1276.5099 4287727796
-45.688072 886.83722 1276.6152 4287596989
-43.403671 885.96399 1275.8789 4287859898
-22.844036 885.96399 1275.8789 4287793588
-19.036697 885.67291 1275.6334 4287728048
-45.504585 892.75354 1275.0636 4287661233
-43.229359 892.75354 1275.0636 4287727026
-22.752293 892.75354 1275.0636 4287135921
-19.339451 892.75354 1275.0636 4287530677
-46.6422 895.36267 1277.2637 4287529639
-22.752293 894.49298 1276.5303 4287332795
-18.201836 895.36267 1277.2637 4287464372
-15.926605 895.36267 1277.2637 4287661751
-45.3578 899.89386 1275.8519 4287661987
-43.089909 899.89386 1275.8519 4287990952
-40.822018 899.89386 1275.8519 4287661996
-37.420181 899.89386 1275.8519 4287661743
-34.018349 899.89386 1275.8519 4287661746
-31.750458 899.89386 1275.8519 4287465137
-28.348625 899.89386 1275.8519 4287530930
-24.946789 899.89386 1275.8519 4287530930
-22.6789 899.89386 1275.8519 4287726790
-19.277065 899.89386 1275.8519 4287727035
-15.875229 899.89386 1275.8519 4287793073
-45.3578 901.62769 1277.3138 4287595690
-43.089909 901.62769 1277.3138 4287529897
-40.822018 901.62769 1277.3138 4287464876
-37.420181 901.62769 1277.3138 4287530671
-34.018349 901.62769 1277.3138 4287530930
-31.750458 901.62769 1277.3138 4287136426
-29.482569 901.62769 1277.3138 4287136426
-22.6789 901.62769 1277.3138 4287332282
-19.277065 901.62769 1277.3138 4287200942
-15.875229 901.62769 1277.3138 4287529897
-13.60734 901.62769 1277.3138 4287464624
-10.205505 901.62769 1277.3138 4287399336
-37.299084 905.27222 1275.1548 4287464880
-33.908257 905.27222 1275.1548 4287530930
-31.647707 905.27222 1275.1548 4287201970
-28.256882 905.27222 1275.1548 4287399087
-24.866055 905.27222 1275.1548 4287728045
-20.344954 905.27222 1275.1548 4287200943
-42.950459 907.00043 1276.6119 4287530417
-37.299084 907.00043 1276.6119 4287465135
-33.908257 907.00043 1276.6119 4287465135
-31.647707 907.00043 1276.6119 4287070379
-28.256882 907.00043 1276.6119 4287530670
-24.866055 907.00043 1276.6119 4287661996
-22.605505 907.00043 1276.6119 4287201968
-19.21468 907.00043 1276.6119 4287267499
-15.823853 907.00043 1276.6119 4287464872
-42.776146 914.54541 1276.4335 4287529411
-40.524769 914.54541 1276.4335 4287398579
-37.147705 914.54541 1276.4335 4287332783
-33.770641 914.54541 1276.4335 4287398829
-31.519266 914.54541 1276.4335 4287333038
-28.1422 914.54541 1276.4335 4287333049
-24.765137 914.54541 1276.4335 4287135682
-18.011009 914.54541 1276.4335 4287267242
-15.759633 914.54541 1276.4335 4287793587
-13.508257 914.54541 1276.4335 4287530690
-11.256881 914.54541 1276.4335 4287135932
-46.153214 916.2666 1277.8848 4287464629
-11.256881 916.2666 1277.8848 4287201466
-43.758713 919.86487 1275.6866 4287463600
-40.392662 919.86487 1275.6866 4287201449
-38.148624 919.86487 1275.6866 4287267242
-33.660549 919.86487 1275.6866 4287201449
-31.416513 919.86487 1275.6866 4287333286
-29.172478 919.86487 1275.6866 4287399079
-25.806423 919.86487 1275.6866 4287202215
-15.708257 919.86487 1275.6866 4287267494
-13.46422 919.86487 1275.6866 4287070381
-11.220183 919.86487 1275.6866 4287004332
-44.880733 921.58044 1277.1332 4287331750
-29.172478 921.58044 1277.1332 4287267242
-26.92844 921.58044 1277.1332 4287004838
-15.708257 921.58044 1277.1332 4287070377
-13.46422 921.58044 1277.1332 4287070381
-11.220183 921.58044 1277.1332 4287070381
-43.579819 928.19122 1276.167 4287859894
-40.227524 928.19122 1276.167 4287728042
-37.992661 928.19122 1276.167 4287728041
-34.640366 928.19116 1276.167 4287333791
-31.288073 928.19122 1276.167 4287202208
-29.053211 928.19122 1276.167 4287399330
-25.700916 928.19116 1276.167 4287267234
-22.348623 928.19122 1276.167 4287333034
-20.113762 928.19122 1276.167 4287333034
-53.768806 754.737 1279.0303 4290161372
-9.7761469 754.737 1279.0303 4290555609
-7.3321099 754.737 1279.0303 4290226644
-4.8880734 754.737 1279.0303 4290225598
-2.4440367 754.737 1279.0303 4290094011
-56.212845 756.60547 1280.6058 4290622173
-53.768806 756.60547 1280.6058 4290161635
0 756.60547 1280.6058 4290292440
-53.566971 763.09564 1279.538 4290424791
-9.7394495 763.09564 1279.538 4290160601
-7.3045874 763.09564 1279.538 4290094808
-4.8697248 763.09564 1279.538 4290160586
-58.172478 773.81165 1280.7252 4290095056
1.6159021 772.57623 1279.6837 4289965015
4.8477063 772.88513 1279.9441 4290227426
7.2715597 773.81165 1280.7252 4290161633
-55.537613 778.38275 1278.0393 4290030042
1.2073394 778.38275 1278.0393 4290096081
4.8293576 778.38275 1278.0393 4290095578
-57.952293 780.22882 1279.5958 4290358242
1.2073394 780.22882 1279.5958 4289963207
4.8293576 780.22882 1279.5958 4290095056
-57.732109 787.53735 1279.2183 4289898197
-55.326607 786.61786 1278.4429 4289963738
-7.2165136 786.61786 1278.4429 4289832148
-4.8110094 786.61786 1278.4429 4289832150
-2.4055047 786.61786 1278.4429 4289700821
1.2027524 788.45691 1279.9935 4289635291
-55.115597 794.81097 1278.8109 4289963979
-14.377981 794.81097 1278.8109 4289569482
-9.5853214 794.81097 1278.8109 4289567688
-7.1889906 794.81097 1278.8109 4289896396
-4.7926607 794.81097 1278.8109 4289436879
-2.3963304 794.81097 1278.8109 4289700050
-57.511925 796.64294 1280.3556 4289963727
-55.115597 796.64294 1280.3556 4290226642
-7.1889906 796.64294 1280.3556 4289700569
-4.7926607 796.64294 1280.3556 4289700050
-2.3963304 796.64294 1280.3556 4289634257
-54.904587 802.96198 1279.1434 4289699796
-4.774312 802.96198 1279.1434 4289700298
-2.387156 802.96198 1279.1434 4289963727
-54.904587 804.78699 1280.6823 4289634257
-4.774312 804.78699 1280.6823 4289240522
-2.387156 804.78699 1280.6823 4289569230
-52.355965 808.72467 1278.7704 4289502658
-4.7596331 808.72467 1278.7704 4289240781
-52.355965 810.54407 1280.3044 4289765060
-2.3798165 810.54407 1280.3044 4289241548
-54.524769 818.61511 1280.5696 4289898186
-52.154129 817.70892 1279.8054 4289503429
-49.783485 817.70892 1279.8054 4289569222
-4.7412844 817.70892 1279.8054 4289108419
-2.3706422 817.70892 1279.8054 4289173955
-51.952293 824.83875 1279.277 4289042625
-49.590824 824.83875 1279.277 4289042625
-10.626606 824.83875 1279.277 4288976075
-7.0844035 824.83875 1279.277 4289042123
-4.7229357 824.83875 1279.277 4288844489
-54.313763 826.6441 1280.7992 4289043140
-51.952293 826.6441 1280.7992 4289173954
-49.590824 826.6441 1280.7992 4289239747
-7.0844035 826.6441 1280.7992 4288977093
-4.7229357 826.6441 1280.7992 4288516031
-2.3614678 826.6441 1280.7992 4288910533
-51.750458 832.83264 1279.4771 4289042877
-14.113762 832.83264 1279.4771 4288582589
-10.585321 832.83264 1279.4771 4288779454
-7.056881 832.83264 1279.4771 4288911039
-51.750458 834.63098 1280.9934 4288911538
-9.409174 834.63098 1280.9934 4288714423
-7.056881 834.63098 1280.9934 4288846009
-4.704587 834.63098 1280.9934 4288845505
-51.548622 838.99304 1278.1312 4288779450
-49.205505 838.99304 1278.1312 4288845243
-10.544037 838.99304 1278.1312 4288517566
-7.0293579 838.99304 1278.1312 4288714687
-51.548622 840.78436 1279.6416 4288648382
-9.3724775 840.78436 1279.6416 4288583102
-7.0293579 840.78436 1279.6416 4288385724
-4.6862388 840.78436 1279.6416 4288648382
-51.387157 847.29413 1279.8983 4288516536
-49.051376 846.40125 1279.1455 4288845505
-10.121713 846.99652 1279.6473 4288713657
-7.0073395 847.29413 1279.8983 4288647866
-4.6715598 848.18701 1280.6511 4288516027
-23.266054 854.28009 1279.2485 4288253886
-19.776146 854.28009 1279.2485 4288122812
-16.286238 854.28009 1279.2485 4288123068
-13.959633 854.28009 1279.2485 4288318647
-10.469725 854.28009 1279.2485 4287924147
-6.9798164 854.28009 1279.2485 4288253626
-51.185322 856.05878 1280.7483 4288123070
-9.3064222 856.05878 1280.7483 4288318649
-6.9798164 856.05878 1280.7483 4288384442
-4.6532111 856.05878 1280.7483 4288121775
-50.983486 863.00269 1280.0631 4288451771
-18.53945 862.11688 1279.3162 4288122297
-16.222019 863.00269 1280.0631 4287991483
-13.904587 863.00269 1280.0631 4287859907
-10.428441 863.00275 1280.0631 4288056767
-6.9522934 863.00269 1280.0631 4288056762
-4.6348624 863.88855 1280.8101 4287859380
-50.822018 868.53259 1279.4937 4288450485
-16.170643 868.53259 1279.4937 4287794105
-13.860551 868.53259 1279.4937 4287794110
-10.395412 868.53259 1279.4937 4287794109
-6.9302754 869.41565 1280.2383 4287793848
-46.018349 875.41333 1278.7551 4288384690
-43.71743 875.41333 1278.7551 4288253104
-16.106422 875.41333 1278.7551 4287859128
-13.805505 875.41333 1278.7551 4287530932
-10.354128 875.41333 1278.7551 4287859640
-6.9027524 875.41333 1278.7551 4287859382
-4.6018348 875.41333 1278.7551 4287859382
-2.3009174 875.41333 1278.7551 4287990968
-46.018349 877.17242 1280.2384 4287991472
-10.354128 877.17242 1280.2384 4287859126
-6.9027524 877.17242 1280.2384 4287793587
-2.3009174 877.17242 1280.2384 4287990970
-48.126606 884.88721 1280.2031 4287991483
-45.834862 883.13513 1278.7258 4287990966
-16.042202 884.01117 1279.4645 4287596461
-13.750459 884.01117 1279.4645 4287793587
-10.312843 884.88721 1280.2031 4287595952
-46.830276 889.45691 1278.824 4287924156
-18.275229 888.58368 1278.0878 4287661746
-15.990826 889.45691 1278.824 4287662261
-13.706422 889.45691 1278.824 4287727538
-10.279816 890.33014 1279.5603 4287333040
-50.055046 897.97186 1279.4636 4287727278
-47.779816 898.84155 1280.1969 4287859122
-13.651376 897.97186 1279.4636 4287662250
-11.376146 897.97186 1279.4636 4287333286
-6.8256879 899.7113 1280.9302 4287465378
-45.3578 904.22839 1279.5067 4287464624
-43.089909 903.36151 1278.7758 4287333038
-40.822018 904.22839 1279.5067 4287399086
-22.6789 903.36151 1278.7758 4287332786
-18.14312 903.36151 1278.7758 4287135391
-15.875229 903.36151 1278.7758 4287530149
-13.60734 904.22839 1279.5067 4287399349
-10.205505 904.22845 1279.5067 4287268014
-6.8036699 904.22839 1279.5067 4287333546
-45.21101 908.72864 1278.0691 4287530417
-42.950459 908.72864 1278.0691 4287925175
-40.689907 908.72864 1278.0691 4287399090
-37.299084 908.72864 1278.0691 4287333551
-33.908257 908.72864 1278.0691 4287399342
-31.647707 908.72864 1278.0691 4287333036
-28.256882 908.72864 1278.0691 4287333035
-24.866055 908.72864 1278.0691 4287464876
-22.605505 908.72864 1278.0691 4287266988
-19.21468 908.72864 1278.0691 4287267244
-15.823853 908.72864 1278.0691 4287267242
-13.563303 908.72864 1278.0691 4287268276
-49.732109 910.45685 1279.5264 4287069866
-45.21101 910.45685 1279.5264 4287266487
-42.950459 910.45685 1279.5264 4287464122
-40.689907 910.45685 1279.5264 4287464370
-31.647707 910.45685 1279.5264 4287398829
-24.866055 910.45685 1279.5264 4287398329
-18.084404 910.45685 1279.5264 4287333036
-15.823853 910.45685 1279.5264 4287530415
-13.563303 910.45685 1279.5264 4287334078
-11.302752 910.45685 1279.5264 4287005370
-49.732109 912.18506 1280.9835 4287136174
-46.341286 912.18506 1280.9835 4287332793
-9.042202 912.18506 1280.9835 4287070643
-47.2789 917.98779 1279.3361 4287333034
-9.0055046 917.98779 1279.3361 4287069868
-47.2789 919.70905 1280.7874 4287266727
-9.0055046 919.70905 1280.7874 4287069866
-47.124771 923.29602 1278.5797 4287136936
-44.880733 923.29602 1278.5797 4287333284
-15.708257 923.29602 1278.5797 4287003819
-13.46422 923.29602 1278.5797 4287069866
-11.220183 923.29602 1278.5797 4287004073
-47.124771 925.0116 1280.0262 4287271074
-16.830275 925.0116 1280.0262 4286872483
-13.46422 925.0116 1280.0262 4287004325
-43.20734 931.89313 1279.2885 4291870935
-40.227524 931.6084 1279.0483 4290819786
-37.992661 931.6084 1279.0483 4290556614
-34.640366 931.6084 1279.0483 4289898439
-31.288073 931.6084 1279.0483 4288582594
-29.053211 931.6084 1279.0483 4288319422
-26.818348 930.75409 1278.328 4287529132
-22.348623 930.75409 1278.328 4287465124
-56.212845 758.474 1282.1813 4290622686
1.2220184 758.474 1282.1813 4290227160
4.8880734 758.474 1282.1813 4290685660
-56.212845 760.34247 1283.7567 4290819034
1.2220184 760.34247 1283.7567 4290292440
4.8880734 760.34247 1283.7567 4290488790
7.3321099 760.34247 1283.7567 4290422740
-53.566971 764.95709 1281.1075 4290226394
-7.3045874 764.95709 1281.1075 4290161120
1.2174312 764.95709 1281.1075 4290292439
-56.001835 766.8186 1282.6771 4290292188
2.4348624 766.8186 1282.6771 4290095578
4.8697248 766.8186 1282.6771 4290161372
-58.172478 775.66467 1282.2877 4290096092
7.2715597 775.66467 1282.2877 4290292701
7.2715597 777.5177 1283.8501 4290226642
9.6954126 777.5177 1283.8501 4290357701
-57.952293 782.07483 1281.1523 4290226140
1.2073394 782.07483 1281.1523 4289765065
4.8293576 782.07483 1281.1523 4290160336
1.2073394 783.9209 1282.709 4289831639
4.8293576 783.9209 1282.709 4289897680
7.2440367 783.9209 1282.709 4290160851
-57.732109 790.2959 1281.5442 4289766343
1.2027524 790.2959 1281.5442 4289766373
-57.732109 792.13495 1283.0947 4289503428
1.2027524 792.13495 1283.0947 4289766107
4.8110094 792.13495 1283.0947 4290027987
-57.511925 799.39099 1282.6726 4289962453
-2.3963304 798.47498 1281.9003 4289635277
1.1981652 800.30701 1283.4451 4289305808
-54.904587 806.61194 1282.2211 4289830351
-2.387156 806.61194 1282.2211 4289569745
-57.291744 808.43701 1283.7599 4289699787
-54.904587 808.43701 1283.7599 4289699787
1.193578 808.43701 1283.7599 4288911813
-54.735779 812.36346 1281.8385 4289503178
-2.3798165 812.36346 1281.8385 4289635527
-57.115597 814.18286 1283.3726 4289503174
-54.735779 814.18286 1283.3726 4289634503
1.1899083 814.18286 1283.3726 4288713153
-54.524769 820.42749 1282.0977 4289436097
-52.154129 820.42749 1282.0977 4289436097
-2.3706422 820.42749 1282.0977 4288976582
-55.710091 822.23987 1283.6259 4289173958
-2.3706422 822.23987 1283.6259 4288910283
-55.494495 829.35217 1283.0825 4289173954
-4.7229357 829.35217 1283.0825 4288779461
-2.3614678 829.35217 1283.0825 4288910790
-4.704587 836.42932 1282.5096 4288780484
-2.3522935 836.42932 1282.5096 4288714435
-51.548622 842.57568 1281.1521 4288648382
-4.6862388 842.57568 1281.1521 4288516027
-4.6862388 844.36707 1282.6625 4288516281
-2.3431194 844.36707 1282.6625 4288450488
-52.555046 850.8656 1282.9097 4288319414
-9.3431196 849.97272 1282.1569 4288384442
-7.0073395 849.97272 1282.1569 4288581822
-4.6715598 850.8656 1282.9097 4288515767
-2.3357799 850.8656 1282.9097 4288384181
-23.266054 857.83752 1282.248 4288383927
-6.9798164 857.83752 1282.248 4288384442
-4.6532111 857.83752 1282.248 4288318899
-2.3266056 857.83752 1282.248 4288318899
-53.511925 859.61621 1283.7478 4288583100
-4.6532111 859.61621 1283.7478 4288252854
-2.3266056 859.61621 1283.7478 4288384440
-9.2697248 865.66028 1282.304 4287859643
-6.9522934 865.66028 1282.304 4287859643
-4.6348624 865.66028 1282.304 4287662771
-53.300919 867.43195 1283.7977 4288515256
-4.6348624 867.43195 1283.7977 4287663030
-2.3174312 867.43195 1283.7977 4287728823
-49.666969 872.06482 1282.4719 4288318900
-6.9302754 871.18176 1281.7273 4287859382
-4.6201835 871.18176 1281.7273 4287662521
-2.3100917 871.18176 1281.7273 4287859643
-48.319267 878.93152 1281.7216 4288188340
-10.354128 878.93152 1281.7216 4287793328
-6.9027524 878.93152 1281.7216 4287727532
-4.6018348 878.93152 1281.7216 4287333038
-49.469727 880.69055 1283.2048 4287990714
-10.354128 880.69055 1283.2048 4287530409
-6.9027524 880.69055 1283.2048 4287595940
-4.6018348 880.69055 1283.2048 4287464374
-2.3009174 880.69055 1283.2048 4287990718
-48.126606 886.63922 1281.6804 4288451015
-10.312843 886.63922 1281.6804 4287464625
-6.8752294 886.63922 1281.6804 4287596471
-50.41835 888.3913 1283.1577 4287792051
-6.8752294 888.3913 1283.1577 4287530678
-4.5834861 888.3913 1283.1577 4287531191
-2.291743 888.3913 1283.1577 4287531191
-50.256882 893.823 1282.5054 4287793073
-47.972477 892.07654 1281.0328 4287594929
-13.706422 892.94977 1281.769 4287661998
-10.279816 892.94983 1281.769 4287596462
-6.8532109 892.94977 1281.769 4287465133
-9.1376143 895.56946 1283.978 4287202199
-6.8532109 895.56946 1283.978 4287267992
-47.779816 901.45068 1282.3969 4288122299
-4.5504589 901.45068 1282.3969 4287070379
-47.779816 903.19019 1283.8635 4287530415
-4.5504589 903.19019 1283.8635 4287070118
-52.161469 908.56293 1283.1615 4287529897
-49.893578 906.8291 1281.6996 4287464876
-47.625687 907.69604 1282.4305 4287398828
-9.8275232 907.40704 1282.1869 4287070384
-6.8036699 908.56293 1283.1615 4287201970
-49.732109 913.91327 1282.4407 4287333295
-9.042202 913.91327 1282.4407 4287136174
-6.7816515 913.91327 1282.4407 4287136174
-4.521101 913.91327 1282.4407 4287136174
-49.732109 915.64148 1283.8978 4287398827
-6.7816515 915.64148 1283.8978 4287069868
-4.521101 915.64148 1283.8978 4287069616
-49.530273 922.29083 1282.9641 4287467177
-9.7559633 922.5777 1283.2061 4287069860
-6.7541285 922.29083 1282.9641 4286938530
-4.5027523 923.15143 1283.6898 4286477475
-47.124771 926.72723 1281.4728 4289043379
-16.830275 926.72723 1281.4728 4287135904
-13.46422 926.72723 1281.4728 4287333284
-49.368809 928.44275 1282.9193 4292067792
-47.124771 928.44275 1282.9193 4292199121
-44.880733 928.44275 1282.9193 4291674331
-24.684404 928.44275 1282.9193 4287594925
-20.196331 928.44275 1282.9193 4287070366
-16.830275 928.44275 1282.9193 4286872480
-43.579819 934.1712 1281.2092 4291870677
-40.227524 934.1712 1281.2092 4292068319
-37.992661 934.1712 1281.2092 4291936734
-34.640366 934.1712 1281.2092 4291871708
-58.877064 754.77606 1285.6035 4290622429
2.4532111 753.83832 1284.8127 4290424026
4.9064221 753.83832 1284.8127 4289831639
7.359633 754.77606 1285.6035 4289962709
9.8128443 754.77606 1285.6035 4290224339
13.083793 755.08862 1285.8671 4290355660
-58.656879 764.07947 1286.9076 4290292188
-56.212845 762.21094 1285.3322 4290358231
4.8880734 762.21094 1285.3322 4290094806
7.3321099 763.1452 1286.1199 4290292700
9.7761469 763.1452 1286.1199 4290554310
13.034863 763.4566 1286.3824 4290620104
-58.436699 768.68005 1284.2466 4290226642
7.3045874 768.68005 1284.2466 4290161633
9.7394495 769.61078 1285.0314 4290423240
12.174312 770.5415 1285.8162 4290423242
-60.596329 779.37079 1285.4126 4290555092
7.2715597 779.37079 1285.4126 4290160336
9.6954126 779.37079 1285.4126 4290291656
-60.596329 781.22388 1286.9751 4290227426
9.6954126 781.22388 1286.9751 4290291656
12.119267 781.22388 1286.9751 4290357449
-60.366974 785.76697 1284.2655 4289833170
4.8293576 785.76697 1284.2655 4289765841
7.2440367 785.76697 1284.2655 4290094806
9.6587152 785.76697 1284.2655 4290291654
-61.57431 787.61298 1285.822 4289767375
4.8293576 787.61298 1285.822 4289831637
7.2440367 787.61298 1285.822 4289897430
9.6587152 787.61298 1285.822 4290291143
-60.137615 793.974 1284.6454 4290029781
1.2027524 793.974 1284.6454 4289765843
4.8110094 793.974 1284.6454 4289634253
-60.137615 795.81299 1286.196 4290027733
1.2027524 795.81299 1286.196 4289568464
4.8110094 795.81299 1286.196 4289173706
7.2165136 795.81299 1286.196 4291147496
-58.710091 803.05505 1285.7621 4289699792
1.1981652 803.05505 1285.7621 4289108941
4.7926607 803.05505 1285.7621 4289173963
-58.485321 811.17444 1286.0681 4289437637
1.193578 810.26196 1285.2987 4288911304
4.774312 811.17444 1286.0681 4288910535
7.161468 812.08698 1286.8374 4291344876
-57.115597 816.91199 1285.6736 4289436866
1.1899083 816.91199 1285.6736 4288975812
4.7596331 816.91199 1285.6736 4288647359
-56.895412 824.05225 1285.1539 4289174726
0 824.05225 1285.1539 4288845253
-59.266056 825.86462 1286.6821 4289239245
0 825.86462 1286.6821 4288780230
-55.494495 832.96283 1286.1271 4288976831
-2.3614678 832.06018 1285.366 4288714175
-54.102753 838.22766 1284.026 4288779198
-2.3522935 838.22766 1284.026 4288714175
-54.102753 840.026 1285.5424 4288779198
-2.3522935 840.026 1285.5424 4288450234
-53.891743 846.15839 1284.1729 4288582589
-2.3431194 846.15839 1284.1729 4288582076
-53.722935 853.54419 1285.1682 4288845505
-2.3357799 853.54419 1285.1682 4288121775
-53.722935 855.3299 1286.6738 4288583100
-53.511925 862.28424 1285.9976 4288517049
-2.3266056 862.28424 1285.9976 4287925429
-53.300919 869.20361 1285.2916 4288384442
1.1587156 869.20361 1285.2916 4287793334
-53.300919 870.97534 1286.7854 4288384438
-50.983486 870.97534 1286.7854 4287989935
1.1587156 870.97534 1286.7854 4287727280
4.6348624 870.97534 1286.7854 4287727543
-48.511925 874.71393 1284.7056 4288122034
-4.6201835 874.71393 1284.7056 4287727541
1.1550459 874.71393 1284.7056 4287793575
4.6201835 874.71393 1284.7056 4287727290
-50.822018 876.47998 1286.1947 4287859632
-2.3100917 876.47998 1286.1947 4287925175
2.3100917 876.47998 1286.1947 4287728043
4.6201835 876.47998 1286.1947 4287465137
-50.620182 883.32922 1285.4296 4287662008
-6.9027524 882.44965 1284.688 4287530415
-4.6018348 883.32922 1285.4296 4287530421
-2.3009174 883.32922 1285.4296 4287596214
4.6018348 884.20874 1286.1711 4287661996
-50.41835 890.14331 1284.635 4287792051
-4.5834861 890.14331 1284.635 4287399862
-2.291743 890.14331 1284.635 4287531191
-52.710091 891.89539 1286.1123 4287727541
-4.5834861 891.89539 1286.1123 4287400366
-2.291743 891.89539 1286.1123 4287400366
-50.256882 898.18909 1286.1868 4287398831
-4.5688071 897.31592 1285.4506 4287267494
-2.2844036 899.06232 1286.9231 4287399344
-52.330276 904.92957 1285.3301 4287661485
-6.8256879 904.92957 1285.3301 4287464885
-4.5504589 904.92957 1285.3301 4287333034
-54.605503 906.66901 1286.7968 4287529897
-4.5504589 906.66901 1286.7968 4287333295
-52.161469 910.29675 1284.6234 4287333034
-6.8036699 910.29675 1284.6234 4287070643
-4.53578 910.29675 1284.6234 4287136172
-52.161469 912.03064 1286.0853 4287333034
-2.26789 912.03064 1286.0853 4287070381
-51.992661 917.36969 1285.355 4287201445
-49.732109 917.36969 1285.355 4287332520
-6.7816515 917.36969 1285.355 4287201195
-4.521101 917.36969 1285.355 4287003821
-2.2605505 917.36969 1285.355 4287069614
-51.992661 919.0979 1286.8123 4287136676
-4.521101 919.0979 1286.8123 4286872235
-2.2605505 919.0979 1286.8123 4286938028
-49.530273 924.87262 1285.1411 4289372087
-13.508257 926.59381 1286.5924 4287070631
-10.131193 925.73322 1285.8667 4286939040
-6.7541285 925.73322 1285.8667 4286675866
-4.5027523 925.73322 1285.8667 4286872745
-2.2513762 925.73322 1285.8667 4286938538
-49.368809 931.01617 1285.0891 4292068054
-47.124771 931.01617 1285.0891 4292068055
-31.416513 931.87396 1285.8124 4291739352
-29.172478 931.87396 1285.8124 4291805145
-25.806423 931.01617 1285.0891 4289569491
-22.440367 930.15839 1284.3658 4287531423
-20.196331 930.15839 1284.3658 4287662752
-58.877064 757.58936 1287.9755 4290753240
9.8128443 757.58936 1287.9755 4290488786
13.492661 757.58936 1287.9755 4290554319
-58.877064 759.46484 1289.5569 4290424280
14.719266 759.46484 1289.5569 4290620107
17.172478 759.46484 1289.5569 4290620107
13.442202 765.94794 1288.4832 4290554567
17.108257 765.94794 1288.4832 4290554310
-60.871559 772.40302 1287.3857 4290687695
9.7394495 772.40302 1287.3857 4290489291
13.391743 772.40302 1287.3857 4290489033
-60.871559 774.26447 1288.9552 4290753744
13.391743 774.26447 1288.9552 4290423238
-63.020184 783.0769 1288.5375 4289635791
12.119267 783.0769 1288.5375 4290357703
-61.976757 790.0744 1287.8973 4289964500
7.2440367 790.38202 1288.1567 4290160085
9.6587152 790.38202 1288.1567 4290159814
12.073395 790.38202 1288.1567 4290159813
-61.340366 797.65204 1287.7466 4289699798
4.8110094 797.65204 1287.7466 4289305038
7.2165136 797.65204 1287.7466 4291739636
9.6220188 797.65204 1287.7466 4292462561
-62.543118 799.49109 1289.2972 4289502672
7.2165136 799.49109 1289.2972 4291739634
9.6220188 799.49109 1289.2972 4293120494
-59.908257 805.80304 1288.0791 4289700298
4.7926607 805.80304 1288.0791 4288713923
7.1889906 805.80304 1288.0791 4291411436
-59.908257 807.63507 1289.6239 4289437644
7.1889906 807.63507 1289.6239 4291476205
9.5853214 807.63507 1289.6239 4292331253
-62.066055 815.73694 1289.915 4289436349
-59.678898 814.82446 1289.1456 4289437115
7.161468 814.82446 1289.1456 4291147493
-59.495415 820.55072 1288.7417 4289371334
1.5865444 820.2475 1288.4861 4288911300
4.7596331 820.55072 1288.7417 4288977594
7.1394496 820.55072 1288.7417 4290819542
-59.266056 827.677 1288.2102 4289173702
1.1853211 827.677 1288.2102 4288582853
-59.266056 829.48938 1289.7384 4288977091
1.1853211 829.48938 1289.7384 4288780232
4.7412844 829.48938 1289.7384 4288583102
7.1119266 829.48938 1289.7384 4290162135
9.4825687 829.48938 1289.7384 4290818782
-56.675228 835.6709 1288.4104 4288844991
0 835.6709 1288.4104 4288713405
-56.675228 837.47626 1289.9326 4288844991
-54.102753 841.82434 1287.0586 4288713405
0.78103977 850.93524 1288.2007 4288514746
4.6862388 851.53235 1288.7041 4288449982
7.0293579 851.53235 1288.7041 4288910533
1.16789 857.1156 1288.1796 4288384189
-56.058716 858.90131 1289.6852 4288451769
1.16789 858.90131 1289.6852 4288384442
4.6715598 858.90131 1289.6852 4288252604
1.1633028 864.95233 1288.2472 4287728309
4.6532111 866.73102 1289.7469 4287727543
-50.983486 872.74707 1288.2793 4287990448
6.9522934 872.74707 1288.2793 4288319427
-53.300919 874.51874 1289.7732 4288056243
0 874.51874 1289.7732 4287925423
6.9522934 874.51874 1289.7732 4287991481
10.42844 874.51874 1289.7732 4290685651
1.1550459 878.24609 1287.6838 4287859630
4.6201835 878.24609 1287.6838 4287661998
6.9302754 878.24609 1287.6838 4288188342
-53.132111 880.01221 1289.173 4288121525
1.1550459 880.01221 1289.173 4287793332
4.6201835 880.01221 1289.173 4287661737
6.9302754 880.01221 1289.173 4287793323
10.395412 880.01221 1289.173 4287596467
13.860551 880.01221 1289.173 4289241273
-52.921101 887.72687 1289.1376 4287661748
0 886.84729 1288.396 4287530688
-52.710091 893.64746 1287.5896 4287857844
-4.5834861 893.64746 1287.5896 4287202470
-2.291743 893.64746 1287.5896 4287399592
-52.710091 895.39954 1289.0669 4287463091
-2.291743 895.39954 1289.0669 4287464874
-50.256882 900.80878 1288.3956 4287464622
-2.2844036 901.68201 1289.1318 4287333034
-54.605503 908.40845 1288.2634 4287070118
-2.2752295 908.40845 1288.2634 4287136172
-54.605503 910.14789 1289.7301 4286872483
0 910.14789 1289.7301 4286740644
-52.161469 913.7644 1287.5472 4287333547
-2.26789 913.7644 1287.5472 4287200945
-51.992661 920.82611 1288.2694 4288782528
-2.2605505 920.82611 1288.2694 4286806440
-51.992661 922.55432 1289.7266 4290687947
-18.011009 928.315 1288.0437 4287333801
-15.759633 928.315 1288.0437 4287070629
-13.508257 928.315 1288.0437 4287070379
-10.131193 928.315 1288.0437 4287070122
-6.7541285 928.315 1288.0437 4287069866
-4.5027523 928.315 1288.0437 4287069866
-2.2513762 928.315 1288.0437 4287266988
-22.513762 930.03619 1289.4949 4290097095
-19.136696 930.03619 1289.4949 4289702344
-15.759633 930.03619 1289.4949 4289373384
-4.5027523 930.03619 1289.4949 4287133079
-47.124771 934.44739 1287.9822 4291936980
-43.758713 933.58954 1287.2589 4291936213
-40.392662 933.58954 1287.2589 4291936745
-38.148624 934.44739 1287.9822 4291871202
-34.408566 934.16144 1287.7411 4291806166
-31.416513 933.58954 1287.2589 4292068819
-29.172478 933.58954 1287.2589 4292068819
-22.440367 935.30518 1288.7056 4291475149
-61.559631 754.83624 1292.1943 4290753252
17.236698 754.83624 1292.1943 4290093509
19.699083 754.83624 1292.1943 4289895617
-61.330276 761.34033 1291.1383 4290490334
17.172478 761.34033 1291.1383 4290619592
19.625689 761.34033 1291.1383 4290421707
-61.330276 763.21582 1292.7196 4290621654
19.625689 763.21582 1292.7196 4290159043
22.078899 763.21582 1292.7196 4290421959
-61.100918 767.81641 1290.0586 4290621904
14.66422 767.81641 1290.0586 4290619844
17.108257 767.81641 1290.0586 4290554051
19.552294 767.81641 1290.0586 4290488517
-63.544952 769.68494 1291.634 4290556109
17.108257 769.68494 1291.634 4290554312
19.552294 769.68494 1291.634 4290489037
-63.306423 776.12592 1290.5248 4290028748
13.391743 776.12592 1290.5248 4290422729
-63.306423 777.98743 1292.0944 4289832668
14.609175 777.98743 1292.0944 4290291145
13.331193 784.92993 1290.1 4290357188
14.543119 786.78302 1291.6624 4290488769
-65.196327 794.99713 1292.0481 4289832139
-62.781651 793.15112 1290.4916 4289961939
9.6587152 793.15112 1290.4916 4291017178
13.280734 794.07416 1291.2699 4291147228
16.902752 794.99713 1292.0481 4290882791
36.220184 794.0741 1291.2698 4290159818
-64.948624 802.24963 1291.6232 4289765582
-62.543118 802.24963 1291.6232 4289568971
7.2165136 801.33008 1290.8479 4291543025
9.6220188 802.24963 1291.6232 4292660458
13.230275 802.24963 1291.6232 4293844731
16.838531 803.16913 1292.3984 4293186798
-62.304588 809.46704 1291.1686 4289109181
9.5853214 809.46704 1291.1686 4291936497
-64.70092 811.29907 1292.7133 4289503428
-62.304588 811.29907 1292.7133 4289043379
10.783486 811.29907 1292.7133 4292660215
14.377981 811.29907 1292.7133 4293253095
16.774311 811.29907 1292.7133 4293187302
19.170643 811.29907 1292.7133 4293054712
-62.066055 817.56201 1291.4539 4289305540
10.742202 817.56201 1291.4539 4292463091
14.322936 817.56201 1291.4539 4293055464
16.710093 817.56201 1291.4539 4292792292
-62.066055 819.38696 1292.9927 4289173956
10.742202 819.38696 1292.9927 4292069103
14.322936 819.38696 1292.9927 4292660708
16.710093 819.38696 1292.9927 4292989417
19.097248 819.38696 1292.9927 4292793578
-61.875229 823.27979 1291.0428 4289173452
2.3798165 823.27979 1291.0428 4288319679
4.7596331 823.27979 1291.0428 4288583102
7.1394496 823.27979 1291.0428 4290622686
10.709174 823.27979 1291.0428 4292068846
14.278899 823.27979 1291.0428 4293055210
16.658716 823.27979 1291.0428 4293187052
-61.875229 825.09918 1292.5769 4289239751
4.7596331 825.09918 1292.5769 4288123322
7.1394496 825.09918 1292.5769 4290294234
10.709174 825.09918 1292.5769 4291871726
14.278899 825.09918 1292.5769 4292924398
16.658716 825.09918 1292.5769 4292595433
19.038532 825.09918 1292.5769 4292464108
-59.266056 832.20795 1292.0306 4288846275
1.5804281 831.90594 1291.776 4288582589
4.7412844 832.20795 1292.0306 4288319417
7.1119266 832.20795 1292.0306 4289700813
10.667891 832.20795 1292.0306 4291870705
14.223853 833.11414 1292.7947 4292792805
16.594496 833.11414 1292.7947 4292464097
-56.675228 839.28162 1291.4548 4288844991
1.1807339 839.28162 1291.4548 4288581040
4.7229357 839.28162 1291.4548 4288384690
7.0844035 839.28162 1291.4548 4289503428
9.4458714 839.28162 1291.4548 4290161090
-56.675228 841.08698 1292.9771 4288845505
1.1807339 841.08698 1292.9771 4288582324
4.7229357 841.08698 1292.9771 4287991472
7.0844035 841.08698 1292.9771 4289241283
10.626606 841.08698 1292.9771 4291345112
-56.455048 845.42102 1290.0913 4288713405
1.1761467 845.42102 1290.0913 4288712629
4.704587 845.42102 1290.0913 4288253872
7.056881 845.42102 1290.0913 4289241024
-56.455048 847.21942 1291.6075 4288319931
2.3522935 847.21942 1291.6075 4288645559
4.704587 847.21942 1291.6075 4288121525
7.056881 847.21942 1291.6075 4289437129
9.409174 847.21942 1291.6075 4290094793
-56.234863 853.32373 1290.2145 4288583100
1.1715597 853.32373 1290.2145 4288252857
4.6862388 853.32373 1290.2145 4288449982
7.0293579 853.32373 1290.2145 4287660722
-58.57798 855.11505 1291.7249 4288451517
-56.234863 855.11505 1291.7249 4288451771
4.6862388 855.11505 1291.7249 4288252602
7.0293579 855.11505 1291.7249 4287857844
9.3724775 855.11505 1291.7249 4287528382
-56.058716 860.68701 1291.1909 4288582585
1.16789 860.68701 1291.1909 4288056758
4.6715598 860.68701 1291.1909 4288252600
7.0073395 860.68701 1291.1909 4288516029
-56.058716 862.47278 1292.6965 4288515256
4.6715598 862.47278 1292.6965 4287727026
7.0073395 862.47278 1292.6965 4287990198
-55.838531 868.50977 1291.2467 4288384438
6.9798164 868.50977 1291.2467 4288451267
-53.511925 870.28845 1292.7465 4288253876
10.469725 870.28845 1292.7465 4289501879
13.959633 870.28845 1292.7465 4287725775
-55.618347 878.06213 1292.7609 4288252854
-53.300919 876.29041 1291.267 4288122036
10.42844 876.29041 1291.267 4290292440
13.904587 876.29041 1291.267 4292067542
16.222019 878.06213 1292.7609 4291346393
-53.132111 881.77826 1290.6621 4287859382
1.1550459 881.77826 1290.6621 4287530681
6.9302754 881.77826 1290.6621 4287859632
10.395412 881.77826 1290.6621 4286939559
13.860551 881.77826 1290.6621 4289107868
-53.132111 883.54431 1292.1511 4287661494
2.3100917 883.54431 1292.1511 4287530940
4.6201835 883.54431 1292.1511 4287465637
6.9302754 883.54431 1292.1511 4287531430
10.395412 883.54431 1292.1511 4286020258
13.860551 883.54431 1292.1511 4286870397
16.170643 883.54431 1292.1511 4287857292
-55.222019 889.48596 1290.6208 4287727541
1.1504587 889.48596 1290.6208 4287399090
-55.222019 891.245 1292.104 4287792051
1.1504587 891.245 1292.104 4287399083
4.6018348 891.245 1292.104 4287464622
6.9027524 891.245 1292.104 4287464622
10.354128 891.245 1292.104 4288910539
13.805505 891.245 1292.104 4289306033
16.106422 891.245 1292.104 4287660951
-52.710091 898.02759 1291.2828 4287528889
1.1458715 898.02759 1291.2828 4287333036
4.5834861 898.02759 1291.2828 4287136177
-2.2844036 904.3017 1291.3408 4287201966
-54.605503 911.88733 1291.1967 4287202218
1.1376147 911.88733 1291.1967 4286938280
-54.605503 913.62671 1292.6633 4287070116
1.1376147 913.62671 1292.6633 4287069866
-54.429359 917.23206 1290.4711 4287465385
-54.429359 918.96588 1291.933 4289374922
1.133945 918.96588 1291.933 4286937256
13.60734 918.96588 1291.933 4289633710
-51.992661 925.14661 1291.9124 4292133857
1.1302752 926.01074 1292.6409 4286740897
-49.530273 931.75739 1290.9462 4292068053
-27.016514 931.75739 1290.9462 4291805647
-24.765137 931.75739 1290.9462 4291476938
-22.513762 931.75739 1290.9462 4291345611
-19.136696 931.75739 1290.9462 4290753481
-49.530273 933.47858 1292.3975 4291871957
-45.027523 933.47858 1292.3975 4291871444
-42.776146 933.47858 1292.3975 4291871444
-40.524769 933.47858 1292.3975 4291871708
-36.022018 933.47858 1292.3975 4291608786
-31.519266 933.47858 1292.3975 4291805912
-28.1422 933.47858 1292.3975 4291739605
-19.136696 933.47858 1292.3975 4291475406
-64.022018 758.60126 1295.3689 4290556127
-61.559631 756.71875 1293.7816 4290686943
19.699083 756.71875 1293.7816 4290357449
22.161469 757.66003 1294.5752 4290225095
24.623854 758.60126 1295.3689 4290291145
28.317432 758.60126 1295.3689 4290291139
-63.783485 765.09131 1294.301 4290424526
22.078899 766.02905 1295.0917 4290422984
25.758717 766.02905 1295.0917 4290357953
29.438532 766.02905 1295.0917 4290160319
31.891743 766.02905 1295.0917 4290160319
34.344955 766.9668 1295.8823 4290158789
36.798164 766.9668 1295.8823 4290487754
39.251377 766.9668 1295.8823 4290159305
-63.544952 771.55341 1293.2095 4290358987
17.108257 772.48767 1293.9972 4290488520
19.552294 772.48767 1293.9972 4290422735
21.99633 771.55341 1293.2095 4290488786
14.609175 779.84888 1293.6639 4290094530
17.044037 779.84888 1293.6639 4290226115
-65.741287 781.71033 1295.2334 4290491095
17.044037 781.71033 1295.2334 4290225598
19.478899 781.71033 1295.2334 4290226104
-65.444038 788.63611 1293.2249 4289832904
14.543119 788.63611 1293.2249 4290094534
16.966972 788.63611 1293.2249 4290489291
-65.444038 790.48914 1294.7874 4290029254
16.966972 790.48914 1294.7874 4290029002
19.390825 790.48914 1294.7874 4289766586
-65.196327 796.8432 1293.6047 4289634503
13.280734 796.8432 1293.6047 4293910269
16.902752 796.8432 1293.6047 4293384184
19.31743 796.8432 1293.6047 4293055716
21.732111 796.8432 1293.6047 4292989923
26.561468 796.8432 1293.6047 4291544278
28.976147 796.8432 1293.6047 4290819797
31.390825 796.8432 1293.6047 4289569986
33.805504 796.8432 1293.6047 4289765051
36.220184 796.8432 1293.6047 4289896637
16.902752 798.68921 1295.1613 4293581306
19.31743 798.68921 1295.1613 4293516265
21.732111 798.68921 1295.1613 4293384936
25.35413 798.68921 1295.1613 4292529622
28.976147 798.68921 1295.1613 4291476205
31.390825 798.68921 1295.1613 4290884325
33.805504 798.68921 1295.1613 4290490043
36.220184 798.68921 1295.1613 4290029492
-64.948624 806.84717 1295.4998 4289634244
-62.543118 805.00818 1293.9491 4289371851
13.230275 805.92767 1294.7244 4293515762
16.838531 805.92767 1294.7244 4293318371
19.244038 805.92767 1294.7244 4292990183
21.649542 806.84717 1295.4998 4293187311
25.257797 806.84717 1295.4998 4293253610
28.866055 806.84717 1295.4998 4293187052
31.271559 806.84717 1295.4998 4293252845
-64.70092 814.04712 1295.0303 4288977338
10.783486 813.1311 1294.2579 4292660470
14.377981 813.1311 1294.2579 4293253097
16.774311 813.1311 1294.2579 4292989669
19.170643 814.04712 1295.0303 4292792299
22.765137 814.96313 1295.8027 4292726763
-64.453209 821.21198 1294.5314 4288977084
19.097248 821.21198 1294.5314 4292661989
22.677982 821.21198 1294.5314 4292596196
-61.875229 826.91858 1294.111 4289043140
11.899082 826.91858 1294.111 4292989950
14.278899 826.91858 1294.111 4292858349
16.658716 826.91858 1294.111 4292595433
19.038532 826.91858 1294.111 4292594931
22.608257 826.91858 1294.111 4292727023
-61.875229 828.73798 1295.645 4288912068
14.278899 828.73798 1295.645 4292661737
16.658716 828.73798 1295.645 4292464358
19.038532 828.73798 1295.645 4292266213
22.608257 828.73798 1295.645 4292200416
26.177982 828.73798 1295.645 4292594913
28.557798 828.73798 1295.645 4292333277
-59.266056 835.8327 1295.0869 4288648643
1.1853211 834.92651 1294.3229 4288384945
4.7412844 834.92651 1294.3229 4288450486
7.1119266 834.92651 1294.3229 4289634503
11.062997 835.53058 1294.8322 4291936998
14.223853 835.8327 1295.0869 4292595170
16.594496 835.8327 1295.0869 4292331741
18.965137 835.8327 1295.0869 4292200668
22.521101 835.8327 1295.0869 4292069592
26.077065 835.8327 1295.0869 4292069589
28.447706 836.73889 1295.851 4292003546
35.559631 836.73889 1295.851 4291937501
37.930275 836.73889 1295.851 4292003294
-59.036697 842.89233 1294.4993 4288648643
10.626606 842.89233 1294.4993 4291475419
14.168807 842.89233 1294.4993 4292396505
16.530275 842.89233 1294.4993 4292067540
18.891743 842.89233 1294.4993 4292068317
-61.159634 850.8161 1294.6403 4288648382
-58.807339 850.8161 1294.6403 4288648382
-56.455048 849.01776 1293.1239 4288648382
10.585321 849.91693 1293.8821 4288908206
14.113762 849.91693 1293.8821 4288906653
16.466055 849.91693 1293.8821 4289696169
18.818348 849.91693 1293.8821 4290290586
21.170643 850.8161 1294.6403 4288973427
-60.921101 856.90637 1293.2354 4288385724
-58.57798 856.90637 1293.2354 4288451517
7.0293579 856.90637 1293.2354 4288778948
10.544037 856.90637 1293.2354 4289701834
14.058716 856.90637 1293.2354 4291410893
16.401834 856.90637 1293.2354 4290292156
18.744955 856.90637 1293.2354 4287601323
-60.921101 858.69775 1294.7457 4288385472
-58.57798 858.69775 1294.7457 4288451521
10.544037 858.69775 1294.7457 4289373089
14.058716 858.69775 1294.7457 4289702590
16.401834 858.69775 1294.7457 4289702590
18.744955 858.69775 1294.7457 4287401127
21.088074 858.69775 1294.7457 4283190375
-58.394497 866.04419 1295.708 4288385458
-56.058716 864.25848 1294.2023 4288384442
7.0073395 864.25848 1294.2023 4288582596
10.511009 865.15137 1294.9551 4287398566
14.014679 865.15137 1294.9551 4284899449
16.350458 865.15137 1294.9551 4281938764
18.686239 866.04419 1295.708 4282400330
-55.838531 872.06714 1294.2462 4288056243
13.959633 872.06714 1294.2462 4291937247
16.286238 872.06714 1294.2462 4291213780
-55.838531 873.84589 1295.746 4288122036
16.286238 873.84589 1295.746 4292067542
18.612844 873.84589 1295.746 4291411155
-55.618347 880.71967 1295.0016 4287793591
16.222019 879.8338 1294.2546 4291805638
19.311928 881.01495 1295.2506 4286476717
23.174313 881.60553 1295.7485 4283577402
-57.752293 887.07654 1295.1294 4287661996
-55.442204 885.31042 1293.6403 4287727541
2.3100917 885.31042 1293.6403 4287596485
4.6201835 886.19348 1294.3848 4287465379
6.9302754 886.19348 1294.3848 4287596708
10.395413 886.19348 1294.3848 4286872231
13.860551 886.19348 1294.3848 4286479495
16.170643 886.19348 1294.3848 4285624186
19.250765 886.48779 1294.6329 4286476149
-55.222019 893.00409 1293.5872 4287528884
1.1504587 893.00409 1293.5872 4287464620
4.6018348 893.00409 1293.5872 4287266988
6.9027524 893.00409 1293.5872 4287201195
10.354128 893.00409 1293.5872 4289237701
13.805505 893.00409 1293.5872 4291210709
16.106422 893.00409 1293.5872 4290750158
-55.222019 894.76312 1295.0704 4287659968
6.9027524 894.76312 1295.0704 4287070129
10.354128 894.76312 1295.0704 4289303492
13.805505 894.76312 1295.0704 4291210457
16.106422 894.76312 1295.0704 4290881749
1.1458715 901.53174 1294.2374 4287135914
4.5834861 901.53168 1294.2374 4287267248
6.8752294 902.40771 1294.9761 4286938278
-57.110092 907.79456 1294.2859 4287135139
2.2844036 907.79456 1294.2859 4286938280
4.5688071 907.79456 1294.2859 4287201184
-57.110092 909.54102 1295.7584 4287202472
4.5688071 909.54102 1295.7584 4286872471
6.8532109 909.54102 1295.7584 4287003801
10.279816 909.54102 1295.7584 4288253620
13.706422 909.54102 1295.7584 4290291143
-56.880733 916.2359 1294.8633 4289109954
1.1376147 915.36621 1294.13 4287069866
4.5504589 916.2359 1294.8633 4286806436
6.8256879 916.2359 1294.8633 4286674851
10.238532 916.2359 1294.8633 4288251823
13.651376 915.36621 1294.13 4290225600
15.926605 916.2359 1294.8633 4290094266
18.960245 916.52582 1295.1078 4290094512
-54.429359 920.69971 1293.3949 4291148498
1.133945 920.69971 1293.3949 4286675370
4.53578 920.69971 1293.3949 4286806691
6.8036699 920.69971 1293.3949 4287004071
13.60734 920.69971 1293.3949 4289697138
15.875229 920.69971 1293.3949 4290289276
18.14312 920.69971 1293.3949 4290289832
-54.429359 922.43353 1294.8568 4292528103
1.133945 922.43353 1294.8568 4286478242
4.53578 922.43353 1294.8568 4286740894
6.8036699 922.43353 1294.8568 4286938530
10.205505 922.43353 1294.8568 4286739870
13.60734 922.43353 1294.8568 4287722612
15.875229 922.43353 1294.8568 4287722612
19.277065 922.43353 1294.8568 4288442736
-54.253212 929.46716 1295.5553 4292397266
-51.992661 928.60303 1294.8267 4292331992
-15.823853 929.46716 1295.5553 4290293193
-13.563303 928.60303 1294.8267 4288978378
-10.172478 928.60303 1294.8267 4288253360
-6.7816515 928.60303 1294.8267 4287989148
-4.521101 929.46716 1295.5553 4287660970
-2.2605505 928.60303 1294.8267 4287462817
1.1302752 927.73895 1294.0981 4286609564
4.521101 927.73895 1294.0981 4286346138
-33.770641 935.19983 1293.8488 4291804884
-29.267889 935.19983 1293.8488 4291871708
24.715597 753.9726 1298.0062 4290027966
28.422935 753.9726 1298.0062 4290159290
-64.022018 760.48376 1296.9562 4290621654
24.623854 760.48376 1296.9562 4290619844
28.317432 760.48376 1296.9562 4290489283
32.011009 760.48376 1296.9562 4290227137
-66.484406 762.36627 1298.5435 4290358744
34.473396 762.36627 1298.5435 4290224846
36.93578 762.36627 1298.5435 4290356688
39.398167 762.36627 1298.5435 4290224335
-66.236694 768.84229 1297.4637 4290490332
25.758717 768.84229 1297.4637 4290554565
29.438532 768.84229 1297.4637 4290225350
31.891743 768.84229 1297.4637 4290159556
34.344955 768.84229 1297.4637 4290225098
36.798164 768.84229 1297.4637 4290751442
39.251377 768.84229 1297.4637 4290225096
17.108257 775.29034 1296.3604 4290291145
19.552294 775.29034 1296.3604 4290356936
21.99633 775.29034 1296.3604 4290356936
36.660549 775.29034 1296.3604 4290290891
-65.988991 777.15887 1297.9358 4290228428
19.552294 777.15887 1297.9358 4290226113
21.99633 777.15887 1297.9358 4290291906
25.662384 777.15887 1297.9358 4290226367
29.32844 777.15887 1297.9358 4289830842
31.772476 777.15887 1297.9358 4290159806
34.216515 777.15887 1297.9358 4290159808
36.660549 777.15887 1297.9358 4290291395
-65.741287 783.57184 1296.803 4290030798
17.044037 783.57184 1296.803 4290488769
19.478899 784.50256 1297.5878 4290291652
21.913761 784.50256 1297.5878 4290291908
26.783485 785.43329 1298.3726 4290555081
34.088074 785.43329 1298.3726 4290291656
36.522934 785.43329 1298.3726 4290555085
19.390825 792.34216 1296.3497 4290292408
21.814678 792.34216 1296.3497 4290095286
25.450459 793.26868 1297.131 4290885323
29.086239 792.34216 1296.3497 4290028736
33.933945 792.34216 1296.3497 4290094797
19.31743 800.53528 1296.7178 4293318888
21.732111 800.53528 1296.7178 4293318888
25.35413 800.53528 1296.7178 4292989923
28.976147 800.53528 1296.7178 4293186800
31.390825 800.53528 1296.7178 4293186800
33.805504 800.53528 1296.7178 4293121255
36.220184 800.53528 1296.7178 4293055462
-65.196327 802.38135 1298.2743 4289765830
21.732111 802.38135 1298.2743 4293384936
25.35413 802.38135 1298.2743 4293318890
28.976147 802.38135 1298.2743 4293318638
31.390825 802.38135 1298.2743 4293187052
33.805504 802.38135 1298.2743 4293253097
36.220184 802.38135 1298.2743 4293187304
21.649542 808.68622 1297.0503 4293186298
25.257797 808.68622 1297.0503 4293253098
28.866055 808.68622 1297.0503 4293186789
31.271559 808.68622 1297.0503 4293186789
33.677063 808.68622 1297.0503 4293055712
-69.759636 810.52527 1298.601 4291082453
-67.354126 810.52527 1298.601 4290161353
21.649542 810.52527 1298.601 4292792042
25.257797 810.52527 1298.601 4292923367
28.866055 810.52527 1298.601 4292660704
31.271559 810.52527 1298.601 4292792546
33.677063 810.52527 1298.601 4292792546
37.285324 810.52527 1298.601 4292792547
-69.493576 818.62714 1298.8921 4290555355
-67.097244 818.62714 1298.8921 4289700550
-64.70092 816.79517 1297.3474 4289042875
22.765137 816.79517 1297.3474 4292529892
26.359632 817.71118 1298.1198 4292595940
28.755962 817.71118 1298.1198 4292530656
31.152294 818.62714 1298.8921 4292596448
34.746788 818.62714 1298.8921 4292596446
38.341286 818.62714 1298.8921 4292530149
40.737614 818.62714 1298.8921 4292596198
-64.453209 823.03699 1296.0702 4289239749
22.677982 823.03699 1296.0702 4292661739
26.258715 823.94946 1296.8396 4292661991
28.645872 823.94946 1296.8396 4292332509
31.033028 823.94946 1296.8396 4292332508
34.613762 823.94952 1296.8396 4292398046
38.194496 823.94946 1296.8396 4292398816
40.58165 823.94946 1296.8396 4292398816
19.038532 830.55737 1297.1791 4292266211
22.608257 830.55737 1297.1791 4292069342
26.177982 830.55737 1297.1791 4292464097
28.557798 830.55737 1297.1791 4292398552
30.937614 830.55737 1297.1791 4292793309
34.507339 830.55737 1297.1791 4292332508
38.077065 830.55737 1297.1791 4292266715
-61.875229 832.37677 1298.7131 4288780484
28.557798 832.37677 1298.7131 4291936719
30.937614 832.37677 1298.7131 4292397270
34.507339 832.37677 1298.7131 4291805913
38.077065 832.37677 1298.7131 4292068569
-61.636696 838.55127 1297.3792 4288779200
-59.266056 838.55127 1297.3792 4288910787
14.223853 838.55127 1297.3792 4292396251
16.594496 838.55127 1297.3792 4292067542
18.965137 838.55127 1297.3792 4291937239
22.521101 838.55127 1297.3792 4291805650
26.077065 838.55127 1297.3792 4292134612
28.447706 838.55127 1297.3792 4292003796
30.818348 838.55127 1297.3792 4292003796
34.374313 838.55127 1297.3792 4291871456
37.930275 838.55127 1297.3792 4292003292
-61.636696 840.36365 1298.9072 4288648643
22.521101 840.36365 1298.9072 4292069081
26.077065 840.36365 1298.9072 4292135382
28.447706 840.36365 1298.9072 4291872207
30.818348 840.36365 1298.9072 4291938001
34.374313 840.36365 1298.9072 4291937251
37.930275 840.36365 1298.9072 4291937499
-59.036697 844.69769 1296.0215 4288582848
11.80734 844.69769 1296.0215 4292463341
14.168807 844.69769 1296.0215 4292594398
16.530275 844.69769 1296.0215 4292594398
18.891743 844.69769 1296.0215 4292397786
21.25321 844.69769 1296.0215 4292200407
-61.398167 846.50305 1297.5438 4288648382
-59.036697 846.50305 1297.5438 4288648382
22.433945 846.50305 1297.5438 4292397517
-72.921104 854.41278 1297.6729 4291147467
-64.688072 854.41278 1297.6729 4288582837
-61.159634 852.61444 1296.1565 4288451517
11.761468 852.61444 1296.1565 4286541487
14.113762 852.61444 1296.1565 4286406273
16.466055 852.61444 1296.1565 4285748600
18.818348 852.61444 1296.1565 4287200348
22.34679 853.51361 1296.9147 4285229151
25.875229 854.41278 1297.6729 4282269246
28.227524 854.41278 1297.6729 4283910212
31.755962 854.41278 1297.6729 4286343271
35.284405 854.41278 1297.6729 4288447364
-58.57798 860.48901 1296.2561 4288188090
10.544037 860.48901 1296.2561 4286347408
14.058716 860.48901 1296.2561 4283587423
16.401834 860.48901 1296.2561 4282929236
18.744955 860.48901 1296.2561 4283254915
