# .PCD v0.7 - Point Cloud Data file format
VERSION 0.7
FIELDS x y z rgb
SIZE 4 4 4 4
TYPE F F F U
COUNT 1 1 1 1
WIDTH 1159
HEIGHT 1
VIEWPOINT 0 0 0 1 0 0 0
POINTS 1159
DATA ascii
-11.256881 916.2666 1277.8848 4287793307
-4.5027523 916.2666 1277.8848 4287463852
-2.2513762 916.2666 1277.8848 4287463852
0 916.2666 1277.8848 4287463850
4.5027523 916.2666 1277.8848 4287332520
22.513762 916.2666 1277.8848 4288703607
24.765137 916.2666 1277.8848 4288308849
-15.708257 919.86487 1275.6866 4288910494
-13.46422 919.86487 1275.6866 4288056732
-11.220183 919.86487 1275.6866 4287661974
-6.73211 919.86487 1275.6866 4287201447
-4.4880733 919.86487 1275.6866 4287267242
-2.2440367 919.86487 1275.6866 4287333036
4.4880733 919.86487 1275.6866 4287595177
6.73211 919.86487 1275.6866 4287463590
22.440367 919.86487 1275.6866 4288637800
-15.708257 921.58044 1277.1332 4289567393
-13.46422 921.58044 1277.1332 4288912554
-11.220183 921.58044 1277.1332 4288188831
-4.4880733 921.58044 1277.1332 4287003805
-2.2440367 921.58044 1277.1332 4287201184
4.4880733 921.58044 1277.1332 4287922343
6.73211 921.58044 1277.1332 4287790756
22.440367 921.58044 1277.1332 4288111204
-11.174312 928.19122 1276.167 4291606989
-7.8220177 928.19116 1276.167 4289568178
-4.4697247 928.19122 1276.167 4288187026
-2.2348623 928.19122 1276.167 4288121233
4.4697247 929.04553 1276.8873 4287724711
7.8220181 929.04553 1276.8873 4287659682
11.174312 928.19122 1276.167 4287463326
13.409174 929.04553 1276.8873 4288315274
17.878899 928.19122 1276.167 4288838524
20.113762 928.19122 1276.167 4289035903
22.348623 928.19122 1276.167 4288970111
-40.326607 754.737 1279.0303 4291935188
-36.660549 754.737 1279.0303 4292198871
-34.216515 754.737 1279.0303 4291937751
-29.32844 754.737 1279.0303 4291937247
29.32844 754.737 1279.0303 4290027703
-43.992661 756.60547 1280.6058 4292199892
-40.326607 756.60547 1280.6058 4292068821
29.32844 756.60547 1280.6058 4290357953
-34.088074 763.09564 1279.538 4291805662
-31.653212 763.09564 1279.538 4291871456
-29.218349 763.09564 1279.538 4291608288
-25.566055 763.09564 1279.538 4291542492
26.783485 763.09564 1279.538 4290488286
-29.086239 772.88513 1279.9441 4291608283
-25.450459 772.88513 1279.944 4291345369
-21.814678 772.88513 1279.9441 4291279578
-19.390825 771.95856 1279.1628 4291016660
-16.966972 771.95856 1279.1628 4291082453
26.662386 771.95856 1279.1628 4290554049
29.086239 773.81165 1280.7252 4290488508
-28.976147 778.38275 1278.0393 4291476961
-25.35413 778.38275 1278.0393 4291345631
-21.732111 778.38275 1278.0393 4291280350
-28.976147 780.22882 1279.5958 4291542754
-25.35413 780.22882 1279.5958 4291279839
28.976147 780.22882 1279.5958 4290093509
-28.866055 788.45691 1279.9935 4291015363
-24.85688 787.84393 1279.4767 4291081676
-21.649542 786.61786 1278.4429 4291345361
28.866055 786.61786 1278.4429 4290225600
31.271559 788.45691 1279.9935 4290095295
-26.359632 794.81097 1278.8109 4291015886
-22.765137 794.81097 1278.8109 4290686932
31.152294 794.81097 1278.8109 4290027442
-28.755962 796.64294 1280.3556 4291015382
-26.359632 796.64294 1280.3556 4290949588
-23.963303 796.64294 1280.3556 4290884056
31.152294 796.64294 1280.3556 4291933917
-28.645872 802.96198 1279.1434 4291343329
-26.258715 802.96198 1279.1434 4291277536
-22.677982 802.96198 1279.1434 4290752207
-19.097248 802.96198 1279.1434 4290752700
28.645872 802.96198 1279.1434 4293582058
31.033028 802.96198 1279.1434 4293384936
-31.033028 804.78699 1280.6823 4291670477
-28.645872 804.78699 1280.6823 4291210196
31.033028 804.78699 1280.6823 4293253095
-30.937614 808.72467 1278.7704 4291408845
-28.557798 808.72467 1278.7704 4291146190
28.557798 808.72467 1278.7704 4293319652
-30.937614 810.54407 1280.3044 4291146700
28.557798 810.54407 1280.3044 4293056745
-30.818348 817.70892 1279.8054 4290818757
-28.447706 817.70892 1279.8054 4290488767
26.077065 816.80273 1279.0414 4293779443
28.447706 816.80273 1279.0414 4293647603
-28.337614 824.83875 1279.277 4290619352
-25.976147 824.83875 1279.277 4290619352
-23.614679 824.83875 1279.277 4290554310
28.337614 824.83875 1279.277 4283710839
-28.337614 826.6441 1280.7992 4290488786
-25.976147 826.6441 1280.7992 4290686164
-23.614679 826.6441 1280.7992 4290489289
28.337614 826.6441 1280.7992 4289563822
-21.170643 832.83264 1279.4771 4290357188
28.227524 832.83264 1279.4771 4280107866
-22.34679 834.63098 1280.9934 4290225851
30.579817 834.63098 1280.9934 4283917176
25.774311 838.99304 1278.1312 4281681793
28.117432 838.99304 1278.1312 4283254090
-21.088074 840.78436 1279.6416 4289831105
28.117432 840.78436 1279.6416 4283320417
30.46055 840.78436 1279.6416 4283517539
-25.693579 848.18701 1280.6511 4290094261
-21.800611 847.5918 1280.1493 4289699007
-18.686239 846.40125 1279.1455 4290028470
1.16789 846.40125 1279.1455 4288647097
4.6715598 847.29413 1279.8983 4288712881
28.029358 847.29413 1279.8983 4285942374
-18.612844 854.28009 1279.2485 4289568189
-16.286238 854.28009 1279.2485 4289765312
2.3266056 854.28009 1279.2485 4288713403
25.592661 854.28009 1279.2485 4281415222
-19.776146 856.05878 1280.7483 4289502648
-16.286238 856.05878 1280.7483 4289568185
-23.174313 863.88855 1280.8101 4289766584
-19.311928 863.29803 1280.3121 4289635000
-16.222019 862.11688 1279.3162 4289568953
-25.411009 869.41565 1280.2383 4289766332
-19.63578 868.53265 1279.4937 4289568693
-16.170643 867.6496 1278.7491 4289568687
0 867.6496 1278.7491 4288122025
25.411009 867.6496 1278.7491 4291803850
-18.407339 875.41333 1278.7551 4289304509
-16.106422 875.41333 1278.7551 4289436095
0 875.41333 1278.7551 4288318136
25.310091 875.41333 1278.7551 4291541209
27.61101 875.41333 1278.7551 4291146952
-25.310091 877.17242 1280.2384 4289633212
-23.009174 877.17242 1280.2384 4289502142
-19.557798 877.17242 1280.2384 4289305277
-16.106422 877.17242 1280.2384 4289239997
27.61101 877.17242 1280.2384 4291344587
-18.333944 884.88721 1280.2031 4289174204
-16.042202 884.01117 1279.4645 4288977339
-13.750459 884.01117 1279.4645 4288516790
27.500917 883.13513 1278.7258 4291213512
-13.706422 890.33014 1279.5603 4288910001
-11.422018 888.58368 1278.0878 4287792803
-6.8532109 888.58368 1278.0878 4287660722
27.412844 888.58368 1278.0878 4291211461
-22.752293 899.7113 1280.9302 4288781484
-18.960245 899.13153 1280.4413 4288911787
-15.926605 897.97186 1279.4636 4289305263
0 898.84155 1280.1969 4287529131
28.440367 898.84155 1280.1969 4288242549
-22.6789 905.09534 1280.2377 4288712106
-19.277065 905.09534 1280.2377 4289238446
-15.875229 904.22839 1279.5067 4289172905
-13.60734 904.22839 1279.5067 4288253610
-11.33945 903.36151 1278.7758 4287398045
1.133945 904.22845 1279.5067 4287530407
6.8036699 903.36151 1278.7758 4287529634
9.0715599 903.36151 1278.7758 4287856034
24.946789 903.36151 1278.7758 4288703343
27.21468 904.22839 1279.5067 4288439906
-15.823853 908.72864 1278.0691 4288975017
-13.563303 908.72864 1278.0691 4288253604
-10.172478 908.72864 1278.0691 4287661733
-6.7816515 908.72864 1278.0691 4287201447
-4.521101 908.72864 1278.0691 4287333034
1.1302752 908.72864 1278.0691 4287464356
4.521101 908.72864 1278.0691 4287529382
6.7816515 908.72864 1278.0691 4287463588
9.042202 908.72864 1278.0691 4287987102
24.866055 908.72864 1278.0691 4288046183
27.126606 908.72864 1278.0691 4288110691
-22.605505 910.45685 1279.5264 4289106866
-19.21468 910.45685 1279.5264 4289041328
-15.823853 910.45685 1279.5264 4288844460
-13.563303 910.45685 1279.5264 4287925157
1.1302752 910.45685 1279.5264 4287200932
4.521101 910.45685 1279.5264 4287922343
6.7816515 910.45685 1279.5264 4287856550
24.866055 910.45685 1279.5264 4288309099
27.126606 910.45685 1279.5264 4288110954
-24.866055 912.18506 1280.9835 4289501107
-22.605505 912.18506 1280.9835 4289502115
-19.21468 912.18506 1280.9835 4289238950
1.1302752 912.18506 1280.9835 4287266977
4.521101 912.18506 1280.9835 4287463590
27.126606 912.18506 1280.9835 4288044909
-19.136696 917.98779 1279.3361 4288844187
1.1256881 917.98779 1279.3361 4287529645
24.765137 917.98779 1279.3361 4288045663
-18.011009 919.70905 1280.7874 4289435806
1.1256881 919.70905 1280.7874 4287529132
24.765137 919.70905 1280.7874 4287650653
-20.196331 923.29602 1278.5797 4290091935
-15.708257 923.29602 1278.5797 4290686141
-13.46422 923.29602 1278.5797 4289897915
1.1220183 923.29602 1278.5797 4287397547
4.4880733 923.29602 1278.5797 4287790502
7.8541284 923.29602 1278.5797 4287527332
22.440367 923.29602 1278.5797 4287850085
24.684404 923.29602 1278.5797 4287389534
-15.708257 925.0116 1280.0262 4292134349
-13.46422 925.0116 1280.0262 4292199642
1.1220183 925.0116 1280.0262 4287397799
4.4880733 925.0116 1280.0262 4287790502
7.8541284 925.0116 1280.0262 4287462818
24.684404 925.0116 1280.0262 4288839040
-7.4495411 931.32367 1278.8082 4291014858
-4.4697247 930.75409 1278.328 4289041310
-2.2348623 931.6084 1279.0483 4288120212
4.4697247 931.6084 1279.0483 4287856286
7.8220181 931.6084 1279.0483 4287659425
11.174312 931.6084 1279.0483 4287199391
13.409174 931.6084 1279.0483 4287130005
16.761467 931.6084 1279.0483 4287193456
20.113762 931.6084 1279.0483 4288112217
22.348623 931.6084 1279.0483 4287716956
-46.436699 758.474 1282.1813 4292069089
-43.992661 758.474 1282.1813 4292003794
-40.326607 758.474 1282.1813 4292003543
29.32844 758.474 1282.1813 4290292676
-48.880733 760.34247 1283.7567 4291608547
-46.436699 760.34247 1283.7567 4291937512
-43.992661 760.34247 1283.7567 4291806664
-40.326607 760.34247 1283.7567 4291871956
-36.660549 760.34247 1283.7567 4291805660
29.32844 760.34247 1283.7567 4290357701
31.772476 760.34247 1283.7567 4290357701
-37.740364 764.95709 1281.1075 4291805408
-34.088074 764.95709 1281.1075 4291410651
-31.653212 764.95709 1281.1075 4291608286
-29.218349 764.95709 1281.1075 4291608286
-26.783485 764.95709 1281.1075 4291674079
26.783485 764.95709 1281.1075 4290290891
-41.392662 766.8186 1282.6771 4291673579
-37.740364 766.8186 1282.6771 4291739874
-34.088074 766.8186 1282.6771 4291608286
-31.653212 766.8186 1282.6771 4291542493
29.218349 766.8186 1282.6771 4290488004
-31.510092 775.66467 1282.2877 4291608536
29.086239 775.66467 1282.2877 4290094013
-33.933945 777.5177 1283.8501 4291674581
-31.510092 777.5177 1283.8501 4291542995
-31.390825 782.07483 1281.1523 4291673559
-28.976147 782.07483 1281.1523 4291542745
-26.561468 782.07483 1281.1523 4291476696
28.976147 782.07483 1281.1523 4290158521
-33.805504 783.9209 1282.709 4291476435
-31.390825 783.9209 1282.709 4291476435
-28.976147 783.9209 1282.709 4291214280
-26.561468 783.9209 1282.709 4291345609
31.390825 783.9209 1282.709 4290488771
37.427521 783.9209 1282.709 4290357190
-31.271559 790.2959 1281.5442 4291739606
-28.866055 790.2959 1281.5442 4291411143
-26.46055 790.2959 1281.5442 4291608266
31.271559 790.2959 1281.5442 4290094013
-31.271559 792.13495 1283.0947 4291212497
-28.866055 792.13495 1283.0947 4291147215
33.677063 792.13495 1283.0947 4291144123
37.285324 792.13495 1283.0947 4291736509
40.893578 792.13495 1283.0947 4292723139
-33.548622 800.30701 1283.4451 4291409610
-31.152294 799.39099 1282.6726 4291278283
-28.755962 798.47498 1281.9003 4291212508
-26.359632 798.47498 1281.9003 4291212508
31.152294 798.47498 1281.9003 4293712361
33.548622 799.39099 1282.6726 4293515498
-33.420185 806.61194 1282.2211 4291343052
31.033028 806.61194 1282.2211 4293385701
33.420185 806.61194 1282.2211 4293253095
-33.420185 808.43701 1283.7599 4291080906
31.033028 808.43701 1283.7599 4293188588
-33.317432 812.36346 1281.8385 4291015363
-33.317432 814.18286 1283.3726 4290884549
30.937614 814.18286 1283.3726 4293121259
-33.188992 820.42749 1282.0977 4290818502
-30.818348 820.42749 1282.0977 4290752709
-28.447706 820.42749 1282.0977 4290225350
30.818348 820.42749 1282.0977 4280433497
-33.188992 822.23987 1283.6259 4291014852
-30.818348 822.23987 1283.6259 4290949059
30.818348 822.23987 1283.6259 4282921323
-33.060551 830.25482 1283.8436 4290686153
-30.699083 829.35217 1283.0825 4290685637
-28.337614 829.35217 1283.0825 4290421967
-25.976147 829.35217 1283.0825 4290553554
-23.614679 829.35217 1283.0825 4290423234
30.699083 829.35217 1283.0825 4283193714
-25.875229 836.42932 1282.5096 4290159305
-22.34679 836.42932 1282.5096 4289896121
30.579817 836.42932 1282.5096 4283648848
-22.259632 842.57568 1281.1521 4289962947
30.46055 842.57568 1281.1521 4284765535
-25.774311 844.36707 1282.6625 4290028990
-23.431192 844.36707 1282.6625 4290028486
30.46055 844.36707 1282.6625 4286799232
-30.365137 851.75842 1283.6626 4290488256
-28.029358 850.8656 1282.9097 4290094001
-25.693579 850.8656 1282.9097 4290291380
-22.189907 850.8656 1282.9097 4289700028
28.029358 850.8656 1282.9097 4281814366
30.365137 851.75842 1283.6626 4281756267
-25.592661 857.83752 1282.248 4289700035
-23.266054 857.83752 1282.248 4289766332
-19.776146 857.83752 1282.248 4289634747
27.919266 857.83752 1282.248 4292130487
-30.245872 859.61621 1283.7478 4289963197
-27.919266 859.61621 1283.7478 4289897159
-25.592661 859.61621 1283.7478 4289765830
-23.266054 859.61621 1283.7478 4289897661
-20.939449 859.61621 1283.7478 4290095297
27.919266 859.61621 1283.7478 4292396240
-27.809174 865.66028 1282.304 4289897402
-25.491743 865.66028 1282.304 4289831609
-23.174313 865.66028 1282.304 4289700789
27.809174 865.66028 1282.304 4291607754
27.809174 867.43195 1283.7977 4291277772
-27.721102 872.94781 1283.2164 4289632958
-25.411009 872.06482 1282.4719 4289633472
-23.100918 872.06482 1282.4719 4289633731
-20.020796 871.77051 1282.2238 4289502399
27.721102 871.18176 1281.7273 4291212495
30.031193 872.94781 1283.2164 4291212745
-27.61101 878.93152 1281.7216 4289437114
-25.310091 878.93152 1281.7216 4289700287
-23.009174 878.93152 1281.7216 4289241021
-19.557798 878.93152 1281.7216 4289043900
27.61101 878.93152 1281.7216 4291148489
-34.51376 880.69055 1283.2048 4289764537
-28.761467 880.69055 1283.2048 4289567674
-25.310091 880.69055 1283.2048 4289962945
-23.009174 880.69055 1283.2048 4289502907
-19.557798 880.69055 1283.2048 4289174459
29.911926 880.69055 1283.2048 4291345098
-22.917431 886.63922 1281.6804 4289370552
-19.479816 886.63922 1281.6804 4289238966
-16.042202 886.63922 1281.6804 4289173430
-13.750459 886.63922 1281.6804 4288516783
29.79266 886.63922 1281.6804 4291540426
-22.917431 888.3913 1283.1577 4289240249
-19.479816 888.3913 1283.1577 4289042357
-16.042202 888.3913 1283.1577 4288910001
29.79266 888.3913 1283.1577 4290685117
-19.036697 893.24091 1282.0145 4289041842
-15.990826 892.07654 1281.0328 4288844212
29.697248 893.823 1282.5054 4287980149
-25.128441 895.56946 1283.978 4289239999
-22.844036 895.56946 1283.978 4288911790
-20.559633 895.56946 1283.978 4288845997
29.697248 895.56946 1283.978 4287913078
-22.752293 901.45068 1282.3969 4288911007
-19.339451 901.45068 1282.3969 4289042084
29.577982 901.45068 1282.3969 4288505951
-25.027523 903.19019 1283.8635 4289108652
29.577982 903.19019 1283.8635 4288308067
-27.21468 908.56293 1283.1615 4288778155
-24.946789 907.69604 1282.4305 4289041325
-22.6789 906.8291 1281.6996 4289106883
-19.277065 906.8291 1281.6996 4289106614
29.482569 907.69604 1282.4305 4287913315
-24.866055 913.91327 1282.4407 4289040558
-22.605505 913.91327 1282.4407 4289041060
2.2605505 913.91327 1282.4407 4287463850
27.126606 913.91327 1282.4407 4287783023
-24.866055 915.64148 1283.8978 4288974254
-22.605505 915.64148 1283.8978 4288843417
27.126606 915.64148 1283.8978 4287717230
-27.016514 921.43024 1282.2385 4289499816
-18.011009 922.29083 1282.9641 4290949566
-15.708257 926.72723 1281.4728 4292397007
-13.46422 926.72723 1281.4728 4292330710
1.1220183 926.72723 1281.4728 4287463588
24.684404 926.72723 1281.4728 4289232768
-13.46422 928.44275 1282.9193 4292264665
-11.220183 928.44275 1282.9193 4292528093
1.1220183 928.44275 1282.9193 4287463593
24.684404 928.44275 1282.9193 4287650390
-2.2348623 934.1712 1281.2092 4291014600
13.409174 934.1712 1281.2092 4286078576
16.761467 934.1712 1281.2092 4284560955
-51.517429 755.71381 1286.3942 4292003042
-49.06422 754.77606 1285.6035 4291608541
-46.611008 753.83832 1284.8127 4292134632
31.891743 754.77606 1285.6035 4290358211
-51.324772 763.1452 1286.1199 4292069586
-48.880733 763.1452 1286.1199 4291740121
-46.436699 763.1452 1286.1199 4292069342
-43.992661 763.1452 1286.1199 4292068840
-41.548622 762.21094 1285.3322 4291938014
29.32844 762.21094 1285.3322 4290093246
31.772476 763.1452 1286.1199 4290356418
34.216515 764.07947 1286.9076 4290291395
-43.827522 768.68005 1284.2466 4291804647
-37.740364 769.61084 1285.0314 4291805146
-34.088074 769.61078 1285.0314 4291740121
-31.653212 769.61078 1285.0314 4291608791
29.218349 768.68005 1284.2466 4290554049
31.653212 770.5415 1285.8162 4290620094
-36.3578 779.37079 1285.4126 4291673309
-33.933945 779.37079 1285.4126 4291673559
31.510092 779.37079 1285.4126 4290224314
33.933945 779.37079 1285.4126 4290158269
37.569725 779.37079 1285.4126 4290356673
-36.3578 781.22388 1286.9751 4291476700
33.933945 781.22388 1286.9751 4290488267
-33.805504 785.76697 1284.2655 4291214032
-31.390825 785.76697 1284.2655 4291148239
33.805504 785.76697 1284.2655 4290225602
37.427521 785.76697 1284.2655 4289962682
-33.805504 787.61298 1285.822 4291476435
33.805504 787.61298 1285.822 4290158775
37.427521 787.61298 1285.822 4289895339
41.049541 787.61298 1285.822 4290355371
-33.677063 793.974 1284.6454 4291212245
-31.271559 793.974 1284.6454 4291212245
33.677063 793.974 1284.6454 4292593616
37.285324 793.974 1284.6454 4293317585
40.893578 793.974 1284.6454 4293909713
-36.082569 795.81299 1286.196 4291278790
-33.677063 795.81299 1286.196 4291344335
37.285324 795.81299 1286.196 4293449699
40.893578 795.81299 1286.196 4293778919
-38.341286 803.97107 1286.5344 4291015115
-35.146175 802.74969 1285.5046 4291277513
33.548622 802.13904 1284.9897 4293187815
-38.194496 812.08698 1286.8374 4290948042
-35.807339 811.17444 1286.0681 4290882507
31.033028 810.26196 1285.2987 4293583091
-38.077065 817.82166 1286.4407 4290950090
-34.903976 816.6087 1285.418 4290818248
30.937614 816.00226 1284.9066 4289043860
33.317432 817.82166 1286.4407 4281149514
-34.374313 824.05225 1285.1539 4290750919
-30.818348 824.05225 1285.1539 4291013315
30.818348 824.05225 1285.1539 4284826726
-68.748627 825.86462 1286.6821 4291344348
-37.930275 825.86462 1286.6821 4290751194
-34.374313 825.86462 1286.6821 4290684877
-34.241287 832.96289 1286.1271 4290620108
-30.699083 832.96289 1286.1271 4290489031
-28.337614 832.96289 1286.1271 4290553813
-25.976147 832.06018 1285.366 4290290391
34.241287 832.96289 1286.1271 4284705668
37.783485 832.96289 1286.1271 4285622430
40.144955 833.86554 1286.8882 4282533769
-28.227524 838.22766 1284.026 4290028990
-25.875229 838.22766 1284.026 4289963197
-23.522936 838.22766 1284.026 4289831105
32.93211 838.22766 1284.026 4286015559
35.284405 838.22766 1284.026 4287989349
-31.755962 840.026 1285.5424 4290489537
-28.227524 840.026 1285.5424 4289963708
-25.875229 840.026 1285.5424 4289963708
32.93211 840.026 1285.5424 4288578932
35.284405 840.026 1285.5424 4293250235
37.636696 840.026 1285.5424 4292007141
39.988991 840.026 1285.5424 4290691281
-31.632109 847.05408 1284.9281 4290159293
-28.117432 846.15839 1284.1729 4290094261
31.632111 847.05408 1284.9281 4290684352
35.14679 846.15839 1284.1729 4292392389
-31.533028 853.54419 1285.1682 4290357438
-28.029358 853.54419 1285.1682 4290027966
-25.693579 853.54419 1285.1682 4289896637
-23.357798 853.54419 1285.1682 4289634492
28.029358 853.54419 1285.1682 4283650438
30.365137 853.54419 1285.1682 4287005881
-37.372478 855.3299 1286.6738 4290029502
-35.036697 855.3299 1286.6738 4289963708
-31.533028 855.3299 1286.6738 4290029502
-28.029358 855.3299 1286.6738 4289766084
30.365137 855.3299 1286.6738 4292393916
-31.021408 861.98779 1285.7476 4289896129
-27.919266 861.3949 1285.2476 4289962691
-25.592661 861.3949 1285.2476 4289896898
27.919266 861.3949 1285.2476 4291739341
30.245872 862.28424 1285.9976 4291673548
-30.126606 869.20361 1285.2916 4289634255
-27.809174 869.20361 1285.2916 4289633729
30.126606 869.20361 1285.2916 4291541459
-34.761467 870.97534 1286.7854 4289897413
-31.285322 870.97534 1286.7854 4289831371
32.444038 870.97534 1286.7854 4291080906
-31.186239 874.71393 1284.7056 4289699519
-27.721102 874.71393 1284.7056 4289633212
30.031193 874.71393 1284.7056 4291278794
-34.651375 876.47998 1286.1947 4289896637
-31.186239 876.47998 1286.1947 4289568189
31.186239 876.47998 1286.1947 4291081671
-36.814678 884.20874 1286.1711 4289501098
-34.51376 883.32922 1285.4296 4289566893
-32.212845 883.32922 1285.4296 4289566389
-28.761467 883.32922 1285.4296 4289566902
-25.310091 883.32922 1285.4296 4289501623
-23.009174 882.44965 1284.688 4289370552
-20.708258 882.44965 1284.688 4289436601
29.911926 882.44965 1284.688 4291081158
32.212845 884.20874 1286.1711 4291408072
-27.500917 890.14331 1284.635 4289304763
-25.209175 890.14331 1284.635 4289107385
-22.917431 890.14331 1284.635 4289239988
-20.625689 890.14331 1284.635 4289700539
29.79266 890.14331 1284.635 4290090386
-28.64679 891.89539 1286.1123 4289239229
-25.209175 891.89539 1286.1123 4289173178
-22.917431 891.89539 1286.1123 4289173680
-27.412844 899.06232 1286.9231 4289240994
-25.128441 898.18909 1286.1868 4289174954
-28.440367 904.92957 1285.3301 4289567673
-31.85321 906.66901 1286.7968 4289238706
-29.577982 906.66901 1286.7968 4289238706
31.85321 906.66901 1286.7968 4287846738
-28.348625 910.29675 1284.6234 4289172654
29.482569 910.29675 1284.6234 4287715944
-31.750458 912.03064 1286.0853 4289041339
-28.348625 912.03064 1286.0853 4288909491
29.482569 912.03064 1286.0853 4287585643
-27.126606 917.36969 1285.355 4289170851
-24.866055 917.36969 1285.355 4289039265
-22.605505 917.36969 1285.355 4288711314
-20.344954 917.36969 1285.355 4288843156
27.126606 917.36969 1285.355 4287190886
-31.647707 919.0979 1286.8123 4289369261
-29.387156 919.0979 1286.8123 4289237419
-24.866055 919.0979 1286.8123 4289960367
-22.605505 919.0979 1286.8123 4289828763
27.126606 919.0979 1286.8123 4287128175
-24.765137 926.59381 1286.5924 4292067270
-22.513762 925.73322 1285.8667 4292264396
-19.136696 925.73322 1285.8667 4292198860
-15.759633 926.59381 1286.5924 4292199375
27.016514 925.73322 1285.8667 4288112981
-7.8541284 931.01617 1285.0891 4292133081
-4.4880733 931.01617 1285.0891 4291014598
1.1220183 931.01617 1285.0891 4289106878
4.4880733 931.87396 1285.8124 4289567417
7.8541284 931.87396 1285.8124 4287792032
11.220183 931.87396 1285.8124 4286082439
20.196331 931.87396 1285.8124 4285937970
22.440367 931.87396 1285.8124 4284759091
25.432417 930.73022 1284.848 4286073670
-52.744034 757.58936 1287.9755 4292003294
34.344955 757.58936 1287.9755 4290357186
-53.970642 759.46484 1289.5569 4291937751
34.344955 759.46484 1289.5569 4290356416
-52.546791 765.94794 1288.4832 4291937749
-48.880733 765.94794 1288.4832 4291936986
-46.436699 765.94794 1288.4832 4291936986
-41.548622 765.94794 1288.4832 4291804647
31.772476 765.94794 1288.4832 4290488256
34.216515 765.94794 1288.4832 4290291393
-43.827522 772.40302 1287.3857 4291805145
-41.392662 772.40302 1287.3857 4291871194
-37.740364 772.40302 1287.3857 4291739870
-34.088074 772.40302 1287.3857 4291871708
31.653212 772.40302 1287.3857 4290225600
-46.262386 774.26447 1288.9552 4291739604
-43.827522 774.26447 1288.9552 4291805399
-41.392662 774.26447 1288.9552 4291871192
-37.740364 774.26447 1288.9552 4291870951
31.653212 774.26447 1288.9552 4290159302
34.088074 774.26447 1288.9552 4290224836
36.522934 774.26447 1288.9552 4290356166
-37.569725 783.0769 1288.5375 4291411416
-45.878899 791.30505 1288.9351 4291673813
-43.464222 791.30505 1288.9351 4291673811
-41.049541 791.30505 1288.9351 4291871190
-37.025074 790.6897 1288.4161 4291409870
-33.805504 789.45898 1287.3785 4291146704
-37.285324 797.65204 1287.7466 4291015867
37.285324 797.65204 1287.7466 4293318376
40.893578 797.65204 1287.7466 4293581547
-45.704586 799.49109 1289.2972 4291410643
-43.299084 799.49109 1289.2972 4291476689
-40.893578 799.49109 1289.2972 4291344846
-38.488075 799.49109 1289.2972 4290818239
37.285324 799.49109 1289.2972 4292924645
-40.737614 805.80304 1288.0791 4291475153
-38.341286 805.80304 1288.0791 4291014602
-35.944954 805.80304 1288.0791 4291014602
33.548622 805.80304 1288.0791 4293384434
-43.133945 807.63507 1289.6239 4291146702
-40.737614 807.63507 1289.6239 4291344337
-38.341286 807.63507 1289.6239 4291014350
33.548622 807.63507 1289.6239 4293451001
-40.58165 815.73694 1289.915 4290753229
-38.194496 813.91199 1288.3762 4290817739
34.613762 814.82446 1289.1456 4284044147
-40.456882 821.46045 1289.5088 4290687434
-38.077065 820.55072 1288.7417 4290817479
-35.697247 819.64099 1287.9747 4291343813
34.110703 820.854 1288.9974 4282334288
-68.748627 827.677 1288.2102 4291672796
-40.300919 827.677 1288.2102 4291013067
-37.930275 827.677 1288.2102 4290882260
-35.559631 827.677 1288.2102 4290948053
34.374313 827.677 1288.2102 4287723669
37.930275 827.677 1288.2102 4288769943
-42.671558 829.48938 1289.7384 4290882251
-40.300919 829.48938 1289.7384 4290750408
-37.930275 829.48938 1289.7384 4290619855
40.300919 829.48938 1289.7384 4287987368
-42.50642 835.6709 1288.4104 4290686149
-40.144955 835.6709 1288.4104 4290752198
-37.783485 835.6709 1288.4104 4290356684
-34.241287 835.6709 1288.4104 4290751691
-30.699083 835.6709 1288.4104 4290488769
37.783485 835.6709 1288.4104 4286214830
40.144955 835.6709 1288.4104 4282925180
-42.50642 837.47626 1289.9326 4290554310
-40.144955 837.47626 1289.9326 4290620103
-37.783485 837.47626 1289.9326 4290093759
-35.42202 837.47626 1289.9326 4290554310
-35.284405 841.82434 1287.0586 4290619342
-31.755962 841.82434 1287.0586 4290620353
-28.227524 841.82434 1287.0586 4290028990
32.93211 841.82434 1287.0586 4291801942
35.284405 841.82434 1287.0586 4294104697
37.636696 841.82434 1287.0586 4292660404
39.988991 841.82434 1287.0586 4292134060
-39.988991 843.62268 1288.575 4290225096
-37.636696 843.62268 1288.575 4290290111
-35.284405 843.62268 1288.575 4290290111
37.636696 843.62268 1288.575 4289832107
-42.176147 851.53235 1288.7041 4290357186
-35.14679 850.63672 1287.949 4290094273
-32.803669 849.74103 1287.1937 4290488256
32.803669 850.63672 1287.949 4285363598
-42.044037 857.1156 1288.1796 4290159305
-39.708256 857.1156 1288.1796 4290356684
-35.036697 857.1156 1288.1796 4290028986
-32.700916 857.1156 1288.1796 4289963197
30.365137 857.1156 1288.1796 4292330447
-42.044037 858.90131 1289.6852 4290159556
-39.708256 858.90131 1289.6852 4290488265
-37.372478 858.90131 1289.6852 4290292160
-35.036697 858.90131 1289.6852 4289963195
32.700916 858.90131 1289.6852 4291541457
-40.715595 866.73102 1289.7469 4289896133
-37.225689 866.73102 1289.7469 4289896646
-34.899082 865.84167 1288.9971 4290160073
-31.796942 865.54523 1288.7471 4289765836
-27.919266 864.95233 1288.2472 4289963710
-23.266054 864.95233 1288.2472 4289568699
31.796942 865.54523 1288.7471 4291541453
-37.078899 872.74707 1288.2793 4289831105
-34.761467 872.74707 1288.2793 4289831105
32.444038 872.74707 1288.2793 4291212747
-39.396332 874.51874 1289.7732 4289831357
-37.078899 874.51874 1289.7732 4289830844
34.761467 874.51874 1289.7732 4291146438
37.078899 874.51874 1289.7732 4291079614
-36.961468 878.24609 1287.6838 4289764537
-32.341286 878.24609 1287.6838 4289764283
32.341286 878.24609 1287.6838 4291080645
-36.961468 880.01221 1289.173 4289566639
32.341286 880.01221 1289.173 4290948805
34.651375 880.01221 1289.173 4291080647
-39.115597 887.72687 1289.1376 4289566913
-36.814678 886.84729 1288.396 4289501621
-34.51376 886.84729 1288.396 4289567414
-32.212845 886.84729 1288.396 4289501883
-29.144953 886.55414 1288.1488 4289502139
-25.310091 885.96777 1287.6544 4289305529
32.212845 886.84729 1288.396 4290353310
36.814678 887.72687 1289.1376 4289166234
-28.64679 893.64746 1287.5896 4289042366
-32.084404 895.39954 1289.0669 4289436608
-28.64679 895.39954 1289.0669 4288976821
32.084404 895.39954 1289.0669 4288109405
37.813759 895.39954 1289.0669 4288306271
-34.266056 902.55524 1289.8682 4289304748
-31.981651 902.55524 1289.8682 4289370556
-28.555046 900.80878 1288.3956 4289437365
31.981651 902.55524 1289.8682 4287781708
34.266056 902.55524 1289.8682 4287847757
-34.128441 908.40845 1288.2634 4289304990
-31.85321 908.40845 1288.2634 4289238702
31.85321 908.40845 1288.2634 4287715933
34.128441 908.40845 1288.2634 4287715933
36.403671 908.40845 1288.2634 4287780706
-36.403671 910.14789 1289.7301 4288713381
-34.128441 910.14789 1289.7301 4288910503
31.85321 910.14789 1289.7301 4287716185
34.128441 910.14789 1289.7301 4287913307
36.403671 910.14789 1289.7301 4287716196
-31.750458 913.7644 1287.5472 4289106112
-28.348625 913.7644 1287.5472 4288974519
29.482569 913.7644 1287.5472 4287585643
-34.018349 915.49823 1289.0092 4289303466
-31.750458 915.49823 1289.0092 4289236404
-29.482569 915.49823 1289.0092 4289039024
29.482569 915.49823 1289.0092 4287125092
-31.647707 920.82611 1288.2694 4289961898
-28.256882 920.82611 1288.2694 4290619567
-24.866055 920.82611 1288.2694 4291342772
-22.605505 920.82611 1288.2694 4291342005
-20.344954 920.82611 1288.2694 4292197314
27.126606 920.82611 1288.2694 4288578430
-31.647707 922.55432 1289.7266 4291147192
-28.256882 922.55432 1289.7266 4291738812
-24.866055 922.55432 1289.7266 4292133054
-27.016514 928.315 1288.0437 4292264401
-24.765137 928.315 1288.0437 4292198608
-22.513762 928.315 1288.0437 4292132817
-19.136696 928.315 1288.0437 4292067536
-15.759633 928.315 1288.0437 4292396757
-13.508257 928.315 1288.0437 4292264151
-11.256881 928.315 1288.0437 4292527323
-31.519266 930.03619 1289.4949 4291937239
-27.016514 930.03619 1289.4949 4292198608
-24.765137 930.03619 1289.4949 4292264401
-22.513762 930.03619 1289.4949 4292264405
-19.136696 930.03619 1289.4949 4292198609
-15.759633 930.03619 1289.4949 4292330449
-13.508257 930.03619 1289.4949 4292132817
-10.131193 930.03619 1289.4949 4292067028
27.016514 930.03619 1289.4949 4284493858
-2.2440367 934.44739 1287.9822 4290225092
2.2440367 933.58954 1287.2589 4289633733
4.4880733 933.58954 1287.2589 4289699257
8.2281342 934.16144 1287.7411 4288713114
11.220183 934.44739 1287.9822 4286805108
13.46422 934.44739 1287.9822 4285487691
16.830275 934.44739 1287.9822 4283511862
20.196331 934.44739 1287.9822 4284233290
22.440367 935.30518 1288.7056 4283576631
24.684404 935.30518 1288.7056 4283642425
-56.634861 754.83624 1292.1943 4292464095
-56.423855 761.34033 1291.1383 4292134880
-53.970642 761.34033 1291.1383 4292070093
36.798164 761.34033 1291.1383 4290291395
-58.877064 763.21582 1292.7196 4292134364
-56.423855 763.21582 1292.7196 4292068315
36.798164 763.21582 1292.7196 4290488771
-52.546791 767.81641 1290.0586 4291937753
-48.880733 767.81641 1290.0586 4291871192
-46.436699 767.81641 1290.0586 4291871192
-43.992661 767.81641 1290.0586 4292067804
-41.548622 767.81641 1290.0586 4292396768
34.216515 767.81641 1290.0586 4290357440
36.660549 767.81641 1290.0586 4290357440
-52.546791 769.68494 1291.634 4292003546
-48.880733 769.68494 1291.634 4291674581
-46.436699 769.68494 1291.634 4291674581
34.216515 769.68494 1291.634 4290356670
36.660549 769.68494 1291.634 4290356670
-48.697247 776.12592 1290.5248 4291344594
-46.262386 776.12592 1290.5248 4291607766
-43.827522 776.12592 1290.5248 4291805145
-41.392662 776.12592 1290.5248 4291673559
-38.957798 776.12592 1290.5248 4291476187
-48.697247 777.98743 1292.0944 4291542493
-46.262386 777.98743 1292.0944 4291476700
-43.827522 777.98743 1292.0944 4291542491
-41.392662 777.98743 1292.0944 4291542491
-38.957798 777.98743 1292.0944 4291542493
-43.629356 784.92993 1290.1 4291476696
-41.205505 784.92993 1290.1 4291345109
-37.569725 784.92993 1290.1 4291476696
-48.477066 786.78302 1291.6624 4291543247
-46.053211 786.78302 1291.6624 4291543247
-43.629356 786.78302 1291.6624 4291607766
-41.205505 786.78302 1291.6624 4291673559
-38.781651 786.78302 1291.6624 4291475664
-53.122936 794.99713 1292.0481 4291673048
-49.500916 794.07416 1291.2699 4291541719
-45.878899 794.0741 1291.2698 4291344852
-43.464222 794.0741 1291.2698 4291410641
-41.049541 794.0741 1291.2698 4291410642
-38.634861 793.15112 1290.4916 4291081410
-52.921101 803.16913 1292.3984 4291345109
-49.312843 802.24963 1291.6232 4291410645
-45.704586 802.24963 1291.6232 4291279057
-43.299084 802.24963 1291.6232 4291278286
-40.893578 801.33008 1290.8479 4291344846
36.884403 801.94312 1291.3647 4293187307
-43.133945 809.46704 1291.1686 4290948555
-40.737614 809.46704 1291.1686 4291014348
33.548622 809.46704 1291.1686 4290362328
-45.530273 811.29907 1292.7133 4291147213
-43.133945 811.29907 1292.7133 4290752207
-40.737614 811.29907 1292.7133 4290752207
35.944954 811.29907 1292.7133 4286609815
-40.58165 817.56201 1291.4539 4291148237
35.807339 817.56201 1291.4539 4281544269
-69.227524 819.38696 1292.9927 4291410139
-66.84037 819.38696 1292.9927 4291541205
-45.355965 819.38696 1292.9927 4290687447
-42.968807 819.38696 1292.9927 4290555848
38.194496 819.38696 1292.9927 4282730074
-66.634865 823.27979 1291.0428 4291344596
-40.456882 823.27979 1291.0428 4290949840
34.507339 823.27979 1291.0428 4284897107
38.077065 823.27979 1291.0428 4285484906
-66.634865 825.09918 1292.5769 4291345109
-45.216515 825.09918 1292.5769 4291079123
-42.836697 825.09918 1292.5769 4291013067
40.456882 825.09918 1292.5769 4288835736
-52.154129 833.11414 1292.7947 4290948555
-49.783485 833.11414 1292.7947 4290816969
-45.832417 832.51001 1292.2853 4290751426
-42.671558 831.30176 1291.2666 4290948555
-40.300919 831.30176 1291.2666 4290816969
-37.930275 831.30176 1291.2666 4290225096
-49.590824 839.28162 1291.4548 4290817737
-47.229359 839.28162 1291.4548 4290752979
-43.687157 839.28162 1291.4548 4290752207
-40.144955 839.28162 1291.4548 4290685901
-37.783485 839.28162 1291.4548 4290355914
-51.952293 841.08698 1292.9771 4290816717
-49.590824 841.08698 1292.9771 4290816717
-47.229359 841.08698 1292.9771 4290686412
-43.687157 841.08698 1292.9771 4290422986
-42.341286 845.42102 1290.0913 4290291145
-39.988991 845.42102 1290.0913 4290159302
-35.284405 845.42102 1290.0913 4290159302
35.284405 845.42102 1290.0913 4288516540
37.636696 845.42102 1290.0913 4288120952
-42.341286 847.21942 1291.6075 4290291908
-39.988991 847.21942 1291.6075 4290291908
-37.636696 847.21942 1291.6075 4290225350
35.284405 847.21942 1291.6075 4286156455
37.636696 847.21942 1291.6075 4287795090
-42.176147 853.32373 1290.2145 4289962943
-39.833027 853.32373 1290.2145 4290226115
32.803669 853.32373 1290.2145 4292196814
-44.519264 855.11505 1291.7249 4290291395
-37.48991 855.11505 1291.7249 4290095036
32.803669 855.11505 1291.7249 4292329945
35.14679 855.11505 1291.7249 4292329945
-43.211929 860.68701 1291.1909 4290159307
-39.708256 860.68701 1291.1909 4290488517
-37.372478 860.68701 1291.1909 4290225850
-35.036697 860.68701 1291.1909 4289897141
-32.700916 860.68701 1291.1909 4289698502
32.700916 860.68701 1291.1909 4291475662
35.036697 860.68701 1291.1909 4291475662
37.372478 860.68701 1291.1909 4291344587
-43.211929 862.47278 1292.6965 4289961670
-39.708256 862.47278 1292.6965 4290027201
-37.372478 862.47278 1292.6965 4289831107
35.036697 862.47278 1292.6965 4291475916
37.372478 862.47278 1292.6965 4291014600
39.708256 862.47278 1292.6965 4291409358
-44.205505 868.50977 1291.2467 4290093509
-40.715595 868.50977 1291.2467 4289962178
-37.225689 868.50977 1291.2467 4289766084
34.899082 868.50977 1291.2467 4291344335
37.225689 868.50977 1291.2467 4290753731
-44.205505 870.28845 1292.7465 4289896635
-40.715595 870.28845 1292.7465 4290094016
34.899082 870.28845 1292.7465 4291541711
37.225689 870.28845 1292.7465 4291212999
-40.168808 876.88104 1291.765 4289699519
34.761467 876.29041 1291.267 4291146438
37.078899 877.17627 1292.0139 4291276994
-39.271561 881.77826 1290.6621 4290093763
34.651375 881.77826 1290.6621 4291539915
36.961468 881.77826 1290.6621 4291538881
-40.426605 883.54431 1292.1511 4289698751
34.651375 883.54431 1292.1511 4289894307
36.961468 883.54431 1292.1511 4289891488
39.271561 883.54431 1292.1511 4289102228
-34.51376 889.48596 1290.6208 4289633210
-32.212845 889.48596 1290.6208 4289502404
32.212845 889.48596 1290.6208 4288176734
34.51376 889.48596 1290.6208 4288308319
36.814678 889.48596 1290.6208 4287912809
39.115597 889.48596 1290.6208 4288110189
-40.266056 891.245 1292.104 4289239740
-36.814678 891.245 1292.104 4289304511
-34.51376 891.245 1292.104 4289633733
-32.212845 891.245 1292.104 4289633992
32.212845 891.245 1292.104 4288110945
34.51376 891.245 1292.104 4288110945
36.814678 891.245 1292.104 4288175200
40.266056 891.245 1292.104 4288504166
-34.376148 898.90363 1292.0215 4289173930
-32.084404 898.02759 1291.2828 4289239220
-29.79266 897.15161 1290.5442 4289699255
32.084404 898.02759 1291.2828 4288045150
34.376148 898.02759 1291.2828 4288045150
37.431805 897.7356 1291.0366 4288110434
-36.550457 904.3017 1291.3408 4289305002
-34.266056 904.3017 1291.3408 4289305002
34.266056 904.3017 1291.3408 4287978323
37.692657 904.3017 1291.3408 4287846233
41.119267 904.3017 1291.3408 4287583052
43.403671 904.3017 1291.3408 4288372568
-37.692657 906.04816 1292.8134 4289173155
38.834862 906.04816 1292.8134 4287649120
41.119267 906.04816 1292.8134 4287846221
43.403671 906.04816 1292.8134 4288438359
45.688072 906.04816 1292.8134 4288240727
-37.541283 911.88733 1291.1967 4289041325
-34.128441 911.88733 1291.1967 4289107118
31.85321 911.88733 1291.1967 4287322707
34.128441 911.88733 1291.1967 4287388501
36.403671 911.88733 1291.1967 4287256931
-40.954128 913.62671 1292.6633 4288910244
-37.541283 913.62671 1292.6633 4289238184
31.85321 913.62671 1292.6633 4286796632
34.128441 913.62671 1292.6633 4286664789
37.541283 913.62671 1292.6633 4285613898
40.954128 913.62671 1292.6633 4285220414
-37.420181 917.23206 1290.4711 4289106592
-34.018349 917.23206 1290.4711 4289303718
29.482569 917.23206 1290.4711 4287062125
-40.822018 918.96588 1291.933 4289040799
-37.420181 918.96588 1291.933 4289238181
-34.018349 918.96588 1291.933 4289501100
29.482569 918.96588 1291.933 4288183673
-36.168808 926.01074 1292.6409 4292398040
-33.908257 925.14661 1291.9124 4292331734
-31.647707 925.14661 1291.9124 4292331473
-28.633638 924.85858 1291.6694 4292133836
-22.513762 931.75739 1290.9462 4292068055
-19.136696 931.75739 1290.9462 4292133586
-13.508257 931.75739 1290.9462 4292198610
-10.131193 931.75739 1290.9462 4292001749
-6.7541285 931.75739 1290.9462 4292067802
-4.5027523 931.75739 1290.9462 4291805138
0 931.75739 1290.9462 4289830855
22.513762 931.75739 1290.9462 4283968837
24.765137 931.75739 1290.9462 4283771714
27.016514 931.75739 1290.9462 4283903795
-22.513762 933.47858 1292.3975 4291739343
-19.136696 933.47858 1292.3975 4291804623
-9.0055046 933.47858 1292.3975 4290488258
-6.7541285 933.47858 1292.3975 4289961658
-4.5027523 933.47858 1292.3975 4289697990
1.1256881 933.47858 1292.3975 4289305783
4.5027523 933.47858 1292.3975 4289765553
6.7541285 933.47858 1292.3975 4289765553
27.016514 933.47858 1292.3975 4283708731
-59.097248 757.66003 1294.5752 4291740376
-56.634861 756.71875 1293.7816 4292003546
36.93578 756.71875 1293.7816 4290422209
-58.877064 766.02905 1295.0917 4292003296
-56.423855 766.02905 1295.0917 4291937246
40.477982 766.02905 1295.0917 4290487998
-58.656879 773.42188 1294.7849 4292003042
-56.212845 772.48767 1293.9972 4292200420
-52.546791 772.48767 1293.9972 4291806164
-48.880733 771.55341 1293.2095 4291673811
39.104588 771.55341 1293.2095 4290225086
-51.132111 779.84888 1293.6639 4291674583
-48.697247 779.84888 1293.6639 4291411153
-46.262386 779.84888 1293.6639 4291542995
-43.827522 779.84888 1293.6639 4291477209
-41.392662 779.84888 1293.6639 4291280087
-56.001835 781.71033 1295.2334 4292134362
-52.349541 781.71033 1295.2334 4291740117
-48.697247 781.71033 1295.2334 4291477704
-46.262386 781.71033 1295.2334 4291543497
-53.324772 788.63611 1293.2249 4291739352
-49.688992 788.63611 1293.2249 4291673814
-55.748623 790.48914 1294.7874 4291673561
-53.324772 790.48914 1294.7874 4291673048
-55.537613 796.8432 1293.6047 4291935713
-53.122936 796.8432 1293.6047 4291673561
-49.500916 796.8432 1293.6047 4291344596
41.049541 796.8432 1293.6047 4293187563
-57.952293 798.68921 1295.1613 4291739356
-55.537613 798.68921 1295.1613 4291673307
-53.122936 798.68921 1295.1613 4291541207
41.049541 798.68921 1295.1613 4293253356
43.464222 798.68921 1295.1613 4293055982
-57.732109 806.84717 1295.4998 4291344335
-55.326607 805.92767 1294.7244 4291673042
-52.921101 805.92767 1294.7244 4291344338
-49.312843 805.92773 1294.7245 4291344594
-45.704586 805.92767 1294.7244 4291147214
37.285324 805.92773 1294.7245 4291544024
-52.719265 814.96313 1295.8027 4290884045
-50.322937 814.96313 1295.8027 4291213010
-46.329052 814.35248 1295.2877 4290752721
-43.133945 814.04712 1295.0303 4290490053
38.341286 814.04712 1295.0303 4282659644
-45.355965 821.21198 1294.5314 4291146713
-42.968807 821.21198 1294.5314 4290818254
40.58165 821.21198 1294.5314 4285024355
42.968807 821.21198 1294.5314 4284436054
-69.014679 826.91858 1294.111 4292068315
-66.634865 826.91858 1294.111 4291214032
-49.976147 826.91858 1294.111 4290948557
-46.406422 826.91858 1294.111 4291013582
-52.355965 828.73798 1295.645 4290816201
-49.976147 828.73798 1295.645 4290948044
-47.596329 828.73798 1295.645 4290882760
-55.710091 835.8327 1295.0869 4290883796
-52.154129 835.8327 1295.0869 4290818507
-49.783485 834.92651 1294.3229 4290687436
-46.227524 834.92651 1294.3229 4290621643
-55.494495 842.89233 1294.4993 4290685397
-51.952293 842.89233 1294.4993 4290685389
-49.590824 842.89233 1294.4993 4290619340
-47.229359 842.89233 1294.4993 4290620103
-44.867889 842.89233 1294.4993 4290751946
-37.783485 842.89233 1294.4993 4290159302
-55.2789 849.91693 1293.8821 4290750410
-51.750458 850.8161 1294.6403 4290488265
-49.398167 849.91693 1293.8821 4290488523
-47.045872 849.91693 1293.8821 4290554311
-44.693577 849.91693 1293.8821 4290488518
-39.988991 849.01776 1293.1239 4290686151
-37.636696 849.01776 1293.1239 4290094784
35.284405 849.91693 1293.8821 4290357439
37.636696 849.91693 1293.8821 4291474375
-46.862385 856.90637 1293.2354 4290224846
-44.519264 856.90637 1293.2354 4290224846
35.14679 856.90637 1293.2354 4291475664
37.48991 856.90637 1293.2354 4291475662
39.833027 856.90637 1293.2354 4291475662
-49.205505 858.69775 1294.7457 4290290891
-46.862385 858.69775 1294.7457 4290290391
39.833027 858.69775 1294.7457 4291475916
-49.051376 865.15137 1294.9551 4290292673
-46.715595 865.15137 1294.9551 4290159302
-44.379818 864.25848 1294.2023 4290027716
35.036697 864.25848 1294.2023 4291541707
37.372478 864.25848 1294.2023 4291015636
39.708256 865.15137 1294.9551 4291213520
42.044037 865.15137 1294.9551 4291148745
-44.205505 872.06714 1294.2462 4289963197
-41.878899 872.06714 1294.2462 4289765564
40.715595 872.06714 1294.2462 4291343301
-51.185322 873.84589 1295.746 4289831609
-48.858715 873.84589 1295.746 4289963195
-46.532108 873.84589 1295.746 4289897150
-44.205505 873.84589 1295.746 4289897150
40.715595 873.84589 1295.746 4291408327
-48.666054 881.60553 1295.7485 4289830590
-46.348625 880.71967 1295.0016 4289765054
-44.031193 880.71967 1295.0016 4289896640
-41.71376 879.8338 1294.2546 4290225350
40.941284 880.42438 1294.7526 4290747824
-43.891743 887.07654 1295.1294 4289502653
-40.811619 886.48779 1294.6329 4289436351
-36.961468 887.07654 1295.1294 4289567417
34.651375 885.31042 1293.6403 4289891213
40.426605 886.19348 1294.3848 4288243062
43.891743 887.07654 1295.1294 4288636005
-36.814678 893.00409 1293.5872 4288909992
-34.51376 893.00409 1293.5872 4289304750
34.51376 893.00409 1293.5872 4288175454
-48.319267 894.76312 1295.0704 4289632958
-36.814678 894.76312 1295.0704 4289173411
-34.51376 894.76312 1295.0704 4289173411
41.416515 894.76312 1295.0704 4288175464
-50.41835 902.40771 1294.9761 4289436588
-41.251377 902.40771 1294.9761 4289305263
-38.195721 901.23969 1293.9912 4289239472
37.813759 900.65564 1293.4988 4287913309
-43.403671 907.79456 1294.2859 4289041841
-41.119267 907.79456 1294.2859 4289304750
-38.834862 907.79456 1294.2859 4289238956
38.834862 907.79456 1294.2859 4287716196
41.119267 907.79456 1294.2859 4288109911
43.403671 907.79456 1294.2859 4288109911
-45.688072 909.54102 1295.7584 4288845241
-43.403671 909.54102 1295.7584 4288779448
-41.119267 909.54102 1295.7584 4289172909
38.834862 909.54102 1295.7584 4287256931
41.119267 909.54102 1295.7584 4287257692
43.403671 909.54102 1295.7584 4287257692
-46.6422 917.10559 1295.5967 4289238695
-43.229359 916.2359 1294.8633 4289172904
-40.954128 915.36621 1294.13 4288909723
31.85321 916.2359 1294.8633 4288179310
34.128441 915.36621 1294.13 4287257190
36.403671 916.2359 1294.8633 4288374895
-40.822018 920.69971 1293.3949 4289895601
-37.420181 920.69971 1293.3949 4289961399
-34.018349 920.69971 1293.3949 4290816969
29.482569 920.69971 1293.3949 4288575841
-40.822018 922.43353 1294.8568 4291673298
-37.420181 922.43353 1294.8568 4292133332
29.482569 922.43353 1294.8568 4287650121
-40.689907 927.73895 1294.0981 4292132817
-36.922325 928.315 1294.5839 4292331474
-33.908257 928.60303 1294.8267 4292398291
-31.647707 929.46716 1295.5553 4292003296
-28.633638 928.89111 1295.0696 4291871190
-24.866055 929.46716 1295.5553 4292199121
-15.823853 929.46716 1295.5553 4292396240
29.387156 929.46716 1295.5553 4283969588
-22.513762 935.19983 1293.8488 4291804618
-19.136696 935.19983 1293.8488 4291673293
-2.2513762 935.19983 1293.8488 4288187077
2.2513762 935.19983 1293.8488 4289173159
4.5027523 935.19983 1293.8488 4289698722
6.7541285 935.19983 1293.8488 4290225066
10.131193 935.19983 1293.8488 4288777109
13.508257 935.19983 1293.8488 4286539606
15.759633 935.19983 1293.8488 4282920734
19.136696 935.19983 1293.8488 4283574858
22.513762 935.19983 1293.8488 4283576381
24.765137 935.19983 1293.8488 4283642175
26.554129 968.44415 1294.4109 4282588971
28.766972 968.44415 1294.4109 4282588971
-61.78899 753.9726 1298.0062 4292266202
-61.559631 760.48376 1296.9562 4292133849
40.629356 760.48376 1296.9562 4290554562
-61.559631 762.36627 1298.5435 4292135132
-61.330276 768.84229 1297.4637 4292135366
-58.877064 768.84229 1297.4637 4292332005
-58.656879 775.29034 1296.3604 4292003296
-56.212845 775.29034 1296.3604 4291937247
-52.546791 775.29034 1296.3604 4291871708
-61.100918 777.15887 1297.9358 4292002262
-58.656879 777.15887 1297.9358 4291805145
-56.212845 777.15887 1297.9358 4291871194
-53.768806 777.15887 1297.9358 4291542741
-70.611008 785.43329 1298.3726 4292266732
-68.176147 785.43329 1298.3726 4291871708
-65.741287 785.43329 1298.3726 4291674329
-60.871559 785.43329 1298.3726 4292068042
-58.436699 784.50256 1297.5878 4291936981
-56.001835 784.50256 1297.5878 4292002518
-52.349541 783.57184 1296.803 4291542741
-70.29174 794.19525 1297.9122 4291936734
-67.867889 792.34216 1296.3497 4291805912
-60.596329 794.19525 1297.9122 4291673048
-58.172478 793.26868 1297.131 4291870179
-55.748623 792.34216 1296.3497 4291673059
-60.366974 800.53528 1296.7178 4291739091
-57.952293 800.53528 1296.7178 4291542745
-55.537613 800.53528 1296.7178 4291674331
38.634861 800.53528 1296.7178 4293253097
41.049541 800.53528 1296.7178 4293253097
43.464222 800.53528 1296.7178 4292529636
-67.611008 802.38135 1298.2743 4291673309
-65.196327 802.38135 1298.2743 4291804895
-61.57431 802.38135 1298.2743 4291870149
-57.952293 802.38135 1298.2743 4291804884
41.049541 802.38135 1298.2743 4293385197
-57.732109 808.68622 1297.0503 4291541457
-55.326607 808.68622 1297.0503 4291541457
-52.921101 808.68622 1297.0503 4291146965
-49.312843 808.68622 1297.0503 4291213010
38.488075 808.68622 1297.0503 4287594675
40.893578 808.68622 1297.0503 4292660735
43.299084 808.68622 1297.0503 4293186798
-64.948624 810.52527 1298.601 4291737303
-61.340366 810.52527 1298.601 4291803603
-57.732109 810.52527 1298.601 4291607764
-55.326607 810.52527 1298.601 4291344848
-52.921101 810.52527 1298.601 4290818252
-49.312843 810.52527 1298.601 4291146962
40.893578 810.52527 1298.601 4288513660
43.299084 810.52527 1298.601 4291078347
-64.70092 817.71118 1298.1198 4291212754
-62.304588 817.71118 1298.1198 4291409871
-58.310699 818.01654 1298.3772 4291146447
-55.115597 817.71118 1298.1198 4290948815
-52.719265 817.71118 1298.1198 4291014863
