# .PCD v0.7 - Point Cloud Data file format
VERSION 0.7
FIELDS x y z rgb
SIZE 4 4 4 4
TYPE F F F U
COUNT 1 1 1 1
WIDTH 1165
HEIGHT 1
VIEWPOINT 0 0 0 1 0 0 0
POINTS 1165
DATA ascii
27.636698 861.75177 785.8811 4286611364
-10.526606 865.48645 784.45197 4285886874
22.631193 866.55438 783.39038 4286479777
25.1 865.48645 784.45197 4286545316
27.574312 864.41858 785.51355 4286545317
-10.507339 868.40814 784.95343 4286018203
-8.0642204 869.2113 783.01465 4285952666
22.579817 869.2113 783.01465 4286544035
25.325384 868.20215 784.77979 4286479267
27.480734 869.02606 785.47449 4286479523
-9.6770639 871.06091 784.5741 4286018203
22.579817 870.44434 784.05432 4286347683
24.730276 871.26642 784.74738 4286413475
27.418348 871.67743 785.09387 4286413728
-9.6550455 875.55334 785.74597 4286149287
-7.6399083 874.67627 784.35242 4285886621
20.871559 875.73572 783.28369 4286281118
22.502752 874.41431 783.47754 4286412706
24.942202 874.93823 785.22729 4286347677
27.355963 875.55334 785.74597 4286414232
-9.6330271 878.19061 785.35364 4285952416
22.477064 876.9632 784.3186 4286150815
24.885323 878.19061 785.35364 4286282142
-9.6000004 881.52441 784.24048 4285952668
-7.4666667 880.70898 783.55292 4285952410
20.799999 880.30121 783.20911 4286282144
22.4 880.91284 783.72479 4286282142
24 881.52441 784.24048 4286150811
-10.4 882.74762 785.27185 4285822367
-7.183486 884.14905 783.8374 4285821595
22.348623 884.14905 783.8374 4286149788
24 882.74762 785.27185 4286413217
-10.110092 886.18311 785.55249 4285886882
-7.4324155 887.17401 783.77191 4285756064
23.121101 886.67828 784.66199 4286216095
-9.5559635 889.20337 785.48303 4285821871
-7.1504583 889.98889 783.52936 4285690276
-4.7669725 889.38153 783.01721 4285624732
20.656881 889.38153 783.01721 4286018207
23.06789 889.89984 784.76227 4285952680
-9.5339451 891.81116 785.0658 4285886886
-7.133945 893.20135 783.62195 4285754782
23.014679 892.50623 784.34387 4285952675
-9.5119267 895.62537 785.66577 4286082719
-7.3981652 894.81738 784.98444 4286016928
-4.7449541 895.80078 783.19763 4286016926
20.561468 895.80078 783.19763 4286279841
23.251375 894.81738 784.98444 4286148777
-6.8538227 897.8161 784.89697 4285755034
-4.7449541 897.01001 784.21716 4285820826
22.670336 897.8161 784.89697 4286018209
-6.3045874 902.70184 785.09241 4285820837
-4.7284403 901.49689 784.07635 4285623967
20.489908 900.29187 783.0603 4286083732
22.591438 902.30023 784.75372 4285952925
-4.7174311 905.28021 784.65027 4285754783
20.442202 904.07806 783.6366 4285886875
22.800919 905.28021 784.65027 4285822112
-6.2899084 906.48242 785.66394 4285755035
-3.9275229 906.56799 784.4281 4285820313
20.394495 907.2533 783.69788 4285952414
22.77523 907.16772 784.93372 4286018209
-4.1773701 910.36304 784.57587 4285689499
20.346788 910.4201 783.75195 4285887907
22.469114 909.90704 785.06348 4286084519
-6.2605505 912.81323 785.76978 4285624480
-3.9091742 912.89746 784.53278 4285623964
20.299082 913.57855 783.79907 4286018207
22.694496 912.81323 785.76978 4286082465
-3.9000001 916.04883 784.57391 4285491605
20.251375 917.32397 784.34106 4285952153
21.86055 915.3692 785.30884 4286082973
-6.2311926 919.11041 785.84729 4285950883
-3.6299694 919.61688 784.53027 4285885340
19.167585 920.06812 784.03876 4285951901
21.809174 919.11041 785.84729 4285820578
-3.8816514 922.32782 784.63605 4285688218
-1.5504587 923.0033 783.89758 4286081947
17.055046 923.0033 783.89758 4285886623
19.404587 922.32782 784.63605 4286083746
-3.1009173 924.18866 784.89697 4285819292
-1.5504587 924.78131 785.39673 4285688476
0.77522933 925.37396 785.89648 4285557660
3.8669724 926.7193 784.41467 4285885337
7.218348 926.32513 784.08234 4285623191
10.054129 926.12805 783.91614 4285688223
13.147707 926.12805 783.91614 4285753497
16.270641 925.11761 785.02625 4285688472
19.380735 924.78131 785.39673 4285819807
6.1871562 927.90179 785.41187 4285951131
10.827523 927.90179 785.41187 4285687972
13.147707 927.90179 785.41187 4285753497
16.241283 927.90179 785.41187 4285753234
20.108257 927.90179 785.41187 4285819290
40.51376 749.03772 787.63776 4286608536
-19.315596 752.03625 786.24194 4287596973
38.631191 752.03625 786.24194 4286542486
-21.07156 754.72113 788.50586 4287202197
37.674309 754.92603 786.0625 4286542485
40.387157 754.04993 787.93988 4286477464
-21.027523 757.60535 788.32153 4287466141
38.550457 756.26569 787.19202 4286412184
40.302753 757.60535 788.32153 4286346390
-20.961468 761.25336 787.47339 4287334301
38.429359 759.91791 786.34741 4286412184
40.176147 761.25336 787.47339 4286542486
-19.770031 763.16864 787.34424 4287268514
37.767582 763.23651 786.52948 4286411411
41.007339 763.35681 787.93896 4286608022
-20.015596 766.60754 787.40979 4287202733
38.227524 767.75751 786.41736 4286542490
40.963303 765.45752 788.40222 4286542488
-20.851376 770.41437 788.65759 4287071131
41.123547 769.52875 787.91083 4286280601
-19.053211 772.70587 786.66565 4287400096
38.106422 772.70587 786.66565 4286411684
39.838531 772.70587 786.66565 4286345891
-19.617125 775.42023 788.08234 4287202457
-17.284403 775.55499 786.4519 4287072428
37.161469 776.2157 787.00897 4286281109
40.683487 775.07269 788.00732 4286281110
43.302753 775.35431 788.8988 4286149777
-20.741285 778.19781 788.68018 4286741398
38.025688 778.19781 788.68018 4286413982
40.618347 778.19781 788.68018 4286216086
-18.952293 781.13538 787.23303 4286939040
34.458717 780.47675 786.67773 4285753736
36.755966 781.35492 787.41815 4286348443
-19.499695 784.55835 788.37518 4286873237
-17.192661 783.31042 786.45093 4286874281
32.666054 783.31042 786.45093 4280629030
34.385323 784.62482 787.55927 4279968556
36.730274 784.05377 788.82178 4280164913
39.627522 783.11115 788.89893 4286544535
32.561466 788.20551 786.65417 4279705693
-18.851376 789.51569 787.75891 4287135641
-17.100918 791.02374 786.41443 4286808486
31.636698 791.02374 786.41443 4285557654
34.27523 790.17078 788.31128 4285031304
-18.811008 792.9848 788.06793 4286741403
32.491745 792.9848 788.06793 4285755804
34.201836 793.63849 788.61914 4285886882
-18.750458 797.19531 787.69409 4286741400
-17.045872 795.89215 786.59521 4286479777
31.534863 796.5437 787.14465 4285756320
-19.602753 798.49847 788.79285 4286544022
-17.009174 799.34521 786.89075 4286741411
31.466972 799.34521 786.89075 4286018979
34.091743 798.49847 788.79285 4285952414
-18.710093 801.29572 788.5354 4286544287
-16.954128 803.53674 786.50085 4286609565
32.212845 803.53674 786.50085 4286347685
34.018349 801.29572 788.5354 4286084264
-16.377981 805.76202 787.50513 4286806943
31.332111 805.57849 786.91437 4286216871
34.755962 805.48096 788.1402 4286216870
-16.917431 808.91089 788.41602 4287004071
32.14312 807.61749 787.32556 4286216871
34.398777 808.47974 788.05255 4286216869
-16.019266 811.78381 786.91443 4287069608
32.038532 811.78381 786.91443 4286348457
34.56789 812.42841 787.45789 4286545321
-15.716208 814.27545 787.27118 4286807205
31.968807 815.19757 787.17664 4286545580
34.56789 813.71759 788.54492 4286479787
-15.959633 817.5918 787.23346 4286742171
31.968807 816.48395 788.26135 4286675883
-16.770641 821.26398 788.36768 4286742167
31.86422 819.98187 787.28662 4286545321
33.541283 821.26398 788.36768 4286742443
-15.897248 823.37518 787.53174 4286544276
31.794495 823.37518 787.53174 4286872744
33.467892 824.01483 788.07104 4286873516
-15.011009 826.21802 786.00464 4286609815
30.855965 826.85559 786.54224 4287004329
-16.6789 828.76825 788.15491 4286544033
-14.977982 830.23145 786.77258 4286544033
31.620184 830.23145 786.77258 4286874281
33.3578 828.76825 788.15491 4287070890
-16.642202 832.77606 788.91809 4286544033
-14.944954 832.96411 786.46069 4286543781
29.889908 832.96411 786.46069 4287070629
31.620184 831.50378 787.84534 4287070629
33.284405 832.77606 788.91809 4286675624
-16.605505 835.50317 788.60144 4286412447
29.889908 834.23364 787.53113 4286872998
31.550459 834.86841 788.06628 4286807463
-16.550459 838.95056 787.58423 4286412447
29.790825 837.6853 786.51733 4286741928
31.445871 838.95056 787.58423 4286807721
-16.550459 840.21588 788.651 4286281116
-14.449541 841.34937 786.99072 4286412446
29.724771 841.03369 786.72461 4286742186
31.411009 841.57166 788.48615 4286807980
33.100918 840.21588 788.651 4286938793
-14.005505 845.00366 787.45587 4286412446
29.10948 844.7937 787.27881 4286741677
-13.137614 849.68201 787.47644 4286281118
29.526606 850.401 786.77466 4286675883
31.201836 850.30975 788.00574 4287136174
-13.108257 853.00037 787.65833 4286215584
-11.444036 854.43549 786.25232 4286215584
28.64312 853.7179 786.95532 4286806950
31.132111 854.25305 788.7146 4286741417
-13.078899 856.3103 787.83307 4286018207
29.427523 856.3103 787.83307 4286741674
31.062386 856.93524 788.35999 4286675883
-13.034863 860.32513 787.29419 4285952414
28.513762 859.70227 786.76904 4286676395
-13.034863 861.5708 788.34448 4285886875
29.262384 862.99463 786.92908 4286675885
30.957798 861.5708 788.34448 4286741678
-12.990826 865.56805 787.79089 4286083484
-11.354129 865.65857 786.5592 4286017691
28.677675 865.59821 787.38037 4286479527
30.888073 864.23749 787.97705 4286610862
30.818348 868.13867 788.65027 4286545321
-12.93211 871.49774 787.55853 4285952669
-10.76942 871.5567 786.73615 4285952670
28.515594 872.02759 786.26123 4286479269
30.713762 872.11566 788.07953 4286544298
-11.289908 874.76001 787.69305 4286018461
29.031193 874.14349 787.17322 4286675885
30.644037 875.37653 788.21289 4286478760
-11.26422 878.01379 787.82056 4286018713
28.428747 877.19366 787.12897 4286413476
-12.858716 880.55847 788.65808 4285887391
25.688074 880.03174 786.90601 4286216096
28.096329 880.64545 787.42346 4286347170
30.574312 879.24402 788.85779 4286413732
-11.2 883.97083 786.30322 4285886623
25.6 883.97083 786.30322 4286281379
27.200001 883.97083 786.30322 4286215586
-12.8 885.80566 787.85028 4285951646
-11.174312 887.8103 786.92444 4285952416
25.570642 886.5022 787.12952 4286215584
27.71254 886.47388 787.54169 4286215329
-13.302752 889.84424 788.63947 4285820826
-11.148623 890.42096 786.50964 4285886621
25.482569 890.42096 786.50964 4286215586
27.904587 890.33606 787.74609 4286215327
-12.741284 892.85614 788.56299 4286082971
-10.341284 892.33228 786.81317 4285886112
25.423853 893.02594 786.09009 4286149793
27.871559 892.24731 788.04962 4286215330
-10.585933 895.51123 787.31366 4285951643
25.394495 895.53906 786.90106 4286018722
27.542505 895.0506 787.79718 4286084259
-10.304587 898.65527 788.22058 4285754777
-7.1174312 899.42834 786.25635 4285689757
23.724771 899.42834 786.25635 4285888159
26.422018 898.45331 788.05029 4285953696
-9.4899082 901.84674 788.29541 4285689238
-7.908257 901.24219 787.78564 4285755034
25.833639 901.44366 787.95557 4285756575
-7.0926609 904.50928 786.61639 4285623958
26.006422 905.11182 787.12439 4285822112
-9.4568806 906.31677 788.14038 4285821330
-7.3443427 907.62939 787.50299 4285755287
26.228746 907.62939 787.50299 4285953440
-9.4348621 910.08893 788.70483 4285755035
-7.0596333 910.85138 786.73169 4285689757
23.53211 910.25171 786.22607 4286150313
25.644648 910.59723 787.3894 4286018208
28.304586 910.08893 788.70483 4285822111
-9.4128437 912.65039 788.24866 4285688988
-7.0522938 913.33008 787.51367 4285688988
23.477064 914.00983 786.77869 4286148766
25.855965 913.33008 787.51367 4286215586
28.238533 912.65039 788.24866 4286149793
-9.3908253 916.40295 788.79651 4285753499
-7.2990823 916.05743 787.63312 4285819805
-4.6844039 916.56293 786.31543 4285688736
22.919878 916.50861 787.1416 4286017439
25.563913 916.00409 788.46021 4285820831
-9.3688078 918.95044 788.32849 4285557658
-7.0192661 919.62592 787.58997 4285689246
22.615597 919.62592 787.58997 4285755301
24.983486 918.95044 788.32849 4285952664
-9.3467894 922.68329 788.85986 4285753749
-7.2648315 922.33868 787.69727 4285886109
-4.6623855 922.84045 786.37634 4285491867
22.830582 922.33868 787.69727 4285754794
24.92477 922.08777 788.35773 4286017426
-6.2165136 924.02863 787.37817 4285557658
-3.8853211 924.62268 787.87909 4285557402
-1.5504587 926.55933 786.89587 4285819292
0.77522933 926.55933 786.89587 4285557152
3.8761468 926.55933 786.89587 4285557658
7.7522936 926.55933 786.89587 4286148766
9.3027525 926.55933 786.89587 4285951144
18.605505 926.55933 786.89587 4285885340
22.258715 925.26825 787.55133 4285622945
4.6513762 927.74463 787.89539 4285557660
6.7186546 928.13971 788.22852 4285622425
10.07156 928.67224 788.0235 4285557405
13.147707 929.08435 786.40894 4285623195
16.241283 929.08435 786.40894 4286016158
19.35688 928.41449 787.15216 4285885340
21.706423 927.74463 787.89539 4285688990
10.827523 931.4494 788.40308 4285491863
13.147707 930.85815 787.90454 4285426073
16.241283 930.85815 787.90454 4285688482
19.334862 930.85815 787.90454 4285623196
21.655046 930.26685 787.40601 4285557658
10.018349 935.80731 788.15332 4285294232
12.844037 935.41455 787.82208 4285360027
16.183487 935.21814 787.65656 4285755029
18.495413 935.80731 788.15332 4285688988
-21.137615 751.05768 789.34094 4287267740
42.27523 752.40436 790.47644 4286477727
44.036697 753.75098 791.61194 4286411932
-22.827522 756.7348 790.20367 4287727260
42.699081 757.91901 790.33014 4286542744
-22.779816 760.28461 790.58069 4287596696
-22.708258 763.92419 789.72546 4288056984
43.669724 763.92419 789.72546 4286608280
-22.708258 765.25964 790.85144 4287399831
-20.917431 766.79016 789.52588 4287070879
43.669724 765.25964 790.85144 4286412184
45.416515 766.59509 791.97742 4286149768
-22.660551 768.78912 791.21136 4287464594
43.57798 768.1228 790.64954 4286149781
45.321102 769.45544 791.77319 4286150029
-22.588991 773.07117 790.89783 4287266436
-20.851376 771.7428 789.77771 4287137178
43.440369 771.7428 789.77771 4286083984
45.177982 773.07117 790.89783 4286281620
43.302753 776.67853 790.01526 4286215824
-22.517431 778.00275 791.13184 4287595649
-20.741285 779.51923 789.79443 4286872996
40.618347 779.51923 789.79443 4286216345
43.21101 779.51923 789.79443 4286281618
45.034863 778.00275 791.13184 4286412438
41.482571 780.84064 790.90857 4286610328
43.21101 780.84064 790.90857 4286478742
-20.67523 784.42834 790.00952 4286544526
37.904587 784.42834 790.00952 4282664781
40.488991 785.08698 790.56482 4286150028
-20.631193 787.91077 790.3299 4286741145
36.964218 787.91083 790.32996 4284044159
37.823853 789.88245 791.99219 4285557140
39.543118 789.88245 791.99219 4285951898
-20.543119 793.54102 789.84491 4286280849
35.393272 793.50946 790.25421 4285755290
37.702751 793.44629 791.073 4285820565
35.911926 796.90692 791.375 4285820831
37.622017 797.56061 791.92615 4285952164
39.332111 797.56061 791.92615 4286412715
-20.455046 799.80164 789.89172 4286478238
-19.291742 802.53247 790.4502 4286741918
35.719265 802.59607 789.63184 4286085029
37.460548 802.50061 790.85938 4286281639
39.205505 801.10486 790.99048 4286150822
-20.411009 805.19684 791.82471 4286149518
39.121101 805.19684 791.82471 4286675887
-18.649542 808.0733 790.32587 4286938781
38.14679 808.0733 790.32587 4286544302
-18.629358 811.40424 791.82642 4286741411
37.91193 811.46027 791.08881 4286741166
34.56789 815.00671 789.63184 4286675885
-18.548624 816.94043 791.26233 4286610583
-16.825687 817.77026 789.34595 4286611866
34.492661 817.77026 789.34595 4286610090
37.659328 817.15527 791.44354 4286741925
-18.508257 820.34296 791.51514 4286412688
35.333946 819.05658 790.43054 4286874029
37.016514 820.34296 791.51514 4287004584
-18.447706 823.82825 790.52979 4286478240
35.218349 822.54614 789.44873 4286873516
36.895412 823.82825 790.52979 4286872748
-18.407339 827.21313 790.76782 4286674840
-16.733946 825.29419 789.14978 4286543774
34.583485 825.72064 789.50934 4286939308
37.692661 826.48157 791.45898 4286807975
-16.6789 830.04333 789.2301 4286609830
34.191742 830.04333 789.2301 4287070633
-18.346788 831.31848 790.3053 4286674579
35.025688 831.31848 790.3053 4287070381
37.249542 832.16864 791.02197 4286873515
-18.286238 835.41052 789.83142 4286347163
34.098167 835.04755 790.17938 4286741166
36.612843 835.32068 791.06372 4286939311
-18.266054 838.67688 791.27753 4286215318
34.871559 838.04218 790.74231 4287004586
36.532108 839.31165 791.81274 4286939311
-18.205505 842.74646 790.78479 4286345889
-16.550459 841.48114 789.7179 4286083736
33.92844 842.11383 790.25134 4286873766
-18.205505 844.01178 791.85168 4286215584
-16.513762 844.82117 789.91809 4286150043
31.376146 844.18994 789.38586 4286939061
33.891743 844.73212 791.151 4287005088
37.238533 844.01178 791.85168 4286347172
-16.513762 846.71497 791.51489 4286018459
-14.829358 847.52307 789.58014 4286281887
32.130276 847.52307 789.58014 4286939046
34.678898 846.71497 791.51489 4287004573
-14.829358 849.41254 791.17334 4286215838
32.07798 850.48889 790.11884 4286938020
34.601833 849.41254 791.17334 4287069346
-16.422018 854.07617 791.18152 4286018459
-14.779817 852.82068 790.12292 4285952666
32.844036 852.82068 790.12292 4286872487
34.48624 854.07617 791.18152 4286872746
-14.746789 855.50568 789.77075 4285952666
32.770641 856.13202 790.29889 4286806954
34.409176 856.75836 790.82703 4286872748
-16.366972 859.3479 791.70245 4286149529
-14.713761 858.81006 789.94086 4286017940
32.152294 859.435 790.46777 4286741418
34.370644 859.3479 791.70245 4286873000
36.047707 858.01105 791.8833 4286872746
-14.66422 862.81647 789.3949 4286017687
-16.836699 864.89258 791.14532 4286083739
-14.631192 866.10181 789.54895 4286017941
31.996328 865.42188 789.84766 4286610341
34.216515 864.68494 790.97034 4286807207
-14.598166 869.37872 789.69592 4286083736
32.440369 869.37872 789.69592 4286478242
34.952293 867.96606 791.12085 4286544549
-14.598166 871.23877 791.26422 4285886873
32.440369 870.61877 790.74146 4286609830
34.873394 871.23877 791.26422 4286544550
-13.740367 874.58734 790.16357 4285952669
32.330276 874.58734 790.16357 4286544035
33.946789 875.20526 790.68457 4286675621
-16.165138 876.4411 791.72656 4285820828
-13.709174 877.22607 789.7724 4286018460
31.450459 877.22607 789.7724 4286544548
34.755043 876.4411 791.72656 4286675622
-14.482569 881.08936 790.41376 4286016917
31.67156 880.41815 790.71979 4286477988
33.869724 879.07562 791.33191 4286478242
-16.091743 882.93469 791.96973 4285951381
-14.449541 884.3277 790.5282 4286017430
28.899082 883.10028 789.49329 4286215073
31.039755 883.91852 790.18329 4286477990
33.79266 882.93469 791.96973 4286675370
-16.055046 885.55511 791.56311 4285821078
-14.4 887.64044 789.39734 4285886871
28.799999 887.64044 789.39734 4286215584
31.255047 886.59778 790.48022 4286084000
33.715595 885.55511 791.56311 4286478760
-16 889.47528 790.9444 4285755283
31.466667 889.27142 790.77246 4286280867
33.599998 890.08691 791.46008 4286412197
-15.963303 892.69196 791.04053 4286082703
-14.366973 892.08173 790.526 4285951888
31.128441 892.08173 790.526 4286411942
-13.530275 895.63611 790.25293 4285951634
28.601835 896.67035 789.16296 4286151076
30.791437 895.29132 790.61621 4286149793
-13.506422 898.49255 790.69928 4285755283
28.601835 897.88513 790.18713 4286019234
30.190826 898.49255 790.69928 4285822111
-13.211009 901.68536 790.77539 4285755539
-11.097248 900.47333 789.75342 4285755285
28.53578 901.07935 790.2644 4286018722
30.121101 902.89734 791.79724 4286019234
-12.653211 904.86975 790.8443 4285756055
-10.676147 903.96283 790.07959 4285624466
28.469725 904.26514 790.33447 4285887905
-10.244954 908.12427 789.66437 4285755033
28.370642 907.52179 789.15637 4285756320
-12.609175 909.9317 791.18835 4285557656
-11.007339 911.29108 789.71851 4285557656
29.877064 911.29108 789.71851 4285820828
-12.579817 913.69543 791.74573 4285753751
-10.197248 913.84979 789.25989 4285622935
26.669725 913.84979 789.25989 4286018207
29.330887 913.34619 790.57928 4285952414
31.449541 913.69543 791.74573 4285886623
-12.550459 916.24854 791.28247 4285753497
-10.968807 916.32434 790.03827 4285819289
26.60734 917.59949 789.80542 4285952664
28.73945 916.29901 790.45294 4285821599
-12.521101 919.99261 791.82324 4285753497
-10.162386 919.47009 790.07471 4285557145
26.544954 920.14423 789.33508 4286083984
28.172478 919.39429 791.31879 4286147999
-10.409786 922.13379 791.01263 4285556884
-7.0100918 923.87421 789.86401 4285557651
25.984098 923.02881 790.02319 4286082714
28.106422 922.53174 791.34814 4285950879
-7.0100918 925.66064 791.37024 4285426074
-3.8853211 926.40491 789.38171 4285425818
-1.5541284 926.40491 789.38171 4285425820
0.7770642 926.40491 789.38171 4285360027
3.1082568 926.40491 789.38171 4285557660
23.311926 926.40491 789.38171 4285557660
25.703669 925.66064 791.37024 4285623186
-3.6262996 927.98907 790.71747 4285491102
-1.5541284 928.18713 790.88446 4285556638
0.7770642 928.18713 790.88446 4285491613
3.6262996 927.98907 790.71747 4285425821
7.7706423 927.59308 790.38354 4285557660
23.311926 928.18713 790.88446 4285492380
0 931.30066 790.89368 4285425818
4.6513762 931.30072 790.89374 4285425817
6.9688072 931.37366 789.64722 4285425817
9.8036699 931.79315 789.56488 4285360279
13.921101 932.63196 789.40015 4285360025
19.334862 932.63196 789.40015 4285557656
21.706423 931.3006 790.89374 4285492125
6.9605503 934.40576 790.89575 4285294235
20.108257 933.81445 790.39722 4285754781
10.275229 937.37842 789.47803 4285359516
13.100918 937.57483 789.64362 4285425052
16.183487 937.57483 789.64362 4285688474
19.266056 937.57483 789.64362 4285688990
10.788991 939.34229 791.13391 4285490843
13.100918 939.34229 791.13391 4285555607
16.183487 939.34229 791.13391 4285293978
18.495413 939.34229 791.13391 4285360027
-22.970642 750.08752 792.44702 4287661726
44.174313 750.08752 792.44702 4286411934
45.941284 752.78931 794.7251 4286412434
-24.660551 755.09766 792.74731 4288977584
44.036697 755.09766 792.74731 4286542486
-24.660551 756.44434 793.88281 4288715177
45.798164 756.44434 793.88281 4286412434
-24.583487 760.76215 793.59943 4288847016
46.533028 760.76215 793.59943 4286412434
-24.53211 764.30353 793.96936 4288846247
45.559631 762.96387 792.83972 4286412688
-24.455046 769.26593 794.22937 4288582296
47.163303 769.26593 794.22937 4286742171
47.06422 772.12073 794.02039 4286609815
-22.588991 774.3996 792.01782 4287463809
45.177982 774.3996 792.01782 4286412436
-24.326605 777.05646 794.25806 4288123277
-22.517431 779.32697 792.24841 4286873209
45.975227 778.19171 793.25323 4286675092
-24.249542 781.9754 794.48145 4288187788
-22.469725 782.16205 792.02271 4286740340
43.21101 782.16205 792.02271 4286544276
46.189602 781.09259 793.73712 4286872722
-24.198166 784.80487 794.2511 4287989903
-22.469725 783.48346 793.13696 4287003258
44.3633 783.92389 793.5083 4286806933
-24.121101 788.37994 793.34143 4287924112
-22.398165 787.72131 792.78613 4286937216
40.77615 787.50177 792.60107 4286016922
43.073395 787.72131 792.78613 4287003804
-24.121101 789.69714 794.45203 4287989907
-22.350458 791.19678 793.10046 4286608254
40.402752 791.19678 793.10046 4286478233
43.93486 789.69714 794.45203 4286807191
-24.069725 792.51123 794.20874 4287859100
-22.278898 794.75647 792.17773 4286674827
37.702751 794.75647 792.17773 4286082971
40.339451 793.63385 793.19324 4286543773
42.981651 792.51123 794.20874 4287267490
-22.278898 796.72174 793.83484 4286740621
41.130276 796.06665 793.28247 4286740896
42.844036 797.37683 794.38721 4287595692
-22.231194 800.17542 794.13086 4286477699
41.042202 798.86798 793.02856 4286871969
42.752293 800.17542 794.13086 4287793325
-22.159634 803.71118 793.18811 4286281086
-20.455046 802.40802 792.08923 4286478492
40.3419 802.84235 792.45557 4286938023
-22.159634 805.01434 794.28687 4286476664
-20.411009 806.49719 792.92114 4286017939
40.822018 806.49719 792.92114 4286938280
43.466972 805.01434 794.28687 4287530149
-20.411009 807.79755 794.01758 4285885324
40.822018 807.79755 794.01758 4286872485
42.522934 807.79755 794.01758 4287464622
-20.344954 811.96179 793.60455 4285623186
40.689907 811.31372 793.05811 4287004073
42.385323 812.60986 794.151 4287662000
-20.300917 815.37762 793.86865 4285557638
38.910091 814.08429 792.7782 4286742441
40.601833 814.73096 793.32343 4287135657
42.293579 815.37762 793.86865 4287727793
-20.234863 818.87415 792.89282 4285557379
38.783485 818.87415 792.89282 4286938791
40.469727 818.87415 792.89282 4286938276
43.13945 816.67096 794.95923 4287530406
-20.234863 820.16327 793.97974 4285688724
38.699081 821.62927 792.59973 4286938541
40.469727 820.16327 793.97974 4287070118
42.155964 820.16327 793.97974 4287464876
-20.190826 823.55884 794.22662 4285490566
40.381653 822.91565 793.68433 4287267494
42.06422 824.20197 794.76892 4287333036
-20.124771 827.67462 793.77295 4285621890
41.088074 827.03357 793.23242 4287069861
-21.801834 828.95679 794.854 4285556345
-20.080734 830.4115 793.4646 4285491863
38.488075 829.13214 792.38586 4287070379
40.719265 829.98505 793.10498 4287659677
43.603668 828.95679 794.854 4287921032
-20.014679 833.86871 792.45557 4286018189
38.361469 833.86871 792.45557 4286347174
40.93211 832.77979 793.49939 4290550981
43.508255 831.6908 794.54321 4291807187
-21.68257 836.41895 794.60583 4285490552
-19.970642 836.59302 792.13647 4285360266
37.444954 836.59302 792.13647 4286346924
41.141285 835.56885 793.88898 4291409632
-19.970642 838.50146 793.74561 4285556624
38.277065 837.8653 793.20923 4285886623
39.941284 838.50146 793.74561 4286806706
-19.926605 841.85065 793.95361 4285492117
37.362385 840.58118 792.88318 4286610344
39.85321 841.85065 793.95361 4286084268
-18.205505 845.27704 792.91846 4286018207
37.238533 845.27704 792.91846 4286477988
-18.205505 846.54236 793.98535 4285822111
-16.513762 847.97742 792.57935 4286018459
37.198166 847.25989 793.28235 4286740644
39.7211 846.54236 793.98535 4285886371
-18.702141 850.55811 793.8833 4285754772
-16.477064 850.67224 792.23547 4286018459
34.601833 850.67224 792.23547 4286938280
37.094498 850.94397 793.11859 4286609321
39.633026 849.87115 794.17609 4285754279
-19.772476 853.19159 794.35974 4285359495
37.897247 853.19159 794.35974 4286412449
-18.611622 856.5871 793.29865 4286017429
-16.422018 855.33167 792.24011 4286215572
37.22324 856.58716 793.29865 4286215073
39.412846 857.84259 794.3573 4285819561
-18.843121 859.89008 793.46759 4285557399
36.866974 859.89008 793.46759 4286477989
-19.618349 863.18457 793.62927 4285096855
-17.983486 861.93469 792.57544 4286083484
35.966972 862.55963 793.10236 4286807211
37.601833 863.18457 793.62927 4286018209
-19.618349 864.43445 794.68311 4285096576
-17.108257 866.55341 792.54578 4286083732
37.601833 864.43445 794.68311 4285952927
39.236698 864.43445 794.68311 4285756320
-19.552294 869.04474 794.64636 4285030785
-17.367584 868.68427 793.4704 4285952401
37.390827 869.20892 792.16882 4285952927
39.104588 868.42188 794.12122 4285624219
-17.069725 871.07318 793.74072 4285952416
37.390827 870.45178 793.2168 4285624217
39.016514 871.69458 794.26465 4285754783
-17.031193 873.71887 793.35541 4286018200
35.684402 873.09888 792.83264 4286675370
37.847095 874.33887 793.87817 4286017696
-17.242813 878.08887 793.11603 4285820816
35.563301 877.67694 792.76868 4286543785
37.179817 878.29486 793.28967 4286280354
-16.934864 880.92517 792.89142 4285951386
34.944958 880.71967 792.71808 4286477731
37.179817 880.14862 794.85266 4286215071
-17.700918 884.16492 793.00696 4285820828
35.401836 884.16492 793.00696 4286479272
37.095413 882.77472 794.45093 4285952927
-17.660551 886.78253 792.59814 4285886369
34.518349 886.78253 792.59814 4286543785
37.011009 885.39514 794.04431 4286083232
-19.266054 889.23737 794.66797 4284899211
-17.660551 888.00995 793.63306 4285952148
35.321102 888.62366 794.15051 4286477742
37.461773 888.82819 794.323 4286017703
-17.190826 892.87805 793.15967 4285820308
31.926605 893.91235 792.06958 4286412197
34.400002 892.53333 793.52295 4286411687
36.799999 893.75653 794.55432 4286608811
-16.761467 895.74292 793.61304 4285689226
33.522934 895.74292 793.61304 4286082969
-15.926605 897.72656 792.66956 4285755275
31.85321 897.72656 792.66956 4286017176
-15.889908 901.52954 793.26001 4285623950
-14.300918 900.3147 792.23572 4285821321
31.250153 900.71967 792.57715 4286215584
33.407341 901.453 794.5036 4286083742
-15.853211 905.32129 793.84119 4285492115
-14.26789 904.71533 793.3302 4285557909
31.17798 904.51337 793.15985 4286018465
33.291744 905.32129 793.84119 4286149793
-15.853211 906.53326 794.86304 4285689228
-13.444036 907.28809 792.88342 4285623442
30.842201 907.28809 792.88342 4285952670
34.045872 907.21301 794.12811 4286214815
-13.422018 910.11926 793.30853 4285492115
31.522936 911.13672 792.20435 4286016928
33.21468 909.10187 794.41272 4286148514
-14.185321 912.94415 793.72839 4285557136
31.449541 914.89764 792.7594 4285952418
33.598778 913.5954 793.40546 4286017952
-13.334863 917.44788 792.2937 4285622422
29.807339 917.44788 792.2937 4286016926
31.449541 916.09979 793.77307 4286082730
33.808258 916.70087 794.27985 4286280873
-14.119267 919.24695 793.81067 4285557400
29.807339 918.64728 793.30505 4286147742
32.160549 919.24695 793.81067 4285885858
-12.5211 922.38574 793.84106 4285688729
-10.418349 923.67773 793.18634 4285426070
29.329819 922.72064 793.46948 4285754781
-9.3688078 925.51611 793.8645 4285360025
-7.8073397 926.11298 794.3678 4285688474
28.106422 925.51611 793.8645 4285688987
-6.2311926 927.44708 792.87659 4285753499
-3.8944955 928.63806 793.88074 4285491098
-1.5541284 929.96936 792.38721 4285360027
1.5577981 929.23352 794.38281 4285360025
3.1082568 929.96936 792.38721 4285425818
23.311926 929.96936 792.38721 4285820576
25.693886 928.85992 793.63184 4285492377
-1.5541284 931.15747 793.38904 4285360027
0 931.75159 793.88995 4285491352
3.1082568 931.75159 793.88995 4285425811
23.311926 931.75159 793.88995 4285556899
4.6513762 934.26404 793.39233 4285425810
21.706423 934.26404 793.39233 4285753769
4.6513762 936.04199 794.89148 4285424787
7.1152291 937.12561 793.18903 4285228445
9.6674318 937.65771 793.6377 4285556119
13.147707 938.54462 794.3855 4285753238
17.014679 938.54462 794.3855 4285425818
19.592661 938.15045 794.05316 4285425302
21.655046 937.36206 793.38843 4285359777
15.412844 940.52057 792.12756 4285425818
-25.700916 749.12585 795.56018 4289305775
46.970642 749.12585 795.56018 4286412688
-28.359632 751.15845 797.27405 4289502891
-26.587156 750.4809 796.70276 4289437351
47.85688 750.4809 796.70276 4286412434
49.629356 751.15845 797.27405 4286478229
-28.271559 755.49103 797.00305 4289437351
-26.504587 754.14014 795.86414 4289437101
47.708256 754.14014 795.86414 4286544276
49.475231 755.49103 797.00305 4286609045
-26.422018 757.79095 795.01831 4289305765
47.559631 757.79095 795.01831 4286478229
-28.770643 760.0354 796.91071 4289240749
-26.422018 759.13763 796.15381 4289240490
49.321102 759.81091 796.7215 4286543510
-28.095413 764.11829 796.4292 4289437862
-26.339449 762.77582 795.29736 4289042593
47.411011 762.77582 795.29736 4286346890
49.166973 764.11829 796.4292 4286610067
-28.973394 765.46075 797.56116 4289371815
-25.700304 766.08966 795.4754 4288582812
47.311928 765.64319 795.09888 4286413201
49.06422 766.98285 796.22839 4286807182
-28.036697 768.32245 797.35803 4289306535
-25.369724 769.46191 796.35675 4288714393
48.910091 770.60138 795.35547 4286741396
-28.822018 773.27228 797.60742 4289239204
-25.302753 772.69507 795.81274 4288582297
47.06422 773.45331 795.14404 4286544024
49.783485 772.60455 797.04443 4286740885
-26.14679 775.45227 796.82953 4289107886
48.807339 775.45227 796.82953 4286806677
-25.195412 779.04907 795.93817 4288647579
48.65321 779.71332 796.49817 4287004573
-27.801834 781.04175 797.61829 4289238702
-28.579817 785.948 797.83105 4289108391
-25.981651 783.96167 796.15631 4288515492
46.766972 783.29956 795.59802 4286872723
48.499084 784.62378 796.71454 4286871955
-27.655046 788.7691 797.59363 4288780200
-25.926605 787.44769 796.47949 4288647587
44.939449 786.12628 795.36523 4286872725
46.667889 787.44769 796.47949 4286806932
48.396332 788.7691 797.59363 4287069584
-25.844036 791.01434 795.56274 4288385442
44.796329 791.01434 795.56274 4287267483
-25.2526 793.26862 796.59149 4288055961
43.841286 793.82556 795.31702 4287595171
46.519264 792.99011 797.22864 4287463061
48.242203 792.99011 797.22864 4287331989
-24.929358 795.79718 796.97943 4287793048
44.700916 795.14001 796.42529 4287397266
46.420185 796.45435 797.53357 4287923858
-23.992661 799.3421 796.04425 4287201677
44.557796 798.68701 795.49194 4287923858
46.271561 799.99719 796.59656 4287857817
-25.706423 801.30737 797.70129 4288318102
-23.941284 802.79016 796.33557 4287463559
43.607338 801.48279 795.23315 4287792549
47.078899 802.04877 797.01843 4287529624
-23.050459 805.20752 796.41174 4287067259
44.319267 806.3175 795.38562 4287529884
47.027523 804.09753 797.43787 4287529369
-25.568808 808.92389 797.58325 4287988873
-23.280121 808.54755 796.39386 4287002749
43.373394 809.0979 795.11401 4287595943
46.592052 808.4895 797.21698 4287398042
-22.962385 811.04846 796.75867 4286805631
44.223854 810.39825 796.21045 4287596194
45.92477 811.69861 797.30688 4287793057
-22.605505 814.77008 795.97247 4286608252
44.080734 813.90601 795.2439 4287858850
45.776146 815.20215 796.33679 4287661472
-22.838531 817.96436 796.04968 4286609281
43.985321 817.96436 796.04968 4287857565
46.623856 816.49835 797.42969 4287726233
-22.802753 820.3551 796.10352 4286477700
43.070641 820.3551 796.10352 4287464354
45.677063 819.25769 797.14026 4287661726
-21.921101 823.38611 796.6972 4285555830
43.842201 822.74158 796.15369 4287529886
45.528439 824.0307 797.24072 4286937998
43.746788 825.48828 795.85352 4286937998
45.429359 826.77466 796.93811 4287789446
-21.801834 830.23889 795.93506 4285688445
45.280735 830.23889 795.93506 4291083207
-21.754128 832.97009 795.62195 4285359732
43.508255 832.97009 795.62195 4293646822
45.280735 831.521 797.01611 4292988892
-23.427523 835.52875 797.7793 4286609034
43.508255 834.24945 796.70068 4294438391
45.181652 835.52875 797.7793 4293978353
-21.68257 838.33167 796.21857 4285490552
41.697247 837.69409 795.68103 4293123071
43.365139 838.33167 796.21857 4294175734
45.033028 838.96918 796.7561 4293715697
-22.206728 841.62701 797.25311 4285820287
41.605503 841.04608 795.89124 4292531967
43.269726 842.31836 796.96399 4293978358
45.033028 840.24432 797.8313 4293781490
-21.587156 845.65918 797.16479 4285490804
-19.926605 843.75488 795.55914 4285097875
40.683487 843.75488 795.55914 4288913105
43.174313 845.65918 797.16479 4293978614
-19.86055 847.80762 795.05225 4285294232
41.376148 847.80762 795.05225 4291412731
-22.051376 850.39203 796.35938 4285949807
40.764526 850.86761 795.88824 4289636070
43.031193 849.70557 796.65259 4293517819
-22.568808 853.44824 797.19214 4286738816
-19.772476 854.45129 795.42188 4285687943
40.368805 854.45129 795.42188 4288714455
42.93578 853.65863 797.36957 4292990954
-21.420183 855.711 796.48401 4285686648
41.192661 855.711 796.48401 4290951415
42.840366 856.97064 797.54614 4292990954
-21.348623 859.72583 795.94519 4285687164
40.233948 859.09808 795.41589 4288188872
42.697247 860.35358 796.47449 4292794082
-22.14587 862.31543 796.82062 4285885059
40.417126 862.18658 795.40399 4288782546
42.697247 861.60907 797.53308 4292266982
-21.25321 866.3092 796.26398 4284898420
-19.618349 865.68427 795.73706 4284834171
40.871559 866.3092 796.26398 4290229729
42.601833 864.27441 797.16431 4291872741
-22.888073 868.18402 797.84473 4286477197
40.871559 868.18402 797.84473 4290031328
42.50642 868.18402 797.84473 4291346395
-21.99633 871.53613 796.74695 4285556349
-19.530275 871.61389 795.50464 4284702087
39.875229 872.23676 796.02979 4287662780
42.363304 872.78174 797.79724 4291083227
-21.133945 874.80176 796.88452 4285095281
-19.508257 874.1803 796.3606 4284506233
40.6422 874.1803 796.3606 4288978638
-19.46422 877.43909 796.49213 4284965514
38.92844 877.43909 796.49213 4285886107
-19.398165 881.38446 795.89465 4284833933
38.796329 881.38446 795.89465 4285557910
-21.014679 883.23822 797.45776 4285357166
-19.354128 884.00775 795.4906 4285031316
38.708256 884.00775 795.4906 4285492117
40.412846 882.6203 796.93677 4287531443
42.029358 883.85614 797.97876 4289963209
-20.138531 886.54956 796.32568 4285095545
38.620182 886.62537 795.08154 4285557658
40.828136 886.52344 796.73956 4287399859
-20.092659 889.77539 796.4295 4285095541
37.729355 890.46484 795.70288 4286215077
41.033943 889.08588 797.15613 4287728050
-20.068806 892.30597 797.25525 4284898424
38.532108 892.30597 797.25525 4285690526
40.672787 892.51056 797.42773 4286610598
-19.200001 895.59131 796.10138 4284505208
35.200001 894.97974 795.58569 4286016926
37.333332 895.79523 796.27325 4286215331
-19.200001 897.42615 797.64844 4284768124
-17.559633 898.18372 795.67114 4285623432
34.587154 897.98029 795.49969 4286215325
37.5578 898.11005 796.91705 4285952156
40 897.42615 797.64844 4285031314
-17.559633 900.0144 797.2146 4285229459
35.038532 901.37939 795.74951 4286214039
37.722324 901.33026 796.58008 4286083229
-17.478899 905.17389 796.33289 4285361292
34.957798 903.95911 795.30859 4286148246
37.07645 904.76898 795.99146 4286346399
39.816513 903.81458 797.80286 4284965519
-16.910093 908.14923 796.22559 4285426322
34.877064 907.7453 795.88501 4286149277
37.277065 908.01215 796.76398 4286149279
39.72477 906.38867 797.35718 4285097359
-19.023853 910.16925 797.92883 4284503685
-16.357187 910.66681 796.60431 4285556881
34.796329 910.31104 795.43225 4286082719
37.212845 910.84473 797.19037 4286149535
39.633026 910.16925 797.92883 4284965519
-16.579817 913.74054 796.36194 4285425562
34.675228 914.75165 795.25244 4286148762
37.168808 912.72943 797.47144 4286083745
-16.549541 916.55908 796.77643 4285228948
37.302143 916.35822 796.60712 4286282405
-16.117889 920.00684 797.06738 4285621906
34.594494 918.50415 795.80029 4285558433
36.795959 919.94666 797.01672 4286084775
-15.688073 923.4447 797.3501 4288586680
-14.119267 922.2453 796.33887 4285689492
32.160549 922.2453 796.33887 4285754781
34.51376 922.24536 796.33887 4285820577
-12.521101 925.37714 796.36334 4286214532
-10.434251 925.5766 796.53149 4285622661
29.737616 925.37714 796.36334 4285688989
31.302752 925.9754 796.8678 4285688990
-10.173394 927.172 797.87671 4288980168
-7.0311928 927.57153 796.25153 4285427098
-4.1639142 929.29639 797.05182 4285228693
26.544954 929.69427 797.38733 4285491613
28.514221 928.1684 796.75476 4285491868
-1.5577981 931.0199 795.88904 4285621920
1.5577981 931.61536 796.39117 4285490580
24.92477 931.0199 795.88904 4285491613
-1.5577981 933.40179 797.89746 4286015127
0.51926607 933.8858 796.56152 4285753495
3.1082566 934.72192 796.39447 4285622416
23.311926 934.72192 796.39447 4285491107
4.6513762 937.22736 795.89099 4284503153
6.9770641 937.82007 796.39069 4284046743
10.077982 938.41272 796.89038 4284768908
13.178899 938.41272 796.89038 4285557140
17.055046 938.41272 796.89038 4285426070
19.380733 938.41272 796.89038 4285492117
21.706423 937.22736 795.89099 4284965017
15.46789 939.72711 795.38257 4285426070
19.380733 939.59802 797.88977 4285426322
51.508255 748.94202 798.02124 4286412436
-31.082569 750.97888 799.73865 4289634743
52.396332 750.97888 799.73865 4286543509
-31.018349 753.86859 799.5592 4289371573
52.288074 753.86859 799.5592 4286609300
-30.922018 757.51733 798.71161 4289372086
51.242203 757.51733 798.71161 4286609303
-31.706423 761.83093 798.42468 4289503926
-29.944954 761.83093 798.42468 4289438133
52.045872 760.68726 799.42242 4286609809
-33.467892 764.52423 800.69568 4289831594
-31.706423 763.17761 799.56018 4289569455
51.963303 763.85095 800.12793 4286806928
-31.60734 766.80316 798.69312 4289437862
-29.851376 766.80316 798.69312 4289437862
50.922935 766.80316 798.69312 4286741396
-31.541285 769.66211 798.48755 4289569443
-28.912844 769.66211 798.48755 4289306022
50.816513 769.66211 798.48755 4286740885
52.678898 768.14563 799.82495 4286806678
54.434864 769.4881 800.95691 4286937494
-31.541285 771.67163 800.18188 4289634458
52.568806 771.67163 800.18188 4287003543
-28.822018 774.60767 798.7334 4289108125
50.656879 774.60767 798.7334 4287135641
52.403671 775.94312 799.8595 4287003801
54.150459 775.94312 799.8595 4287003801
-31.376146 778.11755 799.07684 4289437602
-29.051987 777.89545 798.88959 4289107873
50.550457 778.11755 799.07684 4287069854
52.293579 778.78381 799.63867 4287004055
54.150459 777.27856 800.98547 4287004055
-31.277063 782.37012 798.7384 4289503657
-28.670643 782.37012 798.7384 4289108392
50.390827 782.37012 798.7384 4287003539
52.293579 780.11646 800.76221 4286872723
54.036697 780.11646 800.76221 4286806930
-33.014679 783.69855 799.85852 4289568687
-31.277063 783.69855 799.85852 4289306535
50.390827 783.69855 799.85852 4287003791
52.997246 785.02698 800.97864 4287004307
-31.177982 787.93433 799.50592 4289239973
-29.445871 787.93433 799.50592 4288976801
50.231194 787.27222 798.94763 4287135378
51.963303 788.59644 800.06421 4287135380
-27.655046 790.75122 799.26489 4288910753
50.124771 790.75122 799.26489 4287266452
51.85321 791.41193 799.82202 4287200923
-28.475229 793.84961 799.91534 4288779680
49.103668 794.96594 798.89453 4287594645
51.85321 792.73328 800.93616 4287463840
-28.399082 797.026 799.32355 4288713886
-25.78899 797.7688 798.64185 4288384413
49.052292 797.026 799.32355 4287464090
-27.508257 799.74036 800.3042 4288910495
49.858715 799.08313 799.75012 4287923612
51.57798 800.39758 800.85828 4287464092
-27.420183 803.92773 799.91077 4289041564
-25.706423 802.61755 798.80603 4287989392
49.699081 803.27264 799.3584 4287594647
51.412846 803.92773 799.91077 4287660440
-27.361467 806.71228 799.64258 4289107355
-25.651377 805.40491 798.54028 4287857290
47.882568 805.40491 798.54028 4287528854
49.592659 806.71228 799.64258 4287594647
51.302753 806.71228 799.64258 4287660440
-27.361467 808.01965 800.745 4288909971
49.592659 808.01965 800.745 4287660442
51.302753 808.01965 800.745 4287660440
-27.841589 812.39899 800.51337 4288646813
-25.541285 811.61304 798.54272 4288054922
47.677063 811.61304 798.54272 4287660440
49.433029 811.53021 799.78088 4287660438
51.705811 812.39899 800.51337 4287529875
-27.21468 815.59973 800.59619 4288448918
-25.513762 814.29938 799.49976 4288054413
49.326607 814.29938 799.49976 4287726487
51.027523 815.59973 800.59619 4287398797
-25.431192 817.79449 798.52258 4288251796
47.471561 817.79449 798.52258 4287595929
49.166973 817.79449 798.52258 4287595929
-25.431192 819.73877 800.16193 4288187027
-23.684404 821.19769 798.776 4287266447
46.80489 820.98212 798.59424 4287332756
49.961468 820.4682 799.46893 4287200905
52.557796 820.38684 800.70837 4287134598
-25.376146 823.13776 800.41187 4287923851
49.906422 823.13776 800.41187 4287199628
-26.136696 827.89813 800.50159 4287792024
-23.60734 825.96448 798.87115 4287135634
47.21468 825.31989 798.32764 4287134346
48.900917 827.25354 799.95813 4291542472
-23.555964 829.34729 799.10742 4286873227
47.111927 829.34735 799.10742 4292594903
-23.478899 832.80316 798.09717 4286674827
45.280735 832.80316 798.09717 4293977840
-25.155964 835.36743 800.25928 4287725452
-23.427523 836.80811 798.85803 4286806412
46.906422 835.44666 799.01813 4293780967
48.634861 835.36743 800.25928 4293583845
-25.100918 838.0874 799.93677 4287725189
46.855045 838.0874 799.93677 4293583591
-23.350458 842.15698 799.44397 4286740874
46.144955 841.94452 799.26483 4293780976
-23.299082 845.49915 799.64587 4286936449
44.933945 844.22687 798.57312 4294307836
46.598164 845.49915 799.64587 4293912306
-24.963303 846.77148 800.71875 4287725715
44.834862 847.56348 798.77045 4294044159
46.598164 846.77148 800.71875 4293978101
48.262386 846.77148 800.71875 4294109688
-24.825687 851.60352 798.25281 4287725452
44.686237 851.60352 798.25281 4294175231
46.495415 849.46771 800.3761 4293254379
-24.825687 853.50146 799.85315 4287790727
44.686237 852.86884 799.3197 4294372859
46.892963 853.7124 800.03094 4293845484
-23.119267 855.55237 798.96631 4287134096
44.587154 855.55237 798.96631 4294109436
46.238533 856.81488 800.03088 4293976814
-23.06789 858.23035 798.60828 4286674831
44.488079 859.49005 799.67041 4293977851
-22.990826 862.8645 798.59167 4286608782
-24.633028 865.37549 800.70874 4287857801
-22.939449 865.5271 798.22058 4286608782
43.727219 865.47559 799.04913 4293123315
45.981651 865.37549 800.70874 4293912308
-24.577982 868.03241 800.33301 4287857801
43.373394 868.73315 799.61578 4292661997
45.878899 868.03241 800.33301 4293846513
-24.522936 870.68378 799.95239 4287725189
44.141285 870.68378 799.95239 4294175231
-22.811008 874.65015 799.3728 4286608258
40.733944 874.02734 798.84766 4288582848
42.906422 874.85773 799.54785 4292069092
-21.692968 877.03119 799.63641 4285752688
40.6422 876.66602 798.45642 4288255169
43.130276 877.21375 800.22632 4292463848
45.622017 876.51868 800.94824 4293977838
-22.733944 880.46545 800.35199 4287001991
40.550457 879.29913 798.06055 4287597237
42.172478 880.53918 799.10608 4290162123
-22.631193 885.7099 799.54181 4286936451
43.64587 886.32782 800.06287 4294241023
-22.579817 889.5564 800.16901 4286607740
-20.919266 890.3161 798.19348 4285160295
41.838531 890.3161 798.19348 4289239997
43.546787 888.93988 799.64917 4294306047
43.447708 892.16144 799.74939 4294109439
-20.871559 895.37451 799.84259 4284898147
41.207951 894.55621 799.15265 4287399086
43.348625 895.98822 800.36011 4294240511
-19.733334 899.46484 799.36737 4284833914
41.066666 899.05713 799.02362 4286477733
-19.977982 901.77551 800.00763 4284176236
-17.559633 901.2348 798.24365 4285557640
40.706421 901.84497 798.75818 4285754527
43.200001 901.09583 800.74255 4293583871
-19.954128 903.6756 800.30164 4284372843
41.409176 905.03217 798.82947 4285887916
-22.297247 907.46741 800.88281 4286606446
-19.862385 908.21094 798.89362 4284634735
40.7841 908.00848 798.7229 4285689504
43.001835 907.46741 800.88281 4292925439
-19.840366 910.70715 799.69037 4284503661
40.42569 911.38123 798.95068 4285228695
-19.816513 913.19922 800.48358 4284307305
-17.398165 913.9386 798.49097 4285491347
40.659328 913.44562 799.81934 4285163157
-18.979816 915.75238 800.02026 4284242051
40.332108 915.75238 800.02026 4285163414
-17.337614 918.36658 798.30042 4284767876
39.797707 919.8728 799.57043 4285031829
-17.297247 922.71173 799.34802 4292396503
36.953213 922.71173 799.34802 4285886369
-15.706422 924.57959 799.61493 4292529107
-13.596332 925.44366 799.03558 4290622144
32.422016 925.44366 799.03558 4285688990
34.51376 925.24377 798.867 4285820830
36.953209 924.51501 800.86853 4285952419
39.311928 924.51501 800.86853 4284899989
-12.550459 927.04285 800.38391 4291741151
-10.197248 927.04285 800.38391 4289636294
-6.7822628 928.7674 799.22192 4286149528
-4.6954126 929.56512 799.89453 4285294470
28.989908 928.30396 800.13922 4285426333
32.160549 927.04285 800.38391 4285622945
34.51376 927.04285 800.38391 4285754783
-3.6495411 930.80377 800.06689 4285489544
-1.5614679 930.888 798.39392 4285752984
25.764221 931.48486 798.89722 4285491613
28.172478 930.76166 800.90344 4285361310
-1.5614679 933.27551 800.40698 4286803596
0.77889907 935.18823 799.40369 4286935943
3.1155963 935.78369 799.90576 4285950588
23.366972 935.78369 799.90576 4285360027
25.764221 933.27551 800.40698 4285360027
4.1467891 937.45312 799.56934 4287792541
6.7406731 937.45306 799.56934 4284312484
10.101835 938.28638 799.3999 4283585160
13.210092 938.28638 799.3999 4284373645
16.318348 938.28638 799.3999 4285426070
22.294189 937.45306 799.56934 4285360026
13.210092 939.47449 800.40173 4283651721
16.318348 939.47449 800.40173 4284704659
19.426605 939.47449 800.40173 4285360265
21.757797 939.47449 800.40173 4285491347
55.231194 749.35785 802.29602 4286740887
57.012844 750.71991 803.44446 4287003539
-33.746788 753.01569 801.45605 4289898167
53.174313 755.90118 801.27307 4286740887
55.948624 754.37354 802.60095 4286938519
58.612843 755.73145 803.74585 4286741396
55.537613 758.15967 803.17743 4286675344
53.009174 760.89447 801.5592 4286741389
55.954128 762.69562 803.07782 4286806677
58.310093 763.59619 803.83716 4287003289
60.077065 763.59619 803.83716 4286937494
55.486237 766.54425 802.3988 4286871958
58.128441 767.21759 802.96655 4287069337
54.434864 770.83051 802.08887 4286937748
56.073395 773.68103 801.87622 4287004055
57.946789 772.17297 803.2207 4287004055
56.073395 775.02069 803.00574 4287069335
57.825687 775.02069 803.00574 4287003541
55.897247 779.28174 802.67444 4286937748
57.644035 779.28174 802.67444 4287003541
52.293579 781.4491 801.88586 4287003793
