# .PCD v0.7 - Point Cloud Data file format
VERSION 0.7
FIELDS x y z rgb
SIZE 4 4 4 4
TYPE F F F U
COUNT 1 1 1 1
WIDTH 1176
HEIGHT 1
VIEWPOINT 0 0 0 1 0 0 0
POINTS 1176
DATA ascii
-1.6293578 871.53607 796.74695 4285294202
0.54311925 871.53607 796.74689 4285294203
4.0733948 872.78174 797.79724 4285228409
7.3321099 872.78174 797.79724 4285490554
10.590826 872.78174 797.79724 4285228157
13.034863 872.78174 797.79724 4285292924
17.108257 871.53607 796.74695 4285096828
19.552294 872.78174 797.79724 4285095794
21.99633 872.78174 797.79724 4285161334
25.255047 872.78174 797.79724 4285227644
27.699083 872.78174 797.79724 4285096828
35.845871 872.78174 797.79724 4284637322
37.475231 872.78174 797.79724 4284637322
47.251377 872.78174 797.79724 4293187552
49.695412 872.78174 797.79724 4293056988
52.954128 872.78174 797.79724 4292859353
55.398167 872.78174 797.79724 4292728018
57.842201 872.78174 797.79724 4292793559
-10.566973 875.42316 797.40845 4285293945
-7.3155961 875.42316 797.40845 4285097591
-4.0642204 874.1803 796.3606 4285163124
-1.6256881 874.1803 796.3606 4285097080
0.81284404 874.80176 796.88452 4285294201
4.8770642 875.42316 797.40845 4285294200
7.3155961 875.42316 797.40845 4285162616
10.566973 875.42316 797.40845 4285095544
14.089297 875.00885 797.05914 4285161336
17.069725 874.1803 796.3606 4285031035
19.508257 875.42316 797.40845 4285096574
21.946789 875.42316 797.40845 4284964473
50.396332 875.42316 797.40845 4293188317
52.834862 875.42316 797.40845 4292794078
56.086239 875.42316 797.40845 4292859607
-9.73211 878.05908 797.01489 4285030781
-7.2990828 878.05908 797.01489 4285491328
-4.3253822 877.23242 796.31787 4284965494
-1.6220183 876.81903 795.96936 4285294204
0.81100917 877.43909 796.49213 4285228408
4.0550461 878.05908 797.01489 4285293680
7.2990828 878.05908 797.01489 4285227128
10.543119 878.05908 797.01489 4285161337
13.787156 878.05908 797.01489 4285095794
17.031193 877.43909 796.49207 4285031034
19.46422 878.05908 797.01489 4285096324
21.897247 878.05908 797.01489 4284964733
25.952293 878.05908 797.01489 4285030001
50.28257 878.05908 797.01489 4293254108
51.904587 878.05908 797.01489 4292925411
55.148624 878.05908 797.01489 4292991195
-6.4660549 881.38446 795.89465 4285425788
-4.0412846 881.38446 795.89465 4285031032
-1.6165137 881.38446 795.89465 4285096828
0 881.38446 795.89465 4285097080
-21.822937 883.85614 797.97876 4285424246
-19.398165 883.85614 797.97876 4285097078
-16.165138 883.85614 797.97876 4285163121
-13.740367 883.85614 797.97876 4285293683
-10.507339 883.23822 797.45776 4285358963
-7.274312 883.23822 797.45776 4285162355
-4.0412846 882.6203 796.93677 4285031284
-1.612844 884.00775 795.4906 4285031033
1.0776758 883.03223 797.28412 4285096314
4.0412846 883.85614 797.97876 4285161336
7.274312 883.85614 797.97876 4285227131
10.507339 883.85614 797.97876 4285161335
14.009786 883.44415 797.63141 4285030008
16.973394 883.23822 797.45776 4284833399
19.398165 883.23822 797.45776 4284899193
21.553518 883.44415 797.63141 4284964985
25.055964 883.85614 797.97876 4285096828
28.28899 883.85614 797.97876 4284965243
31.522018 883.85614 797.97876 4285228417
34.755043 883.85614 797.97876 4285097605
37.988075 883.85614 797.97876 4284703364
40.412846 883.85614 797.97876 4290229976
49.303673 883.85614 797.97876 4292925402
52.536697 883.85614 797.97876 4292991195
55.769722 883.85614 797.97876 4292925913
59.002754 883.85614 797.97876 4292794584
-6.451376 886.47382 797.56982 4285031033
-4.0321102 885.8573 797.05005 4285030776
-1.612844 885.8573 797.04999 4285162107
0 885.8573 797.04999 4285227129
16.934864 886.47382 797.56982 4284899192
32.256882 886.47382 797.56982 4285097087
33.869724 886.47382 797.56982 4285097087
-1.6091744 889.08588 797.15613 4285096826
32.183487 889.08588 797.15613 4285031294
-4.0137615 892.91968 797.77271 4285030261
-1.6055046 892.91968 797.77271 4285226360
32.110092 892.91968 797.77271 4284899967
-12.8 897.42615 797.64844 4285096828
-10.4 897.42615 797.64844 4285030514
-7.1999998 897.42615 797.64844 4285095791
-4 897.42615 797.64844 4285095542
-1.6 897.42615 797.64844 4285095290
0 897.42615 797.64844 4284899192
-3.1926606 900.0144 797.2146 4284899196
-1.5963303 900.0144 797.2146 4284899196
0 900.0144 797.2146 4284899192
-1.5926605 903.81458 797.80286 4284834155
71.467888 777.45123 798.51501 4287004823
72.594498 790.09052 798.70776 4287004825
72.209175 797.7688 798.64185 4286939284
71.977982 803.27264 799.3584 4287070096
68.403671 805.40491 798.54028 4287135380
70.968811 806.05859 799.09143 4286938513
-28.977982 810.22705 798.68213 4287004293
-22.962385 812.99902 798.40332 4286281851
-19.560551 812.99902 798.40332 4286150268
-22.962385 814.29938 799.49976 4286347133
-27.126606 817.79449 798.52258 4286544005
-22.888073 817.79449 798.52258 4286478462
-20.344954 817.79449 798.52258 4286544005
-22.016514 820.46753 799.46838 4286741634
-19.477064 819.8208 798.9231 4286609803
-21.921101 825.96448 798.87115 4286740095
-20.234863 825.31989 798.32764 4286872707
70.822021 825.31989 798.32764 4292465378
-21.873394 829.99048 799.64972 4286083207
-19.629969 828.48975 798.38428 4286344578
26.921101 828.06097 798.02271 4286213255
67.30275 828.06097 798.02271 4292991195
70.667892 828.06097 798.02271 4292663007
-20.124771 832.80316 798.09717 4286083975
70.436699 832.80316 798.09717 4292532189
72.113762 832.80316 798.09717 4292334553
-21.801834 834.08527 799.17822 4286083723
71.955963 836.80811 798.85803 4292728539
71.119263 838.0874 799.93677 4292925916
66.56881 844.22687 798.57312 4292793311
71.006729 844.65094 798.93066 4292661718
44.834862 846.92871 798.23523 4293189088
64.761467 846.92871 798.23523 4292858841
67.252289 846.92871 798.23523 4292989659
70.296638 847.77509 798.94891 4292924119
-24.825687 851.60352 798.25281 4286081156
-21.515596 851.60352 798.25281 4285950336
64.546791 851.60352 798.25281 4292794330
67.029358 851.60352 798.25281 4292728282
70.573395 849.46771 800.3761 4292859354
-24.825687 852.86884 799.3197 4286015361
-21.515596 854.13416 800.3866 4285753979
69.511925 853.50146 799.85315 4292727511
-24.770641 855.55237 798.96631 4285950849
-23.119267 856.18359 799.4986 4285885052
-18.990826 856.18365 799.49854 4285687927
-16.513762 856.18359 799.4986 4285621617
-14.862386 855.55237 798.96631 4285819253
4.9541283 855.55237 798.96631 4285752956
47.889908 855.55237 798.96631 4293188317
49.541283 855.55237 798.96631 4293056988
52.018349 855.55237 798.96631 4292991197
64.403671 855.55237 798.96631 4292925663
66.880737 855.55237 798.96631 4292661975
69.357796 856.81488 800.03088 4292793561
-18.124771 860.74969 800.73254 4285688181
-16.477064 860.11987 800.20148 4285622642
-14.170275 859.2381 799.45801 4285622133
-10.710092 858.86017 799.13934 4285687932
1.6477064 858.23035 798.60828 4285622140
4.119266 858.23035 798.60828 4285621888
8.2385321 858.23035 798.60828 4285423992
9.8862381 858.23035 798.60828 4285358703
14.005505 858.23035 798.60828 4285556093
23.06789 858.23035 798.60828 4285294202
32.954128 858.23035 798.60828 4285621386
47.783485 858.23035 798.60828 4293320157
49.431194 858.23035 798.60828 4292991191
51.902752 858.23035 798.60828 4292925145
57.669724 858.23035 798.60828 4292794078
61.78899 858.23035 798.60828 4292925663
65.084404 858.23035 798.60828 4292860126
67.555962 858.23035 798.60828 4292662745
69.752907 859.90991 800.02441 4292464597
-13.137614 862.8645 798.59167 4285622138
-10.674313 862.8645 798.59167 4285687932
-8.211009 862.8645 798.59167 4285687932
4.9266057 862.8645 798.59167 4285425007
8.211009 862.8645 798.59167 4285490302
47.623852 862.8645 798.59167 4293254110
50.908257 862.8645 798.59167 4292990941
52.550457 862.8645 798.59167 4292990943
57.477066 862.8645 798.59167 4293057249
61.582569 862.8645 798.59167 4292990944
64.866974 862.8645 798.59167 4292728033
67.330276 862.8645 798.59167 4292728285
-18.885323 865.37549 800.70874 4285556593
-16.403669 865.44983 799.46344 4285557108
-13.93578 865.80164 799.10608 4285425782
-10.923547 865.94464 798.57257 4285426044
-8.1926603 865.5271 798.22058 4285491582
1.6385322 865.5271 798.22058 4285359997
4.0963306 865.5271 798.22058 4285294200
7.3733945 865.5271 798.22058 4285163136
10.37737 865.94464 798.57257 4285096829
13.927523 865.5271 798.22058 4285162369
16.385321 865.5271 798.22058 4285162623
18.843121 865.5271 798.22058 4285425023
22.120182 865.5271 798.22058 4285490814
25.397247 865.5271 798.22058 4285359743
28.947401 865.94464 798.57257 4285293698
31.951376 866.15338 798.74866 4285359492
34.409176 866.15344 798.74866 4285293954
36.866974 865.5271 798.22058 4284768124
39.870949 865.94464 798.57257 4288058307
43.421101 866.15338 798.74866 4293320664
46.698162 866.15344 798.74866 4292990941
49.975227 865.5271 798.22058 4293056736
52.433029 865.5271 798.22058 4292990941
54.890823 865.5271 798.22058 4292925407
58.167892 865.5271 798.22058 4292925662
61.444954 866.15344 798.74866 4292728285
64.722015 866.15344 798.74866 4292727774
67.777374 865.8941 799.40204 4292924897
-21.300917 868.03241 800.33301 4285490552
-18.843121 868.03241 800.33301 4285556595
-16.348623 869.4339 798.89856 4285622388
-13.89633 869.4339 798.89856 4285491318
-11.444036 869.4339 798.89856 4285360249
-8.1743116 869.4339 798.89856 4285426042
1.6348624 869.4339 798.89856 4285359995
4.0871563 869.4339 798.89856 4285490298
7.3568807 869.4339 798.89856 4285293952
10.626606 869.4339 798.89856 4285359997
13.89633 869.4339 798.89856 4285228159
19.618349 869.4339 798.89856 4285097078
22.070641 869.4339 798.89856 4285097079
25.340366 869.4339 798.89856 4285097080
28.610092 869.4339 798.89856 4285228157
31.879816 869.4339 798.89856 4285359748
35.149544 869.4339 798.89856 4285030788
37.601833 869.4339 798.89856 4284767874
40.054131 869.4339 798.89856 4288256970
43.323853 869.4339 798.89856 4293517789
46.593578 869.4339 798.89856 4293253345
49.863304 869.4339 798.89856 4293188319
53.133026 869.4339 798.89856 4292990939
55.58532 869.4339 798.89856 4292859355
58.037613 869.4339 798.89856 4292991198
61.307343 869.4339 798.89856 4292859870
64.577065 869.4339 798.89856 4292596700
67.923859 868.73315 799.61578 4292596442
70.456879 868.03241 800.33301 4292727514
-21.25321 870.68378 799.95239 4285555834
-19.618349 870.68378 799.95239 4285555832
-17.166054 870.68378 799.95239 4285490549
29.427523 870.68378 799.95239 4285031296
31.879816 870.68378 799.95239 4285162370
34.332111 870.68378 799.95239 4285096578
40.054131 870.68378 799.95239 4287927490
43.323853 870.68378 799.95239 4293517019
45.776146 870.68378 799.95239 4293253345
61.307343 870.68378 799.95239 4292662235
64.577065 870.68378 799.95239 4292596699
67.029358 870.68378 799.95239 4292728285
-21.181652 875.27301 799.89795 4285490552
-19.552294 875.27301 799.89795 4285556082
-16.836699 874.85773 799.54785 4285424746
-13.849541 874.02734 798.84766 4285556339
3.2587156 874.02734 798.84766 4285294200
25.255047 874.02734 798.84766 4285161337
28.513762 874.02734 798.84766 4285096315
31.772476 874.02734 798.84766 4285096832
35.031193 874.02734 798.84766 4284964996
37.475231 874.02734 798.84766 4285096841
40.733944 874.02734 798.84766 4290952430
43.177982 874.65015 799.3728 4293385182
46.436699 874.02734 798.84766 4293056482
48.880733 874.02734 798.84766 4293188317
58.656879 874.02734 798.84766 4292793561
61.372478 874.44257 799.19775 4292728032
64.359634 874.65015 799.3728 4292662235
66.803673 875.27301 799.89795 4292464597
-21.133945 877.90887 799.50439 4285556345
-19.508257 877.90887 799.50439 4285490039
-17.069725 877.90887 799.50439 4285424495
-14.089295 877.08032 798.80573 4285556336
-11.379816 876.66602 798.45642 4285556093
24.385321 876.66602 798.45642 4284899192
28.449541 876.66602 798.45642 4285096057
31.700916 876.66602 798.45642 4285227905
34.952293 876.66602 798.45642 4285228165
37.390827 876.66602 798.45642 4285294218
39.558411 877.08032 798.80573 4287003569
43.351685 877.49463 799.15509 4293319650
46.332108 876.66602 798.45642 4293451242
48.770641 876.66602 798.45642 4293254108
53.647705 876.66602 798.45642 4293056997
56.899082 876.66602 798.45642 4293056988
58.524769 876.66602 798.45642 4292991708
60.963303 877.28748 798.98041 4292925406
63.943729 877.49463 799.15509 4292793311
67.543121 877.21375 800.22632 4292727511
-21.897247 880.53918 799.10608 4285358966
-19.46422 880.53918 799.10608 4285293174
-17.314985 880.49005 799.93671 4285228148
-13.51682 880.12579 798.75757 4285490805
-10.543119 879.29913 798.06055 4285227127
-8.1100922 879.29913 798.06055 4285490300
1.6220183 879.29913 798.06055 4285031287
4.0550461 879.91913 798.58331 4285161590
7.2990828 879.91913 798.58331 4285161338
10.543119 879.91913 798.58331 4285030520
13.51682 879.71246 798.409 4284964984
17.031193 879.29913 798.06055 4284964985
19.46422 879.29913 798.06055 4284964989
22.167585 879.71246 798.409 4284964985
25.141285 879.91919 798.58325 4285096056
28.385323 879.91919 798.58325 4285161851
31.629356 879.91919 798.58325 4285228161
34.873394 879.91913 798.58331 4285228936
37.847095 880.12579 798.75757 4284505988
40.550457 879.91919 798.58331 4290623201
42.983486 881.15918 799.62878 4293122790
46.227524 880.53912 799.10614 4293188574
49.471558 879.91913 798.58331 4292859866
52.715599 879.91919 798.58325 4292793562
55.959633 879.91919 798.58325 4292859610
58.392662 879.91919 798.58331 4292728537
60.825687 880.53918 799.10608 4292793819
64.069725 881.15924 799.62885 4292661719
67.094803 880.49005 799.93671 4292727510
-24.247707 885.7099 799.54181 4285359226
-21.822937 885.7099 799.54187 4285359212
-19.398165 885.7099 799.54181 4285162607
-16.973394 885.7099 799.54181 4285228400
-13.724771 886.39941 798.81512 4285096818
-10.495413 886.39941 798.81512 4285228149
-7.532722 886.83521 798.74658 4285031028
-4.0321102 887.70685 798.6095 4285031033
1.0764526 886.83521 798.74658 4285096313
4.0366974 886.39941 798.81506 4285096311
7.2706423 886.05469 799.17847 4285030521
10.507339 885.7099 799.54181 4284965239
13.72477 886.39941 798.81512 4284833913
16.934864 887.70685 798.6095 4284899192
19.90642 886.83521 798.74658 4284899446
22.075232 885.96362 798.88361 4284833655
25.055965 885.7099 799.54181 4284965243
28.272478 886.05469 799.17847 4285030779
30.6789 886.39941 798.81512 4285096829
34.971867 886.83521 798.74658 4284769411
37.944954 886.39941 798.81506 4284375427
40.889297 886.83521 798.74658 4290032851
43.107037 885.50391 799.36816 4292991463
46.070641 885.7099 799.54181 4293122528
49.303673 885.7099 799.54187 4293121499
52.536697 885.7099 799.54187 4293187800
55.769722 885.7099 799.54187 4292925398
59.002754 885.7099 799.54187 4292793298
61.427525 885.7099 799.54181 4292793305
63.852295 885.7099 799.54187 4292661973
66.277061 885.7099 799.54181 4292727764
-20.160549 890.17291 800.68884 4285163120
-16.666056 889.7619 800.34229 4285162867
-13.709174 888.93988 799.64917 4285097332
-10.483486 888.93988 799.64917 4285097080
-7.2504587 889.62799 798.92133 4285031032
-4.0229359 890.3161 798.19348 4285030520
-1.6091744 890.3161 798.19348 4285424253
0.806422 889.62799 798.92133 4285029749
4.0321102 889.5564 800.16901 4285030514
7.2577982 889.5564 800.16901 4284899192
10.483486 889.5564 800.16901 4284833654
13.694496 889.62799 798.92133 4284899446
16.916515 889.62799 798.92133 4284702070
20.160549 888.93988 799.64917 4284702320
22.579817 888.93988 799.64917 4284833399
24.999083 888.93988 799.64917 4284965241
28.22477 888.93988 799.64917 4284964986
31.378899 890.3161 798.19348 4285031038
34.597248 890.3161 798.19348 4284703870
37.815598 890.3161 798.19348 4284441224
41.08165 889.62799 798.92133 4290163415
43.546787 888.93988 799.64917 4293517559
45.966057 888.93988 799.64917 4293319140
49.191742 888.93988 799.64917 4292924634
52.686237 889.35089 799.99579 4293056211
55.64312 888.93988 799.64917 4292794066
58.599995 889.35089 799.99579 4292726996
62.3633 889.35089 799.99579 4292924635
64.513763 889.5564 800.16901 4292529877
66.126602 888.93988 799.64917 4292727768
-19.310091 892.77655 800.26807 4285031285
-16.091743 892.77655 800.26807 4285097080
-13.946177 891.95636 799.57648 4285162873
-10.459633 891.54633 799.23071 4284965753
-7.2412844 891.54633 799.23071 4284965751
1.0727829 891.95636 799.57648 4284964469
3.2183487 892.77655 800.26807 4284833649
8.0458717 892.77655 800.26807 4284833399
10.459633 892.77655 800.26807 4284833399
13.677982 892.16144 799.74939 4284833654
16.896332 891.54633 799.23071 4284767608
19.846483 891.95636 799.57648 4284702069
22.52844 892.16144 799.74939 4284768115
25.210398 891.95636 799.57648 4284899447
28.428747 891.95636 799.57648 4284899707
30.574312 891.54633 799.23071 4284899965
34.597248 891.54633 799.23071 4284834945
37.815598 892.16144 799.74939 4284177537
40.765751 891.95636 799.57648 4289243085
43.447708 892.16144 799.74939 4293452029
45.861465 892.16144 799.74939 4293319137
49.079819 891.54633 799.23071 4292661458
52.298164 892.16144 799.74939 4292859339
55.248318 891.95636 799.57648 4292793812
58.734863 892.16144 799.74939 4292989909
61.148624 891.54633 799.23071 4293056216
65.171562 892.16144 799.74939 4292530135
-20.871559 896.60193 800.87756 4285161335
-16.590216 896.19281 800.53253 4285030777
-13.64679 894.7608 799.32513 4285096828
-10.43578 894.14709 798.80762 4284899960
-7.2247705 894.14709 798.80762 4285030517
-4.0137615 894.14709 798.80762 4285029750
-1.6055046 894.14709 798.80762 4285029751
1.0703365 895.37451 799.84259 4284833655
4.2813454 894.96533 799.49762 4284833908
7.2247705 895.37451 799.84265 4284899193
10.43578 895.98822 800.36011 4284768125
13.64679 895.98828 800.36011 4284767608
16.697248 895.12903 799.63562 4284832892
20.33639 894.96533 799.49762 4284702070
22.477064 895.98822 800.36011 4284570983
24.724771 895.62 800.04962 4284768368
28.096329 895.37451 799.84265 4284833916
31.307341 895.37451 799.84259 4284833918
34.518349 895.37451 799.84259 4284899969
37.729355 895.98822 800.36011 4283914623
41.100918 895.62 800.04962 4288914114
44.151375 895.98828 800.36011 4293517292
46.559631 895.98822 800.36011 4293056218
48.967892 894.7608 799.3252 4292990935
52.178902 895.37451 799.84265 4292990678
55.550457 895.62 800.04962 4292794067
58.600918 895.37451 799.84265 4292793042
61.972481 895.12903 799.63562 4292858835
65.022934 895.37451 799.84265 4292529620
69.036697 896.60193 800.87756 4292661712
-19.733334 899.46484 799.36737 4285161079
-16.799999 899.87262 799.71118 4285161335
-13.866666 899.05713 799.02362 4285030520
-10.4 898.64941 798.67981 4284964974
-7.1999998 898.64941 798.67981 4285030251
-4.8000002 898.64941 798.67981 4285030001
1.6 899.87262 799.71118 4284833653
4 899.26099 799.1955 4284898931
6.9333329 899.46484 799.36737 4284964215
10.4 899.87262 799.71118 4284833403
13.6 899.87262 799.71118 4285095545
17.066666 899.46484 799.36737 4284898681
20 899.26099 799.19543 4284636533
22.4 899.87262 799.71118 4284570984
24.799999 899.87262 799.71118 4284570987
27.733332 899.46484 799.36737 4284833655
31.200001 899.87262 799.71118 4284898941
34.400002 899.87262 799.71118 4285031039
37.599998 899.87262 799.71118 4284111230
40.799999 899.87262 799.71118 4287860144
43.200001 899.87262 799.71118 4293845244
48.799999 899.26099 799.1955 4292990424
51.733334 899.46484 799.36737 4292859100
55.200001 899.87262 799.71118 4292991193
58.666668 899.46484 799.36737 4292596692
61.333332 899.46484 799.36737 4292727257
65.066673 899.46484 799.36737 4292530390
68.800003 899.87262 799.71118 4292529618
70.400002 899.87262 799.71118 4292530390
72.800003 899.87262 799.71118 4292464855
-20 901.09583 800.74255 4285095286
-16.799999 901.09583 800.74255 4285095543
-13.302752 902.04834 798.92969 4285029749
-10.376146 901.84503 798.75818 4285030001
-7.183486 901.84497 798.75818 4284964463
-3.9908257 901.84497 798.75818 4284833392
-1.5963303 901.2348 798.24365 4284833653
0.53333336 901.59528 799.41962 4284899695
4 901.09583 800.74255 4285030251
7.183486 902.4552 799.27271 4284702070
10.376146 902.4552 799.27271 4284767354
13.568808 902.4552 799.27271 4284898166
16.761467 902.4552 799.27271 4284570232
20 901.09583 800.74255 4284570484
22.4 901.09583 800.74255 4284504940
24.799999 901.09583 800.74255 4284570736
28 901.09583 800.74255 4284833654
31.200001 901.09583 800.74255 4284833400
34.400002 901.09583 800.74255 4284899199
37.599998 901.09583 800.74255 4284110975
40.799999 901.09583 800.74255 4287531698
44 901.09583 800.74255 4293648369
46.400002 901.09583 800.74255 4293056218
48.799999 901.09583 800.74255 4292858841
52 901.09583 800.74255 4292793048
55.200001 901.09583 800.74255 4292991445
58.332108 901.77551 800.00763 4292793557
61.458717 902.4552 799.27271 4292530644
64.651375 902.4552 799.27271 4292596183
67.921097 901.77551 800.00763 4292398806
71.036697 902.4552 799.27271 4292464597
73.43119 902.4552 799.27271 4292267736
-19.155964 903.6756 800.30164 4285227381
-15.963303 903.6756 800.30164 4284965239
-13.568808 903.6756 800.30164 4284965237
-10.376146 903.6756 800.30164 4284899445
-7.1669722 905.03217 798.82947 4284833652
-3.9816513 905.03217 798.82947 4284833905
-1.5926605 905.03217 798.82947 4284833649
0.79816514 904.35388 799.56555 4284833653
3.9908257 903.6756 800.30164 4284833905
7.1669722 905.03217 798.82947 4284636277
10.352293 905.03217 798.82947 4284636025
13.537615 905.03217 798.82947 4284636275
16.722935 905.03217 798.82947 4284636025
19.954128 903.6756 800.30164 4284636025
23.14679 903.6756 800.30164 4284570482
25.541285 903.6756 800.30164 4284570482
27.93578 903.6756 800.30164 4284636276
31.128441 903.6756 800.30164 4284767865
35.119267 903.6756 800.30164 4284702079
52.678898 903.6756 800.30164 4292727768
55.073395 903.6756 800.30164 4292727766
58.198166 904.35388 799.56555 4292793814
61.317429 905.03217 798.82947 4292530644
64.502747 905.03217 798.82947 4292464596
67.84404 903.6756 800.30164 4292531157
71.036697 903.6756 800.30164 4292596182
73.43119 903.6756 800.30164 4292398300
-13.272171 907.06152 800.54053 4284702323
-10.352293 906.85852 800.36945 4284833654
-7.1587152 907.53406 799.63092 4284833398
-3.9770644 907.53406 799.63086 4284833655
-1.5889908 908.21094 798.89362 4284833145
0.79633027 907.53479 799.63153 4284570734
3.9816513 907.46741 800.88281 4284702068
7.1587152 907.53406 799.63092 4284636023
10.340366 907.534 799.63086 4284635761
13.506422 908.21094 798.89355 4284634990
16.703669 907.53406 799.63086 4284570483
19.642813 907.06152 800.54053 4284636021
23.093578 907.46741 800.88281 4284504690
25.482569 907.46741 800.88281 4284570484
27.871559 907.46741 800.88281 4284570484
31.056881 907.46741 800.88281 4284636023
34.242203 907.46741 800.88281 4284898940
37.427521 907.46741 800.88281 4284308347
40.612846 907.46741 800.88281 4286676129
43.798164 907.46741 800.88281 4293582321
46.983486 907.46741 800.88281 4292990684
50.168808 907.46741 800.88281 4292793818
52.557796 907.46741 800.88281 4292596696
54.91468 907.19629 800.00012 4292727767
58.031193 907.8725 799.26227 4292793556
61.176147 908.21094 798.89355 4292661975
64.354126 908.21094 798.89355 4292727766
67.68808 907.46741 800.88281 4292529620
70.607948 907.06152 800.54053 4292463568
74.058716 907.46741 800.88281 4292528854
-12.711926 910.03308 800.43005 4284570982
-10.328441 910.03308 800.43005 4284768110
-7.1504583 910.03308 800.43005 4284702068
-3.972477 910.03308 800.43005 4284768122
-1.5889908 910.03308 800.43005 4284636286
0 910.03308 800.43005 4284373602
4.7669725 910.03308 800.43005 4284504688
7.1504583 910.03308 800.43005 4284766328
10.328441 910.03308 800.43005 4284766830
13.506422 910.03308 800.43005 4284766563
16.684402 910.03308 800.43005 4284701036
19.862385 910.03308 800.43005 4284504690
23.040367 910.03308 800.43005 4284373875
25.423853 910.03308 800.43005 4284373622
27.807339 910.03308 800.43005 4284373623
30.985321 910.03308 800.43005 4284570488
38.13578 910.03308 800.43005 4283915131
40.519264 910.03308 800.43005 4286150555
46.875229 910.03308 800.43005 4293187806
50.053211 910.03308 800.43005 4292924635
52.436699 910.03308 800.43005 4292793307
54.820183 910.03308 800.43005 4292727766
57.998165 910.03308 800.43005 4292793296
61.106422 910.70715 799.69037 4292793309
64.354126 910.03308 800.43005 4292596183
-12.682569 913.80524 800.99451 4284702068
-10.304587 913.19922 800.48364 4284767607
-7.133945 913.19922 800.48364 4284635759
-3.9633026 913.19922 800.48358 4284767345
-1.5853211 913.19922 800.48358 4284570490
0 913.19922 800.48358 4284570733
7.9266057 913.80524 800.99451 4284831871
10.304587 913.80524 800.99451 4284700535
13.475229 913.80524 800.99451 4284570482
16.645872 913.80524 800.99451 4284570482
19.816513 913.80524 800.99451 4284570482
22.987156 913.80524 800.99451 4284504691
26.157799 913.80524 800.99451 4284307578
28.53578 913.80524 800.99451 4284242273
30.913761 913.80524 800.99451 4284439146
34.084404 913.80524 800.99451 4284504694
36.462387 913.80524 800.99451 4284636027
40.42569 913.80524 800.99451 4285492114
49.937614 913.80524 800.99451 4292661208
53.108257 913.80524 800.99451 4292923609
55.48624 913.19922 800.48358 4292792789
57.86422 913.19922 800.48364 4292793555
61.034859 913.19922 800.48358 4292662488
64.205505 913.19922 800.48358 4292661976
-12.653211 916.35699 800.53003 4285029749
-10.280734 916.35699 800.53003 4285029751
-7.1174312 916.35699 800.53003 4285029493
-4.7449541 916.35699 800.53003 4285095281
19.770641 916.35699 800.53003 4284373873
22.933945 916.35699 800.53003 4284307825
26.097248 916.35699 800.53003 4284438645
28.469725 916.35699 800.53003 4284241769
30.842201 916.35699 800.53003 4284373101
56.939449 916.35699 800.53003 4292596437
58.521099 916.35699 800.53003 4292596437
60.102753 916.35699 800.53003 4292529620
-10.244954 920.77649 800.3324 4284898677
-7.880734 920.77649 800.3324 4284832627
19.701836 920.77649 800.3324 4284439918
22.85413 920.77649 800.3324 4284505204
25.743731 920.37482 799.99371 4284241520
29.158714 920.77649 800.3324 4284372848
31.522936 920.77649 800.3324 4284504690
56.741283 920.77649 800.3324 4292595663
59.105507 920.77649 800.3324 4292727252
61.469727 920.77649 800.3324 4292726742
63.833946 920.77649 800.3324 4292660177
0 925.84344 799.37268 4284570734
23.587156 924.51501 800.86853 4284438393
25.159634 924.51501 800.86853 4284569450
29.877064 924.51501 800.86853 4284438641
31.449541 924.51501 800.86853 4284373618
0 927.04285 800.38391 4284701286
-21.515596 855.39941 801.45349 4285818748
-22.293579 858.70862 801.62756 4285622139
-19.266054 858.49823 801.4502 4285687929
-21.420183 862.63928 802.32574 4285556345
-18.948624 862.0094 801.79468 4285556595
69.203667 862.0094 801.79468 4292925148
68.818352 869.2851 801.38928 4292662745
70.456879 869.2851 801.38928 4292662745
72.095413 869.2851 801.38928 4292596185
-21.25321 871.93359 801.00623 4285621625
-19.618349 871.93359 801.00623 4285555832
-17.983486 871.93359 801.00623 4285555832
39.236698 871.93359 801.00623 4285228439
42.50642 871.93359 801.00623 4293253597
65.394493 871.93359 801.00623 4292727768
67.846786 871.93359 801.00623 4292662488
70.456879 870.53778 802.44543 4292662745
72.91468 871.16406 802.97357 4292596953
68.664223 873.18347 802.06018 4292727766
70.844032 874.01678 802.7627 4292728023
70.062386 877.76434 801.99854 4292727766
68.2789 881.01599 802.12421 4292727767
70.552902 879.8858 802.91528 4292661975
68.124771 884.25928 802.2428 4292596696
70.71743 882.88025 803.69617 4292530904
-24.247707 887.56366 801.10486 4285162117
-21.822937 887.56366 801.10486 4285162594
-19.398165 887.56366 801.10486 4285163375
-17.781651 887.56366 801.10486 4285163375
67.893578 887.56366 801.10486 4292793307
69.746788 885.49933 803.28833 4292859101
-24.247707 889.41742 802.66791 4285227906
-22.631193 888.7995 802.14685 4285097582
67.893578 888.7995 802.14685 4292727768
70.318344 889.41742 802.66791 4292530390
-22.579817 892.02246 802.24835 4285097080
-20.966972 891.40594 801.72852 4285097080
-17.741285 891.40594 801.72852 4285097078
67.739449 891.40594 801.72852 4292727255
70.158722 892.02246 802.24835 4292661461
73.384399 893.87201 803.80786 4292530389
-20.114677 894.00677 801.3053 4285097079
-17.700918 894.00677 801.3053 4285097078
67.58532 894.62189 801.82397 4292661458
69.999084 894.62189 801.82397 4292661973
44.954128 897.82935 801.91248 4293582562
46.559631 897.82935 801.91248 4293056218
67.43119 897.82935 801.91248 4292266702
-22.4 902.31903 801.77393 4285095794
-20.799999 902.31903 801.77393 4285095794
-17.6 902.31903 801.77393 4285293174
33.599998 902.31903 801.77393 4284768124
37.599998 902.31903 801.77393 4284045436
40.799999 902.31903 801.77393 4287334317
44 902.31903 801.77393 4293648625
46.400002 902.31903 801.77393 4293187804
48.799999 902.31903 801.77393 4292924378
51.200001 902.31903 801.77393 4292793561
-25.6 903.54224 802.8053 4285095542
-23.449541 904.40118 802.65753 4285030261
-19.954128 904.896 801.33069 4285030001
-16.761467 904.896 801.33069 4284898931
-14.366973 904.896 801.33069 4284833653
3.9908257 904.896 801.33069 4284702068
20.752293 904.896 801.33069 4284636279
23.14679 904.896 801.33069 4284570484
25.541285 904.896 801.33069 4284570484
27.93578 904.896 801.33069 4284636023
31.128441 904.896 801.33069 4284833148
34.321098 904.896 801.33069 4284767614
37.513763 904.896 801.33069 4284111229
40.706421 904.896 801.33069 4287136939
43.899082 904.896 801.33069 4293714161
47.091743 904.896 801.33069 4293187806
49.48624 904.896 801.33069 4292793048
51.880733 904.896 801.33069 4292661973
67.84404 904.896 801.33069 4292728018
71.834862 904.896 801.33069 4292858841
73.43119 904.896 801.33069 4292660708
-22.348623 906.72662 802.87427 4284965239
-19.954128 906.72662 802.87427 4284833652
-16.761467 906.72662 802.87427 4284833654
-14.333945 908.685 801.90942 4284702072
1.5926605 908.685 801.90942 4284505188
3.1853211 908.685 801.90942 4284636275
34.242203 908.685 801.90942 4284767356
36.631191 908.685 801.90942 4284898944
43.798164 908.685 801.90942 4293451249
67.68808 908.685 801.90942 4292464851
70.873398 908.685 801.90942 4292595667
74.058716 908.685 801.90942 4292594900
-19.111927 910.51135 803.4494 4284898933
-16.457491 910.30841 803.27832 4284833142
-13.506422 911.24786 801.45435 4284702067
1.5889908 911.24786 801.45435 4284636777
3.972477 911.24786 801.45435 4284766580
7.1504583 911.24786 801.45435 4284832123
10.328441 911.24786 801.45435 4284897650
13.506422 911.24786 801.45435 4284897902
16.684402 911.24786 801.45435 4284701041
19.862385 911.24786 801.45435 4284570482
23.040367 911.24786 801.45435 4284504691
25.423853 911.24786 801.45435 4284373622
27.807339 911.24786 801.45435 4284373619
30.985321 911.24786 801.45435 4284570740
34.163303 911.24786 801.45435 4284570486
37.341286 911.24786 801.45435 4284307833
40.519264 911.24786 801.45435 4285820821
43.69725 911.24786 801.45435 4293451248
46.875229 911.24786 801.45435 4293121243
50.053211 911.24786 801.45435 4292792536
52.436699 911.24786 801.45435 4292792794
54.025688 911.24786 801.45435 4292793559
67.611008 910.5752 802.19519 4292399317
70.792664 910.5752 802.19519 4292595411
73.793274 910.30841 803.27832 4292529358
-19.06789 913.67749 803.50293 4285029749
-16.949234 913.27252 803.16144 4284898163
-14.300918 912.46271 802.47864 4285029751
1.5889908 913.07007 802.99078 4284635506
3.7076452 912.86761 802.82007 4284766325
6.3559632 912.46271 802.47864 4284963200
38.13578 912.46271 802.47864 4283979637
43.69725 912.46271 802.47864 4293319920
46.875229 912.46271 802.47864 4292793047
67.532112 913.07007 802.99078 4292463828
70.710091 913.07013 802.99078 4292529361
-16.645872 916.22919 803.03845 4285029749
-13.718655 916.71649 801.70526 4285029749
-10.280734 917.56616 801.54968 4285029752
-7.1174312 917.56616 801.54968 4284832121
-3.6929665 916.71649 801.70526 4284898431
-1.5834862 916.29169 801.78308 4284701055
0.52844036 916.27081 802.20148 4284504180
4.2275229 915.8252 802.69775 4284700534
7.133945 915.62317 802.52747 4284635258
10.298165 915.9574 802.15527 4284504438
13.459633 916.29163 801.78308 4284438905
16.626606 916.29163 801.78308 4284373877
19.770641 917.56616 801.54968 4284504688
22.933945 917.56616 801.54968 4284438897
26.888073 917.56616 801.54968 4284372596
28.469725 917.56616 801.54968 4284373102
30.842201 917.56616 801.54968 4284438642
34.044952 916.29169 801.78308 4284504695
37.211929 916.29169 801.78308 4284307832
40.402752 915.95746 802.15527 4284965260
43.596329 915.62323 802.52747 4293188592
46.766972 915.62317 802.52747 4292859608
49.937614 915.62323 802.52747 4292661462
53.108253 915.62323 802.52747 4292989657
55.92783 916.71649 801.70526 4292726742
58.521099 917.56616 801.54968 4293055966
61.204895 916.71649 801.70526 4292792793
64.131195 916.29169 801.78308 4292726486
67.376144 916.22919 803.03845 4292529108
70.546783 916.22919 803.03845 4292726485
-18.979816 919.9845 803.58875 4284636277
-15.816514 919.9845 803.58875 4284702068
-13.707645 919.17841 802.909 4284702069
-6.3266053 918.77533 802.56921 4284832373
-3.6905196 919.17841 802.909 4284635768
-1.5816513 919.37988 803.07898 4284569978
0.79082566 919.37988 803.07898 4284701300
4.2177367 919.58148 803.24884 4284504432
7.1174312 919.37988 803.07898 4284504436
10.280734 918.77533 802.56921 4284373623
13.444036 919.37988 803.07898 4284504435
16.60734 919.37994 803.07898 4284438897
34.005505 918.77533 802.56921 4284438643
37.168808 918.77533 802.56921 4284308086
40.332108 918.77533 802.56921 4284571271
43.495415 919.37988 803.07898 4292596461
46.658714 919.37994 803.07898 4292924374
49.822018 919.37988 803.07898 4292924378
52.985321 919.37994 803.07898 4292792537
55.3578 918.77533 802.56921 4292727255
66.956573 919.58136 803.24884 4292661203
70.647095 919.58148 803.24884 4292924115
-13.134557 922.78485 802.02582 4284767091
-10.244954 922.58398 801.85645 4284832628
-7.0926609 922.58398 801.85645 4284766581
-4.2030582 922.78485 802.02582 4284635252
-1.5761468 923.18646 802.3645 4284570484
0 921.98151 801.34839 4284570484
4.7284403 923.18646 802.3645 4284701036
7.3553519 922.78485 802.02582 4284439157
10.244954 922.58398 801.85645 4284504434
13.397247 923.18646 802.3645 4284241519
16.549541 923.18646 802.3645 4284241517
19.701836 922.58398 801.85645 4284569703
22.591438 922.38312 801.68707 4284438647
26.269114 922.38312 801.68707 4284372589
28.896025 922.38312 801.68707 4284307055
31.522936 921.98151 801.34839 4284373618
33.887154 922.58398 801.85645 4284307827
37.039452 922.58398 801.85645 4284176753
40.191742 922.58398 801.85645 4284307840
43.344036 923.18646 802.3645 4292398827
46.49633 923.18646 802.3645 4292924372
49.648624 923.18646 802.3645 4292858325
52.800919 923.18646 802.3645 4292595412
55.953213 922.58398 801.85645 4292661454
59.105507 922.58398 801.85645 4292726990
61.469727 922.58398 801.85645 4292792529
63.833946 922.58398 801.85645 4292792530
66.198166 923.18646 802.3645 4292594900
-13.397247 924.39142 803.38049 4284700786
-10.244954 924.39142 803.38049 4284700532
-7.0926609 924.39142 803.38049 4284700531
-3.940367 924.39142 803.38049 4284700784
-1.5724771 925.71716 801.8822 4284700784
4.7284403 924.39142 803.38049 4284635747
7.0926609 924.39142 803.38049 4284504186
10.244954 924.39142 803.38049 4284372852
13.397247 924.39142 803.38049 4284569200
16.529358 925.05432 802.63135 4284569200
19.701836 924.39142 803.38049 4284504434
22.826607 925.05432 802.63135 4284504191
25.977064 925.05432 802.63135 4284438112
29.090824 925.71716 801.8822 4284372848
31.449541 925.71716 801.8822 4284307825
33.887154 924.39142 803.38049 4284373618
37.039452 924.39142 803.38049 4284177009
40.144955 925.6554 803.13812 4283913338
43.344036 924.39142 803.38049 4292135653
46.198166 925.23407 803.21893 4293121753
49.648624 924.39142 803.38049 4292989650
52.800919 924.39142 803.38049 4292792786
55.953209 924.39142 803.38049 4292727505
59.105507 924.39142 803.38049 4292595410
61.469727 924.39142 803.38049 4292660693
63.758713 925.05432 802.63135 4292529106
66.986237 924.39142 803.38049 4292529107
70.138535 924.39142 803.38049 4292726740
0 928.24219 801.39514 4284766830
39.311928 928.12152 803.90942 4283715688
44.029358 928.12152 803.90942 4292793307
71.933945 875.68323 804.16785 4292727766
73.733948 873.66943 805.086 4292794073
73.56881 877.55798 805.7486 4292728027
71.691742 880.25568 804.09912 4292530651
74.950462 881.50134 805.14941 4292201688
71.530273 884.12311 804.74414 4292596696
74.13578 882.74695 806.19971 4292662744
71.368805 886.73938 804.33398 4292464597
73.885323 886.67273 805.58569 4292662231
73.551376 891.27118 804.23096 4292595668
-24 905.98865 804.86816 4284899446
-25.6 907.82349 806.41522 4284899192
-23.466667 907.61963 806.24335 4284833655
-20.752293 908.55725 804.41772 4284899446
-22.880735 910.59125 806.13281 4284964211
-20.752293 909.77765 805.44678 4284964208
-20.159021 913.59521 805.17755 4285029747
73.262383 912.94659 805.50269 4292595410
-19.023853 917.44122 804.0603 4284702068
-16.645872 917.44122 804.0603 4284767860
1.5853211 917.44122 804.0603 4284700786
3.1706421 917.44122 804.0603 4284700786
6.3412843 917.44122 804.0603 4284504438
68.168808 917.44122 804.0603 4292529108
69.754128 917.44122 804.0603 4292660945
73.093575 916.10706 805.55151 4292332758
-17.438532 918.6532 805.08228 4284702070
72.924774 918.6532 805.08228 4292660704
-19.612476 922.64471 805.83173 4284569974
-16.60734 922.40289 805.62787 4284635507
-13.444036 923.61206 806.64734 4284634991
1.5816513 922.40289 805.62775 4284635754
3.1633027 922.40283 805.62775 4284503911
52.985321 923.61206 806.64734 4292793041
55.3578 923.61206 806.64734 4292924112
68.011009 921.19373 804.60828 4292594900
70.383484 921.19373 804.60828 4292594899
72.755966 922.40283 805.62775 4292397780
-10.244954 926.19885 804.90454 4284634991
-7.3553519 925.99805 804.73517 4284635247
-3.677676 925.99805 804.73517 4284701034
-1.5761468 926.19891 804.90448 4284701033
0 926.80139 805.41248 4284832102
4.7284403 925.59644 804.39648 4284635243
7.0926609 926.19885 804.90454 4284504436
10.244954 926.19885 804.90454 4284438645
13.397248 926.19891 804.90448 4284569715
16.549541 926.19891 804.90448 4284634991
19.701836 926.19891 804.90448 4284372587
22.591438 925.99805 804.73517 4284438134
26.006424 926.19885 804.90454 4284372588
29.158714 926.19885 804.90454 4284307055
31.522936 926.19891 804.90448 4284504172
33.887154 926.19885 804.90454 4284504686
37.039452 926.19885 804.90454 4284242543
40.979816 926.80139 805.41248 4283781513
43.081345 925.99805 804.73517 4291478507
46.759022 926.39972 805.07379 4292990682
49.648628 926.19891 804.90448 4292793301
52.012844 926.80139 805.41248 4292793300
56.741283 925.59644 804.39648 4292793298
59.105503 926.19885 804.90454 4292595921
61.469727 926.19891 804.90448 4292793046
63.833946 926.19885 804.90454 4292727256
66.986237 925.59644 804.39648 4292529620
70.138535 925.59644 804.39648 4292595150
0 928.00635 806.42847 4284503144
9.4568806 928.00635 806.42847 4284175724
33.887154 928.00635 806.42847 4284437348
37.039452 928.00635 806.42847 4284503919
40.191742 928.00635 806.42847 4283320176
43.344036 928.00635 806.42847 4291477727
46.49633 928.00635 806.42847 4293122014
49.648624 928.00635 806.42847 4292793045
52.012844 928.00635 806.42847 4292793300
61.469727 928.00635 806.42847 4292924114
39.311928 930.52588 805.93677 4283253870
73.56881 879.4328 807.32947 4292530905
-25.74679 902.00323 808.04779 4284899446
-25.6 910.2699 808.47797 4285095543
-23.14679 912.21844 807.50476 4285029749
-20.609175 923.50116 809.16992 4284504688
-18.979816 924.82129 807.66699 4284635243
-16.60734 924.82129 807.66699 4284766569
-13.180428 925.22437 808.00684 4284634731
-10.280734 926.03046 808.68652 4284437610
-6.8538227 925.62744 808.34668 4284568935
-4.2177367 925.62744 808.34668 4284503396
-1.5816513 926.03046 808.68652 4284372578
1.5816513 924.82129 807.66699 4284766309
3.9541283 925.4259 808.17676 4284437356
7.1174312 926.03046 808.68652 4284437865
11.07156 926.03046 808.68652 4284175724
13.444036 926.03046 808.68652 4284371822
16.60734 926.03046 808.68652 4284372076
19.770641 926.03046 808.68652 4284437095
23.197556 925.62744 808.34668 4284372077
26.097248 926.03046 808.68652 4284175724
28.469725 926.03046 808.68652 4284175726
30.051376 926.03046 808.68652 4284044139
53.776146 925.4259 808.17676 4292727250
56.148624 925.4259 808.17676 4292727250
58.521099 926.03046 808.68652 4292727251
60.102753 926.03046 808.68652 4292858321
64.056885 926.03046 808.68652 4292924376
67.220184 925.4259 808.17676 4292464084
70.383484 925.4259 808.17676 4292463561
-12.653211 927.23962 809.70605 4284306279
-10.280734 927.23962 809.70605 4284371811
-7.908257 927.23962 809.70605 4284503392
-3.1633027 927.23962 809.70605 4283912551
-1.5816513 927.23962 809.70605 4283780966
0 927.23962 809.70605 4284044139
7.908257 927.23962 809.70605 4284174942
10.280734 927.23962 809.70605 4283912551
14.234862 927.23962 809.70605 4284109149
16.60734 927.23962 809.70605 4283912551
18.979816 927.23962 809.70605 4284174440
26.097248 927.23962 809.70605 4283847272
37.039452 929.21136 807.44446 4284437877
40.979816 929.21136 807.44446 4283517558
43.344036 929.21136 807.44446 4291214544
46.49633 929.21136 807.44446 4293187543
49.822018 927.23962 809.70605 4292793046
52.985321 927.23962 809.70605 4292792793
56.148624 927.23962 809.70605 4292661463
58.521099 927.23962 809.70605 4292727253
60.893578 927.23962 809.70605 4292661712
64.84771 927.23962 809.70605 4293056216
69.592659 927.23962 809.70605 4292529618
40.191742 930.41632 808.46045 4282990420
42.555962 930.41632 808.46045 4290227896
-22.194496 925.92517 811.21375 4284372072
-19.816513 925.31915 810.70282 4284306280
-16.645872 925.31915 810.70282 4284503144
-14.26789 925.31915 810.70282 4284437351
-6.3412843 925.92517 811.21375 4284372057
-4.7559633 925.92517 811.21375 4284372057
1.5853211 925.31915 810.70282 4284240745
3.9633026 925.92517 811.21375 4284108647
6.3412843 925.92517 811.21375 4284240735
12.682569 925.92517 811.21375 4283912027
20.609175 925.92517 811.21375 4284174440
22.987156 925.92517 811.21375 4283912551
28.53578 925.92517 811.21375 4283715688
31.177984 925.52118 810.87311 4283714655
34.084404 925.92517 811.21375 4284042852
63.412846 925.92517 811.21375 4292727251
67.376144 925.92517 811.21375 4292661712
71.339447 925.92517 811.21375 4292398288
73.093575 924.61066 812.72144 4292398554
-26.888073 929.65802 811.74512 4286145918
-13.475229 927.13715 812.23572 4284962408
-10.304587 927.13715 812.23572 4284898152
-7.133945 927.13715 812.23572 4285292909
-3.9633026 927.13715 812.23572 4285293940
-1.5853211 927.13715 812.23572 4285031544
0.79266053 927.79297 811.48065 4284768122
3.9633026 927.13715 812.23572 4284700266
7.133945 927.13715 812.23572 4284504689
10.304587 927.13715 812.23572 4284044653
13.475229 927.13715 812.23572 4284108899
16.645872 927.13715 812.23572 4283780966
19.816513 927.13715 812.23572 4284109932
22.987156 927.13715 812.23572 4283781735
26.157799 927.13715 812.23572 4284044651
28.53578 927.13715 812.23572 4283649895
30.913761 927.13715 812.23572 4283781224
34.084404 927.13715 812.23572 4283714662
37.255047 927.13715 812.23572 4283648100
44.388992 927.13715 812.23572 4291543243
46.766972 927.13715 812.23572 4293122014
49.937614 927.13715 812.23572 4292727251
53.108257 927.13715 812.23572 4292990422
55.48624 927.13715 812.23572 4292793300
57.86422 927.13715 812.23572 4292727757
61.034863 927.13715 812.23572 4292661712
64.205505 927.13715 812.23572 4292529104
-22.245872 925.82544 813.74573 4285358201
-19.862385 925.82544 813.74573 4285621371
-16.684402 925.82544 813.74573 4285488500
67.532112 925.82544 813.74573 4292463829
70.710091 925.82544 813.74573 4292201425
73.974312 925.16962 814.50079 4292332758
-27.012844 928.25507 815.79431 4288975517
-25.365137 928.34912 813.25757 4286014332
-13.506422 927.64764 815.28217 4287198853
-10.316514 928.30212 814.52594 4287067265
-7.1422014 928.30212 814.52594 4286869628
-3.7015288 928.31781 814.10321 4286804098
-1.5853211 928.95508 813.76855 4287067530
0.7944954 928.30139 814.52539 4287002508
3.972477 927.64764 815.28217 4287068809
7.1504583 927.64764 815.28217 4287398035
10.328441 927.64764 815.28223 4287727004
13.498165 927.97491 814.90405 4288055454
16.684402 927.64764 815.28223 4287792022
19.839449 928.30212 814.526 4287923611
23.013762 928.30212 814.526 4287792793
25.913149 928.31781 814.10321 4287069326
28.050154 928.28644 814.94873 4288517286
30.949541 928.30212 814.52594 4287727774
34.123852 928.30212 814.526 4287464860
37.276146 928.6286 814.14728 4287596957
40.42569 928.95508 813.76855 4285426550
43.622017 928.6286 814.14728 4290360251
46.821098 928.30212 814.52594 4293187552
49.995411 928.30212 814.526 4292529616
52.884403 928.31781 814.10321 4292924113
55.085011 927.8501 815.45288 4292660941
57.998165 927.64764 815.28217 4292857799
61.105507 928.30212 814.526 4292726735
64.279816 928.30212 814.526 4292463313
67.532112 927.04022 814.77002 4292595167
70.710091 927.04022 814.77002 4292398288
73.093575 927.04022 814.77002 4292332243
-25.482569 926.94904 817.3092 4288647837
-23.120184 925.68726 817.55322 4287068298
-19.943119 925.35999 817.93134 4286673800
-16.722935 926.34021 816.79578 4286804869
-4.7779818 926.94904 817.3092 4288184971
67.68808 926.94904 817.3092 4292463315
70.873398 926.94904 817.3092 4292266191
74.058716 926.34021 816.79584 4292332240
-27.07523 928.16663 818.33582 4291344569
-13.537615 928.16663 818.33582 4291145649
-10.33945 928.81824 817.57721 4291145905
-7.1669722 928.16663 818.33582 4291277238
-3.9816513 928.16663 818.33582 4291014072
-1.5926605 928.16663 818.33582 4291277758
0 929.46985 816.8186 4291476155
3.9816513 928.16663 818.33582 4291870913
7.9633026 928.16663 818.33582 4291936454
11.148623 928.16663 818.33582 4291936204
13.537615 928.16663 818.33582 4291870159
16.722935 928.16663 818.33582 4291607239
19.862385 929.46985 816.8186 4292002499
23.040367 929.46985 816.8186 4291476921
25.423853 929.46985 816.8186 4291213764
27.838531 928.81824 817.57721 4291213765
30.985321 929.46985 816.8186 4291345352
34.163303 929.46985 816.8186 4291542729
37.341286 929.46985 816.8186 4292003016
40.519264 929.46985 816.8186 4289700239
43.69725 929.46985 816.8186 4290358689
46.875229 929.46985 816.8186 4292990428
50.053211 929.46985 816.8186 4292858581
52.436699 929.46985 816.8186 4293055964
54.820183 929.46985 816.8186 4292529874
57.998165 929.46985 816.8186 4292529359
61.176147 929.46985 816.8186 4292463311
64.502747 928.16663 818.33582 4292463311
68.484406 928.16663 818.33582 4292529106
70.873398 928.16663 818.33582 4292397522
38.13578 930.68463 817.8429 4293448414
40.519264 930.68463 817.8429 4291015340
43.69725 930.68463 817.8429 4289964193
46.080734 930.68463 817.8429 4293187554
49.258717 930.68463 817.8429 4292791763
52.436699 930.68463 817.8429 4292660947
54.025688 930.68463 817.8429 4292595665
-25.541285 926.86334 819.85303 4291213501
-23.200001 925.56006 821.37024 4291213502
-20 925.56006 821.37024 4291278012
-16.761467 926.86334 819.85303 4291276983
1.5963303 926.86334 819.85303 4291541948
6.3853211 926.86334 819.85303 4291936454
9.5779819 926.86334 819.85303 4291936204
67.045868 926.86334 819.85303 4292529106
73.43119 926.86334 819.85303 4292397518
-15.963303 928.08374 820.88196 4294107109
-13.568808 928.69397 821.39648 4294041827
-10.369724 929.0191 821.0166 4293976546
-7.183486 928.69397 821.39648 4294107877
-3.9908257 928.69397 821.39648 4293844451
-1.5963303 928.69397 821.39648 4293844452
0 928.69397 821.39648 4293779172
3.1926606 928.08374 820.88196 4293778912
7.9816513 928.08374 820.88196 4293580765
11.174312 928.08374 820.88196 4293317596
13.823853 928.92407 820.71844 4293186010
17.027521 928.49054 821.22491 4293318363
19.908257 929.38422 819.36243 4293055448
23.093578 929.38422 819.36243 4293122011
25.482569 929.38422 819.36243 4293121759
27.903671 929.34424 820.63672 4293055708
31.092659 929.34424 820.63672 4293055194
34.242203 929.38422 819.36243 4293055195
36.631191 929.38422 819.36243 4293318109
47.779816 929.38422 819.36243 4293186521
50.965137 929.38422 819.36243 4292595154
55.743118 929.38422 819.36243 4292595665
58.199081 929.34424 820.63672 4292332497
61.388073 929.34424 820.63672 4292595405
64.614677 929.0191 821.0166 4292529102
68.1101 928.49054 821.22491 4292398281
71.036697 928.69397 821.39648 4292200911
73.43119 928.08374 820.88196 4292397518
19.908257 930.60181 820.38916 4293187541
23.093578 930.60181 820.38916 4292990169
