# .PCD v0.7 - Point Cloud Data file format
VERSION 0.7
FIELDS x y z rgb
SIZE 4 4 4 4
TYPE F F F U
COUNT 1 1 1 1
WIDTH 1155
HEIGHT 1
VIEWPOINT 0 0 0 1 0 0 0
POINTS 1155
DATA ascii
18.333944 881.38306 1277.2485 4288652212
-31.981651 885.96399 1275.8789 4287069836
1.1422018 885.09076 1275.1426 4286741912
4.5688071 885.09076 1275.1426 4286810521
6.8532109 885.09076 1275.1426 4288850361
10.279816 885.09076 1275.1426 4286481304
13.706422 886.83722 1276.6152 4280823552
15.990826 886.83722 1276.6152 4282271253
18.275229 886.83722 1276.6152 4282727425
-31.85321 892.75354 1275.0636 4287135882
1.1376147 892.75354 1275.0636 4289303959
10.238532 892.75354 1275.0636 4290030771
13.651376 892.75354 1275.0636 4287207078
15.926605 892.75354 1275.0636 4287009956
18.201836 892.75354 1275.0636 4289435009
1.1376147 894.49298 1276.5303 4288844700
10.238532 895.36267 1277.2637 4290753190
13.651376 895.36267 1277.2637 4290160563
15.926605 895.36267 1277.2637 4290094770
18.201836 895.36267 1277.2637 4290685876
-34.018349 899.89386 1275.8519 4287267483
1.133945 899.89386 1275.8519 4287991969
4.53578 899.89386 1275.8519 4290292908
6.8036699 899.89386 1275.8519 4290753459
9.0715599 899.89386 1275.8519 4290884266
18.14312 899.89386 1275.8519 4290620074
1.133945 901.62769 1277.3138 4287860129
6.8036699 901.62769 1277.3138 4290293428
10.205505 901.62769 1277.3138 4290292649
-31.647707 905.27222 1275.1548 4287134096
-29.387156 905.27222 1275.1548 4287463061
1.1302752 905.27222 1275.1548 4287925409
4.521101 905.27222 1275.1548 4289701293
6.7816515 905.27222 1275.1548 4290293430
-31.647707 907.00043 1276.6119 4287068553
1.1302752 907.00043 1276.6119 4287859352
4.521101 907.00043 1276.6119 4289569450
6.7816515 907.00043 1276.6119 4290293430
2.2513762 914.54541 1276.4335 4288647849
4.5027523 914.54541 1276.4335 4289305781
6.7541285 914.54541 1276.4335 4289766332
10.131193 914.54541 1276.4335 4290291881
13.508257 914.54541 1276.4335 4289897141
-31.519266 916.2666 1277.8848 4287463048
-29.267889 916.2666 1277.8848 4286936703
11.256881 916.2666 1277.8848 4290358444
13.508257 916.2666 1277.8848 4289766066
15.759633 916.2666 1277.8848 4289831859
2.2440367 919.86487 1275.6866 4288647599
4.4880733 919.86487 1275.6866 4289109153
7.8541284 919.86487 1275.6866 4290358700
11.220183 919.86487 1275.6866 4290489508
13.46422 919.86487 1275.6866 4289963447
15.708257 919.86487 1275.6866 4289831605
-29.172478 921.58044 1277.1332 4288977054
2.2440367 921.58044 1277.1332 4288384681
4.4880733 921.58044 1277.1332 4289043360
7.8541284 921.58044 1277.1332 4290095787
11.220183 921.58044 1277.1332 4290095013
13.46422 921.58044 1277.1332 4290094765
16.830275 921.58044 1277.1332 4289634729
-29.053211 928.19122 1276.167 4290555312
-26.818348 929.04553 1276.8873 4290620344
1.1174312 928.19116 1276.167 4287592568
4.4697247 928.19122 1276.167 4289172387
7.8220181 928.19116 1276.167 4289896867
11.174312 928.19122 1276.167 4289765526
13.409174 928.19122 1276.167 4289699234
15.644036 928.19122 1276.167 4289830820
-22.275229 934.30603 1276.0908 4291608788
-20.047707 934.30603 1276.0908 4291477202
-16.706421 934.30603 1276.0908 4290949811
-13.365138 934.30603 1276.0908 4290950059
-11.137614 934.30603 1276.0908 4290489508
-7.7963305 934.30603 1276.0908 4290027689
-4.4550457 934.30603 1276.0908 4290159525
-2.2275229 934.30603 1276.0908 4290357160
-43.992661 754.737 1279.0303 4290291906
-43.827522 763.09564 1279.538 4289766847
-46.053211 773.81165 1280.7252 4289308082
-43.464222 778.38275 1278.0393 4289701302
-45.878899 780.22882 1279.5958 4289438383
-43.299084 787.53735 1279.2183 4289307059
-40.893578 787.53735 1279.2183 4289373108
-38.488075 787.53735 1279.2183 4288912815
21.649542 788.45691 1279.9935 4289830560
-40.737614 794.81097 1278.8109 4289042095
-38.341286 794.81097 1278.8109 4289173161
-35.944954 794.81097 1278.8109 4289173161
22.765137 794.81097 1278.8109 4289961643
26.359632 794.81097 1278.8109 4289830060
-40.737614 796.64294 1280.3556 4289041591
-38.341286 796.64294 1280.3556 4289173161
23.963303 796.64294 1280.3556 4290158260
-38.194496 802.96198 1279.1434 4288976300
-38.077065 808.72467 1278.7704 4288713903
-40.456882 810.54407 1280.3044 4288976300
-37.930275 817.70892 1279.8054 4288846514
18.965137 816.80273 1279.0414 4292596183
22.125994 817.40692 1279.5508 4292793047
26.077065 817.70892 1279.8054 4292595667
28.447706 817.70892 1279.8054 4292596183
-37.783485 824.83875 1279.277 4288515747
18.891743 824.83875 1279.277 4292398290
22.433945 824.83875 1279.277 4292463571
25.976147 824.83875 1279.277 4292594902
28.337614 824.83875 1279.277 4292529872
-40.144955 826.6441 1280.7992 4288515495
22.433945 826.6441 1280.7992 4292201168
25.976147 826.6441 1280.7992 4292200655
28.337614 826.6441 1280.7992 4292004044
28.227524 832.83264 1279.4771 4292070093
30.579817 832.83264 1279.4771 4292135886
-39.988991 834.63098 1280.9934 4288515747
-37.48991 838.99304 1278.1312 4288120989
14.058716 838.99304 1278.1312 4291937737
16.401834 838.99304 1278.1312 4292266702
18.744955 838.99304 1278.1312 4291871692
22.259632 838.99304 1278.1312 4291871692
25.774311 838.99304 1278.1312 4292266450
28.117432 838.99304 1278.1312 4292136136
30.46055 838.99304 1278.1312 4292070343
-39.833027 840.78436 1279.6416 4287792805
28.117432 840.78436 1279.6416 4292135364
30.46055 840.78436 1279.6416 4292135364
-39.708256 848.18701 1280.6511 4288319651
-37.372478 846.40125 1279.1455 4287859100
4.6715598 846.40125 1279.1455 4292462016
7.0073395 846.40125 1279.1455 4292199101
10.511009 846.40125 1279.1455 4292002751
14.014679 847.29413 1279.8983 4292133577
16.350458 847.29413 1279.8983 4292001991
18.686239 847.29413 1279.8983 4291936205
21.800611 846.99652 1279.6473 4291936718
25.693579 847.29413 1279.8983 4291805647
28.029358 847.29413 1279.8983 4291608774
30.365137 847.29413 1279.8983 4291740616
-39.552292 854.28009 1279.2485 4288056480
-37.225689 854.28009 1279.2485 4287990938
13.959633 854.28009 1279.2485 4288513406
16.286238 854.28009 1279.2485 4288908163
19.776146 854.28009 1279.2485 4292062900
23.266054 854.28009 1279.2485 4292328900
25.592661 854.28009 1279.2485 4292263107
27.919266 854.28009 1279.2485 4291870148
-39.552292 856.05878 1280.7483 4287924641
-37.225689 856.05878 1280.7483 4287859348
25.592661 856.05878 1280.7483 4292001719
27.919266 856.05878 1280.7483 4292067020
30.245872 856.05878 1280.7483 4292330449
-37.078899 863.00269 1280.0631 4287725721
13.904587 862.11688 1279.3162 4289110198
16.222019 862.11688 1279.3162 4286412686
19.698166 862.11688 1279.3162 4282140740
23.174313 862.11688 1279.3162 4282009660
25.491743 863.00269 1280.0631 4282996298
27.809174 863.88855 1280.8101 4284571960
30.126606 863.88855 1280.8101 4287335010
4.6201835 867.6496 1278.7491 4286874504
6.9302754 867.6496 1278.7491 4287861399
10.780429 868.23828 1279.2455 4285558914
13.860551 868.53259 1279.4937 4286807190
16.170643 868.53259 1279.4937 4288123050
19.63578 868.53265 1279.4937 4288973243
23.100918 868.53259 1279.4937 4288778399
25.411009 868.53259 1279.4937 4288646812
27.721102 868.53259 1279.4937 4289173144
30.031193 868.53259 1279.4937 4290554797
-34.51376 875.41333 1278.7551 4287464855
11.504587 875.41333 1278.7551 4282203228
13.805505 875.41333 1278.7551 4282008121
16.106422 875.41333 1278.7551 4282337085
19.557798 875.41333 1278.7551 4282793782
23.009174 875.41333 1278.7551 4282858523
25.310091 875.41333 1278.7551 4283779625
29.911926 875.41333 1278.7551 4282666832
-34.51376 877.17242 1280.2384 4287530135
13.805505 877.17242 1280.2384 4283585915
16.106422 877.17242 1280.2384 4285296532
19.557798 877.17242 1280.2384 4284176737
23.009174 877.17242 1280.2384 4282857297
25.310091 877.17242 1280.2384 4282989139
28.761467 877.17242 1280.2384 4284170834
-34.376148 884.01117 1279.4645 4287003801
13.750459 883.13513 1278.7258 4286678090
16.042202 883.13513 1278.7258 4288520294
19.861773 883.71918 1279.2183 4285491758
22.917431 884.01117 1279.4645 4287262755
25.209175 884.88721 1280.2031 4291340389
28.64679 884.01123 1279.4645 4290946739
-34.266056 889.45691 1278.824 4287135390
11.422018 888.58368 1278.0878 4281677638
13.706422 888.58368 1278.0878 4281547602
19.417431 889.45691 1278.824 4286606966
22.844036 890.33014 1279.5603 4291341223
25.128441 890.33014 1279.5603 4291472810
27.412844 890.33014 1279.5603 4290883252
-34.128441 899.7113 1280.9302 4287003791
11.376146 897.97186 1279.4636 4290687143
13.651376 898.84155 1280.1969 4290160549
15.926605 898.84155 1280.1969 4290292134
19.718657 899.13153 1280.4413 4290751663
22.752293 898.84155 1280.1969 4290619318
25.027523 898.84155 1280.1969 4290487989
28.440367 898.84161 1280.1969 4290488754
-36.28624 905.09534 1280.2377 4287003791
-34.018349 905.09534 1280.2377 4286806412
10.205505 904.22845 1279.5067 4290489515
13.60734 904.22839 1279.5067 4290226607
15.875229 904.22839 1279.5067 4290226607
19.277065 904.22839 1279.5067 4290422960
22.6789 904.22839 1279.5067 4290422182
24.946789 904.22839 1279.5067 4290553768
28.348623 904.22839 1279.5067 4290488751
-31.647707 908.72864 1278.0691 4287003010
1.1302752 908.72864 1278.0691 4287727769
4.521101 908.72864 1278.0691 4289568941
6.7816515 908.72864 1278.0691 4290490043
10.172478 908.72864 1278.0691 4290686400
15.823853 908.72864 1278.0691 4290489010
-31.647707 910.45685 1279.5264 4287134083
10.172478 910.45685 1279.5264 4290358194
13.563303 910.45685 1279.5264 4289831596
15.823853 910.45685 1279.5264 4290094511
19.21468 910.45685 1279.5264 4290225583
-31.647707 912.18506 1280.9835 4287134598
-29.387156 912.18506 1280.9835 4287134598
19.21468 912.18506 1280.9835 4290160047
24.866055 912.18506 1280.9835 4290226605
-31.519266 917.98779 1279.3361 4287330944
-29.267889 917.98779 1279.3361 4286936442
19.136696 917.98779 1279.3361 4290225581
-31.519266 919.70905 1280.7874 4289042847
20.262384 919.70905 1280.7874 4289832109
-29.172478 923.29602 1278.5797 4289831066
8.9761467 923.29602 1278.5797 4290160545
11.220183 923.29602 1278.5797 4290094752
13.46422 923.29602 1278.5797 4290094502
17.952293 923.29602 1278.5797 4289765802
20.196331 923.29602 1278.5797 4289831596
-31.416513 925.0116 1280.0262 4290160810
17.952293 925.0116 1280.0262 4289700005
20.196331 925.0116 1280.0262 4289634212
-29.053211 931.6084 1279.0483 4291740104
-26.073395 931.89313 1279.2885 4291871449
1.1174312 931.6084 1279.0483 4288646301
4.4697247 931.6084 1279.0483 4289172390
7.4495411 931.32367 1278.8082 4289699498
11.174312 930.75409 1278.328 4289569439
13.409174 930.75409 1278.328 4289371810
15.644036 931.6084 1279.0483 4289174172
29.053211 932.46265 1279.7686 4289305763
-46.436699 758.474 1282.1813 4290030785
-46.436699 760.34247 1283.7567 4289834176
-46.262386 764.95709 1281.1075 4289899199
-46.262386 766.8186 1282.6771 4289768383
-46.053211 775.66467 1282.2877 4289504428
-48.477066 777.5177 1283.8501 4289504432
-45.878899 782.07483 1281.1523 4289175210
-45.878899 783.9209 1282.709 4289241003
-43.299084 790.2959 1281.5442 4289240501
-40.893578 790.2959 1281.5442 4289240501
-38.488075 790.2959 1281.5442 4288977586
-45.704586 792.13495 1283.0947 4289306283
-43.299084 792.13495 1283.0947 4288976046
-43.133945 798.47498 1281.9003 4289238452
-40.737614 799.39099 1282.6726 4289173173
-38.341286 798.47498 1281.9003 4289108138
-42.968807 806.61194 1282.2211 4289042095
-40.58165 806.61194 1282.2211 4288976046
-42.968807 808.43701 1283.7599 4289042093
-40.456882 814.18286 1283.3726 4288779950
-40.300919 820.42749 1282.0977 4288514986
-40.300919 822.23987 1283.6259 4288384179
-42.50642 830.25482 1283.8436 4288581794
-40.144955 829.35217 1283.0825 4288253090
-39.988991 836.42932 1282.5096 4288120991
-39.833027 842.57568 1281.1521 4287858850
-39.833027 844.36707 1282.6625 4288056484
-42.044037 851.75842 1283.6626 4288056480
-39.708256 849.97272 1282.1569 4288517031
28.029358 849.97272 1282.1569 4291804866
30.365137 850.8656 1282.9097 4292133575
-39.552292 857.83752 1282.248 4287793057
-37.225689 857.83752 1282.248 4287726483
27.919266 857.83752 1282.248 4287261791
-39.552292 859.61621 1283.7478 4287793057
27.919266 859.61621 1283.7478 4284632650
30.245872 859.61621 1283.7478 4286606696
-37.078899 865.66028 1282.304 4287726487
-37.078899 867.43195 1283.7977 4287530135
-39.271561 872.94781 1283.2164 4287595681
-36.961468 872.06482 1282.4719 4287464600
20.790825 871.18176 1281.7273 4288055598
23.100918 871.18176 1281.7273 4289700189
25.411009 871.18176 1281.7273 4290687084
27.721102 872.06482 1282.4719 4285887363
31.186239 872.06482 1282.4719 4286541399
-36.814678 878.93152 1281.7216 4287596444
-34.51376 878.93152 1281.7216 4287201686
20.708258 878.93152 1281.7216 4283191392
23.009174 878.93152 1281.7216 4281806336
25.310091 878.93152 1281.7216 4284438298
28.761467 878.93152 1281.7216 4289430135
-36.814678 880.69055 1283.2048 4287135643
25.310091 880.69055 1283.2048 4287922199
-36.667889 886.63922 1281.6804 4287266981
20.625689 886.63922 1281.6804 4287792553
22.917431 886.63922 1281.6804 4290027664
25.209175 886.63922 1281.6804 4291672232
27.500917 886.63922 1281.6804 4291277497
-36.667889 888.3913 1283.1577 4287333276
-34.266056 892.94977 1281.769 4287070099
20.559633 892.94977 1281.769 4291278013
22.844036 892.94977 1281.769 4290686384
25.128441 892.94977 1281.769 4290620590
27.412844 892.94977 1281.769 4290685619
-34.128441 901.45068 1282.3969 4286871951
-34.018349 907.69604 1282.4305 4286872205
13.60734 906.8291 1281.6996 4290423217
19.277065 906.8291 1281.6996 4290422963
22.6789 907.69604 1282.4305 4290291888
24.946789 907.69604 1282.4305 4290226095
27.21468 908.56293 1283.1615 4290227119
-33.908257 913.91327 1282.4407 4286872453
19.21468 913.91327 1282.4407 4290356654
24.866055 913.91327 1282.4407 4290160043
-33.908257 915.64148 1283.8978 4287003539
-33.770641 923.15143 1283.6898 4291016899
-31.519266 921.43024 1282.2385 4290028446
28.1422 923.15143 1283.6898 4289634466
31.519266 923.15143 1283.6898 4289437092
33.770641 921.43024 1282.2385 4289766052
-31.416513 926.72723 1281.4728 4291278521
17.952293 926.72723 1281.4728 4289633960
20.196331 926.72723 1281.4728 4289897389
31.416513 926.72723 1281.4728 4289568937
-31.416513 928.44275 1282.9193 4291739845
17.952293 928.44275 1282.9193 4289174182
20.196331 928.44275 1282.9193 4289503146
25.806423 928.44275 1282.9193 4289371556
29.172478 928.44275 1282.9193 4289569191
31.416513 928.44275 1282.9193 4289635498
-25.700916 934.1712 1281.2092 4291609301
-22.348623 935.02551 1281.9296 4291148998
-20.113762 935.02551 1281.9296 4290885826
-17.133944 934.74072 1281.6895 4291015350
-13.409174 934.1712 1281.2092 4291277495
-11.174312 935.02551 1281.9296 4291146160
-7.8220177 935.02551 1281.9296 4291211953
-4.4697247 935.02551 1281.9296 4290751675
-2.2348623 935.02551 1281.9296 4289567144
26.818348 935.02551 1281.9296 4289371038
-49.06422 755.71381 1286.3942 4289964992
-48.880733 763.1452 1286.1199 4289767870
-48.697247 769.61078 1285.0314 4289439411
-46.262386 768.68005 1284.2466 4289438898
-48.477066 779.37079 1285.4126 4289438383
-48.477066 781.22388 1286.9751 4289438383
-45.878899 785.76697 1284.2655 4289306798
-45.878899 787.61298 1285.822 4289306548
-45.704586 793.974 1284.6454 4289503405
-43.299084 793.974 1284.6454 4289107385
-45.704586 795.81299 1286.196 4288976550
-45.530273 803.97107 1286.5344 4289042091
-43.133945 802.13904 1284.9897 4289107634
-40.737614 802.13904 1284.9897 4289041841
-40.58165 810.26196 1285.2987 4289042093
-40.456882 816.00226 1284.9066 4288582326
-42.671558 824.05225 1285.1539 4288844460
-42.671558 825.86462 1286.6821 4288385192
-42.50642 832.96289 1286.1271 4288186783
-42.341286 840.026 1285.5424 4288253352
-42.176147 847.94971 1285.6833 4288122529
-42.044037 853.54419 1285.1682 4287924641
-43.211929 855.3299 1286.6738 4287727769
-40.715595 862.2843 1285.9976 4287464346
-39.396332 869.20361 1285.2916 4287529888
-36.961468 874.71393 1284.7056 4287595929
-39.115597 884.20874 1286.1711 4287595940
-36.814678 882.44965 1284.688 4287069850
29.911926 884.20874 1286.1711 4291014068
-36.667889 890.14331 1284.635 4287135891
-36.667889 891.89539 1286.1123 4286675344
-36.550457 898.18909 1286.1868 4286937999
-36.403671 904.92957 1285.3301 4286937998
28.440367 904.92957 1285.3301 4290423730
-36.403671 906.66901 1286.7968 4286937998
29.577982 906.66901 1286.7968 4290358705
31.85321 906.66901 1286.7968 4289965483
-36.28624 910.29675 1284.6234 4286872723
-34.018349 910.29675 1284.6234 4286872723
15.875229 910.29675 1284.6234 4290028470
22.6789 910.29675 1284.6234 4290160556
28.348625 910.29675 1284.6234 4290096049
31.750458 910.29675 1284.6234 4290227115
-36.28624 912.03064 1286.0853 4286675331
22.6789 912.03064 1286.0853 4289896870
28.348625 912.03064 1286.0853 4290161324
31.750458 912.03064 1286.0853 4290227119
-33.908257 917.36969 1285.355 4289831846
22.605505 917.36969 1285.355 4289897893
24.866055 917.36969 1285.355 4289897893
33.908257 917.36969 1285.355 4289765800
-36.168808 919.0979 1286.8123 4290095006
-33.908257 919.0979 1286.8123 4290160799
22.605505 919.0979 1286.8123 4289832100
24.866055 919.0979 1286.8123 4289897893
28.256882 919.0979 1286.8123 4289832613
-33.770641 925.73322 1285.8667 4291543249
22.513762 925.73322 1285.8667 4289503398
24.765137 924.87262 1285.1411 4289634984
28.1422 924.87262 1285.1411 4289897382
-31.416513 931.01617 1285.0891 4291542983
-29.172478 931.87396 1285.8124 4291609288
1.1220183 931.87396 1285.8124 4288582042
4.4880733 931.87396 1285.8124 4288907666
8.2281342 931.30206 1285.3302 4289764505
11.220183 931.01617 1285.0891 4289831063
13.46422 931.01617 1285.0891 4289502622
17.952293 931.01617 1285.0891 4289173420
20.196331 931.01617 1285.0891 4289502385
22.440367 931.01617 1285.0891 4289371812
25.432417 930.73022 1284.848 4289305763
-49.06422 757.58936 1287.9755 4289768383
-51.517429 759.46484 1289.5569 4290819534
-51.324772 765.94794 1288.4832 4290425030
-48.697247 772.40302 1287.3857 4289504428
-48.477066 783.0769 1288.5375 4289635507
-49.098469 790.6897 1288.4161 4289766580
-45.704586 797.65204 1287.7466 4288910505
-43.299084 797.65204 1287.7466 4289107636
-45.704586 799.49109 1289.2972 4288976550
-45.530273 805.80304 1288.0791 4289042095
-45.530273 807.63507 1289.6239 4288845507
-43.133945 807.63507 1289.6239 4288976300
-45.355965 815.73694 1289.915 4288714423
-42.968807 814.82446 1289.1456 4288515759
-45.216515 821.46045 1289.5088 4288910507
-42.836697 819.64099 1287.9747 4288515508
-45.042202 827.677 1288.2102 4288712099
-45.042202 829.48938 1289.7384 4288449450
-42.50642 835.6709 1288.4104 4287990185
-44.867889 837.47626 1289.9326 4288384915
-42.341286 841.82434 1287.0586 4288122277
-42.341286 843.62268 1288.575 4288253858
-44.519264 851.53235 1288.7041 4287925397
-43.211929 857.1156 1288.1796 4287859099
-46.715595 858.90131 1289.6852 4288583078
-44.379818 858.90131 1289.6852 4287859098
-40.715595 865.84167 1288.9971 4287529886
-39.396332 872.74707 1288.2793 4287530399
-39.396332 874.51874 1289.7732 4287530649
-39.271561 878.24609 1287.6838 4287464844
-39.271561 880.01221 1289.173 4287464342
-39.115597 886.84729 1288.396 4287398549
29.911926 886.84729 1288.396 4290685617
-37.813759 893.64746 1287.5896 4286938259
-38.959633 895.39954 1289.0669 4287463311
-38.834862 901.68201 1289.1318 4287267202
-38.678898 908.40845 1288.2634 4287071120
-38.678898 910.14789 1289.7301 4286742402
-36.28624 913.7644 1287.5472 4287003539
22.6789 913.7644 1287.5472 4290094763
24.946789 913.7644 1287.5472 4290226605
28.348625 913.7644 1287.5472 4290227625
31.750458 913.7644 1287.5472 4290028970
-37.420181 915.49823 1289.0092 4289701032
28.348625 915.49823 1289.0092 4289832359
31.750458 915.49823 1289.0092 4289897643
-36.168808 920.82611 1288.2694 4291543243
22.605505 920.82611 1288.2694 4289239708
24.866055 920.82611 1288.2694 4289568417
-36.168808 922.55432 1289.7266 4292003796
-33.770641 928.315 1288.0437 4291674329
-33.770641 930.03619 1289.4949 4291543247
15.759633 930.03619 1289.4949 4289568158
-29.172478 933.58954 1287.2589 4291477702
-25.806423 934.44739 1287.9822 4291214273
-22.440367 935.30518 1288.7056 4290490039
-20.196331 935.30518 1288.7056 4290753211
-16.456268 934.73334 1288.2233 4291015351
-13.46422 934.44739 1287.9822 4291080630
-11.220183 935.30518 1288.7056 4290817471
-7.8541284 935.30518 1288.7056 4288515997
-4.4880733 935.30518 1288.7056 4285490039
-2.2440367 935.30518 1288.7056 4285095281
20.196331 933.58954 1287.2589 4289370039
22.440367 933.58954 1287.2589 4289304998
24.684404 934.44739 1287.9822 4289502376
-51.710091 754.83624 1292.1943 4290885842
-51.517429 761.34033 1291.1383 4290819534
-53.970642 763.21582 1292.7196 4292135647
-51.324772 767.81641 1290.0586 4290425030
-51.324772 769.68494 1291.634 4290490305
-51.132111 776.12592 1290.5248 4290293178
-51.132111 777.98743 1292.0944 4290555836
-49.688992 784.92993 1290.1 4289898680
-50.900917 786.78302 1291.6624 4290227650
-49.500916 794.0741 1291.2698 4289897912
-48.911926 802.55615 1291.8816 4289700277
-45.530273 809.46704 1291.1686 4288780734
-43.133945 809.46704 1291.1686 4288845743
-46.728439 811.29907 1292.7133 4288714941
-45.355965 817.56201 1291.4539 4288977332
-47.743118 819.38696 1292.9927 4289042093
-45.216515 823.27979 1291.0428 4288712097
-46.227524 832.20795 1292.0306 4288647326
-44.867889 839.28162 1291.4548 4288318354
-47.229359 841.08698 1292.9771 4288844952
-44.867889 841.08698 1292.9771 4288318352
-47.045872 845.42102 1290.0913 4288516251
-44.693577 845.42102 1290.0913 4288121493
-49.398167 847.21942 1291.6075 4289371560
-47.045872 847.21942 1291.6075 4288516249
-44.693577 847.21942 1291.6075 4288187540
-49.205505 853.32373 1290.2145 4289240742
-46.862385 853.32373 1290.2145 4288320153
-49.205505 855.11505 1291.7249 4289371043
-46.862385 855.11505 1291.7249 4288319899
-44.379818 860.68701 1291.1909 4287858348
-43.211929 862.47278 1292.6965 4287661468
-41.878899 868.50977 1291.2467 4287529888
-44.205505 870.28845 1292.7465 4287530135
-41.878899 870.28845 1292.7465 4287530399
-41.71376 878.06213 1292.7609 4287201427
-41.58165 881.77826 1290.6621 4287135389
-41.58165 883.54431 1292.1511 4286872205
-39.115597 889.48596 1290.6208 4287004043
-41.416515 891.245 1292.104 4287135380
-41.251377 898.90363 1292.0215 4287134848
-38.959633 897.15161 1290.5442 4287398797
-38.834862 904.3017 1291.3408 4287070854
-38.678898 911.88733 1291.1967 4287662237
-40.954128 913.62671 1292.6633 4289899185
-40.822018 917.23206 1290.4711 4291014602
-38.554127 917.23206 1290.4711 4290356416
31.750458 917.23206 1290.4711 4289897639
-38.554127 918.96588 1291.933 4291937487
-37.299084 925.14661 1291.9122 4291806163
-33.770641 931.75739 1290.9462 4291609542
-31.519266 931.75739 1290.9462 4291411908
1.1256881 931.75739 1290.9462 4288317055
4.5027523 931.75739 1290.9462 4288579462
6.7541285 931.75739 1290.9462 4288711304
10.131193 931.75739 1290.9462 4289304456
13.508257 931.75739 1290.9462 4289502353
15.759633 931.75739 1290.9462 4290028698
18.011009 931.75739 1290.9462 4289764797
-33.770641 933.47858 1292.3975 4291477702
-31.519266 933.47858 1292.3975 4291147969
-29.267889 933.47858 1292.3975 4291213762
20.262384 933.47858 1292.3975 4289567404
22.513762 933.47858 1292.3975 4289501863
-22.440367 937.02069 1290.152 4290949820
-20.196331 937.02069 1290.152 4291147455
-17.952293 937.02069 1290.152 4290950074
-13.46422 937.02069 1290.152 4290818754
-4.4880733 937.02069 1290.152 4283188049
-2.2440367 937.02069 1290.152 4283451222
22.440367 937.02069 1290.152 4289764519
26.180429 937.59259 1290.6342 4289367953
-54.172478 757.66003 1294.5752 4292201443
-53.970642 766.02905 1295.0917 4292003803
-52.546791 772.48767 1293.9972 4291082693
-52.349541 779.84888 1293.6639 4291214027
-53.566971 781.71033 1295.2334 4291806160
-53.324772 788.63611 1293.2249 4291608788
-53.324772 790.48914 1294.7874 4291609301
-49.500916 796.8432 1293.6047 4289766070
-53.122936 798.68921 1295.1613 4291476948
-50.708256 798.68921 1295.1613 4290029502
-49.312843 805.92767 1294.7244 4289372602
-50.322937 814.96313 1295.8027 4289765312
-47.926605 814.04712 1295.0303 4288779956
-47.743118 821.21198 1294.5314 4289172648
-47.596329 826.91858 1294.111 4288910001
-49.976147 828.73798 1295.645 4289502644
-49.783485 835.8327 1295.0869 4289502636
-47.412846 835.8327 1295.0869 4289239712
-49.590824 842.89233 1294.4993 4289436838
-49.398167 849.01776 1293.1239 4289306283
-47.045872 849.01776 1293.1239 4288319899
-49.205505 856.90637 1293.2354 4289043881
-49.205505 858.69775 1294.7457 4289239456
-46.862385 858.69775 1294.7457 4288253106
-44.379818 865.15137 1294.9551 4287596440
-44.205505 872.06714 1294.2462 4287399051
-41.878899 872.06714 1294.2462 4287464855
-44.205505 873.84589 1295.746 4287266436
-41.878899 873.84589 1295.746 4287135880
-44.031193 880.71967 1295.0016 4287397518
-43.891743 887.07654 1295.1294 4287332752
-41.58165 886.19348 1294.3848 4286937996
30.031193 887.07654 1295.1294 4290817207
-41.416515 893.00409 1293.5872 4287397518
-41.416515 894.76312 1295.0704 4286938246
-41.251377 901.53168 1294.2374 4286873215
-41.119267 907.79456 1294.2859 4287005831
-43.403671 909.54102 1295.7584 4288779437
-41.119267 909.54102 1295.7584 4287662237
-43.229359 916.2359 1294.8633 4292199110
-40.954128 917.10559 1295.5967 4292200659
-40.822018 920.69971 1293.3949 4292069071
-38.554127 920.69971 1293.3949 4292266450
-43.089909 922.43353 1294.8568 4292069841
-40.822018 922.43353 1294.8568 4291806414
-37.299084 928.60303 1294.8267 4291609033
-31.519266 935.19983 1293.8488 4291082692
-28.1422 935.19983 1293.8488 4291213762
-24.765137 935.19983 1293.8488 4291213247
-15.759633 935.19983 1293.8488 4291279040
-10.131193 935.19983 1293.8488 4288780200
-6.7541285 935.19983 1293.8488 4284044389
20.262384 935.19983 1293.8488 4289830771
-18.011009 936.92102 1295.3 4291014611
20.262384 936.92102 1295.3 4285090361
22.513762 936.92102 1295.3 4286208590
24.765137 936.92102 1295.3 4286471762
-56.634861 762.36627 1298.5435 4292529636
-53.970642 768.84229 1297.4637 4291938003
-53.768806 775.29034 1296.3604 4291871696
-56.212845 777.15887 1297.9358 4292069339
-56.001835 785.43329 1298.3726 4292266963
-53.566971 783.57184 1296.803 4291280339
-53.324772 793.26868 1297.131 4291608789
-53.122936 800.53528 1296.7178 4291345096
-53.122936 802.38135 1298.2743 4291346115
-50.515594 808.68622 1297.0503 4290227637
-52.921101 810.52527 1298.601 4290885331
-50.515594 810.52527 1298.601 4289832642
-52.719265 818.62714 1298.8921 4291146190
-50.322937 817.71118 1298.1198 4289632951
-50.130276 823.94946 1296.8396 4289764791
-47.743118 823.03699 1296.0702 4289238443
-49.976147 830.55737 1297.1791 4289633714
-49.783485 838.55127 1297.3792 4289568169
-52.154129 840.36365 1298.9072 4290752698
-51.952293 846.50305 1297.5438 4290687936
-51.750458 853.51361 1296.9147 4290621883
-46.862385 860.48901 1296.2561 4287924895
-46.862385 862.2804 1297.7666 4287991202
-46.715595 868.72278 1297.9664 4287925144
-44.205505 875.62457 1297.2457 4287397768
-46.532108 877.40332 1298.7455 4288055196
-44.031193 883.3772 1297.2424 4287069836
-46.348625 885.14893 1298.7362 4287596181
-43.891743 889.72559 1297.363 4287135125
-43.71743 896.52222 1296.5536 4286806426
-43.71743 898.28125 1298.0369 4287070368
-43.543118 905.03583 1297.192 4286676611
-41.251377 904.15979 1296.4534 4286873740
-43.403671 911.28748 1297.231 4291870157
-45.504585 919.71472 1297.7966 4292134866
-43.229359 918.84503 1297.0632 4292463063
-43.089909 925.0343 1297.0497 4291937734
-40.822018 925.0343 1297.0497 4291674313
-36.922325 931.77142 1297.4982 4291477447
-33.908257 932.92358 1298.4697 4291543493
1.1302752 932.05945 1297.7411 4285290057
4.521101 931.19537 1297.0125 4286012756
6.7816515 932.05945 1297.7411 4284434503
10.172478 932.05951 1297.7411 4284435231
13.563303 932.05945 1297.7411 4286670681
15.823853 932.05945 1297.7411 4288776057
18.084404 932.05945 1297.7411 4289567630
22.513762 938.64221 1296.7512 4284300829
24.765137 938.64221 1296.7512 4286274619
24.765137 940.3634 1298.2025 4283114784
-56.845871 755.86212 1299.5995 4292792798
-56.845871 757.75165 1301.1926 4292660191
-56.634861 766.13135 1301.718 4292726751
-56.423855 770.71783 1299.0452 4292528866
-56.423855 772.59332 1300.6265 4292003296
-56.212845 779.02734 1299.5114 4292200659
-56.212845 780.89581 1301.0868 4292200405
-56.001835 787.2948 1299.942 4292266965
-56.001835 789.15625 1301.5116 4292266198
-55.748623 797.90137 1301.0371 4291937235
-55.537613 806.07336 1301.3873 4291607502
-53.122936 805.15039 1300.6091 4291477963
-55.326607 812.36426 1300.1516 4291344848
-52.921101 812.36426 1300.1516 4291146965
-55.326607 814.20331 1301.7021 4291475916
-52.921101 814.20331 1301.7021 4291146704
-55.115597 820.45917 1300.4368 4291673550
-52.719265 820.45917 1300.4368 4291080908
-55.115597 822.2912 1301.9814 4291278794
-52.719265 822.2912 1301.9814 4291080393
-52.517429 826.68701 1299.1478 4290950090
-52.517429 828.51196 1300.6866 4290949318
-52.355965 836.0155 1301.7812 4291015615
-52.154129 842.17603 1300.4354 4290687164
-54.524769 843.9884 1301.9636 4291213249
-51.952293 848.30841 1299.066 4290753981
-51.750458 856.21118 1299.1892 4290686902
-49.398167 858.00952 1300.7056 4289042091
-49.205505 864.96741 1300.0322 4288911528
-46.862385 864.07172 1299.277 4288188831
-46.715595 873.18713 1301.7306 4288450456
-46.532108 880.07135 1300.9951 4287793044
-46.348625 886.92059 1300.2301 4287398549
-46.348625 888.69226 1301.7239 4287398045
-43.891743 892.37476 1299.5967 4286740385
-46.201836 894.14087 1301.0858 4287201184
-48.319267 901.79944 1301.0032 4288647849
-46.018349 900.91992 1300.2616 4287596942
-43.71743 900.04034 1299.52 4287070086
-45.834862 907.66394 1299.408 4289174195
-45.834862 909.41602 1300.8851 4292264915
-45.688072 914.78033 1300.1761 4292396755
-45.504585 922.32391 1299.9966 4292135366
-45.504585 924.06335 1301.4633 4291674565
-40.822018 928.50189 1299.9735 4291608778
-33.908257 934.65179 1299.9269 4291346115
-31.647707 934.65179 1299.9269 4291016133
-28.256882 934.65179 1299.9269 4290884031
-24.866055 934.65179 1299.9269 4290817722
-22.605505 934.65179 1299.9269 4290883516
-20.344954 934.65179 1299.9269 4291409860
-15.823853 934.65179 1299.9269 4289764801
-13.563303 934.65179 1299.9269 4287859880
-10.172478 934.65179 1299.9269 4283847781
-6.7816515 934.65179 1299.9269 4281612095
-4.521101 934.65179 1299.9269 4283118377
-2.2605505 934.65179 1299.9269 4283381806
11.302752 934.65179 1299.9269 4283249172
15.823853 934.65179 1299.9269 4283051307
18.084404 934.65179 1299.9269 4283642915
15.823853 936.38 1301.384 4282853170
19.21468 936.38 1301.384 4283179587
-56.845871 761.5307 1304.379 4292529636
-59.097248 769.89636 1304.8926 4292003296
-58.656879 782.76428 1302.6622 4291938255
-58.656879 784.63281 1304.2377 4292003794
-56.001835 791.0177 1303.0812 4292134612
-56.001835 792.87921 1304.6508 4292134614
-55.748623 799.75439 1302.5996 4292002512
-55.748623 801.60742 1304.162 4291673550
-57.952293 809.7655 1304.5005 4291279055
-55.537613 807.91943 1302.9438 4291608018
-57.732109 816.96185 1304.0281 4291410374
-55.326607 816.04236 1303.2528 4291673800
-55.115597 824.12317 1303.5262 4291540428
-52.517429 830.33698 1302.2253 4290686401
-52.517429 832.16199 1303.7642 4290687164
-54.735779 839.6543 1304.8494 4291081662
-54.524769 845.80078 1303.4917 4291015602
-54.313763 851.91919 1302.1105 4290688953
-54.313763 853.72449 1303.6327 4290687936
-49.398167 859.80786 1302.2218 4289108400
-51.750458 861.6062 1303.7382 4289964477
-49.205505 868.55005 1303.053 4288713897
-46.862385 869.44574 1303.8081 4288187538
-49.051376 874.97284 1303.2363 4288844710
-49.051376 876.75854 1304.7419 4288779435
-48.858715 883.62878 1303.9946 4288582562
-46.348625 890.46399 1303.2178 4287463852
-48.666054 892.23566 1304.7117 4288647597
-46.201836 895.90692 1302.575 4287333284
-48.511925 897.67303 1304.0641 4288451501
-48.319267 904.43799 1303.228 4288779428
-46.018349 903.55847 1302.4865 4287334287
-48.126606 911.16803 1302.3624 4293447869
-45.834862 911.16803 1302.3624 4292790981
-48.126606 912.92004 1303.8397 4292920784
-43.229359 925.80273 1302.9298 4291673800
-45.504585 927.54224 1304.3965 4291608254
-43.229359 927.54224 1304.3965 4291805890
-37.798161 932.25848 1303.141 4291345867
1.133945 932.83643 1303.6283 4283249713
4.53578 931.96954 1302.8973 4283908419
6.8036699 932.83643 1303.6283 4282789675
9.0715599 932.83643 1303.6283 4283051537
13.60734 932.83643 1303.6283 4283117101
-59.58165 756.37109 1307.8767 4292266463
-59.317432 763.42023 1305.9723 4292529372
-59.317432 765.30975 1307.5654 4292331743
-59.097248 771.77887 1306.4799 4291937753
-58.877064 778.21985 1305.3706 4291937489
-66.236694 780.09534 1306.952 4292398050
-61.330276 780.09534 1306.952 4291937499
-58.656879 787.43555 1306.6008 4291740110
-58.436699 796.60217 1307.7898 4291805134
-58.172478 803.46051 1305.7245 4291475916
-58.172478 805.3136 1307.2869 4291410639
-57.952293 811.61151 1306.057 4291146952
-60.366974 813.45758 1307.6135 4291279557
-57.732109 820.63989 1307.1294 4291343561
-55.115597 826.87122 1305.8433 4291279301
-57.291744 835.81201 1306.8418 4291015100
-54.904587 835.81201 1306.8418 4291081149
-57.115597 841.47369 1306.3834 4290752698
-57.115597 843.29309 1307.9175 4290357671
-54.524769 847.61316 1305.0199 4290819243
-51.952293 856.43256 1305.916 4290095037
-49.205505 871.23706 1305.3186 4288779439
-49.051376 878.54431 1306.2477 4288779689
-51.387157 880.33002 1307.7534 4289964477
-48.858715 886.29688 1306.2443 4288713646
-48.858715 888.07556 1307.744 4288910001
-50.21101 894.59796 1306.7035 4289108659
-50.822018 899.43909 1305.5532 4289897915
-50.822018 901.2052 1307.0424 4289438135
-49.469727 907.95618 1306.1945 4292330686
-48.126606 914.67212 1305.317 4292199121
-48.126606 916.42419 1306.7943 4292068819
-45.688072 923.51257 1307.5389 4291739593
-43.229359 929.28162 1305.8632 4291937469
-40.954128 929.28162 1305.8632 4291805910
-40.954128 931.02106 1307.3298 4291477198
-34.018349 934.57031 1305.0902 4291411908
-31.750458 934.57031 1305.0902 4290622154
-28.348625 934.57031 1305.0902 4290686662
-24.946789 934.57031 1305.0902 4290817219
-22.6789 934.57031 1305.0902 4290949820
-19.277065 934.57031 1305.0902 4290687951
-15.875229 934.57031 1305.0902 4287859643
-13.60734 934.57031 1305.0902 4285164170
-10.205505 934.57031 1305.0902 4282137413
-6.8036699 934.57031 1305.0902 4282597684
-4.53578 934.57031 1305.0902 4283513668
-2.26789 934.57031 1305.0902 4283579462
6.8036699 934.57031 1305.0902 4283250226
10.205505 934.57031 1305.0902 4283118145
13.60734 934.57031 1305.0902 4283050806
-4.53578 936.30408 1306.5521 4283644221
-2.26789 936.30408 1306.5521 4283578428
11.33945 936.30408 1306.5521 4283445823
13.60734 936.30408 1306.5521 4283577402
15.875229 936.30408 1306.5521 4283248180
18.14312 936.30408 1306.5521 4283245881
-59.58165 758.26904 1309.4771 4292332256
-61.78899 767.19928 1309.1587 4292266965
-61.78899 769.08881 1310.7518 4292201690
-59.097248 773.66138 1308.0671 4292068817
-61.559631 775.54388 1309.6545 4292003546
-61.330276 781.97083 1308.5333 4291937753
-61.330276 783.84631 1310.1147 4292068569
-58.656879 790.23828 1308.9641 4291871442
-61.100918 792.10675 1310.5396 4292002512
-58.656879 792.10675 1310.5396 4291937235
-60.871559 800.32507 1310.9288 4291870663
-58.436699 798.46362 1309.3594 4291015363
-60.596329 808.09314 1309.6306 4291345610
-67.611008 815.30359 1309.17 4291475905
-65.196327 815.30359 1309.17 4291541698
-60.366974 815.30359 1309.17 4291476166
-61.57431 817.14966 1310.7266 4291410373
-57.732109 823.39844 1309.4553 4291212997
-55.115597 829.61926 1308.1604 4291345087
-57.511925 831.45123 1309.7051 4291081149
-55.115597 831.45123 1309.7051 4291278271
-62.066055 839.46198 1309.9193 4290752707
-58.485321 838.54944 1309.1499 4290818239
-57.115597 845.11249 1309.4515 4290490021
-57.115597 846.93188 1310.9856 4290425782
-54.524769 853.05029 1309.6044 4290293945
-51.952293 860.94598 1309.7217 4290095799
-51.750458 867.90039 1309.0453 4289700537
-51.548622 876.61108 1309.8499 4289963706
-51.387157 883.00854 1310.0118 4289766325
-51.185322 889.85425 1309.2438 4289568699
-53.300919 899.32251 1310.687 4290159023
-50.822018 902.97125 1308.5315 4289633960
-50.822018 904.73737 1310.0205 4290950844
-50.620182 910.59479 1308.4192 4292920784
-50.620182 912.35388 1309.9025 4292462550
-48.890518 919.3443 1309.2565 4291938251
-47.972477 925.25903 1309.0115 4291608258
-45.688072 927.00549 1310.484 4291476918
-37.541283 932.7605 1308.7964 4291214532
1.1376147 932.7605 1308.7964 4283315018
4.5504589 932.7605 1308.7964 4283118897
-37.541283 934.49994 1310.2631 4291017151
-34.128441 934.49994 1310.2631 4291082942
-31.85321 934.49994 1310.2631 4290425280
-28.440367 934.49994 1310.2631 4290687169
-25.027523 934.49994 1310.2631 4291146438
-22.752293 934.49994 1310.2631 4290489539
-19.339451 934.49994 1310.2631 4287334567
-15.926605 934.49994 1310.2631 4283126908
-13.651376 934.49994 1310.2631 4281941578
-10.238532 934.49994 1310.2631 4282462776
-6.8256879 934.49994 1310.2631 4283971126
1.1376147 934.49994 1310.2631 4283511620
4.5504589 934.49994 1310.2631 4283512374
6.8256879 934.49994 1310.2631 4283446324
9.1009178 934.49994 1310.2631 4283511872
20.411009 938.0379 1308.014 4283378512
-62.06422 760.16699 1311.0774 4292464347
-64.546791 762.06494 1312.6776 4292332760
-62.06422 762.06494 1312.6776 4292266711
-64.260551 770.97833 1312.3451 4292398292
-61.78899 770.97833 1312.3451 4292134864
-66.732109 772.86786 1313.9382 4292135647
-64.260551 772.86786 1313.9382 4292069339
-66.484406 779.3089 1312.8291 4292265685
-64.022018 778.36768 1312.0354 4291937497
-61.330276 785.7218 1311.6962 4291871696
-61.330276 787.59735 1313.2775 4292332243
-61.100918 793.97522 1312.115 4292001999
-68.433029 795.84375 1313.6904 4291607754
-64.766968 795.84375 1313.6904 4291673031
-61.100918 795.84375 1313.6904 4291738309
-60.871559 802.18652 1312.4984 4291673800
-63.020184 811.79932 1312.7554 4291345093
-60.366974 818.99573 1312.2831 4291081158
-60.366974 820.84174 1313.8396 4291278292
-57.732109 826.15698 1311.7812 4291147966
-59.908257 833.28326 1311.2498 4291279040
-59.908257 835.1153 1312.7944 4290949309
-62.066055 841.28699 1311.4581 4290752959
-59.678898 841.28699 1311.4581 4290752959
-62.066055 843.112 1312.9969 4290688188
-59.678898 843.112 1312.9969 4290688188
-57.115597 848.75128 1312.5198 4290490556
-54.524769 854.86267 1311.1324 4290556348
-54.524769 856.67505 1312.6606 4290818743
-51.952293 862.75134 1311.2439 4290095295
-54.313763 864.5567 1312.7661 4290555066
-51.750458 871.49707 1312.0779 4289897656
-53.891743 880.19373 1312.8706 4290291647
-52.555046 886.58008 1313.0232 4290028472
-53.511925 893.41168 1312.2434 4290160045
-53.511925 895.19043 1313.7432 4290225588
-53.300919 901.97998 1312.9277 4289898675
-53.132111 907.38647 1312.2542 4291605173
-50.620182 914.11292 1311.3856 4292068819
-52.921101 915.87201 1312.8689 4292134101
-50.620182 915.87201 1312.8689 4291938251
-52.710091 923.43243 1312.7035 4292264651
-49.654434 922.2644 1311.7186 4291806149
-45.688072 928.75195 1311.9565 4291412410
-43.403671 928.75195 1311.9565 4291543997
-45.688072 930.49841 1313.4292 4291477692
-43.403671 930.49841 1313.4292 4291674815
-41.119267 930.49841 1313.4292 4291411656
-36.403671 936.23938 1311.7297 4291016635
-2.2752295 936.23938 1311.7297 4283446849
2.2752295 936.23938 1311.7297 4283445823
6.8256879 937.10907 1312.4631 4283380536
10.238532 937.10907 1312.463 4283314489
13.651376 937.10907 1312.4631 4283314484
15.926605 936.23938 1311.7297 4283182907
-64.785324 757.45593 1315.3315 4292530140
-67.277061 759.36084 1316.9377 4292857819
-64.546791 763.96289 1314.278 4292398552
-67.029358 765.86084 1315.8783 4292333794
-64.546791 765.86084 1315.8783 4292464606
-70.439453 774.75739 1315.5315 4292332250
-66.484406 781.19141 1314.4164 4292068296
-64.022018 781.19141 1314.4164 4291871190
-66.484406 783.07397 1316.0037 4292134349
-64.022018 783.07397 1316.0037 4291805647
-66.236694 790.41058 1315.6495 4292199633
-63.783485 790.41058 1315.6495 4291936463
-63.544952 797.71222 1315.2659 4291541698
-68.433029 799.58069 1316.8413 4292002258
-64.766968 799.58069 1316.8413 4291608010
-68.176147 805.90955 1315.6376 4291543245
-64.11805 805.28906 1315.1144 4291345609
-63.020184 816.43188 1316.6616 4291081158
-60.366974 823.61078 1316.1746 4291278286
-61.340366 829.83508 1314.8826 4291278786
-70.691742 838.7793 1315.8839 4291277506
-62.066055 844.93701 1314.5358 4290623428
-59.678898 844.93701 1314.5358 4290754757
-62.066055 846.76196 1316.0745 4291082703
-59.678898 846.76196 1316.0745 4291016910
-57.115597 850.57068 1314.0537 4290096310
-57.115597 852.39001 1315.5879 4290424761
-54.524769 859.39355 1314.9529 4290818226
-54.313763 866.36206 1314.2883 4290358201
-54.313763 868.16742 1315.8105 4290358201
-54.102753 875.09381 1315.1106 4290159554
-53.891743 881.98505 1314.381 4290225336
-53.891743 883.77643 1315.8915 4290356666
-53.722935 889.25861 1315.2817 4290489010
-56.058716 891.04437 1316.7874 4289765287
-53.132111 910.91864 1315.2324 4292725198
-52.921101 917.63104 1314.3521 4292069587
-52.921101 919.39014 1315.8352 4292463311
-52.710091 926.06049 1314.9194 4292068558
-49.272476 926.06049 1314.9194 4291477698
-45.688072 932.24481 1314.9017 4291279805
-43.403671 932.24481 1314.9017 4291279805
-41.119267 932.24481 1314.9017 4291214532
-45.688072 933.99127 1316.3743 4291279807
-43.403671 933.99127 1316.3743 4291279807
-41.119267 933.99127 1316.3743 4291214014
-38.834862 933.99127 1316.3743 4291148221
-34.266056 933.99127 1316.3743 4291214014
-31.981651 933.99127 1316.3743 4290883768
-28.555046 933.99127 1316.3743 4291015610
-25.128441 933.99127 1316.3743 4290752696
-22.844036 933.99127 1316.3743 4288847281
-19.417431 933.99127 1316.3743 4285229174
-15.990826 933.99127 1316.3743 4282663498
-13.706422 933.99127 1316.3743 4282464045
-10.279816 933.99127 1316.3743 4283120189
-6.8532109 933.99127 1316.3743 4283447369
-4.5688071 933.99127 1316.3743 4283578178
0 933.99127 1316.3743 4283380029
4.5688071 933.99127 1316.3743 4283380279
9.1009178 939.71826 1314.663 4283248180
-67.277061 761.26581 1318.5439 4292595681
-67.029358 767.75873 1317.4785 4292464358
-70.753212 769.65668 1319.0789 4292200923
-70.439453 776.64697 1317.1246 4292068820
-70.439453 778.5365 1318.7179 4291936717
-66.484406 784.95642 1317.5909 4292265685
-64.022018 784.95642 1317.5909 4292134864
-71.409172 786.83899 1319.1782 4292002512
-68.946793 786.83899 1319.1782 4291936204
-67.463303 795.0993 1319.603 4291476432
-68.433029 801.44922 1318.4169 4291609040
-65.988991 801.44922 1318.4169 4291477198
-70.611008 808.70172 1317.9918 4291673543
-68.176147 807.771 1317.207 4291411143
-65.741287 807.771 1317.207 4291213764
-63.020184 818.28497 1318.224 4291080656
-63.020184 820.13806 1319.7865 4290489539
-62.781651 826.37988 1318.5093 4291080897
-62.543118 832.59357 1317.2084 4290949309
-67.354126 834.43262 1318.759 4291080897
-64.948624 834.43262 1318.759 4290949311
-71.889908 840.61133 1317.4286 4291081156
-64.70092 840.61133 1317.4286 4290753213
-59.678898 848.58698 1317.6133 4290753227
-62.066055 850.41199 1319.1521 4290686403
-59.678898 850.41199 1319.1521 4291212747
-57.115597 854.20941 1317.1219 4290687156
-57.115597 856.02881 1318.656 4290555051
-56.895412 863.01837 1318.0092 4290160822
-54.313763 869.97278 1317.3328 4290291906
-56.675228 871.77814 1318.8551 4290225350
-56.234863 887.35907 1318.9122 4289765287
-56.058716 892.83008 1318.2931 4289765037
-56.058716 894.61578 1319.7987 4289501350
-55.618347 909.95264 1319.6501 4292396753
-55.442204 915.33386 1318.9552 4292135636
-58.673393 922.90826 1318.8016 4292067270
-55.222019 922.02869 1318.0601 4291673286
-52.710091 928.6886 1317.1354 4292002760
-49.272476 928.6886 1317.1354 4291609020
-55.001835 930.44067 1318.6127 4290949309
-52.710091 930.44067 1318.6127 4291804618
-49.272476 930.44067 1318.6127 4291280057
-45.688072 935.73773 1317.8468 4290950590
-43.403671 935.73773 1317.8468 4290687418
-41.119267 935.73773 1317.8468 4290817207
-37.692657 935.73773 1317.8468 4290751672
-34.266056 935.73773 1317.8468 4290554551
-31.981651 935.73773 1317.8468 4291013317
-29.697248 935.73773 1317.8468 4290816194
-6.8532109 935.73773 1317.8468 4283579208
-4.5688071 935.73773 1317.8468 4283448125
-2.2844036 935.73773 1317.8468 4283513918
1.1422018 935.73773 1317.8468 4283445823
4.5688071 935.73773 1317.8468 4283446329
-45.688072 937.48413 1319.3193 4290949568
-43.403671 937.48413 1319.3193 4290686652
-41.119267 937.48413 1319.3193 4290817468
-37.692657 937.48413 1319.3193 4290751681
-34.266056 937.48413 1319.3193 4290686151
-31.981651 937.48413 1319.3193 4290555083
-2.2844036 937.48413 1319.3193 4283446329
2.2844036 937.48413 1319.3193 4283182907
4.5688071 937.48413 1319.3193 4283313973
6.8532109 937.48413 1319.3193 4283248180
-69.768806 765.07574 1321.7565 4292201187
-70.439453 781.37073 1321.1077 4291937232
-71.409172 788.7215 1320.7655 4292069589
-68.946793 788.7215 1320.7655 4292002510
-71.409172 790.604 1322.3528 4291806666
-70.611008 811.4939 1320.3462 4291739343
-68.176147 811.4939 1320.3462 4291805120
-65.741287 811.4939 1320.3462 4291870913
-70.611008 813.35541 1321.9156 4291475916
-68.176147 813.35541 1321.9156 4291476166
-65.741287 813.35541 1321.9156 4291541959
-63.020184 821.99109 1321.3489 4291080395
-65.444038 823.84412 1322.9114 4291147717
-65.196327 830.07196 1321.6223 4290883516
-67.354126 836.27161 1320.3097 4291016133
-64.948624 836.27161 1320.3097 4290818754
-69.759636 838.11066 1321.8602 4291147205
-67.354126 838.11066 1321.8602 4290884799
-62.304588 846.10736 1322.0627 4290555848
-62.066055 852.237 1320.6909 4290620094
-59.678898 853.14954 1321.4603 4290620350
-57.115597 857.84821 1320.1901 4290357421
-59.495415 859.6676 1321.7241 4290225850
-61.636696 865.73688 1320.3014 4290226867
-59.266056 865.73688 1320.3014 4289897902
-56.895412 865.73688 1320.3014 4290029492
-59.266056 867.54926 1321.8295 4290030001
-56.895412 867.54926 1321.8295 4290094784
-56.675228 874.48621 1321.1384 4289765305
-56.455048 883.1864 1321.934 4290028205
-58.57798 890.94177 1321.9331 4289962666
-56.058716 896.40149 1321.3044 4289240238
-56.058716 898.18726 1322.8101 4288978337
-55.838531 904.97327 1321.9918 4291736240
-55.618347 911.72437 1321.1439 4292528858
-55.442204 917.09991 1320.4443 4292200396
-60.062386 918.86603 1321.9335 4291738561
-57.752293 918.86603 1321.9335 4291870148
-64.42569 926.42639 1321.7681 4291674302
-62.124771 925.54688 1321.0265 4292069061
-58.673393 925.54688 1321.0265 4291805380
-55.222019 925.54688 1321.0265 4291476673
-55.001835 932.19275 1320.09 4290290891
-52.710091 932.19275 1320.09 4291804386
-49.272476 932.19275 1320.09 4291345850
-58.439449 933.94476 1321.5673 4288120703
-55.001835 933.94476 1321.5673 4288514704
-52.710091 933.94476 1321.5673 4291606719
-49.272476 933.94476 1321.5673 4291147706
-27.500917 933.94476 1321.5673 4289175478
-25.209175 933.94476 1321.5673 4286214793
-22.917431 933.94476 1321.5673 4283388763
-19.479816 933.94476 1321.5673 4282201410
-16.042202 933.94476 1321.5673 4283119690
-13.750459 933.94476 1321.5673 4283578680
-10.312843 933.94476 1321.5673 4283644737
-46.449543 940.39484 1321.7738 4290948793
-43.403671 940.10382 1321.5283 4291014843
-41.119267 940.10382 1321.5283 4290621118
-37.692657 940.10382 1321.5283 4290358208
2.2844036 939.23059 1320.792 4283247928
-70.025688 760.48071 1324.4222 4291939036
-65.741287 815.21686 1323.4852 4291411145
-65.741287 817.07837 1325.0548 4291214280
-65.444038 825.6972 1324.4739 4291213510
-67.354126 839.94971 1323.4109 4290556609
-64.948624 839.94971 1323.4109 4290622658
-67.354126 841.78876 1324.9615 4290950590
-64.948624 841.78876 1324.9615 4291147969
-64.70092 847.93939 1323.6074 4290620096
-64.70092 849.77142 1325.1521 4290750912
-66.84037 857.71198 1325.3073 4290554560
-64.453209 857.71198 1325.3073 4290686403
-62.066055 856.79944 1324.5378 4290423485
-59.678898 855.88696 1323.7686 4290225850
-66.634865 863.3064 1324.7922 4290292158
-64.255043 862.39673 1324.0251 4290226107
-61.875229 861.487 1323.2582 4290422713
-59.495415 861.487 1323.2582 4290225590
-59.266056 869.36163 1323.3577 4290423467
-59.266056 871.17401 1324.8859 4290291115
-56.675228 878.09692 1324.1829 4289962164
-58.57798 892.73303 1323.4435 4289697695
-56.058716 899.97296 1324.3158 4289698724
