# .PCD v0.7 - Point Cloud Data file format
VERSION 0.7
FIELDS x y z rgb
SIZE 4 4 4 4
TYPE F F F U
COUNT 1 1 1 1
WIDTH 1158
HEIGHT 1
VIEWPOINT 0 0 0 1 0 0 0
POINTS 1158
DATA ascii
-15.823853 891.44653 1263.4973 4287988371
-13.563303 892.31067 1264.2258 4287858062
-10.172478 892.31067 1264.2258 4287660686
-20.262384 899.05469 1263.3721 4287397766
-10.131193 899.05469 1263.3721 4287331724
-24.765137 900.77588 1264.8234 4287593866
-18.011009 900.77588 1264.8234 4287134096
-13.508257 900.77588 1264.8234 4287594393
-10.131193 900.77588 1264.8234 4287397266
-6.7541285 900.77588 1264.8234 4287529104
-22.440367 907.85577 1265.5609 4287070086
-20.196331 906.99799 1264.8376 4287135366
-17.204281 906.7121 1264.5966 4287265925
-13.46422 906.99799 1264.8376 4287133572
-11.220183 906.99799 1264.8376 4287331207
-8.2281342 907.28394 1265.0787 4287135626
-20.113762 913.66833 1263.9218 4287067519
-16.761467 913.66833 1263.9218 4287592835
-13.409174 913.66833 1263.9218 4287396752
-11.174312 913.66833 1263.9218 4287264910
-7.8220181 913.66833 1263.9218 4287199108
-22.348623 915.37695 1265.3623 4286870656
-20.113762 915.37695 1265.3623 4287397000
-16.761467 915.37695 1265.3623 4287395969
-13.409174 915.37695 1265.3623 4287264649
-11.174312 915.37695 1265.3623 4287264649
-8.9394493 915.37695 1265.3623 4287199108
-20.047707 920.68237 1264.6036 4287132811
-16.335169 920.11475 1264.125 4287264397
-13.365138 919.83087 1263.8857 4287002237
-11.137614 919.83087 1263.8857 4287265410
-8.9100914 920.68237 1264.6036 4287134850
-13.321101 925.96539 1263.826 4286936188
-11.100918 925.96539 1263.826 4287528068
-13.321101 927.66272 1265.2572 4287068542
-11.100918 927.66272 1265.2572 4286936955
-43.629356 758.06067 1267.4445 4291016650
-4.8477063 757.13409 1266.6632 4289172898
-2.4238532 758.98718 1268.2257 4289106855
-48.293579 767.30652 1268.7001 4291411153
-45.878899 766.38348 1267.9219 4291542738
-43.464222 765.46045 1267.1436 4290950842
-2.4146788 766.38348 1267.9219 4288649620
-48.110092 773.74469 1267.5885 4291411145
-45.704586 772.8252 1266.8132 4291279819
-43.299084 772.8252 1266.8132 4290622138
-40.893578 772.8252 1266.8132 4290095538
-4.8110094 772.8252 1266.8132 4286673285
-2.4055047 772.8252 1266.8132 4288910248
-40.737614 781.07086 1267.2256 4289898185
-38.341286 781.07086 1267.2256 4289569462
-34.746788 781.07086 1267.2256 4289766588
-4.7926607 781.07086 1267.2256 4288250781
-2.3963304 781.07086 1267.2256 4289763763
-31.033028 788.36194 1266.8331 4289568687
-2.387156 788.36194 1266.8331 4289502642
-33.420185 790.18695 1268.3719 4289238954
-2.387156 790.18695 1268.3719 4289241001
-30.937614 794.16956 1266.4978 4289437103
-28.557798 794.16956 1266.4978 4289305261
-30.937614 795.98895 1268.0319 4289306031
-2.3798165 795.98895 1268.0319 4289436840
-30.818348 802.30371 1266.8162 4289173930
-28.447706 802.30371 1266.8162 4289173663
-34.374313 804.11609 1268.3444 4289371064
-30.818348 804.11609 1268.3444 4289042858
-4.7412844 804.11609 1268.3444 4288908708
-34.241287 811.29846 1267.8602 4289239219
-7.0844035 810.39581 1267.0991 4289040799
-4.7229357 812.20117 1268.6213 4289040810
-32.93211 818.44586 1267.3464 4289173159
-2.3522935 818.44586 1267.3464 4292197323
-39.988991 820.2442 1268.8628 4289305531
-37.636696 820.2442 1268.8628 4288976541
-35.284405 820.2442 1268.8628 4289173663
-32.93211 820.2442 1268.8628 4289107616
-2.3522935 820.2442 1268.8628 4291804102
-32.803669 824.66235 1266.048 4288910503
-2.3431194 824.66235 1266.048 4291476164
-39.833027 826.45374 1267.5583 4288977334
-37.48991 826.45374 1267.5583 4288779950
-35.14679 826.45374 1267.5583 4288845743
-2.3431194 826.45374 1267.5583 4291540928
-37.372478 833.90118 1268.6057 4289106601
-35.036697 833.0083 1267.8529 4289041324
-31.533028 833.00836 1267.8529 4288646561
-28.029358 833.0083 1267.8529 4288712601
-7.0073395 832.11548 1267.1001 4288843415
-4.6715598 833.0083 1267.8529 4288583333
-2.3357799 833.0083 1267.8529 4287596438
-30.245872 840.93976 1268.0004 4288646805
-27.919266 840.93976 1268.0004 4288513948
-25.592661 840.93976 1268.0004 4288513948
-23.266054 840.05042 1267.2505 4288448409
-6.9798164 840.05042 1267.2505 4289107118
-4.6532111 840.93976 1268.0004 4288779432
-25.491743 847.9433 1267.3655 4288777120
-4.6348624 847.9433 1267.3655 4288319903
-27.809174 849.71497 1268.8593 4288316306
-25.491743 849.71497 1268.8593 4288382099
-4.6348624 849.71497 1268.8593 4288581794
-25.411009 853.52087 1266.8362 4288316571
-27.721102 855.28699 1268.3253 4288186012
-25.411009 855.28699 1268.3253 4288054683
-4.6201835 855.28699 1268.3253 4288252832
-28.377981 862.51349 1267.8784 4288253075
-25.310091 862.22034 1267.6311 4288055700
-23.009174 861.34082 1266.8895 4288055700
-20.708258 861.34082 1266.8895 4288055700
-4.6018348 861.34082 1266.8895 4288381851
-27.500917 869.11865 1266.9075 4287793809
-25.209175 869.11865 1266.9075 4287793809
-22.917431 869.11865 1266.9075 4287858317
-20.625689 869.11865 1266.9075 4287463559
-2.291743 869.11865 1266.9075 4289369761
-28.64679 870.87073 1268.3848 4287530896
-25.209175 870.87073 1268.3848 4287597198
-22.917431 870.87073 1268.3848 4287793805
-2.291743 870.87073 1268.3848 4288975255
-25.128441 874.61212 1266.3073 4287596683
-22.844036 874.61212 1266.3073 4287596683
-20.559633 874.61212 1266.3073 4287596683
-6.8532109 874.61212 1266.3073 4287726483
-4.5688071 874.61212 1266.3073 4287856770
-2.2844036 874.61212 1266.3073 4288843665
-4.5688071 876.35852 1267.7799 4287134335
-2.2844036 876.35852 1267.7799 4288318352
-31.85321 884.0564 1267.7305 4287726236
-28.440367 883.18671 1266.9971 4287660185
-25.027523 882.31696 1266.2638 4287857817
-22.752293 882.31696 1266.2638 4287596431
-6.8256879 883.18665 1266.9971 4287793054
-4.5504589 883.18665 1266.9971 4287726734
-2.2752295 882.31696 1266.2638 4288055698
-28.348625 889.49091 1267.0804 4287594387
-24.946789 889.49091 1267.0804 4287462296
-22.6789 889.49091 1267.0804 4287659159
-20.411009 889.49091 1267.0804 4287856538
-6.8036699 889.49091 1267.0804 4287594645
-4.53578 889.49091 1267.0804 4287397518
-31.750458 891.22473 1268.5424 4288054417
-28.348625 891.22473 1268.5424 4287856530
-6.8036699 891.22473 1268.5424 4287529356
-4.53578 891.22473 1268.5424 4287593854
-31.647707 896.63116 1267.8689 4287528072
-28.256882 895.76709 1267.1403 4287593867
-24.866055 895.76709 1267.1403 4287593614
-22.605505 895.76709 1267.1403 4287462789
-18.837921 895.479 1266.8973 4287331207
-15.823853 896.63116 1267.8689 4287463307
-13.563303 896.63116 1267.8689 4287528852
-9.042202 894.90295 1266.4116 4287529352
-6.7816515 896.63116 1267.8689 4287595147
-4.521101 896.63116 1267.8689 4287529341
-24.765137 902.49707 1266.2747 4287201675
-22.513762 902.49707 1266.2747 4287528841
-20.262384 902.49707 1266.2747 4287528841
-6.7541285 902.49707 1266.2747 4287463048
-24.765137 904.21826 1267.7258 4287003791
-22.513762 904.21826 1267.7258 4287266438
-6.7541285 904.21826 1267.7258 4287397766
-4.5027523 904.21826 1267.7258 4287004053
-24.684404 910.42914 1267.7307 4287069834
-22.440367 910.42914 1267.7307 4286871429
-20.196331 909.57135 1267.0074 4286806412
-17.952293 909.57135 1267.0074 4287330694
-13.46422 909.57135 1267.0074 4287462296
-11.220183 909.57135 1267.0074 4287396503
-6.73211 909.57135 1267.0074 4287134346
-25.700916 917.08551 1266.803 4287004295
-22.348623 917.08551 1266.803 4286870395
-20.113762 917.08551 1266.803 4287199360
-17.878899 917.08551 1266.803 4287330442
-8.9394493 917.08551 1266.803 4287134596
-29.053211 918.79407 1268.2437 4287004293
-25.700916 918.79407 1268.2437 4287265412
-22.348623 918.79407 1268.2437 4287132811
-6.704587 918.79407 1268.2437 4287134850
-20.047707 922.38531 1266.0396 4287395458
-16.706421 922.38531 1266.0396 4287067272
-13.365138 922.38531 1266.0396 4286542194
-7.7963305 922.38531 1266.0396 4286543742
-25.24526 925.22357 1268.4326 4286739847
-22.275229 924.9397 1268.1934 4287068035
-20.047707 924.9397 1268.1934 4287133827
-16.706421 924.9397 1268.1934 4286936708
-7.7963305 924.9397 1268.1934 4286805374
-4.4550457 924.08826 1267.4755 4286869893
-13.321101 929.36011 1266.6884 4286937215
-11.100918 929.36011 1266.6884 4286740092
-13.321101 931.05743 1268.1195 4286675329
-11.100918 931.05743 1268.1195 4286675329
-2.4348624 753.78827 1271.6902 4288909469
-46.053211 760.84021 1269.7881 4291542995
-48.477066 762.6933 1271.3506 4291608786
-53.122936 770.9986 1271.8132 4291542491
-49.903362 769.76788 1270.7755 4291476948
-52.921101 775.58368 1269.1392 4291673831
-49.312843 775.58368 1269.1392 4291410642
-45.704586 775.58368 1269.1392 4291608004
-43.299084 775.58368 1269.1392 4290687695
-40.893578 775.58368 1269.1392 4290227144
-38.488075 775.58368 1269.1392 4289700539
-2.4055047 775.58368 1269.1392 4289303214
-57.732109 777.42273 1270.6898 4291148489
-55.326607 777.42273 1270.6898 4291477198
-52.921101 777.42273 1270.6898 4291542491
-49.312843 777.42273 1270.6898 4291345104
-45.704586 777.42273 1270.6898 4291476938
-43.299084 777.42273 1270.6898 4290621650
-46.329052 785.04022 1270.5724 4290622147
-43.133945 784.73486 1270.3149 4290095561
-40.737614 784.73486 1270.3149 4289832389
-38.341286 784.73486 1270.3149 4289634744
-34.746788 784.73486 1270.3149 4289634741
-2.3963304 783.81885 1269.5426 4289960615
-45.355965 793.83698 1271.4495 4290622406
-42.968807 793.83698 1271.4495 4290095547
-40.58165 793.83698 1271.4495 4289503409
-34.613762 792.92444 1270.6802 4289437106
-2.387156 792.01196 1269.9108 4289502894
-33.317432 797.80835 1269.5659 4289437101
-30.937614 797.80835 1269.5659 4289305515
-2.3798165 797.80835 1269.5659 4289633197
-42.836697 799.62775 1271.1001 4289963956
-40.456882 799.62775 1271.1001 4289240490
-38.077065 799.62775 1271.1001 4289041841
-34.507339 799.62775 1271.1001 4289305264
-2.3798165 799.62775 1271.1001 4289567143
-45.042202 805.92847 1269.8724 4290752196
-42.671558 805.92847 1269.8724 4290095535
-40.300919 805.92847 1269.8724 4289305763
-37.930275 805.92847 1269.8724 4288910253
-35.559631 805.92847 1269.8724 4289305011
-4.7412844 805.92847 1269.8724 4288974753
-46.227524 807.74084 1271.4006 4290817989
-42.671558 807.74084 1271.4006 4289963947
-40.300919 807.74084 1271.4006 4289108638
-37.930275 807.74084 1271.4006 4288910005
-4.7412844 807.74084 1271.4006 4289040549
-43.687157 815.81189 1271.6658 4290029252
-40.144955 814.90918 1270.9047 4289371579
-37.783485 814.90918 1270.9047 4288778913
-34.634861 814.60834 1270.651 4289041829
-4.7229357 814.00653 1270.1436 4289040043
-2.3614678 814.00653 1270.1436 4290619074
-42.341286 823.84088 1271.8954 4290095558
-39.988991 822.04254 1270.3792 4289370556
-37.636696 822.04254 1270.3792 4289042345
-35.284405 822.04254 1270.3792 4289173932
-42.176147 830.03638 1270.5792 4289766582
-39.833027 829.14069 1269.824 4289174450
-37.48991 829.14069 1269.824 4288779437
-35.14679 828.245 1269.0688 4288779948
-2.3431194 828.245 1269.0688 4290487213
-37.372478 835.68689 1270.1115 4288712095
-35.036697 835.68689 1270.1115 4288778144
-32.700916 835.68689 1270.1115 4288778390
-2.3357799 835.68689 1270.1115 4285820033
-42.044037 837.47266 1271.6172 4289897913
-39.708256 837.47266 1271.6172 4288976811
-37.372478 837.47266 1271.6172 4288646293
-35.036697 837.47266 1271.6172 4289106844
-32.700916 837.47266 1271.6172 4289041310
-2.3357799 837.47266 1271.6172 4286214278
-34.899082 845.38654 1271.7498 4288645287
-31.021408 844.79364 1271.2499 4288514204
-27.919266 844.49719 1270.9999 4288448156
-25.592661 843.60779 1270.25 4288777122
-4.6532111 843.60779 1270.25 4288647587
-2.3266056 844.49719 1270.9999 4286345344
-31.285322 851.48669 1270.3531 4288251294
-27.809174 851.48669 1270.3531 4288316571
-4.6348624 851.48669 1270.3531 4288450206
-34.761467 853.25836 1271.8469 4287793325
-31.285322 853.25836 1271.8469 4288382879
-2.3174312 853.25836 1271.8469 4287265936
-30.031193 857.0531 1269.8145 4288251294
-4.6201835 857.0531 1269.8145 4288251294
-31.186239 858.81915 1271.3035 4288055185
-34.51376 865.73846 1270.5975 4287989156
-32.212845 865.73846 1270.5975 4288054929
-29.911926 865.73846 1270.5975 4288055186
-2.3009174 864.85895 1269.856 4289436070
-32.084404 872.6228 1269.8621 4287530387
-28.64679 872.6228 1269.8621 4287596432
-68.752296 874.37482 1271.3394 4289897402
-32.084404 874.37482 1271.3394 4287858069
-28.64679 874.37482 1271.3394 4287727505
-25.209175 874.37482 1271.3394 4287662478
-75.385323 878.10498 1269.2524 4290226615
-73.100914 878.10498 1269.2524 4289831848
-28.555046 878.10498 1269.2524 4287660692
-25.128441 878.10498 1269.2524 4288055448
-2.2844036 878.10498 1269.2524 4288253334
-31.981651 879.85144 1270.725 4287726487
-34.128441 887.53528 1270.6637 4287529884
-31.85321 886.66553 1269.9304 4287660690
-4.5504589 885.79584 1269.197 4287265932
-2.2752295 886.66553 1269.9304 4287726483
-34.018349 892.95856 1270.0043 4287857817
-31.750458 892.95856 1270.0043 4288054153
-6.8036699 892.95856 1270.0043 4287529352
-4.53578 892.95856 1270.0043 4287397754
-2.26789 892.95856 1270.0043 4287463547
-34.018349 894.69238 1271.4662 4287528339
-2.26789 894.69238 1271.4662 4287397754
-31.647707 898.35938 1269.326 4287593866
-28.256882 898.35938 1269.326 4287593866
-22.605505 898.35938 1269.326 4287659911
-20.344954 898.35938 1269.326 4287725704
-4.521101 898.35938 1269.326 4287266434
-31.647707 900.08759 1270.7832 4287595147
-28.256882 900.08759 1270.7832 4287398283
-4.521101 900.08759 1270.7832 4287002756
-27.016514 905.93945 1269.1771 4286938250
-24.765137 905.93945 1269.1771 4287004043
-4.5027523 905.93945 1269.1771 4286873235
-27.016514 907.66064 1270.6284 4287069836
-4.5027523 907.66064 1270.6284 4286806930
-31.416513 914.71814 1271.347 4287135882
-29.172478 914.71814 1271.347 4287135882
-25.806423 913.00256 1269.9005 4287134596
-6.73211 913.86035 1270.6238 4287199620
-33.522934 920.50262 1269.6842 4286806660
-31.288073 920.50262 1269.6842 4287068805
-29.053211 920.50262 1269.6842 4287134598
-25.700916 920.50262 1269.6842 4287264386
-22.348623 920.50262 1269.6842 4287461251
-4.4697247 920.50262 1269.6842 4286870910
-34.640366 922.21118 1271.1249 4287134346
-31.288073 922.21118 1271.1249 4286806408
-29.053211 922.21118 1271.1249 4286872201
-26.818348 922.21118 1271.1249 4286870406
-33.412846 929.19714 1271.7831 4291606719
-31.185322 929.19714 1271.7831 4290357940
-28.957798 928.3457 1271.0652 4287068297
-25.616514 928.34564 1271.0652 4286739841
-22.275229 928.3457 1271.0652 4286806147
-20.047707 928.3457 1271.0652 4286740353
-16.706421 928.3457 1271.0652 4286806916
-7.7963305 928.3457 1271.0652 4287067003
-11.100918 932.75476 1269.5507 4287003008
-48.697247 755.64972 1273.2598 4291805910
-46.262386 755.64972 1273.2598 4291477202
-51.132111 757.51123 1274.8293 4291739854
-48.697247 757.51123 1274.8293 4291608788
-53.324772 764.54633 1272.913 4291609040
-50.900917 764.54633 1272.913 4291674833
-55.748623 766.39941 1274.4755 4291674833
-53.324772 766.39941 1274.4755 4291608786
-57.952293 772.8446 1273.3698 4291476696
-55.537613 772.8446 1273.3698 4291608538
0 772.8446 1273.3698 4289567374
-61.57431 774.69067 1274.9263 4291675083
0 774.69067 1274.9263 4289698976
-61.340366 779.26178 1272.2404 4291411911
-57.732109 779.26178 1272.2404 4291016387
-55.326607 779.26178 1272.2404 4291674061
-52.921101 779.26178 1272.2404 4291543247
-49.312843 779.26178 1272.2404 4291279820
-45.704586 779.26178 1272.2404 4291148235
-43.299084 779.26178 1272.2404 4290424530
0 779.26178 1272.2404 4289830564
-61.340366 781.10083 1273.791 4291543245
-57.732109 781.10083 1273.791 4291082696
-55.326607 781.10083 1273.791 4291411404
-52.921101 781.10083 1273.791 4291608790
-49.312843 781.10083 1273.791 4291082700
0 781.10083 1273.791 4289699492
-52.719265 787.48291 1272.6321 4291017684
-50.322937 787.48291 1272.6321 4290951635
-46.728439 787.48291 1272.6321 4290490818
-43.133945 787.48291 1272.6321 4289897148
-40.737614 787.48291 1272.6321 4289502646
-38.341286 787.48291 1272.6321 4289568437
-35.944954 787.48291 1272.6321 4289634231
0 787.48291 1272.6321 4289633951
-55.115597 789.31494 1274.1768 4291147215
-52.719265 789.31494 1274.1768 4290819788
-50.322937 789.31494 1274.1768 4290753994
-46.728439 789.31494 1274.1768 4290424510
-43.133945 789.31494 1274.1768 4289766332
-40.737614 789.31494 1274.1768 4289437110
-38.341286 789.31494 1274.1768 4289503155
0 789.31494 1274.1768 4289568156
-46.151684 796.8786 1274.0142 4290556614
-42.968807 795.66199 1272.9883 4290029488
-40.58165 795.66199 1272.9883 4289568937
-38.194496 795.66199 1272.9883 4289436349
-35.807339 795.66199 1272.9883 4289436349
-49.976147 803.26648 1274.1682 4291014600
-46.803059 802.05353 1273.1455 4290489791
-42.836697 801.44714 1272.6342 4290160308
-40.456882 801.44714 1272.6342 4289436586
-38.077065 801.44714 1272.6342 4289107133
-2.3798165 802.35681 1273.4011 4289698222
-46.227524 809.55322 1272.9287 4290686402
-42.671558 809.55322 1272.9287 4290029500
-40.300919 809.55322 1272.9287 4289108398
-37.930275 809.55322 1272.9287 4288712612
-2.3706422 809.55322 1272.9287 4289435568
-46.227524 811.3656 1274.4569 4290554816
-42.671558 811.3656 1274.4569 4290161090
-47.229359 817.61731 1273.188 4290423744
-43.687157 817.61731 1273.188 4290226371
-47.229359 819.42261 1274.7102 4290357953
-43.687157 819.42261 1274.7102 4290357702
0 819.42261 1274.7102 4292002262
-47.045872 827.43756 1274.9281 4290162096
-43.517433 826.53839 1274.1699 4290095801
0 826.53839 1274.1699 4288516030
-51.548622 833.61902 1273.6 4290358203
-49.205505 833.61902 1273.6 4290358203
-46.862385 833.61902 1273.6 4290161844
-42.957184 833.02191 1273.0966 4289635254
-39.833027 832.72339 1272.8447 4288779950
-51.387157 839.25836 1273.1228 4290554812
-49.051376 839.25836 1273.1228 4290620605
-46.715595 839.25836 1273.1228 4289963958
-43.211929 839.25836 1273.1228 4290029237
-39.708256 839.25836 1273.1228 4289107620
-37.372478 839.25836 1273.1228 4288645789
-35.036697 839.25836 1273.1228 4289237669
-32.700916 839.25836 1273.1228 4288975253
-2.3357799 839.25836 1273.1228 4286739590
-51.387157 841.04407 1274.6284 4290094265
-49.051376 841.04407 1274.6284 4290094265
-46.715595 841.04407 1274.6284 4289831607
-43.211929 841.04407 1274.6284 4289897393
-39.708256 841.04407 1274.6284 4288844699
-37.372478 841.04407 1274.6284 4288579225
-35.036697 841.04407 1274.6284 4288842654
-32.700916 841.04407 1274.6284 4288645789
-48.858715 848.94397 1274.7493 4289962693
-46.532108 848.94397 1274.7493 4289963193
-44.205505 848.94397 1274.7493 4290028986
-40.715595 848.94397 1274.7493 4289239720
-37.225689 848.05457 1273.9994 4288513966
-34.899082 848.05457 1273.9994 4288382380
-31.409174 847.16522 1273.2495 4288251294
-2.3266056 848.05457 1273.9994 4287397519
-39.396332 856.80176 1274.8347 4289043877
-37.078899 855.91589 1274.0878 4287925162
-34.761467 855.91589 1274.0878 4287728038
-32.444038 855.03009 1273.3408 4288251294
-2.3174312 855.91589 1274.0878 4288448158
-34.651375 860.58521 1272.7926 4287727780
-32.341286 860.58521 1272.7926 4287989894
-2.3100917 860.58521 1272.7926 4289566893
-39.271561 862.35132 1274.2817 4288122775
-36.961468 862.35132 1274.2817 4288317351
-39.115597 868.37708 1272.8224 4288384931
-36.814678 868.37708 1272.8224 4287924895
-34.51376 868.37708 1272.8224 4287595931
-32.212845 868.37708 1272.8224 4287332752
-75.930275 870.13611 1274.3055 4289897913
-70.177979 870.13611 1274.3055 4289831606
-39.115597 870.13611 1274.3055 4288515747
-36.814678 870.13611 1274.3055 4287529884
-34.51376 870.13611 1274.3055 4287529884
0 870.13611 1274.3055 4289896103
-75.627525 877.87897 1274.2939 4289766584
-71.044037 877.00293 1273.5553 4289963181
-68.752296 877.00293 1273.5553 4289831871
-41.251377 877.87897 1274.2939 4288582574
-37.813759 877.87897 1274.2939 4287792288
-34.376148 877.00293 1273.5553 4287660443
-32.084404 876.12689 1272.8167 4287726487
0 877.87897 1274.2939 4289435304
-75.385323 881.5979 1272.1975 4289897148
-73.100914 881.5979 1272.1975 4289831607
-36.550457 881.5979 1272.1975 4287529636
-34.266056 881.5979 1272.1975 4287529636
-2.2844036 881.5979 1272.1975 4288055700
-73.100914 883.34436 1273.67 4289963447
-36.550457 883.34436 1273.67 4287464092
-34.266056 883.34436 1273.67 4287398299
-36.403671 889.27466 1272.1304 4287923610
-34.128441 889.27466 1272.1304 4287923610
-2.2752295 889.27466 1272.1304 4287725441
-40.954128 891.01416 1273.5969 4288187038
-37.541283 891.01416 1273.5969 4287792024
-37.420181 896.42621 1272.9281 4287529620
-34.018349 896.42621 1272.9281 4287200921
-2.26789 896.42621 1272.9281 4287200641
-37.420181 898.16003 1274.39 4287266447
-34.018349 898.16003 1274.39 4287398549
-2.26789 898.16003 1274.39 4287200391
-31.647707 901.8158 1272.2404 4287529606
-28.256882 901.8158 1272.2404 4287266698
-2.2605505 901.8158 1272.2404 4287004053
-31.647707 903.54401 1273.6975 4287332756
-29.387156 903.54401 1273.6975 4287201427
-2.2605505 903.54401 1273.6975 4286741648
-36.022018 911.10303 1273.531 4287134346
-33.770641 911.10303 1273.531 4287265932
-31.519266 910.24243 1272.8054 4287201423
-28.517431 909.95557 1272.5635 4287135628
-4.5027523 910.24243 1272.8054 4286937232
-37.147705 912.82422 1274.9822 4287463560
-33.770641 912.82422 1274.9822 4287463311
-4.5027523 912.82422 1274.9822 4287134598
-38.148624 916.43372 1272.7936 4287266436
-34.78257 916.43372 1272.7936 4287135634
-31.416513 916.43372 1272.7936 4287070086
-4.4880733 916.43372 1272.7936 4287002499
-38.148624 918.14929 1274.2401 4287002999
-35.904587 918.14929 1274.2401 4286675331
-37.992661 923.9198 1272.5654 4290751916
-34.640366 923.9198 1272.5654 4289369757
-31.288073 923.9198 1272.5654 4286938250
-29.053211 923.9198 1272.5654 4286675079
-4.4697247 923.9198 1272.5654 4286673014
-42.462387 925.62836 1274.0061 4291277747
-40.227524 925.62836 1274.0061 4291408815
-37.992661 925.62836 1274.0061 4291540401
-34.640366 925.62836 1274.0061 4290159763
-31.288073 925.62836 1274.0061 4287726233
-4.4697247 925.62836 1274.0061 4286870395
-2.2348623 925.62836 1274.0061 4286936188
-37.867889 931.75159 1273.937 4291870409
-34.155354 931.46777 1273.6976 4291608258
-28.957798 931.75159 1273.937 4290028195
-25.616514 931.75159 1273.937 4287922835
-22.275229 931.75159 1273.937 4286476153
-20.047707 930.90015 1273.219 4286476934
-16.706421 931.75159 1273.937 4286608007
-13.365138 931.75159 1273.937 4286936702
-11.137614 932.60303 1274.6549 4286870397
-7.7963305 931.75159 1273.9369 4286738300
-58.436699 761.23413 1277.9684 4291806164
-56.001835 760.30341 1277.1836 4291608787
-52.349541 759.37268 1276.3989 4291609040
-60.596329 770.10547 1277.6003 4291938255
-58.172478 768.25244 1276.038 4291411155
-55.748623 768.25244 1276.038 4291542741
1.2119266 769.17896 1276.8191 4289633175
-67.611008 776.53674 1276.4828 4291872209
-65.196327 776.53674 1276.4828 4291806160
2.4146788 776.53674 1276.4828 4289567393
-64.948624 782.93982 1275.3417 4291477198
-61.340366 782.93982 1275.3417 4291543245
-57.732109 782.93982 1275.3417 4291345361
-55.326607 782.93982 1275.3417 4291411155
-52.921101 782.93982 1275.3417 4291543258
-50.515594 782.93982 1275.3417 4291543258
1.2027524 782.93982 1275.3417 4289633951
-69.759636 784.77881 1276.8922 4291543497
-67.354126 784.77881 1276.8922 4291674059
-64.948624 784.77881 1276.8922 4291674059
-61.340366 784.77881 1276.8922 4291147721
-57.732109 784.77881 1276.8922 4291345361
-55.326607 784.77881 1276.8922 4291214032
2.4055047 784.77881 1276.8922 4289633951
-57.511925 791.14691 1275.7214 4291080908
-55.115597 791.14691 1275.7214 4291212495
-52.719265 791.14691 1275.7214 4290819786
-50.322937 791.14691 1275.7214 4290753992
-47.926605 791.14691 1275.7214 4290622406
-38.341286 791.14691 1275.7214 4289503159
1.1981652 791.14691 1275.7214 4289502363
-69.493576 792.97894 1277.2662 4291872457
-55.115597 792.97894 1277.2662 4291344594
-52.719265 792.97894 1277.2662 4290950602
-50.322937 792.97894 1277.2662 4290950602
-47.926605 792.97894 1277.2662 4290753994
1.1981652 792.97894 1277.2662 4289765273
-52.517429 799.31195 1276.0659 4290950342
-50.130276 799.31195 1276.0659 4291147465
-52.517429 801.13696 1277.6047 4290883014
-52.355965 806.90527 1277.2363 4290948807
-49.976147 805.99561 1276.4692 4290949064
-2.3798165 805.08594 1275.7023 4289895601
-54.524769 814.99036 1277.5132 4291146690
-52.154129 814.08417 1276.7491 4290883517
-49.783485 814.08417 1276.7491 4290949054
-47.412846 813.17798 1275.9851 4290555333
1.1853211 814.99036 1277.5132 4292857553
-51.952293 821.22803 1276.2325 4290949307
-47.229359 821.22803 1276.2325 4290423744
-44.867889 821.22803 1276.2325 4290686916
1.1807339 821.22803 1276.2325 4292792029
-51.952293 823.03333 1277.7548 4290554812
-49.590824 823.03333 1277.7548 4290489019
-47.229359 823.03333 1277.7548 4290292660
-44.867889 823.03333 1277.7548 4290490039
2.3614678 823.03333 1277.7548 4288516010
-51.750458 829.23596 1276.4443 4290029238
-49.398167 829.23596 1276.4443 4290423996
-47.045872 829.23596 1276.4443 4290293945
-44.693577 829.23596 1276.4443 4289899187
0 829.23596 1276.4443 4283976548
-54.102753 831.0343 1277.9607 4290554310
1.1761467 831.0343 1277.9607 4283120223
-52.720184 835.4104 1275.1105 4290489279
-49.205505 835.4104 1275.1105 4290423996
-46.862385 835.4104 1275.1105 4289701302
-44.519264 835.4104 1275.1105 4289964731
-53.891743 837.20172 1276.6208 4290554814
-52.555046 842.82983 1276.1342 4290028224
-49.051376 842.82983 1276.1342 4290159806
-46.715595 842.82983 1276.1342 4289700537
-43.211929 842.82983 1276.1342 4289700016
-39.708256 842.82983 1276.1342 4289107357
-37.372478 842.82983 1276.1342 4288645287
-56.058716 844.61554 1277.6399 4290357199
-52.555046 844.61554 1277.6399 4290028229
-49.051376 844.61554 1277.6399 4290093759
-46.715595 844.61554 1277.6399 4289963195
-43.211929 844.61554 1277.6399 4289897138
-39.708256 844.61554 1277.6399 4289173152
-48.858715 850.72266 1276.249 4289700539
-46.532108 850.72266 1276.249 4289701043
-44.205505 850.72266 1276.249 4289701043
-40.715595 850.72266 1276.249 4289109163
-37.225689 850.72266 1276.249 4287990448
-52.348625 852.50134 1277.7488 4290028994
-48.858715 852.50134 1277.7488 4289765560
-46.532108 852.50134 1277.7488 4289766064
-44.205505 852.50134 1277.7488 4289897650
-40.715595 852.50134 1277.7488 4289241253
-49.824768 860.34515 1277.8224 4289766064
-46.348625 858.57349 1276.3285 4289766316
-40.941284 859.16406 1276.8265 4288780703
-37.078899 858.57349 1276.3285 4287924903
-76.233025 865.88348 1277.26 4289963445
-71.612846 865.88348 1277.26 4290028468
-46.201836 864.11743 1275.7709 4289634984
-40.811619 864.70612 1276.2672 4289043110
-36.961468 864.11743 1275.7709 4287990185
0 865.00049 1276.5154 4290421945
-75.930275 871.8952 1275.7888 4289766582
-71.328438 871.8952 1275.7888 4290028722
-40.266056 871.8952 1275.7888 4288254124
-36.814678 871.8952 1275.7888 4287857817
-34.51376 871.8952 1275.7888 4287726487
0 871.8952 1275.7888 4289830312
-46.018349 873.6543 1277.272 4289503396
-43.71743 873.6543 1277.272 4289569189
-40.266056 873.6543 1277.272 4288450738
-36.814678 873.6543 1277.272 4287726233
0 873.6543 1277.272 4289567404
-71.044037 879.63098 1275.7712 4289897400
-68.752296 879.63098 1275.7712 4289963206
-41.251377 880.50702 1276.5099 4288515748
-38.959633 880.50702 1276.5099 4287792281
0 880.50702 1276.5099 4289238953
-41.119267 885.96399 1275.8789 4288384156
-38.073391 885.67291 1275.6334 4287726485
-40.954128 892.75354 1275.0636 4287989403
-37.541283 892.75354 1275.0636 4287660182
-43.229359 895.36267 1277.2637 4288516002
-40.954128 895.36267 1277.2637 4288450459
0 895.36267 1277.2637 4288778134
-37.420181 899.89386 1275.8519 4287200909
-34.018349 899.89386 1275.8519 4287464344
-37.420181 901.62769 1277.3138 4287265670
-34.018349 901.62769 1277.3138 4287397502
-33.908257 905.27222 1275.1548 4287266684
-31.647707 905.27222 1275.1548 4287464092
-29.387156 905.27222 1275.1548 4287398299
-2.2605505 905.27222 1275.1548 4286609295
-37.299084 907.00043 1276.6119 4287266180
-33.908257 907.00043 1276.6119 4287397764
-2.2605505 907.00043 1276.6119 4286937744
-40.524769 914.54541 1276.4335 4287989903
-2.2513762 914.54541 1276.4335 4287002499
-42.776146 916.2666 1277.8848 4288317575
-40.524769 916.2666 1277.8848 4287924100
-2.2513762 916.2666 1277.8848 4286936703
-40.392662 919.86487 1275.6866 4288514202
-38.148624 919.86487 1275.6866 4288514202
-2.2440367 919.86487 1275.6866 4287330444
-40.392662 921.58044 1277.1332 4290422951
-2.2440367 921.58044 1277.1332 4287067771
-42.462387 929.04553 1276.8873 4292067272
-40.227524 928.19122 1276.167 4292067526
-37.992661 927.33691 1275.4468 4292001477
-35.757797 927.33691 1275.4468 4292001477
-31.288073 929.04553 1276.8873 4291344051
-4.4697247 928.19122 1276.167 4286739061
-2.2348623 928.19122 1276.167 4286738805
-28.957798 934.30603 1276.0908 4291542202
-26.730276 934.30603 1276.0908 4291277768
-58.656879 754.737 1279.0303 4291674581
-56.212845 754.737 1279.0303 4291542995
-53.768806 754.737 1279.0303 4291345096
0 754.737 1279.0303 4289108120
-61.100918 756.60547 1280.6058 4291411155
-58.656879 756.60547 1280.6058 4291542995
1.2220184 756.60547 1280.6058 4289108109
-60.871559 763.09564 1279.538 4291871955
-58.436699 763.09564 1279.538 4291674833
1.2174312 763.09564 1279.538 4289304216
-67.867889 771.95856 1279.1628 4291609553
-65.444038 771.95856 1279.1628 4291675346
2.4238532 771.95856 1279.1628 4289830562
4.8477063 772.88513 1279.9441 4289764255
-67.611008 778.38275 1278.0393 4291938003
-65.196327 778.38275 1278.0393 4291806160
2.4146788 778.38275 1278.0393 4289633699
-70.025688 780.22882 1279.5958 4291806412
-67.611008 780.22882 1279.5958 4291609040
4.8293576 780.22882 1279.5958 4289830051
-67.354126 787.53735 1279.2183 4291411656
-64.948624 787.53735 1279.2183 4291477450
-61.340366 787.53735 1279.2183 4291082188
-57.732109 786.61786 1278.4429 4291213008
2.4055047 786.61786 1278.4429 4289502363
4.8110094 788.45691 1279.9935 4289568158
-69.493576 794.81097 1278.8109 4291476164
-57.511925 794.81097 1278.8109 4291212747
-55.115597 794.81097 1278.8109 4291212747
-52.719265 794.81097 1278.8109 4290950856
-50.322937 794.81097 1278.8109 4291016649
1.1981652 794.81097 1278.8109 4289962402
-69.493576 796.64294 1280.3556 4291344583
-57.511925 796.64294 1280.3556 4291147465
-55.115597 796.64294 1280.3556 4290950342
1.1981652 796.64294 1280.3556 4289961630
-69.227524 802.96198 1279.1434 4291476168
-54.904587 802.96198 1279.1434 4290555848
-52.517429 802.96198 1279.1434 4290817737
-69.227524 804.78699 1280.6823 4291016138
-57.291744 804.78699 1280.6823 4290817737
-54.904587 804.78699 1280.6823 4290817737
0 804.78699 1280.6823 4289041548
-52.355965 808.72467 1278.7704 4290883012
-49.976147 808.72467 1278.7704 4290817219
-57.115597 810.54407 1280.3044 4291080645
-54.735779 810.54407 1280.3044 4291343817
1.1899083 810.54407 1280.3044 4292331728
-55.710091 817.70898 1279.8054 4290686150
-52.154129 816.80273 1279.0414 4290686650
-49.783485 817.70892 1279.8054 4290884028
2.3706422 816.80273 1279.0414 4293449708
-51.952293 824.83875 1279.277 4290489021
-49.590824 824.83875 1279.277 4290489021
2.3614678 824.83875 1279.277 4286081965
-55.494495 826.6441 1280.7992 4290554564
2.3614678 826.6441 1280.7992 4282726481
-58.807339 832.83264 1279.4771 4290686403
-56.455048 832.83264 1279.4771 4290620355
1.1761467 832.83264 1279.4771 4288053358
-65.86422 834.63098 1280.9934 4290753211
-61.159634 834.63098 1280.9934 4290424511
-58.807339 834.63098 1280.9934 4290293182
-56.455048 834.63098 1280.9934 4290554814
1.1761467 834.63098 1280.9934 4288516233
-58.57798 838.99304 1278.1312 4290424511
-56.234863 838.99304 1278.1312 4290159804
-53.891743 838.99304 1278.1312 4290094011
0 838.99304 1278.1312 4284242745
-58.57798 840.78436 1279.6416 4290490041
-56.234863 840.78436 1279.6416 4290225863
0 840.78436 1279.6416 4284506233
-60.730274 848.18701 1280.6511 4290227137
-58.394497 847.29413 1279.8983 4290226624
-56.058716 847.29413 1279.8983 4290160592
-52.555046 847.29413 1279.8983 4289963207
-52.348625 854.28009 1279.2485 4289898172
-48.858715 854.28009 1279.2485 4289700791
-46.532108 854.28009 1279.2485 4289766316
-44.205505 854.28009 1279.2485 4289897902
-41.878899 854.28009 1279.2485 4289241255
-61.655045 856.05878 1280.7483 4289766596
-58.165138 856.05878 1280.7483 4289963979
-52.348625 856.05878 1280.7483 4290029497
-48.858715 856.05878 1280.7483 4289963445
-44.205505 856.05878 1280.7483 4289832109
-74.157799 863.88855 1280.8101 4290028468
-53.300919 863.00269 1280.0631 4289832117
-49.824768 863.00275 1280.0631 4289831853
-46.348625 863.88855 1280.8101 4289436068
-44.031193 863.00269 1280.0631 4289831594
2.3174312 863.88855 1280.8101 4292000975
-73.922935 869.41565 1280.2383 4289897137
-49.281952 868.82697 1279.7418 4289634981
-46.201836 868.53259 1279.4937 4289240748
-43.891743 868.53259 1279.4937 4289240748
-41.58165 867.6496 1278.7491 4289108140
2.3100917 868.53259 1279.4937 4291738308
-73.629356 875.41333 1278.7551 4289897137
-49.469727 875.41333 1278.7551 4289306031
-46.018349 875.41333 1278.7551 4289304998
-43.71743 875.41333 1278.7551 4289568169
2.3009174 875.41333 1278.7551 4291606217
-49.469727 877.17242 1280.2384 4289371054
-46.018349 877.17242 1280.2384 4289370793
-43.71743 877.17242 1280.2384 4289370793
2.3009174 877.17242 1280.2384 4291607502
-49.272476 884.88721 1280.2031 4288911270
-45.834862 884.01117 1279.4645 4288975776
-43.543118 884.88721 1280.2031 4288844197
1.1458715 884.01117 1279.4645 4290094511
-45.688072 889.45691 1278.824 4288515750
-43.403671 889.45691 1278.824 4288515750
0 889.45691 1278.824 4288712603
-45.504585 898.84155 1280.1969 4288450722
-43.229359 898.84155 1280.1969 4288384928
-40.954128 898.84155 1280.1969 4287989654
0.7584098 899.13153 1280.4413 4289108367
-43.089909 905.09534 1280.2377 4288515747
-40.822018 905.09534 1280.2377 4288187540
-37.420181 903.36151 1278.7758 4287331974
0 905.09534 1280.2377 4287529341
-42.950459 908.72864 1278.0691 4288516001
-40.689907 908.72864 1278.0691 4288055941
-38.429359 908.72864 1278.0691 4287397754
-2.2605505 908.72864 1278.0691 4287397014
-47.471561 910.45685 1279.5264 4288844952
-42.950459 910.45685 1279.5264 4288384159
-40.689907 910.45685 1279.5264 4288055689
-2.2605505 910.45685 1279.5264 4286739840
-46.341286 912.18506 1280.9835 4288909727
-42.950459 912.18506 1280.9835 4288317843
-76.546791 917.98779 1279.3361 4288976300
-42.776146 917.98779 1279.3361 4289436306
-45.027523 919.70905 1280.7874 4291080627
-42.776146 919.70905 1280.7874 4290949298
0 923.29602 1278.5797 4287197552
-43.758713 925.0116 1280.0262 4292000194
0 925.0116 1280.0262 4287067258
-43.20734 931.89313 1279.2885 4291871684
-40.227524 931.6084 1279.0483 4291870671
-37.992661 932.46265 1279.7686 4291673550
-35.012844 931.89313 1279.2885 4291673283
-31.288073 931.6084 1279.0483 4291541949
-24.583487 932.46265 1279.7686 4288975013
-22.348623 932.46265 1279.7686 4287003258
-20.113762 931.6084 1279.0483 4286607985
-16.761467 932.46265 1279.7686 4286411654
-13.409174 932.46265 1279.7686 4286673534
-11.174312 932.46265 1279.7686 4286607741
-7.8220181 932.46265 1279.7686 4286607487
-4.4697247 931.6084 1279.0483 4286804354
-2.2348623 931.6084 1279.0483 4286870404
-61.100918 758.474 1282.1813 4291542993
1.2220184 758.474 1282.1813 4289106839
-63.544952 760.34247 1283.7567 4291806162
4.8880734 760.34247 1283.7567 4289303714
-63.306423 764.95709 1281.1075 4291872207
-60.871559 764.95709 1281.1075 4291872207
2.4348624 764.95709 1281.1075 4289435804
-63.306423 766.8186 1282.6771 4291806412
4.8697248 766.8186 1282.6771 4289830301
4.8477063 775.66467 1282.2877 4289764515
7.2715597 777.5177 1283.8501 4290027173
4.8293576 782.07483 1281.1523 4289830051
4.8293576 783.9209 1282.709 4289698724
7.2440367 783.9209 1282.709 4289764517
-67.354126 790.2959 1281.5442 4291477450
-64.948624 790.2959 1281.5442 4291477450
-61.340366 790.2959 1281.5442 4291015883
-57.732109 790.2959 1281.5442 4291147215
4.8110094 790.2959 1281.5442 4289567893
-67.354126 792.13495 1283.0947 4291213764
-64.948624 792.13495 1283.0947 4291213764
-61.340366 792.13495 1283.0947 4291081156
4.8110094 792.13495 1283.0947 4289896103
7.2165136 792.13495 1283.0947 4289830310
-69.493576 798.47498 1281.9003 4291738570
-67.097244 800.30701 1283.4451 4291278790
-64.70092 800.30701 1283.4451 4291212997
-62.304588 800.30701 1283.4451 4291016899
-58.310699 799.69629 1282.9302 4291082187
-55.115597 798.47498 1281.9003 4290621639
1.1981652 799.39099 1282.6726 4290027427
4.7926607 800.30701 1283.4451 4290159273
-57.291744 806.61194 1282.2211 4290817989
-54.904587 806.61194 1282.2211 4291278540
1.193578 806.61194 1282.2211 4290224791
-57.115597 812.36346 1281.8385 4290949311
4.7596331 814.18286 1283.3726 4293646820
-55.710091 820.42749 1282.0977 4290620355
4.7412844 820.42749 1282.0977 4288251294
-55.710091 822.23987 1283.6259 4290685635
4.7412844 822.23987 1283.6259 4285288558
-63.759632 830.25482 1283.8436 4290687684
-61.398167 830.25482 1283.8436 4290686403
-59.036697 828.44946 1282.3214 4290817991
-56.675228 828.44946 1282.3214 4290554310
-61.159634 836.42932 1282.5096 4290424511
2.3522935 836.42932 1282.5096 4284571454
-60.921101 842.57568 1281.1521 4290291643
-58.57798 842.57568 1281.1521 4290357692
-67.950462 844.36707 1282.6625 4290357190
-64.435776 844.36707 1282.6625 4290225584
-60.921101 844.36707 1282.6625 4290292160
0 844.36707 1282.6625 4285294972
-70.073395 849.97272 1282.1569 4290357942
-67.737617 850.8656 1282.9097 4290555321
-64.233948 850.8656 1282.9097 4290358970
-60.730274 850.8656 1282.9097 4289898174
-58.394497 850.8656 1282.9097 4289963967
-56.058716 850.8656 1282.9097 4289963458
0 851.75842 1283.6626 4288319899
-69.798164 857.83752 1282.248 4290162103
-67.471558 857.83752 1282.248 4290227896
-65.144951 857.83752 1282.248 4289898434
-61.655045 857.83752 1282.248 4289635005
-58.165138 857.83752 1282.248 4290161092
-55.838531 857.83752 1282.248 4289963960
-53.511925 857.83752 1282.248 4289766582
-46.532108 857.83752 1282.248 4289635498
-44.205505 857.83752 1282.248 4289767084
0 857.83752 1282.248 4290815940
-67.471558 859.61621 1283.7478 4290358453
-65.144951 859.61621 1283.7478 4289766847
-61.655045 859.61621 1283.7478 4289700540
-58.165138 859.61621 1283.7478 4290226883
-55.838531 859.61621 1283.7478 4289766582
2.3266056 859.61621 1283.7478 4292132052
-74.157799 865.66028 1282.304 4289831605
-67.205505 865.66028 1282.304 4289963193
-53.300919 865.66028 1282.304 4289963695
-50.983486 865.66028 1282.304 4290095265
-67.205505 867.43195 1283.7977 4289963195
-53.300919 867.43195 1283.7977 4289634998
4.6348624 867.43195 1283.7977 4291408826
-53.132111 872.94781 1283.2164 4289897402
-49.666969 871.18176 1281.7273 4289569193
2.3100917 871.18176 1281.7273 4291541194
4.6201835 872.06482 1282.4719 4291212734
-52.921101 878.93152 1281.7216 4289306031
-49.469727 878.93152 1281.7216 4289437355
-46.018349 878.93152 1281.7216 4289371306
-43.71743 878.93152 1281.7216 4289108390
2.3009174 878.93152 1281.7216 4291212999
4.6018348 878.93152 1281.7216 4290883266
-57.522934 880.69055 1283.2048 4289568687
-55.222019 880.69055 1283.2048 4289370543
-52.921101 880.69055 1283.2048 4289567665
-49.469727 880.69055 1283.2048 4289371558
-43.71743 880.69055 1283.2048 4288778392
4.6018348 880.69055 1283.2048 4291147455
-49.272476 886.63922 1281.6804 4288975530
2.291743 886.63922 1281.6804 4291080895
-52.710091 888.3913 1283.1577 4288910507
-49.272476 888.3913 1283.1577 4288909994
2.291743 888.3913 1283.1577 4290949822
-46.830276 892.94977 1281.769 4288713639
2.2844036 892.94977 1281.769 4290949303
-50.256882 895.56946 1283.978 4288910503
-47.972477 895.56946 1283.978 4288910503
2.2844036 895.56946 1283.978 4290752164
4.5688071 895.56946 1283.978 4290620346
-45.504585 901.45068 1282.3969 4288515749
-43.229359 901.45068 1282.3969 4288515749
-40.954128 901.45068 1282.3969 4288252830
1.1376147 901.45068 1282.3969 4289305488
-46.6422 903.19019 1283.8635 4288581534
2.2752295 903.19019 1283.8635 4290490025
4.5504589 903.19019 1283.8635 4290883766
-49.893578 908.56293 1283.1615 4288647317
-46.113766 907.40704 1282.1869 4288844447
0 907.69604 1282.4305 4287723131
-46.341286 913.91327 1282.4407 4288778388
0 913.91327 1282.4407 4287458932
-51.992661 915.64148 1283.8978 4289764256
-46.341286 915.64148 1283.8978 4289633437
0 915.64148 1283.8978 4287590518
-49.530273 923.15143 1283.6898 4290621361
-46.528442 922.00397 1282.7223 4291015342
2.2513762 923.15143 1283.6898 4287659396
-44.880733 926.72723 1281.4728 4292067272
1.1220183 926.72723 1281.4728 4287527039
-47.124771 928.44275 1282.9193 4292199375
-44.880733 928.44275 1282.9193 4291936454
1.1220183 928.44275 1282.9193 4286670198
-43.579819 934.1712 1281.2092 4291346114
-40.227524 934.1712 1281.2092 4291804364
-37.992661 934.1712 1281.2092 4291804364
-34.640366 934.1712 1281.2092 4291541698
-31.288073 934.1712 1281.2092 4291213501
-29.053211 934.1712 1281.2092 4291015865
-25.700916 934.1712 1281.2092 4291475142
-22.348623 935.02551 1281.9296 4290621625
-20.113762 934.1712 1281.2092 4287924882
-16.761467 934.1712 1281.2092 4286478733
-13.409174 934.1712 1281.2092 4286344562
-6.704587 934.1712 1281.2092 4286215293
-63.783485 755.71381 1286.3942 4291542993
4.9064221 754.77606 1285.6035 4289238174
-65.988991 763.1452 1286.1199 4291740631
4.8880734 762.21094 1285.3322 4289304988
7.2715597 779.37079 1285.4126 4289961380
7.2440367 785.76697 1284.2655 4289502365
7.2440367 787.61298 1285.822 4289567893
-67.354126 793.974 1284.6454 4291279044
-64.948624 793.974 1284.6454 4291344837
-61.340366 793.974 1284.6454 4290950594
4.8110094 793.974 1284.6454 4290026940
7.2165136 793.974 1284.6454 4290421698
-67.354126 795.81299 1286.196 4291476166
-64.948624 795.81299 1286.196 4291344837
-61.340366 795.81299 1286.196 4291082692
4.8110094 795.81299 1286.196 4290026669
7.2165136 795.81299 1286.196 4290224305
-69.493576 803.97107 1286.5344 4291016397
-67.097244 803.05505 1285.7621 4291146958
-64.70092 803.05505 1285.7621 4290949579
-62.304588 803.05505 1285.7621 4290555847
-59.908257 803.05505 1285.7621 4290555590
2.3963304 802.13904 1284.9897 4289765271
4.7926607 803.05505 1285.7621 4289700007
7.1889906 803.97107 1286.5344 4289371043
-59.678898 812.08698 1286.8374 4290884297
4.774312 810.26196 1285.2987 4292858310
7.161468 811.17444 1286.0681 4292857807
-59.495415 816.91199 1285.6736 4290950091
4.7596331 816.00226 1284.9066 4293318892
7.1394496 816.91199 1285.6736 4288778150
-61.636696 824.05225 1285.1539 4290554049
-59.266056 824.05225 1285.1539 4290817221
4.7412844 824.05225 1285.1539 4286796561
7.1119266 824.05225 1285.1539 4292388966
-64.007339 825.86462 1286.6821 4290555594
-61.636696 825.86462 1286.6821 4290620355
4.7412844 825.86462 1286.6821 4288447264
7.1119266 825.86462 1286.6821 4292921189
-70.84404 833.86554 1286.8882 4290686403
-67.301834 833.86554 1286.8882 4290686912
-63.759632 832.96289 1286.1271 4290753212
4.7229357 832.96289 1286.1271 4286810538
-64.688072 838.22766 1284.026 4290817975
-61.159634 838.22766 1284.026 4290490041
2.3522935 838.22766 1284.026 4282071892
-68.216515 840.026 1285.5424 4290357438
-64.688072 840.026 1285.5424 4290422447
1.1761467 840.026 1285.5424 4284044908
-67.950462 846.15839 1284.1729 4290225852
-64.435776 846.15839 1284.1729 4290095020
0 847.05408 1284.9281 4285360229
-67.737617 853.54419 1285.1682 4290556609
-65.401833 853.54419 1285.1682 4290227398
-56.058716 853.54419 1285.1682 4290095549
1.16789 853.54419 1285.1682 4287397800
2.3357799 855.3299 1286.6738 4290684354
-69.798164 861.3949 1285.2476 4289898167
-67.471558 861.3949 1285.2476 4289898167
-65.144951 861.3949 1285.2476 4289700789
-61.267277 861.98779 1285.7476 4289700535
-58.165138 862.28424 1285.9976 4289766072
-55.838531 862.28424 1285.9976 4289897649
4.6532111 862.28424 1285.9976 4291738298
-55.618347 869.20361 1285.2916 4289634494
-53.300919 869.20361 1285.2916 4289700287
-62.570641 870.97534 1286.7854 4289568951
-57.93578 870.97534 1286.7854 4289831094
-55.618347 870.97534 1286.7854 4289568437
6.9522934 870.97534 1286.7854 4291080895
-62.372478 874.71393 1284.7056 4289765560
-57.752293 874.71393 1284.7056 4289831605
-55.442204 874.71393 1284.7056 4289634483
-53.132111 874.71393 1284.7056 4289963447
4.6201835 874.71393 1284.7056 4291344067
-64.682571 876.47998 1286.1947 4289306035
-61.21743 876.47998 1286.1947 4289568692
-57.752293 876.47998 1286.1947 4289634483
-55.442204 876.47998 1286.1947 4289174445
6.9302754 876.47998 1286.1947 4290817217
-62.124771 882.44965 1284.688 4289567406
-58.289906 883.62238 1285.6768 4289371051
-55.222019 883.32922 1285.4296 4289305260
-52.921101 883.32922 1285.4296 4289305260
4.6018348 883.32922 1285.4296 4290884024
6.9027524 884.20874 1286.1711 4290949557
-52.710091 890.14331 1284.635 4288975798
-50.41835 890.14331 1284.635 4288910507
4.5834861 890.14331 1284.635 4291080627
-52.710091 891.89539 1286.1123 4289042606
-50.41835 891.89539 1286.1123 4288780200
4.5834861 891.89539 1286.1123 4290816694
-52.541283 899.06232 1286.9231 4288910507
-50.256882 899.06232 1286.9231 4288844964
-47.972477 898.18909 1286.1868 4288779172
4.5688071 898.18909 1286.1868 4290751923
-52.330276 904.92957 1285.3301 4288843960
-50.055046 904.92957 1285.3301 4288646541
2.2752295 904.92957 1285.3301 4290750633
4.5504589 904.92957 1285.3301 4290946477
-54.605503 906.66901 1286.7968 4288910253
-52.330276 906.66901 1286.7968 4288910253
2.2752295 906.66901 1286.7968 4288445829
4.5504589 906.66901 1286.7968 4289232247
-52.161469 910.29675 1284.6234 4289107105
-49.893578 910.29675 1284.6234 4288909473
1.133945 910.29675 1284.6234 4287590268
-52.161469 912.03064 1286.0853 4289041051
-49.893578 912.03064 1286.0853 4288909723
2.26789 912.03064 1286.0853 4287261810
-76.858719 917.36969 1285.355 4289107368
-73.467896 917.36969 1285.355 4288910245
-70.077065 917.36969 1285.355 4288778657
-51.992661 917.36969 1285.355 4291014068
-49.732109 917.36969 1285.355 4290817709
-47.471561 917.36969 1285.355 4290949296
1.1302752 917.36969 1285.355 4287327859
-72.337616 919.0979 1286.8123 4289238173
-51.992661 919.0979 1286.8123 4291606723
-49.732109 919.0979 1286.8123 4290950051
2.2605505 919.0979 1286.8123 4286934123
-51.781651 925.73322 1285.8667 4291607234
-49.530273 925.73322 1285.8667 4291673549
-47.2789 924.87262 1285.1411 4292068567
4.5027523 925.73322 1285.8667 4288180068
-49.368809 931.87396 1285.8124 4291871692
-47.124771 931.01617 1285.0891 4292069070
-11.220183 931.87396 1285.8124 4286607991
-8.9761467 931.87396 1285.8124 4286346879
-4.4880733 931.87396 1285.8124 4286409855
-2.2440367 931.87396 1285.8124 4286870406
0 930.15839 1284.3658 4287067008
-66.236694 757.58936 1287.9755 4291805662
7.359633 757.58936 1287.9755 4289567143
7.359633 759.46484 1289.5569 4289568160
7.3321099 765.94794 1288.4832 4289764254
7.3045874 772.40302 1287.3857 4289830564
9.6587152 790.38202 1288.1567 4289830315
7.2165136 797.65204 1287.7466 4290027944
7.2165136 799.49109 1289.2972 4289765800
-62.304588 805.80304 1288.0791 4290818504
-59.908257 805.80304 1288.0791 4290818504
4.7926607 805.80304 1288.0791 4291674565
7.1889906 805.80304 1288.0791 4291016635
-62.304588 807.63507 1289.6239 4291081156
-59.908257 807.63507 1289.6239 4290818241
9.5853214 807.63507 1289.6239 4292593086
-62.066055 815.73694 1289.915 4290950090
9.548624 814.82446 1289.1456 4287858844
-64.255043 821.46045 1289.5088 4290752711
-61.875229 819.64099 1287.9747 4291015617
-59.495415 819.64099 1287.9747 4290818239
7.1394496 819.64099 1287.9747 4284696421
9.5192661 821.46045 1289.5088 4290883543
4.7412844 827.677 1288.2102 4290688690
7.1119266 827.677 1288.2102 4290688690
7.1119266 829.48938 1289.7384 4289175741
-70.84404 835.6709 1288.4104 4290817219
-68.482567 835.6709 1288.4104 4290685889
4.7229357 835.6709 1288.4104 4282796846
4.7229357 837.47626 1289.9326 4283119883
2.3522935 841.82434 1287.0586 4281807943
2.3522935 843.62268 1288.575 4281149995
2.3431194 849.74103 1287.1937 4282266943
4.6862388 851.53235 1288.7041 4283254635
-72.409172 857.1156 1288.1796 4290029240
-70.073395 857.1156 1288.1796 4290292660
4.6715598 857.1156 1288.1796 4291607473
-60.491745 866.73102 1289.7469 4289633979
-58.165138 865.84167 1288.9971 4289700027
-55.838531 864.95233 1288.2472 4289568949
6.9798164 866.73102 1289.7469 4291475903
-67.205505 872.74707 1288.2793 4289897413
-64.888077 872.74707 1288.2793 4289831609
-60.253212 872.74707 1288.2793 4289831605
