# .PCD v0.7 - Point Cloud Data file format
VERSION 0.7
FIELDS x y z rgb
SIZE 4 4 4 4
TYPE F F F U
COUNT 1 1 1 1
WIDTH 1168
HEIGHT 1
VIEWPOINT 0 0 0 1 0 0 0
POINTS 1168
DATA ascii
3.2440367 861.93848 783.42249 4286544285
19.46422 862.55847 783.94525 4286806437
21.644037 862.28955 784.59052 4286806693
24.385321 861.75177 785.8811 4286806691
0.80825686 865.48645 784.45197 4286478238
19.398165 866.55438 783.39038 4286740894
21.861469 865.48645 784.45197 4286806688
1.6165137 867.79022 784.43237 4286543520
3.225688 869.2113 783.01465 4286411684
17.741285 869.2113 783.01465 4286609313
19.398165 867.79022 784.43237 4286544022
21.014679 868.40814 784.95343 4286741145
1.612844 870.44434 784.05432 4286346140
20.160549 871.06091 784.5741 4286741149
1.6091744 873.70801 784.19 4286083483
3.7486238 874.8548 783.4129 4286279842
17.660551 875.73572 783.28369 4286609313
19.846481 874.32306 784.70868 4286675362
1.6055046 877.5769 784.83612 4286215071
3.7461774 877.37231 784.66357 4286411689
20.068806 877.5769 784.83612 4286609828
1.6 881.52441 784.24048 4286478240
4 880.91284 783.72479 4286412196
6.4000001 880.30121 783.20911 4286280864
17.6 880.30121 783.20911 4286740898
19.200001 880.30121 783.20911 4286609826
1.6 882.74762 785.27185 4286413730
3.9908257 884.14905 783.8374 4286347687
20.752293 884.14905 783.8374 4286543781
22.4 882.74762 785.27185 4286609830
1.5963303 886.5899 785.89551 4286018461
3.7186546 886.70776 784.25079 4286215590
20.704588 886.76813 783.42969 4286412463
22.863609 886.64844 785.07275 4286543779
1.5926605 889.20337 785.48303 4285952416
4.7669725 889.38153 783.01721 4286346920
20.127218 889.78644 783.35864 4286609831
22.297247 889.20337 785.48303 4286543774
1.5889908 891.81116 785.0658 4286018461
3.9633026 893.20135 783.62195 4286215334
19.840366 892.50623 784.34387 4286477479
1.5853211 895.62537 785.66577 4286018459
3.957798 895.10706 783.92072 4286083494
20.066055 895.27979 784.50244 4286281383
22.194496 895.62537 785.66577 4286280866
3.1633027 897.61462 784.72699 4286083488
18.979816 897.01001 784.21716 4286281892
3.677676 901.49689 784.07635 4286018207
18.913761 901.49689 784.07635 4286216098
4.7174311 904.67914 784.14343 4286018208
17.297247 904.07806 783.6366 4286215586
18.869724 905.28021 784.65027 4286281379
3.925688 907.16772 784.93372 4285952164
6.7981658 907.05341 783.5293 4286214299
10.197248 906.65356 783.19226 4286345887
13.334863 906.65356 783.19226 4286281118
16.733946 907.05341 783.5293 4286215330
18.869724 906.48242 785.66394 4286412449
3.6544342 910.36304 784.57587 4286082971
6.2605505 910.4201 783.75195 4286082971
16.708258 910.36304 784.57587 4286215583
18.825687 909.05231 785.21484 4286282144
4.1663609 913.32343 784.45599 4285886362
6.2458715 912.98169 783.29578 4286082971
16.395412 913.57855 783.79907 4286215838
18.781651 912.81323 785.76978 4286215584
4.1602445 916.21924 785.15363 4285951137
6.2311926 917.32397 784.34106 4286016411
17.13578 916.72852 783.83899 4286149788
18.715597 916.64429 785.07599 4286018720
4.6733947 919.11041 785.84729 4285950879
7.2525992 920.06812 784.03876 4286081948
16.318348 919.87012 783.8717 4285952668
18.693579 919.11041 785.84729 4286018209
6.993578 921.65234 785.37451 4286016924
10.077982 923.0033 783.89758 4285950881
13.195413 922.32782 784.63605 4286148509
16.318348 921.65234 785.37451 4286149280
10.336391 924.58374 785.23016 4285951392
12.403669 924.78131 785.39673 4285821083
-15.853211 749.03772 787.63776 4283451500
26.422018 748.36438 787.07007 4286411932
28.183487 749.71106 788.20544 4286346642
25.461468 752.03625 786.24194 4286215325
-16.681652 754.04993 787.93988 4287465124
-14.018349 754.92603 786.0625 4286806176
25.43578 754.15234 786.7182 4286149777
28.095413 754.72113 788.50586 4286281347
-16.64679 756.93555 787.75677 4287531943
26.284403 756.26569 787.19202 4286346892
-15.721101 760.58563 786.9104 4287400361
25.619574 760.36304 786.72272 4286347407
-15.721101 762.58875 788.59937 4287466673
-13.944954 763.45862 786.71674 4287400102
22.660551 762.7923 786.15491 4286478994
24.984711 763.68073 786.90399 4286150801
27.948624 762.58875 788.59937 4286150813
-15.688073 765.45752 788.40222 4287532212
-13.03211 767.75751 786.41736 4287202728
25.236698 766.60754 787.40979 4286215827
-13.900917 769.75012 788.09753 4287466409
26.06422 769.08594 787.53748 4286412949
27.801834 770.41437 788.65759 4286215822
-12.124771 772.70587 786.66565 4286874783
25.981651 772.70587 786.66565 4286281368
-12.702141 774.9129 788.52661 4287334316
-10.370643 776.2157 787.00897 4287006380
22.469725 775.55499 786.4519 4286544537
25.062386 776.2157 787.00891 4286347417
27.713762 774.6922 788.34052 4286281873
-12.099083 778.19781 788.68018 4287268524
25.926605 778.19781 788.68018 4287003030
27.655046 778.19781 788.68018 4286478744
-10.337615 781.13538 787.23303 4287071915
-8.6146793 780.47675 786.67773 4287072428
22.398165 780.47675 786.67773 4282531417
24.695414 781.35492 787.41815 4284833642
-12.060551 783.11115 788.89893 4287334317
-10.337615 783.11115 788.89893 4287202731
-8.5963306 784.62482 787.55927 4287071145
22.350458 783.96765 787.00507 4279440661
25.234251 784.55841 788.37518 4278256385
27.566973 783.11115 788.89893 4283382628
-6.8550458 788.20551 786.65417 4286940074
23.13578 788.20551 786.65417 4278190099
-10.282569 790.82587 788.86365 4287202470
-7.704587 790.26971 787.08667 4286939304
23.086239 791.02374 786.41443 4279639095
25.706423 790.82587 788.86365 4278190149
27.420183 790.82587 788.86365 4278190080
-10.26055 793.63849 788.61914 4287006370
-8.5504589 792.33112 787.51672 4287136676
23.941284 792.33112 787.51672 4278585188
25.651377 793.63849 788.61914 4282993273
-7.95474 796.32648 786.96149 4286940321
23.86422 795.89215 786.59521 4284638355
25.568808 797.19531 787.69409 4284242062
-11.079817 798.49847 788.79285 4287202209
-7.3706422 799.56195 787.07349 4286940066
25.513762 799.99536 787.43896 4285557922
27.273394 798.49847 788.79285 4285098120
-7.6431193 802.41626 787.51813 4286874533
25.431192 803.53674 786.50085 4285756320
27.21468 801.29572 788.5354 4285952664
-7.9070334 805.76202 787.50513 4286940074
23.684404 806.32416 786.23499 4285691038
25.431192 804.83289 787.59375 4285493660
27.126606 806.12909 788.68665 4285754781
-7.612844 808.26416 787.87079 4287005097
25.376146 807.61749 787.32556 4285755035
27.06789 808.91089 788.41602 4285754781
-7.5880733 811.78381 786.91443 4286808229
23.60734 811.13928 786.37097 4286083482
26.136696 811.78381 786.91443 4286018202
-10.117432 813.71759 788.54492 4286742693
-7.2911315 814.7688 786.81512 4286676649
23.555964 813.91125 786.09204 4286478492
25.81896 814.27545 787.27118 4286347935
-7.5605502 817.5918 787.23346 4286873516
23.478899 818.69971 786.20557 4286479523
26.038532 817.5918 787.23346 4286347936
-10.062386 821.26398 788.36768 4286808488
-8.3853207 820.62292 787.82715 4286742440
25.994495 820.62292 787.82715 4286413986
-7.5302753 823.37518 787.53174 4286939042
25.658716 823.58838 787.71149 4286610601
-6.6715598 826.85559 786.54224 4286874015
23.350458 826.21802 786.00464 4286741678
25.018349 827.49316 787.07983 4286741678
-6.6715598 828.76825 788.15491 4286742691
-4.9926605 830.23145 786.77258 4286742691
26.627523 830.23145 786.77258 4286675883
-6.6568809 832.77606 788.91809 4286872485
-4.9926605 831.50378 787.84534 4286873250
25.738533 832.96411 786.46069 4286675884
28.291742 832.77606 788.91809 4286741415
-6.6422019 835.50317 788.60144 4286675621
-4.9816513 834.23364 787.53113 4286806691
26.568808 834.23364 787.53113 4286675621
28.229359 835.50317 788.60144 4286742695
-4.9651375 838.31793 787.05078 4286609830
25.65321 837.6853 786.51733 4286676137
-6.612844 841.57166 788.48615 4286806954
-4.4036698 841.66498 787.25684 4286741158
25.596331 841.66504 787.25684 4286741928
28.13578 840.21588 788.651 4286742693
-4.119266 845.00366 787.45587 4286741407
23.06789 844.37378 786.9248 4286412195
24.715597 845.63348 787.98694 4286741669
-3.2807341 850.401 786.77466 4286675353
25.162079 850.37054 787.18506 4286741668
-4.0963306 853.62671 788.18646 4286479005
-1.6348624 854.43549 786.25232 4286610078
0 854.43549 786.25232 4286872233
22.888073 854.43549 786.25232 4286938026
25.397247 853.62671 788.18646 4286806696
-3.2697248 856.3103 787.83307 4286347936
25.340366 856.3103 787.83307 4286806955
-3.2587156 860.32513 787.29419 4286282140
-1.6293578 859.07947 786.2439 4286413728
24.440367 859.07947 786.2439 4286741417
-3.2587156 861.5708 788.34448 4286478492
-1.6256881 862.99463 786.92908 4286478492
24.385321 862.99463 786.92908 4286806689
-3.2513762 864.23749 787.97705 4286412445
-1.6220183 866.27856 787.08197 4286346648
0 866.27856 787.08197 4286411934
22.708258 866.27856 787.08197 4286675360
24.357798 865.56805 787.79089 4286675360
25.141285 868.13867 788.65027 4286610081
-3.2330275 871.49774 787.55847 4286281116
-1.6165137 871.49774 787.55853 4286150040
0 871.58618 786.32501 4286215069
20.966972 872.9104 786.13354 4286740898
22.631193 870.87982 787.03748 4286609825
24.786545 872.32159 788.25323 4286609827
-1.612844 875.37653 788.21289 4286215584
0 874.14349 787.17322 4286149279
22.579817 874.14349 787.17322 4286609828
24.192661 875.37653 788.21289 4286609828
0 876.78357 786.7832 4286215071
22.52844 876.78357 786.7832 4286609828
-1.6091744 879.24402 788.85779 4286413219
0 880.03174 786.90601 4286347424
20.871559 879.41803 786.38855 4286544024
22.477064 879.41803 786.38855 4286543781
24.885323 881.25916 787.94092 4286609829
-1.6 883.97083 786.30322 4286085283
0.80000001 883.97083 786.30322 4286282144
24 883.97083 786.30322 4286543783
-3.2 886.41724 788.36597 4286149793
-1.5981652 886.5022 787.12952 4286018721
0 886.5022 787.12952 4286084000
23.944954 887.8103 786.92444 4286411932
25.6 886.41724 788.36597 4286478733
-1.5963303 889.0307 787.95349 4286215584
0 889.0307 787.95349 4286215584
23.121101 889.72583 787.23157 4286411936
25.541285 890.2511 788.98254 4286412449
-1.5926605 892.24731 788.04962 4286215581
0.7944954 892.33228 786.81317 4286149791
23.06789 892.33228 786.81317 4286346404
25.482569 892.85614 788.56299 4286215073
0.52844036 895.51123 787.31366 4285952666
20.609175 896.83734 786.68774 4286018972
23.288073 895.51123 787.31366 4286280864
0.79082566 899.34485 787.49396 4286149788
20.561468 899.42834 786.25635 4286281379
22.987156 898.65533 788.22058 4286282144
1.5816513 901.24219 787.78564 4286083740
20.561468 900.63757 787.27588 4286281892
22.14312 901.24219 787.78564 4286281631
1.5761468 905.11182 787.12439 4285952414
3.1522937 903.9068 786.1084 4286149539
20.489908 904.50928 786.61639 4286281121
22.066055 905.11182 787.12439 4286215071
-1.5761468 906.31677 788.14038 4286082969
0.52415901 907.62939 787.50299 4285886875
20.442202 907.68457 786.67749 4286150815
22.81468 907.94373 787.55005 4286215328
-1.5724771 910.08893 788.70483 4285886873
1.0458716 910.59723 787.3894 4285755802
19.871559 910.65155 786.56317 4286215584
22.77523 910.77002 787.97107 4286149793
0.78440368 912.65039 788.24866 4285886875
20.346788 914.00983 786.77869 4286149791
21.963303 912.65039 788.24866 4286149793
1.5651376 915.80469 788.29205 4285820573
3.1229358 917.15979 786.81866 4285951135
20.299082 917.15979 786.81866 4286018722
21.911926 915.80469 788.29205 4286215584
3.8981652 919.62592 787.58997 4285951133
19.472477 920.30139 786.85144 4286279846
21.86055 918.95044 788.32849 4286149791
4.6733947 922.08777 788.35773 4285951645
6.993578 922.84045 786.37634 4286082449
13.987156 922.84045 786.37634 4286149793
16.318348 922.84045 786.37634 4286149279
19.472477 922.08783 788.35773 4286083750
21.809174 922.08777 788.35773 4286018206
7.2525992 924.42462 787.7121 4285951641
9.8428135 924.82074 788.04608 4285886377
13.469113 924.82074 788.04608 4285886875
16.318348 924.62268 787.87903 4285952413
18.649542 925.21674 788.38 4286083484
30.922018 748.06128 790.73853 4286346642
-19.376146 752.40436 790.47644 4287926188
-17.614679 751.05768 789.34094 4287924655
29.357798 751.50659 789.71942 4286215560
-21.137615 753.75098 791.61194 4288123053
31.706423 753.75098 791.61194 4286543250
-19.315596 757.40601 790.76971 4288189359
-17.522936 758.94495 789.45117 4287795120
28.958717 757.11957 789.87402 4286347152
31.60734 758.74847 791.90161 4286412695
-19.275229 761.62427 791.71021 4287795883
-17.522936 760.95447 791.14545 4287861175
29.78899 760.95447 791.14545 4286281631
31.541285 761.62427 791.71021 4286412436
27.948624 763.92419 789.72546 4286412449
-19.21468 766.59509 791.97742 4287925936
-16.874619 766.21503 790.78491 4287598259
28.79266 766.0249 790.18866 4286346643
31.442202 766.59509 791.97742 4286346640
-16.559633 768.78912 791.21136 4287729328
29.633028 768.1228 790.64954 4286215822
-15.638532 772.40698 790.33777 4287729074
-13.900917 771.7428 789.77771 4287663280
29.53945 772.40698 790.33777 4286216337
-13.856881 776.67853 790.01526 4287597489
29.445871 776.67853 790.01526 4286281366
-15.588991 778.00275 791.13184 4287925686
-12.963303 779.51923 789.79443 4287531435
28.519266 779.51923 789.79443 4286346656
-15.555964 780.84064 790.90857 4287925940
-13.827523 780.84064 790.90857 4287531695
29.383486 780.84064 790.90857 4287067036
-12.922018 785.08691 790.56488 4287071659
-10.337615 784.42834 790.00952 4287136940
28.715597 784.86743 790.3797 4280429394
-12.607951 788.12988 790.51465 4287202987
-10.315597 787.2536 789.77576 4287136424
25.78899 787.2536 789.77576 4278190080
28.367889 787.91077 790.3299 4278190598
-15.473394 789.88245 791.99219 4287662500
-13.754128 789.88245 791.99219 4287400364
30.946789 789.88245 791.99219 4285290357
-15.423853 793.44629 791.073 4287661987
-13.710092 793.44629 791.073 4287530917
-11.409175 794.00928 789.80371 4287202465
28.246788 793.54102 789.84485 4283058248
30.847706 793.44629 791.073 4284438912
-15.390825 796.90692 791.375 4287596451
-13.680734 796.90692 791.375 4287464873
29.07156 796.25323 790.82385 4284571776
30.781651 796.90692 791.375 4284505225
-11.079817 799.80164 789.89172 4287005093
28.977982 799.80164 789.89172 4285228941
-13.636697 801.10486 790.99048 4287465137
-11.055963 803.24622 790.18005 4287070891
28.369421 802.53241 790.4502 4285492635
30.68257 801.10486 790.99048 4285491093
-13.60734 805.19684 791.82471 4287398831
-11.906422 805.19684 791.82471 4287201195
30.616514 805.19684 791.82471 4285820576
-11.020184 808.0733 790.32587 4287004837
28.822018 807.42523 789.77942 4285754781
-13.563303 810.01758 791.96521 4287136940
-11.278287 811.49756 790.59717 4286874021
28.759632 810.85089 790.05188 4285887387
30.484404 811.40424 791.82642 4286083746
-10.117432 815.00671 789.63184 4286873770
28.666056 815.00671 789.63184 4286347935
-13.489908 817.58502 791.80579 4287268276
-10.949541 817.03308 790.03241 4286939564
26.921101 817.77026 789.34595 4286413728
28.666056 816.29584 790.71887 4286413728
30.352293 816.94043 791.26233 4286281888
-11.777982 819.69977 790.97284 4286873517
28.60367 819.05658 790.43054 4286479777
30.286238 820.34296 791.51514 4286479525
-10.621407 823.40088 790.16943 4286873255
28.510092 822.54614 789.44873 4286545319
-10.88899 826.48157 791.45898 4286742180
-8.3669729 825.93384 789.68915 4286742696
26.774311 825.29419 789.14978 4286675883
28.447706 825.93384 789.68915 4286675883
30.154129 826.48157 791.45898 4286610603
-7.5055046 830.04333 789.2301 4286610595
28.354128 830.04333 789.2301 4286610090
-10.563302 832.16864 791.02197 4286675363
-8.3394499 831.31848 790.3053 4286610078
30.577982 832.16864 791.02197 4286807215
-7.7614684 835.38055 790.24219 4286740898
29.092661 836.04663 790.3678 4286611626
31.620184 835.32068 791.06372 4286611373
-9.9633026 839.31165 791.81274 4286806691
-8.3027525 838.67688 791.27753 4286806692
29.889908 838.67688 791.27753 4286874024
31.550459 839.31165 791.81274 4286873770
-8.2752295 842.74646 790.78479 4286609826
28.13578 842.11377 790.25134 4286873250
-7.1620793 844.55145 790.56268 4286675612
26.422018 844.18994 789.38586 4286675871
28.93211 844.73212 791.151 4286611109
-7.4238529 847.43396 790.81305 4286478741
-4.943119 847.52307 789.58014 4286610325
26.363302 846.89319 789.04907 4286611362
28.073395 846.71497 791.51489 4286741667
-6.5908256 849.41254 791.17334 4286544535
-4.9266057 851.56525 789.06433 4286610328
26.275229 851.56525 789.06433 4286675875
28.011009 849.41254 791.17334 4286675875
-6.5688071 852.82068 790.12292 4286282140
27.917431 854.07617 791.18152 4286741415
-6.5541286 856.13202 790.29889 4286216093
-4.9155965 855.50568 789.77075 4286150811
27.855045 856.75836 790.82703 4286741669
-7.0905204 859.37695 791.29083 4286412186
-4.9045873 858.81006 789.94086 4286346910
26.157799 858.81006 789.94086 4286741668
27.823853 859.3479 791.70245 4286873249
-4.8880734 862.81647 789.3949 4286281118
26.069725 862.81647 789.3949 4286873246
-6.5174313 864.68494 790.97034 4286281118
-4.069725 865.39331 790.25964 4286281111
26.011009 865.48035 789.02502 4286741667
28.221407 865.36444 790.6712 4286609828
25.952293 869.37872 789.69592 4286675875
28.418348 868.67236 790.40839 4286610084
-6.4880733 871.85883 791.78699 4286281118
-4.0550461 871.23877 791.26422 4286281631
28.385323 871.23877 791.26422 4286675622
-4.0412846 874.58734 790.16357 4286149791
25.86422 873.96942 789.64258 4286675621
27.480734 874.58734 790.16357 4286675623
-6.4660549 876.4411 791.72656 4286018461
-3.7669723 876.96442 790.42383 4286149790
-1.612844 876.60956 789.25256 4286281631
25.267889 877.02057 789.59912 4286609829
28.257797 877.14185 791.0094 4286741158
-4.0284405 879.7749 790.61353 4286018722
28.193577 879.7749 790.61353 4286675621
-4.0192661 883.01746 790.73151 4285953187
25.688074 883.10028 789.49329 4286609817
27.850763 883.45416 790.66376 4286610073
-4.0082569 886.59778 790.48022 4286150305
25.6 887.64044 789.39734 4286609815
28.049541 886.59778 790.48022 4286544542
-4 889.47528 790.9444 4286215581
28 889.47528 790.9444 4286675623
-3.1926606 892.08173 790.526 4286150046
27.669724 892.28516 790.69751 4286478244
-3.1853211 895.90015 791.12958 4286083998
-1.5908257 895.37207 789.37628 4286215584
0 896.67035 789.16296 4286149788
23.834862 896.67035 789.16296 4286282144
25.482569 894.68256 790.10291 4286412448
27.07523 895.90015 791.12958 4286478239
-3.1779816 899.09991 791.21143 4285951131
-1.5889908 897.88513 790.18713 4286215584
25.423853 898.49255 790.69928 4286281118
27.012844 899.09991 791.21143 4286215584
-3.9633026 902.29132 791.28632 4285951133
-1.5853211 901.07935 790.2644 4286082974
0 900.47333 789.75342 4286149277
23.779816 900.47333 789.75342 4286281118
26.422018 902.08936 791.11603 4286280866
-3.1633027 904.86975 790.8443 4285886099
0 903.05591 789.31494 4285952414
23.724771 903.05591 789.31494 4286280864
26.097248 904.86975 790.8443 4286215330
-1.5761468 907.52179 789.15637 4285952146
25.218349 908.12427 789.66437 4286215331
-3.1522937 909.9317 791.18835 4285886623
-1.5724771 911.29108 789.71851 4285886623
23.587156 911.29108 789.71851 4286149793
25.977064 910.61139 790.45343 4286215332
-1.5688074 913.84979 789.25989 4285886623
0 913.84979 789.25989 4285886621
23.53211 913.84979 789.25989 4286215584
26.207952 912.89404 791.07001 4286083748
-3.1376147 915.6488 790.77679 4285623194
-1.5669725 916.32434 790.03827 4285689243
0.52171254 916.74933 789.96063 4285819802
23.504587 916.32434 790.03827 4286149791
25.623856 915.84869 790.94531 4286083999
-1.5651376 919.39429 791.31879 4285688728
0.78165138 919.73138 790.94897 4285885337
3.1229358 920.14423 789.33508 4285951133
23.422018 920.14423 789.33508 4285886875
25.563913 919.59375 791.487 4286018201
3.6397552 922.5813 790.51788 4285755289
6.2311926 923.87421 789.86401 4285755035
20.251375 923.87421 789.86401 4286149277
22.866056 923.02881 790.02319 4286084000
24.983486 922.53174 791.34814 4286149287
4.6733947 925.06519 790.86816 4285820830
7.0100918 925.66064 791.37024 4285754265
10.113762 926.33051 790.62701 4285689237
13.225688 926.33044 790.62708 4285951131
16.337614 926.33044 790.62708 4286213787
19.472477 925.66064 791.37024 4286083217
22.32844 925.46216 791.20288 4285952409
33.677063 747.77075 794.41772 4286346894
-22.087156 751.43842 793.58606 4288057254
31.805504 750.08752 792.44702 4286346894
34.161469 752.33905 794.3454 4286477971
-21.137615 755.09766 792.74731 4288057774
31.706423 755.09766 792.74731 4286412438
-21.137615 756.44434 793.88281 4287795370
33.467892 756.44434 793.88281 4286412695
-21.07156 761.43335 794.16541 4287860395
34.241287 760.76215 793.59943 4286346897
-19.275229 762.96387 792.83972 4287991981
31.541285 762.96387 792.83972 4286412434
33.293579 763.63367 793.40454 4286346641
-19.21468 767.93054 793.10339 4287925938
31.442202 767.93054 793.10339 4286085270
33.188992 767.93054 793.10339 4286085270
-20.088074 769.26593 794.22937 4287728307
-17.431192 770.78809 792.89673 4287663282
31.376146 770.78809 792.89673 4286215584
34.062386 769.26593 794.22937 4286281112
-19.174313 772.12073 794.02039 4287859378
33.119267 772.12073 794.02039 4286281366
-16.796942 774.84247 792.39117 4287859893
31.277063 775.06384 792.57788 4286281107
33.014679 775.72803 793.13794 4286412434
-19.113762 777.05646 794.25806 4287990952
-17.3211 779.32697 792.24841 4287925940
31.177982 779.32697 792.24841 4286478744
33.014679 777.05646 794.25806 4286412695
-16.732721 781.59619 793.28973 4287794596
-13.827523 782.16205 792.02271 4287334319
32.011009 781.40662 792.69385 4286150045
-16.420183 784.14417 793.69403 4287597225
32.264221 783.92389 793.5083 4284375690
-16.367889 787.72131 792.78613 4287728297
31.874311 787.72131 792.78613 4284043130
-18.952293 789.69714 794.45203 4287333788
-17.192661 791.19678 793.10046 4287661987
32.666054 791.19678 793.10046 4285688978
34.458717 789.69714 794.45203 4285951133
-17.192661 792.51123 794.20874 4287727780
32.561466 794.75647 792.17773 4284637068
34.385323 792.51123 794.20874 4285030544
-17.137615 796.72174 793.83484 4287465125
32.561466 796.06665 793.28247 4284899726
34.27523 797.37683 794.38721 4285293717
-16.245872 799.52173 793.57971 4287399080
32.491745 799.52173 793.57971 4285360022
-15.341285 803.05957 792.63867 4287399080
-13.636697 802.40802 792.08923 4287530932
31.534863 803.05957 792.63867 4285623452
-15.341285 805.01434 794.28687 4287333288
-13.60734 806.49719 792.92114 4287202218
31.501835 805.75574 793.604 4285886369
34.091743 805.01434 794.28687 4286082721
-15.308257 807.79755 794.01758 4287202468
32.317432 807.79755 794.01758 4285754781
34.018349 807.79755 794.01758 4285951133
-15.258716 812.60986 794.151 4287202472
-13.563303 811.31372 793.05811 4287202731
32.212845 811.31372 793.05811 4285952416
33.908257 812.60986 794.151 4286281118
-13.533945 814.08429 792.7782 4287136688
32.14312 814.73096 793.32343 4286150302
-15.225688 816.67096 794.95923 4287202472
-13.489908 818.87415 792.89282 4287070894
32.038532 818.87415 792.89282 4286347683
33.834862 816.67096 794.95923 4286543520
-15.176147 820.16327 793.97974 4287202472
-13.46055 821.62927 792.59973 4287136424
31.162384 820.89624 793.28973 4286413478
33.72477 820.16327 793.97974 4286675624
-15.143119 824.20197 794.76892 4287333788
-13.46055 822.91565 793.68433 4287136426
31.968807 822.91565 793.68433 4286545321
33.651375 824.20197 794.76892 4286741415
-13.416513 827.03357 793.23242 4287070630
31.86422 826.39252 792.69189 4286675885
33.541283 827.67462 793.77295 4286938280
-15.093578 828.95679 794.854 4286939030
-13.387156 830.4115 793.4646 4287070129
-11.713761 829.13214 792.38586 4286873000
31.794495 829.13214 792.38586 4286872494
34.343121 829.68414 794.1593 4286872746
-13.387156 831.6908 794.54321 4286938026
-10.841284 833.86871 792.45557 4286806693
33.467892 831.6908 794.54321 4286872998
-13.34312 835.78137 794.06824 4286872478
-10.81743 836.59302 792.13647 4286806946
31.620184 836.59302 792.13647 4286873766
33.913761 835.9939 794.24738 4286609826
-11.649541 838.50146 793.74561 4287003804
-9.9633026 841.21594 793.4184 4286477983
29.889908 840.58118 792.88318 4286807721
31.550459 841.21594 793.4184 4286742185
-9.930275 845.27704 792.91846 4286609817
29.790825 845.27704 792.91846 4286741415
31.445871 845.27704 792.91846 4286873000
-9.9082565 847.97742 792.57935 4286806943
-8.2568808 847.97742 792.57935 4286740894
29.724771 847.97742 792.57935 4286675621
31.445871 846.54236 793.98535 4286873000
-10.451376 850.55811 793.8833 4286610334
-8.2385321 851.30212 792.76654 4286413216
29.131498 850.61469 793.0589 4286807207
31.376146 850.50238 794.70837 4286872998
-9.8862381 853.19159 794.35974 4286741398
29.658716 853.19159 794.35974 4286872998
31.306421 853.19159 794.35974 4286872998
-9.8532114 857.21484 793.828 4286741142
-8.211009 855.33167 792.24011 4286412434
29.559633 856.58716 793.29871 4286938791
31.201836 857.84259 794.3573 4286872998
-9.831193 860.51642 793.99573 4286675873
-8.1926603 859.26373 792.93945 4286412688
29.493578 859.89008 793.46759 4286675621
31.132111 860.51642 793.99573 4286741417
-8.1743116 862.55963 793.10236 4286346653
31.062386 863.18457 793.62927 4287004336
-9.8091745 864.43445 794.68311 4286741667
-7.3458714 865.4939 793.61444 4286281117
-4.8880734 866.55341 792.54578 4286412447
30.957798 866.55341 792.54578 4286872746
-9.7761469 869.04474 794.64636 4286806437
-7.3321099 867.79907 793.59607 4286477719
-4.8770642 869.20892 792.16882 4286412445
29.262384 869.20892 792.16882 4286675624
31.772476 868.42188 794.12122 4286806952
-9.7541285 871.69458 794.26465 4286938280
-8.1284399 871.07318 793.74072 4286411936
31.700916 871.07318 793.74072 4286806950
-9.73211 874.95898 794.40094 4286412451
-7.2990828 873.71887 793.35541 4286149536
29.196331 873.09888 792.83264 4286741669
31.359022 874.33893 793.87817 4286872743
-9.6990824 878.91278 793.81067 4286281377
-7.5437312 878.08887 793.11603 4286215329
30.713762 878.29486 793.28967 4286873000
-9.6990824 880.14862 794.85266 4286412447
-6.9889908 881.13068 793.0647 4286084515
-4.838532 880.30865 792.37158 4285887907
29.031193 880.30865 792.37158 4286675621
31.450459 881.54169 793.41125 4286806696
33.946789 880.14862 794.85266 4286740646
-9.6770639 882.77472 794.45093 4286478238
-7.2504587 883.46985 793.72894 4286216096
31.415596 883.46985 793.72894 4286610341
-7.2412844 885.39514 794.04431 4286083996
-4.8165135 886.78253 792.59814 4286412965
28.899082 886.78253 792.59814 4286609830
31.344036 886.08887 793.32123 4286543781
-6.4220185 888.00995 793.63306 4286083482
31.574923 888.41913 793.97803 4286477729
-6.8000002 892.83917 793.78076 4285952408
-4.7944956 892.61121 792.28058 4286018460
28.733946 893.91235 792.06958 4286477988
30.800001 892.83911 793.78076 4286544037
-6.3853211 896.35315 794.12756 4286018461
-4.788991 895.13275 793.09851 4286149791
28.733946 895.74292 793.61304 4286412965
30.330275 896.35315 794.12756 4286347685
-4.7779818 897.72656 792.66956 4285952668
28.667891 898.94415 793.69617 4286281892
-6.8966355 901.02264 794.57666 4286016926
-4.7669725 900.3147 792.23572 4286082719
28.601835 902.13696 793.77216 4286215587
30.26055 900.16174 794.7229 4286281379
-6.3412843 905.32129 793.84119 4285886623
-4.7559633 904.10931 792.81921 4285951133
28.53578 905.32129 793.84119 4286215586
-7.133945 906.53326 794.86304 4285820820
-4.2177367 907.08661 792.71356 4285886620
26.888073 906.68347 792.37366 4286215332
28.469725 907.8927 793.39319 4286215584
30.121101 906.53326 794.86304 4286215584
-6.3266053 909.10187 794.41272 4285820830
-3.9486239 910.11926 793.30853 4285820830
28.370642 911.13672 792.20435 4286215586
-6.2972479 913.61963 792.98987 4285623448
-4.7229357 913.61963 792.98987 4285557655
28.874006 913.5954 793.40546 4286084513
-6.2899084 916.70087 794.27985 4285557645
-3.9220183 917.44788 792.2937 4285557651
26.669725 917.44788 792.2937 4286149779
29.090824 916.70087 794.27985 4285951646
-6.2752295 919.84662 794.31628 4285754774
-3.9220185 919.24695 793.81067 4285688721
28.761469 919.44684 793.97919 4285886110
-3.9128439 922.98401 794.34558 4285623691
-1.5651375 922.38574 793.84106 4285755024
1.1738532 922.08661 793.58881 4285885591
3.1229358 923.72546 792.35461 4285886623
26.201376 922.72064 793.46948 4286083491
28.172478 922.98401 794.34552 4286149790
4.1639142 925.31714 793.69678 4285886114
20.299082 926.11298 794.3678 4286083736
22.901529 925.71509 794.03223 4286083227
24.983486 925.51611 793.8645 4286148254
7.0100918 927.44708 792.87659 4286081947
10.385322 927.84406 793.21124 4285951390
13.241284 927.44708 792.87659 4285951131
16.097248 927.84406 793.21124 4285951132
18.693579 927.44708 792.87659 4286017687
-23.042202 749.12585 795.56018 4288056480
35.449543 749.12585 795.56018 4286542477
37.299084 747.58417 796.87634 4286542477
-24.814678 751.15845 797.27405 4288517283
38.108257 751.15845 797.27405 4286346389
-24.737616 755.49103 797.00305 4288913307
-22.970642 754.14014 795.86414 4287990938
35.339451 754.14014 795.86414 4286412947
37.695412 755.04071 796.62335 4286281361
-22.018349 757.79095 795.01831 4287663769
35.229359 757.79095 795.01831 4286412688
-24.660551 760.48425 797.28918 4289044131
-22.899082 759.13763 796.15381 4287795090
37.577984 760.0354 796.91071 4286281358
-22.242203 763.22333 795.67462 4287859865
35.119267 762.77582 795.29736 4286346894
36.875229 764.11829 796.4292 4286412434
-21.903669 766.31299 795.66364 4287662746
35.045872 765.64319 795.09888 4286346640
37.714676 766.2218 796.89478 4286281102
-22.779816 768.32245 797.35803 4287793546
-20.961468 770.60138 795.35547 4287727791
34.93578 770.60138 795.35547 4286412174
37.616512 769.46191 796.35675 4286477455
-22.708258 773.27228 797.60742 4287925386
-20.06789 772.69507 795.81274 4287662512
34.862385 773.45331 795.14404 4286346894
37.847095 772.38202 796.85675 4286345616
-20.917431 775.45227 796.82953 4287465119
34.862385 774.78595 796.2677 4286346894
37.186543 775.67438 797.01678 4286280333
-19.113762 779.04907 795.93817 4287925923
34.752293 779.04907 795.93817 4286544018
36.48991 779.71332 796.49817 4286346642
36.48991 781.04175 797.61829 4286281366
-19.919266 784.62378 796.71454 4287201951
34.6422 783.29956 795.59802 4286610330
37.240368 785.28589 797.27283 4286412185
-19.877064 787.44769 796.47943 4287267482
34.568806 786.12628 795.36523 4286082969
36.873394 788.32861 797.22223 4286346140
-18.952293 791.01434 795.56274 4287465374
-18.911926 793.82556 795.31702 4287465135
34.385323 793.82556 795.31702 4285162130
37.330276 792.77057 797.04352 4286412433
-18.911926 795.14001 796.42529 4287333538
36.104588 795.79718 796.97943 4286280100
-18.851376 799.3421 796.04425 4287267743
35.132111 799.3421 796.04425 4286214051
-18.851376 801.30737 797.70129 4287201940
-17.100918 802.13647 795.78436 4287267494
35.056881 802.13647 795.78436 4286411686
37.702751 801.30737 797.70129 4287332506
-18.811008 804.09753 797.43787 4287333272
-17.045872 806.3175 795.38562 4287202468
35.796329 806.3175 795.38562 4286872235
-18.750458 808.92389 797.58325 4287332502
-16.177065 808.35931 795.79926 4287333538
35.203671 808.54755 796.39386 4286478242
-17.009174 811.04846 796.75867 4287070629
35.719265 811.69861 797.30688 4286609828
-16.106422 814.55408 795.79034 4287136422
34.755962 814.55408 795.79034 4286543777
-18.649542 816.49835 797.42969 4287069846
-16.917431 817.96436 796.04968 4287070629
35.526604 817.96436 796.04968 4286675624
37.299084 816.49835 797.42969 4286938278
-16.019266 821.45245 795.06677 4287202463
34.625687 820.3551 796.10352 4286479526
-16.862385 823.38611 796.6972 4286873235
35.411011 822.74158 796.15369 4286675621
37.659328 823.60101 796.87842 4287135661
-15.984404 826.13147 796.39581 4286807186
35.333946 825.48828 795.85352 4286872487
37.016514 826.77466 796.93811 4287200943
-15.093578 830.23889 795.93506 4286873237
35.218349 830.23889 795.93506 4286872998
-15.060551 832.97009 795.62195 4286742169
35.141285 832.97009 795.62195 4286741669
37.733944 831.521 797.01611 4287396766
-15.060551 834.8891 797.23999 4286610583
36.814678 834.8891 797.23999 4287526303
-13.34312 837.69409 795.68103 4286806680
34.469723 838.11914 796.03937 4286215333
36.693577 838.96918 796.7561 4287394463
-15.011009 840.24432 797.8313 4286610834
-13.313762 841.68219 796.42755 4286741397
-11.649541 840.40991 795.35486 4286741398
34.116516 841.68225 796.42761 4286346405
36.693577 840.24432 797.8313 4286673052
-13.284404 845.65918 797.16479 4286741137
-11.623854 843.75488 795.55914 4286675860
34.041283 845.02441 796.62958 4286543784
-11.585321 847.80762 795.05225 4286872723
31.445871 847.80762 795.05225 4286873000
33.100918 847.80762 795.05225 4286872494
-13.240367 849.70557 796.65259 4286149265
-11.559633 851.76489 795.77283 4286938528
33.910091 850.06226 796.29932 4286280866
-13.211009 853.65863 797.36957 4285950869
-11.533945 854.45129 795.42188 4287069348
31.306421 854.45129 795.42188 4286872998
34.128437 853.44824 797.19214 4286346659
-13.181651 856.97064 797.54614 4285359495
-11.533945 855.711 796.48401 4287003303
32.954128 856.34082 797.01508 4286610857
34.601833 856.97064 797.54614 4286150561
-13.137614 860.35358 796.47449 4285623172
-11.495413 859.09808 795.41589 4286806941
32.844036 860.35358 796.47449 4286938793
34.48624 860.35358 796.47449 4286478242
-13.137614 861.60907 797.53308 4285885576
-10.923549 862.18658 795.40399 4286938525
32.770641 863.02173 796.10815 4286938280
34.409176 863.02173 796.10815 4286148764
36.128441 861.60907 797.53308 4286148766
-10.907646 865.63092 796.56415 4287003291
32.697247 865.68427 795.73706 4286741417
34.370644 865.60425 796.9776 4286214815
36.047707 864.27441 797.16431 4286017441
-13.078899 868.18402 797.84473 4286346138
35.966972 868.18402 797.84473 4286018461
-13.034863 872.15894 797.27209 4286214297
-11.39266 871.61389 795.50464 4286806690
32.51376 872.93744 795.31262 4286873000
35.031193 871.53613 796.74695 4286478240
-13.005505 875.42316 797.40845 4286149529
-11.379816 874.1803 796.3606 4286542750
34.13945 874.80176 796.88452 4286740644
-11.354129 877.43909 796.49213 4286544285
32.440369 876.81903 795.96936 4286938280
-11.315597 881.38446 795.89465 4286609819
33.946789 881.38446 795.89465 4286806437
-10.76942 883.49469 796.80206 4286412702
34.998775 883.49469 796.80206 4286543269
-10.214679 886.06281 797.22333 4286347421
-8.0458717 887.24048 795.60022 4286018454
34.381653 886.52344 796.73956 4286609315
-9.6550455 889.08588 797.15613 4286150815
-8.027523 890.46484 795.70288 4286018972
32.110092 890.46484 795.70288 4286740896
33.79266 889.08588 797.15613 4286740896
-9.6330271 891.69226 796.73779 4286478742
33.715595 892.30597 797.25525 4286609571
-9.6000004 895.59131 796.10138 4286214815
-8 894.97974 795.58569 4286215071
32 894.97974 795.58569 4286609315
-10.38899 898.11005 796.91705 4286214814
-7.183486 897.57355 795.15662 4286082974
31.394495 897.98029 795.49969 4286347170
33.599998 897.42615 797.64844 4286412449
-10.36422 901.30566 796.99536 4286084255
-7.9633026 901.37939 795.74951 4285886623
31.346788 901.33026 796.58008 4286215585
-10.341284 904.49426 797.06787 4286544028
-7.9449539 903.95911 795.30859 4285624732
30.985321 904.56653 795.82074 4286281119
33.445873 903.81458 797.80286 4286281116
-10.05627 907.24487 797.20703 4286082972
-7.9266057 908.35132 796.39594 4285885854
31.17798 908.14923 796.22559 4286215840
33.330276 907.67297 797.13202 4286281631
-10.304587 910.16925 797.92883 4286213278
-7.908257 911.5202 796.4519 4286081699
30.842201 910.91565 795.94208 4286019489
34.084404 910.16925 797.92883 4286282914
-10.280734 912.72943 797.47144 4286213798
-7.880734 914.75165 795.25244 4285950379
29.946789 914.75165 795.25244 4286215332
31.633028 912.72943 797.47144 4286215584
33.21468 912.72943 797.47144 4286347426
-9.4568806 917.16156 797.28442 4286213535
-7.880734 915.9566 796.26843 4286016674
31.522936 915.9566 796.26843 4286016924
33.887154 916.55908 796.77643 4286346915
-9.4348621 920.30737 797.3208 4286082972
-7.8623853 919.10522 796.30713 4286016668
31.449541 919.10522 796.30713 4285755550
33.415138 920.00684 797.06738 4286347425
-6.9027529 922.48523 796.54114 4285754513
0 922.24536 796.33887 4285819800
29.807337 922.24536 796.33887 4286083229
31.376146 922.84503 796.84448 4286149527
-3.9128442 925.37714 796.36328 4285819797
-1.5651376 925.37714 796.36334 4285951384
1.5651376 924.77887 795.85889 4285755035
3.1302752 925.37714 796.36334 4285950880
26.60734 925.37714 796.36334 4286082206
28.172478 925.37714 796.36334 4286082206
-1.5651376 927.172 797.87671 4286279834
4.1663609 927.65973 796.54395 4285820318
7.0266056 927.90363 795.87756 4285820062
9.8892975 928.10254 796.04535 4285885601
13.272477 927.90363 795.87756 4285885340
16.655657 928.10254 796.04535 4285754524
19.518349 927.90363 795.87756 4285820062
22.641285 927.90356 795.87756 4285951388
25.544342 927.21698 797.04254 4286017179
39.07523 748.94202 798.02124 4286346138
-28.418348 751.65778 800.31116 4289766568
-26.642202 750.29993 799.16614 4289437864
40.851376 750.29993 799.16614 4286346138
42.627522 751.65778 800.31116 4286215826
-26.587156 753.86859 799.5592 4289503655
40.766972 753.86859 799.5592 4286215826
-24.737616 756.84186 798.14209 4288913828
38.873394 756.84186 798.14209 4286215824
40.640366 758.19275 799.28113 4286346894
-24.660551 761.83093 798.42468 4288846749
38.752293 761.83093 798.42468 4286346894
40.51376 761.83093 798.42468 4286346894
42.407341 759.54358 800.42017 4286412688
-25.541285 763.85095 800.12793 4289174692
40.51376 763.17761 799.56018 4286346894
43.155964 763.85095 800.12793 4286280851
-24.583487 766.80316 798.69312 4289043356
40.387157 766.80316 798.69312 4286542736
42.14312 766.80316 798.69312 4286346138
-25.461468 768.81689 800.39093 4289371555
-22.779816 769.66211 798.48755 4288319888
40.302753 769.66211 798.48755 4286476947
43.284405 769.09863 799.75653 4286280351
-24.53211 771.67163 800.18188 4289108894
40.302753 771.00177 799.61707 4286410898
42.93119 771.67163 800.18188 4286411932
-22.708258 775.27539 799.29645 4287989903
41.049541 775.27539 799.29639 4286345876
43.669724 775.94312 799.8595 4286741148
-24.455046 777.27856 800.98547 4288713883
-22.660551 778.78381 799.63867 4287924110
-20.917431 778.11755 799.07684 4287596451
38.348625 778.11755 799.07684 4286412179
40.963303 778.78381 799.63867 4286346644
43.669724 777.27856 800.98547 4286872733
45.416515 777.27856 800.98547 4286872975
-22.660551 780.11646 800.76221 4287726987
-20.851376 782.37012 798.7384 4287267481
38.227524 782.37012 798.7384 4286412436
40.963303 780.11646 800.76221 4286478229
43.57798 780.11646 800.76221 4286872987
-22.588991 784.36279 800.41858 4287530122
41.123547 784.14136 800.23193 4286609303
43.440369 785.02698 800.97864 4286872473
-22.517431 788.59644 800.06421 4287530639
40.704586 787.93433 799.50592 4286872218
-20.741285 790.75122 799.26489 4287004579
40.330273 790.97144 799.45062 4286938770
-22.469725 792.73328 800.93616 4287529104
-20.67523 794.96594 798.89453 4287070368
37.904587 794.96594 798.89453 4287004556
40.618347 792.73328 800.93616 4287201427
-22.398165 796.28314 800.00525 4287332756
-20.631193 797.7688 798.64185 4287004823
37.823853 797.7688 798.64185 4286939032
39.627522 796.28314 800.00525 4287267740
-20.631193 799.08313 799.75012 4286807182
39.543118 800.39758 800.85828 4287725986
-20.565138 803.27264 799.3584 4287069845
37.702751 802.61755 798.80603 4287528350
39.416515 803.92773 799.91077 4287398049
-19.666054 806.05859 799.09143 4287135638
37.622017 806.05859 799.09143 4287003551
39.332111 806.71228 799.64258 4287464104
-20.521101 808.01965 800.745 4286806680
39.332111 808.01965 800.745 4287463850
-19.305199 811.58545 798.95538 4287135384
37.460548 811.61304 798.54272 4286937762
40.0578 812.18176 800.33026 4287660962
-20.411009 814.94958 800.04797 4287135894
39.971558 814.94958 800.04797 4287792038
-18.649542 817.79449 798.52258 4287070100
38.14679 817.79449 798.52258 4287333035
-19.187767 820.92743 799.4201 4286938515
38.910091 820.55103 798.23071 4287662000
40.64587 820.46753 799.46838 4287727260
-20.300917 823.13776 800.41187 4287004053
-19.391743 826.60901 799.41467 4286741652
38.783485 825.31989 798.32764 4287924923
40.469727 825.96448 798.87115 4287332505
42.155964 827.89813 800.50159 4287527046
-18.508257 829.99048 799.64972 4286675859
-16.825687 828.7041 798.56506 4286676116
37.857796 828.06097 798.02271 4287069866
40.381653 829.99048 799.64972 4288448918
-16.770641 832.80316 798.09717 4286676375
38.572475 832.80316 798.09717 4289960645
-16.200611 835.42023 799.43182 4286610069
38.530273 835.44666 799.01813 4292986865
40.249542 835.36743 800.25928 4294767102
38.488075 838.0874 799.93677 4293384191
-15.844954 842.15698 799.44397 4286346644
37.805508 841.94452 799.26483 4289965272
-16.642202 845.49915 799.64587 4285557377
-14.977982 844.86304 799.1095 4286412692
37.444954 844.86304 799.1095 4288780231
-16.642202 846.77148 800.71875 4285294470
-14.944954 848.19818 799.30566 4285820815
37.085629 847.77509 798.94891 4287792567
39.941284 846.77148 800.71875 4293517800
-14.944954 849.46771 800.3761 4285294722
37.238533 851.60352 798.25281 4288385472
39.85321 849.46771 800.3761 4293056745
-16.550459 854.13416 800.3866 4285951373
-14.895412 852.86884 799.3197 4285491595
37.238533 852.86884 799.3197 4288451519
39.7211 853.50146 799.85315 4292530656
-16.513762 856.81488 800.03088 4285951119
-14.862386 855.55237 798.96631 4285753738
37.431194 855.97314 799.32111 4289043913
39.633026 856.81488 800.03088 4292003809
-14.829358 859.48999 799.67041 4285819533
37.073395 858.86023 799.13934 4288188349
39.544952 860.74969 800.73254 4291280600
-13.137614 862.8645 798.59167 4286147985
37.770641 862.8645 798.59167 4289965022
-13.944036 865.45129 799.46466 4286345624
37.168194 865.47559 799.04913 4287400633
39.412846 865.37549 800.70874 4290819788
-14.713761 869.4339 798.89856 4286148496
37.686237 868.03241 800.33301 4287333547
-14.713761 870.68378 799.95239 4286280336
37.601833 870.68378 799.95239 4287070377
-14.66422 874.65015 799.3728 4286214811
35.845871 874.02734 798.84766 4286082971
37.475231 875.27301 799.89795 4286739879
-16.293577 876.51868 800.94824 4285490570
-13.818348 877.28748 798.98041 4286280342
35.765137 876.66602 798.45642 4286279328
37.390827 877.90887 799.50439 4285819544
-13.389908 880.19238 799.46765 4286083734
35.684402 879.29913 798.06055 4286345889
37.306423 881.15918 799.62885 4285687703
-12.93211 885.7099 799.54181 4285821079
-11.289908 887.70685 798.6095 4286347422
35.482571 887.70685 798.6095 4286477738
37.690521 886.37555 799.23102 4285688476
-13.709174 889.5564 800.16901 4285952147
-11.26422 890.3161 798.19348 4286478238
35.401836 890.3161 798.19348 4286609842
37.901833 889.5564 800.16901 4285885601
-12.873395 892.16144 799.74939 4286017939
-11.26422 891.54633 799.23071 4286215574
35.401836 891.54633 799.23071 4286609838
37.011009 892.16144 799.74939 4285360026
-12.844037 896.60193 800.87756 4285821080
-11.238532 894.14709 798.80762 4286083732
34.785934 894.55621 799.15265 4286412453
37.461773 896.19281 800.53253 4285360281
-12.8 899.87262 799.71118 4285755285
34.400002 898.64941 798.67981 4286346661
36.799999 899.87262 799.71118 4285491867
-13.585321 901.77551 800.00763 4285885588
34.587154 901.6416 798.58667 4286149795
37.5578 901.77551 800.00763 4285491358
-12.770642 903.6756 800.30164 4286082453
35.038532 905.03217 798.82947 4286149539
37.471558 904.35388 799.56555 4285491611
-12.741284 906.85858 800.36945 4286147479
-11.122936 907.60352 798.38147 4286213272
34.957798 907.60352 798.38147 4286281890
37.406422 907.19629 800.00018 4285557912
39.816513 907.46741 800.88281 4290162396
-12.711926 910.03308 800.43005 4285950618
34.877064 911.38123 798.95068 4286281890
37.341286 910.03308 800.43005 4285689498
-12.682569 913.19922 800.48358 4286016659
-10.280734 913.9386 798.49097 4286148254
34.796329 913.9386 798.49097 4286478240
36.990826 913.40118 800.65387 4285689500
-12.653211 916.35699 800.53003 4286149016
-11.07156 915.75238 800.02026 4286082964
36.377983 916.35699 800.53003 4285690264
-11.033028 920.17401 799.8244 4286016667
34.675228 918.36658 798.30042 4286413730
36.251377 920.77649 800.3324 4286279582
-9.4348621 922.11066 798.84119 4286016926
33.808258 922.71173 799.34802 4286214302
-7.0596333 925.24377 798.86694 4285622423
-3.9220183 925.84344 799.37268 4285885336
0.78440368 925.24377 798.867 4285885084
29.284403 925.44366 799.03558 4285886366
31.376146 925.24377 798.867 4286016923
33.808258 924.51501 800.86853 4286149022
-7.0596333 927.04285 800.38391 4284703628
-3.9220183 927.04285 800.38391 4285426580
-1.5669725 928.30396 800.13922 4285820308
0.78440368 927.04285 800.38391 4285687711
3.9165137 927.70569 799.63477 4285820828
7.0431194 928.36853 798.88562 4285688990
10.173394 928.36853 798.88562 4285950879
13.30367 928.36853 798.88562 4285754783
16.472477 927.04285 800.38391 4286345891
19.56422 928.36853 798.88562 4285952166
22.694496 928.36853 798.88562 4286016924
25.885323 927.04285 800.38391 4285755287
29.022936 927.04285 800.38391 4285754783
-30.288073 750.71991 803.44446 4290292147
44.541283 750.71991 803.44446 4286281618
-28.418348 753.69458 802.0285 4289569196
-26.587156 755.90118 801.27307 4289371306
43.190212 754.43011 801.77667 4286216078
-28.359632 757.93384 802.98694 4289634743
-26.587156 757.25629 802.41565 4289436849
44.311928 757.25629 802.41565 4286280845
-26.504587 760.89447 801.5592 4289437364
44.174313 760.89447 801.5592 4286346894
-28.271559 762.92078 803.26764 4289634478
45.941284 763.59619 803.83716 4286280838
-29.06422 767.21759 802.96655 4289502889
-26.422018 765.87091 801.83105 4289568421
45.798164 767.21759 802.96655 4286609547
-26.339449 770.83051 802.08887 4289568167
45.655045 770.83051 802.08887 4286675090
-28.973394 772.17297 803.2207 4289503151
-25.408257 773.68103 801.87622 4289173925
45.559631 773.68103 801.87622 4286610319
-26.284403 775.02069 803.00574 4289305513
-25.619574 779.05914 802.48682 4288976803
45.416515 778.61401 802.11145 4286873235
-24.984711 782.33759 802.63495 4288779937
43.57798 781.4491 801.88586 4286806428
45.321102 782.11542 802.44769 4286938260
-24.326605 787.01965 802.65869 4288648866
43.440369 786.35541 802.09863 4287003553
45.177982 787.68384 803.21875 4286937744
-22.517431 789.92065 801.18079 4287398801
43.302753 790.58276 801.73901 4286872212
-24.249542 792.56909 803.41382 4288582824
41.482571 794.05469 802.05029 4287464090
43.302753 792.56909 803.41382 4287332504
-24.198166 795.3761 803.16455 4288844458
-22.398165 797.60034 801.11584 4287463061
40.488991 797.60034 801.11584 4287528856
43.21101 795.3761 803.16455 4287594134
-24.121101 800.23474 803.33704 4289042345
-22.398165 798.91754 802.22644 4287463059
41.35046 798.91754 802.22644 4287987102
43.93486 799.57617 802.78174 4287659164
-22.350458 802.36914 802.52069 4287331978
41.262386 801.71198 801.96655 4287857313
42.981651 802.36914 802.52069 4287529118
-22.278898 806.5481 802.12024 4287397493
41.130276 805.89301 801.56787 4287660703
42.844036 806.5481 802.12024 4287594393
-22.231194 809.32703 801.84729 4288120712
41.042202 809.32703 801.84729 4287529886
43.700916 807.85828 803.22485 4287529371
-22.231194 810.6344 802.94971 4288515467
42.752293 810.6344 802.94971 4287660438
-22.159634 814.78809 802.52789 4287924369
43.182873 815.00531 802.711 4287725721
-22.111927 818.20044 802.78906 4287531673
-20.411009 816.90009 801.69263 4287004053
43.373394 818.20044 802.78906 4287464088
-22.926605 820.59192 802.84338 4287859348
43.233028 821.68298 801.80127 4287463573
-23.154739 823.8952 802.79449 4287727765
43.13945 824.43109 801.50232 4287266195
45.776146 824.27527 803.98706 4287264910
-22.838531 826.37109 803.13812 4288187550
43.985321 825.72443 802.5929 4287264910
-21.921101 829.83191 802.13202 4287923858
-20.234863 829.83191 802.13202 4287070358
43.280121 829.617 801.95087 4289238687
-22.764221 831.76556 803.76245 4288121493
-19.069113 832.77753 801.99969 4287004045
40.381653 831.91998 801.27661 4292131780
42.656879 832.2973 802.4668 4293318367
-19.319267 835.57111 802.39307 4287266182
-16.770641 836.64954 801.34033 4286413199
40.249542 836.64954 801.34033 4294701055
42.06422 834.49268 803.4458 4294635263
-19.28624 838.57275 802.96191 4286740352
-16.733946 839.36676 801.01538 4285951369
41.044037 839.29028 802.25891 4293977849
-19.244038 841.28577 802.63348 4286675331
40.998165 841.28577 802.63348 4293912057
-18.90275 844.91968 801.77344 4286477703
40.029358 844.06964 801.05664 4293648885
-19.160549 847.33179 802.49927 4286806417
-16.642202 848.04376 801.7915 4285097087
