# .PCD v0.7 - Point Cloud Data file format
VERSION 0.7
FIELDS x y z rgb
SIZE 4 4 4 4
TYPE F F F U
COUNT 1 1 1 1
WIDTH 1155
HEIGHT 1
VIEWPOINT 0 0 0 1 0 0 0
POINTS 1155
DATA ascii
-33.908257 922.55432 1289.7266 4292396225
-31.647707 922.55432 1289.7266 4292396251
-29.387156 922.55432 1289.7266 4292396251
-33.770641 928.315 1288.0437 4292396251
-31.519266 928.315 1288.0437 4292133860
-28.1422 928.315 1288.0437 4291936219
-24.765137 928.315 1288.0437 4292001749
-20.262384 928.315 1288.0437 4291805138
24.765137 928.315 1288.0437 4287058516
27.016514 928.315 1288.0437 4286797132
-38.273396 930.03619 1289.4949 4292332247
-31.519266 930.03619 1289.4949 4291804888
-28.1422 930.03619 1289.4949 4292001748
-24.765137 930.03619 1289.4949 4292198608
-22.513762 930.03619 1289.4949 4291738318
-19.136696 930.03619 1289.4949 4291738317
-15.759633 930.03619 1289.4949 4291803852
-13.508257 930.03619 1289.4949 4291802569
24.765137 930.03619 1289.4949 4284691238
27.016514 930.03619 1289.4949 4284364837
-11.220183 934.44739 1287.9822 4291738572
-7.8541284 934.44739 1287.9822 4291145682
-4.4880733 934.44739 1287.9822 4290554569
-2.2440367 935.30518 1288.7056 4289830594
1.1220183 934.44739 1287.9822 4288843926
4.4880733 934.44739 1287.9822 4288776335
7.8541284 933.58954 1287.2589 4285486423
11.220183 933.58954 1287.2589 4283709753
13.46422 933.58954 1287.2589 4284169280
15.708257 933.58954 1287.2589 4284301122
-66.484406 754.83624 1292.1943 4292529118
-64.022018 754.83624 1292.1943 4292068567
-63.783485 761.34033 1291.1383 4292199642
-66.236694 763.21582 1292.7196 4292332256
-64.766968 767.81641 1290.0586 4292200413
-61.100918 767.81641 1290.0586 4292134364
-68.433029 769.68494 1291.634 4292069337
-65.988991 769.68494 1291.634 4292135130
-64.523857 776.12592 1290.5248 4292134617
-60.871559 776.12592 1290.5248 4292134364
-65.741287 777.98743 1292.0944 4292332506
-63.020184 784.92993 1290.1 4291871703
-60.596329 784.92993 1290.1 4291937753
33.933945 784.92993 1290.1 4291013319
-63.020184 786.78302 1291.6624 4291804884
-60.596329 786.78302 1291.6624 4292068055
-61.976757 793.76642 1291.0104 4291870677
-57.952293 793.15112 1290.4916 4291607766
31.390825 793.15112 1290.4916 4293647592
33.805504 794.0741 1291.2698 4293252834
-60.137615 802.24963 1291.6232 4291606752
-57.732109 802.24963 1291.6232 4291476177
-55.326607 802.24963 1291.6232 4291607763
-52.921101 801.33008 1290.8479 4291278038
31.271559 802.24963 1291.6232 4292923879
-76.682571 809.46704 1291.1686 4291475662
-58.710091 809.46704 1291.1686 4291410898
-55.115597 809.46704 1291.1686 4291345361
-52.719265 809.46704 1291.1686 4291016397
-58.710091 811.29907 1292.7133 4291344083
31.152294 811.29907 1292.7133 4283445061
-57.291744 817.56201 1291.4539 4291277520
31.033028 817.56201 1291.4539 4290618561
-62.066055 819.38696 1292.9927 4291277268
-59.678898 819.38696 1292.9927 4291408854
31.033028 819.38696 1292.9927 4284440415
-58.305504 823.27979 1291.0428 4291080154
-54.735779 823.27979 1291.0428 4290882008
30.937614 823.27979 1291.0428 4284308046
-61.875229 825.09918 1292.5769 4291212758
-58.305504 825.09918 1292.5769 4291014869
33.317432 825.09918 1292.5769 4292070132
-55.710091 832.20795 1292.0306 4290553809
-52.154129 832.20795 1292.0306 4290619593
28.447706 831.30176 1291.2666 4291676639
30.818348 832.20795 1292.0306 4292925160
34.374313 833.11414 1292.7947 4289900518
-54.313763 839.28162 1291.4548 4291147203
-51.952293 839.28162 1291.4548 4290554314
-49.590824 839.28162 1291.4548 4290356936
-47.229359 839.28162 1291.4548 4290357186
-44.867889 839.28162 1291.4548 4290291393
28.337614 839.28162 1291.4548 4289238956
30.699083 839.28162 1291.4548 4287857303
34.241287 839.28162 1291.4548 4286082133
-54.313763 841.08698 1292.9771 4290686655
-51.952293 841.08698 1292.9771 4290291656
30.699083 841.08698 1292.9771 4287400085
34.241287 841.08698 1292.9771 4290158732
-51.750458 845.42102 1290.0913 4290160838
-49.398167 845.42102 1290.0913 4290095045
-44.693577 845.42102 1290.0913 4290554814
25.875229 845.42102 1290.0913 4288188613
28.227524 845.42102 1290.0913 4289108650
-54.102753 847.21942 1291.6075 4290425532
-51.750458 847.21942 1291.6075 4290226631
28.227524 847.21942 1291.6075 4292199112
-56.234863 853.32373 1290.2145 4289831357
-53.891743 853.32373 1290.2145 4290291908
25.774311 853.32373 1290.2145 4292067020
28.117432 853.32373 1290.2145 4291739593
30.46055 853.32373 1290.2145 4291739593
-58.57798 855.11505 1291.7249 4290752709
-56.234863 855.11505 1291.7249 4290095308
28.117432 855.11505 1291.7249 4291738824
-58.394497 860.68701 1291.1909 4290357703
-56.058716 860.68701 1291.1909 4290160597
-52.555046 860.68701 1291.1909 4290357965
-49.051376 860.68701 1291.1909 4289963195
25.693579 860.68701 1291.1909 4291540957
28.029358 860.68701 1291.1909 4291541196
-58.394497 862.47278 1292.6965 4290357188
-56.058716 862.47278 1292.6965 4290225609
-52.555046 862.47278 1292.6965 4290160069
-49.051376 862.47278 1292.6965 4290028736
28.029358 862.47278 1292.6965 4291475914
30.365137 862.47278 1292.6965 4291344585
-51.185322 868.50977 1291.2467 4290225600
-48.858715 868.50977 1291.2467 4290094013
-46.532108 868.50977 1291.2467 4289831096
-44.205505 868.50977 1291.2467 4289896889
-41.878899 868.50977 1291.2467 4289896889
27.919266 868.50977 1291.2467 4291278021
30.245872 868.50977 1291.2467 4291146692
-51.185322 870.28845 1292.7465 4290094013
-48.858715 870.28845 1292.7465 4290028220
-46.532108 870.28845 1292.7465 4289831355
-44.205505 870.28845 1292.7465 4289831355
27.919266 870.28845 1292.7465 4291147201
30.245872 870.28845 1292.7465 4291213251
-48.666054 877.17627 1292.0139 4289896882
-46.348625 877.17627 1292.0139 4289700022
27.809174 877.17627 1292.0139 4291145919
30.126606 878.06213 1292.7609 4291079360
34.761467 878.06213 1292.7609 4291145920
-43.891743 881.77826 1290.6621 4289305529
25.411009 881.77826 1290.6621 4291341764
27.721102 883.54431 1292.1511 4291407300
31.186239 883.54431 1292.1511 4291341247
34.651375 883.54431 1292.1511 4291340986
-46.018349 889.48596 1290.6208 4289306046
-43.71743 889.48596 1290.6208 4289371840
-41.416515 889.48596 1290.6208 4289106864
27.61101 889.48596 1290.6208 4289295746
-48.319267 891.245 1292.104 4289304759
-46.018349 891.245 1292.104 4289305529
-43.71743 891.245 1292.104 4289568701
27.61101 891.245 1292.104 4288373360
36.814678 891.245 1292.104 4288175212
39.115597 891.245 1292.104 4288372847
-48.126606 898.90363 1292.0215 4289436860
-43.543118 898.02759 1291.2828 4289172666
-41.251377 898.02759 1291.2828 4289303983
-37.431805 897.7356 1291.0366 4289106852
25.209175 898.02759 1291.2828 4288703604
27.500917 898.90363 1292.0215 4288307302
-36.550457 904.3017 1291.3408 4289171363
-34.266056 904.3017 1291.3408 4289237156
25.128441 904.3017 1291.3408 4288307565
38.834862 904.3017 1291.3408 4287779663
-37.692657 906.04816 1292.8134 4289171629
25.128441 906.04816 1292.8134 4288439154
27.412844 906.04816 1292.8134 4288108907
31.981651 906.04816 1292.8134 4287846499
34.266056 906.04816 1292.8134 4287846499
36.550457 906.04816 1292.8134 4287715163
-40.954128 911.88733 1291.1967 4288974763
-37.541283 911.88733 1291.1967 4288843434
22.752293 911.88733 1291.1967 4288636767
25.027523 911.88733 1291.1967 4288373851
38.678898 911.88733 1291.1967 4287323235
40.954128 911.88733 1291.1967 4287192141
-45.504585 913.62671 1292.6633 4288645537
-43.229359 913.62671 1292.6633 4288842915
-40.954128 913.62671 1292.6633 4288842913
-37.541283 913.62671 1292.6633 4288909218
25.027523 913.62671 1292.6633 4287648854
38.678898 913.62671 1292.6633 4285679693
40.954128 913.62671 1292.6633 4285546537
-47.625687 917.23206 1290.4711 4289173150
-43.089909 917.23206 1290.4711 4289171363
-40.822018 917.23206 1290.4711 4289368228
-37.420181 917.23206 1290.4711 4289566114
-34.018349 917.23206 1290.4711 4289500829
22.6789 917.23206 1290.4711 4287782251
-52.161469 918.96588 1291.933 4288515749
-49.893578 918.96588 1291.933 4288778896
-46.491745 918.96588 1291.933 4288975256
-43.089909 918.96588 1291.933 4289369250
-40.822018 918.96588 1291.933 4290551460
-37.420181 918.96588 1291.933 4290815147
24.946789 918.96588 1291.933 4288640891
38.554127 918.96588 1291.933 4288838775
40.822018 918.96588 1291.933 4288970097
-47.471561 926.01074 1292.6409 4293054167
-42.950459 925.14661 1291.9124 4292330960
-40.689907 925.14661 1291.9124 4292396497
-37.299084 925.14661 1291.9122 4292527830
-33.908257 924.28253 1291.1837 4292527060
-27.016514 931.75739 1290.9462 4292001229
-22.513762 931.75739 1290.9462 4291738318
-19.136696 931.75739 1290.9462 4291738063
-15.759633 931.75739 1290.9462 4291672014
-13.508257 931.75739 1290.9462 4291738059
19.136696 931.75739 1290.9462 4284166204
22.513762 931.75739 1290.9462 4284233001
24.765137 931.75739 1290.9462 4284693552
27.016514 931.75739 1290.9462 4284168235
-24.765137 933.47858 1292.3975 4291410893
-22.513762 933.47858 1292.3975 4291409610
-19.136696 933.47858 1292.3975 4291607247
-15.759633 933.47858 1292.3975 4291475662
-13.508257 933.47858 1292.3975 4291541961
6.7541285 933.47858 1292.3975 4286408047
10.131193 933.47858 1292.3975 4283711047
-67.305199 757.97382 1294.8397 4292265438
-64.022018 756.71875 1293.7816 4292396505
-71.14312 766.9668 1295.8823 4292200155
-68.689911 765.09131 1294.301 4292135132
-68.433029 772.48767 1293.9972 4292003285
-68.176147 779.84888 1293.6639 4292069850
-65.741287 779.84888 1293.6639 4292069850
-68.176147 781.71033 1295.2334 4292003544
-65.741287 781.71033 1295.2334 4292003544
-65.444038 788.63611 1293.2249 4292264915
-67.867889 790.48914 1294.7874 4292198862
-65.444038 790.48914 1294.7874 4292198862
-62.781651 796.8432 1293.6047 4291344085
36.220184 796.8432 1293.6047 4293646056
-67.611008 798.68921 1295.1613 4292000727
-65.196327 798.68921 1295.1613 4292066520
-62.781651 798.68921 1295.1613 4291606247
33.805504 798.68921 1295.1613 4293253356
-73.768806 806.23419 1294.9829 4291870168
-67.354126 806.84717 1295.4998 4291475412
-64.948624 806.84717 1295.4998 4291673048
-61.741283 805.62115 1294.4659 4291475923
31.271559 805.92767 1294.7244 4284965744
33.677063 806.84717 1295.4998 4280427083
-64.70092 814.96313 1295.8027 4291607505
-62.304588 814.04712 1295.0303 4291344334
-59.109478 813.74176 1294.7728 4291475921
33.548622 814.96313 1295.8027 4290816621
-62.066055 821.21198 1294.5314 4291278299
33.420185 821.21198 1294.5314 4285029014
-61.875229 826.91858 1294.111 4291147213
-58.305504 826.91858 1294.111 4290883792
34.507339 826.91858 1294.111 4292070120
-61.875229 828.73798 1295.645 4290884556
-59.495415 828.73798 1295.645 4290884556
34.507339 828.73798 1295.645 4290625262
-59.266056 835.8327 1295.0869 4290752718
-56.105198 835.53058 1294.8322 4290686151
34.374313 834.92651 1294.3229 4286020519
-59.036697 842.89233 1294.4993 4290619853
-55.494495 842.89233 1294.4993 4290555316
30.699083 842.89233 1294.4993 4290424509
-61.159634 850.8161 1294.6403 4290291647
-58.807339 849.91693 1293.8821 4290423239
-56.455048 849.01776 1293.1239 4290424257
28.227524 849.01776 1293.1239 4292330960
30.579817 849.01776 1293.1239 4292265167
-63.264221 856.90637 1293.2354 4290554812
-60.921101 856.90637 1293.2354 4290490055
-58.57798 856.90637 1293.2354 4290424261
30.46055 856.90637 1293.2354 4291540678
-63.264221 858.69775 1294.7457 4290686149
-60.921101 858.69775 1294.7457 4290357703
30.46055 858.69775 1294.7457 4291804368
-58.394497 865.15137 1294.9551 4290226371
-56.058716 865.15137 1294.9551 4290027974
-52.94434 864.8537 1294.7042 4290094277
32.700916 866.04419 1295.708 4291015102
35.036697 866.04419 1295.708 4291344067
-52.348625 872.06714 1294.2462 4289897151
-48.858715 872.06714 1294.2462 4289831355
-46.532108 872.06714 1294.2462 4289897400
30.245872 872.06714 1294.2462 4291147201
-52.348625 873.84589 1295.746 4289962681
31.409174 873.84589 1295.746 4291081149
34.899082 873.84589 1295.746 4290949307
-48.666054 880.71967 1295.0016 4289897132
-46.348625 880.71967 1295.0016 4289371579
27.809174 879.8338 1294.2546 4291210178
31.285322 879.8338 1294.2546 4291210435
34.761467 879.8338 1294.2546 4291474120
-48.511925 887.07654 1295.1294 4289700541
27.721102 885.31042 1293.6403 4291734727
30.801224 886.48779 1294.6329 4289429132
34.651375 886.19348 1294.3848 4289035634
36.961468 886.19348 1294.3848 4289099138
-48.319267 893.00409 1293.5872 4289500605
-46.018349 893.00409 1293.5872 4289501111
-43.71743 893.00409 1293.5872 4289435062
28.761467 893.00409 1293.5872 4288374115
36.814678 893.00409 1293.5872 4288438118
40.266056 893.00409 1293.5872 4288110182
-49.469727 894.76312 1295.0704 4289632963
-46.018349 894.76312 1295.0704 4289303996
28.761467 894.76312 1295.0704 4288241773
40.266056 894.76312 1295.0704 4287978603
43.71743 894.76312 1295.0704 4287913326
-52.710091 902.40771 1294.9761 4289305013
-49.272476 901.53168 1294.2374 4289238962
-45.834862 901.53168 1294.2374 4289040563
-43.543118 901.53168 1294.2374 4289106357
-41.251377 901.53168 1294.2374 4289237674
-38.195717 901.23969 1293.9912 4289171880
28.64679 901.53174 1294.2374 4288241507
32.084404 902.40771 1294.9761 4288241248
34.376148 902.40771 1294.9761 4287977819
37.813759 901.53168 1294.2374 4288108883
41.251377 900.65564 1293.4988 4287517548
43.543118 900.65564 1293.4988 4288175734
-46.830276 907.79456 1294.2859 4289041842
-43.403671 907.79456 1294.2859 4289106866
-41.119267 907.79456 1294.2859 4288908971
-38.834862 907.79456 1294.2859 4288974765
25.128441 907.79456 1294.2859 4288438888
28.555046 907.79456 1294.2859 4288043864
31.981651 907.79456 1294.2859 4287847005
34.266056 907.79456 1294.2859 4287912798
36.550457 907.79456 1294.2859 4287717211
-46.830276 909.54102 1295.7584 4288975536
-43.403671 909.54102 1295.7584 4289238201
27.412844 909.54102 1295.7584 4287781708
31.981651 909.54102 1295.7584 4287520089
34.266056 909.54102 1295.7584 4287585882
36.550457 909.54102 1295.7584 4287323235
-55.743118 916.23584 1294.8633 4288713391
-52.330276 915.36621 1294.13 4288910255
-50.055046 915.36621 1294.13 4289173150
-45.504585 915.36621 1294.13 4289237156
25.027523 915.36621 1294.13 4287321956
28.061163 916.52582 1295.1078 4287853173
31.85321 916.2359 1294.8633 4287916409
34.128441 916.2359 1294.8633 4287719286
37.162079 915.94598 1294.6189 4287718517
40.954128 915.36621 1294.13 4287323741
43.229359 915.36621 1294.13 4287323741
-54.429359 920.69971 1293.3949 4289303205
-52.161469 920.69971 1293.3949 4289237156
-46.491745 920.69971 1293.3949 4290553012
-43.089909 920.69971 1293.3949 4291408072
-38.554127 920.69971 1293.3949 4291868851
24.946789 920.69971 1293.3949 4289034353
29.482569 920.69971 1293.3949 4288772452
-55.563301 922.43353 1294.8568 4291013314
-52.161469 922.43353 1294.8568 4291999432
-49.893578 922.43353 1294.8568 4291868601
-46.491745 922.43353 1294.8568 4292461258
27.21468 922.43353 1294.8568 4287781708
-51.992661 927.73895 1294.0981 4292396242
-46.341286 928.60303 1294.8267 4291937235
-42.950459 928.60303 1294.8267 4291805650
-40.689907 928.60303 1294.8267 4291937234
-36.922325 928.89111 1295.0696 4291937747
-33.908257 928.60303 1294.8267 4291937746
-31.647707 929.46716 1295.5553 4291739606
-29.387156 929.46716 1295.5553 4291739606
-24.866055 929.46716 1295.5553 4292198608
29.387156 928.60303 1294.8267 4284167975
-22.513762 935.19983 1293.8488 4291475664
-19.136696 935.19983 1293.8488 4291541455
-15.759633 935.19983 1293.8488 4291409610
-13.508257 935.19983 1293.8488 4291475905
-10.131193 935.19983 1293.8488 4291344069
-6.7541285 935.19983 1293.8488 4291343563
-4.5027523 935.19983 1293.8488 4291014611
-2.2513762 935.19983 1293.8488 4290488267
1.1256881 935.19983 1293.8488 4289896076
-68.946793 760.48376 1296.9562 4292135134
-71.409172 762.36627 1298.5435 4292069341
-73.596329 768.84229 1297.4637 4292134362
-71.14312 768.84229 1297.4637 4292265948
-70.877068 775.29034 1296.3604 4292003292
-68.433029 775.29034 1296.3604 4292069591
-78.209175 777.15887 1297.9358 4291938266
-75.765137 777.15887 1297.9358 4291938266
-73.321098 777.15887 1297.9358 4292003807
-70.877068 777.15887 1297.9358 4292069600
-75.480736 785.43329 1298.3726 4291936217
-73.045868 785.43329 1298.3726 4292067802
-70.611008 784.50256 1297.5878 4292134108
-68.176147 784.50256 1297.5878 4292133076
-65.741287 783.57184 1296.803 4292001749
-75.13945 794.19525 1297.9122 4291871694
-70.29174 794.19525 1297.9122 4291936215
-67.867889 793.26868 1297.131 4291870155
-65.444038 793.26868 1297.131 4292001484
-74.855049 800.53528 1296.7178 4292066518
-67.611008 800.53528 1296.7178 4292000727
-62.781651 800.53528 1296.7178 4291541209
33.805504 800.53528 1296.7178 4290098127
-72.440369 802.38135 1298.2743 4291869657
-70.025688 802.38135 1298.2743 4291869657
-67.611008 802.38135 1298.2743 4291606741
-65.196327 802.38135 1298.2743 4291540692
33.805504 802.38135 1298.2743 4287859382
-74.570641 808.68622 1297.0503 4291607241
-67.354126 808.68622 1297.0503 4291541457
-64.948624 808.68622 1297.0503 4291673300
-62.543118 808.68622 1297.0503 4291475664
33.677063 808.68622 1297.0503 4284230982
-74.570641 810.52527 1298.601 4291476168
-67.354126 810.52527 1298.601 4291475664
-64.948624 810.52527 1298.601 4291541457
33.677063 810.52527 1298.601 4289759879
-67.097244 817.71118 1298.1198 4291212237
-64.70092 817.71118 1298.1198 4291278030
33.548622 816.79517 1297.3474 4284572278
-64.453209 823.94946 1296.8396 4291146948
-61.875229 830.55737 1297.1791 4290687949
-59.495415 830.55737 1297.1791 4290819536
-61.875229 832.37677 1298.7131 4290489801
-59.266056 838.55127 1297.3792 4290619844
-56.895412 838.55127 1297.3792 4290554812
-67.563309 840.36365 1298.9072 4290883274
-64.007339 840.36365 1298.9072 4290882760
-61.636696 840.36365 1298.9072 4290356938
34.374313 840.36365 1298.9072 4291936163
-61.398167 844.69769 1296.0215 4290357188
-59.036697 844.69769 1296.0215 4290686153
-56.675228 844.69769 1296.0215 4290425532
30.699083 844.69769 1296.0215 4292330699
33.060551 844.69769 1296.0215 4292199892
-66.121101 846.50305 1297.5438 4290686151
-63.759632 846.50305 1297.5438 4290554564
-61.398167 846.50305 1297.5438 4290357451
33.060551 846.50305 1297.5438 4292067804
-65.080116 853.21387 1296.662 4290357685
-61.159634 852.61444 1296.1565 4290555587
30.579817 852.61444 1296.1565 4291541446
-63.264221 860.48901 1296.2561 4290357438
-60.921101 860.48901 1296.2561 4290093759
32.803669 860.48901 1296.2561 4291279044
-63.264221 862.2804 1297.7666 4290028988
-60.921101 862.2804 1297.7666 4289896898
32.803669 862.2804 1297.7666 4291212997
35.14679 862.2804 1297.7666 4291278790
-60.730274 868.72278 1297.9664 4290160312
-58.394497 868.72278 1297.9664 4290357434
-56.058716 868.72278 1297.9664 4290159816
-53.722935 867.82996 1297.2136 4290225098
32.700916 868.72278 1297.9664 4291146687
35.036697 868.72278 1297.9664 4291409858
-55.838531 875.62457 1297.2457 4290094261
-52.348625 875.62457 1297.2457 4290028721
32.572475 875.62457 1297.2457 4291145920
-74.451378 877.40332 1298.7455 4289963195
-58.165138 877.40332 1298.7455 4290094265
-55.838531 877.40332 1298.7455 4290028468
-52.348625 877.40332 1298.7455 4289962670
-49.824768 883.3772 1297.2424 4289765562
32.444038 883.3772 1297.2424 4291274385
-55.618347 885.14893 1298.7362 4289700537
-53.300919 885.14893 1298.7362 4289700537
-50.983486 885.14893 1298.7362 4289700541
-50.822018 889.72559 1297.363 4289501371
31.571253 889.43134 1297.1149 4287978342
34.651375 889.72559 1297.363 4288044133
-52.921101 896.52222 1296.5536 4289305529
-50.620182 896.52222 1296.5536 4289502653
-46.018349 896.52222 1296.5536 4289107385
29.911926 896.52222 1296.5536 4288307302
39.115597 896.52222 1296.5536 4288241761
-58.673393 898.28125 1298.0369 4289371571
-55.222019 898.28125 1298.0369 4289370556
-52.921101 898.28125 1298.0369 4289502142
32.212845 898.28125 1298.0369 4287979102
34.51376 898.28125 1298.0369 4288044896
36.814678 898.28125 1298.0369 4288306772
-61.877064 905.91187 1297.9307 4289303996
-58.057495 905.32782 1297.4382 4289566896
-55.001835 905.03583 1297.192 4289238450
-52.710091 905.03583 1297.192 4289436086
-49.654434 904.74384 1296.9458 4289173427
-45.834862 904.15979 1296.4534 4288975031
-43.543118 904.15979 1296.4534 4288909238
-41.251377 904.15979 1296.4534 4289039793
29.79266 904.15979 1296.4534 4288043114
-57.110092 911.28748 1297.231 4289108150
-54.825687 911.28748 1297.231 4288910253
-52.541283 911.28748 1297.231 4288910253
-50.256882 911.28748 1297.231 4288975015
28.555046 911.28748 1297.231 4287255118
31.981651 911.28748 1297.231 4287124059
34.266056 911.28748 1297.231 4286795094
36.550457 911.28748 1297.231 4285811279
-59.394497 913.03394 1298.7036 4288845495
29.697248 913.03394 1298.7036 4287587188
-56.880733 918.84503 1297.0632 4288909740
-50.055046 918.84503 1297.0632 4289368730
28.440367 919.71472 1297.7966 4288244312
31.85321 919.71472 1297.7966 4288112976
34.128441 918.84503 1297.0632 4287851339
37.541283 918.84503 1297.0632 4288243778
-58.965137 925.90118 1297.7806 4292528858
-55.563305 925.03424 1297.0497 4292199121
-52.161469 924.16736 1296.3187 4292593355
-49.893578 925.0343 1297.0497 4292331218
-45.3578 924.16736 1296.3187 4292462800
31.750458 925.0343 1297.0497 4285482289
-49.732109 932.05945 1297.7411 4292331219
-46.341286 932.05951 1297.7411 4292002515
-42.950459 932.05945 1297.7411 4291673811
-40.689907 932.05945 1297.7411 4291870930
-37.299084 932.05945 1297.7411 4291805134
-33.908257 932.05945 1297.7411 4291936462
-31.647707 932.05945 1297.7411 4291739595
-28.256882 932.05945 1297.7411 4291871185
-24.866055 932.92358 1298.4697 4291541457
4.521101 932.92358 1298.4697 4289695380
6.7816515 932.92358 1298.4697 4287129454
10.172478 932.92358 1298.4697 4283774554
13.563303 932.05945 1297.7411 4283314749
15.823853 932.05945 1297.7411 4283775043
19.21468 931.19537 1297.0125 4283444796
-71.675232 755.86212 1299.5995 4292265707
-74.14679 757.75165 1301.1926 4292266211
-71.675232 757.75165 1301.1926 4292069089
-73.871559 764.24878 1300.1307 4292200155
-73.596329 770.71783 1299.0452 4292068569
-71.14312 770.71783 1299.0452 4292134362
-78.502754 772.59332 1300.6265 4291937753
-76.049538 772.59332 1300.6265 4292069339
-73.596329 772.59332 1300.6265 4292069341
-78.209175 779.02734 1299.5114 4292003292
-75.765137 779.02734 1299.5114 4292069341
-73.321098 779.02734 1299.5114 4291937501
-70.877068 779.02734 1299.5114 4291937501
-78.209175 780.89581 1301.0868 4292068569
-75.765137 780.89581 1301.0868 4292068569
-73.321098 780.89581 1301.0868 4292068315
-75.480736 787.2948 1299.942 4292002512
-73.045868 787.2948 1299.942 4292132311
-70.611008 787.2948 1299.942 4292198360
-75.480736 789.15625 1301.5116 4292266187
-73.045868 789.15625 1301.5116 4292001749
-70.611008 789.15625 1301.5116 4291869907
-75.13945 796.04828 1299.4746 4292067804
-72.715599 796.97485 1300.2559 4292000985
-70.29174 796.97485 1300.2559 4292000985
-65.444038 797.90137 1301.0371 4291869398
-72.440369 806.07336 1301.3873 4291607505
-70.025688 805.15039 1300.6091 4291738579
-74.570641 812.36426 1300.1516 4291344335
-69.759636 812.36426 1300.1516 4291475666
-67.354126 812.36426 1300.1516 4291344333
-73.367889 814.20331 1301.7021 4291079885
-69.759636 814.20331 1301.7021 4291408593
-69.493576 820.45917 1300.4368 4291409106
-67.097244 820.45917 1300.4368 4291146952
-69.493576 822.2912 1301.9814 4291278038
-67.097244 822.2912 1301.9814 4291081408
-66.84037 826.68701 1299.1478 4291016647
-64.453209 826.68701 1299.1478 4291016647
-69.227524 828.51196 1300.6866 4291145938
-66.84037 828.51196 1300.6866 4290950853
-64.453209 828.51196 1300.6866 4290950853
-69.014679 836.0155 1301.7812 4291014600
-66.634865 835.10583 1301.0142 4290883784
-64.255043 835.10583 1301.0142 4290883527
-61.875229 835.10583 1301.0142 4290488519
-71.119263 842.17603 1300.4354 4290291645
-67.563309 842.17603 1300.4354 4290751942
-64.007339 842.17603 1300.4354 4290554564
35.559631 842.17603 1300.4354 4291673548
-78.231194 843.9884 1301.9636 4290752961
-75.86055 843.9884 1301.9636 4290818491
-73.489906 843.9884 1301.9636 4290621111
-71.119263 843.9884 1301.9636 4290620859
-68.748627 843.9884 1301.9636 4291147203
35.559631 843.9884 1301.9636 4291673046
-67.301834 848.30841 1299.066 4290620863
-63.759632 848.30841 1299.066 4290357951
33.060551 848.30841 1299.066 4291607251
-68.482567 850.11377 1300.5883 4290752194
33.060551 850.11377 1300.5883 4291541448
-65.86422 856.21118 1299.1892 4290554562
32.93211 856.21118 1299.1892 4291541696
-65.86422 858.00952 1300.7056 4290620609
-64.045258 865.26593 1300.2839 4290423228
-60.921101 864.07172 1299.277 4289897400
-63.066055 871.40137 1300.225 4290094013
-60.730274 871.40137 1300.225 4290028468
-58.394497 871.40137 1300.225 4290028468
-56.058716 871.40137 1300.225 4290094265
-74.744957 873.18713 1301.7306 4289963445
-67.737617 873.18713 1301.7306 4290094784
-64.233948 873.18713 1301.7306 4290028990
-60.730274 873.18713 1301.7306 4290160056
-58.394497 873.18713 1301.7306 4290160056
-74.451378 880.07135 1300.9951 4290028729
-65.144951 880.96069 1301.745 4289897402
-60.491745 880.07135 1300.9951 4289832121
-58.165138 880.07135 1300.9951 4290029500
-55.838531 880.07135 1300.9951 4289633974
-52.736389 879.7749 1300.7451 4289568434
-57.93578 886.92059 1300.2301 4289830594
-55.618347 886.92059 1300.2301 4289765553
-53.300919 886.92059 1300.2301 4289699503
-57.93578 888.69226 1301.7239 4289896103
-55.618347 888.69226 1301.7239 4289567667
-53.300919 888.69226 1301.7239 4289370545
-55.442204 892.37476 1299.5967 4289567165
-53.132111 892.37476 1299.5967 4289370043
32.341286 892.37476 1299.5967 4287912555
34.651375 892.37476 1299.5967 4288438900
36.961468 892.37476 1299.5967 4288307052
-57.752293 894.14087 1301.0858 4289306283
-55.442204 894.14087 1301.0858 4289305529
32.341286 894.14087 1301.0858 4287913309
34.651375 894.14087 1301.0858 4288110945
36.961468 894.14087 1301.0858 4288373347
41.58165 894.14087 1301.0858 4287255132
43.891743 894.14087 1301.0858 4287912805
-73.629356 901.79944 1301.0032 4289567156
-71.328438 901.79944 1301.0032 4289567156
-66.726608 901.79944 1301.0032 4289698740
-64.42569 901.79944 1301.0032 4289435332
-62.124771 900.91992 1300.2616 4289501633
-59.056881 900.62671 1300.0144 4289437106
-55.222019 900.04034 1299.52 4289173684
-75.627525 907.66394 1299.408 4289369539
-61.877064 907.66394 1299.408 4289698752
-58.439449 907.66394 1299.408 4289567667
-55.001835 907.66394 1299.408 4289370293
-52.710091 907.66394 1299.408 4289699257
-50.41835 907.66394 1299.408 4289304496
29.79266 907.66394 1299.408 4288176466
-64.168808 909.41602 1300.8851 4289172911
-61.877064 909.41602 1300.8851 4289436084
-59.58532 909.41602 1300.8851 4289437114
-59.394497 916.52679 1301.6487 4288778153
-59.155964 922.32391 1299.9966 4291804116
29.577982 922.32391 1299.9966 4286797132
34.128441 922.32391 1299.9966 4286731588
34.128441 924.06335 1301.4633 4284495905
-61.233028 929.36877 1300.7045 4292525013
-58.965137 927.63501 1299.2426 4292265157
-55.563305 928.50183 1299.9735 4292199371
-52.161469 928.50189 1299.9735 4292331726
-49.893578 927.63501 1299.2426 4292200405
22.6789 929.36877 1300.7045 4283444015
24.946789 929.36877 1300.7045 4283838772
28.348625 929.36877 1300.7045 4283510577
31.750458 928.50189 1299.9735 4283706152
34.018349 928.50189 1299.9735 4283574823
-49.732109 934.65179 1299.9269 4292000977
-46.341286 934.65179 1299.9269 4291935441
-42.950459 934.65179 1299.9269 4292067540
-40.689907 934.65179 1299.9269 4291541457
-37.299084 934.65179 1299.9269 4291606989
-33.908257 934.65179 1299.9269 4291803850
-31.647707 934.65179 1299.9269 4291738057
-28.256882 934.65179 1299.9269 4291540681
-24.866055 934.65179 1299.9269 4291409097
-22.605505 934.65179 1299.9269 4291277772
-19.21468 934.65179 1299.9269 4291277260
-15.823853 934.65179 1299.9269 4291211211
-13.563303 934.65179 1299.9269 4291539915
-10.172478 934.65179 1299.9269 4291277253
-6.7816515 934.65179 1299.9269 4291145920
-4.521101 934.65179 1299.9269 4291146952
-2.2605505 934.65179 1299.9269 4291146952
-49.732109 936.38 1301.384 4291870161
-46.341286 936.38 1301.384 4291935954
-42.950459 936.38 1301.384 4292462298
-40.689907 936.38 1301.384 4291607255
-37.299084 936.38 1301.384 4291606992
-33.908257 936.38 1301.384 4291804366
-47.124771 950.74536 1301.7244 4283185276
-74.14679 759.64117 1302.7859 4292135134
-76.333946 768.01379 1303.3053 4292134614
-78.209175 782.76428 1302.6622 4292002010
-73.045868 791.0177 1303.0812 4292002008
-77.269722 808.84247 1303.7222 4291344331
-72.440369 808.84247 1303.7222 4291344336
-70.025688 807.91943 1302.9438 4291475664
-76.976151 817.88135 1304.8035 4291342548
-73.367889 816.96185 1304.0281 4291277267
-69.759636 816.04236 1303.2528 4291540696
-74.28624 824.12317 1303.5262 4291147215
-70.691742 824.12317 1303.5262 4291146447
-69.227524 830.33698 1302.2253 4291212495
-66.84037 830.33698 1302.2253 4290688199
-64.453209 830.33698 1302.2253 4290622406
-70.421097 832.16199 1303.7642 4291278803
-73.774315 839.6543 1304.8494 4290752959
-71.394493 837.8349 1303.3153 4290686666
-73.489906 845.80078 1303.4917 4290752446
-71.119263 845.80078 1303.4917 4290686652
35.559631 845.80078 1303.4917 4291607251
-70.84404 851.91919 1302.1105 4290422463
-68.482567 851.91919 1302.1105 4290554049
33.060551 851.91919 1302.1105 4291540928
-70.84404 853.72449 1303.6327 4290488267
-68.482567 853.72449 1303.6327 4290619853
-65.86422 859.80786 1302.2218 4290292160
-68.216515 861.6062 1303.7382 4290357451
-65.86422 861.6062 1303.7382 4290357953
-73.808258 869.44574 1303.8081 4290094767
-70.293579 869.44574 1303.8081 4290159806
-67.950462 868.55005 1303.053 4290159550
-64.826294 868.25153 1302.8011 4290094010
-72.409172 874.97284 1303.2363 4290094782
-70.073395 874.97284 1303.2363 4290160058
-67.737617 874.97284 1303.2363 4290225852
-64.233948 874.97284 1303.2363 4289963195
-60.730274 874.97284 1303.2363 4290094265
-72.409172 876.75854 1304.7419 4290028986
-70.073395 876.75854 1304.7419 4290028988
-67.737617 876.75854 1304.7419 4289963195
-64.233948 876.75854 1304.7419 4289831609
-69.798164 884.51813 1304.7445 4289897400
-67.471558 884.51813 1304.7445 4289568691
-65.144951 883.62878 1303.9946 4289897400
-61.655045 883.62872 1303.9946 4289436852
-58.165138 882.73938 1303.2448 4289765814
-60.253212 890.46399 1303.2178 4289371043
-57.93578 890.46399 1303.2178 4290028972
-74.157799 892.23566 1304.7117 4289436599
-71.84037 892.23566 1304.7117 4289436599
-67.205505 892.23566 1304.7117 4289633462
-64.888077 892.23566 1304.7117 4289503157
-61.411926 892.23566 1304.7117 4289306031
-71.612846 895.90692 1302.575 4289567669
-70.457794 897.67303 1304.0641 4289633460
-66.992661 897.67303 1304.0641 4289567667
-64.682571 897.67303 1304.0641 4289370556
-75.930275 903.55847 1302.4865 4289369789
-73.629356 904.43799 1303.228 4289172405
-70.177979 904.43805 1303.228 4289435826
-66.726608 904.43799 1303.228 4289304233
-64.42569 904.43799 1303.228 4289106872
-66.460548 911.16803 1302.3624 4289238702
-61.877064 911.16803 1302.3624 4289042095
-66.460548 912.92004 1303.8397 4289304750
-64.168808 912.92004 1303.8397 4288845993
-61.877064 912.92004 1303.8397 4288517285
-59.58532 912.92004 1303.8397 4288384940
-61.678898 920.01965 1304.5938 4291211431
-59.394497 918.27325 1303.1212 4290224318
34.266056 918.27325 1303.1212 4286992961
37.692657 918.27325 1303.1212 4287123252
36.403671 925.80273 1302.9298 4284166944
-59.155964 927.54224 1304.3965 4292067022
36.403671 927.54224 1304.3965 4283443474
-58.965137 931.96954 1302.8973 4290817474
-55.563305 931.96948 1302.8973 4292265170
-52.161469 931.96954 1302.8973 4292264908
1.133945 932.83643 1303.6283 4290619326
4.53578 932.83643 1303.6283 4290287281
6.8036699 932.83643 1303.6283 4287063424
10.205505 932.83643 1303.6283 4283841612
13.60734 932.83643 1303.6283 4283709512
15.875229 932.83643 1303.6283 4283841355
19.277065 931.96948 1302.8973 4283379784
22.6789 931.10266 1302.1664 4283510332
24.946789 931.10266 1302.1664 4283576381
27.21468 931.10266 1302.1664 4283378501
31.750458 931.10266 1302.1664 4283574585
34.018349 931.10266 1302.1664 4283640378
-51.992661 938.10822 1302.8412 4291345096
-49.732109 938.10822 1302.8412 4291344848
-46.341286 938.10822 1302.8412 4291673298
-42.950459 938.10822 1302.8412 4291738318
-40.689907 938.10822 1302.8412 4291146438
-38.429359 938.10822 1302.8412 4291870161
-49.732109 939.83643 1304.2983 4291607253
-46.341286 939.83643 1304.2983 4291673298
-42.950459 939.83643 1304.2983 4291541707
-40.689907 939.83643 1304.2983 4291541700
-38.429359 939.83643 1304.2983 4292199373
-76.959633 756.37109 1307.8767 4292660956
-76.618347 763.42023 1305.9723 4292068567
-79.089905 765.30975 1307.5654 4292068821
-77.269722 811.61151 1306.057 4291277266
-77.269722 813.45758 1307.6135 4291475162
-76.976151 820.63989 1307.1294 4291212753
-73.367889 819.7204 1306.354 4291014863
-74.28624 826.87122 1305.8433 4291146445
-71.889908 826.87122 1305.8433 4290948813
-71.614677 833.987 1305.303 4290883014
-74.001831 835.81201 1306.8418 4291015617
-79.723854 843.29309 1307.9175 4290620353
-76.154129 843.29309 1307.9175 4290752446
-73.489906 847.61316 1305.0199 4290489021
-71.119263 847.61316 1305.0199 4290554814
35.559631 847.61316 1305.0199 4291804364
-73.489906 849.42554 1306.5481 4290620094
-73.205505 855.52991 1305.1549 4290488767
-70.84404 856.43256 1305.916 4290357197
-68.482567 856.43256 1305.916 4290620369
-70.56881 863.40454 1305.2545 4290488517
-68.216515 863.40454 1305.2545 4290488517
-76.449539 865.20288 1306.7708 4290357178
-72.921104 865.20288 1306.7708 4290225850
-70.56881 865.20288 1306.7708 4290225086
-72.636696 871.23706 1305.3186 4290095032
-70.293579 871.23706 1305.3186 4290028990
-72.409172 878.54431 1306.2477 4290094265
-70.073395 878.54431 1306.2477 4289963197
-67.737617 878.54431 1306.2477 4289963197
-63.066055 878.54431 1306.2477 4289897402
-72.409172 880.33002 1307.7534 4290488506
-70.073395 880.33002 1307.7534 4290028990
-67.737617 880.33002 1307.7534 4289963197
-69.798164 886.29688 1306.2443 4289700539
-67.471558 886.29688 1306.2443 4289634746
-65.144951 886.29688 1306.2443 4289698994
-61.655045 886.29688 1306.2443 4289567401
-72.124771 888.07556 1307.744 4289502394
-69.798164 888.07556 1307.744 4289568185
-67.471558 888.07556 1307.744 4289962943
-65.144951 888.07556 1307.744 4289699253
-62.818348 888.07556 1307.744 4289567667
-74.157799 894.89319 1306.9524 4289633461
-69.522934 894.00739 1306.2054 4289436086
-67.205505 894.00739 1306.2054 4289567415
-64.888077 894.00739 1306.2054 4289503159
-62.570641 894.00739 1306.2054 4289700539
-69.30275 899.43909 1305.5532 4289501361
-75.930275 908.83569 1306.936 4289435316
-73.629356 907.95618 1306.1945 4289040812
-70.177979 907.95618 1306.1945 4289107116
-66.726608 907.07666 1305.4529 4289238954
-64.42569 908.83569 1306.936 4289042095
-71.044037 914.67212 1305.317 4289172648
-67.606422 914.67212 1305.317 4289238695
-64.168808 914.67212 1305.317 4288976541
-61.877064 914.67212 1305.317 4288647319
-67.606422 916.42419 1306.7943 4288975771
-64.168808 916.42419 1306.7943 4288844169
-61.877064 916.42419 1306.7943 4289041548
-61.678898 922.63934 1306.8027 4292593622
36.550457 921.76611 1306.0664 4284562982
-61.431194 929.28162 1305.8632 4292066757
29.577982 929.28162 1305.8632 4283312708
36.403671 929.28162 1305.8632 4283509037
-61.431194 931.02106 1307.3298 4288843945
22.752293 931.02106 1307.3298 4283509819
25.027523 931.02106 1307.3298 4283444026
28.440367 931.02106 1307.3298 4283442743
31.85321 931.02106 1307.3298 4283443763
34.128441 931.02106 1307.3298 4283443763
36.403671 931.02106 1307.3298 4283313191
-58.965137 934.57031 1305.0902 4289566904
-55.563301 934.57031 1305.0902 4292330967
-52.161469 934.57031 1305.0902 4292068807
-31.750458 934.57031 1305.0902 4291344585
-28.348625 934.57031 1305.0902 4291278275
-24.946789 934.57031 1305.0902 4291409345
-22.6789 934.57031 1305.0902 4291343311
-19.277065 934.57031 1305.0902 4291540435
-15.875229 934.57031 1305.0902 4291605717
-13.60734 934.57031 1305.0902 4291408854
-10.205505 934.57031 1305.0902 4290882752
-6.8036699 934.57031 1305.0902 4291014322
-4.53578 934.57031 1305.0902 4290555055
-2.26789 934.57031 1305.0902 4290555055
9.0715599 934.57031 1305.0902 4284564265
-58.965137 936.30408 1306.5521 4291079110
-55.563301 936.30408 1306.5521 4292001490
-36.28624 936.30408 1306.5521 4291739341
-34.018349 936.30408 1306.5521 4291739341
-31.750458 936.30408 1306.5521 4291147205
34.018349 936.30408 1306.5521 4283246381
36.28624 936.30408 1306.5521 4283116067
-51.992661 941.56458 1305.7556 4291802821
-49.732109 941.56458 1305.7556 4291672264
-46.341286 941.56458 1305.7556 4291475402
-42.950459 941.56458 1305.7556 4291081160
-51.992661 943.29285 1307.2128 4291869127
-49.732109 943.29285 1307.2128 4291212215
-46.341286 943.29285 1307.2128 4290488757
-42.950459 943.29285 1307.2128 4289567919
-49.530273 948.96936 1305.4589 4283711620
-47.2789 950.69055 1306.9102 4283844705
-76.959633 758.26904 1309.4771 4292200407
-79.381653 823.39844 1309.4553 4291607001
-76.976151 823.39844 1309.4553 4291278542
-74.28624 829.61926 1308.1604 4291080141
-74.28624 831.45123 1309.7051 4290752196
-81.1633 838.54944 1309.1499 4290687426
-78.776146 837.63696 1308.3806 4290687684
-76.388992 837.63696 1308.3806 4290884545
-76.154129 845.11249 1309.4515 4290554814
-76.154129 846.93188 1310.9856 4290620094
-75.86055 851.23792 1308.0762 4290554562
-73.489906 851.23792 1308.0762 4290817991
-75.86055 853.05029 1309.6044 4290291645
-73.205505 860.04333 1308.9606 4290357440
-70.84404 859.14062 1308.1995 4290423244
-69.798164 889.85425 1309.2438 4289370291
-73.629356 910.59479 1308.4192 4289108138
-70.177979 910.59479 1308.4192 4288910247
-73.629356 912.35388 1309.9025 4289304234
-67.224464 918.76025 1308.764 4290422957
-64.168808 919.05231 1309.0103 4291014831
38.959633 918.17627 1308.2716 4287059797
-63.963303 925.25903 1309.0115 4291669704
-66.247704 927.00549 1310.484 4290027173
-63.963303 927.00549 1310.484 4290948275
-63.706421 932.7605 1308.7964 4288514216
-61.431194 932.7605 1308.7964 4288514216
1.1376147 932.7605 1308.7964 4289633181
4.5504589 932.7605 1308.7964 4288578671
6.8256879 932.7605 1308.7964 4285157179
11.376146 932.7605 1308.7964 4283709212
13.651376 932.7605 1308.7964 4283577674
15.926605 932.7605 1308.7964 4283248709
19.339451 932.7605 1308.7964 4283313471
22.752293 932.7605 1308.7964 4283378233
25.027523 932.7605 1308.7964 4283378233
27.302752 932.7605 1308.7964 4283181108
31.85321 932.7605 1308.7964 4283246633
34.128441 932.7605 1308.7964 4283246633
37.541283 932.7605 1308.7964 4283312149
40.954128 932.7605 1308.7964 4283181360
-63.706421 934.49994 1310.2631 4288185740
-61.431194 934.49994 1310.2631 4289238171
-28.440367 934.49994 1310.2631 4291409860
-25.027523 934.49994 1310.2631 4291804356
-22.752293 934.49994 1310.2631 4291015115
-19.339451 934.49994 1310.2631 4290948807
-15.926605 934.49994 1310.2631 4290882499
-13.651376 934.49994 1310.2631 4289436084
-10.238532 934.49994 1310.2631 4287526791
-6.8256879 934.49994 1310.2631 4286933358
-4.5504589 934.49994 1310.2631 4285751912
-2.2752295 934.49994 1310.2631 4284436052
6.8256879 934.49994 1310.2631 4283114575
10.238532 934.49994 1310.2631 4283444026
13.651376 934.49994 1310.2631 4283444026
15.926605 934.49994 1310.2631 4283378233
19.339451 934.49994 1310.2631 4283247930
22.752293 934.49994 1310.2631 4283116599
29.577982 934.49994 1310.2631 4282919469
31.85321 934.49994 1310.2631 4283180588
38.678898 934.49994 1310.2631 4283116067
-58.965137 938.0379 1308.014 4291277016
-55.563301 938.0379 1308.014 4292001236
-52.161469 938.0379 1308.014 4291606719
-36.28624 938.0379 1308.014 4291870409
-34.018349 938.0379 1308.014 4291607493
34.018349 938.0379 1308.014 4283245881
36.28624 938.0379 1308.014 4283180588
-58.965137 940.63867 1310.2069 4291605706
-55.563301 940.63861 1310.2069 4291605703
-40.822018 940.63867 1310.2069 4290094220
-37.798161 940.34967 1309.9633 4289699477
34.018349 939.77173 1309.476 4283179586
36.28624 939.77173 1309.476 4283180338
-55.383484 946.74927 1310.1271 4286671719
-51.992661 945.88513 1309.3984 4286933887
-49.732109 945.02106 1308.6699 4286803066
-45.964527 945.59711 1309.1556 4283643736
-42.950459 945.88513 1309.3984 4283709023
-81.787155 827.07648 1312.5565 4291080908
-79.381653 826.15698 1311.7812 4291015115
-76.976151 826.15698 1311.7812 4291080141
-79.078896 833.28326 1311.2498 4291081410
-76.682571 833.28326 1311.2498 4291015617
-78.776146 843.112 1312.9969 4290489287
-73.489906 854.86267 1311.1324 4290752196
-73.629356 914.11292 1311.3856 4289041048
-71.328438 914.11292 1311.3856 4289238171
-71.328438 915.87201 1312.8689 4289568147
36.814678 915.87201 1312.8689 4286796882
-67.224464 922.84839 1312.2111 4290751415
-64.168808 921.68036 1311.2262 4292527323
-67.389908 928.75195 1311.9565 4288777109
-63.963303 928.75195 1311.9565 4288712358
38.834862 928.75195 1311.9565 4283444778
45.688072 928.75195 1311.9565 4283377981
-66.247704 930.49841 1313.4292 4288449439
29.697248 930.49841 1313.4292 4283181108
-61.431194 937.10907 1312.4631 4291146681
-34.128441 937.97876 1313.1964 4288186012
-31.85321 937.10907 1312.4631 4289632678
-28.440367 936.23938 1311.7297 4291409859
-6.8256879 936.23938 1311.7297 4284104804
-4.5504589 936.23938 1311.7297 4283118690
-2.2752295 936.23938 1311.7297 4282723932
6.8256879 936.23938 1311.7297 4283640639
10.238532 937.10907 1312.463 4283510597
13.651376 936.23938 1311.7297 4283247678
15.926605 936.23938 1311.7297 4283247678
20.477064 936.23938 1311.7297 4283444026
29.577982 936.23938 1311.7297 4283180590
31.85321 937.10907 1312.4631 4283114301
-58.965137 943.23938 1312.3998 4288909458
-55.563301 943.23938 1312.3998 4288448140
-40.822018 944.10632 1313.1307 4283248196
-54.253212 950.20569 1313.0415 4283643719
-51.992661 948.47742 1311.5842 4284367949
-49.732109 949.34155 1312.3129 4284239198
-45.964527 949.62958 1312.5558 4283908176
-42.950459 948.47742 1311.5842 4283776343
-81.787155 829.83508 1314.8826 4291015876
-79.381653 828.91553 1314.1072 4290950342
-76.976151 828.91553 1314.1072 4290686403
-76.154129 852.39001 1315.5879 4290620609
-75.86055 858.48737 1314.1887 4290357440
-76.233025 910.03558 1314.4879 4289633460
-70.177979 917.63104 1314.3521 4291147191
39.115597 917.63104 1314.3521 4284497188
-73.629356 919.39014 1315.8352 4290029470
-70.177979 919.39014 1315.8352 4290950069
-71.044037 926.06049 1314.9194 4288712368
-68.752296 925.18445 1314.1808 4289040278
-66.247704 932.24481 1314.9017 4288317852
1.1422018 932.24481 1314.9017 4282857563
4.5688071 932.24481 1314.9017 4282917452
25.128441 932.24481 1314.9017 4283116599
27.412844 932.24481 1314.9017 4283051056
-66.247704 933.99127 1316.3743 4289304498
-63.963303 933.99127 1316.3743 4289501863
-25.128441 933.99127 1316.3743 4291278271
-19.417431 933.99127 1316.3743 4288975012
-15.990826 933.99127 1316.3743 4288448659
-13.706422 933.99127 1316.3743 4288316530
-10.279816 933.99127 1316.3743 4285618530
1.1422018 933.99127 1316.3743 4282918731
4.5688071 933.99127 1316.3743 4282982966
18.275229 933.99127 1316.3743 4283444026
22.844036 933.99127 1316.3743 4283245881
25.128441 933.99127 1316.3743 4283180088
27.412844 933.99127 1316.3743 4283246383
-61.431194 940.58795 1315.3962 4290948279
-37.541283 940.58795 1315.3962 4285684315
6.8256879 941.45764 1316.1296 4283576368
9.1009178 941.45764 1316.1296 4283116851
-55.563301 946.70703 1315.3236 4283249198
-40.822018 946.70703 1315.3236 4283775821
-56.697247 948.4408 1316.7855 4283577665
-52.161469 948.4408 1316.7855 4284630614
-43.089909 948.4408 1316.7855 4283841864
-40.822018 948.4408 1316.7855 4283711050
-49.732109 953.66211 1315.9558 4284105041
-47.471561 953.66211 1315.9558 4284236370
-80.029358 754.74481 1319.5859 4292068567
-79.078896 842.44336 1318.9733 4290424259
-81.1633 850.41199 1319.1521 4290620609
-78.776146 850.41199 1319.1521 4290752196
-78.533943 854.20941 1317.1219 4290620094
-76.154129 854.20941 1317.1219 4290488769
-79.723854 856.02881 1318.656 4290620094
-73.922935 913.56775 1317.4662 4289436560
-73.922935 915.33386 1318.9552 4290423201
-75.930275 922.02869 1318.0601 4288452014
-73.629356 922.02869 1318.0601 4287990692
-71.328438 921.14917 1317.3185 4288255130
-71.044037 928.6886 1317.1354 4288317602
-68.752296 928.6886 1317.1354 4288317852
-71.044037 930.44067 1318.6127 4288844449
-68.752296 930.44067 1318.6127 4288712610
-66.247704 935.73773 1317.8468 4291344317
-63.963303 935.73773 1317.8468 4291409847
-28.555046 935.73773 1317.8468 4287065975
-6.8532109 935.73773 1317.8468 4283445309
-4.5688071 935.73773 1317.8468 4283314768
-2.2844036 935.73773 1317.8468 4283446354
2.2844036 935.73773 1317.8468 4283643971
4.5688071 935.73773 1317.8468 4283642676
6.8532109 935.73773 1317.8468 4283774263
13.706422 935.73773 1317.8468 4283248700
15.990826 935.73773 1317.8468 4283117114
19.417431 935.73773 1317.8468 4283181110
22.844036 935.73773 1317.8468 4282983216
-63.963303 937.48413 1319.3193 4291606206
-34.266056 937.48413 1319.3193 4286869110
-31.981651 937.48413 1319.3193 4285552000
-4.5688071 937.48413 1319.3193 4283511897
-2.2844036 937.48413 1319.3193 4283446104
4.5688071 937.48413 1319.3193 4283642676
6.8532109 937.48413 1319.3193 4283576883
10.279816 937.48413 1319.3193 4283247930
15.990826 937.48413 1319.3193 4282985012
20.559633 937.48413 1319.3193 4283049785
-63.706421 943.19708 1317.5963 4289962904
-59.155964 944.06677 1318.3296 4285684800
6.8256879 943.19708 1317.5963 4283248430
9.1009178 944.06677 1318.3296 4283116848
-61.233028 950.17468 1318.2474 4284036167
-58.965137 950.17468 1318.2474 4283840067
-55.563301 950.17468 1318.2474 4283972165
-52.161469 950.17468 1318.2474 4284170054
-49.893578 950.17468 1318.2474 4284038745
-47.625687 950.17468 1318.2474 4284367710
-61.233028 951.90851 1319.7094 4283905358
-58.965137 951.90851 1319.7094 4283775308
-56.697247 951.90851 1319.7094 4283841101
-81.475227 844.27539 1320.5181 4290490051
-79.078896 844.27539 1320.5181 4290424257
-81.475227 846.10736 1322.0627 4290556100
-79.078896 846.10736 1322.0627 4290556100
-81.1633 852.237 1320.6909 4290159543
-80.913765 857.84821 1320.1901 4290620092
-76.777985 904.08392 1321.2419 4289436851
-73.629356 924.66736 1320.2849 4288513952
-71.044037 932.19275 1320.09 4290621098
-68.752296 932.19275 1320.09 4290028220
-22.917431 932.19275 1320.09 4290356418
-68.752296 933.94476 1321.5673 4291475903
-25.209175 933.94476 1321.5673 4285750367
-22.917431 933.94476 1321.5673 4284368471
-19.479816 933.94476 1321.5673 4283183936
-16.042202 933.94476 1321.5673 4282986296
-13.750459 933.94476 1321.5673 4282985794
-10.312843 933.94476 1321.5673 4283182655
0 933.94476 1321.5673 4283643971
25.209175 933.94476 1321.5673 4282983216
28.64679 933.94476 1321.5673 4283049009
-63.963303 939.23059 1320.792 4291145918
-61.678898 940.97705 1322.2645 4288449409
-36.550457 939.23059 1320.792 4283115847
-34.266056 939.23059 1320.792 4283444811
11.422018 939.23059 1320.792 4283116851
-59.155964 946.67596 1320.5295 4283511872
-45.504585 948.41541 1321.9962 4284237646
-43.229359 948.41541 1321.9962 4283711302
-40.954128 948.41541 1321.9962 4283579462
-81.787155 839.94971 1323.4109 4290292930
-76.777985 909.42004 1325.7412 4289566643
-67.606422 935.69684 1323.0446 4291737524
-28.64679 935.69684 1323.0446 4284301416
-25.209175 935.69684 1323.0446 4283642967
-22.917431 935.69684 1323.0446 4283379777
-19.479816 935.69684 1323.0446 4283379785
-16.042202 935.69684 1323.0446 4283248464
-13.750459 935.69684 1323.0446 4283248210
-10.312843 935.69684 1323.0446 4283314515
-6.8752294 935.69684 1323.0446 4283512149
1.1458715 935.69684 1323.0446 4283511620
13.750459 935.69684 1323.0446 4283247928
18.333944 935.69684 1323.0446 4283049785
22.917431 935.69684 1323.0446 4282982966
28.64679 935.69684 1323.0446 4283049009
-32.084404 937.44885 1324.5219 4283379777
-29.79266 937.44885 1324.5219 4283182655
-22.917431 937.44885 1324.5219 4283776071
-19.479816 937.44885 1324.5219 4283841865
-16.042202 937.44885 1324.5219 4283973452
-10.312843 937.44885 1324.5219 4283579215
-6.8752294 937.44885 1324.5219 4283184202
-4.5834861 937.44885 1324.5219 4283511116
-2.291743 937.44885 1324.5219 4283379529
4.5834861 937.44885 1324.5219 4283510575
13.750459 937.44885 1324.5219 4283181360
16.042202 937.44885 1324.5219 4283312690
-37.813759 939.20093 1325.999 4283115599
-25.209175 939.20093 1325.999 4283907148
