# .PCD v0.7 - Point Cloud Data file format
VERSION 0.7
FIELDS x y z rgb
SIZE 4 4 4 4
TYPE F F F U
COUNT 1 1 1 1
WIDTH 1177
HEIGHT 1
VIEWPOINT 0 0 0 1 0 0 0
POINTS 1177
DATA ascii
24 872.96191 777.02075 4286347426
34.460548 871.89398 778.0824 4286413997
22.4 874.79675 778.56787 4286282405
34.666668 874.59283 778.396 4286676139
36.799999 875.40833 779.08362 4291150063
23.14679 877.43689 778.17786 4286151329
34.321098 877.43689 778.17786 4286479016
20.728439 880.58258 779.52222 4286084769
23.093578 880.07129 777.78314 4286216608
31.85321 879.46252 777.26978 4286675887
34.242203 880.07129 777.78314 4286413224
37.449543 880.93579 779.16602 4291281886
20.656881 884.52234 778.92004 4286149793
23.040367 883.30756 777.89575 4285953441
34.428135 883.71246 778.23712 4286150818
36.546787 884.52234 778.92004 4290033115
20.656881 885.73718 779.94434 4286018207
22.987156 886.5354 778.00134 4285887135
25.365137 885.92944 777.49036 4286018459
31.706423 885.92944 777.49036 4286741932
33.847095 886.26935 778.64899 4286281888
37.341286 885.73718 779.94434 4290360782
20.585321 889.65869 779.32684 4286215585
22.670336 890.15796 778.4397 4285822112
25.833639 888.94873 777.42017 4285952666
28.469725 888.54572 777.08032 4286215334
30.842201 888.54572 777.08032 4286412968
34.296024 889.69073 778.91779 4286150045
36.420185 889.65869 779.32684 4288978885
22.840368 895.21777 778.12793 4285953180
25.945873 896.86505 777.55481 4285952920
31.449541 896.86505 777.55481 4286215336
33.867889 895.21777 778.12793 4286018722
36.251377 895.47198 778.99634 4287466934
23.062998 898.86865 779.24414 4286083484
25.91468 898.76233 777.84656 4286149791
29.022936 899.4574 777.12463 4286149793
31.376146 899.4574 777.12463 4286149287
33.808258 898.0672 778.56848 4286216101
36.166973 899.26941 779.58203 4286808486
23.53211 901.85614 779.14709 4286149793
25.623856 901.05658 778.47296 4286018207
29.807339 900.65674 778.13586 4286018209
32.422016 901.05658 778.47296 4286281130
34.51376 901.25647 778.64148 4285887384
36.082569 901.85614 779.14709 4286018713
25.809174 904.78278 778.3446 4285952415
28.921103 904.52997 777.47748 4286017952
31.799997 904.49908 777.88745 4286215334
34.954742 905.23505 779.38007 4285952665
26.544954 907.60974 778.7663 4285951906
28.887157 907.01288 778.26306 4285952416
32.270336 907.41083 778.59857 4286280355
34.352295 908.20667 779.26953 4286149788
25.963303 911.56769 779.48749 4285754781
28.819267 910.17828 778.31592 4285951901
31.93486 910.77374 778.81799 4286345370
34.271561 911.36926 779.32013 4286083999
26.420183 914.52344 779.36365 4285951131
28.751377 913.92944 778.86273 4285951131
31.600611 914.12744 779.02972 4286279568
34.190826 914.52344 779.36365 4285952414
28.683487 917.0766 778.90039 4286148762
31.009174 917.0766 778.90039 4286346138
26.357798 918.26196 779.89978 4285952666
28.683487 918.26196 779.89978 4286083736
30.972477 919.5343 779.66455 4286149016
4.3844037 748.78821 782.19525 4285162632
46.43578 748.89771 780.97949 4286214288
49.166973 748.00891 782.84619 4286543250
5.2568808 750.9071 782.67383 4284899739
47.311928 750.9071 782.67383 4286675090
5.2403669 755.2439 782.40637 4286019996
6.9871559 753.24072 780.71741 4284900509
46.289909 753.90845 781.2804 4286543763
48.910091 755.91162 782.96936 4286806158
5.2293577 758.79437 782.78406 4286743717
6.972477 756.79547 781.09857 4286150049
46.483181 757.46173 781.6604 4286675353
6.9504585 761.11542 780.81702 4287071144
45.177982 761.11542 780.81702 4286675092
6.9504585 762.44385 781.93701 4286940576
46.915596 762.44385 781.93701 4286871953
5.1963301 767.40906 782.19946 4287268778
6.9284406 766.08484 781.08301 4286874533
45.900917 766.74695 781.64124 4286806165
7.4899082 769.38849 781.25238 4287005609
44.939449 769.6087 781.43805 4286806680
8.6146793 773.23218 780.56921 4287005098
10.337615 772.57355 780.01392 4286611362
43.93486 773.23218 780.56921 4286610067
7.7440367 775.97321 781.57245 4287267242
43.888992 775.97321 781.57245 4286610066
8.5963306 778.05286 782.01782 4287136422
44.700916 778.05286 782.01782 4286806932
8.5688076 781.6546 781.13062 4287006122
10.282569 780.34442 780.02588 4287071133
44.557796 781.6546 781.13062 4287004307
46.271561 782.96478 782.23535 4287135378
8.5504589 785.1405 781.45386 4287071660
10.26055 785.1405 781.45386 4286808747
44.462387 784.48682 780.90271 4287069584
46.172478 785.79419 782.005 4287136395
11.93211 788.07312 780.00244 4286677933
44.319267 788.07312 780.00244 4286873223
8.5229359 790.67944 782.20007 4286939309
11.079817 790.02783 781.6507 4286808499
46.023853 790.02783 781.6507 4286939528
11.055964 793.49353 781.95679 4286939325
44.223854 792.19318 780.86035 4287005579
45.92477 793.49353 781.95679 4287398549
11.020184 797.05597 781.03638 4287004336
45.776146 797.05597 781.03638 4287660438
11.007339 799.10474 781.45587 4286939563
43.13945 799.85742 780.78247 4287528855
46.623856 798.35211 782.12927 4287528854
8.4587154 802.44409 782.9635 4286940074
10.99633 801.79742 782.41821 4286743471
43.985321 801.15076 781.87292 4287398297
46.240978 802.013 782.59991 4287398298
11.80367 805.33813 781.47955 4286939822
43.280121 805.12329 781.29834 4287595166
45.528439 805.98273 782.02307 4287595933
13.46055 808.12268 781.21136 4286873516
42.905502 808.12268 781.21136 4287529631
45.429359 808.76587 781.75366 4287661726
13.46055 810.05225 782.83826 4286742443
43.603668 812.28906 780.80017 4287530137
45.429359 810.05225 782.83826 4287530137
13.416513 814.21228 782.42181 4286742440
15.060551 815.05957 780.52026 4286940076
41.834862 815.05957 780.52026 4287595931
43.603668 813.57123 781.88123 4287726483
45.280735 814.21228 782.42181 4287660693
13.387156 817.61823 782.67761 4286611364
43.508255 816.33893 781.599 4287857563
45.181652 817.61823 782.67761 4287726233
13.34312 821.11755 781.7041 4286611364
41.697247 819.84247 780.62891 4287595933
43.365139 820.47998 781.1665 4287660440
45.033028 821.11755 781.7041 4287594647
13.34312 822.3927 782.7793 4286545569
41.605503 823.23376 780.87231 4287529885
43.365139 822.3927 782.7793 4287726487
45.033028 822.3927 782.7793 4287923610
14.122019 826.24805 781.45184 4286807715
40.683487 826.61658 781.10858 4287529884
43.269726 825.14221 782.48145 4287595933
14.895412 830.09351 780.11609 4286610078
16.550459 830.09351 780.11609 4286545317
39.7211 830.09351 780.11609 4287595933
14.06789 831.99146 781.71643 4286478758
41.376148 831.35876 781.18298 4287464090
43.031193 832.62408 782.24988 4287530387
14.862386 835.35254 781.93433 4286413479
16.495413 835.45288 780.71094 4286348195
41.238533 835.45288 780.71094 4287530138
43.761467 835.98376 782.46655 4287464345
14.829358 839.33508 782.67627 4286675370
16.477064 838.07538 781.61414 4286413732
42.840366 838.7052 782.1452 4287134859
14.779817 842.77686 781.6543 4286675374
16.422018 841.52142 780.5957 4286675621
41.055046 841.52142 780.5957 4287660442
42.697247 842.77686 781.6543 4287526774
14.746789 845.48431 781.32104 4286872494
16.385321 844.23169 780.26477 4286675370
40.963303 844.85803 780.79291 4286543241
43.470642 844.7583 782.01697 4290155375
14.746789 846.737 782.37732 4286675621
16.348623 848.18616 780.98303 4286609826
40.871559 848.18616 780.98303 4288578210
43.373394 847.46155 781.68018 4292525472
14.713761 849.43604 782.03687 4286675883
42.50642 849.43604 782.03687 4294040283
14.66422 854.09686 782.04272 4286413478
16.293577 852.8512 780.99243 4286479285
40.733944 852.8512 780.99243 4294959269
42.363304 854.09686 782.04272 4294042861
16.25688 856.15894 781.16541 4286347946
40.100307 855.95184 780.99072 4294042855
14.631192 858.02325 782.7373 4286477988
17.031193 859.45844 781.3313 4286282146
38.387768 858.63165 780.63428 4294503415
40.550457 860.07837 781.85406 4293649902
17.781651 862.84686 780.26428 4286282144
19.398165 862.84686 780.26428 4286281892
38.796329 862.84686 780.26428 4294044660
17.229357 865.38214 781.53003 4286346656
19.354128 866.74524 780.9353 4286281366
38.708256 866.74524 780.9353 4293978603
40.412846 864.70062 781.82739 4294044143
16.934864 867.97833 781.97498 4286281118
19.310091 869.40222 780.55945 4286281368
37.815598 869.40222 780.55945 4292334581
40.321102 867.97833 781.97498 4294175481
17.700918 871.24756 782.11536 4286149278
19.83058 871.51617 781.46991 4286216096
37.773392 871.34296 780.88782 4292268009
40.229359 871.86267 782.63403 4294044158
17.660551 874.5083 782.24878 4286215586
20.068806 873.89459 781.73132 4286282143
38.532108 873.28088 781.21387 4292794091
40.137615 874.5083 782.24878 4293978614
20 877.24316 780.63068 4286150815
37.599998 876.63153 780.11499 4291873768
40 877.85474 781.14636 4293781240
19.177982 880.39307 781.97858 4286084000
39.908257 881.09802 781.26489 4293978356
19.111927 884.33295 781.37634 4286018207
38.223854 883.11536 780.34973 4291741655
39.816513 884.33295 781.37634 4294307327
17.519266 885.55054 782.40308 4285887905
19.06789 886.95197 780.96863 4286149793
38.13578 886.95197 780.96863 4291016660
39.72477 886.95197 780.96863 4294174975
17.478899 888.16675 781.99292 4286215584
19.023853 890.17139 781.06714 4286084768
38.047707 890.17139 781.06714 4290621397
39.72477 888.16675 781.99292 4294371839
20.048929 892.51495 781.29913 4285952927
37.168808 892.77783 780.6488 4288781249
39.633026 891.98938 782.59998 4294306047
19.770641 894.59161 782.1781 4286215071
22.066055 896.67694 780.01233 4286149275
37.105507 895.63428 781.09521 4288386231
20.489908 898.48444 781.53632 4286017696
37.827522 897.88196 781.02832 4289504189
40.191742 899.08691 782.04431 4294175221
20.442202 902.87592 782.62305 4285688738
22.014679 901.07263 781.10254 4285952161
37.739449 901.07263 781.10254 4289174463
40.098167 902.27478 782.11621 4293846772
42.456882 902.87592 782.62305 4293518052
22.747707 904.25482 781.16974 4285886371
36.866974 903.65515 780.66406 4287070375
39.743118 905.05444 781.84393 4293780727
23.477064 907.42871 781.22968 4286017442
25.042202 906.83044 780.72522 4286082980
35.998165 906.83044 780.72522 4285952666
37.563301 907.42871 781.22968 4287727539
22.918655 910.53522 782.10498 4285951391
24.983486 909.40039 780.27612 4285886623
35.913761 909.99731 780.77942 4285360276
37.475231 911.19104 781.78595 4286413738
39.082569 910.50574 782.51611 4292993023
23.366972 914.34662 781.83057 4285820830
24.92477 913.15564 780.82642 4286016924
35.829357 913.15564 780.82642 4285557656
38.166054 914.34662 781.83057 4289243350
22.588074 915.53754 782.83472 4285886875
25.3841 916.10767 780.6994 4286017689
32.636696 916.30566 780.86639 4286214552
34.967888 916.30573 780.86639 4285951646
38.122017 916.21863 782.10101 4288717013
23.311926 918.08789 782.36914 4285886873
25.86055 919.38922 781.72235 4285886872
28.683487 919.44727 780.89929 4286017176
32.559631 920.03992 781.39899 4286280599
34.906422 919.70007 781.76642 4285951900
37.787769 918.9361 782.21234 4287269566
25.582569 921.81793 782.89807 4285755287
28.615597 922.58044 780.92493 4286082970
31.451376 922.77753 781.09113 4286214290
34.844955 922.49481 782.16077 4285952160
37.21101 921.81793 782.89807 4285361562
28.615597 924.35419 782.42053 4285952668
31.654129 925.36743 781.31281 4286082968
34.029358 924.35419 782.42053 4286018211
3.5119267 749.35132 783.97815 4286018221
49.166973 749.35132 783.97815 4286674577
1.7559633 750.69379 785.11011 4287532714
3.5045872 752.24677 783.80334 4287007151
49.06422 752.24677 783.80334 4286608782
3.5045872 753.58643 784.93286 4286940838
3.493578 757.91479 784.65839 4287006121
49.783485 757.91479 784.65839 4286740877
4.3577981 760.79333 784.46948 4287334573
49.678898 760.79333 784.46948 4286937227
5.2128439 763.77222 783.05713 4287334317
46.915596 763.77222 783.05713 4286805906
48.65321 763.77222 783.05713 4286870406
3.4752293 765.76489 784.7373 4287334573
49.522018 765.76489 784.7373 4286609542
4.3302751 769.39539 783.87433 4287333806
46.766972 768.73328 783.31604 4286740887
49.365139 769.39539 783.87433 4286675342
1.7321101 771.38165 785.54919 4287334317
4.6091747 772.47174 783.85211 4287136424
6.9137616 771.59082 783.10938 4287070892
46.667889 772.25153 783.66644 4286609811
49.007954 771.96161 784.29401 4286806417
4.3211012 774.23358 785.33765 4287333540
6.8917432 776.52515 783.34583 4287333801
46.519264 776.52515 783.34583 4286806932
49.260551 774.23358 785.33765 4286871699
4.3073397 778.50098 785.01172 4287268265
6.8770642 779.36725 783.1261 4287006122
46.420185 779.36725 783.1261 4287004307
48.816513 778.72052 785.19678 4287200920
5.1577983 781.33887 784.78851 4287137450
6.8770642 780.68164 784.23438 4287202731
49.858715 781.99603 785.34265 4287135895
5.1412845 785.58514 784.4447 4287334571
6.8550458 784.27496 783.34009 4287072174
47.985321 784.93005 783.8924 4287135894
4.2788992 787.6521 784.87958 4287006887
7.4103971 787.53735 783.47485 4286874281
47.882568 788.40894 784.20972 4287004827
49.699081 786.89532 785.54944 4286938778
5.1302752 789.71637 785.31213 4286940326
7.6706419 791.98267 783.29883 4287004586
47.728439 791.98267 783.29883 4287200932
49.592659 789.71637 785.31213 4287135139
5.1137614 793.93738 784.94708 4286874279
7.3804278 794.2229 784.31573 4287004840
47.625687 794.79388 783.05322 4287528602
49.433029 793.93738 784.94708 4287462807
7.6541286 796.74438 784.69788 4286808745
49.326607 797.39459 785.24609 4287332504
7.6293578 800.29639 783.76862 4286808745
10.172477 799.64832 783.22217 4286743726
47.471561 799.64832 783.22217 4287398297
49.166973 800.94446 784.31506 4287332504
7.6201835 802.98901 784.73096 4286874281
10.150458 803.73743 784.05396 4287070892
47.368809 803.73743 784.05396 4287333024
49.166973 802.2406 785.40796 4287201438
8.4587154 805.03082 785.14453 4286808488
10.150458 805.03082 785.14453 4286938793
49.060551 805.03082 785.14453 4287463588
11.129174 808.81885 784.41443 4286741928
47.21468 807.91638 783.6535 4287529635
48.900917 809.20557 784.74048 4287529372
11.777982 812.62494 785.00745 4286545317
47.111927 811.98175 784.46515 4287726235
11.726605 817.51654 783.8999 4286479522
46.906422 817.51654 783.8999 4287529374
48.634861 817.4176 785.12451 4287594397
8.3669729 821.45618 785.9137 4286609817
10.877064 820.81653 785.37433 4286413730
46.855045 820.17688 784.83496 4287659936
48.528439 820.81653 785.37433 4287659936
10.841284 824.30536 784.39197 4286413730
46.144955 824.09283 784.21271 4287660961
48.368809 824.94293 784.92957 4287529634
11.649541 827.05066 784.09058 4286544802
44.101837 826.41449 783.5542 4287661726
46.598164 827.68683 784.62695 4287595681
8.3211012 828.95911 785.69983 4286544033
10.804587 829.69214 785.00983 4286544037
13.284404 829.15564 783.24939 4286413732
44.281342 829.5788 783.6062 4287530392
46.598164 828.95911 785.69983 4287595933
48.262386 828.95911 785.69983 4287398297
10.774312 832.79199 784.35352 4286479525
13.240367 833.8894 783.31677 4286545321
44.686237 833.8894 783.31677 4287661978
46.495415 831.69464 785.39026 4287464090
11.033639 835.99823 785.09479 4286413733
13.240367 835.15466 784.38354 4286479272
46.892963 835.99823 785.09479 4288578434
10.733945 839.14001 785.12781 4286478506
13.211009 837.8775 784.06335 4286675370
44.587154 837.8775 784.06335 4286740090
46.238533 839.14001 785.12781 4290485875
11.533945 841.85443 784.80054 4286610092
13.181651 841.22461 784.26947 4286806702
44.488075 840.59473 783.7384 4287724409
46.13578 841.85443 784.80054 4293381322
10.690825 844.20099 784.81702 4286347687
13.137614 845.28784 783.77136 4286741415
45.981651 845.28784 783.77136 4294107371
11.495413 847.17108 785.35925 4286347939
13.108257 847.98969 783.43347 4286478760
44.240368 847.98969 783.43347 4294303455
45.981651 847.17108 785.35925 4294042866
11.469725 850.495 785.5459 4286413730
13.633639 850.62134 783.90839 4286413224
43.596329 851.10254 783.44208 4294436846
45.878899 850.495 785.5459 4293846511
44.141285 853.18561 785.19849 4293648868
13.577981 855.75775 783.44312 4286281634
42.906422 856.58813 784.14331 4293649384
13.5474 859.68036 784.13458 4286478240
43.080734 859.88751 784.30927 4293649641
14.067279 862.28955 784.59052 4286346656
16.220184 861.93848 783.42249 4286478240
42.746174 862.28955 784.59052 4293583846
13.762385 865.48645 784.45197 4286279578
42.911926 865.48645 784.45197 4293452007
14.548624 868.40814 784.95343 4286346142
16.128441 869.2113 783.01465 4286215071
40.321102 869.2113 783.01465 4294175983
43.107037 868.20215 784.77979 4293649385
14.515596 871.67743 785.09387 4286149539
16.128441 871.06091 784.5741 4286149536
41.933945 870.44434 784.05432 4293912558
43.546787 871.67743 785.09387 4293254631
16.876148 875.02942 783.99615 4285888154
41.790825 874.41431 783.47754 4293780719
43.447708 874.32312 784.70862 4293254633
16.590216 877.37231 784.66357 4285887125
41.743118 876.9632 784.3186 4293649135
43.348625 877.5769 784.83612 4293320169
17.6 880.91284 783.72479 4286018205
41.599998 880.91284 783.72479 4293846768
43.200001 881.52441 784.24048 4293451753
15.963303 884.14905 783.8374 4286019234
41.504585 884.14905 783.8374 4293978353
43.100918 884.14905 783.8374 4293517802
14.366973 886.5899 785.89551 4286215584
15.926605 887.37695 783.94299 4286149791
41.409176 887.37695 783.94299 4294108655
43.051376 886.67902 784.6626 4293582311
14.333945 889.20337 785.48303 4286281116
16.949234 890.19141 783.70001 4286018461
40.519264 889.98889 783.52936 4294240247
43.001835 889.20337 785.48303 4293780203
16.664219 892.50623 784.34387 4286082969
40.473396 892.50623 784.34387 4294306552
17.438532 895.01941 785.15479 4285886876
18.979816 895.80078 783.19763 4286083484
40.379814 895.10706 783.92072 4294307318
42.803669 895.62537 785.66577 4293650152
18.979816 897.01001 784.21716 4285952164
17.337614 902.70184 785.09241 4285754531
19.439144 900.69354 783.39893 4285885608
40.979816 900.29187 783.0603 4293978603
43.606731 901.49689 784.07635 4293386214
19.393885 904.47876 783.97443 4285819805
43.243118 904.67914 784.14343 4293451747
17.297247 906.48242 785.66394 4285951394
19.886238 906.99634 784.35321 4285819808
21.963303 906.65356 783.19226 4285950879
40.266056 907.05341 783.5293 4293912048
42.914989 906.99634 784.35321 4293254368
19.855658 909.90704 785.06348 4286082717
21.911926 910.4201 783.75195 4285820830
40.693577 910.4201 783.75195 4293715180
42.847706 909.90704 785.06348 4293254629
20.346788 912.81323 785.76978 4285886875
21.86055 912.98169 783.29578 4285820830
40.598164 913.57855 783.79907 4293452268
42.991745 913.49432 785.03607 4293714925
20.275229 916.64429 785.07599 4285821080
21.809174 917.32397 784.34106 4285886870
40.50275 917.32397 784.34106 4293254634
42.110092 916.64429 785.07599 4293715185
19.472477 919.11041 785.84729 4285689240
22.793884 920.06812 784.03876 4285756048
24.866055 919.27606 783.37085 4285886871
38.85321 919.87012 783.87177 4290888176
40.407341 920.46417 784.37268 4293188840
42.060551 919.11041 785.84729 4293715184
22.534863 921.65234 785.37451 4285755285
25.582569 923.0033 783.89758 4285689242
35.660549 923.0033 783.89758 4285754783
38.032112 922.32782 784.63605 4288124612
40.407341 921.65234 785.37451 4292728550
25.582569 924.78131 785.39673 4285623450
28.615597 926.12799 783.91614 4285754779
31.709175 926.12805 783.91614 4286083741
34.823853 925.79175 784.28662 4285886369
37.727829 924.58374 785.23016 4287529908
-1.7614679 749.03772 787.63776 4287663534
0 749.03772 787.63776 4287532203
52.256882 748.81329 787.44855 4286806160
54.605503 749.71106 788.20544 4286806158
1.7559633 752.03625 786.24194 4287663280
50.922935 752.03625 786.24194 4286674829
-1.7559633 754.72113 788.50586 4287335584
0.87614679 754.82361 787.28418 4287400623
50.816513 754.92603 786.0625 4286675342
52.678898 753.37866 787.3739 4286675342
54.434864 754.72113 788.50586 4286806412
0.87614679 756.93555 787.75677 4287400113
52.568806 756.26569 787.19202 4286806412
54.321102 757.60535 788.32153 4287068301
1.746789 759.91791 786.34741 4287531445
52.403671 760.58563 786.9104 4286937228
54.150459 761.25336 787.47339 4286937998
-1.746789 762.58875 788.59937 4287531171
1.1620795 763.16864 787.34424 4287399861
50.550457 762.7923 786.15491 4286675331
52.293579 764.12494 787.27856 4286741650
54.150459 762.58875 788.59937 4286741650
-1.7431192 765.45752 788.40222 4287399842
0.86880732 766.60754 787.40979 4287334319
52.128441 767.75751 786.41736 4286740883
54.036697 765.45752 788.40222 4286806932
0 770.41437 788.65759 4287333801
52.997246 769.75012 788.09753 4286937734
1.7321101 772.70587 786.66565 4287202472
51.963303 772.70587 786.66565 4286937217
1.1535169 775.42023 788.08234 4287268273
3.4568808 775.55499 786.4519 4287333799
50.124771 775.55499 786.4519 4287003541
51.85321 776.2157 787.00897 4287134598
0.8642202 778.19781 788.68018 4287202731
1.7229358 781.79395 787.78833 4287202731
3.4458716 780.47675 786.67773 4287006633
51.688072 781.13538 787.23303 4287265932
1.7211009 784.52515 788.7832 4287269542
3.4385321 783.31042 786.45093 4287202729
49.858715 783.31042 786.45093 4287004307
52.762081 784.55841 788.37518 4287200659
3.4275229 788.20551 786.65417 4286940326
51.412846 788.20551 786.65417 4287397014
1.7137614 790.82587 788.86365 4286808740
3.4201834 791.02374 786.41443 4286874533
52.21468 790.26971 787.08667 4287659407
55.697247 790.17078 788.31128 4287463313
1.7100917 793.63849 788.61914 4286808736
3.4201834 792.9848 788.06793 4286808487
52.442814 792.76691 787.88422 4287332231
55.292969 793.2027 788.25165 4287332495
4.2614679 796.5437 787.14465 4286808487
51.989906 796.5437 787.14465 4287267215
54.546787 797.19531 787.69409 4287332752
4.5382266 799.06299 787.52472 4286676902
51.632416 799.06299 787.52472 4287332501
54.546787 798.49847 788.79285 4287332506
4.2522936 801.29572 788.5354 4286675883
6.7816515 803.53674 786.50085 4286742695
51.877983 801.29572 788.5354 4287398045
5.0862384 805.48096 788.1402 4286610599
7.612844 806.32416 786.23499 4286872998
50.752293 806.32416 786.23499 4287594393
52.557796 804.83289 787.59375 4287594393
54.253212 806.12909 788.68665 4287464344
5.0752292 808.91089 788.41602 4286545571
7.3308868 808.04858 787.68903 4286741413
50.752293 807.61749 787.32556 4287594645
52.444038 808.26416 787.87079 4287660692
7.8691125 811.99872 787.09552 4286807458
10.117432 811.13928 786.37097 4286282144
50.025074 811.56903 786.73322 4287660692
52.273396 812.42841 787.45789 4287595149
7.5880733 813.71759 788.54492 4286611614
10.095413 814.55444 786.63434 4286413985
49.63578 814.55444 786.63434 4287529113
53.059631 814.45758 787.86078 4287595162
8.4128437 816.48395 788.26135 4287005088
10.062386 818.69971 786.20557 4286479523
50.311928 818.69971 786.20557 4287987868
52.159634 816.48395 788.26135 4287987868
6.7082567 820.62292 787.82715 4286478488
50.311928 819.98187 787.28662 4287856538
52.548016 820.83661 788.00732 4287725213
7.5302753 823.37518 787.53174 4286544539
50.201836 823.37518 787.53174 4287725466
51.875229 824.01483 788.07104 4287134096
7.5055046 826.85559 786.54224 4286478494
10.007339 826.21802 786.00464 4286281118
49.202751 826.85559 786.54224 4287529109
51.704586 827.49316 787.07983 4286935936
5.0036697 828.76825 788.15491 4286544285
7.4963303 829.49988 787.46375 4286282144
49.149544 829.49988 787.46375 4286739831
51.704586 828.76825 788.15491 4288383607
4.9926605 832.77606 788.91809 4286282140
7.4889908 832.13989 788.38171 4286282143
9.9633026 832.96411 786.46069 4286413730
49.041283 832.23395 787.15302 4287854201
51.590824 832.77606 788.91809 4294364603
4.9816513 835.50317 788.60144 4286282140
7.472477 834.86841 788.06628 4286282144
49.816513 834.86841 788.06628 4293182646
7.7235475 838.52881 787.22858 4286282657
47.99633 837.6853 786.51733 4292788630
49.651375 838.95056 787.58423 4293845988
7.7113152 841.60278 788.07635 4286216864
9.9082565 840.40247 786.19238 4286215334
47.889908 841.03369 786.72461 4294435045
49.596329 841.57166 788.48615 4293649128
8.2385321 845.63348 787.98694 4286544285
9.8862381 845.00366 787.45587 4286281890
47.783485 845.00366 787.45587 4294108915
8.211009 850.30975 788.00574 4286281379
10.384709 850.84991 786.7171 4286347937
47.042202 850.37061 787.18506 4293846766
8.1926603 854.25305 788.7146 4286149793
10.368808 853.8963 787.54175 4286281379
44.141285 854.43549 786.25232 4293583591
46.971252 853.41797 788.01044 4293583596
10.626606 856.3103 787.83307 4286215077
46.593578 856.3103 787.83307 4293583594
11.405504 859.70227 786.76904 4286346146
45.622017 859.70227 786.76904 4293583594
10.577982 862.28271 787.63678 4286083486
46.385323 862.28271 787.63678 4293517800
11.366972 865.56805 787.79089 4285952674
12.976147 866.27856 787.08197 4286214300
45.957188 866.48529 787.25616 4293517802
11.354129 868.13867 788.65027 4286018211
47.038532 868.13867 788.65027 4293583343
48.660549 868.13867 788.65027 4293583593
11.315597 872.73358 788.60059 4286017957
13.327981 871.85089 787.20227 4286149542
46.044952 871.85089 787.20227 4293385706
48.495415 872.73358 788.60059 4293451753
13.709174 874.76001 787.69305 4286215594
45.966057 874.76001 787.69305 4293385964
13.946177 877.6037 787.47479 4286149540
45.056881 876.78357 786.7832 4293385708
13.388991 880.58746 788.24658 4286149538
16.055046 879.41803 786.38855 4286018207
44.954128 880.03174 786.90601 4293451243
46.559631 881.25916 787.94092 4293517035
48.165138 881.87286 788.45837 4293451494
14.4 883.97083 786.30322 4286149793
44.799999 883.97083 786.30322 4293451242
12.8 885.80566 787.85028 4286215325
44.748623 886.5022 787.12952 4293583343
46.400002 885.80566 787.85028 4293649136
48 886.41724 788.36597 4293517802
13.291743 889.90094 787.81525 4286083229
43.849541 889.72583 787.23157 4293583596
46.293579 890.2511 788.98254 4293517802
13.537615 892.24731 788.04962 4285951647
15.889908 893.02594 786.09009 4285755287
43.748623 892.33228 786.81317 4293517799
46.187157 892.85614 788.56299 4293320937
14.300918 894.84814 787.62653 4285951651
16.393885 895.97186 786.8299 4285820578
44.440369 895.53906 786.90106 4293452265
46.080734 895.45551 788.13867 4293386214
16.368196 898.91302 787.56586 4285819552
46.766972 898.65533 788.22058 4293253862
15.816514 901.84674 788.29541 4285689762
46.658714 901.24219 787.78564 4293385190
17.337614 903.9068 786.1084 4285689762
45.708256 904.50928 786.61639 4293385701
16.785322 907.62939 787.50299 4286082974
46.162689 907.62939 787.50299 4293385699
16.490826 910.77002 787.97107 4286016924
18.825687 910.85138 786.73169 4285951901
43.926605 910.25171 786.22607 4293714661
46.334862 910.77002 787.97107 4293254115
17.25688 912.65039 788.24866 4285820828
18.781651 914.00983 786.77869 4285821080
43.823853 914.00983 786.77869 4293648607
45.495415 912.65039 788.24866 4293188056
17.176147 917.75671 787.3219 4285557910
18.737616 916.56293 786.31543 4285821080
43.7211 917.15979 786.81866 4293319902
45.335781 916.48157 787.55475 4293253852
17.176147 918.95044 788.32849 4285688988
19.472477 920.30139 786.85144 4285492890
42.839447 920.30139 786.85144 4293583081
45.28257 918.95044 788.32849 4293385437
19.472477 922.08777 788.35767 4285491865
22.534863 922.84045 786.37634 4285623195
41.184402 922.84045 786.37634 4293254626
43.618347 922.08777 788.35773 4293648357
45.695415 922.28632 788.52509 4293319650
22.534863 924.62268 787.87909 4285557656
25.611927 925.88806 787.63794 4285623449
28.683487 926.55933 786.89587 4285689240
31.784403 926.55933 786.89587 4285886875
34.885323 926.55933 786.89587 4285623199
38.335171 924.82074 788.04608 4288649932
41.184402 924.62268 787.87909 4292793838
31.784403 927.74463 787.89539 4285624478
34.110092 927.74463 787.89539 4285951394
56.543118 748.06128 790.73853 4286740364
-4.1100917 751.95551 790.09796 4287203737
-1.7614679 751.05768 789.34094 4287467173
0 751.05768 789.34094 4287532979
55.486237 751.73102 789.90869 4286740880
-5.2844038 753.75098 791.61194 4287335055
56.366974 753.75098 791.61194 4286871953
58.128441 753.75098 791.61194 4286937746
-4.0972476 757.40601 790.76971 4287071898
-1.7541285 757.50427 789.54443 4287335333
0 758.94495 789.45117 4287728827
56.190826 757.40601 790.76965 4286937746
58.824768 758.07727 791.33563 4287003791
61.458717 758.74847 791.90161 4287069836
-4.380734 760.95447 791.14545 4287004816
56.073395 760.28461 790.58069 4286806932
57.825687 760.28461 790.58069 4287069848
-3.493578 763.92419 789.72546 4286873498
55.897247 763.92419 789.72546 4287069083
57.644035 763.92419 789.72546 4287200925
-4.3669724 765.92737 791.41443 4287136405
-1.7431192 766.79016 789.52588 4287399844
0 766.79016 789.52588 4287334317
54.966972 766.0249 790.18866 4287003792
58.517433 765.92737 791.41443 4287069586
-3.4862385 768.78912 791.21136 4286545566
-1.7431192 768.1228 790.64954 4287006122
55.779816 768.78912 791.21136 4287068815
57.522934 768.78912 791.21136 4287134609
-1.7376146 772.40698 790.33777 4287269545
0 771.7428 789.77771 4287334319
53.866055 772.40698 790.33777 4287134598
55.603668 773.07117 790.89783 4286937998
-1.7321101 776.67853 790.01526 4287071133
53.695412 776.67853 790.01526 4287265932
-1.7321101 778.00275 791.13184 4286808486
0 779.51923 789.79443 4287071144
53.58165 779.51923 789.79443 4287265932
55.427525 778.00275 791.13184 4287265936
57.159634 778.00275 791.13184 4287397266
-1.7284404 780.84064 790.90857 4287005088
0 780.84064 790.90857 4286940578
55.310093 780.84064 790.90857 4287069587
57.038532 780.84064 790.90857 4287135380
-1.7229358 785.74554 791.12024 4286939545
0 785.74554 791.12024 4286874785
55.133945 784.42834 790.00952 4287397014
58.579815 785.74554 791.12024 4287201175
0.85963303 787.91077 790.3299 4286874787
56.735779 787.2536 789.77576 4287463059
58.455048 788.56799 790.88403 4287265683
-1.7192661 789.88245 791.99219 4286939030
0 789.88245 791.99219 4286742943
60.174313 789.88245 791.99219 4287265936
0.85504586 794.19604 790.39722 4286939293
56.433029 794.94586 789.72144 4287201423
58.797558 793.50946 790.25421 4287463310
-1.7100917 797.56061 791.92615 4286807695
0.85504586 796.90692 791.375 4286611103
56.433029 796.25323 790.82385 4287200921
58.71315 797.12482 791.55878 4287267478
1.7045871 799.80164 789.89172 4286675871
55.399082 799.80164 789.89172 4287332256
1.7027524 802.50061 790.85938 4286807973
3.401835 803.24622 790.18005 4286610342
55.34037 801.85046 790.31116 4287398299
-1.7009175 805.19684 791.82471 4286674327
1.7009175 805.19684 791.82471 4286872483
56.130276 805.19684 791.82471 4287464344
1.6954129 808.72137 790.87231 4286741146
3.3908257 807.42523 789.77942 4286611364
54.253212 807.42523 789.77942 4287530137
1.693578 811.40424 791.82642 4286609816
4.0601835 811.23889 790.37903 4286675871
55.303974 811.00421 791.05316 4287594908
5.0587158 815.00671 789.63184 4286872998
6.7449541 815.00671 789.63184 4286741917
53.959633 815.00671 789.63184 4287923106
1.6862385 817.58502 791.80579 4286544537
4.2100916 817.03308 790.03241 4286806943
53.842201 817.77026 789.34595 4287922593
55.64587 816.94043 791.26233 4287396506
57.332111 817.58502 791.80579 4287460729
1.6825688 820.34296 791.51514 4286544537
4.2064219 819.05658 790.43054 4286609567
55.524769 820.34296 791.51514 4286805113
1.6770642 823.82825 790.52979 4286216867
4.1926603 822.54614 789.44873 4286544287
53.666054 822.54614 789.44873 4286542198
55.343121 823.82825 790.52979 4289500034
1.6733944 827.21313 790.76782 4286281627
3.9045868 825.72064 789.50934 4286544286
53.548622 825.93384 789.68915 4289499266
55.222019 827.21313 790.76782 4294104526
4.1697249 830.04333 789.2301 4286478238
6.6715598 830.04333 789.2301 4286282142
52.538532 830.04333 789.2301 4291867302
1.66789 831.95605 790.84283 4286281882
3.3357799 831.31848 790.3053 4286282140
53.372478 831.95605 790.84283 4294042342
55.040367 831.95605 790.84283 4293910756
3.8795109 835.38055 790.24219 4286347933
52.145565 834.89667 790.70612 4293779166
3.8746178 838.46533 791.09912 4286216855
52.307343 838.67688 791.27753 4293583334
4.9651375 842.11377 790.25134 4286217112
6.6201835 841.48114 789.7179 4286347935
51.858105 842.32471 790.4292 4293517800
4.1321101 844.73212 791.151 4286019476
6.6055045 844.82117 789.91809 4286149786
49.541283 844.18994 789.38586 4293649387
52.077065 844.73212 791.151 4293451753
54.616512 844.01178 791.85168 4293583593
4.9541283 846.71497 791.51489 4286215836
7.4146786 847.52307 789.58014 4286281377
49.431194 847.52307 789.58014 4293517550
52.018349 846.71497 791.51489 4293254376
7.4009171 850.48889 790.11884 4286281379
49.266056 851.56525 789.06433 4293385960
51.078899 849.41254 791.17334 4293385960
6.5688071 854.07617 791.18152 4286149793
49.266056 853.44843 790.65222 4293583598
8.1926603 856.13202 790.29889 4286149535
49.155964 856.75836 790.82703 4293714678
7.6342506 859.37695 791.29083 4286215328
9.8091745 858.18512 789.41394 4286148766
47.411011 858.18512 789.41394 4293649389
49.628742 859.37695 791.29083 4293451502
9.7761469 862.81647 789.3949 4286149539
47.251377 862.81647 789.3949 4293452007
8.1467886 865.30774 791.49548 4286017187
9.7651377 865.3927 790.25903 4285952675
49.583488 866.10181 789.54895 4293517803
10.554129 868.67236 790.40839 4285886625
49.471558 869.37872 789.69592 4293451753
9.73211 871.23877 791.26422 4286083491
50.28257 870.61877 790.74146 4293517802
52.715595 871.85883 791.78699 4293451753
10.776759 874.79327 790.33722 4286215330
49.57309 874.38135 789.98993 4293385962
51.728439 875.20526 790.68457 4293386214
8.0825691 876.4411 791.72656 4286018211
10.483486 877.84259 790.29224 4286149539
46.772476 876.60956 789.25256 4293385708
48.922932 877.43158 789.94562 4293385704
52.536697 876.4411 791.72656 4293715179
10.198776 880.41815 790.71979 4286018206
49.884403 880.47424 789.89514 4293451494
52.109482 879.9519 791.19873 4293518573
10.703364 883.91852 790.18329 4286083740
49.235474 883.50946 789.8382 4293714925
52.298164 882.93469 791.96973 4291674842
10.416513 886.59778 790.48022 4286083484
46.400002 887.64044 789.39734 4293583341
48.885323 886.59778 790.48022 4293254379
51.376148 885.55511 791.56311 4293515754
10.4 889.47528 790.9444 4285951902
48.799999 889.47528 790.9444 4293188586
11.174312 892.08173 790.526 4285951647
47.889908 892.08173 790.526 4293188586
13.131192 895.63611 790.25293 4285950883
47.779816 895.29138 790.61621 4293253608
49.372478 896.50897 791.64294 4293318888
13.506422 898.49255 790.69928 4285820064
13.87156 901.98834 791.03082 4285821084
49.673397 901.68536 790.77539 4293253861
14.234862 905.4743 791.35413 4285886623
15.816514 903.05591 789.31494 4286082980
47.449543 903.05591 789.31494 4293253860
49.031193 904.86975 790.8443 4292925663
14.185321 908.72675 790.17236 4285820828
15.761468 907.52179 789.15637 4286082971
47.284405 907.52179 789.15637 4292991456
48.86055 908.72675 790.17236 4292990689
13.397247 909.9317 791.18835 4285755035
15.724771 911.29108 789.71851 4285755035
47.174313 911.29108 789.71851 4293187552
49.648624 909.9317 791.18835 4293187552
13.628135 913.29474 791.4079 4285556890
16.472477 913.84979 789.25989 4285623447
47.06422 913.84979 789.25989 4293254112
49.795105 912.89404 791.07001 4293122012
15.688073 915.6488 790.77679 4285491863
47.009174 916.32434 790.03827 4293319390
49.118042 916.29907 790.45294 4293121756
17.176147 920.14423 789.33508 4285361310
46.844036 920.14423 789.33508 4293385186
49.524769 919.64429 790.65753 4293121506
51.64954 919.99261 791.82324 4293187300
17.155964 922.60608 790.10278 4285426073
19.472477 923.87421 789.86401 4285426324
43.618347 923.87421 789.86401 4293779693
45.955048 923.87421 789.86401 4293319141
48.888073 922.5813 790.51788 4293187813
17.13578 925.66064 791.37024 4285491866
20.251375 925.66064 791.37024 4285491609
22.588074 925.66064 791.37024 4285622682
25.64312 926.40491 789.38171 4285557654
28.751377 926.40491 789.38171 4285623445
35.744953 926.40491 789.38171 4285688222
38.076149 926.40491 789.38171 4286877114
41.184402 926.40491 789.38171 4292071399
43.618347 925.66064 791.37024 4293648361
45.955048 925.66064 791.37024 4293450722
48.291744 925.66064 791.37024 4293319132
25.90214 927.98907 790.71747 4285688214
28.751377 927.59308 790.38354 4285427339
31.859632 927.59308 790.38354 4285820830
34.708866 927.98907 790.71747 4285886882
38.076149 927.59308 790.38354 4286877109
41.184402 927.59308 790.38354 4292071387
62.036697 747.77075 794.41772 4286806430
-7.6568809 751.43842 793.58612 4288386719
58.310093 750.08752 792.44702 4286871955
60.666058 750.9881 793.20636 4286871961
63.611008 751.43842 793.58606 4286937748
-7.0458717 755.09766 792.74731 4288123803
-5.2844038 755.09766 792.74731 4287334287
59.889908 755.09766 792.74731 4287003791
61.651375 755.09766 792.74731 4286937998
64.293579 755.09766 792.74731 4287003541
-7.0458717 756.44434 793.88281 4288057495
64.293579 756.44434 793.88281 4286938008
-7.0238533 760.76215 793.59943 4288123289
59.702751 760.09094 793.03345 4287004293
61.458717 760.76215 793.59943 4287070088
63.799999 760.98584 793.78809 4287200152
-5.2568808 762.96387 792.83972 4287202188
59.57798 762.96387 792.83972 4287070088
61.330276 764.30353 793.96936 4287003791
63.958717 764.30353 793.96936 4287069333
-5.2403669 767.93054 793.10339 4287202449
59.390827 767.93054 793.10339 4287069587
61.137615 767.93054 793.10339 4287069587
-4.3633027 770.02698 793.56305 4286742425
58.394493 770.78809 792.89673 4287003538
62.011009 769.26593 794.22937 4287069595
64.631195 769.26593 794.22937 4287003805
66.377983 769.26593 794.22937 4287069587
-5.2293577 772.12073 794.02039 4286873740
59.266056 772.12073 794.02039 4287069333
61.009174 772.12073 794.02039 4287201175
-3.4752293 775.06384 792.57788 4286545308
55.603668 774.3996 792.01782 4287069584
58.210091 775.06384 792.57788 4287069586
-4.3440366 777.05646 794.25806 4286807446
58.891743 779.32697 792.24841 4287201173
60.816513 777.05646 794.25806 4287201173
-3.4642203 781.31329 793.92322 4286676375
-1.7284404 782.16205 792.02271 4286939291
0 782.16205 792.02271 4286940576
57.902752 782.16205 792.02271 4287266198
61.489906 781.31329 793.92322 4287200920
-3.4568808 784.80487 794.2511 4286676373
61.359634 784.14417 793.69403 4287200661
-1.7229358 787.06274 792.23083 4287005338
61.164223 787.72131 792.78613 4287330957
-3.4458716 789.69714 794.45203 4286413199
-1.7192661 791.19678 793.10046 4286742421
61.893578 791.19678 793.10046 4287397764
63.748623 789.69714 794.45203 4287266434
-3.4385321 792.51123 794.20874 4286479246
-1.7137614 794.75647 792.17773 4286742419
0 794.75647 792.17773 4286545821
59.981651 794.75647 792.17773 4287333526
-3.4275229 796.72174 793.83484 4286215820
61.695412 797.37683 794.38721 4287201175
-3.4201834 800.17542 794.13086 4286280864
-1.7100917 798.86798 793.02856 4286412947
0 798.86798 793.02856 4286545569
59.283184 799.30377 793.396 4287332758
-3.4091742 803.71118 793.18811 4286476947
-1.7045871 802.40802 792.08923 4286478242
0 803.05957 792.63867 4286544032
56.251377 802.40802 792.08923 4287398295
58.524158 803.27679 792.82178 4287332501
-3.4091742 805.01434 794.28687 4286345355
-1.7009175 806.49719 792.92114 4286608784
0 806.49719 792.92114 4286544024
56.130276 806.49719 792.92114 4287594647
58.745872 805.75574 793.604 4287528854
-1.7009175 807.79755 794.01758 4286805393
0 807.79755 794.01758 4286741400
58.681648 807.79755 794.01758 4287594647
-1.6954129 811.96179 793.60455 4286740368
0 811.96179 793.60455 4286544024
58.491745 811.31372 793.05811 4287397269
61.034863 812.60986 794.151 4287592560
-1.6917431 815.37762 793.86865 4286412684
0.84587157 814.73096 793.32343 4286544280
58.647095 814.51538 793.14166 4287001722
-1.6862385 818.87415 792.89282 4286346631
0 818.87415 792.89282 4286478744
58.271561 817.77258 793.92603 4290747274
-1.6862385 820.16327 793.97974 4286346890
0 820.16327 793.97974 4285888159
58.112846 820.89624 793.28973 4293118120
-1.6825688 824.20197 794.76892 4285952137
0 822.91565 793.68433 4285952916
58.048622 823.55884 794.22662 4293713387
0 826.39252 792.69189 4286150042
57.020184 827.03357 793.23242 4293582579
-1.6733944 829.77185 792.92523 4286279561
0 829.77185 792.92523 4286019223
56.895412 830.4115 793.4646 4293122794
58.697247 828.95679 794.854 4292925159
-1.6733944 831.6908 794.54321 4286214280
0.83394498 832.77979 793.49939 4286215835
55.967888 832.77979 793.49939 4293254630
58.568806 831.6908 794.54321 4292991204
-1.66789 836.41895 794.60583 4286016896
0.83394498 835.78137 794.06824 4285821594
53.255047 836.59302 792.13647 4293518052
56.152294 835.56885 793.88898 4293320677
1.6642202 838.50146 793.74561 4286150557
55.751373 838.50146 793.74561 4293452007
1.6605505 841.85065 793.95361 4285888140
3.321101 840.58118 792.88318 4286085270
54.798164 840.58118 792.88318 4293583593
3.3100917 845.27704 792.91846 4285952664
54.616512 845.27704 792.91846 4293583593
1.6550459 846.54236 793.98535 4285952648
4.1321101 847.25989 793.28235 4286149532
52.844036 847.97742 792.57935 4293386214
55.383488 847.25989 793.28235 4293385960
4.1229358 850.58667 793.47131 4286017691
6.5908256 850.67224 792.23547 4286149793
51.902752 851.30206 792.76654 4293320168
55.005505 850.55811 793.8833 4293451497
57.798164 850.50238 794.70837 4293385708
4.943119 853.19159 794.35974 4286017687
52.726604 853.19159 794.35974 4293451492
54.374313 853.19159 794.35974 4294175214
4.9266057 856.58716 793.29871 4286083736
6.5688071 855.33167 792.24011 4286149277
50.908257 855.33167 792.24011 4293517298
52.550457 856.58716 793.29871 4293386214
55.013763 857.21484 793.828 4293320426
57.477066 857.84259 794.3573 4293188588
4.9155965 859.89008 793.46759 4286148762
6.5541286 859.26373 792.93945 4285952414
50.794495 859.26373 792.93945 4293385708
52.433029 859.89008 793.46759 4293385962
54.617737 860.09888 793.64362 4293320170
7.084404 862.35132 792.92676 4286017697
50.680733 861.93469 792.57544 4293451755
53.133026 863.18457 793.62927 4293319656
55.58532 863.18457 793.62927 4293385449
4.9045873 864.43445 794.68311 4286082969
7.3431191 865.4939 793.61444 4286082721
52.954128 866.55341 792.54578 4293385449
55.58532 864.43445 794.68311 4293319656
4.8880734 869.04474 794.64636 4285952666
7.0544343 868.68427 793.4704 4285952419
52.834862 869.20892 792.16882 4293517550
55.398167 867.79907 793.59607 4293253862
57.027523 869.04474 794.64636 4293517800
7.3155961 871.07318 793.74072 4286083751
55.815292 871.28027 793.91534 4293649639
7.0287461 874.33887 793.87817 4286018211
53.526604 873.09888 792.83264 4293386214
55.959633 874.33893 793.87817 4293714427
58.392662 875.57898 794.92371 4283463108
7.274312 878.29486 793.28967 4285952667
56.039143 878.08887 793.11603 4286480556
4.8495412 880.14862 794.85266 4285755287
7.5314984 880.66632 793.54517 4285886877
53.223854 880.30865 792.37158 4290690248
55.374313 881.13068 793.0647 4283128408
4.838532 882.77472 794.45093 4285821080
7.2486238 883.46985 793.72894 4286018205
53.102753 884.16492 793.00696 4293120996
55.580734 883.46985 793.72894 4289831325
7.2412844 885.39514 794.04431 4285820828
9.6330271 886.78253 792.59814 4286016924
49.770641 886.78253 792.59814 4293188586
52.178902 886.78253 792.59814 4293648107
54.711926 885.39514 794.04431 4293779443
7.4923549 888.82819 794.323 4285754781
52.446484 888.41913 793.97803 4293384931
55.122326 888.82819 794.323 4293648358
9.993578 892.87811 793.15961 4285951135
49.543121 892.61121 792.28058 4293188072
52 892.53333 793.52295 4293319138
54.400002 893.75653 794.55432 4293253345
11.174312 895.74292 793.61304 4285951904
51.880733 895.74292 793.61304 4293319138
54.27523 896.35315 794.12756 4293187554
11.148623 898.94415 793.69617 4285886369
50.965137 897.72656 792.66956 4293385188
54.946789 898.94415 793.69617 4293187816
10.600612 901.47852 794.08905 4285820577
12.711926 900.3147 792.23572 4285755035
50.847706 900.3147 792.23572 4293253349
52.436699 900.92212 792.74786 4293122276
54.852295 901.79498 794.13788 4293188074
11.097248 905.32129 793.84119 4285820576
12.682569 904.10931 792.81921 4285820830
50.730274 904.10931 792.81921 4292991204
52.315598 904.71533 793.3302 4293385960
10.291743 907.21301 794.12811 4285754522
12.653211 906.68347 792.37366 4285820828
50.612843 906.68347 792.37366 4292925150
53.047707 907.21301 794.12811 4293385190
55.48624 906.53326 794.86304 4293187813
11.07156 909.10187 794.41272 4285753497
12.609175 911.13672 792.20435 4285753497
52.894493 910.11926 793.30853 4293122015
11.033028 912.94415 793.72839 4285688216
13.366055 914.89764 792.7594 4285426074
52.49786 913.5954 793.40546 4293253343
55.165138 913.54663 794.23645 4293253858
11.007339 917.30194 794.78662 4285557656
13.103976 916.50049 794.1109 4285491866
15.688073 917.44788 792.2937 4285361310
52.617432 916.7738 793.03339 4293187556
55.560856 916.90118 794.44873 4293253600
14.119267 919.24695 793.81067 4285557143
15.688073 918.64728 793.30505 4285557660
53.339451 919.24695 793.81067 4293187807
54.908257 919.84662 794.31628 4293254112
15.651376 922.38574 793.84106 4285491865
18.737616 923.72546 792.35461 4285360277
49.966972 923.72546 792.35461 4293253345
52.43211 922.38574 793.84106 4293253859
17.176147 926.11298 794.3678 4285425820
18.737616 925.51611 793.8645 4285425559
49.966972 925.51611 793.8645 4293122011
51.528439 925.51611 793.8645 4293319390
20.251375 927.44708 792.87659 4285491093
22.743855 928.39978 793.67999 4285556378
25.54789 928.87616 794.08167 4285490840
28.819267 928.04254 793.37866 4285753747
31.934862 928.04254 793.37866 4285820830
35.310093 928.24103 793.54608 4285690271
38.166054 928.04254 793.37866 4286677937
40.50275 928.04254 793.37866 4290491341
42.839447 928.04254 793.37866 4293780723
45.955048 928.04254 793.37866 4293254368
48.291744 927.44708 792.87659 4293254110
-8.8623857 749.12585 795.56018 4289306033
65.71743 747.58417 796.87634 4287003541
-10.634862 751.836 797.84534 4289701043
-10.601835 755.49103 797.00305 4289701043
-8.8348627 754.14014 795.86414 4288977063
-8.8073397 757.79095 795.01831 4289042856
65.174309 757.79095 795.01831 4287003289
-8.8073397 759.81091 796.7215 4288910757
-7.901835 763.44702 795.86328 4288649122
-7.5993881 766.02899 796.29614 4288517793
63.958717 765.64319 795.09888 4287003801
66.587158 765.64319 795.09888 4287069584
-7.8743119 769.46191 796.35675 4288452516
62.884403 770.60138 795.35547 4287069850
64.631195 770.60138 795.35547 4287069850
66.377983 770.60138 795.35547 4287135378
-7.8605504 772.60455 797.04443 4288583590
-5.2293577 773.45331 795.14404 4286742150
61.880733 773.45331 795.14404 4287135126
64.631195 771.93683 796.48145 4287069335
67.179817 772.69507 795.81274 4287265936
-6.972477 775.45227 796.82953 4288123046
62.752293 774.78595 796.2677 4287135130
64.495415 775.45227 796.82953 4287332510
67.110092 775.45227 796.82947 4287135380
-5.2128439 779.04907 795.93817 4286741396
62.554127 778.38489 795.37817 4287398047
64.29174 779.71332 796.49817 4287200921
-5.2128439 781.04175 797.61829 4286872723
66.898163 781.04175 797.61829 4287069333
-5.1963301 784.62378 796.7146 4286871951
64.088074 783.29956 795.59802 4287265683
67.552292 784.62378 796.7146 4287332504
-4.6091747 787.44769 796.47949 4286544011
65.248619 787.11737 796.20093 4287265936
67.409172 788.1084 797.03656 4287595161
62.025688 791.01434 795.56274 4287202197
63.748623 791.01434 795.56274 4287070868
-6.8917432 793.64874 797.78394 4288518046
-5.1688075 792.33154 796.67334 4286609799
61.893578 793.82556 795.31702 4287267229
63.748623 792.99011 797.22864 4287266970
-5.1577983 795.14001 796.42529 4286741635
-5.1412845 798.68701 795.49194 4287070590
61.695412 798.68701 795.49194 4287463311
-6.8550458 801.30737 797.70129 4288647835
-5.1302752 802.13647 795.78436 4287003264
61.563301 802.13647 795.78436 4287397781
-4.2614679 806.3175 795.38562 4286739850
61.365139 806.3175 795.38562 4287265936
63.273396 804.09753 797.43787 4286673543
-4.5431194 808.54755 796.39386 4286871693
61.233028 809.0979 795.11401 4287330705
63.92202 808.27234 797.03387 4289698206
66.478897 808.92389 797.58325 4294170826
69.888077 808.92389 797.58325 4293318368
-4.2522936 811.04846 796.75867 4286937485
62.933945 811.04846 796.75867 4291933359
-3.3908257 814.55408 795.79034 4286544012
61.034863 814.55408 795.79034 4292129974
-3.3908257 816.49835 797.42969 4286346890
61.816513 817.23132 796.73969 4293779430
64.42569 816.49835 797.42969 4293319138
66.121101 816.49835 797.42969 4293187552
-1.6862385 821.45245 795.06677 4286018180
59.018349 821.45245 795.06677 4293647842
61.748623 819.25769 797.14026 4293122792
60.704586 823.38611 796.6972 4293056997
-3.3651376 826.77466 796.93811 4286148235
58.889908 825.48828 795.85352 4293056747
60.572475 826.77466 796.93811 4293056999
