# .PCD v0.7 - Point Cloud Data file format
VERSION 0.7
FIELDS x y z rgb
SIZE 4 4 4 4
TYPE F F F U
COUNT 1 1 1 1
WIDTH 1164
HEIGHT 1
VIEWPOINT 0 0 0 1 0 0 0
POINTS 1164
DATA ascii
4.5504589 880.57751 1264.7971 4287859128
-18.899084 887.1792 1265.1313 4287662506
1.133945 886.8902 1264.8877 4287793071
4.53578 886.8902 1264.8877 4288186288
9.0715599 887.75708 1265.6187 4288845757
-18.084404 892.31067 1264.2258 4287202218
-15.823853 891.44653 1263.4973 4287399342
1.1302752 892.31067 1264.226 4287857321
4.521101 893.17474 1264.9545 4287858094
-18.011009 899.05469 1263.3721 4287464872
-15.759633 899.05469 1263.3721 4287530921
0 899.05469 1263.3721 4287333284
-18.011009 900.77588 1264.8234 4287399331
1.1256881 900.77588 1264.8234 4287201949
4.5027523 900.77588 1264.8234 4287202722
-16.830275 906.99799 1264.8376 4287399596
1.4960245 907.28394 1265.0787 4287464100
4.4880733 906.99799 1264.8376 4287003303
6.73211 906.99799 1264.8376 4287398317
-15.644036 913.66833 1263.9218 4287333034
-13.409174 913.66833 1263.9218 4287463852
-11.174312 913.66833 1263.9218 4287595438
-2.2348623 913.66833 1263.9218 4287463850
2.2348623 913.66833 1263.9218 4287135141
-16.761467 915.37695 1265.3623 4287332520
-13.409174 915.37695 1265.3623 4287332522
-11.174312 915.37695 1265.3623 4287332522
-2.2348623 915.37695 1265.3623 4287529897
-15.592661 920.68237 1264.6036 4287595431
-13.365138 920.68237 1264.6036 4287595179
-11.137614 919.83087 1263.8857 4287726765
-7.425077 919.54706 1263.6464 4287464372
-4.4550457 919.83087 1263.8857 4287399331
-2.2275229 919.83087 1263.8857 4287399331
-15.541285 925.96539 1263.826 4287793575
-13.321101 925.96539 1263.826 4287596446
-2.2201834 925.96539 1263.826 4287530147
-15.541285 927.66272 1265.2572 4288123299
-13.321101 927.66272 1265.2572 4287465385
-11.100918 927.66272 1265.2572 4287202470
-6.6605506 927.66272 1265.2572 4287266993
-4.4403667 927.66272 1265.2572 4287529888
-2.2201834 927.66272 1265.2572 4287661474
-8.8513765 932.07178 1263.7427 4289041349
-33.933945 758.98718 1268.2257 4290424287
21.814678 757.13409 1266.6632 4290159293
29.086239 758.06067 1267.4445 4289830580
-33.805504 766.38348 1267.9219 4290293467
16.902752 765.46045 1267.1436 4290487752
19.31743 765.46045 1267.1436 4290619072
21.732111 766.38348 1267.9219 4290619329
25.35413 766.38348 1267.9219 4290356693
28.976147 767.30652 1268.7001 4290355639
31.390825 767.30652 1268.7001 4290553018
-31.271559 771.90564 1266.038 4290161883
-28.866055 772.8252 1266.8132 4290160599
14.433027 772.8252 1266.8132 4290422468
16.838531 772.8252 1266.8132 4290488261
19.244038 772.8252 1266.8132 4290488518
21.649542 773.74469 1267.5885 4290356936
25.257797 773.74469 1267.5885 4290094793
31.271559 773.74469 1267.5885 4290160586
-28.755962 781.07086 1267.2256 4289767386
-26.359632 780.15485 1266.4532 4289570264
16.774311 780.15485 1266.4532 4290488771
19.170643 781.07086 1267.2256 4290225093
22.365747 781.37622 1267.483 4290488008
-26.258715 788.36194 1266.8331 4289897680
19.097248 788.36194 1266.8331 4290356418
22.677982 788.36194 1266.8331 4290422213
26.258715 788.36194 1266.8331 4290487752
-26.258715 790.18695 1268.3719 4289896396
23.871559 790.18695 1268.3719 4290488771
26.258715 790.18695 1268.3719 4290488771
28.645872 790.18695 1268.3719 4290488265
31.033028 790.18695 1268.3719 4290291143
-26.177982 794.16956 1266.4978 4289634503
19.038532 794.16956 1266.4978 4290093763
22.608257 794.16956 1266.4978 4290291395
26.177982 794.16956 1266.4978 4290488769
28.557798 794.16956 1266.4978 4290357186
30.937614 794.16956 1266.4978 4290291393
35.697247 794.16956 1266.4978 4290027453
-28.557798 795.98895 1268.0319 4289964242
-26.177982 795.98895 1268.0319 4289569484
22.608257 795.98895 1268.0319 4290357439
26.177982 795.98895 1268.0319 4290225852
28.557798 795.98895 1268.0319 4290159808
30.937614 795.98895 1268.0319 4290159808
34.507339 795.98895 1268.0319 4289765051
-26.077065 802.30371 1266.8162 4289503176
-23.706423 802.30371 1266.8162 4289305544
14.223853 802.30371 1266.8162 4290619074
16.594496 802.30371 1266.8162 4290619074
18.965137 802.30371 1266.8162 4290488254
28.447706 802.30371 1266.8162 4290160054
30.818348 802.30371 1266.8162 4289897139
34.374313 802.30371 1266.8162 4290554283
-28.447706 804.11609 1268.3444 4289700552
-26.077065 804.11609 1268.3444 4289371588
16.594496 804.11609 1268.3444 4290487491
18.965137 804.11609 1268.3444 4290422461
21.335779 804.11609 1268.3444 4290488254
28.447706 804.11609 1268.3444 4290487976
35.559631 804.11609 1268.3444 4292657081
37.930275 804.11609 1268.3444 4293185255
-30.699083 812.20117 1268.6213 4289503691
-28.337614 811.29846 1267.8602 4289503689
-25.976147 810.39581 1267.0991 4289569482
14.168807 810.39581 1267.0991 4290487502
16.530275 811.29846 1267.8602 4290224581
18.891743 812.20117 1268.6213 4289436590
-25.875229 818.44586 1267.3464 4289108933
11.761468 818.44586 1267.3464 4292135395
14.113762 818.44586 1267.3464 4291806162
16.466055 818.44586 1267.3464 4291609040
-25.875229 820.2442 1268.8628 4289108933
16.466055 820.2442 1268.8628 4292398540
18.818348 820.2442 1268.8628 4293055966
-23.431192 824.66235 1266.048 4289042875
10.544037 824.66235 1266.048 4292858869
14.058716 824.66235 1266.048 4293385199
16.401834 824.66235 1266.048 4293056234
18.744955 824.66235 1266.048 4293187304
-23.431192 826.45374 1267.5583 4288977584
14.058716 826.45374 1267.5583 4293384947
16.401834 826.45374 1267.5583 4293187311
18.744955 826.45374 1267.5583 4293187304
21.088074 826.45374 1267.5583 4293253097
-22.579203 832.71069 1267.6019 4288845501
7.0073395 832.11548 1267.1001 4291543524
10.511009 832.11548 1267.1001 4292859368
14.014679 833.0083 1267.8529 4293055714
16.350458 833.0083 1267.8529 4293121507
18.686239 833.0083 1267.8529 4292792290
21.022018 833.90118 1268.6057 4292792546
-23.266054 841.8291 1268.7502 4288845773
-20.939449 840.93976 1268.0004 4288648647
6.9798164 840.05042 1267.2505 4291345380
10.469725 840.9397 1268.0004 4292397545
13.959633 840.93976 1268.0004 4292858085
-23.174313 847.9433 1267.3655 4288646061
-20.85688 847.9433 1267.3655 4288712110
4.6348624 847.9433 1267.3655 4288384440
6.9522934 847.9433 1267.3655 4290818782
9.2697248 847.9433 1267.3655 4291543004
-23.174313 849.71497 1268.8593 4288252852
6.9522934 849.71497 1268.8593 4290818782
10.42844 849.71497 1268.8593 4291937764
-23.100918 853.52087 1266.8362 4288383675
1.1550459 853.52087 1266.8362 4288187838
4.6201835 853.52087 1266.8362 4288122551
6.9302754 853.52087 1266.8362 4290622686
-23.100918 855.28699 1268.3253 4288318136
2.3100917 855.28699 1268.3253 4287859380
4.6201835 855.28699 1268.3253 4287990966
6.9302754 855.28699 1268.3253 4290491099
9.2403669 855.28699 1268.3253 4291148246
-23.009174 863.09985 1268.3728 4288120769
-19.941284 861.92719 1267.3839 4288318658
1.533945 861.92719 1267.3839 4288119731
4.6018348 862.22034 1267.6311 4288054969
6.9027524 862.22034 1267.6311 4290884068
10.354128 863.09985 1268.3728 4292200657
13.805505 863.09985 1268.3728 4292725218
-20.625689 869.11865 1266.9075 4288514986
2.291743 869.11865 1266.9075 4288056491
4.5834861 869.11865 1266.9075 4288055476
6.8752294 869.11865 1266.9075 4287594925
-20.625689 870.87073 1268.3848 4288253104
4.5834861 870.87073 1268.3848 4288581302
6.8752294 870.87073 1268.3848 4288844730
9.1669722 870.87073 1268.3848 4287599285
-20.559633 874.61212 1266.3073 4287990450
1.1422018 874.61212 1266.3073 4288188081
4.5688071 874.61212 1266.3073 4288451517
-20.559633 876.35852 1267.7799 4287859632
2.2844036 876.35852 1267.7799 4288056243
4.5688071 876.35852 1267.7799 4287794872
-20.477064 883.18665 1266.9971 4287662504
2.2752295 882.31696 1266.2638 4287989683
4.5504589 882.31696 1266.2638 4288316849
6.8256879 883.18665 1266.9971 4289501378
9.8593273 883.47656 1267.2416 4289897415
13.651376 884.0564 1267.7305 4290292651
15.926605 884.0564 1267.7305 4291016117
-20.411009 889.49091 1267.0804 4287728043
4.53578 889.49091 1267.0804 4287661487
6.8036699 889.49091 1267.0804 4288187831
10.205505 889.49091 1267.0804 4286740367
13.60734 889.49091 1267.0804 4286808164
-20.411009 891.22473 1268.5424 4287661998
6.8036699 891.22473 1268.5424 4289042625
10.205505 891.22473 1268.5424 4288649648
13.60734 891.22473 1268.5424 4286484389
15.875229 891.22473 1268.5424 4285234321
-19.21468 895.76709 1267.1403 4287465133
2.2605505 895.76709 1267.1403 4287267235
4.521101 895.76709 1267.1403 4287399081
6.7816515 895.76709 1267.1403 4288780735
9.042202 895.76709 1267.1403 4288848051
-18.011009 902.49707 1266.2747 4287464874
1.1256881 902.49707 1266.2747 4287138210
4.5027523 902.49707 1266.2747 4286940578
6.7541285 902.49707 1266.2747 4285821841
0 904.21826 1267.7258 4287465378
10.131193 904.21826 1267.7258 4284502404
-20.196331 910.42914 1267.7307 4287333546
-17.952293 910.42914 1267.7307 4287333034
0.74801224 910.14325 1267.4896 4287332520
4.4880733 910.42914 1267.7307 4287069356
7.8541279 910.42914 1267.7307 4288910772
11.220183 910.42914 1267.7307 4290752188
-20.113762 917.08551 1266.803 4287398049
-16.761467 917.08551 1266.803 4287529386
-13.409174 917.08551 1266.803 4287529899
1.1174312 917.08551 1266.803 4286676128
4.4697247 917.08551 1266.803 4287004307
6.704587 917.08551 1266.803 4288122788
-22.348623 918.79407 1268.2437 4287398047
-20.113762 918.79407 1268.2437 4287463840
-17.878899 918.79407 1268.2437 4287529382
1.1174312 918.79407 1268.2437 4287004325
4.4697247 918.79407 1268.2437 4286938246
7.8220181 918.79407 1268.2437 4288844976
-15.592661 922.38531 1266.0396 4287922597
-2.2275229 922.38531 1266.0396 4287530147
0 922.38531 1266.0396 4286938782
-20.047707 924.9397 1268.1934 4288581807
-17.820183 924.9397 1268.1934 4288188585
1.1137614 924.9397 1268.1934 4286872998
4.4550457 925.7912 1268.9113 4286807191
-15.541285 929.36011 1266.6884 4289043358
-13.321101 929.36011 1266.6884 4287923651
-11.100918 929.36011 1266.6884 4287792322
-6.6605506 929.36011 1266.6884 4287988931
-4.4403667 929.36011 1266.6884 4287463842
-2.2201834 929.36011 1266.6884 4287398049
-13.321101 931.05743 1268.1195 4289698754
-11.100918 931.05743 1268.1195 4289896133
-6.6605506 931.05743 1268.1195 4289830340
-4.4403667 931.05743 1268.1195 4288253858
-2.2201834 931.05743 1268.1195 4287398549
-34.088074 753.78827 1271.6902 4290424280
29.086239 760.84021 1269.7881 4290356406
31.510092 760.84021 1269.7881 4290356406
-36.3578 762.6933 1271.3506 4290424537
29.086239 762.6933 1271.3506 4290356141
31.510092 762.6933 1271.3506 4290553519
-33.805504 770.07556 1271.0349 4290161116
-31.390825 770.9986 1271.8132 4290160349
21.732111 769.15259 1270.2567 4290488771
25.35413 769.15259 1270.2567 4290291408
28.976147 770.07556 1271.0349 4290291911
31.390825 769.15259 1270.2567 4290488517
33.805504 770.07556 1271.0349 4290291400
37.025074 770.3833 1271.2944 4290357446
-31.271559 775.58368 1269.1392 4289963488
-28.866055 775.58368 1269.1392 4289963738
16.838531 775.58368 1269.1392 4290554312
19.244038 775.58368 1269.1392 4290291143
21.649542 775.58368 1269.1392 4290225350
25.257797 775.58368 1269.1392 4290356938
31.271559 775.58368 1269.1392 4290027464
33.677063 775.58368 1269.1392 4290290891
-31.271559 777.42273 1270.6898 4290095838
25.257797 777.42273 1270.6898 4290487752
28.866055 777.42273 1270.6898 4290553549
31.271559 777.42273 1270.6898 4290355914
-28.755962 784.73486 1270.3149 4289897682
23.963303 783.81885 1269.5426 4290421959
26.359632 783.81885 1269.5426 4290487752
28.755962 784.73486 1270.3149 4290421960
31.152294 784.73486 1270.3149 4290421960
33.548622 785.65088 1271.0874 4290092748
-28.645872 792.01196 1269.9108 4289897932
33.420185 792.01196 1269.9108 4290027453
-28.557798 797.80835 1269.5659 4289963977
-26.177982 797.80835 1269.5659 4289634755
22.608257 797.80835 1269.5659 4290422973
26.177982 797.80835 1269.5659 4290160058
28.557798 797.80835 1269.5659 4290225602
30.937614 797.80835 1269.5659 4290225602
34.507339 797.80835 1269.5659 4289962428
-28.557798 799.62775 1271.1001 4289700298
22.608257 799.62775 1271.1001 4290488509
26.177982 799.62775 1271.1001 4290422715
-28.447706 805.92847 1269.8724 4289634505
18.965137 805.92847 1269.8724 4290488256
21.335779 805.92847 1269.8724 4290488256
-30.818348 807.74084 1271.4006 4290095058
18.965137 807.74084 1271.4006 4290159302
22.521101 807.74084 1271.4006 4290421945
-30.699083 814.90918 1270.9047 4289437902
-28.337614 814.90918 1270.9047 4289174729
18.891743 814.90918 1270.9047 4291145668
21.25321 815.81189 1271.6658 4292593366
-28.227524 822.94171 1271.1372 4289108164
-25.875229 822.94171 1271.1372 4288976579
22.34679 822.94171 1271.1372 4293121251
-25.774311 829.14069 1269.824 4288844738
14.058716 828.245 1269.0688 4293055210
18.744955 828.245 1269.0688 4292792546
22.259632 829.14069 1269.824 4292858082
-23.357798 835.68689 1270.1115 4288582585
14.014679 835.68689 1270.1115 4292989923
16.350458 835.68689 1270.1115 4293121509
18.686239 835.68689 1270.1115 4292989921
21.022018 835.68689 1270.1115 4293055714
-25.693579 837.47266 1271.6172 4288583873
-23.357798 837.47266 1271.6172 4288714437
16.350458 837.47266 1271.6172 4292726501
18.686239 837.47266 1271.6172 4292726499
22.189907 837.47266 1271.6172 4292463071
-23.266054 843.60779 1270.25 4288581050
11.633027 844.49719 1270.9999 4292858608
13.959633 844.49719 1270.9999 4292727266
16.286238 844.49719 1270.9999 4292529888
20.939449 845.38654 1271.7498 4292397800
10.42844 851.48669 1270.3531 4291806435
13.904587 851.48669 1270.3531 4292463593
16.222019 851.48669 1270.3531 4292463593
11.587156 853.25836 1271.8469 4292201191
13.904587 853.25836 1271.8469 4292199907
16.222019 853.25836 1271.8469 4292199907
19.698166 853.25836 1271.8469 4292133347
-23.100918 857.0531 1269.8145 4288515004
4.6201835 857.0531 1269.8145 4287859128
6.9302754 857.0531 1269.8145 4290490847
10.395412 857.0531 1269.8145 4291806431
13.860551 857.0531 1269.8145 4292266463
16.170643 857.0531 1269.8145 4292069341
-23.100918 858.81915 1271.3035 4288188094
10.395412 858.81915 1271.3035 4292069600
13.860551 858.81915 1271.3035 4292266211
16.170643 858.81915 1271.3035 4291937247
19.63578 858.81915 1271.3035 4291937501
-23.009174 865.73846 1270.5975 4288317098
2.3009174 864.85895 1269.856 4288055730
4.6018348 864.85895 1269.856 4288252600
6.9027524 864.85895 1269.856 4287989685
10.354129 865.73846 1270.5975 4289238694
13.805505 865.73846 1270.5975 4290751140
16.106422 865.73846 1270.5975 4292264379
19.174311 866.03168 1270.8447 4292331222
-22.917431 872.6228 1269.8621 4288056243
6.8752294 872.6228 1269.8621 4289109446
10.312843 872.6228 1269.8621 4284572837
13.750459 872.6228 1269.8621 4281614423
16.042202 872.6228 1269.8621 4282074974
18.333944 872.6228 1269.8621 4283053927
-25.209175 874.37482 1271.3394 4288253106
-22.917431 874.37482 1271.3394 4287925425
6.8752294 874.37482 1271.3394 4287202479
10.312843 874.37482 1271.3394 4282994545
13.750459 874.37482 1271.3394 4281939025
16.042202 874.37482 1271.3394 4282333783
19.479816 874.37482 1271.3394 4284373534
-22.844036 878.10498 1269.2524 4287990448
-20.559633 878.10498 1269.2524 4287924655
6.8532109 878.10498 1269.2524 4286411682
10.279816 878.10498 1269.2524 4283517037
13.706422 878.10498 1269.2524 4282859366
15.990826 878.10498 1269.2524 4282333022
-22.844036 879.85144 1270.725 4287399079
11.422018 879.85144 1270.725 4288910001
13.706422 879.85144 1270.725 4288450990
15.990826 879.85144 1270.725 4289832642
18.275229 879.85144 1270.725 4290424498
-22.752293 886.66553 1269.9304 4287662250
6.8256879 885.79584 1269.197 4288976832
11.376146 885.79584 1269.197 4287727532
13.651376 885.79584 1269.197 4288710800
15.926605 886.66553 1269.9304 4289568918
18.960245 886.95538 1270.1748 4291212446
22.752293 887.53528 1270.6637 4291344583
-22.6789 892.95856 1270.0043 4287530415
-20.411009 892.95856 1270.0043 4287727793
11.33945 892.95856 1270.0043 4289965755
13.60734 892.95856 1270.0043 4288980175
15.875229 892.95856 1270.0043 4286677420
-24.946789 894.69238 1271.4662 4287530669
-22.6789 894.69238 1271.4662 4287464622
11.33945 894.69238 1271.4662 4290098638
13.60734 894.69238 1271.4662 4289505515
15.875229 894.69238 1271.4662 4287005381
-20.344954 898.35938 1269.326 4287464624
6.7816515 898.35938 1269.326 4288584375
9.042202 898.35938 1269.326 4289241285
-24.866055 900.08759 1270.7832 4287530149
-22.605505 900.08759 1270.7832 4287398579
-20.344954 900.08759 1270.7832 4287464372
10.172478 900.08759 1270.7832 4285686930
10.131193 905.93945 1269.1771 4288385972
13.508257 905.93945 1269.1771 4288973957
-22.513762 907.66064 1270.6284 4287333547
13.508257 907.66064 1270.6284 4291277749
15.759633 907.66064 1270.6284 4291474871
-22.440367 914.71814 1271.347 4287332000
-20.196331 913.00256 1269.9005 4287267240
1.1220183 913.00256 1269.9005 4287004323
4.4880733 913.00256 1269.9005 4286938530
8.2281342 913.5744 1270.3827 4288910518
11.220183 913.86035 1270.6238 4290817743
13.46422 914.71814 1271.347 4290619324
16.830275 914.71814 1271.347 4290619583
-20.113762 920.50262 1269.6842 4287530147
-17.878899 920.50262 1269.6842 4287856548
2.2348623 920.50262 1269.6842 4286741146
4.4697247 920.50262 1269.6842 4286806158
7.8220181 920.50262 1269.6842 4288778930
11.174312 920.50262 1269.6842 4290817239
-22.348623 922.21118 1271.1249 4288516279
4.4697247 922.21118 1271.1249 4286806426
7.8220181 922.21118 1271.1249 4288516020
11.174312 922.21118 1271.1249 4290883543
13.409174 922.21118 1271.1249 4290357190
-22.275229 928.3457 1271.0652 4289042857
-20.047707 928.3457 1271.0652 4289437615
-17.077675 928.62958 1271.3046 4289502892
1.1137614 928.34564 1271.0652 4287004319
4.4550457 929.19714 1271.7831 4286741385
-13.321101 932.75476 1269.5507 4290619842
-11.100918 932.75476 1269.5507 4291080393
-7.7706423 932.75476 1269.5507 4290158771
-4.4403667 932.75476 1269.5507 4289435556
-11.100918 934.45215 1270.9818 4290027442
-7.7706423 934.45215 1270.9818 4289567665
31.653212 755.64972 1273.2598 4289961658
-36.522934 757.51123 1274.8293 4290753243
34.088074 757.51123 1274.8293 4290290107
-36.3578 764.54633 1272.913 4290161370
33.933945 764.54633 1272.913 4290355904
-36.3578 766.39941 1274.4755 4290292701
-33.805504 772.8446 1273.3698 4290029281
28.976147 772.8446 1273.3698 4290356686
36.220184 772.8446 1273.3698 4290554062
-33.805504 774.69067 1274.9263 4289964251
33.805504 774.69067 1274.9263 4290487239
36.220184 774.69067 1274.9263 4290684617
-31.271559 779.26178 1272.2404 4290293721
26.46055 779.26178 1272.2404 4290356166
28.866055 779.26178 1272.2404 4290487756
31.271559 779.26178 1272.2404 4290421707
33.677063 779.26178 1272.2404 4290355914
36.082569 779.26178 1272.2404 4290619342
-31.271559 781.10083 1273.791 4289767125
33.677063 781.10083 1273.791 4290092996
36.082569 781.10083 1273.791 4290421961
-28.755962 787.48291 1272.6321 4290028239
33.548622 787.48291 1272.6321 4290026940
-31.152294 789.31494 1274.1768 4289964240
-31.033028 797.48694 1274.5271 4289765578
-30.937614 803.26648 1274.1682 4289830603
23.798164 802.35681 1273.4011 4290226357
26.177982 802.35681 1273.4011 4290028978
28.557798 803.26648 1274.1682 4290618783
30.937614 802.35681 1273.4011 4290948266
34.110703 802.65997 1273.6569 4292591554
38.077065 803.26648 1274.1682 4293712365
22.521101 809.55322 1272.9287 4290290348
26.077065 809.55322 1272.9287 4292788930
28.447706 809.55322 1272.9287 4293579482
-33.188992 811.3656 1274.4569 4289503437
22.521101 811.3656 1274.4569 4291145152
26.077065 811.3656 1274.4569 4294105572
28.447706 811.3656 1274.4569 4293844462
-30.699083 817.61731 1273.188 4289371599
-28.337614 817.61731 1273.188 4289174726
22.433945 817.61731 1273.188 4293121504
-30.699083 819.42261 1274.7102 4289108679
23.614679 819.42261 1274.7102 4292989919
25.976147 819.42261 1274.7102 4293516263
-28.227524 826.53839 1274.1699 4288844995
25.875229 826.53839 1274.1699 4293187045
28.227524 826.53839 1274.1699 4292858849
31.363914 826.83813 1274.4227 4292924641
-28.117432 832.72339 1272.8447 4288648385
-25.774311 832.72339 1272.8447 4288582592
23.431192 832.72339 1272.8447 4292594651
25.774311 832.72339 1272.8447 4292726237
28.117432 832.72339 1272.8447 4292594912
30.46055 833.61902 1273.6 4293121259
-25.693579 839.25836 1273.1228 4288648895
16.350458 839.25836 1273.1228 4292726753
18.686239 839.25836 1273.1228 4292660456
22.189907 839.25836 1273.1228 4292660455
-25.693579 841.04407 1274.6284 4288384440
18.686239 841.04407 1274.6284 4292398052
22.189907 841.04407 1274.6284 4292463074
25.693579 841.04407 1274.6284 4292594402
30.365137 841.04407 1274.6284 4292528866
-27.919266 848.94397 1274.7493 4288515256
-25.592661 848.05457 1273.9994 4288318134
13.959633 847.16522 1273.2495 4292463847
16.286238 847.16522 1273.2495 4292397798
19.776146 848.05457 1273.9994 4292331499
23.266054 848.05457 1273.9994 4292398045
-25.491743 855.91589 1274.0878 4288319415
19.698166 855.03009 1273.3408 4291937249
23.174313 855.91589 1274.0878 4292003035
25.491743 856.80176 1274.8347 4292003546
-25.411009 860.58521 1272.7926 4288319929
16.170643 860.58521 1272.7926 4292396253
19.63578 860.58521 1272.7926 4292133597
23.100918 860.58521 1272.7926 4291937235
-27.721102 862.35132 1274.2817 4287990450
-25.411009 862.35132 1274.2817 4287924401
20.790825 862.35132 1274.2817 4292397018
23.100918 862.35132 1274.2817 4292199892
25.411009 862.35132 1274.2817 4292265685
-25.310091 868.37708 1272.8224 4288252852
-23.009174 868.37708 1272.8224 4288318897
11.504587 868.37708 1272.8224 4282665067
13.805505 868.37708 1272.8224 4282200075
16.106422 868.37708 1272.8224 4284174122
19.557798 868.37708 1272.8224 4285881965
23.009174 868.37708 1272.8224 4288445286
-27.61101 870.13611 1274.3055 4288121523
-25.310091 870.13611 1274.3055 4288055730
20.708258 870.13611 1274.3055 4284764544
23.009174 870.13611 1274.3055 4287133510
-27.500917 877.87897 1274.2939 4287990450
-25.209175 877.00293 1273.5553 4288187573
19.861773 876.71094 1273.3091 4288778651
22.917431 877.00293 1273.5553 4290686427
-25.128441 881.5979 1272.1975 4287662000
-22.844036 881.5979 1272.1975 4287530917
19.417431 881.5979 1272.1975 4291869146
22.844036 881.5979 1272.1975 4291869394
-25.128441 883.34436 1273.67 4287727539
20.559633 883.34436 1273.67 4292330197
22.844036 883.34436 1273.67 4292263661
-22.752293 889.27466 1272.1304 4287661998
19.339451 889.27466 1272.1304 4282275685
22.752293 889.27466 1272.1304 4284045686
-25.027523 891.01416 1273.5969 4287464624
19.339451 891.01416 1273.5969 4282862991
22.752293 891.01416 1273.5969 4283781161
36.403671 891.01416 1273.5969 4291408322
-24.946789 896.42621 1272.9281 4287595690
-22.6789 896.42621 1272.9281 4287398831
11.33945 896.42621 1272.9281 4290885853
13.60734 896.42621 1272.9281 4289635527
15.875229 896.42621 1272.9281 4285687691
18.14312 896.42621 1272.9281 4284633683
-27.21468 898.16003 1274.39 4287464356
13.60734 898.16003 1274.39 4283320960
15.875229 898.16003 1274.39 4283584131
19.277065 898.16003 1274.39 4287328868
22.6789 898.16003 1274.39 4291735731
24.946789 898.16003 1274.39 4292064440
-24.866055 901.8158 1272.2404 4287596194
-20.344954 901.8158 1272.2404 4287464635
-24.866055 903.54401 1273.6975 4287465378
-20.344954 903.54401 1273.6975 4287334069
20.344954 903.54401 1273.6975 4291342518
-24.765137 911.10303 1273.531 4287530917
-22.513762 910.24243 1272.8054 4287333032
13.508257 910.24243 1272.8054 4291014845
15.759633 910.24243 1272.8054 4290883258
18.761467 910.5293 1273.0472 4290750909
-24.765137 912.82422 1274.9822 4287464354
20.262384 912.82422 1274.9822 4290619842
22.513762 912.82422 1274.9822 4290554562
11.220183 916.43372 1272.7936 4290883293
13.46422 916.43372 1272.7936 4290619072
16.830275 916.43372 1272.7936 4290356676
-22.440367 918.14929 1274.2401 4287990698
13.46422 918.14929 1274.2401 4290422211
16.830275 918.14929 1274.2401 4290290886
20.196331 918.14929 1274.2401 4290488269
-22.348623 923.9198 1272.5654 4289042093
7.8220181 923.9198 1272.5654 4288319921
11.174312 923.9198 1272.5654 4290555605
13.409174 923.9198 1272.5654 4290423748
15.644036 923.9198 1272.5654 4290094784
-25.700916 925.62836 1274.0061 4288581544
4.4697247 925.62836 1274.0061 4286807182
7.8220181 925.62836 1274.0061 4288319402
11.174312 925.62836 1274.0061 4290753238
13.409174 925.62836 1274.0061 4290554814
15.644036 925.62836 1274.0061 4290291643
-20.047707 930.90015 1273.219 4290818741
-16.335167 931.46777 1273.6976 4290685625
-13.365138 932.60303 1274.6549 4290158771
-4.4550457 932.60303 1274.6549 4290092203
-2.2275229 931.75159 1273.937 4289895338
1.4850153 931.46777 1273.6976 4288975019
4.4550457 931.75159 1273.937 4289107366
-38.957798 760.30341 1277.1836 4290227161
34.088074 759.37268 1276.3989 4290356166
-36.3578 769.17896 1276.8191 4290555105
-33.805504 776.53674 1276.4828 4290096342
-31.271559 782.93982 1275.3417 4289635541
-31.271559 784.77881 1276.8922 4289635277
-31.152294 791.14691 1275.7214 4289964751
-31.152294 792.97894 1277.2662 4289963979
-31.033028 799.31195 1276.0659 4289830351
-33.420185 801.13696 1277.6047 4289370052
-33.317432 805.99561 1276.4692 4289569227
26.177982 805.08594 1275.7023 4290816174
28.557798 805.08594 1275.7023 4292328881
30.937614 805.99561 1276.4692 4293645008
34.507339 805.99561 1276.4692 4293580265
-33.188992 814.08417 1276.7491 4289372111
23.706423 813.17798 1275.9851 4292988374
26.077065 814.08417 1276.7491 4293778406
28.447706 814.08417 1276.7491 4293451249
30.818348 814.99036 1277.5132 4293122540
-30.699083 821.22803 1276.2325 4289436879
25.976147 821.22803 1276.2325 4293515750
28.337614 821.22803 1276.2325 4292990693
30.699083 821.22803 1276.2325 4292793057
-33.060551 823.03333 1277.7548 4289237699
-30.699083 823.03333 1277.7548 4289303748
33.060551 823.03333 1277.7548 4293055712
-30.579817 829.23596 1276.4443 4288910787
31.755962 829.23596 1276.4443 4292661474
-30.579817 831.0343 1277.9607 4288845503
32.93211 831.0343 1277.9607 4292661742
35.284405 831.0343 1277.9607 4292529899
37.636696 831.0343 1277.9607 4292398288
-28.117432 835.4104 1275.1105 4288649666
25.774311 835.4104 1275.1105 4292594400
28.117432 835.4104 1275.1105 4292594400
31.632111 835.4104 1275.1105 4292463074
35.14679 835.4104 1275.1105 4292397798
37.48991 835.4104 1275.1105 4292398038
-28.117432 837.20172 1276.6208 4288648895
25.774311 837.20172 1276.6208 4292989419
28.117432 837.20172 1276.6208 4292726753
31.632111 837.20172 1276.6208 4292529636
35.14679 837.20172 1276.6208 4292464360
37.48991 837.20172 1276.6208 4292595165
-28.029358 842.82983 1276.1342 4288384442
-25.693579 842.82983 1276.1342 4288581822
18.686239 842.82983 1276.1342 4292332007
23.357798 842.82983 1276.1342 4292397536
25.693579 842.82983 1276.1342 4292397536
28.029358 842.82983 1276.1342 4292528866
31.533028 842.82983 1276.1342 4292331998
37.372478 842.82983 1276.1342 4292135134
-28.029358 844.61554 1277.6399 4288383927
25.693579 844.61554 1277.6399 4292464095
28.029358 844.61554 1277.6399 4292069087
31.533028 844.61554 1277.6399 4292068829
35.036697 844.61554 1277.6399 4292331743
37.372478 844.61554 1277.6399 4292069587
-25.592661 850.72266 1276.249 4288384438
23.266054 850.72266 1276.249 4292068315
25.592661 850.72266 1276.249 4292134364
30.245872 850.72266 1276.249 4291936738
37.225689 850.72266 1276.249 4291738824
-27.919266 852.50134 1277.7488 4288318645
25.592661 852.50134 1277.7488 4292199903
27.919266 852.50134 1277.7488 4292067565
31.409174 852.50134 1277.7488 4292133351
37.225689 852.50134 1277.7488 4292002262
-30.126606 860.34515 1277.8224 4288648882
-27.809174 858.57349 1276.3285 4288254136
25.491743 858.57349 1276.3285 4292134614
27.809174 859.45935 1277.0754 4291805143
31.285322 859.45929 1277.0754 4291870676
-27.721102 865.00049 1276.5154 4288187060
-25.411009 864.11743 1275.7709 4288318647
23.100918 864.11743 1275.7709 4292527825
25.411009 865.00049 1276.5154 4290881186
27.721102 865.00049 1276.5154 4291997878
30.801224 865.29486 1276.7635 4292656839
-27.61101 871.8952 1275.7888 4287989935
23.009174 871.8952 1275.7888 4287859100
25.310091 871.8952 1275.7888 4287464342
-27.61101 873.6543 1277.272 4287990450
25.310091 873.6543 1277.272 4288449732
28.761467 873.6543 1277.272 4284373854
-27.500917 880.50702 1276.5099 4287793588
25.209175 880.50702 1276.5099 4290948303
28.264832 880.79901 1276.7561 4286215066
-25.128441 885.96399 1275.8789 4287530416
25.128441 886.83722 1276.6152 4282597984
36.550457 886.83722 1276.6152 4291341503
19.339451 892.75354 1275.0636 4284176494
22.752293 892.75354 1275.0636 4284765214
25.027523 892.75354 1275.0636 4288581208
28.440367 892.75354 1275.0636 4291472294
37.541283 892.75354 1275.0636 4291146184
-28.440367 895.36267 1277.2637 4287595689
20.477064 894.49298 1276.5303 4284436304
22.752293 894.49298 1276.5303 4288381278
25.027523 894.49298 1276.5303 4291605135
28.819572 895.65259 1277.5082 4291211719
31.85321 896.23242 1277.9969 4290883012
34.128441 896.23242 1277.9969 4291080647
37.162079 895.07275 1277.0192 4291146185
-29.482569 899.89386 1275.8519 4287529384
-22.6789 899.89386 1275.8519 4287530428
13.60734 899.89386 1275.8519 4283380309
15.875229 899.89386 1275.8519 4286341250
19.277065 899.89386 1275.8519 4290289064
22.6789 899.89386 1275.8519 4291539913
24.946789 899.89386 1275.8519 4291276741
36.28624 899.89386 1275.8519 4290818756
-28.348625 901.62769 1277.3138 4287399332
-22.6789 901.62769 1277.3138 4287334069
15.875229 901.62769 1277.3138 4290552988
18.14312 901.62769 1277.3138 4291276725
22.6789 901.62769 1277.3138 4290554812
24.946789 901.62769 1277.3138 4290686655
27.21468 901.62769 1277.3138 4290620344
36.28624 901.62769 1277.3138 4290688451
-24.866055 905.27222 1275.1548 4287464872
19.21468 905.27222 1275.1548 4291211452
22.605505 905.27222 1275.1548 4290883514
-27.126606 907.00043 1276.6119 4287399592
-24.866055 907.00043 1276.6119 4287399592
20.344954 907.00043 1276.6119 4290816957
22.605505 907.00043 1276.6119 4290817471
-27.016514 914.54541 1276.4335 4287530147
-24.765137 914.54541 1276.4335 4287267231
20.262384 914.54541 1276.4335 4290488267
22.513762 914.54541 1276.4335 4290357701
-27.016514 916.2666 1277.8848 4287990446
-24.765137 916.2666 1277.8848 4287793323
22.513762 916.2666 1277.8848 4290028986
24.765137 916.2666 1277.8848 4290357951
-24.684404 919.86487 1275.6866 4288779698
16.830275 919.86487 1275.6866 4290356682
20.196331 919.86487 1275.6866 4290817239
-25.806423 921.58044 1277.1332 4288647860
17.952293 921.58044 1277.1332 4290291143
20.196331 921.58044 1277.1332 4290291143
-25.700916 928.19116 1276.167 4291280089
-22.348623 929.04553 1276.8873 4291345085
7.8220181 928.19116 1276.167 4288121758
11.174312 928.19122 1276.167 4290226625
13.409174 928.19122 1276.167 4290225591
15.644036 928.19122 1276.167 4290159798
-13.365138 934.30603 1276.0908 4289107868
-11.137614 934.30603 1276.0908 4288976539
-7.7963305 934.30603 1276.0908 4289370804
-4.4550457 934.30603 1276.0908 4289699505
-2.2275229 934.30603 1276.0908 4290225850
35.640366 934.30603 1276.0908 4288713114
-39.104588 754.737 1279.0303 4290555607
-38.957798 763.09564 1279.538 4290292701
-36.3578 772.88513 1279.9441 4290423511
-33.805504 780.22882 1279.5958 4289701334
-33.677063 787.53735 1279.2183 4289898703
-33.548622 794.81097 1278.8109 4289568199
-33.548622 796.64294 1280.3556 4289633229
30.937614 808.72467 1278.7704 4293581547
33.317432 808.72467 1278.7704 4293187300
30.937614 810.54407 1280.3044 4293253356
33.317432 810.54407 1280.3044 4292858855
-33.188992 817.70892 1279.8054 4289108168
28.447706 816.80273 1279.0414 4293056749
30.818348 816.80273 1279.0414 4292924907
33.979206 818.01099 1280.0602 4292924646
-33.060551 824.83875 1279.277 4289041091
-30.699083 824.83875 1279.277 4289106885
35.42202 824.83875 1279.277 4292859103
-33.060551 826.6441 1280.7992 4288976580
35.42202 826.6441 1280.7992 4292464610
37.783485 826.6441 1280.7992 4292595415
-30.579817 832.83264 1279.4771 4288846275
-31.755962 834.63098 1280.9934 4288780482
-28.117432 838.99304 1278.1312 4288252854
28.117432 838.99304 1278.1312 4292528866
32.803669 838.99304 1278.1312 4292332254
35.14679 838.99304 1278.1312 4292332254
-30.46055 840.78436 1279.6416 4288911037
35.14679 840.78436 1279.6416 4292332254
-30.365137 847.29413 1279.8983 4288714172
-28.029358 848.18701 1280.6511 4288384438
25.693579 846.40125 1279.1455 4292726753
28.029358 847.29413 1279.8983 4292002527
31.922323 846.99652 1279.6473 4292133851
35.036697 847.29413 1279.8983 4292199387
37.372478 846.40125 1279.1455 4292068809
-27.919266 854.28009 1279.2485 4288319929
27.919266 854.28009 1279.2485 4291870688
31.409174 854.28009 1279.2485 4291805148
34.899082 854.28009 1279.2485 4292068317
37.225689 854.28009 1279.2485 4292068821
-30.245872 856.05878 1280.7483 4288912054
34.899082 856.05878 1280.7483 4292133847
37.225689 856.05878 1280.7483 4292068817
-30.126606 863.00269 1280.0631 4288713643
32.444038 862.11688 1279.3162 4292132815
34.761467 863.00269 1280.0631 4292198350
37.078899 863.00269 1280.0631 4291869657
-30.031193 869.41565 1280.2383 4287989935
25.411009 867.6496 1278.7491 4288251735
27.721102 868.53259 1279.4937 4287268729
31.186237 868.53259 1279.4937 4287595394
34.651375 869.41565 1280.2383 4285949041
36.961468 869.41565 1280.2383 4289561242
-29.911926 875.41333 1278.7551 4288054974
25.310091 875.41333 1278.7551 4290685649
28.761467 875.41333 1278.7551 4285623444
32.212845 875.41333 1278.7551 4282269525
34.51376 875.41333 1278.7551 4281940561
-29.911926 877.17242 1280.2384 4288121284
29.911926 877.17242 1280.2384 4284635273
32.212845 877.17242 1280.2384 4282861161
34.51376 877.17242 1280.2384 4281874266
36.814678 877.17242 1280.2384 4283648589
-28.64679 884.01117 1279.4645 4287662003
25.209175 883.13513 1278.7258 4288449691
28.64679 884.01123 1279.4645 4284962846
32.084404 884.88721 1280.2031 4290813053
34.376148 884.88721 1280.2031 4291668361
-28.174311 889.74799 1279.0695 4287661999
25.128441 888.58368 1278.0878 4283320610
28.555046 888.58368 1278.0878 4288778348
31.981651 890.33014 1279.5603 4291408845
34.266056 889.45691 1278.824 4291343049
-27.302752 897.97186 1279.4636 4287267229
28.819572 898.5517 1279.9525 4290817466
31.85321 898.84155 1280.1969 4290358466
34.128441 898.84155 1280.1969 4290819016
-28.726606 903.93945 1279.2631 4287464870
24.946789 904.22839 1279.5067 4290949054
28.348625 904.22845 1279.5067 4290949051
31.750458 904.22839 1279.5067 4290687942
34.018349 905.09534 1280.2377 4290425032
36.28624 904.22839 1279.5067 4290752450
22.605505 908.72864 1278.0691 4290817219
24.866055 908.72864 1278.0691 4290685889
-27.126606 910.45685 1279.5264 4287595940
24.866055 910.45685 1279.5264 4290686149
28.256882 910.45685 1279.5264 4290489271
31.647707 910.45685 1279.5264 4290555085
33.908257 910.45685 1279.5264 4290489291
-29.387156 912.18506 1280.9835 4287529895
24.866055 912.18506 1280.9835 4290555081
28.256882 912.18506 1280.9835 4290488769
31.647707 912.18506 1280.9835 4290620357
33.908257 912.18506 1280.9835 4290554564
-27.016514 917.98779 1279.3361 4288911540
22.513762 917.98779 1279.3361 4290620596
24.765137 917.98779 1279.3361 4290817718
22.513762 919.70905 1280.7874 4290226102
24.765137 919.70905 1280.7874 4290291895
36.022018 919.70905 1280.7874 4290027703
17.952293 923.29602 1278.5797 4290226111
20.196331 923.29602 1278.5797 4290028988
35.904587 923.29602 1278.5797 4290094013
17.952293 925.0116 1280.0262 4290226363
20.196331 925.0116 1280.0262 4290226363
22.440367 925.0116 1280.0262 4289700789
24.684404 925.0116 1280.0262 4289766582
35.904587 925.0116 1280.0262 4289700537
-24.583487 930.75409 1278.328 4292069089
-22.348623 931.6084 1279.0483 4292462811
-20.113762 931.6084 1279.0483 4292068054
-17.133944 931.89313 1279.2885 4290950584
0.74495411 931.89313 1279.2885 4290553530
4.4697247 932.46265 1279.7686 4290290613
7.8220177 931.60834 1279.0483 4289501611
11.174312 931.6084 1279.0483 4289765041
13.409174 931.6084 1279.0483 4289896369
15.644036 931.6084 1279.0483 4289896369
35.757797 930.75409 1278.328 4289304238
-41.548622 760.34247 1283.7567 4291082190
-38.957798 764.95709 1281.1075 4290357981
-38.957798 766.8186 1282.6771 4290291936
-36.3578 775.66467 1282.2877 4290425041
-33.933945 775.66467 1282.2877 4289701332
-36.3578 777.5177 1283.8501 4290556627
-33.805504 782.07483 1281.1523 4289503691
-33.677063 790.2959 1281.5442 4289963979
-35.944954 800.30701 1283.4451 4289634503
-35.807339 806.61194 1282.2211 4289898186
-35.807339 808.43701 1283.7599 4289766345
33.317432 812.36346 1281.8385 4292858601
-35.697247 814.18286 1283.3726 4289700039
-35.559631 820.42749 1282.0977 4288976832
35.559631 820.42749 1282.0977 4293121761
-35.559631 822.23987 1283.6259 4288648391
37.930275 822.23987 1283.6259 4292858841
-33.847706 829.65302 1283.3363 4288911809
-31.755962 836.42932 1282.5096 4288845503
-30.46055 842.57568 1281.1521 4288844989
-30.365137 850.8656 1282.9097 4288385978
35.036697 849.97272 1282.1569 4292067552
-32.572475 857.83752 1282.248 4288714675
34.899082 857.83752 1282.248 4291805136
37.225689 857.83752 1282.248 4291936213
-32.572475 859.61621 1283.7478 4288582826
-30.126606 865.66028 1282.304 4288647083
34.761467 865.66028 1282.304 4292329930
37.078899 865.66028 1282.304 4292132061
-32.444038 867.43195 1283.7977 4287989935
-34.651375 872.94781 1283.2164 4288253352
-31.571253 871.77045 1282.2236 4288054712
32.341286 871.18176 1281.7273 4282792049
34.651375 871.18176 1281.7273 4284897425
36.961468 872.06482 1282.4719 4282470476
-32.212845 878.93152 1281.7216 4288252604
-29.911926 878.93152 1281.7216 4288121019
32.212845 878.93152 1281.7216 4283383323
34.51376 878.93152 1281.7216 4287133524
36.814678 878.93152 1281.7216 4290156170
-32.212845 880.69055 1283.2048 4287859128
32.212845 880.69055 1283.2048 4286604336
34.51376 880.69055 1283.2048 4290486123
36.814678 880.69055 1283.2048 4290947512
-29.79266 886.63922 1281.6804 4287990966
32.084404 886.63922 1281.6804 4291606219
-32.084404 888.3913 1283.1577 4287925425
-29.697248 892.07654 1281.0328 4288055978
27.412844 892.07654 1281.0328 4291605454
31.981651 892.07654 1281.0328 4290948546
34.266056 892.07654 1281.0328 4290948546
-31.981651 895.56946 1283.978 4287595177
34.128441 901.45068 1282.3969 4290950853
-31.85321 903.19019 1283.8635 4287596194
-28.726606 907.40704 1282.1869 4287398813
28.348625 906.8291 1281.6996 4290686135
31.750458 906.8291 1281.6996 4290687697
34.018349 906.8291 1281.6996 4290358733
36.28624 907.69604 1282.4305 4290489025
-29.387156 913.91327 1282.4407 4288516531
28.256882 913.91327 1282.4407 4290357438
31.647707 913.91327 1282.4407 4290488767
33.908257 913.91327 1282.4407 4290488767
-29.387156 915.64148 1283.8978 4288846009
28.256882 915.64148 1283.8978 4290620598
31.647707 915.64148 1283.8978 4290488506
33.908257 915.64148 1283.8978 4290422713
36.168808 915.64148 1283.8978 4290291645
-29.267889 922.29083 1282.9641 4291014860
22.513762 921.43024 1282.2385 4290160308
24.765137 921.43024 1282.2385 4290291895
28.142202 922.29083 1282.9642 4289963701
31.519266 922.29083 1282.9641 4290028986
33.770641 922.29083 1282.9641 4290160572
17.952293 926.72723 1281.4728 4290094515
20.196331 926.72723 1281.4728 4290094515
22.440367 926.72723 1281.4728 4289831607
25.806423 926.72723 1281.4728 4289962933
35.904587 926.72723 1281.4728 4289831092
-26.92844 928.44275 1282.9193 4291542745
17.952293 928.44275 1282.9193 4289633712
20.196331 928.44275 1282.9193 4290028470
22.440367 928.44275 1282.9193 4289502896
25.806423 928.44275 1282.9193 4289699760
31.416513 928.44275 1282.9193 4289897141
-16.761467 934.1712 1281.2092 4288583854
-13.409174 934.1712 1281.2092 4287531421
-11.174312 935.02551 1281.9296 4287268259
-6.704587 935.02551 1281.9296 4287332766
-4.4697247 935.02551 1281.9296 4287399055
-2.2348623 935.02551 1281.9296 4287399055
4.4697247 934.1712 1281.2092 4289698213
7.8220181 934.1712 1281.2092 4289896362
11.174312 934.1712 1281.2092 4290160560
13.409174 934.1712 1281.2092 4290160560
31.288073 935.87976 1282.6499 4285556093
-41.704586 754.77606 1285.6035 4290951111
36.798164 754.77606 1285.6035 4290355907
-41.548622 763.1452 1286.1199 4290753740
-38.957798 769.61078 1285.0314 4290226131
-36.3578 779.37079 1285.4126 4290161871
-36.3578 781.22388 1286.9751 4289964753
-36.082569 793.974 1284.6454 4289963206
-36.082569 795.81299 1286.196 4289700037
-38.341286 803.97107 1286.5344 4289700550
-35.944954 802.13904 1284.9897 4289832139
-38.194496 812.08698 1286.8374 4289568197
-35.807339 810.26196 1285.2987 4289635277
-35.697247 816.00226 1284.9066 4289437129
-35.559631 824.05225 1285.1539 4288911289
-35.559631 825.86462 1286.6821 4289438146
-35.42202 832.96289 1286.1271 4288844485
-32.93211 838.22766 1284.026 4288845243
-35.284405 840.026 1285.5424 4288779198
-32.93211 840.026 1285.5424 4288844989
-32.803669 847.05408 1284.9281 4288517307
-32.700916 853.54419 1285.1682 4288912054
-35.036697 855.3299 1286.6738 4288779448
-34.899082 863.17358 1286.7474 4288516783
-32.572475 862.28424 1285.9976 4288581545
-34.761467 869.20361 1285.2916 4288517033
-34.651375 874.71393 1284.7056 4287989933
-32.341286 874.71393 1284.7056 4288121284
-34.651375 876.47998 1286.1947 4288121775
-34.51376 884.20874 1286.1711 4288122034
-32.212845 883.32922 1285.4296 4287793586
-32.084404 890.14331 1284.635 4287990185
-32.084404 891.89539 1286.1123 4287595431
-31.981651 898.18909 1286.1868 4287464872
-31.85321 904.92957 1285.3301 4287201688
-31.85321 906.66901 1286.7968 4287069333
-31.750458 910.29675 1284.6234 4287529895
36.28624 910.29675 1284.6234 4290554812
-31.750458 912.03064 1286.0853 4288845495
36.28624 912.03064 1286.0853 4290554814
-31.647707 917.36969 1285.355 4288912824
-29.387156 917.36969 1285.355 4288386480
28.256882 917.36969 1285.355 4290160054
31.647707 917.36969 1285.355 4290027955
33.908257 917.36969 1285.355 4290159541
-31.647707 919.0979 1286.8123 4289830855
-31.519266 925.73322 1285.8667 4292266710
-29.267889 925.73322 1285.8667 4292332760
29.267889 925.73322 1285.8667 4290160052
31.519266 924.87262 1285.1411 4290095032
33.770641 925.73322 1285.8667 4289831604
-25.806423 931.01617 1285.0891 4291936977
-22.440367 931.87396 1285.8124 4290884556
-20.196331 931.87396 1285.8124 4289700539
-8.9761467 931.87396 1285.8124 4287135128
1.1220183 931.87396 1285.8124 4289040026
17.204281 931.30206 1285.3302 4289831091
20.196331 931.01617 1285.0891 4290225852
22.440367 931.01617 1285.0891 4289961906
25.806423 931.01617 1285.0891 4289962164
29.172478 931.01617 1285.0891 4289304237
31.416513 931.01617 1285.0891 4288253605
34.408562 931.30206 1285.3302 4286016126
29.053211 937.58838 1284.0905 4282461537
31.288073 937.58838 1284.0905 4283248464
-44.157799 759.46484 1289.5569 4292464360
-43.992661 765.94794 1288.4832 4292133608
-41.548622 765.94794 1288.4832 4290817748
-38.957798 772.40302 1287.3857 4290162125
-38.957798 774.26447 1288.9552 4290162125
-36.3578 783.0769 1288.5375 4289964753
-36.220184 789.45898 1287.3785 4290029002
-38.488075 799.49109 1289.2972 4289700552
-38.341286 805.80304 1288.0791 4289634503
-38.341286 807.63507 1289.6239 4289569484
-38.194496 814.82446 1289.1456 4289239748
-38.077065 821.46045 1289.5088 4288582324
-37.930275 827.677 1288.2102 4288648634
-37.930275 829.48938 1289.7384 4288778694
-37.783485 835.6709 1288.4104 4288516031
-35.42202 835.6709 1288.4104 4288516031
-37.783485 837.47626 1289.9326 4288779198
-35.284405 841.82434 1287.0586 4288844991
-32.93211 841.82434 1287.0586 4288714173
-35.284405 843.62268 1288.575 4288582848
-35.14679 850.63672 1287.949 4288714945
-32.803669 849.74103 1287.1937 4288188340
-35.036697 857.1156 1288.1796 4288451249
-35.036697 858.90131 1289.6852 4288712879
-37.225689 866.73102 1289.7469 4288319397
-34.899082 864.95233 1288.2472 4288517035
-34.651375 878.24609 1287.6838 4288188081
-34.651375 880.01221 1289.173 4288253104
-34.51376 886.84729 1288.396 4288056753
-34.376148 895.39954 1289.0669 4287924655
-34.266056 902.55524 1289.8682 4287333536
-34.128441 908.40845 1288.2634 4287793587
-34.128441 910.14789 1289.7301 4289108140
-34.018349 913.7644 1287.5472 4289239454
-31.750458 913.7644 1287.5472 4289043388
-34.018349 915.49823 1289.0092 4289898938
-31.647707 920.82611 1288.2694 4292528343
-33.908257 922.55432 1289.7266 4292398302
-31.519266 928.315 1288.0437 4292135634
-29.267889 928.315 1288.0437 4292135634
-31.519266 930.03619 1289.4949 4291937489
-29.267889 930.03619 1289.4949 4291871696
-22.440367 933.58954 1287.2589 4289635009
-20.196331 934.44739 1287.9822 4288977071
-16.830275 934.44739 1287.9822 4287925680
-13.46422 934.44739 1287.9822 4287136678
-11.220183 935.30518 1288.7056 4287005086
-8.2281342 934.73334 1288.2233 4286873239
-4.4880733 935.30518 1288.7056 4286214028
-2.2440367 935.30518 1288.7056 4286214028
1.4960245 934.16144 1287.7411 4285949813
4.4880733 934.44739 1287.9822 4286603861
7.8541284 934.44739 1287.9822 4287919733
11.220183 934.44739 1287.9822 4288840846
13.46422 934.44739 1287.9822 4288908692
16.830275 934.44739 1287.9822 4288711318
20.196331 934.44739 1287.9822 4288711580
22.440367 934.44739 1287.9822 4288710808
25.806423 934.44739 1287.9822 4287922072
29.172478 933.58954 1287.2589 4287265416
-44.322937 754.83624 1292.1943 4292398050
-44.157799 761.34033 1291.1383 4292463843
-46.611008 763.21582 1292.7196 4292923110
-43.992661 767.81641 1290.0586 4292068587
-41.548622 767.81641 1290.0586 4290686934
-43.992661 769.68494 1291.634 4291937764
-41.548622 769.68494 1291.634 4290556111
-41.392662 776.12592 1290.5248 4290358983
-38.957798 776.12592 1290.5248 4290030285
-41.392662 777.98743 1292.0944 4290424778
-38.957798 777.98743 1292.0944 4289833424
-36.3578 784.92993 1290.1 4289898445
-38.781651 786.78302 1291.6624 4289765830
-38.634861 794.0741 1291.2698 4289634245
-40.893578 803.16913 1292.3984 4290160588
-40.737614 811.29907 1292.7133 4289437381
-38.194496 817.56201 1291.4539 4288648391
-40.58165 819.38696 1292.9927 4289305540
-38.077065 823.27979 1291.0428 4288582837
-40.456882 825.09918 1292.5769 4289239997
-40.300919 833.11414 1292.7947 4289503159
-37.930275 831.30176 1291.2666 4288581054
-40.144955 839.28162 1291.4548 4289305540
-37.783485 839.28162 1291.4548 4288713405
-40.144955 841.08698 1292.9771 4289108931
-37.783485 841.08698 1292.9771 4288582848
-37.636696 845.42102 1290.0913 4288451519
-35.284405 845.42102 1290.0913 4288451519
-37.636696 847.21942 1291.6075 4288386237
-37.48991 853.32373 1290.2145 4288516533
-37.48991 855.11505 1291.7249 4288254126
-37.372478 860.68701 1291.1909 4288319147
-37.372478 862.47278 1292.6965 4288319399
-37.225689 868.50977 1291.2467 4288319401
-37.225689 870.28845 1292.7465 4288121775
-37.078899 877.17627 1292.0139 4287990446
-36.961468 881.77826 1290.6621 4287990448
-36.961468 883.54431 1292.1511 4288056495
-36.814678 889.48596 1290.6208 4287661737
-34.51376 889.48596 1290.6208 4287661737
-36.814678 891.245 1292.104 4287661483
-34.51376 891.245 1292.104 4287661483
-36.667889 898.90363 1292.0215 4287530917
-34.376148 898.02759 1291.2828 4287596200
-34.266056 904.3017 1291.3408 4287266977
-36.550457 906.04816 1292.8134 4287925173
-34.018349 917.23206 1290.4711 4291212747
-34.018349 918.96588 1291.933 4292331995
-33.908257 925.14661 1291.9124 4292267480
-28.1422 931.75739 1290.9462 4291674324
-24.765137 931.75739 1290.9462 4291213780
-27.016514 933.47858 1292.3975 4291477200
-24.765137 933.47858 1292.3975 4290885062
-22.513762 933.47858 1292.3975 4289503407
0 933.47858 1292.3975 4285752704
-16.830275 937.02069 1290.152 4288843946
-13.46422 937.02069 1290.152 4288515234
-4.4880733 937.02069 1290.152 4287135139
-2.2440367 937.02069 1290.152 4286214037
2.2440367 937.02069 1290.152 4283055727
4.4880733 937.02069 1290.152 4283315272
7.8541279 937.87854 1290.8752 4283511879
11.220183 937.87854 1290.8752 4284432721
13.46422 937.87854 1290.8752 4284565052
16.830275 937.87854 1290.8752 4284630855
20.196331 937.87854 1290.8752 4284433486
22.440367 937.87854 1290.8752 4284169827
25.806423 937.87854 1290.8752 4283776611
29.172478 937.87854 1290.8752 4282922843
31.416513 937.87854 1290.8752 4282987854
33.660549 937.02069 1290.152 4283250260
-46.78532 757.66003 1294.5752 4292989159
-46.611008 766.02905 1295.0917 4292661480
-46.436699 773.42188 1294.7849 4292463843
-43.992661 772.48767 1293.9972 4291674838
-41.548622 771.55341 1293.2095 4290490305
-41.392662 779.84888 1293.6639 4290358983
-38.957798 779.84888 1293.6639 4289701582
-41.392662 781.71033 1295.2334 4290292676
