# .PCD v0.7 - Point Cloud Data file format
VERSION 0.7
FIELDS x y z rgb
SIZE 4 4 4 4
TYPE F F F U
COUNT 1 1 1 1
WIDTH 1171
HEIGHT 1
VIEWPOINT 0 0 0 1 0 0 0
POINTS 1171
DATA ascii
-25.616514 928.3457 1271.0652 4286740114
-58.436699 755.64972 1273.2598 4290293473
-2.4348624 755.64972 1273.2598 4290357201
0 755.64972 1273.2598 4289042645
-58.436699 757.51123 1274.8293 4290424541
-58.172478 764.54633 1272.913 4290293971
2.4238532 764.54633 1272.913 4290358998
7.2715597 764.54633 1272.913 4290292941
2.4238532 766.39941 1274.4755 4290424028
4.8477063 766.39941 1274.4755 4290555085
7.2715597 766.39941 1274.4755 4290489291
-57.952293 772.8446 1273.3698 4290161101
2.4146788 772.8446 1273.3698 4290160601
4.8293576 772.8446 1273.3698 4290225361
2.4146788 774.69067 1274.9263 4289831887
4.8293576 774.69067 1274.9263 4290028239
7.2440367 774.69067 1274.9263 4290488790
9.6587152 774.69067 1274.9263 4290621389
-57.732109 779.26178 1272.2404 4290028750
-55.326607 779.26178 1272.2404 4290094543
2.4055047 779.26178 1272.2404 4289831887
-57.732109 781.10083 1273.791 4289700037
2.4055047 781.10083 1273.791 4289832141
4.8110094 781.10083 1273.791 4290226383
-57.511925 787.48291 1272.6321 4290029002
-55.115597 787.48291 1272.6321 4290423759
-57.511925 789.31494 1274.1768 4290094030
-57.291744 796.57446 1273.7577 4289566919
-54.904587 796.57446 1273.7577 4289830091
0 796.57446 1273.7577 4289634249
-57.115597 802.35681 1273.4011 4289567430
-54.735779 802.35681 1273.4011 4289501637
-4.7596331 801.44714 1272.6342 4289437383
-2.3798165 802.35681 1273.4011 4289305026
0 803.26648 1274.1682 4289436099
-54.524769 809.55322 1272.9287 4289369539
-52.154129 809.55322 1272.9287 4289304261
-7.1119266 809.55322 1272.9287 4289370304
-4.7412844 809.55322 1272.9287 4289304509
-2.3706422 809.55322 1272.9287 4289633731
-55.710091 811.3656 1274.4569 4289304259
-2.3706422 811.3656 1274.4569 4289437635
0 811.3656 1274.4569 4289042627
-54.313763 817.61731 1273.188 4289633729
-4.7229357 817.61731 1273.188 4288911550
-2.3614678 817.61731 1273.188 4289240772
-56.675228 819.42261 1274.7102 4288779448
-2.3614678 819.42261 1274.7102 4288846529
0 819.42261 1274.7102 4288648893
-55.2789 826.53839 1274.1699 4288976569
0 826.53839 1274.1699 4288911807
-56.234863 833.61902 1273.6 4288975548
-2.3431194 832.72339 1272.8447 4289106879
0 833.61902 1273.6 4288911540
-56.058716 839.25836 1273.1228 4288909492
-53.722935 839.25836 1273.1228 4288514734
-4.6715598 839.25836 1273.1228 4288516531
-2.3357799 839.25836 1273.1228 4288779446
-56.058716 841.04407 1274.6284 4288777650
-4.6715598 841.04407 1274.6284 4288319149
-2.3357799 841.04407 1274.6284 4288582578
0 841.04407 1274.6284 4288714423
-55.838531 848.94397 1274.7493 4288580802
-9.3064222 848.94397 1274.7493 4288384940
-4.6532111 848.05457 1273.9994 4288253355
-2.3266056 848.94397 1274.7493 4288713905
-55.618347 855.91589 1274.0878 4288188336
-10.428441 855.91589 1274.0878 4288383406
-6.9522934 855.91589 1274.0878 4288448682
-55.442204 860.58521 1272.7926 4288122801
-11.550459 860.58521 1272.7926 4287924401
-57.752293 862.35132 1274.2817 4288254124
-55.442204 862.35132 1274.2817 4287924653
-9.2403669 862.35132 1274.2817 4287793837
-6.9302754 862.35132 1274.2817 4287859630
-55.222019 868.37708 1272.8224 4287991472
-52.921101 868.37708 1272.8224 4287991472
-50.620182 868.37708 1272.8224 4288514484
-13.805505 868.37708 1272.8224 4287661233
-10.354128 868.37708 1272.8224 4287661486
-55.222019 870.13611 1274.3055 4288122027
-52.921101 870.13611 1274.3055 4288122027
-13.805505 870.13611 1274.3055 4287530417
-10.354128 870.13611 1274.3055 4287596207
-52.710091 877.00293 1273.5553 4288122035
-50.41835 877.00293 1273.5553 4287925419
-16.042202 877.00293 1273.5553 4287793071
-13.750459 877.00293 1273.5553 4287662250
-10.694801 877.29492 1273.8015 4287728298
-47.972477 881.5979 1272.1975 4287728032
-15.990826 881.5979 1272.1975 4287661496
-47.972477 883.34436 1273.67 4287727778
-15.990826 883.34436 1273.67 4287398831
-13.706422 883.34436 1273.67 4287661487
-47.779816 889.27466 1272.1304 4287464356
-15.926605 889.27466 1272.1304 4287856298
-13.651376 889.27466 1272.1304 4287660972
-50.055046 891.01416 1273.5969 4287332000
-13.651376 891.01416 1273.5969 4287529132
-10.238532 891.01416 1273.5969 4287792814
-47.625687 896.42621 1272.9281 4287530149
-22.6789 896.42621 1272.9281 4287399081
-19.277065 896.42621 1272.9281 4287596208
-15.875229 896.42621 1272.9281 4287332784
-13.60734 896.42621 1272.9281 4287267240
-10.205505 896.42621 1272.9281 4287201447
-49.893578 898.16003 1274.39 4287333286
-47.625687 898.16003 1274.39 4287333286
-18.14312 898.16003 1274.39 4287333034
-15.875229 898.16003 1274.39 4287333034
-13.60734 898.16003 1274.39 4287202470
-10.205505 898.16003 1274.39 4287070629
-45.21101 901.8158 1272.2404 4287266729
-42.950459 901.8158 1272.2404 4287200936
-28.256882 901.8158 1272.2404 4287070110
-24.866055 901.8158 1272.2404 4287201697
-22.605505 901.8158 1272.2404 4287333024
-19.21468 901.8158 1272.2404 4287267231
-46.341286 903.54401 1273.6975 4287201445
-42.950459 903.54401 1273.6975 4286938278
-27.126606 903.54401 1273.6975 4287201438
-24.866055 903.54401 1273.6975 4287267231
-22.605505 903.54401 1273.6975 4287267494
-19.21468 903.54401 1273.6975 4287135390
-15.823853 903.54401 1273.6975 4287069335
-42.776146 909.38184 1272.0797 4287200419
-40.524769 909.38184 1272.0797 4287398299
-33.770641 909.38184 1272.0797 4287003803
-31.519266 909.38184 1272.0797 4287003805
-27.766973 909.95557 1272.5635 4287135391
-24.765137 910.24243 1272.8054 4287069598
-22.513762 909.38184 1272.0797 4286872483
-19.136696 911.10303 1273.531 4287069855
-15.759633 911.10303 1273.531 4286872471
-51.781651 912.82422 1274.9822 4287333538
-24.765137 912.82422 1274.9822 4287200671
-19.136696 912.82422 1274.9822 4287136158
-15.759633 912.82422 1274.9822 4286872985
-13.508257 912.82422 1274.9822 4286476684
-49.368809 916.43372 1272.7936 4287267742
-47.124771 916.43372 1272.7936 4287070620
-44.880733 916.43372 1272.7936 4287070116
-20.196331 916.43372 1272.7936 4287201438
-16.830275 916.43372 1272.7936 4287135895
-13.46422 916.43372 1272.7936 4286740887
-17.952293 918.14929 1274.2401 4287003289
-49.166973 923.9198 1272.5654 4286940326
-46.93211 923.9198 1272.5654 4286413982
-43.579819 923.9198 1272.5654 4286806424
-24.583487 923.9198 1272.5654 4287003803
-22.348623 923.9198 1272.5654 4287069587
-15.644036 923.9198 1272.5654 4287265181
-13.409174 923.9198 1272.5654 4286937494
-11.174312 923.9198 1272.5654 4287003287
-8.9394493 923.9198 1272.5654 4287069333
-51.401836 925.62836 1274.0061 4288254628
-49.166973 925.62836 1274.0061 4287530669
-46.93211 925.62836 1274.0061 4287267240
-43.579819 925.62836 1274.0061 4287398047
-29.053211 925.62836 1274.0061 4287003553
-26.818348 925.62836 1274.0061 4286872471
-22.348623 925.62836 1274.0061 4286938250
-20.113762 925.62836 1274.0061 4287135630
-16.761467 925.62836 1274.0061 4287069335
-13.409174 925.62836 1274.0061 4287069335
-11.174312 925.62836 1274.0061 4287135128
-40.095413 930.90015 1273.219 4289040058
-37.867889 931.75159 1273.937 4290223291
-34.526604 931.75159 1273.9369 4289764025
-31.185322 931.75159 1273.937 4288845486
-28.957798 931.75159 1273.937 4288581800
-25.616514 931.75159 1273.937 4287662501
2.4348624 759.37268 1276.3989 4290423246
4.8697248 760.30341 1277.1836 4290424015
7.3045874 759.37268 1276.3989 4290292428
9.7394495 760.30341 1277.1836 4290422986
12.174312 761.23413 1277.9684 4290356936
-58.172478 768.25244 1276.038 4290227146
2.4238532 768.25244 1276.038 4290290902
4.8477063 768.25244 1276.038 4290356686
7.2715597 769.17896 1276.8191 4290290895
9.6954126 769.17896 1276.8191 4290685128
12.119267 770.10547 1277.6003 4290685639
-60.366974 776.53674 1276.4828 4289963977
4.8293576 776.53674 1276.4828 4290094032
7.2440367 776.53674 1276.4828 4290554583
9.6587152 776.53674 1276.4828 4290423748
12.073395 776.53674 1276.4828 4290226113
-60.137615 782.93982 1275.3417 4290292678
2.4055047 782.93982 1275.3417 4289635275
4.8110094 782.93982 1275.3417 4290094030
-61.340366 784.77881 1276.8922 4289700032
2.4055047 784.77881 1276.8922 4289373384
4.8110094 784.77881 1276.8922 4289765830
7.2165136 784.77881 1276.8922 4290029002
-57.511925 791.14691 1275.7214 4289634246
2.3963304 791.14691 1275.7214 4289634503
-59.908257 792.97894 1277.2662 4289700298
2.3963304 792.97894 1277.2662 4289766091
4.7926607 792.97894 1277.2662 4289568201
0 799.31195 1276.0659 4289567686
-59.678898 801.13696 1277.6047 4289371586
2.387156 801.13696 1277.6047 4289172928
4.774312 801.13696 1277.6047 4289566141
7.161468 801.13696 1277.6047 4291868896
-57.115597 805.99561 1276.4692 4289435332
-2.3798165 805.08594 1275.7023 4289897150
0 805.99561 1276.4692 4289239236
-56.895412 814.08417 1276.7491 4289370301
-2.3706422 813.17798 1275.9851 4289437635
0 814.08417 1276.7491 4288911551
-56.675228 821.22803 1276.2325 4289042877
0 821.22803 1276.2325 4288912320
-59.036697 823.03333 1277.7548 4289304759
-56.675228 823.03333 1277.7548 4289174204
2.3614678 823.03333 1277.7548 4288385976
-56.455048 829.23596 1276.4443 4289041339
0 829.23596 1276.4443 4288911035
-58.807339 831.0343 1277.9607 4288844489
2.3522935 831.0343 1277.9607 4288582576
-56.234863 835.4104 1275.1105 4289106362
-2.3431194 835.4104 1275.1105 4288779446
0 835.4104 1275.1105 4288779698
-58.57798 837.20172 1276.6208 4288844478
0 837.20172 1276.6208 4288648630
-56.058716 842.82983 1276.1342 4288711858
-2.3357799 842.82983 1276.1342 4288318645
0 842.82983 1276.1342 4288450486
-56.058716 844.61554 1277.6399 4288514230
-2.3357799 844.61554 1277.6399 4288253356
0 844.61554 1277.6399 4288449193
-55.838531 850.72266 1276.249 4288383927
-53.511925 850.72266 1276.249 4288383927
-4.6532111 850.72266 1276.249 4287792805
-2.3266056 850.72266 1276.249 4288384942
-58.165138 852.50134 1277.7488 4287991468
-4.6532111 852.50134 1277.7488 4288055728
-2.3266056 852.50134 1277.7488 4288318899
-9.2697248 858.57349 1276.3285 4288055982
-6.9522934 858.57349 1276.3285 4288055982
-4.6348624 859.45935 1277.0754 4288055986
-57.752293 865.00049 1276.5154 4288057260
-9.2403669 864.11743 1275.7709 4287727530
-6.9302754 865.00049 1276.5154 4287727531
-55.222019 871.8952 1275.7888 4288251046
-13.805505 871.8952 1275.7888 4287004325
-10.354128 871.8952 1275.7888 4287596716
-6.9027524 871.8952 1275.7888 4287597227
-55.222019 873.6543 1277.272 4288120751
-9.2036695 873.6543 1277.272 4287662502
-6.9027524 873.6543 1277.272 4287662502
-4.6018348 873.6543 1277.272 4287464883
0 873.6543 1277.272 4287793323
-52.710091 879.63098 1275.7712 4287925175
-50.41835 880.50702 1276.5099 4287728033
-13.750459 879.63098 1275.7712 4287727539
-10.312843 880.50696 1276.5099 4287398824
-6.8752294 880.50702 1276.5099 4287399075
-4.5834861 881.38306 1277.2485 4287398829
0 881.38306 1277.2485 4287793057
-50.256882 885.96399 1275.8789 4287464611
-47.972477 885.09076 1275.1426 4287793575
-13.706422 885.09076 1275.1426 4287529647
-10.279816 885.96399 1275.8789 4287595181
-6.8532109 886.83722 1276.6152 4287661483
-4.5688071 886.83722 1276.6152 4287661487
-2.2844036 886.83722 1276.6152 4287529645
-50.055046 892.75354 1275.0636 4287134876
-10.238532 892.75354 1275.0636 4287332519
-52.330276 896.23242 1277.9969 4287333284
-50.055046 894.49298 1276.5303 4287464356
-6.8256879 895.36267 1277.2637 4287201704
-4.5504589 895.36267 1277.2637 4287267235
-2.2752295 896.23242 1277.9969 4287465124
-49.893578 899.89386 1275.8519 4287201447
-47.625687 899.89386 1275.8519 4287201447
-15.875229 899.89386 1275.8519 4287333024
-13.60734 899.89386 1275.8519 4287267231
-10.205505 899.89386 1275.8519 4287201442
-6.8036699 899.89386 1275.8519 4287004323
-52.161469 901.62769 1277.3138 4287267231
-49.893578 901.62769 1277.3138 4287070368
-13.60734 901.62769 1277.3138 4287069083
-10.205505 901.62769 1277.3138 4287135134
-6.8036699 901.62769 1277.3138 4287135391
-46.341286 905.27222 1275.1548 4287200932
-42.950459 905.27222 1275.1548 4287003301
-27.126606 905.27222 1275.1548 4287201438
-24.866055 905.27222 1275.1548 4287201438
-22.605505 905.27222 1275.1548 4287333036
-19.21468 905.27222 1275.1548 4287332771
-15.823853 905.27222 1275.1548 4287069335
-46.341286 907.00043 1276.6119 4287069338
-19.21468 907.00043 1276.6119 4287069855
-15.823853 907.00043 1276.6119 4287135641
-13.563303 907.00043 1276.6119 4287332254
-11.302752 907.00043 1276.6119 4287463840
-51.781651 914.54541 1276.4335 4287202220
-51.781651 916.2666 1277.8848 4286939295
-9.0055046 916.2666 1277.8848 4287003801
-51.612843 921.58044 1277.1332 4287336366
-46.93211 928.19122 1276.167 4288581287
-43.579819 928.19116 1276.167 4289107114
-24.583487 927.33691 1275.4468 4286673806
-22.348623 928.19122 1276.167 4286806926
-20.113762 928.19122 1276.167 4286938513
-16.761467 928.19122 1276.167 4286807442
-13.409174 928.19122 1276.167 4286872469
-11.174312 928.19122 1276.167 4286806932
-37.867889 934.30603 1276.0908 4292788919
-34.526604 934.30603 1276.0908 4292067018
-31.185322 934.30603 1276.0908 4291674052
-28.957798 934.30603 1276.0908 4291147707
-25.616514 934.30603 1276.0908 4290094790
-22.275229 934.30603 1276.0908 4288713151
-37.867889 936.00897 1277.5266 4292002762
-34.526604 936.00897 1277.5266 4292001477
-31.185322 936.00897 1277.5266 4291870157
-28.957798 936.00897 1277.5266 4291804364
-25.616514 936.00897 1277.5266 4291673559
-22.275229 936.00897 1277.5266 4291542995
-61.100918 754.737 1279.0303 4290293205
2.4440367 754.737 1279.0303 4290488017
4.8880734 754.737 1279.0303 4290489291
7.3321099 754.737 1279.0303 4290225863
9.7761469 754.737 1279.0303 4289502646
-61.100918 756.60547 1280.6058 4290226896
13.442202 756.60547 1280.6058 4290159302
-60.871559 763.09564 1279.538 4290621904
9.7394495 763.09564 1279.538 4290553801
12.174312 763.09564 1279.538 4290421959
-63.020184 773.81165 1280.7252 4289898184
-60.596329 771.95856 1279.1628 4289964227
13.735168 772.57623 1279.6837 4290423234
-61.57431 778.38275 1278.0393 4290161603
7.2440367 778.38275 1278.0393 4290292176
9.6587152 778.38275 1278.0393 4290488517
12.073395 778.38275 1278.0393 4290357188
-62.781651 780.22882 1279.5958 4290029250
7.2440367 780.22882 1279.5958 4290357201
9.6587152 780.22882 1279.5958 4290357186
13.280734 780.22882 1279.5958 4290422721
-61.340366 787.53735 1279.2183 4289700808
2.4055047 786.61786 1278.4429 4289832388
4.8110094 787.53735 1279.2183 4289568454
7.2165136 787.53735 1279.2183 4289963469
9.6220188 787.53735 1279.2183 4290356928
12.027523 788.45691 1279.9935 4290619842
-59.908257 794.81097 1278.8109 4289698756
2.3963304 794.81097 1278.8109 4289765578
4.7926607 794.81097 1278.8109 4289568197
7.1889906 794.81097 1278.8109 4289765832
-62.304588 796.64294 1280.3556 4289239749
-59.908257 796.64294 1280.3556 4289437129
2.3963304 796.64294 1280.3556 4289830601
4.7926607 796.64294 1280.3556 4289633731
7.1889906 796.64294 1280.3556 4290357197
9.5853214 796.64294 1280.3556 4290552756
-59.678898 802.96198 1279.1434 4289239999
2.387156 802.96198 1279.1434 4289041087
4.774312 802.96198 1279.1434 4289237689
7.161468 802.96198 1279.1434 4291737567
-62.066055 804.78699 1280.6823 4288975294
-59.678898 804.78699 1280.6823 4289172930
2.387156 804.78699 1280.6823 4288713405
4.774312 804.78699 1280.6823 4288975031
7.161468 804.78699 1280.6823 4291277786
9.548624 804.78699 1280.6823 4292528103
-59.495415 808.72467 1278.7704 4289042638
2.3798165 808.72467 1278.7704 4288582076
-59.495415 810.54407 1280.3044 4289042877
2.3798165 810.54407 1280.3044 4288450999
4.7596331 810.54407 1280.3044 4288711858
-59.266056 817.70892 1279.8054 4289108915
2.3706422 817.70892 1279.8054 4288451770
4.7412844 818.61511 1280.5696 4288582589
7.1119266 818.61511 1280.5696 4290819295
-59.036697 824.83875 1279.277 4289042623
2.3614678 824.83875 1279.277 4288582585
4.7229357 824.83875 1279.277 4288516279
-59.036697 826.6441 1280.7992 4288714175
2.3614678 826.6441 1280.7992 4288713655
4.7229357 826.6441 1280.7992 4288910005
7.0844035 826.6441 1280.7992 4290291658
-58.807339 832.83264 1279.4771 4288975294
2.3522935 832.83264 1279.4771 4288450990
2.3522935 834.63098 1280.9934 4288451251
4.704587 834.63098 1280.9934 4288516279
7.056881 834.63098 1280.9934 4289700552
-58.57798 838.99304 1278.1312 4288582324
-58.57798 840.78436 1279.6416 4288516529
-58.394497 847.29413 1279.8983 4288122035
0 847.29413 1279.8983 4288647599
-58.165138 854.28009 1279.2485 4288188846
-4.6532111 854.28009 1279.2485 4288318386
-2.3266056 854.28009 1279.2485 4288186544
0 854.28009 1279.2485 4288382642
-58.165138 856.05878 1280.7483 4288254638
-2.3266056 856.05878 1280.7483 4288055730
0 856.05878 1280.7483 4287989685
-61.025684 863.29803 1280.3121 4287859628
-4.6348624 863.00269 1280.0631 4287988915
-2.3174312 863.00269 1280.0631 4288120757
0 863.00269 1280.0631 4288054183
-57.752293 868.53259 1279.4937 4288317090
-6.9302754 867.6496 1278.7491 4287859378
-4.6201835 869.41565 1280.2383 4287661748
-57.522934 875.41333 1278.7551 4288121775
-55.222019 875.41333 1278.7551 4287991220
-6.9027524 875.41333 1278.7551 4287597477
-4.6018348 875.41333 1278.7551 4287399340
-2.3009174 875.41333 1278.7551 4287531182
0 875.41333 1278.7551 4287727778
-55.222019 877.17242 1280.2384 4288122297
-4.6018348 877.17242 1280.2384 4287398831
-2.3009174 877.17242 1280.2384 4287530417
0 877.17242 1280.2384 4287464857
-52.710091 884.88721 1280.2031 4287792555
-6.8752294 883.13513 1278.7258 4287595440
-4.5834861 883.13513 1278.7258 4287529915
-2.291743 883.13513 1278.7258 4287661244
0 884.01117 1279.4645 4287791525
-52.541283 889.45691 1278.824 4287660965
-6.8532109 889.45691 1278.824 4287464104
-4.5688071 889.45691 1278.824 4287529898
-2.2844036 889.45691 1278.824 4287464105
0 888.58368 1278.0878 4287529382
-52.330276 897.97186 1279.4636 4287266981
-4.5504589 898.84155 1280.1969 4287004574
-2.2752295 898.84155 1280.1969 4287267746
0 899.7113 1280.9302 4287266981
-52.161469 904.22839 1279.5067 4287333022
-49.893578 904.22839 1279.5067 4287069592
-13.60734 903.36151 1278.7758 4287200671
-9.8275232 903.93945 1279.2631 4287200928
-6.8036699 904.22839 1279.5067 4287201184
-4.53578 904.22839 1279.5067 4287004576
-51.992661 908.72864 1278.0691 4287201949
-49.732109 908.72864 1278.0691 4287135882
-13.563303 908.72864 1278.0691 4287069083
-11.302752 908.72864 1278.0691 4287463840
-54.253212 910.45685 1279.5264 4287333538
-11.302752 910.45685 1279.5264 4287003028
-54.253212 912.18506 1280.9835 4287004584
-10.172478 912.18506 1280.9835 4287069595
-6.7816515 912.18506 1280.9835 4287069850
-51.781651 917.98779 1279.3361 4287070881
-6.7541285 917.98779 1279.3361 4286872473
-6.7541285 919.70905 1280.7874 4287069333
-4.5027523 919.70905 1280.7874 4286675092
-7.8541284 923.29602 1278.5797 4287069837
-51.612843 925.0116 1280.0262 4288385454
-49.368809 925.0116 1280.0262 4288647337
-7.8541284 925.0116 1280.0262 4286543240
-4.4880733 925.0116 1280.0262 4286543502
-46.93211 931.6084 1279.0483 4287201174
-43.579819 931.6084 1279.0483 4288908199
-40.227524 931.6084 1279.0483 4291604658
-22.348623 930.75409 1278.328 4287926440
-20.113762 931.6084 1279.0483 4287793580
-16.761467 931.60834 1279.0483 4286938809
-13.409174 931.6084 1279.0483 4286739844
-11.174312 931.6084 1279.0483 4286608258
-34.526604 937.71198 1278.9625 4292068544
-31.185322 937.71198 1278.9625 4291673800
-28.957798 937.71198 1278.9625 4291542213
-25.616514 937.71198 1278.9625 4291607503
-22.275229 937.71198 1278.9625 4291543247
-33.412846 939.41492 1280.3984 4291609542
-31.185322 939.41492 1280.3984 4291674063
-28.957798 939.41492 1280.3984 4291345098
-25.616514 939.41492 1280.3984 4291541959
-22.275229 939.41492 1280.3984 4291214028
-20.047707 939.41492 1280.3984 4291214028
-61.100918 758.474 1282.1813 4290424528
14.66422 758.474 1282.1813 4290487239
17.108257 758.474 1282.1813 4290355652
-63.544952 760.34247 1283.7567 4290358733
14.66422 760.34247 1283.7567 4290421446
17.108257 760.34247 1283.7567 4290421446
19.552294 760.34247 1283.7567 4290486718
-60.871559 764.95709 1281.1075 4290292680
12.174312 764.95709 1281.1075 4290618824
-60.871559 766.8186 1282.6771 4290227144
14.609175 766.8186 1282.6771 4290685119
14.543119 775.66467 1282.2877 4290488254
16.966972 775.66467 1282.2877 4290356668
-65.444038 777.5177 1283.8501 4290226635
16.966972 777.5177 1283.8501 4290356670
-65.196327 782.07483 1281.1523 4290226381
9.6587152 782.07483 1281.1523 4290028990
13.280734 782.07483 1281.1523 4290423490
-65.196327 783.9209 1282.709 4290227148
13.280734 783.9209 1282.709 4290553795
16.902752 783.9209 1282.709 4290421696
-62.543118 790.2959 1281.5442 4289503176
7.2165136 790.2959 1281.5442 4289765580
9.6220188 790.2959 1281.5442 4290225088
12.027523 790.2959 1281.5442 4290882762
-69.759636 792.13495 1283.0947 4292069089
-67.354126 792.13495 1283.0947 4291345882
-64.948624 792.13495 1283.0947 4289635007
-62.543118 792.13495 1283.0947 4289698756
9.6220188 792.13495 1283.0947 4289831096
13.230275 792.13495 1283.0947 4290159800
-70.691742 800.30701 1283.4451 4292135129
-67.097244 800.30701 1283.4451 4291148752
-64.70092 800.30701 1283.4451 4289503928
-62.304588 799.39099 1282.6726 4288976828
9.5853214 799.39099 1282.6726 4292395737
-62.066055 806.61194 1282.2211 4288910796
4.774312 806.61194 1282.2211 4288712631
7.161468 806.61194 1282.2211 4290949336
9.548624 806.61194 1282.2211 4292198368
-64.453209 808.43701 1283.7599 4289371837
-62.066055 808.43701 1283.7599 4288845241
7.161468 808.43701 1283.7599 4291080406
9.548624 808.43701 1283.7599 4291476446
-59.495415 812.36346 1281.8385 4288912040
2.3798165 812.36346 1281.8385 4288648380
4.7596331 812.36346 1281.8385 4288516533
7.1394496 812.36346 1281.8385 4290819288
-69.014679 814.18286 1283.3726 4291608538
-66.634865 814.18286 1283.3726 4290358744
-64.255043 814.18286 1283.3726 4289174726
-61.875229 814.18286 1283.3726 4289043375
4.7596331 814.18286 1283.3726 4288582585
7.1394496 814.18286 1283.3726 4290753754
9.5192661 814.18286 1283.3726 4291279837
-61.636696 820.42749 1282.0977 4289041843
4.7412844 820.42749 1282.0977 4288450488
7.1119266 820.42749 1282.0977 4290555607
9.4825687 820.42749 1282.0977 4291608799
-64.007339 822.23987 1283.6259 4288778935
-61.636696 822.23987 1283.6259 4288779450
7.1119266 822.23987 1283.6259 4289963725
9.4825687 822.23987 1283.6259 4291081953
-63.759632 830.25482 1283.8436 4288713657
-61.398167 829.35217 1283.0825 4288778434
4.7229357 829.35217 1283.0825 4288516528
7.0844035 829.35217 1283.0825 4289898180
9.4458714 829.35217 1283.0825 4290883794
2.3522935 836.42932 1282.5096 4288451251
4.704587 836.42932 1282.5096 4287991218
7.056881 836.42932 1282.5096 4289372871
9.409174 836.42932 1282.5096 4290818502
-58.57798 842.57568 1281.1521 4288253104
2.3431194 842.57568 1281.1521 4288843695
2.3431194 844.36707 1282.6625 4288713131
4.6862388 844.36707 1282.6625 4288188333
-60.730274 851.75842 1283.6626 4287925675
0 849.97272 1282.1569 4288645813
-61.655045 857.83752 1282.248 4287925418
-2.3266056 857.83752 1282.248 4288122036
0 857.83752 1282.248 4287989935
-62.818348 859.61621 1283.7478 4287859382
-61.411926 865.66028 1282.304 4287989669
-4.6348624 865.66028 1282.304 4287727038
-2.3174312 865.66028 1282.304 4287661244
0 865.66028 1282.304 4287858598
-61.411926 867.43195 1283.7977 4287857569
-2.3174312 867.43195 1283.7977 4287859128
0 867.43195 1283.7977 4287990952
-57.752293 871.18176 1281.7273 4288316849
-2.3100917 871.18176 1281.7273 4287596725
2.3100917 872.94781 1283.2164 4287596192
4.6201835 872.94781 1283.2164 4287661998
-52.921101 878.93152 1281.7216 4287727026
-2.3009174 878.93152 1281.7216 4287530415
-52.921101 880.69055 1283.2048 4287727026
2.3009174 880.69055 1283.2048 4288384690
4.6018348 880.69055 1283.2048 4287464102
6.9027524 880.69055 1283.2048 4287793323
-55.001835 886.63922 1281.6804 4287661476
2.291743 886.63922 1281.6804 4287332002
-55.001835 888.3913 1283.1577 4287529382
1.1458715 888.3913 1283.1577 4287529897
-52.541283 892.07654 1281.0328 4287529636
-2.2844036 892.07654 1281.0328 4287529899
0 892.94977 1281.769 4287530411
-54.825687 895.56946 1283.978 4287266981
1.1422018 895.56946 1283.978 4287661987
-54.605503 901.45068 1282.3969 4287267229
-2.2752295 901.45068 1282.3969 4287004323
0 901.45068 1282.3969 4287200934
-54.605503 903.19019 1283.8635 4287201949
-2.2752295 903.19019 1283.8635 4287201951
0 903.19019 1283.8635 4287266977
-55.563301 907.69604 1282.4305 4287267233
-9.0715599 907.69604 1282.4305 4287265684
-6.8036699 907.69604 1282.4305 4287331733
-4.53578 907.69604 1282.4305 4287266202
-2.26789 907.69604 1282.4305 4287397531
0 907.69604 1282.4305 4287528088
-54.253212 913.91327 1282.4407 4286544537
-6.7816515 913.91327 1282.4407 4287069850
-4.521101 913.91327 1282.4407 4286938276
-2.2605505 913.91327 1282.4407 4286938276
0 913.91327 1282.4407 4286872471
-54.253212 915.64148 1283.8978 4287005088
-4.521101 915.64148 1283.8978 4286806943
-2.2605505 915.64148 1283.8978 4287004323
0 915.64148 1283.8978 4286872473
-4.5027523 921.43024 1282.2385 4286740887
-2.2513762 922.29083 1282.9641 4287003800
0 923.15143 1283.6898 4286873237
-51.612843 926.72723 1281.4728 4287792805
-49.368809 926.72723 1281.4728 4288383650
-7.8541284 926.72723 1281.4728 4286741385
-4.4880733 926.72723 1281.4728 4286807189
-2.2440367 926.72723 1281.4728 4287201947
0 926.72723 1281.4728 4286741146
-51.612843 928.44275 1282.9193 4287726233
-49.368809 928.44275 1282.9193 4287398295
-7.8541284 928.44275 1282.9193 4286478733
-4.4880733 928.44275 1282.9193 4286741398
-2.2440367 928.44275 1282.9193 4286741398
0 928.44275 1282.9193 4286148246
-46.93211 934.1712 1281.2092 4287133846
-43.20734 934.74072 1281.6895 4289764788
-40.227524 935.02551 1281.9296 4291936960
-37.992661 935.87976 1282.6499 4292528575
-20.113762 935.02551 1281.9296 4291411150
-16.761467 935.02545 1281.9296 4291147723
-13.409174 935.02551 1281.9296 4290490298
-31.185322 941.11786 1281.8344 4292002512
-28.957798 941.11786 1281.8344 4291936719
-25.616514 941.11786 1281.8344 4291871165
-22.275229 941.11786 1281.8344 4291214028
-20.047707 941.11786 1281.8344 4291148235
-17.820183 941.11786 1281.8344 4291213510
-25.616514 942.8208 1283.2703 4291212996
-22.275229 942.8208 1283.2703 4290818254
-63.783485 754.77606 1285.6035 4290621908
19.625689 754.77606 1285.6035 4290026164
22.078899 754.77606 1285.6035 4290684094
25.349848 755.08862 1285.8671 4290422718
29.438532 755.71381 1286.3942 4289896355
-63.544952 763.1452 1286.1199 4289963972
14.66422 762.21094 1285.3322 4290552768
17.108257 763.1452 1286.1199 4290684865
19.552294 763.1452 1286.1199 4290421692
21.99633 764.07947 1286.9076 4290356154
24.440367 763.1452 1286.1199 4290422972
-64.523857 769.61078 1285.0314 4290161604
17.044037 769.61078 1285.0314 4290422718
19.478899 769.61078 1285.0314 4290291115
21.913761 770.5415 1285.8162 4290357160
16.966972 779.37079 1285.4126 4290291647
19.390825 779.37079 1285.4126 4290356936
-67.867889 781.22388 1286.9751 4291937510
19.390825 781.22388 1286.9751 4290487502
21.814678 781.22388 1286.9751 4291013846
-67.611008 785.76697 1284.2655 4291281122
-65.196327 785.76697 1284.2655 4289965005
14.488073 785.76697 1284.2655 4290224053
16.902752 785.76697 1284.2655 4290289846
-67.611008 787.61298 1285.822 4291346143
-65.196327 787.61298 1285.822 4290030283
14.488073 787.61298 1285.822 4290751414
16.902752 787.61298 1285.822 4290948794
19.31743 787.61298 1285.822 4290488258
-69.759636 793.974 1284.6454 4292069087
-67.354126 793.974 1284.6454 4291148500
-64.948624 793.974 1284.6454 4289635005
13.230275 793.974 1284.6454 4290355637
36.082569 793.974 1284.6454 4290487741
-69.759636 795.81299 1286.196 4291938014
-67.354126 795.81299 1286.196 4290951635
-64.948624 795.81299 1286.196 4289504189
13.230275 795.81299 1286.196 4292396510
16.838531 795.81299 1286.196 4291278801
36.082569 795.81299 1286.196 4290487472
-70.691742 803.97107 1286.5344 4291804895
-67.097244 803.05505 1285.7621 4290950607
-64.70092 803.05505 1285.7621 4289437368
11.981651 803.05505 1285.7621 4294106877
14.377981 803.05505 1285.7621 4293975792
16.774311 803.97107 1286.5344 4293909994
-64.453209 810.26196 1285.2987 4289371840
-62.066055 810.26196 1285.2987 4288714405
11.14006 810.8703 1285.8116 4292858356
14.322936 812.08698 1286.8374 4293318888
16.710093 812.08698 1286.8374 4293055716
19.097248 812.08698 1286.8374 4292989155
-69.014679 816.00226 1284.9066 4291213530
-66.634865 816.91199 1285.6736 4290226643
-64.255043 816.91199 1285.6736 4288976576
-61.875229 816.00226 1284.9066 4288911540
11.105809 816.6087 1285.418 4292595435
14.278899 817.82166 1286.4407 4292988903
16.658716 817.82166 1286.4407 4292988903
19.038532 817.82166 1286.4407 4293055462
21.418348 817.82166 1286.4407 4292989669
-67.563309 824.05225 1285.1539 4290752979
-64.007339 824.05225 1285.1539 4288911289
-61.636696 824.05225 1285.1539 4288714175
10.667891 824.05225 1285.1539 4292067815
14.223853 824.05225 1285.1539 4293054699
16.594496 824.05225 1285.1539 4292725734
-67.563309 825.86462 1286.6821 4290292166
-64.007339 825.86462 1286.6821 4289436597
11.853211 825.86462 1286.6821 4292989689
14.223853 825.86462 1286.6821 4292988905
16.594496 825.86462 1286.6821 4292857319
18.965137 825.86462 1286.6821 4292857317
-66.121101 832.06018 1285.366 4289963990
-63.759632 832.06018 1285.366 4288516544
-61.398167 832.96289 1286.1271 4288449972
11.020184 832.66193 1285.8734 4292134100
14.168807 832.96289 1286.1271 4292923113
2.3522935 838.22766 1284.026 4288516279
4.704587 838.22766 1284.026 4288318899
7.056881 838.22766 1284.026 4289634503
9.409174 838.22766 1284.026 4290687436
4.704587 840.026 1285.5424 4288254126
7.056881 840.026 1285.5424 4289503937
2.3431194 847.05408 1284.9281 4288252079
4.6862388 847.05408 1284.9281 4287924144
7.0293579 847.05408 1284.9281 4289568712
2.3357799 853.54419 1285.1682 4287858098
4.6715598 853.54419 1285.1682 4287857844
7.0073395 853.54419 1285.1682 4289042375
-67.737617 855.3299 1286.6738 4290489303
-65.401833 855.3299 1286.6738 4289175488
2.3357799 855.3299 1286.6738 4287792555
4.6715598 855.3299 1286.6738 4287661485
7.0073395 855.3299 1286.6738 4288845503
-72.124771 861.3949 1285.2476 4290885062
-69.798164 862.28424 1285.9976 4290621133
-67.471558 862.28424 1285.9976 4290094533
-65.144951 862.28424 1285.9976 4288648120
2.3266056 863.17358 1286.7474 4288122027
4.6532111 863.17358 1286.7474 4287793325
-61.411926 869.20361 1285.2916 4287923368
2.3174312 869.20361 1285.2916 4287595944
4.6348624 869.20361 1285.2916 4287464624
-61.411926 870.97534 1286.7854 4287792811
6.9522934 870.97534 1286.7854 4288319929
11.587156 870.97534 1286.7854 4291804384
-57.752293 874.71393 1284.7056 4287991218
2.3100917 874.71393 1284.7056 4287464857
4.6201835 874.71393 1284.7056 4287530921
-55.442204 876.47998 1286.1947 4287727026
2.3100917 876.47998 1286.1947 4287793057
4.6201835 876.47998 1286.1947 4287464352
6.9302754 876.47998 1286.1947 4287793573
10.395412 876.47998 1286.1947 4290423498
-57.522934 884.20874 1286.1711 4287529645
-55.222019 882.44965 1284.688 4287858348
2.3009174 882.44965 1284.688 4287856548
4.6018348 883.32922 1285.4296 4287135378
6.9027524 883.32922 1285.4296 4288056480
10.354128 883.32922 1285.4296 4289963982
13.805505 884.20874 1286.1711 4291016133
-55.001835 890.14331 1284.635 4287529636
2.291743 890.14331 1284.635 4287529899
4.5834861 890.14331 1284.635 4287333038
-55.001835 891.89539 1286.1123 4287333284
2.291743 891.89539 1286.1123 4287464874
4.5834861 891.89539 1286.1123 4287267242
-54.825687 897.31592 1285.4506 4287267231
2.2844036 898.18909 1286.1868 4287135140
4.5688071 899.06232 1286.9231 4286872235
2.2752295 906.66901 1286.7968 4287527317
4.5504589 906.66901 1286.7968 4286806691
6.8256879 906.66901 1286.7968 4287004071
-56.697247 910.29675 1284.6234 4287463850
-4.53578 910.29675 1284.6234 4287135141
-2.26789 910.29675 1284.6234 4287003555
0 910.29675 1284.6234 4287133842
-56.697247 912.03064 1286.0853 4287463590
4.53578 912.03064 1286.0853 4286871971
-55.383484 917.36969 1285.355 4287927736
-2.2605505 917.36969 1285.355 4287003801
0 917.36969 1285.355 4286806160
-54.253212 919.0979 1286.8123 4288846508
0 919.0979 1286.8123 4286938246
-54.033028 926.59381 1286.5924 4288055198
-51.612843 931.01617 1285.0891 4287659674
-49.368809 931.01617 1285.0891 4287463579
-11.220183 931.87396 1285.8124 4289570486
-7.4801221 930.73022 1284.848 4287069596
-4.4880733 931.01617 1285.0891 4286807713
-2.2440367 930.15839 1284.3658 4286412695
0 930.15839 1284.3658 4286149541
-40.227524 937.58838 1284.0905 4292595161
-37.992661 937.58838 1284.0905 4292200659
-35.757797 937.58838 1284.0905 4291609542
-16.761467 937.58838 1284.0905 4291279303
-34.267887 939.86646 1286.0114 4291805644
-31.288073 941.00549 1286.9717 4291673550
-29.053211 941.00549 1286.9717 4291541707
-20.113762 941.00549 1286.9717 4291146963
-16.761467 940.15125 1286.2515 4291213254
-66.236694 757.58936 1287.9755 4290950102
22.078899 757.58936 1287.9755 4290618561
25.758717 757.58936 1287.9755 4289962680
29.438532 757.58936 1287.9755 4289765301
31.891743 757.58936 1287.9755 4290160058
-66.236694 759.46484 1289.5569 4290752979
22.078899 759.46484 1289.5569 4290552766
26.985321 759.46484 1289.5569 4290225850
29.438532 759.46484 1289.5569 4289831605
31.891743 759.46484 1289.5569 4289831605
-65.988991 765.94794 1288.4832 4290556109
21.99633 765.94794 1288.4832 4290357169
25.662384 765.94794 1288.4832 4290685115
29.32844 765.94794 1288.4832 4290553519
31.772476 765.94794 1288.4832 4290487726
-65.741287 772.40302 1287.3857 4290358733
19.478899 772.40302 1287.3857 4290028209
21.913761 772.40302 1287.3857 4290094002
24.348623 772.40302 1287.3857 4290093498
-68.176147 774.26447 1288.9552 4292068839
19.478899 774.26447 1288.9552 4290225600
21.913761 774.26447 1288.9552 4290357186
25.566055 774.26447 1288.9552 4290159557
29.218349 774.26447 1288.9552 4290355902
31.653212 774.26447 1288.9552 4290421696
38.957798 774.26447 1288.9552 4290290111
-70.29174 783.0769 1288.5375 4292398052
19.390825 783.0769 1288.5375 4290224066
21.814678 783.0769 1288.5375 4290487239
24.238533 783.0769 1288.5375 4290619074
16.902752 790.38202 1288.1567 4290290872
19.31743 790.38202 1288.1567 4290225332
21.732111 791.30505 1288.9351 4290028718
25.35413 791.30505 1288.9351 4290356931
28.976147 791.30505 1288.9351 4290422461
31.390825 791.30505 1288.9351 4290488254
33.805504 791.30505 1288.9351 4290487741
36.220184 789.45898 1287.3785 4290225598
13.230275 797.65204 1287.7466 4293646574
16.838531 797.65204 1287.7466 4292068315
19.244038 797.65204 1287.7466 4290885081
21.649542 797.65204 1287.7466 4290687445
36.082569 797.65204 1287.7466 4289896357
-72.165138 799.49109 1289.2972 4292199905
-69.759636 799.49109 1289.2972 4292199905
16.838531 799.49109 1289.2972 4293844212
19.244038 799.49109 1289.2972 4293780207
21.649542 799.49109 1289.2972 4293517035
25.257797 799.49109 1289.2972 4292596448
28.866055 799.49109 1289.2972 4291608266
31.271559 799.49109 1289.2972 4290884799
33.677063 799.49109 1289.2972 4290751162
36.082569 799.49109 1289.2972 4290422198
-70.691742 805.80304 1288.0791 4291476696
-67.097244 805.80304 1288.0791 4290819284
11.981651 805.80304 1288.0791 4293713407
14.377981 805.80304 1288.0791 4293516013
16.774311 805.80304 1288.0791 4293318890
19.170643 805.80304 1288.0791 4293188586
21.566973 805.80304 1288.0791 4293188586
-70.691742 807.63507 1289.6239 4291739341
-67.097244 807.63507 1289.6239 4290819286
14.377981 807.63507 1289.6239 4293582060
16.774311 807.63507 1289.6239 4293187302
19.170643 807.63507 1289.6239 4293253095
21.566973 807.63507 1289.6239 4293384682
14.322936 813.91199 1288.3762 4293253095
16.710093 813.91199 1288.3762 4293055716
19.097248 813.91199 1288.3762 4292989669
22.677982 814.82446 1289.1456 4292792800
26.258715 815.73694 1289.915 4293121507
28.645872 815.73694 1289.915 4292726749
31.033028 815.73694 1289.915 4292660956
-66.634865 819.64099 1287.9747 4290226381
11.899082 819.64099 1287.9747 4293253375
14.278899 819.64099 1287.9747 4293121259
16.658716 819.64099 1287.9747 4292858087
19.038532 820.55072 1288.7417 4292792547
21.418348 820.55072 1288.7417 4292989670
-71.119263 827.677 1288.2102 4290883805
-67.563309 827.677 1288.2102 4290292179
11.853211 827.677 1288.2102 4292988908
14.223853 827.677 1288.2102 4292988905
16.594496 827.677 1288.2102 4292594148
18.965137 827.677 1288.2102 4292594148
42.671558 827.677 1288.2102 4292398300
-68.748627 829.48938 1289.7384 4291081186
16.594496 829.48938 1289.7384 4292594148
18.965137 829.48938 1289.7384 4292593896
21.335779 829.48938 1289.7384 4292725738
40.300919 829.48938 1289.7384 4292793046
42.671558 829.48938 1289.7384 4292528604
-61.398167 835.6709 1288.4104 4288319149
11.80734 835.6709 1288.4104 4292726762
14.168807 835.6709 1288.4104 4292857319
-61.398167 837.47626 1289.9326 4288055982
10.626606 837.47626 1289.9326 4291542493
14.168807 837.47626 1289.9326 4292529636
7.056881 841.82434 1287.0586 4289503937
9.409174 841.82434 1287.0586 4290423759
9.409174 843.62268 1288.575 4290356686
-60.921101 851.53235 1288.7041 4287991722
2.3431194 849.74103 1287.1937 4288185262
4.6862388 849.74103 1287.1937 4287923376
7.0293579 849.74103 1287.1937 4289502152
10.544037 850.63666 1287.949 4290949842
14.058716 850.63672 1287.949 4291936982
16.401834 851.53235 1288.7041 4292068055
-72.409172 857.1156 1288.1796 4291146700
-67.737617 857.1156 1288.1796 4290291404
-65.401833 857.1156 1288.1796 4288780484
2.3357799 857.1156 1288.1796 4288317103
4.6715598 857.1156 1288.1796 4287793325
7.0073395 857.1156 1288.1796 4288648634
10.511009 857.1156 1288.1796 4290752973
2.3357799 858.90131 1289.6852 4288383657
4.6715598 858.90131 1289.6852 4287924655
7.0073395 858.90131 1289.6852 4288516792
10.511009 858.90131 1289.6852 4290621393
14.014679 858.90131 1289.6852 4291410641
16.350458 858.90131 1289.6852 4291344848
-67.471558 865.84167 1288.9971 4289831614
-65.144951 865.84167 1288.9971 4288648625
2.3266056 864.95233 1288.2472 4287661987
4.6532111 864.95233 1288.2472 4287069864
6.9798164 865.84167 1288.9971 4288254138
10.469725 866.73102 1289.7469 4290554580
13.959633 866.73102 1289.7469 4291868625
16.286238 866.73102 1289.7469 4291473868
-61.411926 872.74707 1288.2793 4287464622
6.9522934 872.74707 1288.2793 4288320181
-60.253212 874.51874 1289.7732 4287399081
-57.93578 874.51874 1289.7732 4287728045
13.904587 874.51874 1289.7732 4291408843
16.222019 874.51874 1289.7732 4291277256
18.53945 874.51874 1289.7732 4291080647
-55.442204 878.24609 1287.6838 4287727026
10.395412 878.24609 1287.6838 4290161101
13.860551 878.24609 1287.6838 4291277770
16.170643 878.24609 1287.6838 4291146440
-60.062386 880.01221 1289.173 4287792303
-57.752293 880.01221 1289.173 4287858096
13.860551 880.01221 1289.173 4290948805
16.170643 880.01221 1289.173 4290883012
18.480734 880.01221 1289.173 4290816194
-58.673393 886.84729 1288.396 4287398558
4.6018348 885.96777 1287.6544 4287266977
6.9027524 886.84729 1288.396 4287530411
10.354129 886.84729 1288.396 4289766593
13.805505 886.84729 1288.396 4290950601
16.106422 887.72687 1289.1376 4290950088
-57.293579 893.64746 1287.5896 4287333022
4.5834861 893.64746 1287.5896 4287267242
6.8752294 893.64746 1287.5896 4287793587
9.1669722 893.64746 1287.5896 4288714175
-58.439449 895.39954 1289.0669 4287333272
4.5834861 895.39954 1289.0669 4286806178
6.8752294 895.39954 1289.0669 4287463852
9.1669722 895.39954 1289.0669 4288516281
-57.110092 901.68201 1289.1318 4287201696
2.2844036 901.68201 1289.1318 4287331997
4.5688071 901.68201 1289.1318 4286872484
6.8532109 901.68201 1289.1318 4287333035
9.1376143 902.55524 1289.8682 4288253104
2.2752295 908.40845 1288.2634 4287265685
4.5504589 908.40845 1288.2634 4286938028
6.8256879 908.40845 1288.2634 4287069614
9.1009178 908.40845 1288.2634 4287990439
-59.155964 910.14789 1289.7301 4287332004
2.2752295 910.14789 1289.7301 4286872471
6.8256879 910.14789 1289.7301 4286871971
10.238532 910.14789 1289.7301 4289370039
13.651376 910.14789 1289.7301 4290686916
-56.697247 913.7644 1287.5472 4287135141
2.26789 913.7644 1287.5472 4286740887
4.53578 913.7644 1287.5472 4286674590
6.8036699 913.7644 1287.5472 4286806176
-61.233028 915.49823 1289.0092 4291277268
-58.965137 915.49823 1289.0092 4288650692
2.26789 915.49823 1289.0092 4286871953
4.53578 915.49823 1289.0092 4286477727
6.8036699 915.49823 1289.0092 4286806691
10.205505 915.49823 1289.0092 4288911286
13.60734 915.49823 1289.0092 4290291643
15.875229 915.49823 1289.0092 4290160056
-55.383484 920.82611 1288.2694 4288912571
2.2605505 920.82611 1288.2694 4286873237
4.521101 920.82611 1288.2694 4286741669
-55.383484 922.55432 1289.7266 4288319405
2.2605505 922.55432 1289.7266 4286609817
4.521101 922.55432 1289.7266 4286544035
6.7816515 922.55432 1289.7266 4286280864
10.172478 922.55432 1289.7266 4288450988
-54.033028 928.315 1288.0437 4287857565
2.2513762 928.315 1288.0437 4285952418
-55.158714 930.03619 1289.4949 4288251549
-9.0055046 930.03619 1289.4949 4288189365
-2.2513762 930.03619 1289.4949 4286347422
0 930.03619 1289.4949 4286215822
-51.612843 933.58954 1287.2589 4288777933
-49.368809 934.44739 1287.9822 4289832133
-47.124771 934.44739 1287.9822 4288582065
-44.132721 934.73334 1288.2233 4289502388
-13.46422 935.30518 1288.7056 4291409608
-11.220183 934.44739 1287.9822 4291015101
-25.700916 942.71411 1288.4124 4291213262
34.473396 754.83624 1292.1943 4291080141
-66.236694 761.34033 1291.1383 4290555857
26.985321 761.34033 1291.1383 4290554301
29.438532 761.34033 1291.1383 4290488508
31.891743 761.34033 1291.1383 4290620094
34.344955 761.34033 1291.1383 4290225086
36.798164 761.34033 1291.1383 4290685637
34.344955 763.21582 1292.7196 4290224314
36.798164 763.21582 1292.7196 4290290107
39.251377 763.21582 1292.7196 4290159543
-68.433029 767.81641 1290.0586 4292201187
25.662384 767.81641 1290.0586 4290422454
29.32844 767.81641 1290.0586 4290487463
31.772476 767.81641 1290.0586 4290421670
34.216515 767.81641 1290.0586 4290027453
-68.433029 769.68494 1291.634 4292069350
26.884403 769.68494 1291.634 4290225084
29.32844 769.68494 1291.634 4290356404
31.772476 769.68494 1291.634 4290356404
34.216515 769.68494 1291.634 4290159293
36.660549 769.68494 1291.634 4290422209
39.104588 769.68494 1291.634 4290421950
-68.176147 776.12592 1290.5248 4292002792
21.913761 776.12592 1290.5248 4290554314
25.566055 776.12592 1290.5248 4290225602
29.218349 776.12592 1290.5248 4290355643
31.653212 776.12592 1290.5248 4290355643
37.740364 776.12592 1290.5248 4290026935
-70.611008 777.98743 1292.0944 4292529636
25.566055 777.98743 1292.0944 4290356159
29.218349 777.98743 1292.0944 4290486457
31.653212 777.98743 1292.0944 4290552250
34.088074 777.98743 1292.0944 4290552766
36.522934 777.98743 1292.0944 4290552766
-70.29174 784.92993 1290.1 4292003296
21.814678 784.92993 1290.1 4290356416
25.450459 784.92993 1290.1 4290750658
29.086239 784.92993 1290.1 4290487741
31.510092 784.92993 1290.1 4290487741
33.933945 784.92993 1290.1 4290488004
36.3578 784.92993 1290.1 4290356418
21.814678 786.78302 1291.6624 4290356152
25.450459 786.78302 1291.6624 4290488256
29.086239 786.78302 1291.6624 4290291647
31.510092 786.78302 1291.6624 4290291647
33.933945 786.78302 1291.6624 4290291647
19.31743 793.15112 1290.4916 4290293439
21.732111 793.15112 1290.4916 4289767095
25.35413 794.0741 1291.2698 4290356915
28.976147 794.0741 1291.2698 4290159280
31.390825 794.0741 1291.2698 4290159280
33.805504 794.0741 1291.2698 4290224811
19.244038 801.33008 1290.8479 4293713896
21.649542 801.33008 1290.8479 4293648103
25.257797 802.24963 1291.6232 4293253616
28.866055 802.24963 1291.6232 4293120985
31.271559 802.24963 1291.6232 4292726483
33.677063 802.24963 1291.6232 4292725469
36.082569 803.16913 1292.3984 4293120225
22.765137 809.46704 1291.1686 4293055466
26.359632 809.46704 1291.1686 4293187311
28.755962 809.46704 1291.1686 4292924644
31.152294 809.46704 1291.1686 4292924644
23.963303 811.29907 1292.7133 4292989921
26.359632 811.29907 1292.7133 4293384936
28.755962 811.29907 1292.7133 4292989921
31.152294 811.29907 1292.7133 4292858591
33.548622 811.29907 1292.7133 4293055964
23.871559 817.56201 1291.4539 4292989919
26.258715 817.56201 1291.4539 4293187554
28.645872 817.56201 1291.4539 4292989659
31.033028 817.56201 1291.4539 4293121246
33.420185 817.56201 1291.4539 4292988905
23.871559 819.38696 1292.9927 4292594911
26.258715 819.38696 1292.9927 4292529118
28.645872 819.38696 1292.9927 4292594902
31.033028 819.38696 1292.9927 4292857817
34.613762 819.38696 1292.9927 4292726499
38.194496 819.38696 1292.9927 4292529620
40.58165 819.38696 1292.9927 4292595413
22.608257 823.27979 1291.0428 4292857574
26.177982 823.27979 1291.0428 4292462559
28.557798 823.27979 1291.0428 4292332497
40.456882 823.27979 1291.0428 4293055714
42.836697 823.27979 1291.0428 4292792796
22.608257 825.09918 1292.5769 4292594660
26.177982 825.09918 1292.5769 4292528866
28.557798 825.09918 1292.5769 4292529622
30.937614 825.09918 1292.5769 4292661208
34.507339 825.09918 1292.5769 4292333531
38.077065 825.09918 1292.5769 4292069589
40.456882 825.09918 1292.5769 4292595933
-67.563309 832.20795 1292.0306 4290292947
-64.007339 832.20795 1292.0306 4288582589
16.594496 832.20795 1292.0306 4292659942
18.965137 832.20795 1292.0306 4292462304
22.521101 832.20795 1292.0306 4292396766
40.300919 832.20795 1292.0306 4292397264
42.671558 831.30176 1291.2666 4292067542
-61.398167 839.28162 1291.4548 4287990450
11.80734 839.28162 1291.4548 4292858101
14.168807 839.28162 1291.4548 4292660706
16.530275 839.28162 1291.4548 4292265948
-61.398167 841.08698 1292.9771 4287990448
11.80734 841.08698 1292.9771 4292725234
14.168807 841.08698 1292.9771 4292528352
16.530275 841.08698 1292.9771 4292265437
18.891743 841.08698 1292.9771 4292135130
10.585321 845.42102 1290.0913 4291344864
14.113762 845.42102 1290.0913 4292332256
-64.688072 847.21942 1291.6075 4289043120
16.466055 847.21942 1291.6075 4292003546
18.818348 847.21942 1291.6075 4292004055
10.544037 853.32373 1290.2145 4290620873
14.058716 853.32373 1290.2145 4291606991
16.401834 853.32373 1290.2145 4291475149
18.744955 853.32373 1290.2145 4291278540
14.058716 855.11505 1291.7249 4291804366
16.401834 855.11505 1291.7249 4291475401
18.744955 855.11505 1291.7249 4291476183
21.088074 855.11505 1291.7249 4291936734
-72.409172 860.68701 1291.1909 4290818502
7.0073395 860.68701 1291.1909 4288450999
10.511009 860.68701 1291.1909 4290424276
14.014679 860.68701 1291.1909 4291475664
16.350458 860.68701 1291.1909 4291278542
18.686239 860.68701 1291.1909 4291343831
21.022018 860.68701 1291.1909 4291475416
-73.577065 862.47278 1292.6965 4290752709
-70.073395 862.47278 1292.6965 4290424009
10.511009 862.47278 1292.6965 4290161105
14.014679 862.47278 1292.6965 4291342798
16.350458 862.47278 1292.6965 4291277004
18.686239 862.47278 1292.6965 4291473618
22.189907 862.47278 1292.6965 4291474386
-67.471558 868.50977 1291.2467 4289765562
-65.144951 868.50977 1291.2467 4288582585
9.3064222 868.50977 1291.2467 4289632958
13.959633 868.50977 1291.2467 4291803603
16.286238 868.50977 1291.2467 4291408845
18.612844 868.50977 1291.2467 4291014861
-67.471558 870.28845 1292.7465 4289568689
-65.144951 870.28845 1292.7465 4288451521
10.469725 870.28845 1292.7465 4290489289
13.959633 870.28845 1292.7465 4291672266
16.286238 870.28845 1292.7465 4291343301
19.776146 870.28845 1292.7465 4291278540
-61.411926 877.17627 1292.0139 4287530666
-57.93578 876.29041 1291.267 4287727541
20.084404 876.88104 1291.765 4291080137
23.174313 878.06213 1292.7609 4291212495
-60.062386 881.77826 1290.6621 4287529645
16.170643 881.77826 1290.6621 4291147719
19.63578 881.77826 1290.6621 4291080904
23.100918 881.77826 1290.6621 4291016133
-62.372478 883.54431 1292.1511 4287137178
16.170643 883.54431 1292.1511 4291016649
19.63578 883.54431 1292.1511 4290951371
23.100918 883.54431 1292.1511 4290490053
25.411009 883.54431 1292.1511 4290753481
36.961468 883.54431 1292.1511 4291015365
-58.673393 889.48596 1290.6208 4287333790
6.9027524 889.48596 1290.6208 4287662000
10.354128 889.48596 1290.6208 4289963977
13.805505 889.48596 1290.6208 4291016138
16.106422 889.48596 1290.6208 4291016138
-62.124771 891.245 1292.104 4287333524
-59.823853 891.245 1292.104 4287464352
11.504587 891.245 1292.104 4290885088
13.805505 891.245 1292.104 4291146952
