# .PCD v0.7 - Point Cloud Data file format
VERSION 0.7
FIELDS x y z rgb
SIZE 4 4 4 4
TYPE F F F U
COUNT 1 1 1 1
WIDTH 1175
HEIGHT 1
VIEWPOINT 0 0 0 1 0 0 0
POINTS 1175
DATA ascii
-11.020184 797.05597 781.03638 4286675600
-13.533945 799.85742 780.78247 4286873227
-10.99633 799.85742 780.78247 4286675597
-15.225688 802.44409 782.9635 4286807182
-13.533945 801.15076 781.87292 4286807178
-11.842202 801.15076 781.87292 4286807178
-13.489908 805.33813 781.47955 4286807431
-10.96055 805.33813 781.47955 4286741644
-10.095413 808.76587 781.75366 4286806932
-7.8519874 807.90839 781.03058 4286609807
6.7302752 807.47955 780.66907 4286806412
10.936697 807.47955 780.66907 4286675344
13.46055 807.47955 780.66907 4286807189
-13.46055 810.05225 782.83826 4286608782
-10.920183 811.17065 781.81921 4286476938
-8.3853207 812.28906 780.80017 4286476682
13.416513 812.28906 780.80017 4286610067
-13.416513 814.85333 782.9624 4286411920
-11.180428 813.9986 782.24164 4286542735
-8.3669729 815.05957 780.52026 4286542477
8.3669729 815.05957 780.52026 4286673534
10.877064 815.05957 780.52026 4287002247
13.387156 815.05957 780.52026 4286609297
15.897248 815.05957 780.52026 4286741653
19.244038 815.05957 780.52026 4286083985
22.590824 815.05957 780.52026 4286938777
28.447706 815.05957 780.52026 4287464604
38.488075 815.05957 780.52026 4287398045
-13.387156 817.61823 782.67761 4286478227
-10.598165 817.19183 782.31805 4286477708
-8.3669729 816.33893 781.599 4286609036
16.733946 816.33893 781.599 4287070116
-13.34312 821.11755 781.7041 4286478479
-10.007339 821.11755 781.7041 4286279804
-8.3394499 819.84247 780.62891 4286674827
1.66789 819.84247 780.62891 4286411139
7.5055046 819.84247 780.62891 4286871692
16.6789 819.84247 780.62891 4287201449
19.180733 819.84247 780.62891 4286938270
23.350458 819.84247 780.62891 4287398295
38.361469 819.84247 780.62891 4287398297
40.029358 819.84247 780.62891 4287594393
-15.844954 822.3927 782.7793 4286281351
-13.313762 823.86987 781.40869 4286411400
-11.0948 823.4458 781.05109 4286148995
-7.7663612 823.02167 780.69354 4286280062
-4.1605506 822.5976 780.33594 4286346118
-1.6642202 822.5976 780.33594 4286411400
1.6642202 823.23376 780.87231 4286345092
4.1605506 822.5976 780.33594 4286409858
7.4889908 822.5976 780.33594 4286739854
16.642202 822.5976 780.33594 4287003553
19.138531 822.5976 780.33594 4287135131
23.299082 822.5976 780.33594 4287398297
25.795414 822.5976 780.33594 4287333018
28.291742 822.5976 780.33594 4287333276
34.116516 822.5976 780.33594 4287267483
37.444954 822.5976 780.33594 4287464093
40.773392 822.5976 780.33594 4287332504
-18.266054 827.88611 782.17896 4286214280
-16.605505 827.88611 782.17896 4286148483
-14.122936 826.88281 781.987 4286214279
-10.793578 826.61664 781.10864 4286214274
-7.472477 825.98187 780.57343 4286214271
-4.1513762 825.34711 780.03821 4286345605
-1.6605505 825.34711 780.03821 4286345607
0.83027524 825.98187 780.57343 4286279555
4.4281344 825.77026 780.39502 4286213507
7.7492356 825.77026 780.39502 4286608014
16.605505 825.34711 780.03821 4287003801
19.096329 825.34711 780.03821 4287267481
22.417431 825.34711 780.03821 4287333273
25.738533 825.34711 780.03821 4287267740
29.059633 825.34711 780.03821 4287267740
31.550459 825.34711 780.03821 4287530399
34.041283 825.34711 780.03821 4287333272
37.362385 825.34711 780.03821 4287398045
40.683487 825.34711 780.03821 4287266968
44.004585 825.34711 780.03821 4287332252
46.495415 825.34711 780.03821 4287398299
48.155964 825.34711 780.03821 4287398299
-10.757798 830.09351 780.11609 4286148487
-8.2752295 830.09351 780.11609 4286214276
1.6550459 830.09351 780.11609 4286279299
4.1376147 830.09351 780.11609 4286279301
7.4477062 830.09351 780.11609 4286213505
10.757798 830.09351 780.11609 4286346895
14.06789 830.09351 780.11609 4286610821
16.550459 830.09351 780.11609 4287003801
19.033028 830.09351 780.11609 4287661982
22.343121 830.09351 780.11609 4287398810
25.65321 830.09351 780.11609 4287333021
28.963303 830.09351 780.11609 4287333017
31.445871 830.09351 780.11609 4287464344
33.92844 830.09351 780.11609 4287398297
37.238533 830.09351 780.11609 4287398045
40.548622 830.09351 780.11609 4287528604
43.858715 830.09351 780.11609 4287332506
47.168808 830.09351 780.11609 4287332254
49.651375 830.09351 780.11609 4287200923
-16.550459 832.62408 782.24988 4286214278
-14.06789 831.99146 781.71643 4286148232
-10.757798 831.35876 781.18298 4286148487
-8.2752295 831.35876 781.18298 4286148483
1.6550459 831.35876 781.18298 4286279301
4.1376147 831.35876 781.18298 4286082689
7.4477062 831.35876 781.18298 4286082687
16.550459 831.35876 781.18298 4287003801
19.86055 831.35876 781.18298 4287924641
23.170643 831.35876 781.18298 4287398045
25.65321 831.35876 781.18298 4287398043
28.13578 831.35876 781.18298 4287398297
44.686237 831.35876 781.18298 4287464342
47.168808 831.35876 781.18298 4287463838
-18.165138 835.98376 782.46655 4286213771
-16.513762 835.98376 782.46655 4286214278
-13.871559 835.6051 782.14722 4286214278
-10.733945 835.35248 781.93433 4286279813
-7.4275231 835.0871 781.05652 4286016633
-4.3975534 835.90717 780.65796 4286017147
-1.6477064 836.81567 780.552 4286016646
1.1009175 835.41943 781.11871 4286082437
4.1266055 835.0871 781.05652 4286082691
7.4311924 834.72131 781.4021 4286214274
10.722018 835.45288 780.71094 4286279812
14.036697 834.72131 781.4021 4286542998
16.513762 834.72131 781.4021 4286872985
18.990826 834.72131 781.4021 4287530915
22.293579 834.72131 781.4021 4287266973
25.596329 834.72131 781.4021 4287332506
28.866972 835.45288 780.71094 4287398297
32.130276 836.81567 780.552 4287463838
40.674007 835.90717 780.65796 4287528087
43.737614 835.0871 781.05652 4287529355
47.064217 834.72131 781.4021 4287398044
49.541283 834.72131 781.4021 4287266969
-10.710092 839.33508 782.67627 4286017927
-7.4146791 838.7052 782.1452 4286082947
-4.3938837 838.4953 781.9682 4286017157
1.6477064 838.7052 782.1452 4285819268
3.8446484 838.4953 781.9682 4286147714
7.4146786 838.07538 781.61414 4286279553
10.710092 838.07538 781.61414 4286279555
14.005505 838.07538 781.61414 4286412438
16.477064 838.07538 781.61414 4286872985
18.948624 838.07538 781.61414 4287793569
22.244038 838.07538 781.61414 4287595933
25.53945 838.07538 781.61414 4287464093
28.011009 838.07538 781.61414 4287200921
44.488075 838.07538 781.61414 4287594645
46.959633 838.07538 781.61414 4287332502
-6.5688071 842.77686 781.6543 4286082687
-3.8318043 842.3584 781.30145 4286016897
-1.6422018 841.52142 780.5957 4286082439
0.82110089 842.14917 781.125 4285819268
4.3792052 842.3584 781.30145 4285818752
7.3899078 841.52142 780.5957 4285818749
10.674313 841.52142 780.5957 4286213510
13.958715 841.52142 780.5957 4286281361
16.422018 841.52142 780.5957 4286806680
18.885323 841.52142 780.5957 4288121509
22.443426 841.93994 780.94855 4287660959
25.727829 841.93994 780.94855 4287332511
28.738533 841.52142 780.5957 4287200407
43.518349 841.52142 780.5957 4287332502
45.981651 841.52142 780.5957 4287463307
-6.5688071 844.03235 782.71289 4285886593
-4.1018353 844.7583 782.01697 4285886080
-1.6385322 844.85803 780.79291 4286016895
0.54740059 844.58276 781.43292 4285622658
4.0999999 844.7583 782.01697 4285885058
7.373395 844.85797 780.79285 4285949827
10.650459 844.85803 780.79291 4286147977
13.654434 844.64923 780.61688 4286280588
16.385321 844.85803 780.79291 4286476944
18.843121 844.85803 780.79291 4287594909
21.847094 845.06671 780.96893 4287068046
25.124161 845.06683 780.96893 4286540934
28.674313 844.85797 780.79285 4287001742
31.951378 844.85803 780.79291 4286870925
34.409176 844.85803 780.79291 4286936978
36.866974 844.23169 780.26477 4287266461
40.144035 844.23169 780.26477 4287462809
42.601833 844.23169 780.26477 4287463059
-6.5541286 846.737 782.37732 4285820546
-4.0926609 847.46155 781.68018 4285819776
-1.6348624 848.18616 780.98303 4285950849
0.81926608 847.46155 781.68018 4285885056
4.0963306 846.737 782.37732 4285885308
7.3568807 848.18616 780.98303 4285950336
10.626606 848.18616 780.98303 4286016646
13.89633 848.18616 780.98303 4285819783
17.166054 848.18616 780.98303 4286542734
19.618349 848.18616 780.98303 4289105027
22.096329 847.46155 781.68018 4288710016
25.397247 846.737 782.37732 4288118402
28.674313 846.737 782.37732 4287593868
31.914679 847.46155 781.68018 4287198600
35.149544 848.18616 780.98303 4287329411
37.601833 848.18616 780.98303 4287329411
40.054131 848.18616 780.98303 4287197824
42.50642 848.18616 780.98303 4287067006
-6.5394497 849.43604 782.03687 4285754751
-4.0871563 849.43604 782.03687 4285819775
1.6348624 849.43604 782.03687 4285753979
4.0871563 849.43604 782.03687 4285753725
7.3568807 849.43604 782.03687 4285885056
10.626606 849.43604 782.03687 4286016898
13.078899 849.43604 782.03687 4286082951
17.983486 849.43604 782.03687 4287661726
19.618349 849.43604 782.03687 4291800772
22.070641 849.43604 782.03687 4294303211
25.340366 849.43604 782.03687 4293648101
28.610092 849.43604 782.03687 4293319654
31.879816 849.43604 782.03687 4292595163
35.149544 849.43604 782.03687 4292397008
-6.5174313 854.09686 782.04272 4285492085
-3.8018351 853.68164 781.69263 4285556602
-1.6293578 852.8512 780.99243 4285687680
1.6293578 854.09686 782.04272 4285621875
4.0733948 853.474 781.51758 4285621885
7.3321099 852.8512 780.99243 4285819263
10.590826 852.8512 780.99243 4286016898
13.849541 852.8512 780.99243 4286017930
17.922935 852.8512 780.99243 4287070870
19.552294 852.8512 780.99243 4291211202
21.99633 852.8512 780.99243 4294964476
25.255047 853.474 781.51758 4294371823
28.513762 854.09686 782.04272 4294043373
31.772476 854.09686 782.04272 4294108652
35.031193 853.474 781.51758 4293780195
37.475231 852.8512 780.99243 4293648607
39.919266 852.8512 780.99243 4293515978
42.363304 852.8512 780.99243 4293056216
-4.0642204 856.7804 781.68933 4285622133
-1.6256881 855.53754 780.64148 4285622140
1.6256881 856.7804 781.68933 4285556336
4.3351684 856.36603 781.34003 4285621886
7.3155961 856.15894 781.16541 4285622142
10.566973 856.159 781.16541 4286082181
13.5474 855.95184 780.99072 4286017160
17.069725 856.15894 781.16541 4286347662
19.508257 856.15894 781.16541 4290161343
21.946789 856.15894 781.16541 4294899707
24.927216 856.36603 781.34003 4294175724
28.449541 856.7804 781.68933 4294109420
31.700916 856.7804 781.68933 4293846504
35.22324 856.36603 781.34003 4293912296
37.390827 855.53754 780.64148 4293978090
40.100307 855.95184 780.99072 4293846506
42.809784 855.95184 780.99072 4293714922
47.144955 856.15894 781.16541 4293648616
48.770641 855.53754 780.64148 4293648357
-9.7431192 859.36084 782.55707 4286080123
-7.3073397 859.36084 782.55707 4285949303
-4.3253822 859.87177 781.67987 4285818486
-1.6220183 858.83838 780.80853 4285753467
1.0825688 858.97998 781.79999 4285490547
4.0550461 860.07837 781.85406 4285622140
7.2990828 860.07837 781.85406 4285490553
10.543119 860.07843 781.85413 4285819011
13.949359 859.70642 781.54041 4285622147
17.031193 859.45837 781.3313 4285952396
19.46422 860.07837 781.85406 4289897921
21.897247 859.45837 781.3313 4294833405
25.155964 859.7196 782.20557 4293978352
28.385323 860.07837 781.85406 4293912305
31.629358 860.07843 781.85413 4293715181
34.873394 860.07837 781.85406 4293714922
38.117432 859.45831 781.3313 4293714924
40.550457 860.07837 781.85406 4293583342
43.145691 859.70636 781.54041 4293583596
46.086609 859.41931 781.82159 4293517547
49.471558 859.45831 781.3313 4293451240
-3.2330275 862.84686 780.26428 4285818748
-1.6165137 862.84686 780.26428 4285884797
0 862.84686 780.26428 4285490552
16.165138 862.84686 780.26428 4284768128
21.822937 862.84686 780.26428 4294833150
-10.507339 864.70062 781.82739 4285621883
-7.274312 864.70062 781.82739 4285687417
-4.0366974 865.414 781.12085 4285556344
-1.6146789 865.41394 781.12085 4285425274
0.80825686 866.03186 781.64185 4285228409
4.3107033 864.90656 782.00104 4285031287
7.0048928 864.90656 782.00104 4285030773
10.776759 864.90656 782.00104 4285358715
13.740367 864.70062 781.82739 4285490304
16.973394 864.70062 781.82739 4285688969
19.398165 864.70062 781.82739 4289306295
21.822937 864.70062 781.82739 4294767355
25.055965 864.70062 781.82739 4293912557
28.288992 864.70062 781.82739 4293846766
31.522018 864.70062 781.82739 4293780716
34.755043 864.70062 781.82739 4293780717
37.988075 864.70062 781.82739 4293715181
40.412846 864.70062 781.82739 4293714669
42.568195 864.90656 782.00104 4293649387
45.801224 864.90656 782.00104 4293386221
49.303673 864.70062 781.82739 4293517545
-10.483486 867.97833 781.97498 4285490297
-7.2577982 867.97833 781.97498 4285359481
-4.0321102 867.97833 781.97498 4285097080
-1.612844 867.97833 781.97498 4285097080
0 869.40222 780.55945 4285097078
4.0321102 867.97833 781.97498 4285031287
6.451376 867.97833 781.97498 4284703083
11.289908 867.97833 781.97498 4285425790
14.515596 867.97833 781.97498 4285491072
16.934864 867.97833 781.97498 4285228927
22.579817 867.97833 781.97498 4294570742
24.999083 867.97833 781.97498 4293912557
28.22477 867.97833 781.97498 4293780973
31.450459 867.97833 781.97498 4293780973
34.676147 867.97833 781.97498 4293714924
37.901833 867.97833 781.97498 4293714669
41.127525 867.97833 781.97498 4293649132
45.966057 867.97833 781.97498 4293451242
48.27523 869.40222 780.55945 4293451753
-4.0229359 871.24756 782.11536 4284965495
-1.6091744 871.24756 782.11536 4284965240
0 871.24756 782.11536 4285030514
4.8275228 871.86267 782.63403 4285095542
7.2412844 871.86267 782.63403 4285030251
11.26422 871.86267 782.63403 4285687682
12.873395 871.86267 782.63403 4285491582
16.896332 871.86267 782.63403 4284963954
20.114677 871.86267 782.63403 4291606482
22.52844 871.86267 782.63403 4294767354
24.942204 871.86267 782.63403 4294043634
28.160551 871.24756 782.11536 4293780973
31.110703 871.45264 782.28827 4293780459
34.597248 871.86267 782.63403 4293779950
37.815598 871.86267 782.63403 4293911024
41.033943 871.86267 782.63403 4293779694
43.447708 871.86267 782.63403 4293780203
45.861465 870.63245 781.59668 4293385964
48.165138 872.05347 780.17896 4293451753
0 874.5083 782.24878 4285227129
11.238532 874.5083 782.24878 4285293698
17.660551 874.5083 782.24878 4284174440
20.068806 874.5083 782.24878 4291017171
22.477064 874.5083 782.24878 4294701304
24.885323 874.5083 782.24878 4294174709
28.096329 874.5083 782.24878 4293780467
31.307339 874.5083 782.24878 4293846517
34.518349 874.5083 782.24878 4293714673
36.926605 874.5083 782.24878 4293845998
40.940369 874.5083 782.24878 4293583346
44.418961 874.09912 781.90381 4293583341
46.559631 873.28088 781.21387 4293385962
25.6 877.85474 781.14636 4293845746
28 877.85474 781.14636 4293648363
44.799999 877.85474 781.14636 4293254379
46.400002 877.24316 780.63068 4293385707
48 876.63153 780.11499 4293254883
0 879.07794 782.17773 4285293176
17.6 879.07794 782.17773 4285096828
20 879.07794 782.17773 4290491599
22.4 879.07794 782.17773 4294569468
25.047094 879.95465 782.04492 4293977585
27.967892 880.39307 781.97858 4293978093
31.200001 879.07794 782.17773 4293846501
34.400002 879.07794 782.17773 4293912549
36.799999 879.07794 782.17773 4293912293
40.799999 879.07794 782.17773 4293649127
44.232418 879.95465 782.04492 4293517292
47.091743 881.09808 781.26489 4293451497
0 882.92865 782.80835 4285490298
19.954128 882.92865 782.80835 4289964751
23.14679 882.92865 782.80835 4294372341
25.541285 882.92865 782.80835 4293780205
27.93578 882.92865 782.80835 4293977838
30.330275 882.92865 782.80835 4293714663
36.715595 882.92865 782.80835 4293648616
41.504585 882.92865 782.80835 4293713896
43.899082 882.92865 782.80835 4293517033
46.983486 884.33295 781.37634 4293320423
49.372478 883.11536 780.34973 4293386214
20.704588 885.55054 782.40308 4293713407
27.07523 885.55054 782.40308 4293780205
36.631191 885.55054 782.40308 4293715180
43.798164 885.55054 782.40308 4293648618
46.875229 886.95197 780.96863 4293385959
49.258717 886.95197 780.96863 4293452007
19.862385 888.16675 781.99292 4289372109
22.245872 888.16675 781.99292 4294570239
27.807339 888.16675 781.99292 4293977837
44.491745 888.16675 781.99292 4293517548
46.875229 888.16675 781.99292 4293451753
50.201832 889.96942 780.89679 4293385959
52.315598 890.17139 781.06714 4293385703
0 891.98938 782.59998 4284832373
13.475229 891.98938 782.59998 4285292153
16.645872 891.98938 782.59998 4284766829
19.816513 891.98938 782.59998 4288450499
22.987156 891.98938 782.59998 4293912031
26.157799 891.98938 782.59998 4293977838
28.53578 891.98938 782.59998 4293977320
30.913761 891.98938 782.59998 4293977320
34.084404 891.98938 782.59998 4293779941
46.766972 891.98938 782.59998 4293517547
49.937614 891.98938 782.59998 4293517798
53.108257 891.98938 782.59998 4293385700
17.337614 899.08691 782.04431 4284108397
19.701836 899.08691 782.04431 4287925943
22.85413 899.08691 782.04431 4293845996
26.006422 899.08691 782.04431 4293912045
29.158714 899.08691 782.04431 4293846504
31.522936 899.08691 782.04431 4293780708
33.887154 899.08691 782.04431 4293714664
37.039452 899.08691 782.04431 4293714666
20.442202 902.87592 782.62305 4290952419
22.800919 902.87592 782.62305 4293649134
25.945873 902.87592 782.62305 4293977836
29.352905 902.47516 782.28516 4293977323
31.449541 902.27478 782.11621 4293845986
33.808258 902.27478 782.11621 4293845734
36.953209 902.87592 782.62305 4293648616
40.098167 902.87592 782.62305 4293517030
42.456882 902.87592 782.62305 4293648103
32.160549 905.45422 782.18103 4293648357
34.51376 905.45422 782.18103 4293714413
36.866974 905.45422 782.18103 4293780204
51.64954 908.02698 781.73413 4293386214
50.084404 909.22357 782.74304 4293385701
51.588989 910.50574 782.51611 4293385702
28.040367 915.53754 782.83472 4293977838
34.271561 915.53754 782.83472 4293648355
38.166054 915.53754 782.83472 4293516517
40.50275 915.53754 782.83472 4293319390
42.839447 915.53754 782.83472 4293582821
45.176147 915.53754 782.83472 4293451494
51.407341 915.53754 782.83472 4293319654
-15.341285 791.98267 783.29883 4286872471
-16.177065 794.03986 783.72546 4287003540
-16.442202 796.52765 784.51514 4286872723
-15.258716 799.64832 783.22217 4286807441
-16.089909 802.98901 784.73096 4286807182
-15.738225 808.13129 783.83466 4286608521
-13.489908 807.27185 783.10999 4286741389
-11.80367 807.27185 783.10999 4286741389
-15.984404 811.98175 784.46515 4286476942
-13.46055 811.33856 783.92285 4286542736
-15.897248 818.89758 783.75635 4286346890
-18.346788 823.66779 783.85437 4286083973
-16.6789 823.66779 783.85437 4286345861
-18.266054 829.15564 783.24939 4286214280
-16.605505 829.15564 783.24939 4286214278
-14.944954 829.15564 783.24939 4286214278
-18.165138 838.50879 784.59558 4286082694
-16.513762 838.50879 784.59558 4286083205
-14.311927 838.29834 784.41815 4286017670
-13.181651 841.22461 784.26947 4285951619
-10.710092 841.22461 784.26941 4286017155
-8.2385321 841.22461 784.26947 4286082691
-16.477064 843.11414 785.86267 4286082680
-13.983486 844.20099 784.81702 4286148221
-10.674313 845.28784 783.77136 4285951363
-8.211009 845.28784 783.77136 4285885830
-13.137614 847.17108 785.35925 4285950852
-10.663303 847.26648 784.13171 4285885315
-8.1926603 847.98969 783.43347 4285819781
-10.644954 850.22888 784.66748 4285753987
-7.6293578 851.10254 783.44208 4285557377
-4.9045873 850.68591 783.0907 4285754753
1.6348624 850.68591 783.0907 4285753727
3.2697248 850.68591 783.0907 4285621886
26.157799 850.68591 783.0907 4294569716
28.610092 850.68591 783.0907 4294240754
31.879816 850.68591 783.0907 4294239983
34.332111 850.68591 783.0907 4293647842
-9.8091745 853.18561 785.19849 4285687932
-11.405504 857.8338 785.1936 4285752954
-7.3321099 855.34253 783.09302 4285556340
1.6220183 861.93848 783.42249 4285556347
3.2440367 861.93848 783.42249 4285294202
8.1100922 861.93848 783.42249 4285227631
9.73211 861.93848 783.42249 4285293176
43.794495 861.93848 783.42249 4293583593
47.038532 861.93848 783.42249 4293254892
48.660549 861.93848 783.42249 4293385447
1.6165137 866.55438 783.39038 4285097078
8.0825691 866.55438 783.39038 4284703083
9.6990824 866.55438 783.39038 4285031033
12.93211 866.55438 783.39038 4285753988
19.398165 866.55438 783.39038 4288845745
21.014679 866.55438 783.39038 4294766847
43.64587 866.55438 783.39038 4293583593
-12.902752 869.2113 783.01465 4285490300
-10.483486 869.2113 783.01465 4285293689
-7.2577982 869.2113 783.01465 4285294457
1.612844 869.2113 783.01465 4284899698
4.0321102 869.2113 783.01465 4284965240
7.2577982 869.2113 783.01465 4284702570
10.483486 869.2113 783.01465 4285228413
13.709174 869.2113 783.01465 4285753722
16.934864 869.2113 783.01465 4285360513
20.160549 869.2113 783.01465 4291280598
22.579817 869.2113 783.01465 4294570740
24.999083 869.2113 783.01465 4293912556
32.256882 869.2113 783.01465 4293912045
34.676147 869.2113 783.01465 4293977583
37.901833 869.2113 783.01465 4293714157
41.127525 869.2113 783.01465 4293648363
43.546787 869.2113 783.01465 4293714409
-13.709174 870.44434 784.05432 4285490554
-10.483486 871.06091 784.5741 4284964719
-7.5266056 870.85541 784.40088 4285031280
1.612844 870.44434 784.05432 4285095794
3.225688 870.44434 784.05432 4285161335
9.6770639 870.44434 784.05432 4285227131
14.515596 870.44434 784.05432 4285359995
-9.6550455 874.93823 785.22729 4285161071
-7.2412844 874.32312 784.70862 4285161586
-4.0183487 874.41431 783.47754 4285095798
-1.6073395 874.41431 783.47754 4285227129
1.0727829 874.38397 783.88788 4285161335
4.0229359 873.70801 784.18994 4285226869
7.2412844 873.70801 784.19 4284964208
10.175534 874.8548 783.4129 4284767093
13.662385 874.41431 783.47754 4285621883
16.602448 874.8548 783.4129 4284767347
20.068806 875.73572 783.28369 4290819280
22.477064 875.73572 783.28369 4294438137
24.082569 875.73572 783.28369 4294108915
31.307339 875.73572 783.28369 4293648359
34.518349 875.73572 783.28369 4293911786
38.026295 874.8548 783.4129 4293714671
40.940369 875.73572 783.28369 4293517803
43.348625 875.73572 783.28369 4293583595
-9.6330271 878.19061 785.35364 4285424496
-7.2247705 877.5769 784.83612 4285424245
-4.0137615 876.9632 784.3186 4285292665
-1.6055046 876.9632 784.3186 4285293178
1.6055046 877.5769 784.83612 4285293176
4.0137615 877.5769 784.83606 4285358457
7.2247705 877.5769 784.83606 4285030006
10.43578 877.5769 784.83606 4285029745
13.646789 877.5769 784.83612 4285555834
16.055046 876.9632 784.3186 4285031035
38.532108 876.9632 784.3186 4293648866
-6.4000001 880.91284 783.72479 4285490549
-4 880.91284 783.72473 4285424753
-1.6 880.91284 783.72479 4285490799
0.80000001 880.91284 783.72479 4285358712
4 881.52441 784.24048 4285293176
7.1999998 881.52441 784.24048 4285161336
10.4 881.52441 784.24048 4285095542
13.6 881.52441 784.24048 4285490289
16.799999 880.91284 783.72479 4284768377
20 880.30121 783.20911 4290359761
22.4 880.30121 783.20911 4294569466
24 880.30121 783.20911 4294240758
31.466667 880.70898 783.55292 4293715177
34.400002 880.91284 783.72473 4293714664
37.866669 880.70898 783.55292 4293517542
40.533333 880.70898 783.55292 4293583079
43.200001 880.30121 783.20911 4293451494
-6.4000001 882.74762 785.27185 4285557631
-3.9963303 883.44836 784.55463 4285426040
-1.5963303 884.14905 783.8374 4285426292
0.80000001 883.44836 784.55463 4285162618
4 882.74762 785.27185 4285031035
7.1999998 882.74762 785.27185 4284965240
10.4 882.74762 785.27185 4285096299
13.583487 883.44836 784.55463 4285490039
16.761467 884.14905 783.8374 4284570997
19.155964 884.14905 783.8374 4286081436
23.14679 884.14905 783.8374 4294437885
25.541285 884.14905 783.8374 4293648618
28.733946 884.14905 783.8374 4293845485
31.128441 884.14905 783.8374 4293648105
34.321098 884.14905 783.8374 4293911788
38.311928 884.14905 783.8374 4293648366
40.706421 884.14905 783.8374 4293713899
-6.3853211 886.5899 785.89551 4285095290
-3.9862385 886.67761 784.66138 4285227381
-1.5926605 887.37695 783.94299 4285358959
1.062997 886.70782 784.25079 4285095541
3.9862385 886.67761 784.66138 4284767091
7.1752291 886.67761 784.66138 4284833651
10.36422 886.67761 784.66138 4285161576
13.568808 885.36951 784.86646 4285424246
16.722935 886.76813 783.42969 4284767863
23.889908 886.76813 783.42969 4294504447
25.482569 886.76813 783.42969 4294174960
31.056881 886.76813 783.42969 4294043374
34.242203 886.76813 783.42969 4293977581
37.427521 886.76813 783.42969 4293649133
40.347401 887.17401 783.77191 4293517291
43.001835 886.76813 783.42969 4293713896
-7.1669722 889.20337 785.48303 4285095289
-3.972477 890.59631 784.0415 4284898160
-1.5889908 890.59631 784.0415 4284964458
0.7944954 889.98889 783.52936 4284832115
3.972477 890.59631 784.0415 4284635243
7.1504583 890.59631 784.0415 4284702070
10.328441 890.59631 784.0415 4285226860
13.506422 889.38153 783.01721 4285293176
16.684402 889.38153 783.01721 4284766834
19.862385 889.38153 783.01721 4288583111
23.040367 889.38153 783.01721 4293978097
25.423853 889.38153 783.01721 4294174960
27.807339 889.38153 783.01721 4293912044
30.985321 889.38153 783.01721 4294043116
34.163303 889.38153 783.01721 4293713896
37.341286 889.98889 783.52936 4293846250
40.7841 890.19141 783.70001 4293648614
43.69725 889.98889 783.52936 4293648620
46.875229 889.38153 783.01721 4293517547
49.258717 889.38153 783.01721 4293583593
-7.1504583 891.81116 785.0658 4284964471
-3.9688072 892.50623 784.34387 4284963957
-1.5853211 893.20135 783.62195 4285029749
0.7944954 892.50623 784.34387 4284963958
3.9688072 892.50623 784.34387 4284964208
7.133945 893.20135 783.62195 4285095542
10.304587 893.20135 783.62195 4285226610
13.475229 893.20135 783.62195 4285423740
16.645872 893.20135 783.62195 4284700270
19.816513 893.20135 783.62195 4288778169
22.987156 893.20135 783.62195 4294240488
26.157799 893.20135 783.62195 4293977325
28.53578 893.20135 783.62195 4293779941
30.913761 893.20135 783.62195 4293714148
34.084404 893.20135 783.62195 4293780199
37.255047 893.20135 783.62195 4293648613
40.42569 893.20135 783.62195 4293713635
43.596329 893.20135 783.62195 4293779432
46.766972 893.20135 783.62195 4293516775
49.937614 893.20135 783.62195 4293451492
53.108257 893.20135 783.62195 4293253605
-12.653211 895.80078 783.19763 4284899194
-10.568808 895.22137 785.32513 4284767608
-7.133945 895.01935 785.15479 4284701557
-3.9633026 895.01941 785.15479 4284767091
-1.5853211 894.41339 784.6438 4284963956
1.0568807 894.81738 784.98444 4285029751
3.9633029 895.01935 785.15479 4285292406
7.133945 894.41339 784.6438 4285095542
10.293578 895.10706 783.92072 4285161335
13.444036 895.80078 783.19763 4285357951
16.60734 895.80078 783.19763 4284634741
19.770641 895.80078 783.19763 4288188599
22.933945 895.80078 783.19763 4294372328
26.097248 895.80078 783.19763 4293977583
28.469725 895.80078 783.19763 4293845737
30.842201 895.80078 783.19763 4293779942
34.005505 895.80078 783.19763 4293714407
37.168808 895.80078 783.19763 4293714150
40.42569 894.41339 784.6438 4293516768
43.86055 894.81738 784.98444 4293517028
46.766968 895.01941 785.15479 4293451493
49.673397 895.22137 785.32513 4293319905
52.315598 895.01941 785.15479 4293253855
-12.653211 897.61462 784.72699 4284438646
-10.280734 898.21918 785.23682 4284832885
-7.908257 898.21918 785.23682 4284832623
-3.9541283 898.21918 785.23682 4284964207
-1.5816513 897.61462 784.72699 4285029998
0.79082566 897.61462 784.72699 4285095543
3.9541283 898.21918 785.23682 4285292653
6.8538227 897.41309 784.55707 4284964990
10.280734 897.61462 784.72699 4284965242
13.180428 897.41309 784.55707 4285226877
15.816514 897.01001 784.21716 4285490050
40.332108 897.01001 784.21716 4293451234
43.495415 897.61462 784.72699 4293517028
46.658714 898.21918 785.23682 4293451750
49.031193 898.21918 785.23682 4293452007
52.194496 898.21918 785.23682 4293517539
-13.659939 902.30023 784.75372 4285161338
-3.1522937 902.70184 785.09241 4285358197
-1.5761468 902.09937 784.58435 4285424243
0 900.89441 783.5683 4285292666
3.677676 902.30023 784.75372 4285292917
7.2502756 901.73792 784.27954 4284899450
10.244954 902.09937 784.58435 4285096040
13.397247 901.49689 784.07629 4285424509
16.549541 900.89441 783.5683 4284635514
19.439144 900.69354 783.39893 4286346908
22.85413 900.29187 783.0603 4293780970
26.006422 900.29187 783.0603 4293911789
28.370642 900.29187 783.0603 4293977320
37.039452 900.29187 783.0603 4293648360
40.191742 900.29187 783.0603 4293516774
43.344036 900.89441 783.5683 4293582567
46.49633 901.49689 784.07629 4293451751
48.86055 901.49689 784.07629 4293452007
52.012844 901.49689 784.07629 4293518052
-3.1449542 905.28021 784.65027 4285358201
-1.5724771 905.28021 784.65027 4285423994
0 904.67914 784.14343 4285423998
7.0761471 905.28021 784.65027 4285161338
10.221101 905.28021 784.65027 4285162091
13.628135 904.87946 784.31232 4285358713
16.511009 904.67914 784.14343 4284636026
19.655964 904.67914 784.14343 4287267751
22.538839 904.47876 783.97443 4293188321
25.945873 904.07806 783.6366 4294043883
29.090824 904.07806 783.6366 4293714414
40.098167 904.07806 783.6366 4293517031
43.243118 904.07806 783.6366 4293516776
46.388073 904.07806 783.6366 4293451239
49.533028 904.07806 783.6366 4293385957
51.891743 904.07806 783.6366 4293517798
-3.1449542 906.48242 785.66394 4285751160
-1.5724771 906.48242 785.66394 4285751160
0 907.85297 784.20349 4285423994
3.9311926 906.48242 785.66394 4284965241
7.0761471 906.48242 785.66394 4284965241
10.221101 906.48242 785.66394 4285161588
13.349542 907.16772 784.93372 4285227130
16.472477 907.85297 784.20349 4284636027
19.610092 907.85297 784.20349 4286807710
23.009176 907.45312 783.86639 4293582576
25.885323 907.25323 783.69788 4293977837
29.022938 907.2533 783.69788 4293780204
32.160549 907.2533 783.69788 4293714408
34.51376 907.2533 783.69788 4293451499
36.866974 907.2533 783.69788 4293780204
40.004585 907.2533 783.69788 4293714152
43.142204 907.2533 783.69788 4293516773
46.279816 907.2533 783.69788 4293450981
49.155964 907.05341 783.5293 4293385958
-3.133945 910.33447 784.98785 4285489785
-1.5669725 910.33447 784.98785 4285423992
0 910.33447 784.98785 4285227378
4.7064219 909.05231 785.21484 4284899194
7.8440366 909.05231 785.21484 4284899192
10.197248 909.05231 785.21484 4285096044
13.319267 910.33447 784.98785 4285161588
16.453211 910.33447 784.98785 4284898679
19.303364 910.81903 784.0882 4285623685
22.694496 910.4201 783.75195 4293056233
25.824772 910.4201 783.75195 4293977581
28.955048 910.4201 783.75195 4293780203
32.08532 910.4201 783.75195 4293451240
35.476456 910.81903 784.0882 4293845482
37.563301 910.4201 783.75195 4293649641
39.911011 910.4201 783.75195 4293517540
43.041283 910.4201 783.75195 4293451748
46.171562 910.4201 783.75195 4293056993
49.301834 910.4201 783.75195 4293385702
-3.1302752 912.81323 785.76978 4284963189
-1.5651376 912.81323 785.76978 4284897396
0 912.81323 785.76978 4284635493
7.8256879 912.81323 785.76978 4284700534
10.173394 912.81323 785.76978 4285029481
13.287156 913.49432 785.03607 4285095794
16.395412 914.17542 784.30237 4284832116
19.778593 913.77753 783.9668 4287070879
22.641285 913.57855 783.79907 4292924904
25.764221 913.57855 783.79907 4294108908
29.1474 913.37958 783.63135 4293780203
32.010094 913.57855 783.79907 4293779433
35.133026 913.57855 783.79907 4293713894
37.475231 912.98169 783.29578 4293713896
39.817429 912.98169 783.29578 4293517026
42.940369 912.98169 783.29578 4293517538
46.323547 913.37958 783.63135 4293254369
49.186237 913.57855 783.79907 4293319909
51.528439 912.98169 783.29578 4293451242
-1.559633 916.64429 785.07599 4284897395
0 916.64429 785.07599 4284700772
7.8073397 915.3692 785.30884 4284504438
10.137615 916.64429 785.07605 4284833137
13.256881 916.64429 785.07605 4285095281
16.366055 916.98413 784.70856 4284963444
19.472477 917.32397 784.34106 4285623697
22.588074 917.32397 784.34106 4292661989
25.703669 917.32397 784.34106 4294109676
28.819267 917.32397 784.34106 4293648357
31.93486 917.32397 784.34106 4293845736
35.050461 917.32397 784.34106 4293648868
38.166054 916.72852 783.83899 4293582310
40.50275 916.72852 783.83899 4293516517
43.099079 917.12549 784.17365 4293516775
45.955048 916.72852 783.83899 4293385188
49.330273 917.12549 784.17365 4293319138
51.407341 916.72852 783.83899 4293384934
-3.1155963 919.11041 785.84729 4285226362
-1.5577981 919.11041 785.84729 4285094777
0.77889907 919.11041 785.84729 4284832627
3.8944955 919.11041 785.84729 4284636275
7.0100918 919.11041 785.84729 4284701818
10.125689 919.11041 785.84729 4285030251
13.241284 919.11041 785.84729 4285160817
16.35688 919.11041 785.84729 4284898399
19.472477 919.11041 785.84729 4285491597
22.588074 919.11041 785.84729 4292727012
25.703671 919.11041 785.84729 4294043627
28.819267 919.11041 785.84729 4293780459
31.934862 919.11041 785.84729 4293846247
34.967888 920.46417 784.37268 4293582310
38.076149 919.87012 783.87177 4293648616
41.184402 919.87012 783.87177 4293582308
43.515594 920.46417 784.37268 4293516515
45.846786 919.87012 783.8717 4293450979
48.696026 920.06812 784.03876 4293385185
51.28624 919.87012 783.87177 4293253602
0 921.65234 785.37451 4285029236
10.878899 921.65234 785.37451 4285030001
16.318348 921.65234 785.37451 4284832359
26.420183 921.65234 785.37451 4293714663
28.751377 921.65234 785.37451 4293846252
31.859632 921.65234 785.37451 4293518052
34.967888 921.65234 785.37451 4293451492
38.076149 921.65234 785.37451 4293648616
41.184402 921.65234 785.37451 4293451746
43.515594 921.65234 785.37451 4293253599
45.846786 921.65234 785.37451 4293385441
48.955048 921.65234 785.37451 4293056477
51.28624 921.65234 785.37451 4293253858
51.165138 924.78131 785.39673 4293253348
-17.009174 798.69501 786.34253 4286807182
-16.954128 803.53674 786.50085 4286872205
-15.143119 813.91125 786.09204 4286346890
-18.165138 841.03369 786.72461 4285886341
-16.513762 840.40247 786.19238 4286082687
-14.862386 840.40247 786.19238 4286082687
-18.124771 844.37378 786.9248 4286017928
-16.477064 844.37378 786.9248 4286148737
-14.829358 845.00366 787.45587 4286082945
-13.137614 849.68201 787.47644 4285884544
-11.469725 851.74768 786.60217 4285818750
-13.108257 853.00037 787.65833 4285818748
-11.444036 854.43549 786.25232 4285818748
-13.078899 855.68536 787.30615 4285752954
-13.461162 871.14478 786.38885 4285424245
-11.289908 872.9104 786.13354 4285226358
-13.440366 874.96552 787.86639 4285490555
-11.289908 874.14349 787.17322 4285161589
-11.26422 877.39868 787.30188 4285490297
-10.040825 880.2951 787.7821 4285491063
-8.027523 880.03174 786.90601 4285557108
-12.8 883.97083 786.30322 4285884806
-11.2 883.97083 786.30322 4285621890
-7.1999998 883.97083 786.30322 4285819521
-12.8 885.19403 787.33459 4285621888
-10.388074 886.5022 787.12952 4285292921
-8 885.19403 787.33459 4285227381
-10.352293 890.42096 786.50964 4285030520
-9.5339451 893.02594 786.09009 4284833401
50.847706 893.02594 786.09009 4293056734
-6.3412843 896.83734 786.68774 4285029749
50.730274 896.83734 786.68774 4293451746
-15.816514 899.42834 786.25635 4285095290
-12.653211 899.42834 786.25635 4285095544
-10.280734 899.42834 786.25635 4285292666
-7.1174312 899.42834 786.25635 4285292151
-3.9541283 899.42834 786.25635 4285226609
1.5816513 899.42834 786.25635 4285227131
4.7449541 899.42834 786.25635 4285358197
50.612843 899.42834 786.25635 4293452259
-15.816514 901.24219 787.78564 4285227899
-10.017125 901.04071 787.61572 4285227386
-6.8538227 901.04059 787.61572 4285358454
-4.7449541 900.63757 787.27588 4285358197
1.5816513 900.63757 787.27588 4285292672
-13.134557 904.30841 786.44708 4285425018
-10.507646 904.71014 786.78571 4285425018
-7.3553519 904.71014 786.78571 4285424763
-4.7284403 904.50928 786.61639 4285424246
1.5761468 904.50928 786.61639 4285292409
3.940367 903.9068 786.1084 4285227131
-10.499083 907.17352 787.99066 4285425530
-7.3492355 907.17352 787.99066 4285556603
-4.7174311 907.68457 786.67749 4285950590
1.5724771 907.68457 786.67749 4285293174
3.1449542 907.68457 786.67749 4284899194
6.2899084 907.68457 786.67749 4284899192
-9.9357796 911.05127 786.90021 4285227124
-6.7981658 911.05127 786.90021 4285292405
-4.7064219 910.85138 786.73169 4285555834
1.5688074 910.85138 786.73169 4284964458
3.9220183 910.85138 786.73169 4284636023
6.7981648 910.65155 786.56317 4284635768
10.197248 910.25171 786.22607 4284898415
-10.186238 913.33008 787.51367 4285029747
-7.0522938 913.33008 787.51367 4285029493
-3.9128439 914.00983 786.77869 4285029237
1.5651376 914.00983 786.77869 4284569698
3.9128439 914.00983 786.77869 4284504691
6.2605505 914.00983 786.77869 4284570232
-10.16789 916.14307 787.92334 4284767089
-7.0348625 916.48151 787.55475 4285029494
-4.1639142 916.96088 786.65088 4285226359
1.5614679 916.56293 786.31543 4284898152
3.9036698 916.56293 786.31543 4284636277
7.0266056 916.56293 786.31543 4284636025
-9.3467894 920.30139 786.85144 4284833149
-7.0100918 920.30139 786.85144 4284767095
-3.8944955 920.30139 786.85144 4284963701
-1.5577981 920.30139 786.85144 4285029238
1.5577981 920.30139 786.85144 4284963443
3.8944955 920.30139 786.85144 4284832627
7.0100918 920.30139 786.85144 4284702070
9.3467894 920.30139 786.85144 4285030001
13.241284 920.30139 786.85144 4285160817
19.472477 920.30139 786.85144 4285228164
22.588074 920.30139 786.85144 4292791524
24.92477 920.30139 786.85144 4294175214
-9.3357801 922.76184 787.6181 4284767103
-6.73945 922.78809 787.20416 4284701046
-3.8853211 922.84045 786.37634 4284832372
-1.5541284 922.84045 786.37634 4284963956
1.0385321 922.33868 787.69727 4284767087
3.8944955 922.08777 788.35767 4284766834
7.0100918 921.49231 787.85559 4284832627
10.101835 922.84045 786.37634 4284964208
13.233945 922.4248 787.98792 4285095542
16.318348 922.84045 786.37634 4284963956
19.182264 922.78809 787.20416 4284768126
22.588074 922.08777 788.35767 4292265954
25.64312 922.84045 786.37634 4293977581
28.751377 922.84045 786.37634 4293911527
31.859632 922.84045 786.37634 4293648355
34.967888 922.84045 786.37634 4293648357
38.076149 922.84045 786.37634 4293845482
41.184402 922.84045 786.37634 4293780193
43.515594 922.84045 786.37634 4293516515
45.846786 922.84045 786.37634 4293384930
48.955048 922.84045 786.37634 4293253091
-9.3247709 925.21674 788.38 4284570232
-7.2525992 924.82074 788.04608 4284635767
-3.8853211 924.62268 787.87909 4284634992
-1.5541284 924.62268 787.87909 4284701042
0 924.62268 787.87909 4284701029
6.993578 924.02863 787.37817 4284636275
10.101835 924.62268 787.87909 4284963703
13.210092 925.21674 788.38 4285160817
16.318348 924.62268 787.87903 4284833642
19.685629 924.82074 788.04608 4285228927
22.534863 925.21674 788.38 4292068062
25.64312 924.62268 787.87903 4293977837
28.751377 924.62268 787.87903 4293779684
31.859632 924.62268 787.87903 4293714147
34.967888 924.62268 787.87909 4293648355
38.076149 924.62268 787.87909 4293648356
41.184402 924.62268 787.87909 4293450722
43.515594 924.62268 787.87909 4293582311
45.84679 924.62268 787.87909 4293384931
48.955048 924.62268 787.87903 4293121759
51.165138 926.55933 786.89587 4293253347
-18.715597 845.03156 790.09552 4285885571
-16.513762 844.18994 789.38586 4286082689
-18.165138 846.71497 791.51489 4285885056
-16.495413 846.80408 790.28198 4285752447
-14.829358 847.52307 789.58014 4285818496
-14.829358 849.41254 791.17334 4285687682
-12.902752 877.22607 789.7724 4285621885
-15.816514 903.05591 789.31494 4285621886
-13.707645 903.86206 789.99463 4285490812
-10.930275 921.33795 790.34155 4284636275
1.5577981 923.87421 789.86401 4284766563
3.8944955 923.87421 789.86401 4284700786
7.0100918 923.87421 789.86401 4284963189
-9.3247709 926.40491 789.38171 4284831856
-7.0018349 926.33051 790.62701 4284766051
-3.8899083 926.33051 790.62701 4284700516
-1.5559633 926.33051 790.62701 4284766319
1.0385321 925.90869 790.70734 4284700270
3.8944955 925.66064 791.37024 4284897144
7.0100918 925.66064 791.37024 4285355894
10.113762 926.33051 790.62701 4285290612
13.241284 925.66064 791.37024 4285160566
16.07156 926.35529 790.21191 4284964211
19.182264 926.35529 790.21191 4284241520
22.561468 926.33051 790.62701 4292067289
25.64312 926.40491 789.38171 4293911527
28.785322 926.33044 790.62708 4293780195
31.897247 926.33044 790.62708 4293583329
35.009174 926.33044 790.62708 4293451486
38.121101 926.33044 790.62708 4293582558
41.184402 926.40491 789.38171 4293385184
43.064831 926.30566 791.04218 4293384929
45.900917 926.33044 790.62708 4293450721
48.733944 926.35529 790.21191 4293253341
51.28624 926.40491 789.38171 4293187806
0 927.59308 790.38354 4284831350
17.095413 927.59308 790.38354 4284963702
20.203671 927.59308 790.38354 4284241267
25.64312 927.59308 790.38354 4294108643
40.407341 927.59308 790.38354 4293450206
49.732109 927.59308 790.38354 4293122011
51.28624 927.59308 790.38354 4293122011
-18.710093 806.49719 792.92114 4286412424
-17.009174 806.49719 792.92114 4286346890
-18.710093 807.79755 794.01758 4286413189
-18.165138 847.97742 792.57935 4285623170
-16.513762 847.97742 792.57935 4285753475
-9.3688078 925.51611 793.8645 4284569186
-7.0266056 926.11298 794.3678 4284305493
-4.6844039 926.11298 794.3678 4284436304
1.5614679 926.11298 794.3678 4284831856
3.1229358 926.11298 794.3678 4285029236
7.8073397 926.11298 794.3678 4285290857
-3.1155963 927.44708 792.87659 4284567388
-1.5577981 927.44708 792.87659 4284830560
0 927.44708 792.87659 4284897650
4.6733947 928.04254 793.37866 4285357429
6.2311926 928.04254 793.37866 4285619559
10.125689 927.44708 792.87659 4285487207
13.241284 927.44708 792.87659 4285027691
16.35688 928.04254 793.37866 4284699246
19.472477 928.04254 793.37866 4283780446
22.588074 928.04254 793.37866 4291672790
25.859451 928.39978 793.67987 4293845475
28.819267 928.04254 793.37866 4293582043
31.934862 928.04254 793.37866 4293648098
35.050461 927.44708 792.87659 4293582562
38.166054 927.44708 792.87659 4293516769
40.50275 927.44708 792.87659 4293384413
42.839447 927.44708 792.87659 4293384927
45.955048 927.44708 792.87659 4293318877
49.330273 927.84406 793.21124 4293318877
51.407341 928.63806 793.88074 4293187804
-9.3908253 925.9754 796.8678 4285026908
-7.0431194 925.9754 796.8678 4285224281
-4.6954126 925.9754 796.8678 4285290325
1.5651376 925.9754 796.8678 4285356400
3.1302752 925.9754 796.8678 4285751158
-3.6495411 927.21698 797.04254 4287395451
-1.5633028 927.23938 796.62549 4287066231
0.52171254 927.65973 796.54395 4287133057
3.9128439 927.172 797.87671 4288514450
7.2929664 927.65973 796.54395 4287921796
10.161468 927.23938 796.62549 4287395965
13.288074 927.23938 796.62549 4287263623
16.395412 928.50049 796.38086 4289172648
19.518349 928.50049 796.38086 4287465108
22.641285 929.09741 796.88409 4291541976
25.503977 929.29639 797.05182 4293846502
28.887157 928.50049 796.38086 4293714146
32.010094 928.50049 796.38086 4293450463
35.174313 927.23938 796.62549 4293582311
37.519264 927.23938 796.62549 4293582567
39.86422 927.23938 796.62549 4293450980
42.966057 927.57153 796.25153 4293319393
46.117432 927.23938 796.62549 4293253596
48.925995 928.10254 796.04535 4293450718
51.528439 927.30676 795.37427 4293384413
-9.4128437 925.84344 799.37268 4287856520
-7.0596333 925.84344 799.37268 4288185482
-10.197248 927.04285 800.38391 4289238937
-7.0596333 927.04285 800.38391 4289765014
-3.9220183 927.04285 800.38391 4289698707
-1.5651376 928.36853 798.88562 4290027160
0.78440368 927.70569 799.63477 4289303937
3.9220183 927.04285 800.38391 4289568912
7.0431194 928.36853 798.88562 4290159529
10.197248 927.04285 800.38391 4290356139
13.318349 927.70569 799.63477 4290947780
16.433945 928.36853 798.88562 4291672000
19.56422 928.36853 798.88562 4289700248
22.694496 929.56512 799.89453 4291868624
25.824772 929.56512 799.89453 4293845734
28.955048 928.36853 798.88562 4293648355
31.824463 928.7674 799.22192 4293450981
35.215599 928.36853 798.88562 4293582310
37.651375 927.04285 800.38391 4293517285
40.004585 927.04285 800.38391 4293517029
43.092659 927.70569 799.63477 4293450722
46.22477 927.70569 799.63477 4293253594
49.562695 928.7674 799.22192 4293187802
51.64954 928.36853 798.88562 4293319390
-7.0761471 926.91931 802.89575 4290159014
-4.7174311 926.91931 802.89575 4290027173
1.5724771 926.91931 802.89575 4288645507
-9.4238529 928.18188 802.65228 4290487975
-7.8623853 928.12152 803.90942 4291146159
-3.6666667 928.1618 803.07129 4290618028
-1.5706422 928.18188 802.65228 4290749355
0 928.18188 802.65228 4290027163
3.9266057 928.18188 802.65228 4289500818
7.0678902 928.18188 802.65228 4289697164
10.209174 928.18188 802.65222 4290222752
13.342203 928.51184 802.27649 4290814888
16.472477 928.84186 801.90076 4291670458
19.610092 928.84186 801.90076 4290028206
22.747707 929.44153 802.40649 4291804352
25.885323 929.44153 802.40649 4293713894
29.022938 928.84186 801.90076 4293713639
32.422016 929.04175 802.06934 4293714150
34.51376 928.84186 801.90082 4293385695
36.888992 928.51184 802.27649 4293319649
40.051376 928.18188 802.65222 4293516774
43.142204 928.84186 801.90076 4293319394
46.279816 928.8418 801.90082 4293187549
49.155964 929.04175 802.06934 4293253597
51.770641 928.84186 801.90082 4293187548
47.06422 930.64093 803.41772 4292858839
49.417431 930.64093 803.41772 4293122012
51.770641 930.64093 803.41772 4293253599
-6.3045874 926.80139 805.41248 4291013816
1.5761468 926.80139 805.41248 4289434773
-3.1522937 928.00635 806.42847 4294108141
-1.5761468 928.00635 806.42847 4294042348
0 928.00635 806.42847 4293910761
3.940367 928.00635 806.42847 4293778408
7.0926609 928.00635 806.42847 4293909474
10.221101 929.32367 804.9231 4293843168
13.380733 928.66504 805.67578 4293712352
16.511009 929.32367 804.9231 4293778658
19.655964 929.32367 804.9231 4291542478
22.800919 929.32367 804.9231 4292198844
25.945873 929.32367 804.9231 4293713896
29.090824 929.32367 804.9231 4293516002
31.449541 929.32367 804.9231 4293647590
33.808258 929.32367 804.9231 4293516514
36.953209 929.32367 804.9231 4293384156
40.098167 929.32367 804.9231 4293646563
43.243118 929.32367 804.9231 4293318369
45.601833 929.32367 804.9231 4293187552
33.022018 930.52588 805.93677 4293581797
36.166973 930.52588 805.93677 4293187804
40.098167 930.52588 805.93677 4293516007
43.243118 930.52588 805.93677 4293253087
46.388073 930.52588 805.93677 4293253597
48.746788 930.52588 805.93677 4293253597
51.891743 930.52588 805.93677 4293187552
-7.1174312 926.03046 808.68652 4294240238
-4.7449541 926.03046 808.68652 4294108654
1.5816513 926.03046 808.68652 4293647590
-3.1633027 927.23962 809.70605 4294371312
-1.5816513 927.23962 809.70605 4294437106
0 927.23962 809.70605 4294240492
3.9541283 927.23962 809.70605 4293910257
7.1174312 927.23962 809.70605 4294238959
10.261468 928.22546 808.57526 4294107622
13.419266 928.22546 808.57526 4293646820
16.577065 928.22546 808.57526 4293976037
19.701836 929.21136 807.44446 4291609038
22.933945 927.23962 809.70605 4292134098
26.006422 929.21136 807.44446 4293779435
29.158714 929.21136 807.44446 4293516002
31.522936 929.21136 807.44446 4293581797
34.675228 929.21136 807.44446 4293385184
37.827522 929.21136 807.44446 4293319142
50.436699 929.21136 807.44446 4293121759
36.251377 930.41632 808.46045 4293385184
40.191742 930.41632 808.46045 4293385185
43.344036 930.41632 808.46045 4293187806
46.49633 930.41632 808.46045 4293187803
52.012844 930.41632 808.46045 4293253599
-7.133945 925.92517 811.21375 4294437359
-4.7559633 925.92517 811.21375 4294371310
1.5853211 925.92517 811.21375 4293648355
-7.133945 927.13715 812.23572 4293911270
-3.9633026 927.13715 812.23572 4294042857
-1.5853211 927.13715 812.23572 4293977320
0.79266053 927.79297 811.48065 4293582310
3.9633026 927.13715 812.23572 4293186786
7.133945 927.13715 812.23572 4293515486
10.280734 928.44885 810.72559 4293450722
13.475229 927.13715 812.23572 4293055707
16.645872 927.13715 812.23572 4293516253
19.794495 927.79297 811.48065 4291148485
22.987156 927.13715 812.23572 4292199348
26.097248 928.44885 810.72559 4293844969
28.469725 929.05347 811.23535 4293516261
30.842201 928.44885 810.72559 4293516261
34.005505 928.44885 810.72559 4293516515
37.959633 928.44885 810.72559 4293385184
49.822018 928.44885 810.72559 4293121755
-6.8856263 927.44513 815.11151 4293977320
-3.9688072 928.30139 814.52539 4293911782
-1.5853211 928.95508 813.76855 4293846244
0.7944954 928.30139 814.52539 4293516772
3.972477 927.64764 815.28223 4293450465
7.1458716 927.97491 814.90405 4293647068
10.316514 928.30212 814.52594 4293712870
13.482569 928.6286 814.14728 4293252829
