# .PCD v0.7 - Point Cloud Data file format
VERSION 0.7
FIELDS x y z rgb
SIZE 4 4 4 4
TYPE F F F U
COUNT 1 1 1 1
WIDTH 1168
HEIGHT 1
VIEWPOINT 0 0 0 1 0 0 0
POINTS 1168
DATA ascii
49.651375 838.95056 787.58423 4293649641
51.306423 838.95056 787.58423 4293649641
33.92844 840.21588 788.651 4287926465
37.238533 840.21588 788.651 4293912812
40.243423 841.11969 788.54108 4293977835
43.858715 840.21588 788.651 4293583593
47.168808 840.21588 788.651 4293780466
49.651375 840.21588 788.651 4293583845
52.133945 840.21588 788.651 4293583587
54.616512 840.21588 788.651 4293714913
67.781647 841.57166 788.48615 4293385705
63.902752 854.25305 788.7146 4293254629
67.029358 854.43549 786.25232 4293385962
67.029358 856.3103 787.83307 4293451758
68.028442 748.73669 791.30798 4288584104
-27.713762 776.67853 790.01526 4287530401
-28.519266 779.51923 789.79443 4287595415
-25.062386 779.51923 789.79443 4287529881
-31.012844 784.42834 790.00952 4287398797
-28.42844 784.42834 790.00952 4287464846
-24.982569 784.42834 790.00952 4287464847
-31.519876 787.69171 790.1452 4287333017
-28.081345 787.69171 790.1452 4287398548
-24.929358 787.91077 790.3299 4287135884
-22.350458 787.91077 790.3299 4287201673
-20.058104 787.69171 790.1452 4287332756
-16.333027 787.2536 789.77576 4286938514
-13.754128 787.2536 789.77576 4287135891
1.7192661 787.2536 789.77576 4287005077
3.4385321 787.2536 789.77576 4286873488
-31.373701 794.00928 789.80371 4287266965
-27.390825 793.54102 789.84491 4287201172
-25.6789 793.54102 789.84491 4287201172
-23.11101 793.54095 789.84491 4287201170
-19.687157 793.54095 789.84491 4287267221
-15.407339 793.54102 789.84491 4287070353
-13.695413 793.54102 789.84491 4287004302
1.7100917 794.94586 789.72144 4286872737
4.2752295 794.94586 789.72144 4286741650
6.8403668 794.94586 789.72144 4286741650
-31.351683 797.12482 791.55878 4287070344
1.7100917 796.25323 790.82385 4286872471
4.2752295 796.25323 790.82385 4286806928
6.8403668 796.25323 790.82385 4286806928
-28.125687 799.80164 789.89172 4287136392
-25.568808 799.80164 789.89172 4287136143
-23.011927 799.80164 789.89172 4287135641
-19.602753 799.80164 789.89172 4287135378
-16.193579 799.80164 789.89172 4287004808
-13.636697 799.80164 789.89172 4287004556
-11.93211 799.80164 789.89172 4286873227
1.7045871 799.80164 789.89172 4286806930
4.2614679 799.80164 789.89172 4286741135
7.6706419 799.80164 789.89172 4286741902
11.079817 799.80164 789.89172 4286806928
13.636697 799.80164 789.89172 4286741137
16.193579 799.80164 789.89172 4286741395
56.251377 799.80164 789.89172 4287201436
58.808258 799.80164 789.89172 4287726231
-28.125687 801.10486 790.99048 4287070605
-25.541285 802.50061 790.85938 4287004819
-22.711927 802.03534 790.90308 4287070102
-19.560551 803.24622 790.18005 4287069836
-16.158716 803.24628 790.18005 4287004294
-13.60734 803.24622 790.18005 4286938511
-11.33945 803.02954 789.99731 4286872719
-7.3706422 803.02954 789.99731 4286806670
-4.2522936 802.59607 789.63184 4286740878
-1.7009175 803.24622 790.18005 4286740882
1.1351682 802.53241 790.4502 4286609815
4.2568808 802.50067 790.85938 4286478223
7.662385 802.50067 790.85938 4286675858
11.355351 802.0354 790.90308 4286477710
13.622019 802.50061 790.85938 4286608783
16.166973 802.87341 790.51971 4286675090
18.710093 802.59607 789.63184 4286741396
56.130276 802.59607 789.63184 4287200923
58.681648 802.59607 789.63184 4287462807
-27.21468 805.19684 791.82471 4287135380
-25.513762 805.19684 791.82471 4287201173
-22.962385 805.19684 791.82471 4287135641
4.2522936 805.19684 791.82471 4286478479
7.6541286 805.19684 791.82471 4286544276
11.055964 805.19684 791.82471 4286544528
13.60734 805.19684 791.82471 4286675344
-22.040367 808.72137 790.87231 4287069850
-19.497248 808.0733 790.32581 4287134865
-16.106422 808.0733 790.32587 4287134859
-13.563303 807.42523 789.77942 4287069587
-11.020184 807.42523 789.77942 4286872464
-7.6293578 807.42523 789.77942 4286675595
-4.2385321 807.42523 789.77942 4286544009
-1.6954129 807.42523 789.77942 4286609549
1.1302752 807.85724 790.14374 4286478473
4.2385321 808.72137 790.87231 4286346891
7.6293578 808.72137 790.87231 4286609817
11.020184 808.72137 790.87231 4286610064
16.106422 807.42523 789.77942 4286608782
58.491745 807.42523 789.77942 4287200921
-25.431192 810.01758 791.96521 4287135380
-22.863302 811.4043 791.82642 4287003797
-19.455046 812.14429 791.14233 4287003792
-16.353518 811.92871 790.96063 4286938001
-13.533945 810.85089 790.05188 4286938261
-11.278287 810.63531 789.87012 4286872210
-7.612844 810.20422 789.50659 4286675336
-4.2293577 810.20422 789.50659 4286543748
-1.6917431 810.85089 790.05188 4286477961
0.84587157 811.49756 790.59717 4286346890
4.2293577 812.14423 791.1424 4286346890
7.6128435 812.14423 791.1424 4286215562
10.714374 811.92871 790.96063 4286149769
13.533945 810.20422 789.50659 4286675340
16.07156 810.20422 789.50659 4286412171
18.609175 810.20422 789.50659 4286412174
21.992661 810.20422 789.50659 4286411920
46.522934 810.20422 789.50659 4287595933
50.188381 810.63531 789.87012 4287529629
52.444038 810.20422 789.50659 4287463842
54.981651 810.20422 789.50659 4287463339
58.083179 810.63531 789.87012 4287398042
61.748623 810.20422 789.50659 4287528854
-15.176147 815.00671 789.63184 4287003539
-13.489908 815.00671 789.63184 4286871969
-10.96055 815.00671 789.63184 4286740632
-7.5880733 815.00671 789.63184 4286675085
-4.2155962 815.00671 789.63184 4286477706
-1.6862385 815.00671 789.63184 4286543756
0 815.00671 789.63184 4286346390
11.80367 815.00671 789.63184 4286149770
13.489908 815.00671 789.63184 4286281099
16.019266 815.00671 789.63184 4286215308
19.391743 815.00671 789.63184 4286215052
22.764221 815.00671 789.63184 4286280845
26.136696 815.00671 789.63184 4286280837
28.666056 815.00671 789.63184 4286281086
33.72477 815.00671 789.63184 4287135382
37.940369 815.00671 789.63184 4287199108
40.469727 815.00671 789.63184 4287200391
42.999084 815.00671 789.63184 4287200141
46.371559 815.00671 789.63184 4287266197
49.744034 815.00671 789.63184 4287003025
53.116516 815.00671 789.63184 4287397786
55.64587 815.00671 789.63184 4287003289
57.332111 815.00671 789.63184 4287133842
-26.136696 817.58502 791.80579 4287069587
-22.764221 817.58502 791.80579 4287069584
-19.391743 816.94043 791.26233 4287069323
-16.300306 816.72559 791.08124 4287003277
-13.489908 816.29584 790.71887 4286740883
-10.949541 817.03308 790.03241 4286740621
-7.5715594 817.77026 789.34595 4286609288
-4.2064219 817.77026 789.34595 4286609035
-1.6862385 816.29584 790.71887 4286543242
1.124159 817.21704 790.62354 4286149515
4.2155962 816.94043 791.26233 4286149510
7.5880733 816.94043 791.26233 4286083721
10.96055 816.29584 790.71887 4286084236
13.46055 817.77026 789.34595 4286149770
15.984404 817.77026 789.34595 4286017671
19.349541 817.77026 789.34595 4286346636
22.71468 817.77026 789.34595 4286281357
26.079817 817.77026 789.34595 4286281352
28.60367 817.77026 789.34595 4286346629
31.127522 817.77026 789.34595 4286215570
34.492661 817.77026 789.34595 4287003791
37.857796 817.77026 789.34595 4287067009
40.381653 817.77026 789.34595 4286936190
42.905502 817.77026 789.34595 4286870399
46.270645 817.77026 789.34595 4286935943
49.690826 817.03308 790.03241 4286935947
53.000916 817.77026 789.34595 4286871181
55.524769 817.77026 789.34595 4286806160
58.048622 817.77026 789.34595 4286806412
60.572475 817.77026 789.34595 4287001995
-15.703976 819.91412 791.15363 4286937989
-13.46055 819.69977 790.97284 4286806671
-10.936697 819.69977 790.9729 4286675081
-7.8519874 819.48535 790.79205 4286609799
-4.2064219 819.05658 790.43054 4286412169
-1.6825688 819.05658 790.43054 4286412170
0.84128439 819.69977 790.97284 4286149769
4.2064219 820.34296 791.51514 4286083721
7.5715594 820.34296 791.51514 4286213776
10.936697 819.05658 790.43054 4286017930
13.46055 819.05658 790.43054 4286017928
15.984404 819.05658 790.43054 4286083208
19.349541 819.05658 790.43054 4286411402
22.71468 819.05658 790.43054 4286346378
26.079817 819.05658 790.43054 4286215046
28.60367 819.05658 790.43054 4286477447
43.746788 819.05658 790.43054 4289567654
46.270645 819.05658 790.43054 4289501865
49.63578 819.05658 790.43054 4289567664
65.620186 820.34296 791.51514 4293713898
-10.900917 823.82825 790.52979 4286741136
-7.2672782 823.40088 790.16943 4286543760
-3.9131496 822.97345 789.80908 4286280585
-1.6770642 822.54614 789.44873 4286281097
0.83853209 823.18719 789.98926 4286149255
4.1926603 823.82825 790.52979 4286279816
7.5467887 823.82825 790.52979 4286083223
10.621407 822.97345 789.80908 4286148747
13.416513 823.18719 789.98926 4285952132
15.652599 822.97345 789.80908 4286083205
19.28624 822.54614 789.44873 4286213512
22.640366 822.54614 789.44873 4286345356
25.994495 822.54614 789.44873 4286147973
28.510092 822.54614 789.44873 4286476934
31.025688 822.54614 789.44873 4285820546
34.379814 822.54614 789.44873 4291405254
37.733944 822.54614 789.44873 4294175991
41.088074 822.54614 789.44873 4294108654
43.603668 822.54614 789.44873 4294042861
46.119267 822.54614 789.44873 4293911276
49.473396 822.54614 789.44873 4294042865
58.697247 822.54614 789.44873 4293976814
61.212845 822.54614 789.44873 4293976557
65.405502 823.82825 790.52979 4293780203
-21.801834 825.11035 791.61084 4286870408
-18.447706 825.11035 791.61084 4287001995
-15.64159 826.02448 791.50958 4286806410
-13.401834 826.48157 791.45898 4286806408
-10.88899 826.48157 791.45898 4286806155
-7.809175 826.99994 790.58807 4286739852
-4.4623852 826.14703 789.86896 4286476935
-1.6733944 825.93384 789.68915 4286476936
1.1155963 826.57349 790.22852 4286279813
4.183486 827.21313 790.76782 4286345349
7.5302753 827.21313 790.76782 4286214025
11.044403 826.82928 790.44421 4286017418
13.387156 827.21313 790.76782 4286017413
16.064589 826.82928 790.44421 4286017157
19.244038 825.93384 789.68921 4286147724
22.590824 825.93384 789.68921 4286213520
25.937614 825.93384 789.68921 4286082443
28.447706 825.93384 789.68915 4286345357
30.6789 825.72064 789.50934 4285622656
34.304588 825.29419 789.14978 4290488012
37.651375 825.29419 789.14978 4294832377
41.277065 825.72064 789.50934 4293912046
43.508255 825.29419 789.14978 4294174449
46.018349 825.29419 789.14978 4294372084
49.365135 825.29419 789.14978 4294174706
53.548622 825.29419 789.14978 4293977838
56.895412 825.29419 789.14978 4293912045
58.568806 825.29419 789.14978 4293912045
61.078896 825.93384 789.68915 4293451751
64.258347 826.82928 790.44421 4293320417
67.493584 827.42645 790.94757 4293320421
-6.6715598 830.04333 789.2301 4286870406
-4.1697249 830.04333 789.2301 4286410626
-1.66789 830.04333 789.2301 4286345346
0 830.04333 789.2301 4286345348
19.180733 830.04333 789.2301 4286082692
22.516514 830.04333 789.2301 4286082952
25.852295 830.04333 789.2301 4286082963
28.354128 830.04333 789.2301 4286147992
30.855965 830.04333 789.2301 4285687945
34.191742 830.04333 789.2301 4289044430
37.527523 830.04333 789.2301 4294044399
40.863304 830.04333 789.2301 4293780459
43.365139 830.04333 789.2301 4293385708
45.033028 830.04333 789.2301 4293649137
52.538532 830.04333 789.2301 4293649133
55.874313 830.04333 789.2301 4293320422
58.376148 830.04333 789.2301 4293715180
60.877983 830.04333 789.2301 4293254880
-22.516514 832.59363 791.38037 4286542729
-19.180733 832.59363 791.38037 4286411404
-15.566974 832.16864 791.02197 4286543499
-13.34312 831.31848 790.3053 4286675079
-10.841284 831.31848 790.3053 4286609289
-7.5055051 831.95605 790.84283 4286543492
-4.1697249 831.31848 790.3053 4286345855
-1.66789 831.31848 790.3053 4286279553
1.1119267 831.74347 790.66364 4286213763
4.1697249 831.95605 790.84277 4286016900
7.5055046 831.95605 790.84283 4286016647
10.841284 831.95605 790.84283 4286081927
13.34312 831.31848 790.3053 4286016646
15.844954 831.31848 790.3053 4286016902
19.180733 831.31848 790.3053 4285951622
22.516514 831.31848 790.3053 4286017420
25.852295 831.31848 790.3053 4286082961
28.354128 831.31848 790.3053 4286214291
30.855965 831.31848 790.3053 4285556359
33.3578 831.31848 790.3053 4285557138
58.376148 831.31848 790.3053 4293451753
61.155964 831.74347 790.66364 4293386214
64.21376 831.95605 790.84277 4293253856
67.549545 832.59363 791.38037 4293188067
-21.634863 835.32068 791.06372 4286410887
-19.138531 835.32068 791.06372 4286410889
-13.868503 834.89667 790.70612 4286607746
-10.81743 834.68451 790.52734 4286542212
-7.4889908 835.32068 791.06372 4286543494
-4.1605506 834.68451 790.52734 4286345855
-1.6642202 834.68457 790.52734 4286213758
0 834.68457 790.52734 4286016900
4.9926605 835.32068 791.06372 4286016898
7.4889908 835.32068 791.06372 4286016646
10.81743 835.32068 791.06372 4285688710
14.130276 835.41052 789.83142 4285885065
16.623854 835.41052 789.83142 4285885574
19.127522 835.04755 790.17938 4285820039
22.466972 834.68457 790.52734 4286016908
25.766973 835.41052 789.83142 4286082190
29.091743 835.41052 789.83142 4286082191
31.585321 835.41052 789.83142 4284963713
33.78899 835.86456 789.77826 4287136169
37.362385 836.77264 789.67188 4293978102
53.196331 835.41052 789.83142 4293320676
55.946789 835.86456 789.77826 4293451753
59.079819 834.68451 790.52734 4293254374
61.576145 835.32068 791.06372 4293189090
64.072479 835.32068 791.06372 4293254112
67.400917 835.32068 791.06372 4293451242
-19.096329 839.31165 791.81274 4286672782
-14.114679 839.31165 791.81274 4286345348
-10.793578 839.31165 791.81274 4286345348
-7.472477 839.31165 791.81274 4286345348
-4.1513762 839.31165 791.81274 4286214021
-1.6605505 838.04218 790.74231 4286279301
0.83027524 838.67688 791.27753 4286016905
4.1513762 839.31165 791.81274 4285820546
7.472477 838.04218 790.74231 4285689217
10.793578 838.04218 790.74231 4285884808
14.114679 838.04218 790.74231 4285753490
16.605505 838.04218 790.74231 4285753727
19.096329 838.04218 790.74231 4285819779
22.417431 838.67688 791.27753 4285885577
25.738533 838.04218 790.74231 4286016651
29.059633 838.04218 790.74231 4286082194
31.550459 838.04218 790.74231 4285029768
56.458717 838.04218 790.74231 4293582839
58.949539 838.04218 790.74231 4293451502
61.440369 838.04218 790.74231 4293583593
63.93119 838.04218 790.74231 4293583078
66.42202 838.04218 790.74231 4293583595
-9.930275 842.74646 790.78479 4286345346
-7.4477062 842.74646 790.78479 4286345347
-4.1376147 842.74646 790.78479 4286213505
-1.6550459 842.11377 790.25134 4286213763
0.82752293 842.11377 790.25134 4285951109
4.1376147 842.74646 790.78479 4285885056
7.4477067 842.11383 790.25134 4285753987
10.757798 842.11377 790.25134 4285950083
14.06789 842.11377 790.25134 4285819014
16.550459 842.11377 790.25134 4285753475
19.033028 842.11383 790.25134 4285885317
22.343121 842.74646 790.78479 4285951364
25.65321 842.11377 790.25134 4285951368
28.963303 842.11377 790.25134 4286082705
31.445871 842.11377 790.25134 4284766339
33.92844 842.11377 790.25134 4287859646
36.962692 841.90289 790.07355 4293451760
41.376148 842.11377 790.25134 4293846503
43.858715 841.48114 789.7179 4293517800
47.168808 841.48114 789.7179 4293583594
49.651375 841.48114 789.7179 4293188836
52.133945 842.11383 790.25134 4293517542
55.444038 842.11383 790.25134 4293583081
58.754128 842.11383 790.25134 4293385705
62.06422 842.11377 790.25134 4293319909
64.546791 841.48114 789.7179 4293253858
66.201836 841.48114 789.7179 4293319656
-21.515596 844.01178 791.85168 4286410887
-19.033028 844.01178 791.85168 4286411402
-16.550459 844.01178 791.85168 4286345850
-14.06789 844.01178 791.85168 4286411137
-10.757798 844.01178 791.85168 4286081921
-7.4403667 844.73212 791.151 4286147714
-4.133945 844.73212 791.151 4286016130
-1.6513761 845.45245 790.45032 4286016131
0.55168194 844.55145 790.56268 4285950337
4.1321101 844.73212 791.151 4285885047
7.4311924 845.45245 790.45032 4285687682
10.733945 845.45245 790.45032 4285753477
14.036697 845.45245 790.45032 4285819011
16.513762 845.45245 790.45032 4285884804
18.990826 845.45245 790.45032 4285621889
22.293579 845.45245 790.45032 4285819011
25.596329 845.45245 790.45032 4285687681
28.899082 845.45245 790.45032 4285885066
31.376146 845.45245 790.45032 4284832384
33.85321 845.45245 790.45032 4287728314
37.431194 845.03156 790.09552 4293846260
40.183487 845.03156 790.09552 4293912553
43.761467 844.82117 789.91809 4293583335
47.064217 844.82117 789.91809 4293649124
49.541283 844.82117 789.91809 4293385961
52.018349 845.45245 790.45032 4293385705
55.321102 845.45245 790.45032 4293582824
58.754128 844.01178 791.85168 4293384932
61.926605 845.45245 790.45032 4293384676
64.403671 844.82117 789.91809 4293253604
66.055046 844.18994 789.38586 4293319654
-9.9082565 846.71497 791.51489 4286081924
-7.4311924 846.71497 791.51489 4286147719
-4.1284404 846.71497 791.51489 4286015878
-1.6513761 846.71497 791.51489 4286081156
0.82568806 846.71497 791.51489 4285687934
4.1284404 846.71497 791.51489 4285753460
7.4311924 846.71497 791.51489 4285818752
10.733945 846.71497 791.51489 4285687430
14.036697 846.71497 791.51489 4285687682
16.513762 846.71497 791.51489 4285687680
18.990826 846.71497 791.51489 4285556608
22.293579 846.71497 791.51489 4285556610
25.596329 846.71497 791.51489 4285687686
28.899082 846.71497 791.51489 4285884812
31.376146 846.71497 791.51489 4284964224
33.85321 846.71497 791.51489 4287334837
37.155964 846.71497 791.51489 4293452262
40.458717 846.71497 791.51489 4293912554
43.761467 846.71497 791.51489 4293452007
47.06422 846.71497 791.51489 4293714666
49.541283 846.71497 791.51489 4293451757
52.018349 846.71497 791.51489 4293385707
55.321102 846.71497 791.51489 4293451750
58.623856 846.71497 791.51489 4293517286
61.926605 846.71497 791.51489 4293450982
65.359016 847.73297 789.75714 4293319652
8.2385321 849.41254 791.17334 4285818752
11.533945 849.41254 791.17334 4285621890
14.005505 849.41254 791.17334 4285621886
16.477064 849.41254 791.17334 4285556347
18.948624 849.41254 791.17334 4285622142
28.834862 849.41254 791.17334 4285819526
31.306421 849.41254 791.17334 4284766841
49.431194 849.41254 791.17334 4293451757
52.726604 849.41254 791.17334 4293385960
54.374313 849.41254 791.17334 4293451753
62.612843 849.41254 791.17334 4293385960
64.866974 851.56525 789.06433 4293385961
-11.495413 854.07617 791.18152 4286279051
8.211009 854.07617 791.18152 4285621886
10.948013 853.65771 790.82861 4285425790
13.958715 853.44849 790.65222 4285228158
16.422018 853.44843 790.65222 4285490300
18.885323 854.07617 791.18152 4285555839
22.169724 854.07617 791.18152 4285490816
25.454128 854.07617 791.18152 4285490816
28.738533 854.07617 791.18152 4285753473
32.022934 854.07617 791.18152 4284569974
34.48624 854.07617 791.18152 4289965773
36.949539 854.07617 791.18152 4292860398
50.087158 854.07617 791.18152 4293517548
52.550457 854.07617 791.18152 4293583343
55.013763 854.07617 791.18152 4293452008
58.298164 854.07617 791.18152 4293517545
61.582569 854.07617 791.18152 4293254121
65.688072 852.82068 790.12292 4293451757
8.1926603 856.75836 790.82703 4285622140
10.650459 856.75836 790.82703 4285425790
13.927523 856.75836 790.82703 4285162114
16.385321 856.75836 790.82703 4285491082
18.843121 856.75836 790.82703 4285556359
29.493578 856.75836 790.82703 4285753988
54.890823 856.75836 790.82703 4293517548
64.448929 855.92328 790.12286 4293254121
-10.638533 859.3479 791.70245 4285950846
-7.3651381 859.34796 791.70239 4285819517
-4.3657494 858.90228 791.7627 4285753979
-1.6385322 858.01105 791.8833 4285687680
0 859.3479 791.70245 4285556094
4.0963306 858.01105 791.8833 4285555834
7.3733945 858.01105 791.8833 4285621886
10.650459 858.01105 791.8833 4285425790
13.927523 858.01105 791.8833 4285096571
16.366972 859.3479 791.70245 4285425536
18.843121 858.01105 791.8833 4285359744
22.120182 858.01105 791.8833 4285359743
25.397247 858.01105 791.8833 4285490813
28.674313 858.01105 791.8833 4285556608
31.951376 858.01105 791.8833 4283978613
34.409176 858.01105 791.8833 4289177038
36.866974 858.01105 791.8833 4292794351
40.144035 858.01105 791.8833 4293912556
43.421101 858.01105 791.8833 4293649387
46.698166 858.01105 791.8833 4293320160
49.975227 858.01105 791.8833 4293516774
52.433029 858.01105 791.8833 4293583343
55.122326 858.90234 791.7627 4293517290
58.167892 858.01105 791.8833 4293451498
61.444954 858.01105 791.8833 4293123048
64.722015 858.01105 791.8833 4293057254
0 865.30774 791.49548 4285490050
22.811008 865.30774 791.49548 4285294204
25.255047 865.30774 791.49548 4285294204
27.699083 865.30774 791.49548 4285359997
55.398167 865.30774 791.49548 4293385701
57.027523 865.30774 791.49548 4293319652
22.759632 867.96606 791.12085 4285294204
25.198166 867.96606 791.12085 4285162619
27.636698 867.96606 791.12085 4285294204
56.086239 867.96606 791.12085 4293385447
65.027519 867.96606 791.12085 4293451494
17.031193 871.85883 791.78699 4285226879
19.46422 871.85883 791.78699 4285161337
21.897247 871.85883 791.78699 4285226875
25.141285 871.85883 791.78699 4285357948
28.385323 871.85883 791.78699 4285358976
30.818348 871.85883 791.78699 4284636027
34.062386 871.85883 791.78699 4285888668
49.471558 871.85883 791.78699 4293517802
52.715595 871.85883 791.78699 4293320421
55.959633 871.85883 791.78699 4293319656
58.392662 871.85883 791.78699 4293385960
60.825687 871.85883 791.78699 4293254116
64.340065 871.4455 791.43848 4293319651
56.57798 875.20526 790.68457 4293912045
59.002754 875.20526 790.68457 4293386214
17.781651 876.4411 791.72656 4284964987
19.398165 876.4411 791.72656 4285031035
21.822937 876.4411 791.72656 4284965243
25.055964 876.4411 791.72656 4284964987
27.480734 876.4411 791.72656 4284833399
38.796329 876.4411 791.72656 4294241005
49.303673 876.4411 791.72656 4293452009
52.536697 876.4411 791.72656 4293517800
55.769722 876.4411 791.72656 4293319908
59.002754 876.4411 791.72656 4293451496
61.427525 876.4411 791.72656 4292925409
63.852295 876.4411 791.72656 4293057250
56.385323 880.39001 791.13214 4293254371
59.092358 879.9519 791.19873 4293319402
61.288074 879.07562 791.33191 4293253862
64.513763 879.07562 791.33191 4293253858
19.310091 882.93469 791.96973 4284965239
49.079819 882.93469 791.96973 4293780191
52.298164 882.93469 791.96973 4293385962
55.516514 882.93469 791.96973 4293583343
58.734863 882.93469 791.96973 4293254124
61.953209 882.93469 791.96973 4293385188
65.171562 882.93469 791.96973 4293319395
65.022934 885.55511 791.56311 4293253597
62.400002 890.08691 791.46008 4293188838
64.800003 888.86365 790.42871 4293253599
67.199997 888.86365 790.42871 4293122794
64.651375 892.08173 790.526 4293319651
67.045868 892.08173 790.526 4293187813
64.502747 895.90015 791.12958 4293056738
66.891747 895.90015 791.12958 4292990945
64.354126 899.09991 791.21143 4292991454
66.737617 899.09991 791.21143 4293055964
64.998169 902.89734 791.79724 4293057501
66.583488 902.29132 791.28632 4293122779
-31.636698 798.86798 793.02856 4287201933
-34.091743 803.05957 792.63867 4287201683
-31.534864 803.05957 792.63867 4287201425
-28.409784 802.84235 792.45557 4287069839
-23.86422 802.40802 792.08923 4287070100
10.227523 802.40802 792.08923 4286609297
-31.501835 805.75574 793.604 4287201425
-28.065138 806.49719 792.92114 4287135633
-25.513762 806.49719 792.92114 4287070100
-23.812843 806.49719 792.92114 4287135643
-30.616514 807.79755 794.01758 4287070086
-28.065138 807.79755 794.01758 4287135630
-31.365139 811.31372 793.05811 4286938248
-27.974312 811.31372 793.05811 4287004043
-25.431192 811.31372 793.05811 4287069587
-31.297249 815.37762 793.86865 4287332510
-28.195719 814.51538 793.14166 4287069593
-25.376146 814.08429 792.7782 4287135380
-22.838531 814.08429 792.7782 4287265936
-31.195412 818.87415 792.89282 4287002513
-28.666056 818.87415 792.89282 4286805910
-26.136696 818.87415 792.89282 4286740619
-22.764221 818.87415 792.89282 4287004043
-19.391743 818.87415 792.89282 4286938500
-30.352293 820.16327 793.97974 4286871955
-28.666056 820.16327 793.97974 4286805906
-26.079817 821.62927 792.59973 4286806664
-22.71468 821.62927 792.59973 4287068803
-19.349541 821.62927 792.59973 4287003008
-15.984404 821.62927 792.59973 4286872453
-13.46055 821.62927 792.59973 4286741385
-34.212231 823.77319 794.40741 4286871948
-30.847094 823.77319 794.40741 4286806161
-28.60367 823.55884 794.22662 4286740113
-26.360245 823.34442 794.0459 4286871178
-23.555964 822.91565 793.68433 4286870408
-20.190826 822.91565 793.68433 4286804359
-25.714987 827.24725 793.4126 4286609037
-22.919876 826.81989 793.05225 4286608782
-19.28624 826.39252 792.69189 4286609043
-16.770641 826.39252 792.69189 4286806412
-31.025688 828.95679 794.854 4286674829
-28.510092 828.95679 794.854 4286674829
-25.937614 830.4115 793.4646 4286543241
-21.754128 829.13214 792.38586 4286608782
-19.244038 829.13214 792.38586 4286543504
-16.733946 829.13214 792.38586 4286609034
67.772476 829.13214 792.38586 4293253345
-28.447706 831.6908 794.54321 4286609036
-25.89633 832.77979 793.49939 4286609034
-23.350458 833.86871 792.45557 4286542729
-16.6789 833.86871 792.45557 4286411139
1.66789 833.86871 792.45557 4286016646
3.3357799 833.86871 792.45557 4286016898
-25.574312 835.9939 794.24738 4286476936
-22.466972 836.59302 792.13647 4286411654
-19.138531 836.59302 792.13647 4286345094
-16.642202 836.59302 792.13647 4286279553
-14.145872 836.59302 792.13647 4286279298
-10.81743 836.59302 792.13647 4286345348
-7.4889908 836.59302 792.13647 4286410886
-4.1605506 836.59302 792.13647 4286279300
1.6642202 836.59302 792.13647 4286016394
4.1605506 836.59302 792.13647 4285820546
-24.963303 839.13763 794.28198 4287001997
-22.744341 838.28937 793.56683 4286738566
-16.642202 837.8653 793.20923 4286213759
-24.908257 841.85065 793.95361 4286737542
-22.417431 841.21594 793.4184 4286541958
-19.096329 840.58118 792.88318 4286476432
-16.605505 840.58118 792.88318 4286345346
-14.114679 840.58118 792.88318 4286345349
-11.623854 840.58118 792.88318 4286410889
-22.343121 845.27704 792.91846 4286345094
-19.033028 845.27704 792.91846 4286279553
-16.550459 845.27704 792.91846 4286214259
-14.06789 845.27704 792.91846 4286345596
-11.585321 845.27704 792.91846 4286213759
-28.13578 846.54236 793.98535 4286541694
-25.65321 846.54236 793.98535 4286541446
-22.319267 847.25989 793.28235 4286475396
-18.990826 847.97742 792.57935 4286016385
-16.513762 847.97742 792.57935 4286214009
-14.053211 847.25989 793.28235 4286214273
-10.733945 847.97742 792.57935 4286147971
-7.4311924 847.97742 792.57935 4286213253
-4.1284404 847.97742 792.57935 4286015621
-1.6513761 847.97742 792.57935 4286081156
0.82568806 847.97742 792.57935 4285687679
4.1284404 847.97742 792.57935 4285818752
6.6055045 847.97742 792.57935 4285818752
9.9082565 847.97742 792.57935 4285621890
22.293579 847.97742 792.57935 4285621889
25.596329 847.97742 792.57935 4285819012
33.85321 847.97742 792.57935 4287333806
37.155964 847.97742 792.57935 4293320689
40.458717 847.97742 792.57935 4293846763
43.761467 847.97742 792.57935 4293386214
47.06422 847.97742 792.57935 4293714661
51.192661 847.97742 792.57935 4293385708
56.14679 847.97742 792.57935 4293452259
58.623856 847.97742 792.57935 4293452008
61.100918 847.97742 792.57935 4293451757
-28.601835 850.55811 793.8833 4286541695
-25.596329 850.50238 794.70837 4286541444
-22.293577 849.87115 794.17615 4286279047
-18.969725 850.58594 793.4707 4286213506
-16.495413 850.58594 793.4707 4286147712
-14.021101 850.58594 793.4707 4286213510
-10.435473 851.0921 792.58954 4286213509
-7.4146791 851.30212 792.76648 4286147968
-4.119266 851.30212 792.76648 4285950593
-1.6477064 851.30212 792.76654 4285950340
0.82568806 850.58661 793.47131 4285818755
4.1211009 850.94397 793.11865 4285687684
7.1400609 851.0921 792.58954 4285687680
9.8862381 850.67224 792.23547 4285491586
18.948624 850.67224 792.23547 4285425274
22.244038 850.67224 792.23547 4285491072
25.53945 850.67224 792.23547 4285687683
28.834862 850.67224 792.23547 4285754241
32.130276 850.67224 792.23547 4284373365
34.601833 850.67224 792.23547 4290162646
37.073395 850.67224 792.23547 4293188848
40.391743 850.94403 793.11859 4293781739
43.688076 850.94403 793.11859 4293584362
46.959633 851.30212 792.76648 4293781223
49.431194 850.67224 792.23547 4293451753
51.902752 850.67224 792.23547 4293385960
55.198166 850.67224 792.23547 4293451747
58.493576 850.67224 792.23547 4293583080
61.78899 850.67224 792.23547 4293385962
-28.834862 853.19159 794.35974 4286279301
-26.363302 853.19159 794.35974 4286345348
-22.244038 853.19159 794.35974 4286279555
-18.948624 853.19159 794.35974 4286279299
-16.477064 853.19159 794.35974 4286082176
1.6477064 853.19159 794.35974 4285687680
-22.169724 857.84259 794.3573 4286147462
-19.159021 857.00562 793.65155 4286147985
-16.422018 856.58716 793.29871 4286016385
-13.958715 855.95941 792.76941 4286213505
-10.674313 855.33167 792.24011 4286213506
-7.3899078 855.33167 792.24011 4286016640
-4.1055045 855.33167 792.24011 4285753729
-1.6422018 855.33167 792.24011 4285687684
0.82110089 855.95941 792.76941 4285621886
4.1055045 855.33167 792.24011 4285687682
6.5688071 855.33167 792.24011 4285622140
22.169724 855.33167 792.24011 4285425027
25.454128 855.33167 792.24011 4285490817
27.917431 855.33167 792.24011 4285687682
32.022934 855.33167 792.24011 4284373367
34.48624 855.33167 792.24011 4289637839
36.949539 855.33167 792.24011 4292859888
40.233948 855.33167 792.24011 4293847020
43.518349 855.33167 792.24011 4293715182
46.80275 855.33167 792.24011 4293780970
50.087158 855.33167 792.24011 4293517548
52.550457 855.33167 792.24011 4293649139
58.298164 855.33167 792.24011 4293649134
61.582569 855.33167 792.24011 4293188587
65.688072 855.33167 792.24011 4293188586
-21.300917 860.51642 793.99573 4286016385
-18.570032 860.09888 793.64362 4285885067
-16.385321 859.26373 792.93945 4285950338
-13.927523 859.26373 792.93945 4285950589
-3.2770643 859.26373 792.93945 4285687680
-1.6385322 859.26373 792.93945 4285621886
1.6385322 859.89008 793.46759 4285490302
4.0963306 859.89008 793.46753 4285490045
7.373395 859.89008 793.46753 4285228413
10.650459 859.89008 793.46753 4285228412
13.654434 859.68134 793.2915 4285292922
18.843121 859.26373 792.93945 4285293950
22.120182 859.26373 792.93945 4285228159
25.397247 859.26373 792.93945 4285293948
28.674313 859.26373 792.93945 4285425536
31.951376 859.26373 792.93945 4284241790
34.409176 859.26373 792.93945 4288847822
36.866974 859.26373 792.93945 4292859628
40.144035 859.26373 792.93945 4294175726
43.421101 859.89008 793.46753 4293780715
46.425079 859.68134 793.2915 4293517285
49.975227 859.26373 792.93945 4293780202
52.433029 859.26373 792.93945 4293451757
54.07156 859.26373 792.93945 4293254379
58.167892 859.26373 792.93945 4293320426
61.718044 859.68134 793.2915 4293188840
64.99511 859.68134 793.2915 4293319653
67.179817 859.89008 793.46759 4293450982
-19.618349 863.18457 793.62927 4285885308
-16.893578 862.76788 793.27802 4285819263
-13.89633 862.55963 793.10242 4285687678
-10.626606 862.55957 793.10236 4286016642
-7.3568807 862.55963 793.10242 4285622141
-4.0871563 862.55957 793.10236 4285687934
-1.6348624 862.55963 793.10236 4285621885
0 861.93469 792.57544 4285556095
4.0871563 863.18457 793.62927 4285424257
7.3568807 863.18457 793.62927 4285490304
10.626606 863.18457 793.62927 4285162367
14.168807 862.76788 793.27802 4285161857
17.166054 862.55957 793.10236 4285424262
19.618349 862.55963 793.10236 4285359484
21.798164 862.35132 792.92676 4285293691
25.340366 861.93469 792.57544 4285294203
28.882568 862.35132 792.92676 4285425283
31.879816 862.55957 793.10236 4284438399
35.149544 862.55957 793.10236 4289241027
37.601833 862.55963 793.10236 4294438143
40.054127 862.55957 793.10236 4293977838
43.323853 863.18457 793.62927 4293517800
46.866058 862.76788 793.27802 4293780458
49.863304 862.55963 793.10242 4293583591
53.133026 862.55957 793.10236 4293451491
55.58532 861.93469 792.57544 4293319652
58.310089 862.35132 792.92676 4293452006
61.034866 862.76788 793.27802 4293583337
64.304588 862.76788 793.27802 4293188582
-22.070641 864.43445 794.68311 4285885058
-19.618349 864.43445 794.68311 4285885056
-17.166054 864.43445 794.68311 4285884803
-13.89633 864.43445 794.68311 4285753474
-10.626606 864.43445 794.68311 4285753725
-7.3458714 865.4939 793.61444 4285622909
-4.0733948 866.55341 792.54578 4285556863
-1.6293578 866.55341 792.54578 4285621886
0.81743121 865.4939 793.61444 4285226879
4.0871563 864.43445 794.68311 4285620101
7.3568807 864.43445 794.68311 4285423992
10.626606 864.43445 794.68311 4285162369
13.89633 864.43445 794.68311 4285162369
17.108257 866.55341 792.54578 4285490052
19.552294 866.55341 792.54578 4285490048
21.181652 866.55341 792.54578 4285490048
29.32844 866.55341 792.54578 4285293698
31.772476 866.55341 792.54578 4284306808
35.031193 866.55341 792.54578 4289108667
37.475231 866.55341 792.54578 4294634495
39.919266 866.55341 792.54578 4293911788
43.177982 866.55341 792.54578 4293583593
46.436699 866.55341 792.54578 4293451496
49.695412 866.55341 792.54578 4293517287
52.954128 866.55341 792.54578 4293648868
58.656879 866.55341 792.54578 4293385701
61.100918 866.55341 792.54578 4293320165
63.544952 866.55341 792.54578 4293254631
-21.99633 869.04474 794.64636 4285949571
-19.552294 869.04474 794.64636 4285687680
-17.108257 868.42188 794.12122 4285819010
-13.849541 868.42188 794.12122 4285819008
-10.590825 868.42188 794.12122 4285818999
-7.3321099 868.42194 794.12122 4285819257
-4.0733943 868.42188 794.12122 4285621884
-1.6293578 868.42188 794.12122 4285555834
0 868.42188 794.12122 4285226880
4.0733948 869.04474 794.64636 4285358212
7.3321099 869.04474 794.64636 4285095542
10.590826 868.42188 794.12122 4285161853
13.849541 867.79907 793.59607 4285096576
17.069725 869.20892 792.16882 4285424255
19.508257 869.20892 792.16882 4285292926
21.946789 869.20892 792.16882 4285227132
25.198166 869.20892 792.16882 4285161337
28.449541 869.20892 792.16882 4285161853
31.700916 869.20892 792.16882 4284241530
34.952293 869.20892 792.16882 4288714680
37.475231 867.79907 793.59607 4294635775
39.829357 869.20892 792.16882 4294043626
43.080734 869.20892 792.16882 4293780459
46.332108 869.20892 792.16882 4293517037
49.583488 869.20892 792.16882 4293714411
52.834862 869.20892 792.16882 4293451240
56.086239 869.20892 792.16882 4293253611
58.524769 869.20892 792.16882 4293385195
60.963303 869.20892 792.16882 4293385705
63.401836 869.20892 792.16882 4293583593
-17.069725 871.69458 794.26465 4285753214
-13.818348 871.69458 794.26465 4285818750
-10.566973 871.69458 794.26465 4285818750
-7.3155961 871.69458 794.26465 4285753217
-4.0642204 871.69458 794.26465 4285490047
-1.6256881 871.69458 794.26465 4285424253
0 871.69458 794.26465 4285554558
7.3155961 871.69458 794.26465 4285161338
10.566973 871.69458 794.26465 4285030783
13.818349 871.07318 793.74072 4285031044
32.51376 870.45178 793.2168 4283520120
35.765137 870.45178 793.2168 4289898945
37.390827 870.45178 793.2168 4294373119
39.829357 870.45178 793.2168 4293977833
43.080734 870.45178 793.2168 4293648103
46.332108 870.45178 793.2168 4293517035
-19.46422 874.95898 794.40094 4285687677
-17.301529 875.16559 794.5752 4285556086
-13.787157 874.95898 794.401 4285818999
-10.543119 874.95898 794.40094 4285621884
-7.2990828 875.57898 794.92371 4285621886
-3.7847097 875.16571 794.5752 4285292920
-1.6220183 874.95898 794.40094 4285292921
0.81100917 874.95898 794.40094 4285358458
4.866055 875.57898 794.92371 4285031035
7.2990828 875.57898 794.92371 4285161837
10.543119 874.95898 794.40094 4285096315
13.51682 874.75226 794.22675 4284964986
16.760857 873.51221 793.18115 4285030782
19.46422 873.09888 792.83264 4285226879
21.897247 873.09888 792.83264 4285161084
25.141285 873.09888 792.83264 4285161084
28.655657 873.51221 793.18115 4284964224
31.629358 873.71887 793.35535 4284372858
34.873394 873.71893 793.35535 4287859881
37.847095 873.51221 793.18115 4294306808
40.550457 873.71887 793.35541 4293714660
42.98349 873.71887 793.35541 4293648870
46.227524 873.71887 793.35541 4293450984
49.471558 873.09888 792.83264 4293517550
52.715595 873.09888 792.83264 4293452007
55.148624 873.09888 792.83264 4293451494
61.636696 873.09888 792.83264 4293056999
64.069725 873.09888 792.83264 4293188326
-19.398165 878.91278 793.81067 4285491586
-16.973394 878.91278 793.81067 4285359223
-13.740367 878.91278 793.81067 4285621624
-10.23792 878.50079 793.46338 4285621631
-7.274312 878.91278 793.81067 4285556094
-4.0412846 878.91278 793.81067 4285425022
-1.6165137 878.91278 793.81067 4285162623
0 878.29486 793.28967 4285359227
7.274312 878.91278 793.81067 4285161588
10.507339 878.91278 793.81067 4285031035
14.009786 878.50079 793.46338 4284965240
17.242813 878.08887 793.11603 4284833657
19.398165 877.67694 792.76868 4284833653
21.822937 878.29486 793.28967 4284833655
25.055965 878.29486 793.28967 4285031291
28.28899 878.29486 793.28967 4285162877
31.522018 878.29486 793.28967 4284636791
34.755043 878.29486 793.28967 4287267742
37.988075 878.29486 793.28967 4294372855
40.412846 878.29486 793.28967 4293714407
42.837616 878.29486 793.28967 4293714151
46.070641 878.29486 793.28967 4293714663
49.303673 877.67694 792.76868 4293452259
52.536697 877.67694 792.76868 4293452007
54.961468 877.67694 792.76868 4293385697
63.044037 877.67694 792.76868 4293253862
-21.014679 880.14862 794.85266 4285491582
-19.398165 880.14862 794.85266 4285687691
-16.973394 880.14862 794.85266 4285490305
-13.740367 880.14862 794.85266 4285752701
-10.49633 880.84515 794.13196 4285686909
-7.274312 880.14862 794.85266 4285621373
-4.0412846 880.14862 794.85266 4285490561
-1.612844 881.54169 793.41125 4285358980
0.80825686 880.84515 794.13196 4285424505
4.0412846 880.14862 794.85266 4285161338
7.2651377 880.84515 794.13196 4284965240
10.483486 881.54169 793.41125 4284964987
13.709174 881.54169 793.41125 4285031033
16.666056 881.13068 793.0647 4284899704
20.160549 880.92517 792.89142 4284833910
22.579817 881.54169 793.41125 4285029751
24.999083 881.54169 793.41125 4284964473
28.22477 881.54169 793.41125 4285228669
31.450459 881.54169 793.41125 4284571251
34.71468 880.84515 794.13196 4286675601
37.901833 881.54169 793.41125 4294569723
41.127525 881.54169 793.41125 4293582569
43.546787 881.54169 793.41125 4293713896
45.966057 881.54169 793.41125 4293648868
49.191742 880.30865 792.37158 4293583843
52.417431 880.30865 792.37158 4293320421
54.836697 880.30865 792.37158 4293517802
58.062386 880.30865 792.37158 4292990693
62.094498 880.30865 792.37158 4293319654
64.513763 880.30865 792.37158 4293188065
-19.354128 882.77472 794.45093 4285557379
-16.934864 882.77472 794.45093 4285556863
-13.709174 882.77472 794.45093 4285687420
-10.483486 882.77472 794.45093 4285752956
-7.2577982 882.77472 794.45093 4285555834
-4.0321102 882.77472 794.45093 4285490045
-1.612844 882.77472 794.45093 4285490048
0 882.77472 794.45093 4285424759
4.838532 882.77472 794.45093 4285292924
7.2577982 882.77472 794.45093 4284964990
10.470642 883.46985 793.72894 4284899194
13.694496 883.46985 793.72894 4284899194
16.896332 884.16492 793.00696 4284899192
20.114677 884.16492 793.00696 4284899448
22.52844 884.16492 793.00696 4285095544
24.942204 884.16492 793.00696 4285095544
28.193577 883.46985 793.72894 4285359226
31.450459 882.77472 794.45093 4284570736
34.676147 882.77472 794.45093 4286675090
37.857796 883.46985 793.72894 4294438138
41.127525 882.77472 794.45093 4293714408
43.546787 882.77472 794.45093 4293714661
45.861465 884.16492 793.00696 4293385953
49.079819 884.16492 793.00696 4293517021
52.298164 884.16492 793.00696 4293385444
55.516514 884.16492 793.00696 4293517548
58.734863 884.16492 793.00696 4293188835
61.953209 884.16492 793.00696 4293450981
-17.700918 885.39514 794.04431 4285622140
8.0458717 885.39514 794.04431 4285030785
10.459633 885.39514 794.04431 4284965242
13.677982 885.39514 794.04431 4284898944
16.8578 886.78253 792.59814 4284899192
20.068806 886.78253 792.59814 4284768380
22.477064 886.78253 792.59814 4284833401
24.885323 886.78253 792.59814 4284899194
28.129356 886.08887 793.32123 4284965239
31.378899 885.39514 794.04431 4284570486
34.597248 885.39514 794.04431 4286411927
37.771561 886.08887 793.32123 4294438137
41.033943 885.39514 794.04431 4293714662
43.447708 885.39514 794.04431 4293912293
45.861465 885.39514 794.04431 4293451494
49.079819 885.39514 794.04431 4293582562
52.237617 886.08887 793.32123 4293450988
55.389908 886.78253 792.59814 4293386214
58.600918 886.78253 792.59814 4293386212
61.811928 886.78253 792.59814 4293253861
-16.8578 889.23737 794.66797 4285490049
-12.844037 889.23737 794.66797 4285293698
-11.238532 889.23737 794.66797 4285293698
-8.027523 889.23737 794.66797 4285162873
-1.6055046 889.23737 794.66797 4285424505
0 889.23737 794.66797 4285292924
8.027523 889.23737 794.66797 4285095542
10.703364 888.82819 794.323 4284964473
13.64679 888.62366 794.15051 4284833151
16.8578 888.62366 794.15051 4284964210
20.068806 888.62366 794.15051 4284899191
22.477064 888.00995 793.63306 4284768376
24.885323 888.00995 793.63306 4284702329
28.096329 888.00995 793.63306 4284899708
31.307339 888.62366 794.15051 4284635771
34.518349 888.62366 794.15051 4285951380
37.729355 888.62366 794.15051 4294306809
40.940369 888.62366 794.15051 4293451749
44.418961 888.82819 794.323 4293583334
46.559631 888.62366 794.15051 4293385957
49.235474 888.82819 794.323 4293517027
52.178902 888.62366 794.15051 4293451237
55.122326 888.41913 793.97803 4293254374
58.600918 888.00995 793.63306 4293320671
61.009174 888.00995 793.63306 4293254631
-17.6 893.75653 794.55432 4285293174
17.6 893.75653 794.55432 4284899194
20.266666 893.34882 794.21051 4284833398
22.4 892.53339 793.52295 4284899447
24.800001 892.53339 793.52295 4284767353
28 892.53326 793.52295 4285095550
31.200001 893.1449 794.03864 4284701306
34.400002 893.1449 794.03864 4285294221
37.599998 893.14496 794.03857 4294175992
40.799999 893.1449 794.03864 4293386209
44 893.14496 794.03857 4293583335
46.400002 893.75653 794.55432 4293714159
48.799999 893.75653 794.55432 4293582310
52.266666 893.34882 794.21051 4293517286
55.359997 892.77795 793.72919 4293253859
58.400005 892.53326 793.52295 4293253850
61.440002 892.2887 793.31671 4293253860
33.522934 896.35315 794.12756 4283452521
36.715595 896.35315 794.12756 4294174975
55.073395 896.35315 794.12756 4293188836
58.266056 896.35315 794.12756 4293319904
61.458717 895.74292 793.61304 4293188319
55.743118 898.94415 793.69617 4293123042
58.132111 898.94415 793.69617 4293254110
62.113762 897.72656 792.66956 4293188317
-1.5908257 901.453 794.5036 4285291633
0 901.453 794.5036 4285161076
28.667891 900.16174 794.7229 4284899192
33.445873 900.16174 794.7229 4283518314
37.427521 900.16174 794.7229 4293649403
40.846485 901.02264 794.57666 4293452007
43.747707 901.45306 794.50354 4293517284
46.983486 900.16174 794.7229 4293385701
50.168808 900.16174 794.7229 4293385958
52.557796 900.16174 794.7229 4293386214
54.946789 900.16174 794.7229 4293320167
58.031193 901.79492 794.13788 4292991201
61.176147 901.52948 793.26001 4293122781
63.956879 901.22583 793.00397 4293122782
64.998169 904.71533 793.3302 4292859872
66.583488 904.71533 793.3302 4293122010
-1.5853211 906.53326 794.86304 4285227129
0 906.53326 794.86304 4284965239
40.42569 906.53326 794.86304 4293583080
61.034863 906.53326 794.86304 4292991456
64.205505 906.53326 794.86304 4292859364
66.583488 906.53326 794.86304 4293121759
58.967888 917.30194 794.78662 4293187805
-34.091743 806.3175 795.38562 4287135378
-32.387157 806.3175 795.38562 4287069584
-34.091743 807.62073 796.4845 4287135378
-34.212231 825.91705 796.21503 4286740622
-31.127522 825.48828 795.85352 4286806159
-28.60367 825.48828 795.85352 4286806160
-31.025688 830.23889 795.93506 4286543243
-30.992661 832.24554 796.31903 4286542474
-28.447706 832.97009 795.62195 4286542729
-26.774311 832.97009 795.62195 4286476936
-30.121101 834.8891 797.23999 4286542469
-28.447706 834.8891 797.23999 4286476676
-30.022018 838.96918 796.7561 4286673284
-28.354128 838.96918 796.7561 4286541442
-26.686239 837.69409 795.68103 4286607239
-29.955963 842.31836 796.96399 4286541440
-26.627523 841.04608 795.89124 4286540677
-28.229359 843.12018 795.02393 4286475649
-24.908257 843.12018 795.02393 4286541446
-25.65321 847.80762 795.05225 4286475397
-24.770641 851.76489 795.77283 4286345348
-28.834862 854.45129 795.42188 4286082690
-25.53945 854.45129 795.42188 4286279299
-22.244038 854.45129 795.42188 4286148485
-31.306421 856.34082 797.01508 4286147972
-28.834862 856.34082 797.01501 4286147969
-25.53945 855.711 796.48401 4286082176
-25.454128 859.72583 795.94519 4285950591
-22.990826 859.09808 795.41589 4285950336
-28.738533 861.60907 797.53308 4286016385
-25.397247 863.02173 796.10815 4285950336
-22.120182 861.76904 795.05188 4285819011
1.6385322 861.76904 795.05188 4285424257
-27.823853 865.60425 796.9776 4285884542
-25.355045 865.95673 796.62079 4285884543
-22.070641 865.68427 795.73706 4285950338
-19.618349 865.68427 795.73706 4285885056
1.6348624 866.3092 796.26398 4285424002
4.0871563 865.68427 795.73706 4285488783
7.3568807 865.68427 795.73706 4285292660
-28.610092 868.18402 797.84473 4285753460
-26.157799 868.18402 797.84473 4286145664
-28.242203 872.36652 797.44708 4286080389
-25.241285 871.88641 796.38831 4286080384
-21.971558 871.61395 795.50464 4285949572
-19.552294 870.29041 795.69666 4285687934
-16.25688 872.93744 795.31262 4285753204
-11.379816 872.93744 795.31262 4285818750
-7.3155961 872.93744 795.31262 4285687681
-4.8770642 872.93744 795.31262 4285621888
1.6275229 871.61389 795.50464 4285489275
4.0688076 871.61389 795.50464 4285292671
7.3155961 872.93744 795.31262 4285227381
-24.927217 875.00885 797.05914 4285753471
-22.217737 874.59454 796.7099 4285622144
3.2513762 874.1803 796.3606 4285031035
-28.385323 878.05908 797.01489 4285884543
-25.141285 878.05908 797.01489 4285818750
-21.897247 877.43909 796.49213 4285491583
1.6220183 876.81903 795.96936 4285162873
4.0550461 876.81903 795.96936 4285031033
-30.713762 881.38446 795.89465 4285950840
-28.28899 881.38446 795.89465 4285753727
-25.055964 881.38446 795.89465 4285687934
-21.822937 881.38446 795.89465 4285688181
1.6165137 881.38446 795.89465 4285490552
3.2330275 881.38446 795.89465 4285292924
-30.713762 882.6203 796.93677 4285819251
-28.28899 883.23822 797.45776 4285622141
-25.325384 883.03223 797.28412 4285622142
-22.631193 882.6203 796.93677 4285753710
-20.160549 884.00775 795.4906 4285753718
-16.128441 884.00775 795.4906 4285556093
-13.709174 884.00775 795.4906 4285556092
-10.483486 884.00775 795.4906 4285555834
-7.2577982 884.00775 795.4906 4285424247
-4.0321102 884.00775 795.4906 4285490042
-1.612844 884.00775 795.4906 4285227131
0.806422 884.00775 795.4906 4285292404
4.0321102 884.00775 795.4906 4285227131
6.451376 884.00775 795.4906 4285162371
-24.730276 886.06281 797.22333 4285621890
-22.579817 885.8573 797.04999 4285687682
-20.126604 886.89441 795.9624 4285621889
-16.896332 886.62537 795.08154 4285621886
-13.946177 887.03546 795.42731 4285556095
-10.191437 887.03546 795.42731 4285425019
-6.9730887 887.03546 795.42731 4285359224
-4.0229359 887.24048 795.60022 4285490298
-1.6091744 886.62537 795.08154 4285555580
1.0740061 886.57391 795.91016 4285227385
4.0247707 886.89429 795.96234 4285161339
6.9730887 887.03546 795.42731 4285095545
9.6550455 886.62537 795.08154 4285227131
43.447708 886.62537 795.08154 4293846248
48.27523 886.62537 795.08154 4293648355
-22.52844 889.08588 797.15613 4285687682
-20.092659 889.77539 796.4295 4285621886
-16.8578 890.46484 795.70288 4285555835
-13.64679 890.46484 795.70288 4285359230
-10.43578 890.46484 795.70288 4285359227
-7.2247705 890.46484 795.70288 4285359481
-4.0137615 890.46484 795.70288 4285162618
-1.6055046 890.46484 795.70288 4285162619
0.80458719 889.77539 796.4295 4285227129
4.0137615 890.46484 795.70288 4285161087
7.2247705 890.46484 795.70288 4284832372
10.43578 890.46484 795.70288 4284899196
13.64679 890.46484 795.70288 4285095558
16.8578 890.46484 795.70288 4284899446
19.266054 890.46484 795.70288 4284899446
46.559631 890.46484 795.70288 4293517802
48.967888 890.46484 795.70288 4293582823
51.376148 890.46484 795.70288 4293451492
-27.293577 892.91968 797.77271 4285490552
-24.885323 892.91968 797.77271 4285490300
-22.477064 892.30597 797.25525 4285490302
-20.068806 891.69226 796.73779 4285424505
-16.055046 891.69226 796.73779 4285293952
-13.64679 891.69226 796.73779 4285293950
