# .PCD v0.7 - Point Cloud Data file format
VERSION 0.7
FIELDS x y z rgb
SIZE 4 4 4 4
TYPE F F F U
COUNT 1 1 1 1
WIDTH 1166
HEIGHT 1
VIEWPOINT 0 0 0 1 0 0 0
POINTS 1166
DATA ascii
4.2330275 802.98901 784.73096 4289631888
7.612844 803.73743 784.05396 4290945182
10.99633 803.73743 784.05396 4291472296
13.533945 803.73743 784.05396 4291867567
15.225688 803.73743 784.05396 4292722876
32.14312 803.73743 784.05396 4294967295
34.719265 802.98901 784.73096 4294967295
38.14679 802.2406 785.40796 4294967295
40.689907 802.2406 785.40796 4294967295
1.6917431 805.03082 785.14453 4289236617
4.2293577 805.03082 785.14453 4289893514
7.612844 805.03082 785.14453 4290814112
10.99633 805.03082 785.14453 4291472809
13.533945 805.03082 785.14453 4291802024
35.526604 805.03082 785.14453 4294967295
37.218349 805.03082 785.14453 4294967295
7.8691125 809.42041 784.92163 4290551700
11.24159 809.42041 784.92163 4291472304
13.489908 809.20557 784.74048 4291735462
16.019266 807.91644 783.6535 4292657083
19.110703 807.70148 783.47235 4292658115
22.764221 807.27185 783.10999 4291015868
26.136696 807.27185 783.10999 4291871450
28.666056 807.27185 783.10999 4294967295
31.47645 807.7016 783.47235 4294967295
34.399269 808.81879 784.41437 4294967295
37.097248 809.85016 785.28394 4294967295
13.46055 812.62494 785.00745 4291342759
15.984404 811.33856 783.92285 4292657339
18.508257 811.33856 783.92285 4293315531
28.60367 811.33856 783.92285 4294967295
31.968807 811.33856 783.92285 4294967295
34.492661 812.62494 785.00745 4294967295
10.900917 817.4176 785.12451 4291143844
13.401834 817.51654 783.8999 4291342507
15.923853 817.14648 784.24194 4292394939
18.978594 817.97687 783.85205 4293052613
22.590824 818.89758 783.75635 4293316810
25.937614 818.89758 783.75635 4291081892
28.478899 817.51654 783.8999 4294899430
31.009174 817.14655 784.24194 4294967295
34.100304 816.99023 784.76416 4294967295
11.155963 821.02979 785.55414 4291144869
13.387156 820.17688 784.83496 4291539633
15.61835 820.60333 785.19452 4292263095
19.244038 820.17688 784.83496 4293117634
22.590824 820.81653 785.37433 4293776594
25.937614 820.81653 785.37433 4292593852
28.447706 820.81653 785.37433 4294633942
30.957798 820.81653 785.37433 4294900734
13.34312 823.66779 783.85437 4291539631
-10.568808 749.71106 788.20544 4286013764
-8.8073397 748.36438 787.07007 4284894765
44.036697 748.36438 787.07007 4294767867
45.798164 749.03772 787.63776 4294833147
-7.901835 752.03625 786.24194 4286342492
43.021103 752.03625 786.24194 4294702072
-10.53578 754.04993 787.93988 4286079830
-7.8944955 754.15234 786.7182 4286672484
-5.2568808 754.92603 786.0625 4287725693
42.977066 754.15234 786.7182 4294767867
45.655045 754.72113 788.50586 4294899453
-8.7614679 756.93555 787.75677 4286803302
42.93119 756.26569 787.19202 4294833147
45.559631 757.60535 788.32153 4294768637
-6.9871559 760.58563 786.9104 4286739052
-5.2403669 759.91791 786.34741 4287528824
41.922935 759.91791 786.34741 4294636282
43.669724 760.58563 786.9104 4294899453
45.416515 761.25336 787.47339 4294899453
-7.8605504 762.58875 788.59937 4286869099
-4.6483178 763.23651 786.52948 4287790966
0 762.7923 786.15491 4289039765
41.834862 762.7923 786.15491 4294965246
43.57798 764.12494 787.27856 4294965246
46.242203 763.35681 787.93896 4294965246
49.783485 762.58875 788.59937 4294899453
55.897247 762.58875 788.59937 4294898940
-6.972477 765.45752 788.40222 4287132016
-4.3440366 767.75751 786.41736 4287856246
43.440369 767.75751 786.41736 4294965759
46.192661 765.45752 788.40222 4294966783
48.807339 765.45752 788.40222 4294965246
-5.2128439 769.75012 788.09753 4287592569
46.046791 769.75012 788.09753 4294966527
48.65321 770.41437 788.65759 4294966783
-3.4642203 772.70587 786.66565 4287790450
-1.7321101 772.70587 786.66565 4288908931
0 772.70587 786.66565 4289039504
45.034863 772.70587 786.66565 4294966271
-4.0391436 775.42023 788.08234 4287658871
-1.7284404 775.55499 786.4519 4288711304
0.57614678 775.99542 786.82324 4289302409
44.07523 775.55499 786.4519 4294965246
46.71743 775.45325 787.67413 4294966271
49.076458 774.9129 788.52661 4294966271
-3.4568808 778.19781 788.68018 4287461751
49.260551 778.19781 788.68018 4294965245
-1.7229358 781.13538 787.23303 4288514433
0 781.13538 787.23303 4288842118
44.796329 780.47675 786.67773 4294833660
46.519264 781.13538 787.23303 4294899453
48.242203 781.79395 787.78833 4294898938
-3.4458716 783.11115 788.89893 4287330153
-1.7192661 785.28198 788.11334 4288251255
0.57308871 784.62482 787.55927 4288842636
44.700916 783.96765 787.00507 4294899710
46.420185 785.28198 788.11334 4294965759
48.242203 783.11115 788.89893 4294965503
44.557796 788.20551 786.65417 4294966015
-3.4275229 790.82587 788.86365 4287264360
-1.7137614 789.51569 787.75891 4288250485
0 791.02374 786.41443 4288579466
41.042202 791.02374 786.41443 4294967039
43.607338 791.02374 786.41443 4294966527
47.078899 790.26971 787.08667 4294966015
-1.7100917 792.33112 787.51672 4288119413
44.462387 792.33112 787.51672 4294966527
47.312542 792.76691 787.88422 4294966015
-1.7045871 795.89215 786.59521 4288512887
0 795.89215 786.59521 4288249983
40.0578 795.89215 786.59521 4294967295
43.466972 796.5437 787.14465 4294967295
46.023853 796.5437 787.14465 4294967295
-3.4091742 798.49847 788.79285 4287592560
-1.7009175 799.34521 786.89075 4288316026
0 798.69501 786.34253 4288250231
39.971558 798.69501 786.34253 4294967295
43.373394 799.99536 787.43896 4294967295
46.77523 799.99536 787.43896 4294967295
-3.401835 801.29572 788.5354 4287527276
-1.6954129 803.53674 786.50085 4288185462
0 803.53674 786.50085 4288381308
38.994495 803.53674 786.50085 4294967295
40.689907 803.53674 786.50085 4294967295
43.233028 803.53674 786.50085 4294967295
46.77523 801.29572 788.5354 4294967039
-3.9559631 805.69702 788.32233 4287263600
-1.6917431 806.32416 786.23499 4288053368
0.84587157 805.57849 786.91437 4289103228
4.2293577 806.32416 786.23499 4289958285
6.7669725 806.32416 786.23499 4290091409
10.150458 806.32416 786.23499 4290880422
38.06422 806.32416 786.23499 4294967295
40.601833 806.32416 786.23499 4294967295
43.233028 804.83289 787.59375 4294967039
46.623856 804.83289 787.59375 4294966527
49.166973 805.48096 788.1402 4294966783
-3.3834863 808.91089 788.41602 4287197552
-1.6917431 807.61749 787.32556 4287987325
0.84587157 808.26416 787.87079 4288513401
4.2293577 807.61749 787.32556 4289892757
38.910091 807.61749 787.32556 4294967295
40.601833 808.26416 787.87079 4294967295
43.13945 808.26416 787.87085 4294967295
46.522934 808.26416 787.87085 4294967295
-1.6862385 811.78381 786.91443 4288052348
4.2155962 811.78387 786.91443 4289499537
7.5880733 811.78381 786.91443 4290616464
10.96055 811.13928 786.37097 4291208874
38.221409 811.56903 786.73322 4294967295
40.469727 812.42841 787.45789 4294967295
-3.3724771 813.71759 788.54492 4287262575
-1.6862385 813.71759 788.54492 4288249470
1.6862385 813.71759 788.54492 4288972927
4.2155962 813.71759 788.54492 4289499787
7.5788989 814.45758 787.86078 4290485398
10.936697 813.91125 786.09204 4291078051
35.333946 813.91125 786.09204 4294967295
37.57737 814.7688 786.81512 4294967295
40.469727 813.71759 788.54492 4294967295
42.999084 813.71759 788.54492 4294967295
45.528439 813.71759 788.54492 4294967295
8.4128437 816.48395 788.26135 4290748836
10.062386 818.69971 786.20557 4290683293
34.379814 818.69971 786.20557 4294967295
37.857796 816.48395 788.26135 4294967295
8.3853207 820.62292 787.82715 4290552732
30.187157 821.26398 788.36768 4294438389
34.379814 820.62292 787.82715 4294967295
25.937614 822.73553 786.99243 4293778137
28.447706 822.73553 786.99243 4294633703
31.236696 823.58838 787.71149 4294703355
33.467892 824.01483 788.07104 4294967295
47.708256 747.3858 790.16907 4294767354
49.475231 748.73669 791.30798 4294833145
52.125687 748.73669 791.30798 4294635510
-12.330276 751.73102 789.90869 4286275928
46.972473 751.50659 789.71942 4294767354
49.321102 752.40436 790.47644 4294767867
51.963303 752.40436 790.47644 4294767610
-13.21101 753.75098 791.61194 4286144593
49.321102 753.75098 791.61194 4294569718
51.963303 753.75098 791.61194 4294833146
-12.291743 758.74847 791.90161 4286275927
-10.53578 756.7348 790.20367 4286145375
-8.7614679 758.94495 789.45117 4287000427
47.361469 757.50427 789.54443 4294768380
50.044952 757.40601 790.76965 4294899451
52.678898 757.40601 790.76965 4294898940
54.434864 757.40601 790.76965 4294833147
-10.513762 760.95447 791.14545 4286276450
52.568806 760.28461 790.58069 4294833660
54.321102 760.28461 790.58069 4294833660
-8.7339449 763.92419 789.72546 4287065712
50.656879 763.92419 789.72546 4294899453
52.403671 763.92419 789.72546 4294833660
55.023853 763.92419 789.72546 4294833660
-10.480734 765.25964 790.85144 4286473057
-7.8440366 766.79016 789.52588 4286999916
47.06422 766.79016 789.52588 4294966527
49.678898 766.79016 789.52588 4294965246
52.293579 766.79016 789.52588 4294965246
54.693577 766.21503 790.78491 4294965502
-8.1345568 768.56708 791.02411 4286670698
50.550457 768.1228 790.64954 4294966783
52.293579 768.78912 791.21136 4294965245
55.198776 769.01123 791.39862 4294965502
57.522934 768.78912 791.21136 4294964990
-6.9504585 772.40698 790.33777 4286737509
-5.2128439 771.7428 789.77771 4287658614
50.390827 771.7428 789.77771 4294966527
52.128441 773.07117 790.89783 4294966527
-5.1963301 776.67853 790.01526 4287527028
-6.9284406 778.00275 791.13184 4286737512
-4.3211012 779.51923 789.79443 4287461744
50.124771 779.51923 789.79443 4294965501
51.963303 778.00275 791.13184 4294965503
-5.1853213 780.84064 790.90857 4287460978
50.124771 780.84064 790.90857 4294965503
-6.8917432 785.74554 791.12024 4286605413
-4.5944958 784.86737 790.3797 4287329646
49.103668 785.08691 790.56488 4294965503
-4.2981653 787.91077 790.3299 4287395183
-6.8770642 789.88245 791.99219 4286342502
49.858715 789.88245 791.99219 4294966783
-4.2825689 793.16608 790.1828 4287329390
47.882568 794.94586 789.72144 4294967295
-6.8403668 797.56061 791.92615 4286605662
-5.1302752 796.25323 790.82385 4287460465
-5.1137614 799.80164 789.89172 4287460971
49.433029 799.80164 789.89172 4294966783
-6.8110094 802.50061 790.85938 4286407779
-5.1027522 802.59607 789.63184 4287197550
51.082569 802.50061 790.85938 4294967039
-7.6541286 805.19684 791.82471 4286538337
-6.7816515 808.72137 790.87231 4286539356
-5.0862384 807.42523 789.77942 4287262573
50.014679 808.0733 790.32587 4294967295
-7.3418961 810.94208 791.87274 4286472800
-4.5113149 810.63531 789.87012 4287130985
0.42293578 811.17419 790.32452 4288446839
43.13945 810.20422 789.50659 4294967295
46.80489 810.63531 789.87012 4294967295
49.737247 811.75623 790.81525 4294967295
52.500916 811.40424 791.82642 4294967295
-4.2155962 815.00671 789.63184 4287196780
-1.6862385 815.00671 789.63184 4288117627
1.6862385 815.00671 789.63184 4289104513
4.2155962 815.00671 789.63184 4289696133
6.7449541 815.00671 789.63184 4290288285
40.469727 815.00671 789.63184 4294967295
42.999084 815.00671 789.63184 4294967295
46.371559 815.00671 789.63184 4294967295
-6.7449541 817.58502 791.80579 4286603866
-4.2155962 816.94043 791.26233 4287197033
-1.6825688 817.77026 789.34595 4287789432
0.84311926 816.94043 791.26233 4288644218
4.2100916 817.03308 790.03241 4289761930
6.7302752 817.77026 789.34595 4290027162
37.857796 817.77026 789.34595 4294967295
40.381653 817.77026 789.34595 4294967295
42.999081 816.94043 791.26233 4294967295
46.371559 816.94043 791.26233 4294967295
49.462994 817.15527 791.44354 4294967039
-3.3651376 820.34296 791.51514 4287459434
-1.6825688 819.69977 790.97284 4288052340
1.6825688 820.34296 791.51514 4289104513
3.9259937 819.48535 790.79205 4289564559
6.7302752 819.05658 790.43054 4290222738
37.857796 819.05658 790.43054 4294967295
40.381653 819.05658 790.43054 4294967295
42.905502 820.34296 791.51514 4294967039
-1.6770642 823.82825 790.52979 4288118133
35.218349 822.54614 789.44873 4294967295
37.733944 823.18713 789.98926 4294967295
40.808563 823.40088 790.16943 4294967039
34.304588 825.29419 789.14978 4294967295
41.044037 825.84192 790.91968 4294966783
43.603668 825.11035 791.61084 4294967039
-15.902752 752.78931 794.7251 4285685074
-14.135779 750.08752 792.44702 4286210384
54.776146 750.76294 793.01654 4294833145
-13.21101 755.09766 792.74731 4286078801
-14.091743 756.44434 793.88281 4286012756
-13.169725 760.76215 793.59943 4286209877
-12.266055 762.96387 792.83972 4286472537
-10.513762 764.30353 793.96936 4286472035
-10.480734 767.93054 793.10339 4286144608
-10.458715 770.78809 792.89673 4286341732
-8.7155962 770.78809 792.89673 4286736747
54.908257 770.78809 792.89673 4294967039
57.522934 770.78809 792.89673 4294966527
-10.458715 772.12073 794.02039 4286210403
55.779816 772.12073 794.02039 4294965247
57.522934 772.12073 794.02039 4294965759
-8.1088686 774.84247 792.39117 4286802281
53.28685 774.84247 792.39117 4294965758
-10.425688 777.05646 794.25806 4286078301
-7.8082571 778.19171 793.25323 4286737000
52.829357 779.32697 792.24841 4294899453
55.603668 777.05646 794.25806 4294965759
57.341286 777.05646 794.25806 4294966015
-12.124771 781.9754 794.48145 4285620051
-10.39266 781.9754 794.48145 4286012508
-7.7871561 781.40662 792.69385 4286737000
50.124771 782.16205 792.02271 4294964990
53.118042 781.09259 793.73712 4294966015
-12.099083 784.80487 794.2511 4285881683
-10.370643 784.80487 794.2511 4286012508
-8.6422014 783.48346 793.13696 4286735975
52.429356 784.36444 793.8797 4294965758
-10.337615 788.37994 793.34143 4285882203
-8.0403671 787.50177 792.60107 4286473829
49.965137 787.06274 792.23083 4294966271
51.688072 788.37994 793.34143 4294966271
-10.337615 789.69714 794.45203 4286078299
-7.7458715 790.44696 793.77625 4286539363
49.858715 791.19678 793.10046 4294967295
51.688072 789.69714 794.45203 4294967039
-7.725688 793.63385 793.19324 4286670693
49.699081 794.75647 792.17773 4294967295
-10.282569 797.37683 794.38721 4286209371
-8.5688076 796.06665 793.28247 4286736478
-8.5504589 798.86798 793.02856 4286538080
-8.5229359 802.40802 792.08923 4286472289
51.989906 803.05957 792.63867 4294967295
-10.227523 805.01434 794.28687 4285880409
-8.5045872 806.49719 792.92114 4286538082
52.842201 805.01434 794.28687 4294967295
-10.205504 807.79755 794.01758 4285880407
-10.172477 812.60986 794.151 4285814863
-8.4770641 811.31372 793.05811 4286538082
54.253212 812.60986 794.151 4294966015
-7.8948007 814.51538 793.14166 4286406490
50.752293 814.08429 792.7782 4294966527
52.444038 814.73096 793.32343 4294966271
-7.6018348 817.77258 793.92603 4286472535
-5.0587158 818.87415 792.89282 4287458919
0 818.87415 792.89282 4288380534
46.371559 818.87415 792.89282 4294967039
49.744034 818.87415 792.89282 4294966527
52.444038 816.67096 794.95923 4294966271
-6.7449541 820.16327 793.97974 4286670170
-4.2064219 821.62927 792.59973 4287328359
43.746788 821.62927 792.59973 4294966783
46.270645 821.62927 792.59973 4294967295
49.63578 821.62927 792.59973 4294966527
52.273396 820.16327 793.97974 4294966527
46.270645 823.55884 794.22662 4294967295
49.35535 823.77319 794.40741 4294967039
43.603668 826.39252 792.69189 4294967039
45.280735 826.39252 792.69189 4294967295
-15.952293 749.12585 795.56018 4285750354
-15.952293 751.836 797.84534 4285881170
-15.902752 755.49103 797.00305 4285815127
-14.091743 757.79095 795.01831 4286012756
-15.853211 759.81091 796.7215 4285880917
-13.462386 763.22333 795.67462 4286078805
-15.80367 765.46075 797.56116 4285880920
-12.85994 766.02899 796.29614 4286275676
-13.122936 769.46191 796.35675 4286078299
-15.721101 773.27228 797.60742 4285684560
-13.383487 772.88745 796.41095 4285946713
-10.458715 773.45331 795.14404 4286340706
55.779816 773.45331 795.14404 4294965759
57.522934 773.45331 795.14404 4294966271
-15.688073 776.11859 797.39136 4285487445
-13.073395 775.45227 796.82953 4285749848
-13.03211 779.04907 795.93817 4285619541
-10.425688 778.38489 795.37817 4286078301
55.603668 779.04907 795.93817 4294966271
57.341286 779.04907 795.93817 4294966015
-15.638532 781.04175 797.61829 4285487445
55.603668 781.04175 797.61829 4294965759
58.210091 781.04175 797.61829 4294965246
-15.588991 785.28589 797.27283 4285618770
-13.856881 783.96167 796.15631 4285684561
55.427525 785.28589 797.27283 4294966015
-15.555964 788.7691 797.59363 4285684560
-12.963303 787.44769 796.47949 4285815890
53.58165 787.44769 796.47949 4294966783
-12.060551 791.01434 795.56274 4285816660
-10.337615 791.01434 795.56274 4286012506
51.688072 791.01434 795.56274 4294967295
-16.367889 793.64874 797.78394 4285486925
-12.909174 793.07855 795.99518 4285749334
-10.315597 793.82556 795.31702 4286012756
52.799999 793.26862 796.59149 4294966527
-15.473394 796.45435 797.53357 4285355859
-13.181039 795.57812 796.79474 4285683536
-11.425076 799.12372 795.86017 4285880662
54.840366 799.99719 796.59656 4294967295
-13.710092 801.30737 797.70129 4285749583
-11.115597 802.13647 795.78436 4285880660
53.012844 801.48279 795.23315 4294967295
-13.680734 804.09753 797.43787 4285618254
-11.93211 806.3175 795.38562 4285881170
54.722935 804.09753 797.43787 4294967295
-15.341285 808.92389 797.58325 4285486412
-13.636697 807.62073 796.4845 4285618254
-11.068808 808.35931 795.79926 4285946454
55.399082 808.27234 797.03387 4294967039
-13.60734 811.04846 796.75867 4285683280
-11.906422 811.04846 796.75867 4285814866
56.130276 811.69861 797.30688 4294967295
-10.172477 814.55408 795.79034 4286077266
54.253212 814.55408 795.79034 4294965246
-10.172477 816.49835 797.42969 4286010709
-8.4587154 817.96436 796.04968 4286602590
55.042202 817.23132 796.73969 4294966271
-7.612844 819.25769 797.14026 4286603864
-5.0587158 821.45245 795.06677 4287196514
47.21468 821.45245 795.06677 4294967295
50.587154 821.45245 795.06677 4294966783
52.273396 821.45245 795.06677 4294966783
54.981651 819.25769 797.14026 4294966527
47.21468 824.0307 797.24072 4294967295
52.273396 823.38611 796.6972 4294966527
49.63578 826.13147 796.39581 4294966783
-17.724771 753.19104 798.98792 4285617748
-21.203671 758.19275 799.28113 4285420882
-19.436697 757.51733 798.71161 4285552211
-17.669725 757.51733 798.71161 4285683537
-21.203671 759.54358 800.42017 4285290066
-19.436697 759.54358 800.42017 4285355859
-16.733946 761.83093 798.42468 4285749334
-22.018349 764.52423 800.69568 4285158990
-19.376146 764.52423 800.69568 4285356372
-17.614679 763.17761 799.56018 4285617748
-16.681652 766.80316 798.69312 4285815127
-21.949541 769.4881 800.95691 4285290063
-19.315596 768.14563 799.82495 4285421652
-16.665138 768.90387 799.15625 4285749334
-21.027523 772.34143 800.7467 4285486925
-19.275229 771.67163 800.18188 4285487182
-17.522936 771.67163 800.18188 4285487185
-19.21468 775.94312 799.8595 4285421652
-17.46789 775.94312 799.8595 4285356372
-24.455046 777.27856 800.98547 4285355859
-22.708258 777.27856 800.98547 4285421652
-19.21468 777.27856 800.98547 4285421652
-16.559633 778.11755 799.07684 4285421908
-24.403669 780.11646 800.76221 4285356109
-22.660551 780.11646 800.76221 4285356109
-19.174313 780.11646 800.76221 4285355859
-17.431192 780.11646 800.76221 4285421902
58.210091 782.37012 798.7384 4294899453
-22.588991 785.02698 800.97864 4285093707
-19.692966 784.58417 800.60529 4285289805
-17.376146 783.69855 799.85852 4285420882
58.210094 784.36279 800.41858 4294899453
60.816513 784.36279 800.41858 4294965246
-19.053211 788.59644 800.06421 4285421384
-17.3211 787.93433 799.50592 4285486925
55.427525 787.93433 799.50592 4294966527
57.159634 788.59644 800.06421 4294966527
-19.012844 791.41193 799.82202 4285421132
-15.555964 790.09052 798.70776 4285486925
-22.469725 792.73328 800.93616 4285223760
-19.84679 793.84961 799.91534 4285158730
-17.229359 794.96594 798.89453 4285224273
-18.952293 796.28314 800.00525 4285027144
-16.351376 797.026 799.32355 4285420619
-13.754128 797.7688 798.64185 4285749583
-16.619574 799.5213 800.11945 4285420369
-16.280735 803.27264 799.3584 4285420369
-16.245872 806.05859 799.09143 4285420366
56.433029 805.40491 798.54028 4294967295
58.14312 805.40491 798.54028 4294966527
-17.100918 808.01965 800.745 4285420369
-15.341285 810.22705 798.68213 4285551955
-13.636697 811.53021 799.78088 4285814863
-11.906422 812.99902 798.40332 4286011986
56.130276 812.99902 798.40332 4294966527
-13.60734 814.94958 800.04797 4285814350
-11.906422 814.94958 800.04797 4285880143
57.831192 814.29938 799.49976 4294966271
-10.172477 817.79449 798.52258 4286010959
57.644035 817.79449 798.52258 4294965759
-15.258716 820.38684 800.70837 4285552457
-13.563303 820.38684 800.70837 4285749070
-11.020184 819.73877 800.16193 4286077014
54.981651 821.19763 798.776 4294966271
58.124767 820.92645 799.41937 4294966015
61.882568 820.38684 800.70837 4294966527
54.13578 823.13776 800.41187 4294966527
59.21101 823.13776 800.41187 4294966015
52.947895 826.86688 799.63202 4294966783
55.64587 826.60895 799.41461 4294967039
57.332111 826.60895 799.41461 4294966783
-21.203671 760.89447 801.5592 4285420882
-19.436697 760.89447 801.5592 4285486675
-22.018349 765.87091 801.83105 4285355856
-22.827522 770.83051 802.08887 4285420882
-21.903669 773.68103 801.87622 4285355859
-21.027523 775.02069 803.00574 4285421652
-20.961468 778.61401 802.11145 4285355859
-24.403669 782.11542 802.44769 4285290063
-22.660551 781.4491 801.88586 4285420882
-20.917431 781.4491 801.88586 4285290066
62.752293 782.78174 803.00952 4294833147
-24.326605 787.01965 802.65869 4285224270
-22.588991 786.35541 802.09863 4285027144
-20.851376 786.35541 802.09863 4285224261
58.499695 787.24103 802.8454 4294966271
60.816513 787.01965 802.65869 4294966271
-22.517431 789.92065 801.18079 4285158224
-20.78532 789.92065 801.18079 4285289803
55.427525 790.58276 801.73901 4294966783
57.159634 791.24487 802.29724 4294966527
60.623852 791.24487 802.29724 4294966271
-24.249542 792.56909 803.41382 4285092167
-22.469725 794.05469 802.05029 4285092167
-20.741285 794.05469 802.05029 4285027144
58.025688 792.56909 803.41382 4294965758
60.623852 792.56909 803.41382 4294965247
-25.062386 795.3761 803.16455 4285157958
-22.469725 795.3761 803.16455 4285289284
-19.84679 796.48822 802.1402 4285354826
55.310093 795.3761 803.16455 4294967295
57.038532 795.3761 803.16455 4294967295
60.495415 795.3761 803.16455 4294966527
-19.526606 799.79572 802.9668 4285289033
60.302753 800.23474 803.33704 4294966271
58.455048 803.02637 803.07483 4294966527
-16.245872 809.32703 801.84729 4285552457
59.062386 808.59265 802.53607 4294966783
61.695412 807.85828 803.22485 4294967039
-15.390825 810.6344 802.94971 4285486916
59.85321 810.6344 802.94971 4294966271
-16.193579 814.78809 802.52789 4285617482
59.660549 814.13654 801.97852 4294966271
61.365139 815.4397 803.07727 4294966783
-16.158716 817.55029 802.24084 4285552202
-13.60734 816.90009 801.69263 4285683027
-11.906422 816.90009 801.69263 4285814613
59.532108 816.90009 801.69263 4294966783
-16.158716 819.50085 803.8855 4285617480
-13.60734 819.50085 803.8855 4285683277
-11.906422 819.50085 803.8855 4285880656
61.984406 820.59192 802.84338 4294966271
-13.563303 823.6272 803.44061 4286077517
59.21101 824.43109 801.50232 4294966271
61.034863 823.6272 803.44061 4294966270
-13.533945 827.01782 803.68335 4286209621
59.21101 826.37109 803.13812 4294966271
53.959633 829.18732 801.5885 4294966271
55.64587 829.18732 801.5885 4294966271
57.332111 829.18732 801.5885 4294966015
-26.06422 790.3407 805.45898 4285027144
59.078899 789.01227 804.33887 4294966015
58.891743 793.89331 804.5304 4294966527
-25.115597 795.21753 805.64685 4285289547
-22.469725 796.69751 804.27869 4285355077
-20.741285 796.69751 804.27869 4285354826
57.902752 796.69751 804.27869 4294966783
60.495415 796.69751 804.27869 4294966271
-22.469725 798.67963 805.94995 4285157963
-20.741285 799.34033 806.50708 4285027144
-19.813763 802.21057 805.00305 4285092684
61.164223 801.55194 804.44775 4294966783
-19.499695 804.72736 805.38116 4285158480
58.455048 804.34076 804.18311 4294967295
60.174313 804.34076 804.18311 4294967295
-17.137615 809.16846 804.32959 4285421123
-18.851376 811.78882 806.53906 4285486162
-17.137615 810.47864 805.43433 4285551687
61.563301 811.94177 804.052 4294966783
-19.666054 814.55658 806.25671 4285486162
-18.750458 818.04608 805.2749 4285551185
-15.308257 820.80121 804.98193 4285683525
-25.195412 794.32593 808.81921 4285223500
-25.195412 795.65436 809.93933 4285026894
-22.469725 800.66174 807.62122 4285026894
-22.469725 801.98315 808.73535 4285026894
-20.741285 803.30457 809.84961 4285288782
-22.398165 806.82074 808.89026 4285354826
-19.813763 806.16211 808.33496 4285354829
-22.350458 809.59833 808.61621 4285289032
-19.771561 808.94116 808.06207 4285354829
-22.350458 810.91272 809.72449 4285157703
-20.521101 815.86395 807.35901 4285419856
-25.27523 794.77539 813.12231 4285092175
-24.403669 796.10803 814.24597 4285026894
-22.588991 799.63959 813.29956 4285289032
-24.53211 793.7757 818.81946 4285289032
-24.53211 795.11536 819.9491 4285354826
63.748623 821.30994 821.10718 4294965759
65.332108 824.05664 820.80701 4294767867
61.359634 817.84003 822.10547 4294964989
62.223854 819.16144 823.21973 4294965247
64.610092 823.28577 822.77307 4294899711
65.471558 825.26154 824.43909 4294965503
-20.851376 815.58069 826.74072 4283448114
60.816513 815.58069 826.74072 4294965503
62.355968 820.37762 826.86115 4294899711
63.952293 821.80426 825.448 4294965246
64.528442 824.00659 827.30499 4294899197
59.390827 811.99988 830.2616 4294965759
-24.403669 814.76483 829.97681 4283776573
-22.660551 814.09851 829.41504 4283579706
-20.917431 814.76483 829.97681 4283710516
61.009174 814.76483 829.97681 4294965759
64.088074 824.35022 830.21082 4294964733
65.680733 826.4292 829.34766 4294898943
67.409172 826.4292 829.34766 4294898943
-19.275229 809.85144 832.37415 4283513907
57.946789 808.41907 833.78247 4294966527
-17.522936 811.19104 833.50366 4283056434
-19.21468 813.33533 831.38757 4283776309
-17.46789 814.67078 832.51355 4283646520
59.390827 814.00305 831.95056 4294966271
-24.455046 816.00616 833.63953 4284106560
-22.684404 816.05182 832.37 4283908670
-20.045874 817.43011 832.22412 4283908921
-17.46789 816.00616 833.63953 4283646270
59.390827 816.00616 833.63953 4294965503
61.009174 816.76379 831.66229 4294966527
62.554127 820.89435 831.22107 4294965247
62.554127 822.22278 832.34106 4294965759
58.310093 802.7713 836.86865 4294966527
60.077065 802.7713 836.86865 4294966271
56.366974 806.27063 835.89502 4294965759
57.946789 809.76154 834.91443 4294966271
57.946789 811.104 836.04639 4294966527
58.701836 814.54016 836.32758 4294899454
-17.46789 818.00934 835.32861 4283909441
61.137615 818.00934 835.32861 4294966015
-20.045872 820.09534 834.47144 4284369477
62.752293 821.42798 835.59509 4294965759
64.495415 821.42798 835.59509 4294964733
64.495415 822.76062 836.71863 4294966015
56.836697 797.82568 839.23865 4294967039
58.612843 797.82568 839.23865 4294967039
61.277065 797.82568 839.23865 4294966015
56.719265 800.61865 838.97766 4294966271
-15.902752 805.47302 839.14661 4283056434
54.776146 805.47302 839.14661 4294965246
-15.853211 808.96393 838.16602 4283449397
56.366974 808.29065 837.59827 4294833660
-15.853211 810.31061 839.30151 4283449147
56.366974 810.31061 839.30151 4294965246
-15.80367 814.46008 838.87616 4283843392
57.946789 814.46008 838.87616 4294964990
-17.522936 817.88928 839.15149 4284369477
59.57798 816.54962 838.02185 4294965247
-22.708258 821.3479 838.14355 4284961614
-20.088074 820.68018 837.58057 4284501572
61.719879 820.90277 837.76825 4294965503
-22.708258 822.68335 839.26965 4285026894
-20.088074 822.68335 839.26965 4285092431
55.515594 787.96667 841.39014 4294966271
-14.326606 789.33575 842.54443 4285420882
53.72477 789.33575 842.54443 4294965503
55.401836 790.7793 841.14563 4294967295
58.082569 790.7793 841.14563 4294966015
60.763302 790.7793 841.14563 4294965503
-16.034863 794.3067 840.19568 4283117864
-14.297248 792.14563 842.29761 4283051557
53.614677 792.14563 842.29761 4294965246
55.231194 794.3067 840.19568 4294966527
57.903671 794.3067 840.19568 4294966015
60.576145 794.3067 840.19568 4294964990
-16.925688 796.34985 841.91846 4283120430
-14.253211 797.03088 842.49268 4283514420
53.449543 797.03088 842.49268 4294899453
55.231194 795.66882 841.34424 4294967039
-19.537615 799.18353 840.38354 4283514420
-16.873394 800.54144 841.52856 4282990128
53.284405 800.54144 841.52856 4294965246
55.060551 799.18353 840.38354 4294965503
-14.209174 801.89929 842.67346 4283188019
52.341286 802.61401 841.96808 4294965503
54.946789 801.97369 840.12024 4294965759
53.174313 804.68384 842.40527 4294965246
54.776146 806.82391 840.28564 4294965246
-14.135779 809.52563 842.56372 4283776573
53.009174 809.52563 842.56372 4294965759
54.776146 808.85022 841.9942 4294965246
56.366974 811.65723 840.43689 4294964733
-13.504588 813.90167 842.32941 4284303426
56.366974 813.67725 842.14014 4294964990
58.128441 814.35059 842.70789 4294966783
-15.80367 817.14502 841.13995 4284435271
-14.047707 817.81622 841.70593 4284566343
59.117432 817.36871 841.32861 4294965759
-16.96208 819.18213 841.9856 4284895051
47.133945 773.74493 845.09509 4294966271
48.798164 775.93127 843.0144 4294967295
46.990826 778.00385 844.76196 4294966783
49.400616 777.77362 844.56781 4294967039
49.850769 781.79102 844.03107 4294966783
52.253212 781.5614 843.83746 4294966527
54.055046 781.5614 843.83746 4294966015
-9.0091743 783.62769 845.57971 4286603866
49.550461 783.62769 845.57971 4294966527
52.991745 785.79718 843.48486 4294899709
-12.574312 788.54382 845.80078 4283248680
-10.777982 788.54382 845.80078 4283248430
-8.9816513 788.54382 845.80078 4283117101
49.698471 788.086 845.41479 4294966271
52.093578 787.17047 844.64282 4294967295
51.933945 790.7049 843.69885 4294966527
-13.416513 792.79297 844.15149 4283184939
50.14312 792.07397 844.85327 4294965759
52.423237 793.96735 843.83368 4294966015
-12.510092 796.24451 845.75366 4283187506
50.040367 796.24451 845.75366 4294964735
-13.362385 799.07397 844.21539 4283187507
-10.689908 799.75507 844.78967 4283580715
49.886238 799.75507 844.78967 4294833660
51.667889 798.39294 843.64111 4294964991
-13.3211 803.2572 843.81836 4283253813
-10.689908 801.11713 845.93811 4283580213
-8.9082565 801.11713 845.93811 4283580213
49.886238 801.11713 845.93811 4294965246
51.508255 803.2572 843.81836 4294965759
-13.306421 805.32703 844.25562 4283645756
-10.65688 804.61505 844.96338 4283646520
52.341286 805.32703 844.25562 4294833404
-12.407339 807.39398 844.69043 4283842366
-10.634862 808.07153 845.26172 4283843643
-12.368808 810.87646 843.70276 4284040766
-10.601835 812.22736 844.84167 4284369477
53.009174 811.55188 844.27222 4294966783
54.776146 811.55188 844.27222 4294966527
-12.330276 815.6972 843.84338 4284763722
-10.601835 813.57825 845.98071 4284829250
53.009174 813.57825 845.98071 4294967039
55.57156 814.6377 844.91205 4294900222
-13.21101 817.04388 844.97876 4284764235
59.009174 817.04388 844.97876 4294965759
-21.949543 821.17236 844.53577 4285618509
-19.315596 821.17236 844.53577 4285617999
-17.559633 820.5011 843.96985 4285224523
40.205505 765.12036 848.28723 4294967295
42.033028 765.12036 848.28723 4294967295
41.906422 770.10101 848.56274 4294967295
43.728439 768.70807 847.38818 4294967295
45.458717 770.16846 846.00354 4294967295
43.640366 772.25366 847.76172 4294967295
45.458717 771.55859 847.17566 4294967295
43.508255 776.51678 847.43225 4294965759
45.321102 775.82385 846.84796 4294967039
43.508255 777.90271 848.60083 4294966783
-9.0366974 780.07642 846.50952 4287460960
-7.2293577 782.8399 848.8396 4284827977
-5.4220185 782.8399 848.8396 4284827977
43.376148 782.8399 848.8396 4294966271
45.906425 781.18182 847.44159 4294966271
-12.612844 785.00519 846.74121 4285223760
-9.9100914 785.00519 846.74121 4285025361
46.847706 785.00519 846.74121 4294966271
48.64954 785.00519 846.74121 4294967039
-7.2073393 786.38269 847.90271 4282986027
-5.4055047 786.38269 847.90271 4283051821
46.847706 786.38269 847.90271 4294833147
-10.777982 789.91711 846.95874 4283250732
-8.3828745 790.8327 847.73071 4283317037
46.704586 791.29041 848.1167 4294966527
48.500916 790.60376 847.53772 4294965503
-12.53578 793.44312 846.00769 4283580213
-10.744954 794.12769 846.5849 4283449129
-8.9541283 794.81219 847.16211 4283514922
49.247707 794.12769 846.5849 4294965245
-8.0495415 796.89606 847.61108 4283514671
-5.3724771 796.18127 848.31641 4283448627
46.561466 796.18127 848.31641 4294967295
48.253212 797.61084 846.90576 4294965503
-7.1486239 798.97711 848.05774 4283514420
48.253212 798.97711 848.05774 4294966271
-7.7204895 802.93329 847.46942 4283646520
48.995415 803.16028 847.66083 4294900734
-8.8807335 805.97296 846.10828 4283778106
51.508255 805.97296 846.10828 4294965757
-8.2886848 808.23608 848.01642 4284303684
49.732109 808.00977 847.82562 4294967295
51.508255 807.33081 847.25317 4294966271
-8.8623857 811.45923 848.11816 4284763457
49.629356 811.45923 848.11816 4294967295
51.401836 810.78168 847.54688 4294966271
53.009174 814.92908 847.11975 4294966783
55.65963 814.92908 847.11975 4294966271
61.844036 814.92908 847.11975 4294965503
-15.853211 818.39056 846.11426 4285356109
-13.21101 818.39056 846.11426 4285094990
53.009174 816.27997 848.25879 4294965759
55.65963 816.27997 848.25879 4294965246
58.310093 816.27997 848.25879 4294965759
-16.733946 820.41052 847.8175 4285815380
-13.504588 820.18604 847.62823 4285750096
-21.07156 823.18604 846.23364 4285880656
-19.315596 823.85724 846.79962 4285881423
-19.315596 825.87091 848.49744 4285684560
55.19725 828.60645 848.18787 4294704127
57.825687 828.60645 848.18787 4291019742
34.93211 759.32532 851.24915 4294967295
-7.3321099 764.32697 851.54236 4286933342
-4.5825686 764.32697 851.54236 4287262306
38.49358 764.32697 851.54236 4294967295
-10.051376 767.91467 850.64331 4286472793
-7.310092 767.91467 850.64331 4286737499
-5.4825687 767.91467 850.64331 4286934877
40.205505 767.21606 850.05432 4294967295
42.033028 766.51752 849.46533 4294967295
-7.310092 769.31183 851.82141 4287197531
38.377983 769.31183 851.82141 4294967295
-12.754128 772.8869 850.91174 4286340176
-10.324771 771.95825 850.12872 4286210390
-7.2880735 772.8869 850.91174 4287527530
-4.5550461 772.19043 850.32446 4288051821
-1.8220184 772.19043 850.32446 4288971901
40.691742 771.95825 850.12872 4294967295
-12.72844 775.729 850.69214 4286736217
-10.000917 775.03394 850.10602 4286934106
-7.2733946 775.729 850.69214 4287789932
-5.4550457 775.729 850.69214 4288711034
41.2159 775.26562 850.30145 4294967039
-12.689908 779.2887 849.76941 4286209621
-10.877064 779.2887 849.76941 4286340437
-7.2513762 779.2887 849.76941 4286341721
-4.5376148 778.20392 850.81683 4286473306
-1.8183486 777.11914 851.86426 4286802526
40.849541 778.20392 850.81683 4294967295
43.508255 779.2887 849.76941 4294966015
-3.6256881 780.67462 850.93799 4284697423
-1.812844 780.67462 850.93799 4285157974
40.78899 780.67462 850.93799 4294967039
-3.6146789 784.22162 850.00464 4283118377
-1.8073394 785.60333 851.16968 4282987561
40.966358 785.14276 850.78131 4293713394
43.376148 784.91248 850.58716 4294967039
45.183487 784.22162 850.00464 4294964990
-7.2073393 787.76025 849.06421 4283250732
-4.5045872 787.76025 849.06421 4283053354
45.946789 787.76025 849.06421 4294965759
-4.5045872 789.13776 850.22571 4283513907
-1.8018348 789.82654 850.80646 4283644982
43.244038 789.82654 850.80646 4294768126
45.045872 789.82654 850.80646 4294967039
-7.1853213 792.6637 849.27466 4283448627
-4.1914372 793.12152 849.66064 4283382579
-1.7963303 794.03705 850.4325 4283317042
44.010094 794.03705 850.4325 4293517550
46.704586 792.6637 849.27466 4294966783
-4.4770641 797.55042 849.47083 4283514166
-1.7908257 797.55042 849.47083 4283579961
44.010094 795.41034 851.59045 4291869416
46.561466 797.55042 849.47083 4294967295
-4.4715595 799.63147 849.91754 4283646267
-1.7908257 799.604 851.20245 4283778109
43.875229 799.604 851.20245 4289765300
46.466057 800.34338 849.20984 4294967295
-4.1700306 802.1651 850.74579 4283909690
44.083179 802.62061 851.12982 4290161078
46.466057 801.70972 850.36182 4294967039
-7.1266055 805.20343 849.38354 4284172601
-4.75107 806.11151 850.14917 4284304191
44.541283 806.56549 850.53198 4290819756
46.322937 805.88446 849.95776 4292925940
48.104588 805.88446 849.95776 4294967295
-4.4541283 807.92761 851.68054 4284567109
44.541283 807.92761 851.68054 4289634451
46.322937 807.92761 851.68054 4291608536
-10.634862 812.81427 849.26074 4284830278
-7.8150458 811.67609 850.91699 4284961353
47.955963 811.40448 850.68799 4294966527
49.629356 812.81427 849.26074 4294967295
51.401836 812.81427 849.26074 4294965247
-10.634862 814.84692 850.97449 4285290570
49.629356 814.84692 850.97449 4294967295
51.401836 814.16937 850.4032 4294965247
-12.368808 818.98169 850.53674 4285946963
52.125687 818.30621 849.96729 4294965503
55.365131 818.08105 849.77753 4294965758
58.310093 817.6308 849.39783 4294966783
-12.368808 820.33252 851.67578 4286012756
49.475231 820.33252 851.67578 4294967295
52.125687 820.33252 851.67578 4294966015
54.776146 820.33252 851.67578 4294965503
-16.733946 823.10382 850.08838 4286078552
-13.504588 823.32831 850.27765 4286144859
51.963303 823.77716 850.65613 4294966783
55.486237 823.77716 850.65613 4294967295
-15.80367 827.21338 849.62939 4285948246
-13.188992 826.16858 850.71051 4286341984
49.321102 825.12384 851.79163 4294967295
51.880733 826.16858 850.71051 4294967295
50.922935 828.55579 850.76135 4294967295
52.678898 828.55579 850.76135 4294967295
29.592661 753.51337 854.1969 4293910750
31.442202 753.51337 854.1969 4294634217
1.8440367 757.83124 853.91357 4289367431
29.504587 757.83124 853.91357 4293251794
31.348623 757.83124 853.91357 4294831340
34.114677 757.83124 853.91357 4294834426
-3.6770642 760.73083 852.43433 4287130982
-1.8385321 760.73083 852.43433 4288118133
33.093578 760.73083 852.43433 4294965757
37.689907 760.73083 852.43433 4294967295
-9.1926603 762.13641 853.61951 4286734180
-1.8385321 762.13641 853.61951 4288446579
31.255045 762.13641 853.61951 4294963955
33.706421 762.60498 854.01447 4294966270
36.770641 762.13641 853.61951 4294967295
-3.666055 765.72833 852.724 4287852132
-1.8330275 765.72833 852.724 4288904820
0.91651374 767.1297 853.90552 4289300345
3.666055 767.1297 853.90552 4289891730
34.827522 766.42902 853.31476 4294967295
37.271561 766.1955 853.11786 4294967295
0.9137615 770.70898 852.99951 4289958791
37.464218 770.70898 852.99951 4294967295
0.9137615 772.10614 854.17749 4290090379
32.895412 772.10614 854.17749 4294961147
34.722935 772.10614 854.17749 4294967295
36.550457 772.10614 854.17749 4294967295
-3.6440368 774.27985 852.08618 4288710010
-1.8220184 774.27985 852.08618 4289499269
37.655048 775.2085 852.8692 4294832112
0 778.4826 854.32184 4284630070
32.796329 777.06573 854.43518 4294171115
34.618347 777.06573 854.43518 4293381855
37.294495 778.84344 853.97217 4292065937
-1.812844 782.06055 852.10657 4282789668
39.882568 782.06055 852.10657 4294235877
0 784.1394 853.85944 4283316265
38.069725 784.1394 853.85944 4288381763
0.90366971 788.36682 853.49976 4283448375
37.954128 788.36682 853.49976 4285093675
40.665138 787.67596 852.91724 4291144367
0.90366971 790.82068 853.60669 4283514168
37.050461 789.74854 854.66479 4283845376
40.541283 791.89276 852.54858 4287592821
0.90091741 793.95905 854.29077 4283646523
3.6036696 794.64783 854.87158 4283908411
37.838531 794.64783 854.87158 4282720789
40.541283 793.95905 854.29077 4284763706
43.111927 796.78363 852.74841 4287260554
0.89816517 798.15698 853.90637 4284106560
40.417431 798.15698 853.90637 4282923063
-1.7908257 801.65771 852.93396 4284172601
40.293579 802.34229 853.51117 4282854162
-1.787156 805.12543 853.24188 4284567360
41.104588 805.12543 853.24188 4283840549
42.891743 805.12543 853.24188 4282726701
-4.4596329 808.2323 853.89941 4285092167
-1.787156 807.17487 854.96985 4285092167
40.21101 807.17487 854.96985 4284103210
43.650459 809.28967 852.82898 4285553490
46.322937 809.28967 852.82898 4289698000
-5.344954 810.65173 853.97742 4285289803
43.650459 810.65173 853.97742 4284698179
46.322937 810.65173 853.97742 4289631652
60.576145 810.65173 853.97742 4294964991
-7.9926605 814.79919 853.55029 4285684559
43.811619 815.02545 853.74115 4285617479
46.771866 814.57294 853.35944 4290489010
-10.634862 817.55707 853.25964 4285816660
-8.8623857 818.23462 853.83093 4286079831
47.85688 817.55707 853.25964 4294964479
49.629356 816.87952 852.68835 4294967295
56.719265 817.55707 853.25964 4294899966
-10.634862 819.58966 854.97351 4286144862
-8.8623857 819.58966 854.97351 4286210655
46.896332 820.63654 853.89417 4291804605
49.475231 821.68341 852.81482 4294967295
-10.601835 823.0343 853.95386 4286473570
47.708256 823.0343 853.95386 4294964970
-12.330276 826.47046 852.92712 4286868578
49.321102 826.47046 852.92712 4294967295
5.5651374 751.31018 856.26331 4289893775
7.4201837 751.31018 856.26331 4290025365
9.8935776 752.25568 857.06055 4290748831
13.912844 752.72839 857.45911 4291473319
22.26055 752.72839 857.45911 4292394175
25.043119 752.72839 857.45911 4292197310
27.825687 751.31018 856.26331 4294303455
0 754.92737 855.38916 4288446583
4.6238532 754.92737 855.38916 4289368448
7.3981652 754.92737 855.38916 4290221725
27.74312 754.92737 855.38916 4294105822
0 756.34137 856.58142 4288446331
4.6238532 757.04834 857.17761 4289630341
7.3981652 757.04834 857.17755 4290287003
9.2477064 757.04834 857.17755 4290944933
12.946789 757.75537 857.77368 4291866021
22.194496 757.75537 857.77368 4292460985
24.968807 757.04834 857.17761 4292394947
27.74312 756.34137 856.58142 4292065473
0.92201835 760.65076 856.29089 4289168766
3.6880734 761.35565 856.88525 4289432965
25.816513 761.35565 856.88525 4290619824
28.582569 760.65082 856.29089 4292067526
31.348623 761.35565 856.88525 4294831598
31.255045 764.94757 855.98975 4293712867
33.093578 764.94757 855.98975 4294372344
5.5155964 766.35315 857.17493 4290813594
7.3541284 766.35315 857.17493 4290682778
10.111927 766.35315 857.17493 4290946203
12.869725 766.35315 857.17493 4291735716
29.416513 766.35315 857.17493 4290751653
31.255045 766.35315 857.17493 4292790979
4.2770638 769.46533 855.87494 4290681749
32.07798 769.23175 855.67798 4293449181
34.827522 768.53107 855.08716 4294967295
0.9137615 773.5033 855.35559 4287986284
4.5770645 772.41858 856.40295 4289892998
7.3321099 771.3338 857.45032 4291011225
10.998165 771.3338 857.45032 4292721331
12.831193 771.3338 857.45032 4293181882
29.32844 771.3338 857.45032 4292460720
31.981651 773.5033 855.35559 4294303455
34.722935 773.5033 855.35559 4294961403
1.827523 774.90045 856.53357 4286670674
4.5688076 775.599 857.12262 4285354022
7.310092 776.29761 857.71167 4281671168
10.051376 776.29761 857.71167 4283315222
13.706423 776.29761 857.71167 4287719254
16.447706 776.29761 857.71167 4293045152
20.102753 776.29761 857.71167 4294961369
21.930275 776.29761 857.71167 4294963184
25.585321 776.29761 857.71167 4294500572
28.631195 775.83185 857.31903 4292790461
31.06789 774.90045 856.53357 4293842886
1.8220184 778.45868 855.60974 4282589723
3.6440368 779.15515 856.19696 4282787092
29.152294 779.85168 856.78418 4293118665
31.885321 779.15515 856.19696 4292593866
34.618347 778.45868 855.60974 4289108388
1.8183486 781.98468 855.96667 4283316265
4.5550461 781.24463 857.95874 4283514170
7.2880735 781.24463 857.95874 4283448375
9.1100922 781.24463 857.95874 4283185204
19.131193 781.24463 857.95874 4283451158
21.86422 781.24463 857.95874 4292717747
25.508257 781.24463 857.95874 4294963958
28.241283 781.24463 857.95874 4294697957
31.885321 781.24463 857.95874 4293515735
34.548622 781.98468 855.96667 4288976281
36.366974 781.98468 855.96667 4286736686
4.5458717 784.06989 857.72485 4283514168
31.8211 784.06989 857.72485 4294370016
34.548622 784.06989 857.72485 4288713353
4.5321102 787.60425 856.78088 4283841852
7.2513762 788.99023 857.94946 4284040766
9.0642204 788.99023 857.94946 4284040766
31.72477 788.29724 857.36517 4294964213
34.444038 787.60425 856.78088 4288975505
36.256882 786.21832 855.6123 4284962089
4.5183487 791.13025 855.82983 4283842366
34.339451 791.13025 855.82983 4289369498
37.050461 791.13025 855.82983 4283972893
5.4220185 792.51196 856.99487 4283908411
7.2293577 792.51196 856.99487 4284302406
9.0366974 792.51196 856.99487 4284565321
32.532108 792.51196 856.99487 4294965247
34.339451 792.51196 856.99487 4290815674
36.14679 792.51196 856.99487 4286734419
4.5045872 796.71411 856.61389 4284434751
7.2073393 797.40283 857.19458 4284566343
32.433029 797.40283 857.19458 4291871985
34.234863 796.71411 856.61383 4291605976
36.63731 796.48456 856.42023 4286011231
0.89816517 800.21692 855.64331 4284435773
3.5926607 800.90356 856.22229 4284763970
35.926605 800.90356 856.22229 4289827721
37.722935 800.21692 855.64331 4282327319
39.519264 799.53027 855.06433 4282722048
1.7963303 802.27692 857.38013 4284961864
3.5926607 802.27692 857.38013 4285027408
35.028442 802.27692 857.38013 4291339182
0 805.08044 855.82001 4284895814
35.816513 805.76501 856.39722 4290616719
37.607338 805.08044 855.82001 4282853146
39.398167 804.39587 855.2428 4283049994
64.469727 805.76501 856.39722 4294966271
67.15596 805.76501 856.39722 4294967039
-3.574312 808.5412 856.12195 4285224523
-1.787156 809.22437 856.69794 4285487694
0.89541286 807.13409 857.55151 4285618254
35.816513 807.13409 857.55151 4290289564
37.530273 809.22437 856.69794 4283971635
39.913151 808.99664 856.50592 4284169760
62.550457 808.5412 856.12195 4294966783
-4.4541283 812.01385 855.12598 4285487436
40.977982 812.01385 855.12598 4284566316
42.759632 812.01385 855.12598 4284039216
-4.4541283 814.05701 856.84863 4285947733
-1.7816514 814.05701 856.84863 4286013525
40.384098 814.284 857.04004 4284760632
-7.1045871 817.51489 855.84015 4286145624
-4.4403667 818.19385 856.4126 4286211421
43.515594 817.51489 855.84015 4285419842
46.179817 816.836 855.2677 4288250251
-7.9761467 820.94476 856.11609 4286473570
-4.4403667 819.55176 857.5575 4286473570
-1.7761468 819.55176 857.5575 4286539363
43.469727 820.24829 856.83679 4285486150
46.084404 820.94476 856.11609 4289038718
-10.634862 822.2998 857.25867 4286605413
-7.9651375 823.34247 856.17578 4286604895
44.311928 822.2998 857.25867 4286208295
46.896332 823.34247 856.17578 4292461226
-7.951376 825.73602 856.23181 4286736991
11.163302 749.10706 858.32983 4290684059
13.954128 749.10706 858.32983 4291341991
16.744955 749.10706 858.32983 4292065716
19.53578 749.10706 858.32983 4292656061
22.326605 749.10706 858.32983 4292196278
25.117432 749.10706 858.32983 4292789443
16.744955 750.52942 859.52917 4292263609
19.53578 750.52942 859.52917 4292657085
11.130275 754.85571 859.25281 4290945175
14.222018 754.61932 859.05353 4291603880
16.695414 754.85571 859.25281 4292393655
19.477982 754.85571 859.25281 4292591804
22.26055 754.14661 858.65491 4292460733
5.548624 759.16931 858.96594 4290090638
7.3981652 759.16931 858.96594 4290287768
10.480735 759.64062 859.36328 4291077021
14.179816 759.64062 859.36328 4291866538
16.645872 759.87634 859.56201 4292524469
19.420183 759.87634 859.56201 4293116862
22.194496 759.87634 859.56201 4292789449
24.044037 759.87634 859.56201 4291999933
5.5321102 762.76544 858.07397 4290352281
7.3761468 762.76544 858.07397 4290550676
9.2201834 762.76544 858.07397 4291142813
13.830275 763.47034 858.66833 4291932330
16.596331 764.17523 859.2627 4292656570
20.284403 764.17523 859.2627 4293840580
23.050459 764.17523 859.2627 4293182664
25.816513 763.47034 858.66833 4292527805
28.27523 763.23535 858.47021 4291870138
7.3541284 767.75873 858.35999 4291207325
10.111927 767.75873 858.35999 4291668380
13.788991 767.75873 858.35999 4292195240
16.596331 765.58502 860.45129 4292722365
19.362385 765.58502 860.45129 4293577654
23.050459 765.58502 860.45129 4292986303
25.816513 765.58502 860.45129 4293119421
28.497248 767.75873 858.35999 4292593598
9.1926603 769.16431 859.54517 4292261292
14.708257 769.16431 859.54517 4292919485
16.546789 769.86707 860.13776 4293446340
18.998167 769.63281 859.94025 4293118908
23.288073 769.63281 859.94025 4293184705
25.73945 769.16431 859.54517 4291735727
27.577982 769.16431 859.54517 4291604141
5.4990826 772.73517 858.63196 4288315983
7.3321099 772.73517 858.63196 4290355050
10.081652 772.73517 858.63196 4291341200
13.747706 772.73517 858.63196 4292854203
20.163303 772.73517 858.63196 4293841091
