# .PCD v0.7 - Point Cloud Data file format
VERSION 0.7
FIELDS x y z rgb
SIZE 4 4 4 4
TYPE F F F U
COUNT 1 1 1 1
WIDTH 1155
HEIGHT 1
VIEWPOINT 0 0 0 1 0 0 0
POINTS 1155
DATA ascii
-82.972481 789.61713 1256.1191 4288843904
-80.601837 789.61713 1256.1191 4287856518
-11.853211 789.61713 1256.1191 4290489273
-7.1119266 789.61713 1256.1191 4290752707
-10.626606 797.7583 1256.4435 4290161081
-24.14679 754.38422 1257.8043 4285623926
-21.732111 754.38422 1257.8043 4285558133
-19.31743 754.38422 1257.8043 4285755021
-16.902752 754.38422 1257.8043 4288649914
-13.280734 754.38422 1257.8043 4290029753
-25.35413 756.23022 1259.361 4286410874
-21.732111 756.23022 1259.361 4286412154
-19.31743 756.23022 1259.361 4286478742
-16.902752 756.23022 1259.361 4289044925
-14.488073 756.23022 1259.361 4289766584
-31.271559 764.54956 1259.8354 4288516240
-25.257797 764.54956 1259.8354 4288318361
-21.649542 764.54956 1259.8354 4287791508
-9.5853214 770.99475 1258.7297 4290357942
-7.1889906 770.99475 1258.7297 4290686650
-85.937614 779.23694 1259.1392 4287790464
0 777.41199 1257.6003 4293255157
-83.293579 784.16296 1258.0605 4288513416
-80.913765 784.16296 1258.0605 4287725178
-10.709174 785.07263 1258.8275 4290292157
-7.1394496 785.07263 1258.8275 4290555333
-2.3798165 785.07263 1258.8275 4292530401
-87.71376 791.42944 1257.6473 4288645761
-85.343117 791.42944 1257.6473 4288712069
-82.972481 791.42944 1257.6473 4288646020
-80.601837 791.42944 1257.6473 4287397754
-16.594496 791.42944 1257.6473 4289897904
-14.223853 791.42944 1257.6473 4290160056
-10.667891 791.42944 1257.6473 4290161082
-7.1119266 791.42944 1257.6473 4290425280
-2.3706422 791.42944 1257.6473 4292267745
-78.231194 793.24188 1259.1754 4285226560
-18.965137 793.24188 1259.1754 4287594132
-16.594496 793.24188 1259.1754 4289699507
-14.223853 793.24188 1259.1754 4290095034
-10.667891 793.24188 1259.1754 4290161593
-7.1119266 793.24188 1259.1754 4290688447
-4.7412844 793.24188 1259.1754 4290425028
-2.3706422 793.24188 1259.1754 4292464610
-14.168807 799.56366 1257.9657 4290292147
-10.626606 799.56366 1257.9657 4290292152
-7.0844035 799.56366 1257.9657 4290489537
-4.7229357 799.56366 1257.9657 4290161853
-18.891743 801.36902 1259.4879 4289701293
-16.530275 801.36902 1259.4879 4290161844
-14.168807 801.36902 1259.4879 4290226104
-10.626606 801.36902 1259.4879 4290357691
-7.0844035 801.36902 1259.4879 4290489791
-4.7229357 801.36902 1259.4879 4290161594
-11.678899 823.18689 1259.5718 4290290609
-31.390825 758.07629 1260.9175 4285751662
-28.976147 758.07629 1260.9175 4286017137
-25.35413 758.07629 1260.9175 4285886325
-21.732111 758.07629 1260.9175 4286150272
-19.31743 758.07629 1260.9175 4286414234
-16.902752 758.07629 1260.9175 4288716989
-13.280734 758.07629 1260.9175 4289898686
-33.805504 759.92236 1262.474 4286675583
-31.390825 759.92236 1262.474 4286938498
-28.976147 759.92236 1262.474 4286742148
-25.35413 759.92236 1262.474 4286347904
-21.732111 759.92236 1262.474 4285953148
-19.31743 759.92236 1262.474 4286085770
-16.902752 759.92236 1262.474 4288388524
-13.280734 759.92236 1262.474 4289701822
-33.677063 766.38855 1261.3861 4286870908
-31.271559 766.38855 1261.3861 4288384148
-28.866055 766.38855 1261.3861 4288514450
-25.257797 766.38855 1261.3861 4289039769
-21.649542 766.38855 1261.3861 4290354862
-19.244038 766.38855 1261.3861 4289961621
-16.838531 766.38855 1261.3861 4290422172
-40.893578 768.2276 1262.9366 4287329924
-37.285324 768.2276 1262.9366 4286411377
-33.677063 768.2276 1262.9366 4286277745
-31.271559 768.2276 1262.9366 4288382864
-28.866055 768.2276 1262.9366 4288053899
-25.257797 768.2276 1262.9366 4288317328
-21.649542 768.2276 1262.9366 4289896103
-19.244038 768.2276 1262.9366 4289633419
-16.838531 768.2276 1262.9366 4290554521
-13.230275 768.2276 1262.9366 4290226104
-22.765137 774.65881 1261.8191 4287728027
-19.170643 774.65881 1261.8191 4288120210
-2.3963304 774.65881 1261.8191 4292990189
2.3963304 774.65881 1261.8191 4293057779
-88.324768 782.88696 1262.2168 4288448896
-85.937614 781.97449 1261.4474 4288250244
-22.677982 782.88696 1262.2168 4287464342
-19.097248 782.88696 1262.2168 4287396752
-16.710093 781.97449 1261.4474 4290159797
-14.322936 781.97449 1261.4474 4290160308
-10.742202 781.06195 1260.678 4290292155
-7.161468 781.06195 1260.678 4290489541
-4.774312 782.88696 1262.2168 4290227646
-2.387156 781.06195 1260.678 4292596194
0.79571867 782.27863 1261.7039 4292926193
4.774312 782.88696 1262.2168 4292793578
-88.053207 786.89203 1260.3616 4288711554
-22.608257 788.71143 1261.8956 4287268242
-19.038532 788.71143 1261.8956 4287266184
-16.658716 786.89203 1260.3616 4290028988
-14.278899 786.89203 1260.3616 4290357688
-9.5192661 786.89203 1260.3616 4290292156
-4.7596331 787.80176 1261.1287 4290162366
-2.3798165 786.89203 1260.3616 4292464606
0.7932722 788.10498 1261.3843 4292794355
-78.231194 795.0542 1260.7036 4284439636
-28.447706 796.86664 1262.2317 4288645520
-26.077065 796.86664 1262.2317 4289171864
-22.521101 795.96045 1261.4677 4289369507
-18.965137 795.96045 1261.4677 4289502116
-16.594496 795.96045 1261.4677 4290357168
-14.223853 795.0542 1260.7036 4290226617
-7.1119266 795.0542 1260.7036 4290424509
-4.7412844 795.0542 1260.7036 4290095808
-2.3706422 795.96045 1261.4677 4292201695
-18.891743 803.17438 1261.0101 4289634986
-16.530275 803.17438 1261.0101 4290358453
-14.168807 803.17438 1261.0101 4290357440
-10.626606 803.17438 1261.0101 4290489279
-7.0844035 803.17438 1261.0101 4290555583
-4.7229357 803.17438 1261.0101 4290292410
-2.3614678 803.17438 1261.0101 4291871442
-21.25321 804.97974 1262.5323 4286807430
-18.891743 804.97974 1262.5323 4287725189
-16.530275 804.97974 1262.5323 4290356908
-14.168807 804.97974 1262.5323 4290554049
-10.626606 804.97974 1262.5323 4290554813
-7.0844035 804.97974 1262.5323 4290490041
-4.7229357 804.97974 1262.5323 4290357692
-2.3614678 804.97974 1262.5323 4292002260
-11.761468 813.05078 1262.7975 4289437894
-7.056881 813.05078 1262.7975 4290687168
-4.704587 813.05078 1262.7975 4290359235
-18.744955 819.28833 1261.5167 4288517546
-14.058716 819.28833 1261.5167 4289108390
-10.544037 819.28833 1261.5167 4290489533
-7.0293579 819.28833 1261.5167 4290752196
-4.6862388 819.28833 1261.5167 4290293945
-18.686239 824.9726 1261.0774 4288251294
-16.350458 824.9726 1261.0774 4288448672
-14.014679 824.9726 1261.0774 4288317852
-10.511009 824.9726 1261.0774 4289436078
-7.0073395 824.9726 1261.0774 4290488254
-18.686239 826.7583 1262.583 4289962152
-16.350458 826.7583 1262.583 4290422703
-14.014679 826.7583 1262.583 4290029488
-10.511009 826.7583 1262.583 4289568426
-7.0073395 826.7583 1262.583 4290489273
-4.6715598 826.7583 1262.583 4290094511
-2.3357799 826.7583 1262.583 4291081662
-9.3064222 832.93555 1261.2515 4290883514
-6.9798164 832.93555 1261.2515 4290817720
-4.6532111 832.93555 1261.2515 4289963445
-2.3266056 832.93555 1261.2515 4291279305
-9.3064222 834.71423 1262.7512 4290949309
-6.9798164 834.71423 1262.7512 4290686137
-4.6532111 834.71423 1262.7512 4290226363
-2.3266056 834.71423 1262.7512 4291345100
0 834.71423 1262.7512 4291413205
-37.569725 755.28107 1265.1007 4286080877
-33.933945 754.35449 1264.3196 4285619825
-31.510092 753.42798 1263.5383 4285882746
-29.086239 753.42798 1263.5383 4286738046
-12.119267 753.42798 1263.5383 4290424257
-9.6954126 754.35449 1264.3196 4290227394
-7.2715597 754.35449 1264.3196 4289174706
-4.8477063 754.35449 1264.3196 4286483840
-2.4238532 755.28107 1265.1007 4286614637
1.2119266 755.28107 1265.1007 4287142806
-37.427521 761.76837 1264.0305 4287528829
-33.805504 761.76837 1264.0305 4287792260
-28.976147 761.76837 1264.0305 4288384663
-19.31743 761.76837 1264.0305 4287594647
-16.902752 761.76837 1264.0305 4289502644
-13.280734 761.76837 1264.0305 4290357697
-43.464222 763.61444 1265.587 4286014834
-41.049541 763.61444 1265.587 4287133315
-37.427521 763.61444 1265.587 4286806135
-13.280734 763.61444 1265.587 4290225595
-4.8293576 763.61444 1265.587 4291409347
-2.4146788 763.61444 1265.587 4293448673
4.8293576 763.61444 1265.587 4293123054
-40.893578 770.06665 1264.4873 4287658375
-37.285324 770.06665 1264.4873 4286147692
-33.677063 770.06665 1264.4873 4285551716
-31.271559 770.06665 1264.4873 4288315022
-28.866055 770.06665 1264.4873 4287134346
-25.257797 770.06665 1264.4873 4287331726
-21.649542 770.06665 1264.4873 4288121243
-19.244038 770.06665 1264.4873 4287923846
-16.838531 770.06665 1264.4873 4290095015
-13.230275 770.06665 1264.4873 4290225850
-9.6220188 770.06665 1264.4873 4290357690
-7.2165136 770.06665 1264.4873 4290686655
-4.8110094 770.06665 1264.4873 4290423744
-2.4055047 770.06665 1264.4873 4293121257
-88.664223 776.49084 1263.3638 4288119415
-28.755962 776.49084 1263.3638 4287528854
-26.359632 776.49084 1263.3638 4286541959
-22.765137 776.49084 1263.3638 4287333272
-19.170643 776.49084 1263.3638 4288120210
-16.774311 776.49084 1263.3638 4290225586
-14.377981 776.49084 1263.3638 4290159795
-10.783486 776.49084 1263.3638 4290422971
-7.1889906 776.49084 1263.3638 4290554560
-4.7926607 776.49084 1263.3638 4290227137
-2.3963304 776.49084 1263.3638 4292858601
1.1981652 776.49084 1263.3638 4293057779
-88.664223 778.32281 1264.9086 4288053622
-31.152294 778.32281 1264.9086 4288579473
-28.755962 778.32281 1264.9086 4287332756
-26.359632 778.32281 1264.9086 4286214276
-22.765137 778.32281 1264.9086 4287464856
-19.170643 778.32281 1264.9086 4287988623
-4.7926607 778.32281 1264.9086 4290161853
2.3963304 778.32281 1264.9086 4292992240
4.7926607 778.32281 1264.9086 4292925931
7.1889906 778.32281 1264.9086 4292925931
-28.645872 784.71198 1263.7555 4287268746
-26.258715 784.71198 1263.7555 4285624178
-22.677982 784.71198 1263.7555 4287136913
-19.097248 784.71198 1263.7555 4287463061
2.387156 784.71198 1263.7555 4292860145
4.774312 784.71198 1263.7555 4293122288
7.161468 784.71198 1263.7555 4293122288
-28.645872 786.53699 1265.2943 4287202701
-26.258715 786.53699 1265.2943 4286873736
4.774312 786.53699 1265.2943 4293122288
7.161468 786.53699 1265.2943 4292990702
-88.053207 790.53076 1263.4297 4288579968
-85.673393 790.53076 1263.4297 4288514952
-83.293579 790.53076 1263.4297 4288449159
-80.913765 790.53076 1263.4297 4288318575
-26.177982 790.53076 1263.4297 4287989896
-22.608257 790.53076 1263.4297 4288054417
1.1899083 790.53076 1263.4297 4292991218
4.7596331 790.53076 1263.4297 4293056749
-90.433029 792.35016 1264.9637 4289238162
-88.053207 792.35016 1264.9637 4289501077
-85.673393 792.35016 1264.9637 4290027175
-83.293579 792.35016 1264.9637 4290158762
-80.913765 792.35016 1264.9637 4288058251
-28.557798 792.35016 1264.9637 4288645520
-26.177982 792.35016 1264.9637 4289171864
1.1899083 792.35016 1264.9637 4292991472
4.7596331 792.35016 1264.9637 4293122802
7.1394496 792.35016 1264.9637 4292925679
-28.447706 799.58514 1264.5239 4288186253
-26.077065 799.58514 1264.5239 4288712598
-22.521101 799.58514 1264.5239 4289108898
-2.3706422 798.67896 1263.7599 4292069591
0 800.49133 1265.2881 4292529903
-21.25321 806.7851 1264.0547 4287004043
-18.891743 806.7851 1264.0547 4287659659
-16.530275 806.7851 1264.0547 4289436070
-14.168807 806.7851 1264.0547 4289700537
-10.626606 806.7851 1264.0547 4290555581
-7.0844035 806.7851 1264.0547 4290621109
-4.7229357 806.7851 1264.0547 4290358203
-2.3614678 806.7851 1264.0547 4291871442
-22.433945 808.59045 1265.5769 4287397253
-18.891743 808.59045 1265.5769 4288845466
-16.530275 808.59045 1265.5769 4289042845
-14.168807 808.59045 1265.5769 4288123822
-10.626606 808.59045 1265.5769 4289832889
-7.0844035 808.59045 1265.5769 4290686904
-4.7229357 808.59045 1265.5769 4290424511
-2.3614678 808.59045 1265.5769 4291806164
-21.170643 814.84912 1264.3138 4288711563
-18.818348 814.84912 1264.3138 4287793823
-16.466055 814.84912 1264.3138 4288714925
-14.113762 814.84912 1264.3138 4288583341
-10.585321 814.84912 1264.3138 4289898685
-7.056881 814.84912 1264.3138 4290490305
-4.704587 814.84912 1264.3138 4290162877
-2.3522935 814.84912 1264.3138 4291478481
-82.330276 816.64746 1265.8301 4288909208
-68.216515 816.64746 1265.8301 4284832608
-25.875229 816.64746 1265.8301 4287922313
-22.34679 816.64746 1265.8301 4288712835
-16.466055 816.64746 1265.8301 4288912304
-2.3522935 816.64746 1265.8301 4291675598
-23.431192 821.07971 1263.0272 4287003262
-18.744955 821.07971 1263.0272 4287464090
-16.401834 821.07971 1263.0272 4287595933
-14.058716 821.07971 1263.0272 4288185490
-9.3724775 821.07971 1263.0272 4290291643
-7.0293579 821.07971 1263.0272 4290357692
-4.6862388 821.07971 1263.0272 4289833394
-2.3431194 821.07971 1263.0272 4291477963
-22.259632 822.87103 1264.5376 4288514450
-4.6862388 822.87103 1264.5376 4289963697
-2.3431194 822.87103 1264.5376 4291016385
-25.693579 830.32977 1265.5945 4289368212
-22.189907 830.32977 1265.5945 4290159010
-18.686239 830.32977 1265.5945 4290685621
-16.350458 830.32977 1265.5945 4291277758
-14.014679 829.43689 1264.8416 4290817727
-10.900306 829.13922 1264.5907 4290554553
-7.0073395 828.54401 1264.0887 4290883768
-4.6715598 828.54401 1264.0887 4290226353
-2.3357799 828.54401 1264.0887 4291213249
-46.053211 758.98718 1268.2257 4286342767
-43.629356 758.98718 1268.2257 4286474869
-41.205505 758.06067 1267.4445 4287133568
-37.569725 757.13409 1266.6632 4287001979
-9.6954126 758.98718 1268.2257 4291146688
-7.2715597 758.98718 1268.2257 4291278273
-4.8477063 758.06067 1267.4445 4289768625
-2.4238532 758.06067 1267.4445 4288649888
0.80795103 758.36945 1267.705 4290296004
4.8477063 758.98718 1268.2257 4293385710
7.2715597 758.98718 1268.2257 4293056745
-45.878899 766.38348 1267.9219 4286408307
-43.464222 766.38348 1267.9219 4286474615
-4.8293576 765.46045 1267.1436 4291015104
1.2073394 766.38348 1267.9219 4293320435
4.8293576 766.38348 1267.9219 4292860398
7.2440367 766.38348 1267.9219 4292860398
9.6587152 767.30652 1268.7001 4292399846
-45.704586 773.74469 1267.5885 4286408559
-43.299084 773.74469 1267.5885 4285885045
-40.893578 772.8252 1266.8132 4287199621
-37.285324 772.8252 1266.8132 4286213489
-33.677063 772.8252 1266.8132 4285749610
-31.271559 772.8252 1266.8132 4288710295
-28.866055 771.90564 1266.038 4287397014
-26.46055 771.90564 1266.038 4286607498
-16.838531 771.90564 1266.038 4290159793
-13.230275 771.90564 1266.038 4290226106
-9.6220188 771.90564 1266.038 4290291897
-7.2165136 771.90564 1266.038 4290686655
-4.8110094 771.90564 1266.038 4290292676
4.8110094 772.8252 1266.8132 4292795628
7.2165136 772.8252 1266.8132 4292795628
-34.746788 781.07086 1267.2256 4285095002
-31.152294 781.07086 1267.2256 4287924860
-28.755962 780.15485 1266.4532 4287069584
-26.359632 780.15485 1266.4532 4286148483
7.1889906 780.15485 1266.4532 4292990700
9.5853214 781.98688 1267.9979 4292925157
-28.645872 788.36194 1266.8331 4288055689
7.161468 788.36194 1266.8331 4292990700
9.548624 788.36194 1266.8331 4292990700
26.258715 788.36194 1266.8331 4293057260
-31.033028 790.18695 1268.3719 4288121745
9.548624 790.18695 1268.3719 4293122542
14.322936 790.18695 1268.3719 4292728298
23.871559 790.18695 1268.3719 4292728298
26.258715 790.18695 1268.3719 4292859884
-85.673393 794.16956 1266.4978 4290422715
-83.293579 794.16956 1266.4978 4290422715
-80.913765 794.16956 1266.4978 4289766543
-30.937614 794.16956 1266.4978 4288449170
1.1899083 794.16956 1266.4978 4293057009
4.7596331 794.16956 1266.4978 4293253877
7.1394496 794.16956 1266.4978 4293056497
28.557798 794.16956 1266.4978 4292729579
-85.673393 795.98895 1268.0319 4291871190
-83.293579 795.98895 1268.0319 4291410639
-30.937614 795.98895 1268.0319 4288317841
1.1899083 795.98895 1268.0319 4292859121
4.7596331 795.98895 1268.0319 4292794093
7.1394496 795.98895 1268.0319 4292662251
26.177982 795.98895 1268.0319 4292795376
28.557798 795.98895 1268.0319 4292860397
-28.447706 802.30371 1266.8162 4286281599
-26.077065 802.30371 1266.8162 4286742150
-23.706423 802.30371 1266.8162 4286807430
1.1853211 802.30371 1266.8162 4292529134
-71.119263 804.11609 1268.3444 4285487459
-67.563309 804.11609 1268.3444 4285093470
-64.007339 804.11609 1268.3444 4284830812
-30.818348 804.11609 1268.3444 4287069083
-28.447706 804.11609 1268.3444 4286281868
-26.077065 804.11609 1268.3444 4286545039
-23.706423 804.11609 1268.3444 4286872201
1.1853211 804.11609 1268.3444 4292594926
4.7412844 804.11609 1268.3444 4292596194
-82.651375 812.20117 1268.6213 4289700552
-70.84404 811.29846 1267.8602 4285225570
-68.482567 811.29846 1267.8602 4285093984
-63.759632 811.29846 1267.8602 4284766043
-61.398167 810.39581 1267.0991 4284962396
-59.036697 810.39581 1267.0991 4285028189
-30.699083 811.29846 1267.8602 4287723659
-28.337614 811.29846 1267.8602 4287593858
-25.976147 811.29846 1267.8602 4287857030
-22.827522 810.99756 1267.6066 4288119689
-18.891743 810.39581 1267.0991 4288582546
-16.530275 810.39581 1267.0991 4289437855
-14.168807 810.39581 1267.0991 4288648634
-9.4458714 810.39581 1267.0991 4290029238
-2.3614678 810.39581 1267.0991 4291609301
1.1807339 812.20117 1268.6213 4291938269
-68.216515 818.44586 1267.3464 4285094234
-30.579817 818.44586 1267.3464 4286737523
-28.227524 818.44586 1267.3464 4286607737
-25.875229 818.44586 1267.3464 4287265666
-21.170643 818.44586 1267.3464 4287595399
-30.579817 820.2442 1268.8628 4287857024
-28.227524 820.2442 1268.8628 4288448657
-25.875229 820.2442 1268.8628 4288843415
-25.774311 824.66235 1266.048 4289436065
-22.259632 824.66235 1266.048 4289764773
-30.46055 826.45374 1267.5583 4289434519
-28.117432 826.45374 1267.5583 4289237396
-25.774311 826.45374 1267.5583 4289632154
-22.259632 826.45374 1267.5583 4290092455
-18.744955 826.45374 1267.5583 4290553258
-16.401834 826.45374 1267.5583 4290881967
-37.372478 832.11548 1267.1001 4286869875
-35.036697 832.11548 1267.1001 4286672752
-30.365137 832.11548 1267.1001 4287528300
-25.693579 832.11548 1267.1001 4288119426
-23.357798 832.11548 1267.1001 4289173620
-16.350458 832.11548 1267.1001 4291935422
-14.014679 832.11548 1267.1001 4291605967
-11.678899 832.11548 1267.1001 4291211209
-48.697247 753.78827 1271.6902 4285488490
-46.262386 753.78827 1271.6902 4286278006
-43.827522 753.78827 1271.6902 4286344564
-9.7394495 753.78827 1271.6902 4291014854
-7.3045874 753.78827 1271.6902 4290685889
2.4348624 753.78827 1271.6902 4290957520
4.8697248 753.78827 1271.6902 4293385199
7.3045874 753.78827 1271.6902 4293319406
9.7394495 753.78827 1271.6902 4292990700
13.391743 753.78827 1271.6902 4292990700
-48.477066 760.84021 1269.7881 4285946726
-46.053211 760.84021 1269.7881 4286538863
-9.6954126 760.84021 1269.7881 4290358205
-7.2715597 760.84021 1269.7881 4290752707
1.2119266 760.84021 1269.7881 4293254892
7.2715597 760.84021 1269.7881 4293123054
9.6954126 760.84021 1269.7881 4292794093
12.119267 760.84021 1269.7881 4292794093
-48.477066 762.6933 1271.3506 4285618793
9.6954126 762.6933 1271.3506 4292728300
12.119267 762.6933 1271.3506 4292728300
-48.293579 770.9986 1271.8132 4285816421
-45.878899 769.15259 1270.2567 4286408559
-43.464222 769.15259 1270.2567 4286408822
9.6587152 770.07556 1271.0349 4292795110
12.073395 770.07556 1271.0349 4292729061
-45.704586 775.58368 1269.1392 4286278256
-43.299084 775.58368 1269.1392 4286408820
-40.893578 775.58368 1269.1392 4287527557
-37.285324 775.58368 1269.1392 4286082162
-33.677063 775.58368 1269.1392 4285355872
9.6220188 775.58368 1269.1392 4292925929
12.027523 775.58368 1269.1392 4292860136
-45.704586 777.42273 1270.6898 4286342767
-43.299084 777.42273 1270.6898 4286277491
-40.893578 777.42273 1270.6898 4287593350
-38.488075 777.42273 1270.6898 4287200391
9.6220188 777.42273 1270.6898 4292925159
12.027523 777.42273 1270.6898 4292925159
-34.746788 784.73486 1270.3149 4287133560
-31.152294 784.73486 1270.3149 4288120707
11.182874 784.4295 1270.0575 4292925418
14.377981 784.73486 1270.3149 4292859628
23.963303 785.65088 1271.0874 4292860138
26.359632 783.81885 1269.5426 4292859884
-90.711929 792.92444 1270.6802 4290621624
-88.324768 792.92444 1270.6802 4290950332
-81.1633 793.83698 1271.4495 4289438634
-78.776146 792.92444 1270.6802 4284503631
-33.420185 792.92444 1270.6802 4287725704
10.742201 792.92444 1270.6802 4292925937
14.322936 792.92444 1270.6802 4292729324
23.075842 793.2287 1270.9365 4292926705
26.258715 792.01196 1269.9108 4292926192
-85.673393 797.80835 1269.5659 4292332256
-83.293579 797.80835 1269.5659 4291411155
-80.913765 797.80835 1269.5659 4289634483
-73.774315 797.80835 1269.5659 4285094238
-71.394493 797.80835 1269.5659 4285355872
-30.937614 797.80835 1269.5659 4287661194
2.3798165 797.80835 1269.5659 4293122041
4.7596331 797.80835 1269.5659 4292925161
7.1394496 797.80835 1269.5659 4292727783
9.5192661 797.80835 1269.5659 4292728300
26.177982 797.80835 1269.5659 4292925677
-85.673393 799.62775 1271.1001 4292530153
-83.293579 799.62775 1271.1001 4291214293
-80.913765 799.62775 1271.1001 4289306546
-73.774315 799.62775 1271.1001 4285487709
-70.20459 799.62775 1271.1001 4285355872
-33.317432 799.62775 1271.1001 4285622140
-30.937614 799.62775 1271.1001 4286543242
4.7596331 799.62775 1271.1001 4292661989
7.1394496 799.62775 1271.1001 4292661989
9.5192661 799.62775 1271.1001 4292465128
23.798164 799.62775 1271.1001 4292990702
26.177982 799.62775 1271.1001 4293056495
-71.119263 805.92847 1269.8724 4285291363
-67.563309 805.92847 1269.8724 4285159776
-64.007339 805.92847 1269.8724 4284962396
-61.636696 805.92847 1269.8724 4284962396
-59.266056 805.92847 1269.8724 4285028189
-33.188992 805.92847 1269.8724 4285490298
-30.818348 805.92847 1269.8724 4286082691
-28.447706 805.92847 1269.8724 4285690234
-26.077065 805.92847 1269.8724 4286216578
1.1853211 805.92847 1269.8724 4292266214
4.7412844 805.92847 1269.8724 4292333027
7.1119266 805.92847 1269.8724 4292596198
-85.343117 807.74084 1271.4006 4292596196
-82.972481 807.74084 1271.4006 4291148750
-73.489906 807.74084 1271.4006 4285488490
-66.377983 807.74084 1271.4006 4285028189
-56.895412 807.74084 1271.4006 4285355870
-37.930275 807.74084 1271.4006 4286474102
-34.374313 807.74084 1271.4006 4286408314
1.1853211 807.74084 1271.4006 4292069857
4.7412844 807.74084 1271.4006 4292464358
7.1119266 807.74084 1271.4006 4292793580
9.4825687 807.74084 1271.4006 4292464356
-80.289909 815.81189 1271.6658 4288975519
-77.928444 815.81189 1271.6658 4285949041
-73.205505 815.81189 1271.6658 4284765016
-70.84404 814.90918 1270.9047 4284700249
-66.121101 814.90918 1270.9047 4285028189
-63.759632 814.90918 1270.9047 4285028189
-61.398167 814.90918 1270.9047 4285159511
-59.036697 814.90918 1270.9047 4285225304
-37.783485 815.81189 1271.6658 4286935416
-34.241287 814.90918 1270.9047 4287000439
-30.699083 814.00653 1270.1436 4287000698
-28.337614 814.00653 1270.1436 4287133053
1.1807339 814.90924 1270.9047 4292070367
4.7229357 815.81189 1271.6658 4292464610
-35.284405 823.84088 1271.8954 4288579979
-32.14801 822.64203 1270.8846 4288646032
-28.227524 822.04254 1270.3792 4288909721
1.1761467 822.94171 1271.1373 4291741407
-35.14679 828.245 1269.0688 4287527296
-31.632111 828.245 1269.0688 4288249215
-28.117432 829.14069 1269.824 4288118914
-21.088074 830.03638 1270.5792 4289831807
-18.744955 830.03638 1270.5792 4290685356
1.5620795 828.8421 1269.5723 4292071135
-52.349541 755.64972 1273.2598 4285553751
-48.697247 755.64972 1273.2598 4285816423
9.7394495 755.64972 1273.2598 4292924909
13.391743 755.64972 1273.2598 4292859629
17.044037 755.64972 1273.2598 4293188851
19.478899 755.64972 1273.2598 4292793326
-52.349541 757.51123 1274.8293 4285487709
14.609175 757.51123 1274.8293 4292859886
17.044037 757.51123 1274.8293 4292925679
19.478899 757.51123 1274.8293 4292924907
-48.477066 764.54633 1272.913 4285619045
12.119267 764.54633 1272.913 4292597482
19.390825 764.54633 1272.913 4292661991
-48.477066 766.39941 1274.4755 4285685092
14.543119 766.39941 1274.4755 4292728298
19.390825 766.39941 1274.4755 4292924907
-48.293579 772.8446 1273.3698 4285686118
14.488073 772.8446 1273.3698 4292727533
19.31743 772.8446 1273.3698 4292990700
-48.293579 774.69067 1274.9263 4285684838
14.488073 774.69067 1274.9263 4292793580
16.902752 774.69067 1274.9263 4293122288
19.31743 774.69067 1274.9263 4292990700
21.732111 774.69067 1274.9263 4292990700
25.35413 774.69067 1274.9263 4293056747
28.976147 774.69067 1274.9263 4292990952
-45.704586 779.26178 1272.2404 4286146419
-43.299084 779.26178 1272.2404 4286408822
-40.893578 779.26178 1272.2404 4287593352
-38.488075 779.26178 1272.2404 4287330946
13.230275 779.26178 1272.2404 4292991210
25.257797 779.26178 1272.2404 4292990954
-45.704586 781.10083 1273.791 4285885045
-43.299084 781.10083 1273.791 4286082680
-40.893578 781.10083 1273.791 4287003782
-38.488075 781.10083 1273.791 4287330946
16.838531 781.10083 1273.791 4293057008
19.244038 781.10083 1273.791 4292597480
24.055046 781.10083 1273.791 4292596711
-40.737614 787.48291 1272.6321 4286936188
-38.341286 787.48291 1272.6321 4287330946
-34.746788 787.48291 1272.6321 4287528582
11.981651 787.48291 1272.6321 4293188336
16.774311 787.48291 1272.6321 4292859884
19.170643 787.48291 1272.6321 4292793578
21.566973 787.48291 1272.6321 4292990700
-43.133945 789.31494 1274.1768 4286278006
-40.737614 789.31494 1274.1768 4286870143
-38.341286 789.31494 1274.1768 4287003008
-35.944954 789.31494 1274.1768 4287529352
16.774311 789.31494 1274.1768 4292992240
19.170643 789.31494 1274.1768 4292926444
21.566973 789.31494 1274.1768 4292992238
-90.711929 795.66199 1272.9883 4291937489
-88.324768 796.57446 1273.7577 4292266456
-78.776146 796.57446 1273.7577 4284305763
-76.388992 796.57446 1273.7577 4284632915
-34.613762 796.57446 1273.7577 4286674045
11.93578 796.57446 1273.7577 4292925679
14.322936 796.57446 1273.7577 4292729065
16.710093 797.48694 1274.5271 4292794602
19.097248 796.57446 1273.7577 4292991465
22.280123 796.27032 1273.5012 4293123052
-85.673393 802.35681 1273.4011 4292595949
-83.293579 802.35681 1273.4011 4291280089
-76.154129 801.44714 1272.6342 4284566357
-73.774315 802.35681 1273.4011 4285487971
-40.456882 803.26648 1274.1682 4286476404
-38.077065 802.35681 1273.4011 4286344316
-34.903976 802.05353 1273.1455 4285884028
7.1394496 801.44714 1272.6342 4292662243
10.709173 802.35681 1273.4011 4292595945
14.278899 802.35681 1273.4011 4292662248
22.608257 801.44714 1272.6342 4292924908
26.177982 801.44714 1272.6342 4293254131
-85.343117 809.55322 1272.9287 4290161103
-73.489906 809.55322 1272.9287 4284898651
-66.377983 809.55322 1272.9287 4284635484
-61.636696 809.55322 1272.9287 4284831062
-59.266056 809.55322 1272.9287 4284962648
-37.930275 809.55322 1272.9287 4287197048
-34.374313 809.55322 1272.9287 4287920515
4.7412844 809.55322 1272.9287 4292333027
7.1119266 809.55322 1272.9287 4292267234
9.4825687 809.55322 1272.9287 4292135393
-79.416519 811.3656 1274.4569 4287265657
-75.86055 811.3656 1274.4569 4285029736
-73.489906 811.3656 1274.4569 4284766563
-56.895412 811.3656 1274.4569 4285355870
-47.412846 811.3656 1274.4569 4285948010
-42.671558 811.3656 1274.4569 4286737523
-40.300919 811.3656 1274.4569 4287198074
-37.930275 811.3656 1274.4569 4287328377
4.7412844 811.3656 1274.4569 4292333281
7.1119266 811.3656 1274.4569 4292267232
9.4825687 811.3656 1274.4569 4292332259
-70.84404 817.61731 1273.188 4284568646
-67.301834 817.61731 1273.188 4285028691
-63.759632 817.61731 1273.188 4285028441
-37.783485 817.61731 1273.188 4287462012
-34.241287 817.61731 1273.188 4287791233
1.1807339 817.61731 1273.188 4291872737
4.7229357 817.61731 1273.188 4292530403
-37.783485 819.42261 1274.7102 4287397506
-35.42202 819.42261 1274.7102 4288055437
4.7229357 819.42261 1274.7102 4292399333
-37.636696 825.63922 1273.4117 4287066745
-56.001835 759.37268 1276.3989 4285290077
-52.349541 760.30334 1277.1836 4285421661
14.609175 760.30341 1277.1836 4292859884
17.044037 760.30341 1277.1836 4292925677
19.478899 759.37268 1276.3989 4292990954
21.913761 760.30341 1277.1836 4293122542
24.348623 761.23413 1277.9684 4292793326
-50.900917 769.17896 1276.8191 4285816673
14.543119 768.25244 1276.038 4292596711
16.966972 769.17896 1276.8191 4292859629
19.390825 768.25244 1276.038 4292924907
21.814678 769.17896 1276.8191 4292924907
25.450459 770.10547 1277.6003 4292991216
-48.293579 776.53674 1276.4828 4285488490
16.902752 776.53674 1276.4828 4293188849
19.31743 776.53674 1276.4828 4292794091
21.732111 776.53674 1276.4828 4292794091
-45.704586 782.93982 1275.3417 4286278258
-43.299084 782.93982 1275.3417 4286344051
-40.893578 782.93982 1275.3417 4287265153
-38.488075 782.93982 1275.3417 4287527805
16.838531 782.93982 1275.3417 4293188336
19.244038 782.93982 1275.3417 4292925929
21.649542 782.93982 1275.3417 4293123308
-45.704586 784.77881 1276.8922 4286409074
-43.299084 784.77881 1276.8922 4286146415
-76.682571 791.14691 1275.7214 4284304717
-40.737614 791.14691 1275.7214 4286936188
-38.341286 791.14691 1275.7214 4286609789
-35.944954 791.14691 1275.7214 4287136134
16.774311 791.14691 1275.7214 4292926704
19.170643 791.14691 1275.7214 4292795628
-43.133945 792.97894 1277.2662 4286409844
-40.737614 792.97894 1277.2662 4287067517
-38.341286 792.97894 1277.2662 4287003262
-35.944954 792.97894 1277.2662 4287266434
16.774311 792.97894 1277.2662 4292992236
-88.324768 799.31195 1276.0659 4292727516
-81.1633 799.31195 1276.0659 4289240499
-78.776146 799.31195 1276.0659 4284174694
-42.968807 799.31195 1276.0659 4286410355
-40.58165 799.31195 1276.0659 4286410355
16.710093 799.31195 1276.0659 4292925677
19.097248 799.31195 1276.0659 4292924907
-88.324768 801.13696 1277.6047 4292333790
-81.1633 801.13696 1277.6047 4289175228
-78.776146 801.13696 1277.6047 4284240497
-76.388992 801.13696 1277.6047 4284238672
-57.291744 801.13696 1277.6047 4285094238
-54.904587 801.13696 1277.6047 4285094238
-50.130276 801.13696 1277.6047 4285684838
-46.549541 801.13696 1277.6047 4285949041
-42.968807 801.13696 1277.6047 4286410355
16.710093 801.13696 1277.6047 4292793578
19.097248 801.13696 1277.6047 4292662505
22.677982 801.13696 1277.6047 4292661993
26.258715 801.13696 1277.6047 4292990702
-88.053207 805.08594 1275.7023 4292660704
-80.913765 806.90527 1277.2363 4286809758
-76.154129 805.99561 1276.4692 4285028960
-57.115597 806.90527 1277.2363 4285421663
-54.735779 805.99561 1276.4692 4285487713
-46.803059 806.29883 1276.725 4286013804
-42.836697 805.99561 1276.4692 4286475119
-40.456882 805.99561 1276.4692 4286738291
11.899082 805.99561 1276.4692 4292530406
14.278899 805.99561 1276.4692 4292530150
16.658716 806.90527 1277.2363 4292530149
-75.86055 813.17798 1275.9851 4285225567
-61.636696 814.99036 1277.5132 4285158998
-59.266056 814.99036 1277.5132 4285356120
-55.710091 814.08411 1276.7491 4285487456
-46.227524 814.08417 1276.7491 4286276975
-42.671558 814.08417 1276.7491 4286540662
-40.300919 814.08417 1276.7491 4287264385
7.1119266 814.08417 1276.7491 4292333281
10.272783 814.38623 1277.0038 4292200930
-40.144955 821.22803 1276.2325 4287263615
-37.783485 821.22803 1276.2325 4287724670
4.7229357 821.22803 1276.2325 4292399587
7.0844035 821.22803 1276.2325 4292267745
-40.144955 823.03333 1277.7548 4286935420
4.7229357 823.03333 1277.7548 4292399846
7.0844035 823.03333 1277.7548 4292202724
-58.656879 754.737 1279.0303 4285028441
-56.212845 754.737 1279.0303 4285028441
21.99633 754.737 1279.0303 4292924907
24.440367 754.737 1279.0303 4292727533
-58.656879 756.60547 1280.6058 4285290077
24.440367 756.60547 1280.6058 4292793326
-51.132111 763.09564 1279.538 4285619295
17.044037 763.09564 1279.538 4292859884
21.913761 763.09564 1279.538 4293188336
24.348623 763.09564 1279.538 4292859632
-50.900917 772.88513 1279.9441 4285619044
-48.293579 778.38275 1278.0393 4285095785
21.732111 778.38275 1278.0393 4292663273
-48.293579 780.22882 1279.5958 4285685864
-57.732109 786.61786 1278.4429 4285094238
-55.326607 787.53735 1279.2183 4285028445
-48.110092 786.61786 1278.4429 4285816423
-45.704586 787.53735 1279.2183 4286474354
-43.299084 788.45691 1279.9935 4286344051
-91.060547 794.81097 1278.8109 4291937749
-58.710091 794.81097 1278.8109 4284897373
-55.115597 794.81097 1278.8109 4285094238
-45.530273 794.81097 1278.8109 4286278006
-43.133945 794.81097 1278.8109 4286344051
-40.737614 794.81097 1278.8109 4286475637
-38.341286 794.81097 1278.8109 4286475898
-62.304588 796.64294 1280.3556 4284830810
-58.710091 796.64294 1280.3556 4285027677
-55.115597 796.64294 1280.3556 4285224800
-52.719265 796.64294 1280.3556 4285225313
-50.322937 796.64294 1280.3556 4285685864
-46.728439 796.64294 1280.3556 4286080879
-81.1633 802.96198 1279.1434 4289306546
-78.776146 802.96198 1279.1434 4284701036
-52.517429 802.96198 1279.1434 4285421414
-50.130276 802.96198 1279.1434 4285816171
-45.355965 802.96198 1279.1434 4286474102
16.710093 802.96198 1279.1434 4292793580
19.097248 802.96198 1279.1434 4292661991
22.677982 802.96198 1279.1434 4292596455
26.258715 802.96198 1279.1434 4293057262
-78.776146 804.78699 1280.6823 4284901761
-52.517429 804.78699 1280.6823 4285619045
-50.130276 804.78699 1280.6823 4285684838
19.097248 804.78699 1280.6823 4292267747
22.677982 804.78699 1280.6823 4292268260
26.258715 804.78699 1280.6823 4292597482
-54.735779 808.72467 1278.7704 4285421663
-52.355965 808.72467 1278.7704 4285487459
-49.976147 808.72467 1278.7704 4285684838
-45.216515 808.72467 1278.7704 4286540147
11.899082 808.72467 1278.7704 4292924396
14.278899 808.72467 1278.7704 4292596196
16.658716 808.72467 1278.7704 4292530403
19.038532 808.72467 1278.7704 4292530149
21.418348 808.72467 1278.7704 4292793578
-52.355965 810.54407 1280.3044 4285553250
-49.976147 810.54407 1280.3044 4285948008
11.899082 810.54407 1280.3044 4292529636
14.278899 810.54407 1280.3044 4292463843
16.658716 810.54407 1280.3044 4292529636
-66.377983 816.80273 1279.0414 4285487457
-64.007339 816.80273 1279.0414 4285487457
-61.636696 816.80273 1279.0414 4285618525
-59.266056 816.80273 1279.0414 4285684318
-46.227524 816.80273 1279.0414 4286211180
-42.671558 817.70892 1279.8054 4286671991
-40.300919 816.80273 1279.0414 4287329922
7.1119266 816.80273 1279.0414 4292201954
10.667891 817.70898 1279.8054 4292135643
14.223853 818.61511 1280.5696 4292267234
16.594496 818.61511 1280.5696 4292267234
18.965137 818.61511 1280.5696 4292267747
-58.656879 758.474 1282.1813 4285290077
-56.212845 758.474 1282.1813 4285290077
26.884403 758.474 1282.1813 4292793326
-56.212845 760.34247 1283.7567 4285158494
-53.768806 760.34247 1283.7567 4285092951
26.884403 760.34247 1283.7567 4292859632
29.32844 760.34247 1283.7567 4292794091
25.566055 764.95709 1281.1075 4292663023
-56.001835 766.8186 1282.6771 4285355870
-53.566971 766.8186 1282.6771 4285421663
-50.900917 775.66467 1282.2877 4285685092
-55.748623 777.5177 1283.8501 4285225567
-53.324772 777.5177 1283.8501 4285553502
-50.900917 777.5177 1283.8501 4285619295
-53.122936 782.07483 1281.1523 4285422947
-49.500916 782.07483 1281.1523 4285620326
-53.122936 783.9209 1282.709 4285421665
-50.708256 783.9209 1282.709 4285619045
-60.137615 790.2959 1281.5442 4284962396
-57.732109 790.2959 1281.5442 4284962396
-55.326607 790.2959 1281.5442 4285028189
-52.921101 790.2959 1281.5442 4285289827
-49.312843 790.2959 1281.5442 4285619560
-45.704586 790.2959 1281.5442 4286278258
-52.921101 792.13495 1283.0947 4285225313
-49.312843 792.13495 1283.0947 4285685867
-52.719265 798.47498 1281.9003 4285289823
23.871559 806.61194 1282.2211 4292400100
26.258715 806.61194 1282.2211 4292597480
19.097248 808.43701 1283.7599 4292464356
22.677982 808.43701 1283.7599 4292464613
26.258715 808.43701 1283.7599 4292596711
-52.355965 812.36346 1281.8385 4285815908
-49.976147 812.36346 1281.8385 4286144873
14.278899 812.36346 1281.8385 4292463843
16.658716 812.36346 1281.8385 4292463843
19.038532 812.36346 1281.8385 4292333540
21.418348 812.36346 1281.8385 4292333540
-57.115597 814.18286 1283.3726 4285750115
-54.735779 814.18286 1283.3726 4285684322
-52.355965 814.18286 1283.3726 4285947746
-49.976147 814.18286 1283.3726 4286210918
14.278899 814.18286 1283.3726 4292267747
16.658716 814.18286 1283.3726 4292267747
19.038532 814.18286 1283.3726 4292333540
21.418348 814.18286 1283.3726 4292333540
-42.671558 820.42749 1282.0977 4286672248
10.667891 820.42749 1282.0977 4292202206
16.594496 820.42749 1282.0977 4292333027
22.521101 820.42749 1282.0977 4292201442
26.077065 820.42749 1282.0977 4292464358
4.7412844 822.23987 1283.6259 4292399846
7.1119266 822.23987 1283.6259 4292202724
9.4825687 822.23987 1283.6259 4292267999
22.521101 822.23987 1283.6259 4292399334
26.077065 822.23987 1283.6259 4292399335
-61.330276 753.83832 1284.8127 4285027421
26.985321 753.83832 1284.8127 4292727533
-53.768806 762.21094 1285.3322 4285487961
-56.001835 769.61078 1285.0314 4285290078
-53.566971 769.61078 1285.0314 4285421664
-53.122936 785.76697 1284.2655 4285158494
-49.500916 785.76697 1284.2655 4285619045
-91.409172 793.974 1284.6454 4292332758
-91.409172 795.81299 1286.196 4292333790
23.871559 811.17444 1286.0681 4292464356
26.258715 811.17444 1286.0681 4292661992
-58.305504 816.91193 1285.6737 4285947236
-54.735779 816.00226 1284.9066 4285749348
-52.355965 816.91199 1285.6736 4286145898
-49.976147 816.91199 1285.6736 4286277484
-46.406422 816.91193 1285.6737 4286474609
14.278899 817.82166 1286.4407 4292333027
19.038532 817.82166 1286.4407 4292267747
22.608257 816.00226 1284.9066 4292333283
26.177982 816.00226 1284.9066 4292793578
4.7412844 824.05225 1285.1539 4292070884
22.521101 824.05225 1285.1539 4292268261
26.077065 824.05225 1285.1539 4292202726
23.706423 825.86462 1286.6821 4292136679
26.077065 825.86462 1286.6821 4292136679
-58.877064 757.58936 1287.9755 4285158494
-56.001835 772.40302 1287.3857 4285225567
-53.566971 772.40302 1287.3857 4285553250
-60.596329 783.0769 1288.5375 4285028189
-58.172478 783.0769 1288.5375 4285028189
-64.453209 813.91199 1288.3762 4285487459
-62.066055 814.82446 1289.1456 4285618269
-54.904587 815.73694 1289.915 4286276459
-58.305504 819.64099 1287.9747 4286278758
-52.355965 819.64099 1287.9747 4286344049
-49.976147 819.64099 1287.9747 4286409842
-46.406422 819.64099 1287.9747 4286344049
-42.836697 819.64099 1287.9747 4286540914
-40.456882 819.64099 1287.9747 4286738294
11.899082 820.55072 1288.7417 4292268000
14.278899 820.55072 1288.7417 4292333283
16.658716 820.55072 1288.7417 4292464613
19.038532 820.55072 1288.7417 4292136674
23.706423 827.677 1288.2102 4292136679
-62.066055 817.56201 1291.4539 4286016092
-54.904587 817.56201 1291.4539 4286410094
-62.066055 819.38696 1292.9927 4286413691
-58.485321 819.38696 1292.9927 4285754478
-54.904587 819.38696 1292.9927 4285753708
19.038532 823.27979 1291.0428 4292202724
21.418348 823.27979 1291.0428 4292399846
21.418348 825.09918 1292.5769 4292334055
26.177982 825.09918 1292.5769 4292333801
28.557798 825.09918 1292.5769 4292399846
-59.097248 757.66003 1294.5752 4285289821
-56.634861 756.71875 1293.7816 4285421150
16.710093 821.21198 1294.5314 4292465126
23.798164 826.91858 1294.111 4292202472
26.177982 826.91858 1294.111 4292202472
28.557798 826.91858 1294.111 4292202724
30.937614 826.91858 1294.111 4292202724
28.557798 828.73798 1295.645 4292136931
30.937614 828.73798 1295.645 4292334053
-62.304588 818.62714 1298.8921 4286611586
-55.115597 818.62714 1298.8921 4285688435
-52.719265 817.71118 1298.1198 4285555055
-50.322937 816.79517 1297.3474 4285424746
-47.926605 816.79517 1297.3474 4285751662
7.1889906 816.79517 1297.3474 4292202726
9.5853214 816.79517 1297.3474 4292333794
14.377981 818.62714 1298.8921 4292333540
19.097248 823.03699 1296.0702 4292136677
21.484404 824.862 1297.609 4292464876
-62.304588 820.45917 1300.4368 4286418846
23.871559 826.68701 1299.1478 4292202726
26.258715 826.68701 1299.1478 4292334055
-50.515594 816.04236 1303.2528 4285816951
12.027523 816.04236 1303.2528 4292267999
16.838531 817.88135 1304.8035 4292136931
21.566973 824.12317 1303.5262 4292136679
-45.878899 811.61151 1306.057 4285488490
-60.137615 819.7204 1306.354 4286676889
19.244038 819.7204 1306.354 4292201704
26.359632 825.9552 1305.0709 4292531435
28.755962 825.9552 1305.0709 4292334051
-55.537613 815.30359 1309.17 4286083193
24.055046 823.39844 1309.4553 4292136677
-53.324772 812.72583 1313.5366 4286278258
-49.688992 811.79932 1312.7554 4286014833
14.543119 812.72583 1313.5366 4292334053
-60.366974 818.99573 1312.2831 4288649143
-57.952293 818.99573 1312.2831 4287859880
19.31743 818.99573 1312.2831 4291939043
21.732111 820.84174 1313.8396 4292070886
28.866055 825.23749 1311.006 4292004575
-55.748623 814.57886 1315.0991 4285689478
16.966972 814.57886 1315.0991 4292005088
26.561468 823.61078 1316.1746 4292201954
28.976147 824.53381 1316.9528 4292071138
9.7394495 807.771 1317.207 4292267999
19.390825 818.28497 1318.224 4292070886
-60.596329 820.13806 1319.7865 4290425554
-58.172478 820.13806 1319.7865 4290031048
21.814678 820.13806 1319.7865 4292267749
24.238533 820.13806 1319.7865 4292267747
26.561468 826.37988 1318.5093 4292267749
-53.566971 811.4939 1320.3462 4285688685
-56.001835 813.35541 1321.9156 4286280847
17.044037 813.35541 1321.9156 4292136931
-58.172478 821.99109 1321.3489 4290491851
21.814678 821.99109 1321.3489 4292399333
24.238533 821.99109 1321.3489 4292201954
24.238533 823.84412 1322.9114 4291938784
26.561468 828.22589 1320.0658 4292464358
4.9064221 802.60132 1325.9285 4292400098
7.359633 802.60132 1325.9285 4292334305
-51.324772 808.9231 1324.7186 4286083443
-48.880733 807.05463 1323.1432 4286278006
13.442202 807.98889 1323.9309 4292268004
-60.871559 815.21686 1323.4852 4289307076
-58.436699 815.21686 1323.4852 4288452284
17.044037 815.21686 1323.4852 4292465639
-56.001835 817.07837 1325.0548 4289109946
17.044037 817.07837 1325.0548 4292201700
19.478899 817.07837 1325.0548 4292135907
21.814678 825.6972 1324.4739 4292398050
24.238533 825.6972 1324.4739 4292267236
19.31743 833.76404 1324.7354 4286082201
-34.473396 796.25153 1327.1146 4287264871
-44.322937 798.13403 1328.7019 4285488490
-46.611008 804.47681 1327.5099 4286146419
9.8128443 804.47681 1327.5099 4291872989
-56.212845 812.6601 1327.8696 4286938789
-52.546791 811.72583 1327.0819 4286084233
14.66422 811.72583 1327.0819 4292136931
-56.001835 818.93982 1326.6244 4289373371
-53.566971 818.93982 1326.6244 4288913335
17.044037 818.93982 1326.6244 4292267234
19.478899 818.93982 1326.6244 4292201954
-58.436699 820.80127 1328.1938 4291544290
-56.001835 820.80127 1328.1938 4290557394
-52.349541 820.80127 1328.1938 4289504191
-48.697247 820.80127 1328.1938 4288517546
19.478899 820.80127 1328.1938 4292201440
21.913761 820.80127 1328.1938 4292135647
21.814678 827.55023 1326.0363 4292922847
24.238533 827.55023 1326.0363 4292465380
19.390825 829.40332 1327.5988 4291215788
21.814678 829.40332 1327.5988 4291807668
-46.78532 800.01654 1330.2892 4285554285
-44.322937 800.01654 1330.2892 4285685615
-40.629356 800.01654 1330.2892 4285554281
-44.322937 801.89905 1331.8765 4286014836
-40.629356 801.89905 1331.8765 4286015088
4.9247708 801.89905 1331.8765 4292201954
7.387156 801.89905 1331.8765 4292201954
-49.06422 806.35229 1329.0912 4286410105
12.266055 806.35229 1329.0912 4292596709
-49.06422 808.22784 1330.6726 4286214261
12.266055 808.22784 1330.6726 4292333027
-52.546791 814.52856 1329.4451 4287073697
-48.880733 814.52856 1329.4451 4286152328
14.66422 814.52856 1329.4451 4292201700
-51.324772 816.39709 1331.0205 4287531682
-48.880733 816.39709 1331.0205 4286939543
-46.436699 816.39709 1331.0205 4286413199
-43.992661 816.39709 1331.0205 4286018178
14.66422 816.39709 1331.0205 4292201440
-56.001835 822.66278 1329.7634 4291149534
-53.566971 822.66278 1329.7634 4290687947
14.609175 824.52423 1331.333 4291470526
17.044037 823.59351 1330.5482 4292591833
19.478899 823.59351 1330.5482 4292528862
16.966972 833.10944 1330.7236 4289177307
9.6587152 839.30219 1329.405 4292267234
0 841.14819 1330.9615 4290100174
-42.016514 795.54224 1333.0566 4285751662
-39.544952 795.54224 1333.0566 4285488992
-37.073395 796.487 1333.8533 4285554530
-34.601833 796.487 1333.8533 4285227117
-32.130276 796.487 1333.8533 4285358446
-29.658716 797.43176 1334.6499 4285424494
-7.4146791 797.43176 1334.6499 4291541176
-4.943119 796.487 1333.8533 4290490040
-2.4715595 796.487 1333.8533 4291016384
1.2357798 795.54224 1333.0566 4291872989
-46.78532 803.78162 1333.4637 4286147190
-44.322937 803.78162 1333.4637 4286278008
-40.629356 803.78162 1333.4637 4286278005
9.8495417 803.78162 1333.4637 4292333794
-49.06422 810.10333 1332.2539 4285821048
-46.611008 811.04108 1333.0447 4285822334
-44.157799 811.04108 1333.0447 4286280314
-40.477982 811.97882 1333.8353 4286477179
12.266055 811.04108 1333.0447 4292201441
-46.436699 818.26556 1332.5959 4287464857
-43.992661 818.26556 1332.5959 4286807691
-41.548622 818.26556 1332.5959 4286610569
14.66422 818.26556 1332.5959 4292463843
17.108257 818.26556 1332.5959 4292398050
-51.324772 820.13403 1334.1714 4289701052
-48.880733 820.13403 1334.1714 4288977847
-46.436699 820.13403 1334.1714 4288122538
-43.992661 820.13403 1334.1714 4287333790
-41.548622 820.13403 1334.1714 4286807189
13.442202 820.13403 1334.1714 4292792548
14.609175 826.38568 1332.9026 4287662750
17.044037 826.38568 1332.9026 4289110196
9.7394495 828.24719 1334.472 4280634188
13.391743 828.24719 1334.472 4282475373
17.044037 828.24719 1334.472 4284316301
4.8477063 836.81555 1333.8485 4288777370
7.2715597 836.81555 1333.8485 4292330449
9.6954126 834.96246 1332.2861 4291874006
12.119267 834.96246 1332.2861 4292071386
-37.073395 799.32129 1336.243 4286015340
-34.601833 799.32129 1336.243 4285819251
-32.130276 799.32129 1336.243 4285885045
-28.422935 799.32129 1336.243 4285885045
-24.715597 799.32129 1336.243 4286016633
-9.8862381 799.32129 1336.243 4286673532
-7.4146791 799.32129 1336.243 4288910494
-4.943119 799.32129 1336.243 4290225070
-2.4715595 799.32129 1336.243 4291672516
-37.073395 801.21082 1337.8363 4286278258
-34.601833 801.21082 1337.8363 4285885045
-32.130276 801.21082 1337.8363 4285885045
-28.422935 801.21082 1337.8363 4286212213
-24.715597 801.21082 1337.8363 4286016631
-22.244038 801.21082 1337.8363 4286082680
-19.772476 801.21082 1337.8363 4286016381
-17.300917 801.21082 1337.8363 4285950588
-13.593578 801.21082 1337.8363 4285819002
-9.8862381 801.21082 1337.8363 4285885297
-7.4146791 801.21082 1337.8363 4288056465
-4.943119 801.21082 1337.8363 4288253104
-2.4715595 801.21082 1337.8363 4291542754
4.943119 801.21082 1337.8363 4292267234
7.4146791 801.21082 1337.8363 4292596198
-46.78532 805.66412 1335.051 4286214261
-44.322937 805.66412 1335.051 4286410105
-40.629356 805.66412 1335.051 4286344053
-29.548624 805.66412 1335.051 4286212465
9.8495417 805.66412 1335.051 4292267234
-40.629356 807.54663 1336.6384 4286345081
-36.93578 807.54663 1336.6384 4286278519
-34.473396 807.54663 1336.6384 4286344312
-32.011009 807.54663 1336.6384 4286410105
-28.317432 807.54663 1336.6384 4286410357
-24.623854 807.54663 1336.6384 4286476150
-40.069111 814.47949 1335.9438 4286412163
9.8128443 814.79211 1336.2074 4292266722
12.266055 814.79211 1336.2074 4292332514
-56.212845 822.00256 1335.7468 4291873771
-52.13945 822.62531 1336.272 4291149523
-48.880733 822.93677 1336.5345 4290820295
-46.436699 822.93677 1336.5345 4289833144
-43.992661 822.93677 1336.5345 4289242034
-41.548622 823.87103 1337.3223 4288386209
7.3321099 823.87103 1337.3223 4283649143
9.7761469 822.93677 1336.5345 4286146441
12.220183 822.93677 1336.5345 4287922853
4.8697248 830.10864 1336.0416 4287528841
7.3045874 830.10864 1336.0416 4287463048
9.7394495 830.10864 1336.0416 4286281597
13.391743 830.10864 1336.0416 4286347671
-4.8697248 831.97009 1337.6112 4283388007
-2.4348624 831.97009 1337.6112 4282861663
4.8697248 831.97009 1337.6112 4290286236
7.3045874 831.97009 1337.6112 4293246922
-28.135778 793.06464 1338.8158 4285489255
-24.825687 794.32996 1339.8827 4285292653
-22.343119 794.32996 1339.8827 4285029738
-19.86055 794.32996 1339.8827 4285618795
-17.377981 794.32996 1339.8827 4287197570
-13.654128 794.32996 1339.8827 4289304452
-9.930275 793.38098 1339.0825 4290949045
-7.4477062 792.43201 1338.2825 4291211711
1.2412844 794.32996 1339.8827 4292004577
-37.073395 803.10034 1339.4294 4286344051
-34.601833 803.10034 1339.4294 4286409844
-32.130276 803.10034 1339.4294 4286278258
-27.187157 803.10034 1339.4294 4286344051
-24.715597 803.10034 1339.4294 4286410357
-22.244038 803.10034 1339.4294 4286410357
