# .PCD v0.7 - Point Cloud Data file format
VERSION 0.7
FIELDS x y z rgb
SIZE 4 4 4 4
TYPE F F F U
COUNT 1 1 1 1
WIDTH 1169
HEIGHT 1
VIEWPOINT 0 0 0 1 0 0 0
POINTS 1169
DATA ascii
5.2293577 754.79651 779.41309 4293450199
8.1345568 754.35229 779.03857 4294966520
10.458715 753.46387 778.28943 4294967295
13.073395 753.46387 778.28943 4294967295
15.688073 753.46387 778.28943 4294967295
31.376146 753.46387 778.28943 4294966783
33.990826 753.46387 778.28943 4294966527
37.767586 753.90802 778.664 4294966527
40.091743 754.79651 779.41309 4294966271
15.638532 757.13013 777.45667 4294967295
29.53945 757.13013 777.45667 4294966527
31.277063 757.13013 777.45667 4294967039
33.883484 757.13013 777.45667 4294966783
37.069118 758.01581 778.20343 4294966527
0.86880732 759.78699 779.6969 4289368212
39.965137 759.78699 779.6969 4294966271
1.1547401 764.31915 779.59424 4289368729
4.1548624 763.48108 778.36438 4290026123
7.494801 764.02655 777.60345 4290748840
15.555964 764.98376 777.53845 4293119699
32.840366 764.98376 777.53845 4294967295
34.605503 763.54797 777.63593 4294966783
37.240368 762.77429 778.29163 4294966271
39.838531 764.76062 779.96643 4294965759
0.8642202 767.62659 779.76685 4289236631
4.6091747 767.1861 779.39545 4290551704
6.9137616 766.96588 779.20972 4290683043
34.568806 766.30518 778.65259 4294966783
37.449543 766.74561 779.02399 4294834173
40.618347 767.62659 779.76685 4294899710
8.6146793 769.93915 777.7926 4291472812
32.735779 769.93915 777.7926 4294966527
34.458717 769.93915 777.7926 4294966271
36.181652 769.93915 777.7926 4294965503
5.1688075 771.25635 778.90332 4290748582
7.753211 771.25635 778.90332 4291012256
10.315597 772.79529 777.58484 4291210416
12.034863 772.79529 777.58484 4292065725
32.666054 772.79529 777.58484 4294966015
34.385323 772.79529 777.58484 4294965503
37.043121 771.25635 778.90332 4294899452
39.627522 771.25635 778.90332 4294965757
0.85963303 775.42407 779.80139 4289236878
4.2981653 775.42407 779.80139 4290418849
7.7366972 774.76685 779.24725 4290816160
36.964218 774.10968 778.69312 4294965502
40.402752 775.42407 779.80139 4294966015
5.1412845 779.03424 778.92114 4290748582
7.7119265 778.37915 778.36884 4290750369
35.988991 777.72406 777.81653 4294967295
37.702751 777.72406 777.81653 4294965759
39.416515 779.03424 778.92114 4294966271
7.9804282 781.43628 778.33057 4290947493
11.115597 781.21838 778.14679 4291605430
13.680734 780.5647 777.59558 4292130753
16.245872 780.5647 777.59558 4292658118
22.231194 780.5647 777.59558 4293251549
32.491745 780.5647 777.59558 4294966783
35.056881 780.5647 777.59558 4294965503
37.622017 781.21838 778.14679 4294966271
39.332111 781.87207 778.698 4294967295
-1.7100917 783.17944 779.80029 4288448646
0 783.17944 779.80029 4288579968
7.6816511 784.32312 778.80261 4291012778
11.079817 785.4668 777.80493 4291801522
13.636697 785.4668 777.80493 4291999680
16.193579 785.4668 777.80493 4292526790
19.602753 785.4668 777.80493 4293053392
23.011927 785.4668 777.80493 4293580250
25.568808 785.4668 777.80493 4294107359
28.125687 785.4668 777.80493 4294373109
31.534863 785.4668 777.80493 4294967295
34.944038 785.4668 777.80493 4294966527
37.622017 783.17944 779.80029 4294967295
39.332111 783.17944 779.80029 4294967295
0 786.76996 778.90369 4288646009
5.1137614 786.76996 778.90369 4290355875
7.6706419 786.76996 778.90369 4291012778
11.079817 786.76996 778.90369 4291605165
13.60734 788.29205 777.57104 4291868349
16.158716 788.29205 777.57104 4292460741
19.560551 788.29205 777.57104 4293185234
22.962385 788.29205 777.57104 4293580505
25.513762 788.29205 777.57104 4294501863
28.065138 788.29205 777.57104 4292269530
31.501835 787.53101 778.23737 4294375420
34.944038 786.76996 778.90369 4294967295
37.500916 786.76996 778.90369 4294967295
5.1027522 790.24261 779.2157 4290420902
7.3706422 790.02588 779.03296 4290814880
11.055964 789.59241 778.66748 4291211184
16.158716 789.59241 778.66748 4292460742
19.560551 789.59241 778.66748 4292856781
22.962385 789.59241 778.66748 4293646551
28.065138 789.59241 778.66748 4284313969
31.750458 790.02588 779.03296 4286747249
34.58532 790.45929 779.39844 4293716475
37.420185 790.89282 779.76392 4294967295
5.0862384 794.46368 778.85059 4290289568
7.9119263 794.03156 778.48633 4290749092
11.020184 793.16748 777.75769 4291407796
13.563303 793.16748 777.75769 4291867579
19.497248 793.16748 777.75769 4292921805
22.888073 793.16748 777.75769 4293908955
25.431192 793.16748 777.75769 4294962930
28.256882 793.59955 778.12201 4283123788
31.082571 794.03156 778.48633 4278202880
4.2385321 795.75983 779.94348 4289763225
7.612844 797.27069 778.60144 4290879916
10.99633 796.62402 778.05615 4291407795
13.533945 795.97736 777.51086 4291867831
15.225688 795.97736 777.51086 4292394175
20.300917 795.97736 777.51086 4293119181
22.838531 795.97736 777.51086 4293843162
25.376146 795.97736 777.51086 4294962414
27.631805 796.8396 778.23798 4287991689
31.332111 796.51526 779.27246 4279055117
33.908257 795.75983 779.94348 4286140065
5.0752292 798.56403 779.69189 4289961119
7.612844 798.56403 779.69189 4290682789
10.96055 800.82611 777.67517 4291079346
13.489908 800.82611 777.67517 4291605426
15.176147 800.82611 777.67517 4292197564
19.391743 800.82611 777.67517 4292921287
22.764221 800.82611 777.67517 4293251541
26.136696 800.82611 777.67517 4294174185
28.666056 800.82611 777.67517 4289503907
31.297249 798.56403 779.69189 4293574501
33.834862 798.56403 779.69189 4294967295
5.0587158 802.75989 779.3056 4290026660
7.3070335 802.54498 779.12445 4290617247
10.96055 802.1153 778.76208 4291472823
13.46055 803.62054 777.41528 4291671221
15.984404 803.62054 777.41528 4292197308
19.349541 803.62054 777.41528 4292790215
22.71468 803.62054 777.41528 4293251541
26.109175 802.86792 778.08868 4294567917
28.666056 802.1153 778.76208 4293844451
31.476454 802.54498 779.12445 4294967271
34.56789 803.40442 779.84912 4294967295
7.8519874 805.76447 779.22296 4290815401
10.936697 804.90686 778.49988 4291275696
13.46055 804.90686 778.49988 4291736761
26.921101 804.90686 778.49988 4294632683
28.60367 804.90686 778.49988 4294967295
30.286238 804.90686 778.49988 4294967295
34.492661 806.19324 779.58447 4294967295
8.3853207 809.72479 778.63806 4290553256
10.900917 809.08374 778.09753 4291144619
13.416513 809.08374 778.09753 4291801529
16.21162 808.87006 777.9173 4292328895
19.28624 808.44269 777.55701 4292659141
22.640366 808.44269 777.55701 4292989136
25.994495 808.44269 777.55701 4293910242
28.510092 808.44269 777.55701 4294967295
31.305199 808.87006 777.9173 4294967295
34.379814 809.72479 778.63806 4294967295
5.0311928 811.00696 779.71912 4290223010
7.5467887 811.00696 779.71912 4290749088
10.877064 812.50092 778.36292 4291340976
13.387156 812.50092 778.36292 4291801522
15.61835 812.07446 778.00336 4292262330
19.244038 811.86127 777.82355 4292658628
22.590824 811.86127 777.82349 4292988367
25.937614 811.86127 777.82355 4293581788
28.447706 811.86127 777.82355 4294967295
30.6789 812.07446 778.00336 4294967295
34.304588 812.50092 778.36292 4294967295
37.733944 811.00696 779.71912 4294967295
40.249542 811.00696 779.71912 4294967295
8.3669729 813.78027 779.44153 4291077283
10.877064 813.78027 779.44153 4291405999
13.387156 813.78027 779.44153 4291735729
15.897248 813.78027 779.44153 4292196791
19.244038 813.78027 779.44153 4292723909
22.590824 813.78027 779.44153 4292922319
25.937614 813.78027 779.44153 4293384411
28.447706 813.78027 779.44153 4294966014
30.957798 813.78027 779.44153 4294967295
34.304588 813.78027 779.44153 4294967295
36.814678 813.78027 779.44153 4294967295
23.350458 818.56732 779.55383 4293054671
25.852295 818.56732 779.55383 4293449946
28.354128 818.56732 779.55383 4294964216
31.133947 818.14227 779.1955 4294966527
34.191742 818.56732 779.55383 4294966271
36.693577 818.56732 779.55383 4294965759
-7.5932717 749.12091 781.16779 4282725154
1.7522936 748.22784 780.41467 4294897407
43.807339 748.22784 780.41467 4294966783
46.485321 748.78821 782.19525 4294964733
45.559631 750.9071 782.67383 4294964990
-7.6858711 754.57617 781.84338 4286539097
1.746789 753.24072 780.71741 4289238693
3.493578 753.24072 780.71741 4291147444
41.922935 753.24072 780.71741 4294966271
43.669724 753.24072 780.71741 4294966527
45.416515 755.2439 782.40637 4294964733
-7.8440366 758.79437 782.78406 4286868330
-4.5321097 757.19531 781.43567 4287789425
-1.7431192 756.79547 781.09857 4288710775
0.87155962 756.12915 780.53674 4289368466
4.3577981 756.12915 780.53674 4289698965
41.399082 757.12866 781.37946 4294899966
43.577984 757.46173 781.6604 4294965246
-3.4752293 761.11542 780.81702 4287396458
-1.7376146 761.11542 780.81702 4288580731
0 761.11542 780.81702 4289170579
39.965137 761.11542 780.81702 4294966271
-6.9504585 762.44385 781.93701 4286869611
-4.3440366 762.44385 781.93701 4287396207
-1.7376146 762.44385 781.93701 4288778113
41.702751 762.44385 781.93701 4294966015
43.440369 762.44385 781.93701 4294966271
-6.9284406 767.40906 782.19946 4286868076
-4.3302751 766.74695 781.64124 4287592820
-1.7321101 766.08484 781.08301 4288646272
43.302753 766.74695 781.64124 4294966271
-4.3211012 769.6087 781.43805 4287526510
-1.7284404 769.6087 781.43805 4288579964
0.8642202 768.948 780.88098 4289302165
3.4568808 768.948 780.88098 4289893273
41.482571 768.948 780.88098 4294966527
43.21101 770.26941 781.99512 4294966527
-4.0201836 773.45166 780.75433 4287461231
-1.7229358 773.89075 781.12451 4288776575
0.8614679 772.57355 780.01392 4289433490
4.3073397 772.57355 780.01392 4290484127
6.8917432 772.57355 780.01392 4290618781
40.488991 772.57355 780.01392 4294966527
43.073395 773.89075 781.12451 4294966271
-6.8917432 775.20795 782.23523 4287064426
-4.3036699 775.97321 781.57245 4287986292
-1.7192661 776.73846 780.90967 4288711036
0.85963303 776.73846 780.90967 4289171085
3.4385321 776.73846 780.90967 4289959322
41.262386 776.73846 780.90967 4294966271
43.073395 775.20795 782.23523 4294966271
-4.2981653 778.05286 782.01782 4287855217
3.4385321 778.05286 782.01782 4289893527
42.981651 778.05286 782.01782 4294966271
-4.2844038 782.30969 781.68298 4287592561
-1.7137614 780.34442 780.02588 4288579966
1.1425077 780.78119 780.3941 4289237899
4.5700307 781.21783 780.76239 4290223263
41.130276 780.99951 780.57825 4294966783
43.700916 782.30969 781.68298 4294966527
-3.4201834 785.1405 781.45386 4287658363
-1.7100917 784.48682 780.90271 4288973968
1.7100917 784.48682 780.90271 4289435525
3.4201834 784.48682 780.90271 4289500566
40.187157 785.1405 781.45386 4294967295
42.752293 785.1405 781.45386 4294966527
-1.7045871 788.07312 780.00244 4288777099
0.85229355 788.07312 780.00244 4288974976
3.4091742 788.07312 780.00244 4289631384
35.796329 788.07312 780.00244 4294967295
37.500916 788.07312 780.00244 4294967295
-1.7045871 790.67944 782.20007 4287922815
0.5681957 790.24506 781.8338 4288711550
3.4091742 789.37628 781.10132 4289697179
40.0578 790.02783 781.65076 4294967295
43.182873 790.24506 781.8338 4294967295
0.85045874 793.49353 781.95679 4288712320
3.401835 792.19318 780.86035 4289631382
35.152294 792.62665 781.22583 4288133799
37.420185 792.84338 781.40857 4294967295
39.971558 793.49353 781.95679 4294967295
3.3908257 797.05597 781.03638 4289368726
35.603668 797.05597 781.03638 4294967295
37.299084 797.05597 781.03638 4294967295
0.84587157 799.10474 781.45587 4288777093
3.3834863 799.85742 780.78247 4289368730
34.680733 799.85742 780.78247 4294967295
38.106422 799.10474 781.45587 4294967295
40.689907 798.35211 782.12927 4294967295
43.233028 798.35211 782.12927 4294967295
0.84587157 801.15076 781.87292 4288710784
3.3834863 801.15076 781.87292 4289039765
38.346176 801.58185 782.23651 4294967295
40.601833 801.79742 782.41821 4294967295
42.857494 802.013 782.59991 4294967295
-1.6862385 805.98273 782.02307 4288185219
1.124159 805.12329 781.29834 4289105024
4.2155962 804.69354 780.93604 4289828766
37.940369 805.33813 781.47955 4294967295
40.469727 805.98273 782.02307 4294967295
42.999084 805.98273 782.02307 4294966783
-1.6825688 808.76587 781.75366 4288382082
0.56085628 808.3371 781.39209 4288776062
3.9259939 807.90826 781.03058 4289827996
6.7302752 807.47955 780.66907 4290289828
37.016514 807.47955 780.66907 4294967295
42.905502 808.76587 781.75366 4294967295
-3.3651376 810.05225 782.83826 4287264117
-1.6825688 810.05225 782.83826 4288119426
0.83853209 812.28906 780.80017 4288908166
4.1926603 812.28906 780.80017 4290156179
6.7082567 812.28906 780.80017 4290682526
38.572475 812.28906 780.80017 4294967295
41.088074 812.28906 780.80017 4294967295
43.746788 810.05225 782.83826 4294967295
-3.3541284 814.85333 782.9624 4287592569
-1.6770642 813.57123 781.88123 4287987327
1.1180428 813.9986 782.24164 4289039498
4.1926603 813.57123 781.88123 4290090640
7.5376148 814.31543 781.20074 4290879139
10.877064 815.05957 780.52026 4291405999
13.387156 815.05957 780.52026 4291735729
15.897248 815.05957 780.52026 4292328376
19.244038 815.05957 780.52026 4292723908
22.590824 815.05957 780.52026 4293119442
25.937614 815.05957 780.52026 4293449948
28.447706 815.05957 780.52026 4294964729
30.121101 815.05957 780.52026 4294967295
34.304588 815.05957 780.52026 4294967295
37.651375 815.05957 780.52026 4294967295
41.338226 814.49469 781.7879 4294967039
43.603668 814.21228 782.42181 4294967039
-3.3467889 817.61823 782.67761 4287658362
-1.6733944 816.97858 782.13831 4288184706
0.55779815 817.19183 782.31805 4288513918
4.183486 816.97858 782.13831 4289894043
7.5302753 816.97858 782.13831 4290879643
10.877064 816.97858 782.13831 4291406256
13.387156 816.97858 782.13831 4291539120
16.176147 816.76538 781.9585 4292328633
19.244038 816.33893 781.599 4292723653
21.754128 816.33893 781.599 4293184724
38.488075 816.97858 782.13831 4294966527
40.719265 817.19183 782.31805 4294966527
43.508255 817.61823 782.67761 4294966783
0 821.11755 781.7041 4288184956
15.011009 819.84247 780.62891 4292394429
19.458715 820.26752 780.9873 4292789448
22.516514 820.47998 781.1665 4293053646
25.852295 820.48004 781.1665 4293318359
28.354128 820.47998 781.1665 4294897910
30.577982 820.26752 780.9873 4294965758
34.191742 820.48004 781.1665 4294966015
37.249542 820.69257 781.3457 4294965503
10.5474 822.5293 781.15039 4291275179
14.145872 822.5976 780.33594 4292064949
16.642202 822.5976 780.33594 4292328633
19.138531 823.23376 780.87231 4292920518
22.466972 823.86987 781.40869 4293052875
25.824772 823.13129 782.09399 4293514968
29.123852 823.86987 781.40869 4294898423
31.620184 823.23376 780.87231 4294967039
34.155045 823.13129 782.09399 4294966783
37.527523 822.3927 782.7793 4294965247
40.029358 822.3927 782.7793 4294965503
29.955963 825.14221 782.48145 4294701304
31.620184 825.14221 782.48145 4294966783
34.079819 825.87939 781.79504 4294966783
-10.53578 749.35132 783.97815 4285880922
47.411011 749.35132 783.97815 4294964733
49.166973 749.35132 783.97815 4294964733
51.082569 747.0177 785.93457 4294964990
-12.291743 750.69379 785.11011 4286012256
-10.53578 750.69379 785.11011 4286144862
-8.7614679 752.24677 783.80334 4286407777
47.311928 752.24677 783.80334 4294964733
49.166973 750.69379 785.11011 4294899453
-12.266055 753.58643 784.93286 4286078049
-10.513762 753.58643 784.93286 4286078812
47.311928 753.58643 784.93286 4294964990
49.06422 753.58643 784.93286 4294964733
-13.100918 757.24707 784.09534 4285946715
-10.480734 757.24707 784.09534 4286274912
46.289909 757.91479 784.65839 4294898940
48.910091 758.58246 785.22144 4294899192
-16.269114 761.01544 784.65674 4285421658
-13.073395 760.79333 784.46948 4285815129
-10.458715 760.12701 783.90771 4286078562
-8.7155962 760.12701 783.90771 4286999664
45.902142 761.01544 784.65674 4294899453
48.807339 761.45966 785.03125 4294965498
-10.425688 763.77222 783.05713 4286011738
-7.8192658 763.77222 783.05713 4286934379
-5.2128439 763.77222 783.05713 4287330676
-12.163302 765.76489 784.7373 4285946461
-10.425688 765.76489 784.7373 4286407008
-8.6880732 765.76489 784.7373 4286801766
46.046791 765.76489 784.7373 4294966783
48.65321 766.42908 785.29736 4294967039
-10.39266 770.0575 784.43262 4286340958
-7.7944956 769.39539 783.87433 4286801765
45.900917 769.39539 783.87433 4294966783
-10.39266 771.38165 785.54919 4286078299
-7.7779818 772.25153 783.66644 4286670695
44.939449 772.25153 783.66644 4294966271
46.766972 771.38165 785.54919 4294966015
48.499084 771.38165 785.54919 4294965759
-7.7669725 775.37939 784.34174 4286998886
44.796329 776.52515 783.34583 4294966015
46.667889 774.23358 785.33765 4294965759
-8.0354738 778.78973 784.38312 4286801509
-5.1577983 779.36725 783.1261 4287789167
44.700916 779.36725 783.1261 4294966527
46.519264 778.50098 785.01172 4294966271
-7.7366972 781.33887 784.78851 4286736225
48.13945 781.99603 785.34265 4294967295
-6.8550458 784.27496 783.34009 4286539363
-4.5700307 785.14844 784.07648 4287526262
44.557796 784.27496 783.34009 4294966271
47.128441 784.93005 783.8924 4294967039
-4.2807341 787.6521 784.87958 4287461495
-1.7100917 787.10156 783.10742 4288184706
1.7100917 787.10156 783.10742 4289435273
44.462387 787.10156 783.10742 4294967039
46.77676 787.46857 784.28888 4294967295
-3.4201834 789.71637 785.31213 4287396471
-1.7045871 791.98267 783.29883 4288054401
43.466972 791.98267 783.29883 4294967295
46.953209 790.84949 784.30548 4294967295
-3.97737 794.1546 785.13019 4287199084
-1.7045871 793.28583 784.39771 4287988858
0.85045874 794.79388 783.05322 4288712322
39.971558 794.79388 783.05322 4294967295
43.373394 794.79388 783.05322 4294967295
46.876144 793.28583 784.39771 4294967039
49.433029 794.58899 785.49646 4294967295
-4.2522936 797.39459 785.24609 4287460720
-1.7009175 796.09424 784.14966 4288251516
47.058716 796.52765 784.51514 4294967295
-1.6954129 800.29639 783.76862 4288316292
44.080734 799.64832 783.22217 4294967295
45.776146 800.29639 783.76862 4294967295
-6.7816515 802.2406 785.40796 4286408797
-4.2293577 803.73743 784.05396 4287264112
46.57431 802.98901 784.73096 4294967039
-6.7669725 805.03082 785.14453 4286409061
-6.7449541 809.20557 784.74048 4286473829
-4.4966359 807.7016 783.47235 4287329650
46.090519 808.56104 784.19696 4294967039
-6.7302752 812.62494 785.00745 4286539356
-4.4868503 811.76733 784.28436 4287592052
45.429359 811.98175 784.46515 4294967039
-6.7082567 817.4176 785.12451 4286539356
-4.4660549 817.97687 783.85205 4287460717
-1.6733944 818.89758 783.75635 4288118911
1.6733944 818.89758 783.75635 4289106058
4.183486 818.89758 783.75635 4289959582
7.5302753 818.89758 783.75635 4290814879
40.998165 818.89758 783.75635 4294966015
43.508255 818.89758 783.75635 4294966271
45.839756 816.99023 784.76416 4294966527
-4.183486 820.81653 785.37427 4287394922
-1.6733944 820.81653 785.37433 4288250485
0.83669722 820.81653 785.37427 4288973193
3.9045868 820.60333 785.19452 4289696666
7.5302753 820.17688 784.83496 4290814373
41.834862 820.81653 785.37433 4294966783
43.508255 820.81653 785.37433 4294966271
45.181652 820.17688 784.83496 4294967295
-4.1697249 824.94293 784.92957 4287460456
-1.66789 824.94293 784.92957 4288513141
0 824.94293 784.92957 4288578430
37.527523 823.66779 783.85437 4294965503
40.029358 824.30536 784.39197 4294965246
38.277065 826.41449 783.5542 4294965247
-3.3284404 828.95911 785.69983 4287788908
-14.091743 748.36438 787.07007 4285748827
51.963303 749.03772 787.63776 4294833405
50.922935 752.03625 786.24194 4294964733
47.311928 754.92603 786.0625 4294964990
49.993576 754.15234 786.7182 4294899451
50.816513 756.26569 787.19202 4294965242
52.568806 756.93555 787.75677 4294899453
54.321102 757.60535 788.32153 4294965503
50.656879 759.91791 786.34741 4294965755
52.403671 761.25336 787.47339 4294965759
-19.21468 762.58875 788.59937 4285355861
-16.568808 763.07458 787.04694 4285355860
-13.944954 763.45862 786.71674 4285749082
47.06422 762.7923 786.15491 4294967295
49.969418 763.23651 786.52948 4294966270
52.403671 762.58875 788.59937 4294965247
54.150459 762.58875 788.59937 4294965759
57.644035 762.58875 788.59937 4294966527
-19.174313 765.45752 788.40222 4285552470
-16.559633 765.45752 788.40222 4285552470
-13.03211 767.75751 786.41736 4285880666
49.522018 767.75751 786.41736 4294966527
52.293579 765.45752 788.40222 4294965247
-13.03211 769.75012 788.09753 4286078038
50.390827 769.75012 788.09753 4294966271
52.128441 770.41437 788.65759 4294965759
-10.39266 772.70587 786.66565 4286209117
48.499084 772.70587 786.66565 4294965759
-12.124771 774.6922 788.34052 4286011993
-10.370643 776.2157 787.00897 4286077532
49.313763 775.45392 787.67474 4294966783
-12.099083 778.19781 788.68018 4285946713
50.124771 778.19781 788.68018 4294967295
-10.337615 781.13538 787.23303 4286209117
49.965137 781.79395 787.78833 4294967295
-10.326606 784.52515 788.7832 4286077531
-7.9086242 784.36194 787.33752 4286670183
49.858715 784.62482 787.5592 4294967295
51.633026 784.52515 788.7832 4294966527
-6.8550458 788.20551 786.65417 4286605413
-5.1412845 788.20551 786.65417 4287592308
49.699081 788.20551 786.65417 4294967295
-10.282569 790.82587 788.86365 4286077531
-7.9975533 789.95239 788.12714 4286604388
-5.1302752 791.02374 786.41443 4287526514
49.592659 791.02374 786.41443 4294967039
52.269726 790.17078 788.31128 4294966015
54.840366 790.82587 788.86365 4294966527
-7.6954126 792.9848 788.06793 4286605153
52.157799 792.9848 788.06793 4294966015
54.722935 793.63849 788.61914 4294966527
-7.3865438 796.76093 787.32782 4286539614
49.433029 795.89215 786.59521 4294967039
51.137615 796.5437 787.14465 4294966271
-11.079817 798.49847 788.79285 4285946713
-8.5045872 799.99536 787.43896 4286670435
-4.2522936 798.69501 786.34253 4287460977
47.625687 798.69501 786.34253 4294967295
49.326607 799.34521 786.89075 4294967039
51.137615 798.49847 788.79285 4294967295
-10.205504 801.29572 788.5354 4286012506
-8.4770641 803.53674 786.50085 4286736229
47.471561 803.53674 786.50085 4294967295
49.326607 801.29572 788.5354 4294967295
-8.4587154 806.32416 786.23499 4286735715
47.368809 806.32416 786.23499 4294966783
50.014679 805.48096 788.1402 4294967295
-8.4587154 807.61749 787.32556 4286735965
49.060551 808.26416 787.87079 4294967295
-8.4311924 811.78381 786.91443 4286669919
47.21468 811.13928 786.37097 4294966783
48.900917 812.42841 787.45789 4294967295
-10.117432 813.71759 788.54492 4286208338
-7.5715594 814.55444 786.63434 4286604121
47.111927 813.91125 786.09204 4294967039
49.690826 814.45758 787.86078 4294966527
-7.5605502 817.5918 787.23346 4286670175
46.957798 818.69971 786.20557 4294966271
48.794495 816.48395 788.26135 4294966015
-7.5467887 820.62292 787.82715 4286604896
46.119267 820.62292 787.82715 4294965503
-7.2513757 823.58838 787.71149 4286605151
1.6733944 822.73553 786.99243 4289433739
41.834862 822.73553 786.99243 4294966527
43.508255 822.73553 786.99243 4294965503
46.018349 824.01483 788.07104 4294964735
-4.4477067 826.64307 786.36304 4287525998
-1.66789 826.21802 786.00464 4288643960
0 826.21802 786.00464 4288381560
43.365139 826.21802 786.00464 4294701309
52.844036 751.05768 789.34094 4294899453
55.255966 758.17548 790.11041 4294966271
57.825687 758.94495 789.45117 4294966527
56.073395 760.28461 790.58069 4294965759
55.023853 763.92419 789.72546 4294965759
57.644035 763.92419 789.72546 4294967039
-22.708258 766.59509 791.97742 4285618767
-20.35107 766.7251 790.34308 4285552468
-16.559633 766.79016 789.52588 4285683541
52.293579 766.79016 789.52588 4294966271
54.966972 766.0249 790.18866 4294967039
57.644035 765.25964 790.85144 4294967295
-19.174313 768.78912 791.21136 4285421395
-16.559633 768.78918 791.21136 4285618262
54.908257 768.78912 791.2113 4294966783
57.522934 768.78912 791.21136 4294967039
-13.900917 772.40698 790.33777 4285946456
52.128441 772.40698 790.33777 4294966527
-12.977982 778.76099 790.46313 4285945945
52.774311 778.76099 790.46313 4294967039
-12.099083 780.84064 790.90857 4286011736
53.58165 780.84064 790.90857 4294967295
-12.060551 785.08691 790.56488 4285880921
53.411011 784.42834 790.00952 4294967295
55.995415 785.74554 791.12024 4294967295
-12.034863 788.56799 790.88403 4285881170
-10.315597 787.2536 789.77576 4286011738
53.297249 787.2536 789.77576 4294967039
56.735779 788.56799 790.88403 4294967039
-12.894495 789.88245 791.99219 4285815377
58.455048 789.88245 791.99219 4294967295
60.174313 789.88245 791.99219 4294967295
-10.846484 793.50946 790.25421 4285946713
53.012844 794.94586 789.72144 4294967295
55.943729 793.50946 790.25421 4294967295
-16.530888 796.68903 791.19122 4285486668
-13.680734 796.25323 790.82385 4285551955
53.012844 796.25323 790.82385 4294967295
55.292969 797.12482 791.55878 4294967039
-15.341285 799.80164 789.89172 4285486412
-13.636697 799.80164 789.89172 4285617748
-11.93211 799.80164 789.89172 4286012506
51.989906 799.80164 789.89172 4294967295
-16.193579 801.10486 790.99048 4285486162
-13.636697 801.10486 790.99048 4285748820
-11.055964 803.24622 790.18005 4286011991
52.199387 802.53247 790.4502 4294967295
54.546787 801.10486 790.99048 4294966783
-13.60734 805.19684 791.82471 4285683277
-11.906422 805.19684 791.82471 4286011986
52.728439 805.19684 791.82471 4294967039
-10.172477 807.42523 789.77942 4286209621
50.862385 807.42523 789.77942 4294967039
52.557796 808.72137 790.87231 4294966271
-11.28685 811.00421 791.05316 4286078040
50.752293 810.20422 789.50659 4294967295
52.444038 811.49756 790.59717 4294966271
54.13578 812.79089 791.68762 4294965759
-10.117432 815.00671 789.63184 4286077529
50.587154 815.00671 789.63184 4294966527
52.273396 815.00671 789.63184 4294967039
-11.23425 817.21704 790.62354 4285880917
-8.4128437 817.77026 789.34595 4286670172
49.989605 817.21704 790.62354 4294965247
52.835476 817.15527 791.44354 4294965503
-10.936697 819.69977 790.97284 4286077779
48.794495 819.05658 790.43054 4294965759
52.159634 820.34296 791.51514 4294965247
-10.062386 823.18719 789.98926 4286209368
49.752911 822.97345 789.80908 4294964990
-10.062386 825.11035 791.61084 4286011736
-7.5385318 825.20227 790.38031 4286670178
46.855045 825.29419 789.14978 4294965247
49.158413 825.17163 790.79053 4294965503
56.719265 747.77075 794.41772 4294898942
55.65963 750.76294 793.01654 4294899453
-22.708258 767.93054 793.10339 4285617748
-20.961468 767.93054 793.10339 4285421652
-22.708258 769.26593 794.22937 4285618263
-20.088074 769.26593 794.22937 4285552468
-16.559633 770.78809 792.89673 4285487447
54.908257 770.78809 792.89673 4294967295
57.522934 770.78809 792.89673 4294967295
-17.431192 772.12073 794.02039 4285355859
55.779816 772.12073 794.02039 4294967295
57.522934 772.12073 794.02039 4294967295
-15.638532 775.06384 792.57788 4285487445
-13.900917 774.3996 792.01782 4285946713
52.997246 774.3996 792.01782 4294967295
55.603668 775.72803 793.13794 4294967295
57.341286 775.72803 793.13794 4294967295
-16.507339 777.05646 794.25806 4285618254
-13.856881 779.32697 792.24841 4285748820
55.427525 779.32697 792.24841 4294967295
57.159634 779.32697 792.24841 4294967295
-15.588991 781.31329 793.92322 4285486925
-13.827523 782.16205 792.02271 4285617750
55.310093 782.16205 792.02271 4294967295
57.038532 782.16205 792.02271 4294967295
-15.555964 784.80487 794.2511 4285421652
-13.827523 783.48346 793.13696 4285815127
58.766972 783.48346 793.13696 4294966783
-15.506422 788.37994 793.34143 4285486925
-13.783486 787.06274 792.23083 4285815376
58.579815 787.06274 792.23083 4294967039
-16.351376 790.44696 793.77625 4285551955
-13.754128 791.19678 793.10046 4285617748
58.455048 791.19678 793.10046 4294967295
60.174313 791.19678 793.10046 4294967295
56.554127 794.75647 792.17773 4294967295
58.455048 792.51123 794.20874 4294967039
60.174313 792.51123 794.20874 4294967295
-18.851376 796.06665 793.28247 4285552461
59.124771 796.72174 793.83484 4294966527
56.433029 799.52173 793.57971 4294966527
-15.909481 802.84247 792.45557 4285486163
-13.636697 802.40802 792.08923 4285748820
54.546787 803.05957 792.63867 4294966783
-15.341285 805.01434 794.28687 4285486162
-13.60734 806.49719 792.92114 4285551435
-11.906422 806.49719 792.92114 4286011986
54.546787 805.01434 794.28687 4294966015
-13.60734 807.79755 794.01758 4285814863
54.429359 807.79755 794.01758 4294833406
-13.563303 811.31372 793.05811 4285551957
-13.533945 814.73096 793.32343 4285551955
54.13578 814.08429 792.7782 4294965503
-13.533945 816.67096 794.95923 4285880656
53.959633 818.87415 792.89282 4294964990
-11.777982 821.62927 792.59973 4285880407
53.059631 820.89624 793.28973 4294965247
-13.46055 823.55884 794.22662 4285748821
-11.777982 823.55884 794.22662 4285945944
52.159634 823.55884 794.22662 4294965503
-10.062386 827.03357 793.23242 4286472543
-8.3853207 826.39252 792.69189 4286800486
-22.708258 770.60138 795.35547 4285814877
-20.088074 770.60138 795.35547 4285355859
-22.708258 772.60455 797.04443 4285617500
-20.06789 772.69507 795.81274 4285355859
-17.431192 773.45331 795.14404 4285355859
-20.045872 775.45227 796.82953 4285356112
-17.376146 779.04907 795.93817 4285486925
-19.982569 781.04175 797.61829 4285355859
-17.376146 781.04175 797.61829 4285421652
-19.919266 784.62378 796.7146 4285355089
-19.877064 788.1084 797.03662 4285552208
-17.284403 786.12628 795.36523 4285486925
59.124771 799.3421 796.04425 4294966015
-17.119267 801.39508 796.46722 4285420369
56.493576 801.39508 796.46722 4294966015
59.124771 801.30737 797.70129 4294966783
-15.341285 806.3175 795.38562 4285551955
56.433029 804.09753 797.43787 4294965759
-15.308257 809.0979 795.11401 4285486162
56.251377 807.62073 796.4845 4294966527
57.955963 808.92389 797.58325 4294966271
-15.308257 811.04846 796.75867 4285420626
56.130276 810.39825 796.21045 4294966527
55.948624 813.90601 795.2439 4294966271
57.644035 813.90601 795.2439 4294965759
-13.533945 817.96436 796.04968 4285814613
55.827522 817.96436 796.04968 4294964991
57.644035 816.49835 797.42969 4294965759
53.959633 821.45245 795.06677 4294899453
55.827522 819.25769 797.14026 4294965759
53.959633 823.38611 796.6972 4294965246
55.64587 822.74158 796.15369 4294967039
-13.46055 825.48828 795.85352 4286012506
-11.777982 826.13147 796.39581 4286802275
-22.708258 774.60767 798.7334 4285552468
-22.660551 778.11755 799.07684 4285421396
-20.045872 777.45123 798.51501 4285421902
-22.660551 780.11646 800.76221 4285486162
-18.911926 797.7688 798.64185 4285289553
-17.192661 800.39758 800.85828 4285486162
-17.137615 803.92773 799.91077 4285420369
59.124771 802.61755 798.80603 4294966271
59.283184 805.84064 798.90771 4294966015
-15.324771 812.9162 799.64148 4285551955
59.050766 811.58545 798.95538 4294965247
59.532108 814.29938 799.49976 4294966015
57.644035 817.79449 798.52258 4294966271
57.519264 820.55103 798.23071 4294965759
-17.137615 805.89301 801.56787 4285420626
-17.100918 809.32703 801.84729 4285486162
-19.012844 796.69751 804.27869 4285486162
-19.012844 798.67963 805.94995 4285290066
-18.952293 804.18634 806.66895 4285420369
-17.137615 809.16846 804.32959 4285420369
-19.012844 800.66174 807.62122 4285420369
-19.012844 803.30457 809.84961 4285420369
59.266056 812.09955 827.72961 4294965503
61.009174 812.09955 827.72961 4294966015
58.608257 808.25055 829.06226 4294967295
61.137615 809.32898 828.00952 4294967295
-17.46789 811.99988 830.2616 4283842616
57.644035 811.99988 830.2616 4294967295
-19.174313 814.09851 829.41504 4283842874
59.266056 814.09851 829.41504 4294965503
61.009174 814.09851 829.41504 4294965759
-15.80367 808.41907 833.78247 4283842616
56.190826 807.74786 833.21655 4294967039
57.825687 808.51178 831.24451 4294967295
56.073395 811.19104 833.50366 4294966271
-19.21468 814.67078 832.51355 4284172601
-17.46789 813.33533 831.38757 4283974706
57.644035 814.00305 831.95056 4294966783
-19.21468 816.00616 833.63953 4284435774
58.766972 816.03662 832.79315 4294899711
61.073395 816.05182 832.37 4294965759
-12.433027 795.10992 836.94885 4283250230
-14.135779 802.7713 836.86865 4283710516
55.65963 802.09583 836.29913 4294966271
-15.853211 804.92395 834.75964 4283710516
-14.091743 806.27063 835.89502 4283776823
54.605503 806.27063 835.89502 4294967295
-15.80367 809.76154 834.91443 4283974706
54.434864 809.76154 834.91443 4294966783
-16.663303 811.81738 835.33978 4284106808
55.254128 811.81738 835.33978 4294966783
-16.938837 814.76343 836.51581 4284435270
56.073395 814.54016 836.32758 4294898942
-19.21468 817.34161 834.76562 4284763457
58.517429 818.00934 835.32861 4294833662
61.137615 817.34161 834.76562 4294966271
50.451378 776.74011 839.77234 4294966271
52.253212 776.74011 839.77234 4294966271
54.055046 776.74011 839.77234 4294965759
52.829357 785.22845 839.0813 4294899197
55.515594 785.22845 839.0813 4294965247
57.306423 785.22845 839.0813 4294964990
-10.722936 788.04675 838.84155 4283183920
-8.9357796 788.04675 838.84155 4282789162
-12.47156 791.58252 837.8988 4282986027
-10.689908 791.58252 837.8988 4282986798
-8.9357796 789.41302 839.99353 4282921005
53.614677 789.41302 839.99353 4294898940
55.401836 789.41302 839.99353 4294966015
58.082569 789.41302 839.99353 4294966015
-10.689908 792.94464 839.04724 4283250226
-8.9082565 792.94464 839.04724 4283053104
55.231194 792.94464 839.04724 4294967039
57.903671 792.94464 839.04724 4294966015
-13.025075 796.92041 838.4754 4283578167
-10.65688 797.82568 839.23865 4283447862
53.284405 797.82568 839.23865 4294966271
55.948624 796.46777 838.09375 4294966271
58.612843 796.46777 838.09375 4294966783
60.388992 796.46777 838.09375 4294966527
-13.293577 799.9411 838.40637 4283644470
53.174313 800.61865 838.97766 4294966783
54.946789 799.26355 837.83508 4294965759
-12.368808 804.12219 838.00769 4283776823
-10.601835 805.47302 839.14661 4283974717
52.125687 804.79761 838.57715 4294966271
-13.21101 808.29065 837.59827 4283974968
52.844036 808.29065 837.59827 4294965758
-15.80367 812.44641 837.17822 4284369477
-13.188992 811.37854 838.23987 4284369477
-10.568808 810.31061 839.30151 4284369477
52.844036 810.31061 839.30151 4294898942
54.434864 812.44641 837.17822 4294964735
-15.80367 815.13135 839.44214 4284829252
-13.169725 814.46008 838.8761 4284566600
54.434864 814.46008 838.87616 4294833662
61.458717 815.13135 839.44214 4294898687
-21.903669 816.54962 838.02185 4284960585
-19.275229 816.54962 838.02185 4284829765
-16.938837 817.44269 838.7749 4285026374
56.073395 816.54962 838.02185 4294832895
57.825687 817.88928 839.15149 4294832895
-5.4385319 770.97308 842.75793 4287722860
48.946789 770.97308 842.75793 4294966015
50.605503 773.16779 840.68433 4294965503
48.798164 774.54956 841.84937 4294965759
-9.0091743 779.49512 842.09521 4287460971
-7.2073393 779.49512 842.09521 4287592817
46.847706 779.49512 842.09521 4294966015
49.250153 778.57684 841.32086 4294966527
52.253212 778.11761 840.93372 4294966015
54.955963 778.11761 840.93372 4294965759
58.85994 779.03595 841.70801 4294965758
50.297249 781.67725 840.01111 4294966271
52.991745 781.67725 840.01111 4294899454
55.686237 781.67725 840.01111 4294966271
-10.777982 783.05054 841.16907 4284763722
-8.0834866 783.73718 841.74805 4283907386
-5.3889909 784.42389 842.32703 4283314223
49.099689 783.5083 841.55499 4294966015
59.2789 783.73718 841.74805 4294965759
-7.1633029 787.96667 841.39014 4282855461
49.546177 787.51031 841.00537 4294899199
52.530884 787.05396 840.62054 4294965503
55.515594 786.5976 840.23572 4294965503
57.306423 786.5976 840.23572 4294965759
-7.1486239 790.7793 841.14563 4283118879
-4.4715595 790.0575 841.84503 4283316267
49.196331 790.0575 841.84503 4294832894
52.7211 790.7793 841.14563 4294965759
-10.689908 794.3067 840.19568 4283316276
-8.0174313 794.3067 840.19568 4283250480
-5.3614678 792.14563 842.29761 4283513905
49.14679 792.14563 842.29761 4294832892
52.558716 794.3067 840.19568 4294899453
-7.7204895 796.12286 841.72705 4283513652
49.292355 796.57684 842.10986 4294767357
51.667889 795.66882 841.34424 4294966271
-10.65688 799.18353 840.38354 4283514420
-8.8807335 799.86249 840.95605 4283580214
49.732109 800.54144 841.52856 4294965503
51.508255 799.86249 840.95605 4294966015
-10.634862 801.97369 840.12024 4283646007
-7.9834862 802.61401 841.96808 4283974460
47.955963 801.89929 842.67346 4294965503
49.629356 803.3288 841.2627 4294965759
-10.601835 806.82391 840.28564 4284106560
-8.8623857 804.68384 842.40527 4284106560
47.85688 804.68384 842.40527 4294965247
49.629356 804.68384 842.40527 4294965759
51.242203 806.82391 840.28564 4294966527
-8.8348627 808.85022 841.9942 4284303941
49.475231 808.85022 841.9942 4294833660
51.242203 808.85022 841.9942 4294767867
-10.568808 811.65723 840.43689 4284501063
52.844036 811.65723 840.43689 4294833406
-25.541285 813.00391 841.57239 4285091656
-10.568808 813.00391 841.57239 4284763722
-8.8073397 813.67725 842.14014 4284829258
52.844036 813.67725 842.14014 4294833149
59.889908 814.35059 842.70789 4294701309
-21.07156 816.47375 840.57397 4285158216
-19.315596 817.14502 841.13995 4285289546
-13.169725 817.14502 841.13995 4285091657
-10.53578 817.14502 841.13995 4285157450
55.312843 817.14496 841.14001 4294833150
-16.658411 820.09863 841.88629 4285683789
-13.4526 820.0752 842.73859 4285552971
-10.53578 819.15869 842.83789 4285552461
55.312843 819.15869 842.83789 4294832894
57.825687 819.22894 840.28101 4294635259
40.205505 762.32605 845.93115 4294964479
42.946789 762.32605 845.93115 4294965759
45.550457 764.52924 843.86475 4294964733
-1.8220184 765.92218 845.03931 4288578167
46.413761 766.65515 844.3493 4294964479
49.095413 767.38818 843.6593 4294965759
65.460548 767.38818 843.6593 4294965247
-3.6366973 768.77832 844.83142 4287657578
-1.8183486 768.77832 844.83142 4288381558
47.277065 768.77832 844.83142 4294965247
63.6422 768.77832 844.83142 4294965759
67.2789 768.77832 844.83142 4294964991
-7.2513762 772.35901 843.92651 4286932838
-4.2299695 772.82098 844.3161 4288052088
-1.812844 773.74493 845.09509 4289368714
46.227524 773.052 844.5108 4294964991
67.075226 773.74493 845.09509 4294965759
-9.0366974 775.93127 843.0144 4287460458
-7.2293577 775.93127 843.0144 4287527024
-5.4220185 775.93127 843.0144 4288185210
46.990826 775.93127 843.0144 4294833406
61.449543 775.93127 843.0144 4294767613
-10.844037 777.31299 844.17944 4286868578
-4.2171254 777.77362 844.56781 4287329130
-1.8073394 778.00385 844.76196 4287263079
43.376148 778.6947 845.34448 4294833406
45.183487 778.00385 844.76196 4294965759
-7.2073393 780.87262 843.25671 4284697673
-4.5045872 781.5614 843.83746 4283907643
-1.8018348 782.25012 844.41821 4283446065
46.247097 781.79102 844.03107 4294966527
-4.4908257 785.79718 843.48486 4283052587
-1.8018348 783.62769 845.57971 4282986798
0 783.62769 845.57971 4282855461
43.244038 783.62769 845.57971 4294965247
45.875229 784.7124 844.53229 4294964991
-1.7963303 787.17047 844.64282 4283447862
0 788.54382 845.80078 4283187000
44.908257 788.54382 845.80078 4294832895
46.704586 787.85718 845.2218 4294833148
-3.5816514 790.7049 843.69885 4283448627
-1.7908257 790.7049 843.69885 4283448627
-4.4678898 794.19507 844.02563 4283513907
-1.7908257 792.07397 844.85327 4283513907
0 792.07397 844.85327 4283448375
46.513763 793.47607 844.72748 4294899197
48.253212 793.5119 843.44971 4294767354
-3.574312 796.24451 845.75366 4283776823
-1.787156 796.24451 845.75366 4283842616
46.466057 796.24451 845.75366 4294833660
-7.1266055 798.39294 843.64111 4283712313
-4.7510705 799.30103 844.4068 4283777337
46.322937 799.75507 844.78967 4294636284
48.104588 798.39294 843.64111 4294965503
-7.1045871 803.2572 843.81836 4284040766
-4.4458714 802.18713 844.87823 4284040766
-1.7816514 801.11713 845.93811 4284106560
46.322937 801.11713 845.93811 4294767615
-7.0899081 806.03894 843.54785 4284238650
-5.3284402 804.61505 844.96338 4284238650
47.018349 805.32703 844.25562 4294833149
-7.0899081 807.39398 844.69043 4284631870
-5.317431 808.74908 845.83301 4284763970
47.85688 808.07153 845.26172 4294900222
-22.970642 812.22736 844.84167 4285288782
-7.0678897 811.55188 844.27222 4284829507
49.475231 811.55188 844.27222 4294833663
51.242203 811.55188 844.27222 4294899455
-21.137615 815.6972 843.84338 4285421132
-7.9376144 814.6377 844.91205 4285157701
49.475231 813.57825 845.98071 4294767100
52.043121 814.6377 844.91205 4294832893
59.889908 815.6972 843.84338 4294569466
-19.376146 817.04388 844.97876 4285749583
-8.8073397 817.04388 844.97876 4285486412
52.844036 817.04388 844.97876 4294832893
-19.315596 821.17236 844.53577 4285946701
-12.291743 820.5011 843.96985 4285487695
-10.53578 821.17236 844.53577 4285815123
-8.7798166 821.84357 845.10168 4285946713
-16.64679 823.91766 844.23444 4286209881
-13.142202 823.91766 844.2345 4285946969
-10.513762 824.58746 844.79919 4286078805
-15.770642 825.92712 845.92871 4286473061
-13.142202 825.92712 845.92871 4286472537
-10.513762 825.92712 845.92871 4286341207
-17.46789 828.02509 843.77356 4286341219
-13.974312 829.36053 844.89966 4286341471
-10.480734 829.36053 844.89966 4286473307
34.93211 756.51416 848.87891 4294966783
37.632111 757.6178 847.84747 4294967039
40.326607 758.7215 846.81604 4294965503
38.49358 760.12286 847.99756 4294967039
0 763.72321 847.10925 4288382069
40.205505 763.72321 847.10925 4294966015
42.946789 763.72321 847.10925 4294965759
0 767.31512 846.21375 4288513658
40.205505 765.12036 848.28723 4294966015
42.880733 766.21777 847.25049 4294966015
45.550457 767.31512 846.21375 4294965503
65.592659 767.31512 846.21375 4294832893
-1.8183486 770.16846 846.00354 4288775814
0 770.16846 846.00354 4288776064
40.691742 769.17236 847.77972 4294965759
43.640366 770.16846 846.00354 4294966015
45.458717 770.16846 846.00354 4294966015
64.551376 770.16846 846.00354 4294965503
0 771.55859 847.17566 4289433737
41.2159 772.48535 847.95703 4294966271
43.640366 771.55859 847.17566 4294966271
64.551376 771.55859 847.17566 4294899711
0 775.82385 846.84796 4287788656
41.695412 776.51678 847.43225 4294966271
43.508255 775.13086 846.26367 4294966015
61.636696 775.82385 846.84796 4294964991
64.355965 775.13086 846.26367 4294899198
68.283791 775.59283 846.65314 4294899710
39.882568 777.90271 848.60083 4294967295
61.636696 777.90271 848.60083 4294966271
68.888077 777.90271 848.60083 4294966015
0.90366971 781.45813 847.67456 4283314743
40.845871 781.7345 847.90759 4294965759
43.376148 780.07642 846.50952 4294966783
0 785.00519 846.74121 4283315770
43.244038 785.00519 846.74121 4294964735
45.045872 785.00519 846.74121 4294964735
1.8018348 786.38269 847.90271 4283055414
43.244038 786.38269 847.90271 4294832895
43.710705 790.37482 847.34473 4294767100
-1.7908257 793.44312 846.00769 4283842616
0 794.12769 846.5849 4283842363
44.770641 794.12769 846.5849 4294833148
-1.787156 797.61084 846.90576 4284040253
0 797.61084 846.90576 4283974717
43.829357 796.89606 847.61108 4294833149
0 798.97711 848.05774 4284302656
44.678898 798.97711 848.05774 4294964733
-3.5633028 802.47925 847.08655 4284368964
-1.7816514 803.16028 847.66083 4284566082
0 803.16028 847.66083 4284500550
44.541283 803.16028 847.66083 4294964991
-4.4403667 805.97296 846.10828 4284631870
46.179817 805.97296 846.10828 4294965246
-26.642202 808.68872 848.39807 4284960835
-3.5522935 808.00977 847.82562 4284829512
-1.7761468 808.00977 847.82562 4284960841
44.403671 808.00977 847.82562 4294898943
46.179817 807.33081 847.25317 4294834430
-24.814678 810.10413 846.97559 4285157453
-23.042202 811.45923 848.11816 4285683277
-4.7266049 811.00751 847.7373 4285157701
46.970642 810.78168 847.54688 4294701819
-21.203671 814.92908 847.11975 4285749583
-7.0678897 814.92908 847.11975 4285749833
49.475231 814.92908 847.11975 4294767102
51.242203 814.92908 847.11975 4294832895
-21.203671 816.27997 848.25879 4285749322
-7.9376144 817.33527 847.18652 4285684045
49.475231 816.27997 848.25879 4294636284
52.043121 817.33527 847.18652 4294833406
54.605503 818.39056 846.11426 4294832893
-21.137615 821.08386 848.38525 4286472277
-7.0458717 821.08386 848.38525 4286012756
52.844036 820.41052 847.8175 4294898687
54.605503 819.73718 847.24976 4294766847
-21.07156 824.52844 847.3656 4286012256
-19.315596 823.18604 846.23364 4286406484
-8.7798166 823.85724 846.79962 4286209878
-12.266055 827.26678 847.05835 4286341471
-7.8926606 826.56885 847.77789 4286407514
-10.480734 830.69598 846.02563 4286735715
-8.7614679 828.60645 848.18787 4286801509
13.871559 749.27142 850.62024 4291736239
16.645872 749.27142 850.62024 4292262838
19.420183 749.27142 850.62024 4292526013
5.548624 750.68542 851.8125 4289960606
7.3981652 750.68542 851.8125 4290223521
10.172478 750.68542 851.8125 4291012263
13.871559 750.68542 851.8125 4291867308
16.645872 750.68542 851.8125 4292196784
19.420183 750.68542 851.8125 4292526015
28.667891 750.68542 851.8125 4293711831
31.442202 750.68542 851.8125 4294765807
3.6880734 754.30676 850.94177 4289368464
29.504587 754.30676 850.94177 4293515222
31.348623 754.30676 850.94177 4294633703
33.192661 754.30676 850.94177 4294635511
34.93211 757.91974 850.06396 4294966271
36.770641 757.91974 850.06396 4294967039
1.8330275 761.52423 849.1792 4289237378
4.5963302 759.32532 851.24915 4289828495
34.012844 759.32532 851.24915 4294767611
37.577065 761.52423 849.1792 4294967039
1.8330275 762.9256 850.36084 4289368966
4.5825686 763.62628 850.9516 4290091406
7.3321099 764.32697 851.54236 4290748573
32.07798 764.32697 851.54236 4294305001
34.827522 763.62628 850.9516 4294966783
37.577065 762.9256 850.36084 4294966527
1.827523 767.21606 850.05432 4289696909
4.2642202 767.44891 850.25067 4290092947
32.895412 767.91467 850.64331 4294436592
34.722935 767.91467 850.64331 4294965503
37.464218 767.21606 850.05432 4294966015
5.4825687 769.31183 851.82141 4291275430
7.310092 769.31183 851.82141 4291143077
29.240368 769.31183 851.82141 4293251280
31.981651 769.31183 851.82141 4294041572
34.722935 769.31183 851.82141 4294965759
1.8220184 771.49396 849.73718 4290224025
4.2513766 772.42261 850.5202 4289299319
34.618347 772.8869 850.91174 4294965247
37.351379 772.19043 850.32446 4294965247
1.8183486 775.03394 850.10602 4285682001
3.6366973 775.729 850.69214 4286143546
38.185322 775.729 850.69214 4294967295
40.00367 774.33887 849.5199 4294966015
64.551376 775.03394 850.10608 4294964990
67.2789 775.03394 850.10602 4294966015
1.812844 779.2887 849.76941 4282723619
3.6366973 777.11914 851.86426 4282592010
34.548622 777.11914 851.86426 4294965247
37.218349 778.20392 850.81683 4294966015
67.2789 777.11914 851.86426 4294966783
69.097244 777.11914 851.86426 4294965247
3.6256881 780.67462 850.93799 4283118377
38.069725 780.67462 850.93799 4294967295
4.2171254 785.14276 850.78131 4283514168
37.954128 784.91248 850.58716 4294966783
40.363914 784.68219 850.39301 4294965247
1.8018348 787.76025 849.06421 4283448375
41.442204 787.76025 849.06421 4294964991
1.8018348 789.13776 850.22571 4283842616
4.5045872 789.82654 850.80646 4283842617
7.2073393 790.51526 851.38721 4284040766
9.0091743 790.51526 851.38721 4284106560
40.541283 789.82654 850.80646 4294898942
1.7963303 793.35034 849.85358 4283908413
3.5926607 794.03705 850.4325 4284040766
41.315598 794.03705 850.4325 4294898942
43.111927 792.6637 849.27466 4294833147
1.7908257 797.55042 849.47083 4284368449
4.4908257 795.41034 851.59045 4284566075
41.315598 795.41034 851.59045 4294898942
42.979816 797.55042 849.47083 4294964733
1.7908257 798.91949 850.62524 4284500550
4.1785932 799.83221 851.39484 4284763462
40.592052 799.83221 851.39484 4294833150
42.891743 800.34338 849.20984 4294964735
1.787156 802.39282 850.93781 4284829515
3.574312 803.07599 851.51379 4285026124
40.21101 803.07599 851.51379 4294833660
42.891743 801.70972 850.36182 4294898687
-28.506422 806.56549 850.53198 4284763457
0 805.88446 849.95776 4284895308
42.759632 805.88446 849.95776 4294766846
-31.178898 807.92761 851.68054 4287328620
-28.506422 807.92761 851.68054 4285815113
40.977982 807.92761 851.68054 4294964990
42.759632 807.92761 851.68054 4294767100
-25.458105 810.49921 849.92474 4285551944
-23.089909 812.08337 851.26044 4285683273
-4.4311924 812.81427 849.26074 4285684042
-1.7761468 810.72552 850.11554 4285354823
0 811.40448 850.68799 4285551955
43.492657 811.75696 850.33118 4294701307
46.970642 812.81427 849.26074 4294701820
-4.4311924 814.84692 850.97449 4285684307
-1.772477 814.84692 850.97449 4285618774
44.311928 814.84692 850.97449 4294965247
46.970642 814.84692 850.97449 4294767613
-21.203671 817.6308 849.39783 4285749322
-7.0678897 817.6308 849.39783 4285946963
-5.3009176 818.98169 850.53674 4286078805
49.475231 818.30627 849.96729 4294898430
