# .PCD v0.7 - Point Cloud Data file format
VERSION 0.7
FIELDS x y z rgb
SIZE 4 4 4 4
TYPE F F F U
COUNT 1 1 1 1
WIDTH 1162
HEIGHT 1
VIEWPOINT 0 0 0 1 0 0 0
POINTS 1162
DATA ascii
-21.335779 802.30371 1266.8162 4290355112
-18.965137 802.30371 1266.8162 4290617764
-11.853211 802.30371 1266.8162 4286999412
-21.335779 804.11609 1268.3444 4290551721
-18.965137 804.11609 1268.3444 4290683293
-16.594496 804.11609 1268.3444 4291012259
-14.223853 804.11609 1268.3444 4290091683
-10.667891 804.11609 1268.3444 4286671211
-21.25321 812.20117 1268.6213 4290023832
-18.891743 812.20117 1268.6213 4290023832
-16.530275 812.20117 1268.6213 4290681762
-14.168807 812.20117 1268.6213 4290289318
-10.626606 812.20117 1268.6213 4287395701
-11.761468 818.44586 1267.3464 4290550437
-10.585321 820.2442 1268.8628 4289894810
-7.056881 820.2442 1268.8628 4284368973
-4.704587 820.2442 1268.8628 4283386182
-7.0293579 826.45374 1267.5583 4290221475
-4.6862388 826.45374 1267.5583 4288513158
-37.740364 753.78827 1271.6902 4285816674
-34.088074 753.78827 1271.6902 4288118402
-31.653212 753.78827 1271.6902 4288710282
-29.218349 753.78827 1271.6902 4288577679
-19.478899 753.78827 1271.6902 4290486959
-17.044037 753.78827 1271.6902 4290421166
-13.391743 753.78827 1271.6902 4287922829
-9.7394495 753.78827 1271.6902 4287130732
-7.3045874 753.78827 1271.6902 4291604913
-4.8697248 753.78827 1271.6902 4292329695
-2.4348624 753.78827 1271.6902 4294040312
0 753.78827 1271.6902 4293581806
-36.3578 760.84021 1269.7881 4288248957
-33.933945 760.84021 1269.7881 4288183173
-31.510092 760.84021 1269.7881 4288643724
-29.086239 760.84021 1269.7881 4288709519
-19.390825 760.84021 1269.7881 4290220971
-16.966972 760.84021 1269.7881 4290352813
-13.331193 760.84021 1269.7881 4288182923
-9.6954126 760.84021 1269.7881 4286669657
-7.2715597 760.84021 1269.7881 4287590759
-4.8477063 760.84021 1269.7881 4288051351
0 760.84021 1269.7881 4284893814
-37.569725 762.6933 1271.3506 4287853944
-33.933945 762.6933 1271.3506 4288183173
-31.510092 762.6933 1271.3506 4288709517
-14.543119 762.6933 1271.3506 4288908706
0 762.6933 1271.3506 4283180606
-31.390825 770.9986 1271.8132 4288709519
-28.976147 770.07556 1271.0349 4288775308
-26.561468 769.15259 1270.2567 4289301906
-7.2440367 769.15259 1270.2567 4284106339
-4.8293576 769.15259 1270.2567 4284302408
2.4146788 770.9986 1271.8132 4290156404
50.708256 770.9986 1271.8132 4292594652
53.122936 770.07556 1271.0349 4292528605
55.537613 770.07556 1271.0349 4292528605
-28.866055 775.58368 1269.1392 4288710030
-25.257797 775.58368 1269.1392 4289302679
-16.838531 775.58368 1269.1392 4289632154
-4.8110094 775.58368 1269.1392 4284166981
2.4055047 775.58368 1269.1392 4292655245
50.515594 775.58368 1269.1392 4292594652
52.921101 775.58368 1269.1392 4292462811
55.326607 775.58368 1269.1392 4292462811
57.732109 775.58368 1269.1392 4292528604
60.137615 775.58368 1269.1392 4292660191
-31.271559 777.42273 1270.6898 4288578449
-28.866055 777.42273 1270.6898 4288579216
-26.46055 777.42273 1270.6898 4289237147
2.4055047 777.42273 1270.6898 4293510341
4.8110094 777.42273 1270.6898 4293250528
52.921101 777.42273 1270.6898 4292397788
60.137615 777.42273 1270.6898 4292594398
-31.152294 785.65088 1271.0874 4288907414
-28.755962 784.73486 1270.3149 4288710545
-26.359632 784.73486 1270.3149 4289236890
-23.963303 784.73486 1270.3149 4289566363
2.3963304 784.73486 1270.3149 4292724960
52.719265 784.73486 1270.3149 4292594141
55.115597 783.81885 1269.5426 4292660191
57.511925 783.81885 1269.5426 4292396505
-28.645872 793.83698 1271.4495 4289037968
-26.258715 792.92444 1270.6802 4289630365
-23.871559 792.01196 1269.9108 4289499549
52.517429 792.92444 1270.6802 4292462558
59.678898 792.01196 1269.9108 4292528604
-22.608257 797.80835 1269.5659 4289894559
-19.038532 797.80835 1269.5659 4290551460
-16.658716 797.80835 1269.5659 4290288031
-14.278899 797.80835 1269.5659 4289564826
-10.709174 797.80835 1269.5659 4286407016
-7.1394496 797.80835 1269.5659 4286670956
-4.7596331 797.80835 1269.5659 4287986069
-2.3798165 797.80835 1269.5659 4292789214
0 797.80835 1269.5659 4292791011
-26.177982 799.62775 1271.1001 4289564826
-23.798164 799.62775 1271.1001 4289499803
-16.658716 799.62775 1271.1001 4290880935
-14.278899 799.62775 1271.1001 4289894561
-9.5192661 799.62775 1271.1001 4286078031
-7.1394496 799.62775 1271.1001 4286604375
-4.7596331 799.62775 1271.1001 4287985810
-2.3798165 799.62775 1271.1001 4292920028
0 799.62775 1271.1001 4292856552
49.976147 799.62775 1271.1001 4292528606
52.355965 799.62775 1271.1001 4292594400
-26.077065 805.92847 1269.8724 4289498779
-22.521101 805.92847 1269.8724 4289762202
-18.965137 805.92847 1269.8724 4290025115
-16.594496 805.92847 1269.8724 4290485666
-14.223853 805.92847 1269.8724 4289895074
-10.667891 805.92847 1269.8724 4286934637
-28.447706 807.74084 1271.4006 4289300371
-26.077065 807.74084 1271.4006 4289826715
-22.521101 807.74084 1271.4006 4289958039
-18.965137 807.74084 1271.4006 4290024091
-16.594496 807.74084 1271.4006 4290616228
-14.223853 807.74084 1271.4006 4290157730
-10.667891 807.74084 1271.4006 4287197814
-7.1119266 807.74084 1271.4006 4286080359
-4.7412844 807.74084 1271.4006 4287132559
-2.3706422 807.74084 1271.4006 4292330462
0 807.74084 1271.4006 4292724704
-30.699083 815.81189 1271.6658 4287199610
-28.337614 815.81189 1271.6658 4288117632
-25.976147 814.90918 1270.9047 4289499026
-22.433945 814.90918 1270.9047 4289891993
-18.891743 814.90918 1270.9047 4289893788
-16.530275 814.90918 1270.9047 4290354596
-14.168807 814.90918 1270.9047 4290550695
-10.233027 814.60834 1270.651 4288513154
-7.0844035 814.90918 1270.9047 4284566594
-4.7229357 814.90918 1270.9047 4284435807
-2.3614678 814.90918 1270.9047 4287593871
0 815.81189 1271.6658 4286997616
-10.585321 822.94171 1271.1372 4290683047
-7.056881 822.04254 1270.3792 4287921030
-4.704587 822.04254 1270.3792 4286802272
-2.3522935 822.94171 1271.1372 4285683797
0 823.84088 1271.8954 4285025374
-7.0293579 830.03638 1270.5792 4291733671
-4.6862388 829.14069 1269.824 4290682785
-41.392662 755.64972 1273.2598 4285421654
-37.740364 755.64972 1273.2598 4286604140
-14.609175 755.64972 1273.2598 4289039778
0 755.64972 1273.2598 4292989896
-41.392662 757.51123 1274.8293 4286473061
-38.957798 757.51123 1274.8293 4287262062
-36.3578 764.54633 1272.913 4288052357
-33.933945 764.54633 1272.913 4288051586
2.4238532 764.54633 1272.913 4283446063
50.900917 764.54633 1272.913 4292528856
53.324772 764.54633 1272.913 4292462811
55.748623 764.54633 1272.913 4292528604
-36.3578 766.39941 1274.4755 4288052107
-33.933945 766.39941 1274.4755 4288051332
-31.510092 766.39941 1274.4755 4288709519
2.4238532 766.39941 1274.4755 4284036917
4.8477063 766.39941 1274.4755 4286469186
49.688992 766.39941 1274.4755 4292726235
-33.805504 772.8446 1273.3698 4288248714
-31.390825 772.8446 1273.3698 4288775058
4.8293576 772.8446 1273.3698 4293645012
7.2440367 772.8446 1273.3698 4293907927
-33.805504 774.69067 1274.9263 4288249227
7.2440367 774.69067 1274.9263 4292789977
9.6587152 774.69067 1274.9263 4292264151
12.073395 774.69067 1274.9263 4292593116
-31.271559 779.26178 1272.2404 4288709780
-28.866055 779.26178 1272.2404 4288579216
4.8110094 779.26178 1272.2404 4292988122
7.2165136 779.26178 1272.2404 4292725206
50.515594 779.26178 1272.2404 4292462298
52.921101 779.26178 1272.2404 4292528604
-33.677063 781.10083 1273.791 4288184206
-31.271559 781.10083 1273.791 4288578964
4.8110094 781.10083 1273.791 4292068055
7.2165136 781.10083 1273.791 4292199642
9.6220188 781.10083 1273.791 4292396251
60.137615 781.10083 1273.791 4292462298
-31.152294 787.48291 1272.6321 4288841616
-28.755962 787.48291 1272.6321 4288907414
-26.359632 787.48291 1272.6321 4289367965
2.3963304 787.48291 1272.6321 4292856804
4.7926607 787.48291 1272.6321 4292593116
23.963303 787.48291 1272.6321 4288119415
26.359632 787.48291 1272.6321 4290093205
50.322937 787.48291 1272.6321 4292659161
52.719265 787.48291 1272.6321 4292528091
55.115597 787.48291 1272.6321 4292659420
58.710091 787.48291 1272.6321 4292528604
-33.548622 789.31494 1274.1768 4287986813
-31.152294 789.31494 1274.1768 4288907915
-28.755962 789.31494 1274.1768 4288973207
2.3963304 789.31494 1274.1768 4292922597
4.7926607 789.31494 1274.1768 4292527323
7.1889906 789.31494 1274.1768 4292329945
23.963303 789.31494 1274.1768 4287921552
55.115597 789.31494 1274.1768 4292659422
57.511925 789.31494 1274.1768 4292528604
-33.420185 797.48694 1274.5271 4288378737
-31.033028 796.57446 1273.7577 4289498249
-28.645872 796.57446 1273.7577 4289236113
-26.258715 795.66199 1272.9883 4289631123
2.387156 796.57446 1273.7577 4292330462
4.774312 797.48694 1274.5271 4292200155
52.517429 795.66199 1272.9883 4292594402
62.066055 796.57446 1273.7577 4292462556
-30.937614 803.26648 1274.1682 4289170568
-28.557798 802.35681 1273.4011 4289104277
-26.177982 801.44714 1272.6342 4289564828
-23.798164 801.44714 1272.6342 4289630619
-7.1394496 802.35681 1273.4011 4286211421
-4.7596331 802.35681 1273.4011 4287592336
-2.3798165 802.35681 1273.4011 4292526555
0.7932722 802.65997 1273.6569 4292462305
46.406422 803.26648 1274.1682 4292462300
49.976147 803.26648 1274.1682 4292528093
52.355965 802.35681 1273.4011 4292528862
-30.818348 809.55322 1272.9287 4288776845
-28.447706 809.55322 1272.9287 4289168269
-26.077065 809.55322 1272.9287 4289760662
-23.706423 809.55322 1272.9287 4289760660
-7.1119266 809.55322 1272.9287 4285752150
-4.7412844 809.55322 1272.9287 4286607239
-2.3706422 809.55322 1272.9287 4291804886
0 809.55322 1272.9287 4292134362
35.559631 809.55322 1272.9287 4292068055
37.930275 809.55322 1272.9287 4292067542
-33.188992 811.3656 1274.4569 4287133053
-30.818348 811.3656 1274.4569 4288448657
-28.447706 811.3656 1274.4569 4288972423
1.1853211 811.3656 1274.4569 4292659132
35.559631 811.3656 1274.4569 4292396757
37.930275 811.3656 1274.4569 4292264919
-30.699083 817.61731 1273.188 4287854721
-28.337614 817.61731 1273.188 4288379784
-25.976147 817.61731 1273.188 4289498265
-22.433945 817.61731 1273.188 4289957787
-18.891743 817.61731 1273.188 4290090909
-16.530275 817.61731 1273.188 4290419873
-14.168807 817.61731 1273.188 4290485914
-2.3614678 817.61731 1273.188 4283715147
0 817.61731 1273.188 4285155675
-30.699083 819.42261 1274.7102 4289037185
-28.337614 819.42261 1274.7102 4289233798
-25.976147 819.42261 1274.7102 4289825935
-22.433945 819.42261 1274.7102 4289892761
-18.891743 819.42261 1274.7102 4290025113
-16.530275 819.42261 1274.7102 4290419871
-14.168807 819.42261 1274.7102 4290419871
0 819.42261 1274.7102 4285156947
-35.284405 827.43756 1274.9281 4288118398
-30.579817 827.43756 1274.9281 4288513158
-10.585321 826.53839 1274.1699 4290944159
-7.056881 825.63922 1273.4117 4291404199
-2.3522935 826.53839 1274.1699 4288511872
0 827.43756 1274.9281 4288844167
-7.0293579 831.8277 1272.0896 4291471528
-4.6862388 831.8277 1272.0896 4291603378
2.4440367 752.86853 1277.4548 4289305488
4.8880734 752.86853 1277.4548 4288450458
7.3321099 752.86853 1277.4548 4287266184
-43.827522 760.30341 1277.1836 4285881177
-41.392662 760.30341 1277.1836 4286341727
-38.957798 761.23413 1277.9684 4287131255
2.4348624 759.37268 1276.3989 4283114813
4.8697248 760.30341 1277.1836 4283115810
7.3045874 761.23413 1277.9684 4283838232
-37.165752 769.48779 1277.0795 4287788419
-33.933945 768.25244 1276.038 4288117126
4.8477063 768.25244 1276.038 4291867833
7.2715597 768.25244 1276.038 4293973209
9.6954126 769.17896 1276.8191 4293252326
12.119267 770.10547 1277.6003 4293119458
-36.220184 776.53674 1276.4828 4288315022
-33.805504 776.53674 1276.4828 4288249229
9.6587152 776.53674 1276.4828 4292462550
12.073395 776.53674 1276.4828 4292659672
-36.082569 782.93982 1275.3417 4288380552
-33.677063 782.93982 1275.3417 4288381069
4.8110094 782.93982 1275.3417 4292396505
7.2165136 782.93982 1275.3417 4292396505
9.6220188 782.93982 1275.3417 4292462048
25.257797 782.93982 1275.3417 4288908195
55.326607 782.93982 1275.3417 4292988642
57.732109 782.93982 1275.3417 4292594652
61.340366 782.93982 1275.3417 4292660188
-40.893578 784.77881 1276.8922 4286605161
-37.285324 784.77881 1276.8922 4287788919
-33.677063 784.77881 1276.8922 4287986564
7.2165136 784.77881 1276.8922 4292527323
9.6220188 784.77881 1276.8922 4292462046
12.027523 784.77881 1276.8922 4292396253
21.649542 784.77881 1276.8922 4289567667
-33.548622 791.14691 1275.7214 4288249729
-31.152294 791.14691 1275.7214 4288973709
2.3963304 791.14691 1275.7214 4292199644
4.7926607 791.14691 1275.7214 4292133851
7.1889906 791.14691 1275.7214 4292199644
9.5853214 791.14691 1275.7214 4292265696
55.115597 791.14691 1275.7214 4292528352
58.710091 791.14691 1275.7214 4292397788
-34.746788 792.97894 1277.2662 4288250493
4.7926607 792.97894 1277.2662 4292133597
7.1889906 792.97894 1277.2662 4292199390
9.5853214 792.97894 1277.2662 4292265696
55.115597 792.97894 1277.2662 4292528352
58.710091 792.97894 1277.2662 4292528607
-33.420185 799.31195 1276.0659 4287789419
-31.033028 799.31195 1276.0659 4289171072
2.387156 799.31195 1276.0659 4292725216
4.774312 799.31195 1276.0659 4292397016
7.161468 799.31195 1276.0659 4292397016
47.743118 799.31195 1276.0659 4292396253
50.130276 799.31195 1276.0659 4292791011
54.904587 799.31195 1276.0659 4292528604
57.291744 799.31195 1276.0659 4292528606
-33.420185 801.13696 1277.6047 4288052086
4.774312 801.13696 1277.6047 4292264919
7.161468 801.13696 1277.6047 4292264919
9.548624 801.13696 1277.6047 4292330458
54.904587 801.13696 1277.6047 4292529118
58.485321 801.13696 1277.6047 4292266715
-33.317432 805.99561 1276.4692 4287592057
-30.937614 805.08594 1275.7023 4288973709
2.3798165 805.99561 1276.4692 4292462558
4.7596331 805.99561 1276.4692 4292526806
7.1394496 806.90527 1277.2363 4293052380
9.5192661 806.90527 1277.2363 4292790757
40.456882 806.90527 1277.2363 4292330458
42.836697 805.99561 1276.4692 4292265690
46.406425 805.99561 1276.4692 4292331227
49.976147 805.99561 1276.4692 4292265179
52.355965 805.99561 1276.4692 4292527835
54.735779 805.99561 1276.4692 4292659422
57.115597 805.08594 1275.7023 4292528604
-37.930275 814.99036 1277.5132 4286735727
-34.374313 814.08411 1276.7491 4286539630
2.3706422 814.08417 1276.7491 4287590012
4.7412844 814.08417 1276.7491 4287918457
7.1119266 814.99036 1277.5132 4286010709
-30.699083 821.22803 1276.2325 4289300613
-28.337614 821.22803 1276.2325 4289365636
-25.976147 821.22803 1276.2325 4289891980
-22.433945 821.22803 1276.2325 4289958550
-18.891743 821.22803 1276.2325 4290353813
-16.530275 821.22803 1276.2325 4290485142
-14.168807 821.22803 1276.2325 4290616732
2.3614678 821.22803 1276.2325 4285091167
-37.783485 823.03333 1277.7548 4288183159
-34.241287 823.03333 1277.7548 4288642942
-30.699083 823.03333 1277.7548 4289497484
-28.337614 823.03333 1277.7548 4289433235
-25.976147 823.03333 1277.7548 4289828250
-22.433945 823.03333 1277.7548 4290352795
-18.891743 823.03333 1277.7548 4290550687
-16.530275 823.03333 1277.7548 4290616480
-14.168807 823.03333 1277.7548 4290615967
1.1807339 823.03333 1277.7548 4287527290
-37.636696 829.23596 1276.4443 4285026894
-10.585321 829.23596 1276.4443 4291536295
-2.3522935 829.23596 1276.4443 4290024345
0 829.23596 1276.4443 4288711052
-46.436699 754.737 1279.0303 4286734182
-43.992661 754.737 1279.0303 4286473061
2.4440367 754.737 1279.0303 4282985816
4.8880734 754.737 1279.0303 4282001992
7.3321099 754.737 1279.0303 4281870150
9.7761469 754.737 1279.0303 4282262053
13.442202 754.737 1279.0303 4282853930
-46.436699 756.60547 1280.6058 4286340969
7.3321099 756.60547 1280.6058 4282196010
9.7761469 756.60547 1280.6058 4282786864
13.442202 756.60547 1280.6058 4282852910
19.552294 756.60547 1280.6058 4284035943
21.99633 756.60547 1280.6058 4291667930
24.440367 756.60547 1280.6058 4292460765
-43.827522 763.09564 1279.538 4285355861
-41.392662 763.09564 1279.538 4286276963
-38.957798 763.09564 1279.538 4287196798
7.3045874 763.09564 1279.538 4289364078
9.7394495 763.09564 1279.538 4289367213
12.174312 763.09564 1279.538 4290354108
-43.629356 773.81165 1280.7252 4286013775
-41.205505 772.88513 1279.9441 4285750351
-37.973698 772.57623 1279.6837 4287130747
14.543119 772.88513 1279.9441 4292724696
-37.427521 778.38275 1278.0393 4287197300
13.280734 778.38275 1278.0393 4292396761
-41.049541 780.22882 1279.5958 4285685074
-38.634861 780.22882 1279.5958 4286340969
13.280734 780.22882 1279.5958 4292330713
21.732111 780.22882 1279.5958 4289831096
-57.732109 788.45691 1279.9935 4284829265
-55.326607 788.45691 1279.9935 4284763216
-45.704586 788.45691 1279.9935 4286341484
-43.299084 787.53735 1279.2183 4286144873
-40.893578 787.53735 1279.2183 4287197561
-37.285324 787.53741 1279.2183 4287330680
9.6220188 786.61786 1278.4429 4292265437
13.230276 787.53735 1279.2183 4292265948
16.838531 788.45691 1279.9935 4292595681
19.244038 788.45691 1279.9935 4292660454
21.649542 787.53735 1279.2183 4288778410
24.055046 788.45691 1279.9935 4287198554
-40.737614 794.81097 1278.8109 4286340456
-38.341286 794.81097 1278.8109 4286407014
-35.944954 794.81097 1278.8109 4287196530
7.1889906 794.81097 1278.8109 4292200155
10.783486 794.81097 1278.8109 4292200157
21.566973 794.81097 1278.8109 4287133844
55.115597 794.81097 1278.8109 4292594400
58.710091 794.81097 1278.8109 4292528605
-43.133945 796.64294 1280.3556 4285682019
-40.737614 796.64294 1280.3556 4286471535
-38.341286 796.64294 1280.3556 4286472555
-35.944954 796.64294 1280.3556 4286933106
10.783486 796.64294 1280.3556 4292462044
14.377981 796.64294 1280.3556 4292529118
21.566973 796.64294 1280.3556 4287067034
59.908257 796.64294 1280.3556 4292462813
62.304588 796.64294 1280.3556 4292462559
-38.194496 802.96198 1279.1434 4286407514
-35.807339 802.96198 1279.1434 4287131236
7.161468 802.96198 1279.1434 4292395990
10.742202 802.96198 1279.1434 4292659679
-38.194496 804.78699 1280.6823 4286408297
-35.807339 804.78699 1280.6823 4287000178
11.93578 804.78699 1280.6823 4291803862
-38.077065 808.72467 1278.7704 4286540149
-35.697247 808.72467 1278.7704 4287197822
4.7596331 808.72467 1278.7704 4293118429
7.1394496 808.72467 1278.7704 4293118429
10.709174 808.72467 1278.7704 4291211963
30.937614 808.72467 1278.7704 4292002764
33.317432 808.72467 1278.7704 4292199121
40.456882 808.72467 1278.7704 4292396505
42.836697 808.72467 1278.7704 4292396251
46.406422 808.72467 1278.7704 4292593885
49.976147 808.72467 1278.7704 4292397018
52.355965 808.72467 1278.7704 4292396251
-40.456882 810.54407 1280.3044 4286012004
-38.077065 810.54407 1280.3044 4285618015
7.1394496 810.54407 1280.3044 4288312710
10.709174 810.54407 1280.3044 4287128966
34.507339 810.54407 1280.3044 4292067542
38.077065 810.54407 1280.3044 4292066518
40.456882 810.54407 1280.3044 4292264154
42.836697 810.54407 1280.3044 4292264151
46.406422 810.54407 1280.3044 4292330714
49.976147 810.54407 1280.3044 4292133849
52.355965 810.54407 1280.3044 4292264665
-40.300919 818.61511 1280.5696 4287852661
-37.930275 817.70892 1279.8054 4287722867
-34.374313 817.70898 1279.8054 4288511611
2.3706422 816.80273 1279.0414 4285288532
4.7412844 817.70892 1279.8054 4285157730
7.1119266 817.70892 1279.8054 4286473590
10.272782 818.01099 1280.0602 4287591268
-40.144955 824.83875 1279.277 4287460465
-37.783485 824.83875 1279.277 4287789432
-33.060551 824.83875 1279.277 4288249729
-28.337614 824.83875 1279.277 4289104525
-25.976147 824.83875 1279.277 4289959833
-22.433945 824.83875 1279.277 4290288287
-18.891743 824.83875 1279.277 4290878626
-16.530275 824.83875 1279.277 4291339177
-14.168807 824.83875 1279.277 4291207327
2.3614678 824.83875 1279.277 4289568147
-40.144955 826.6441 1280.7992 4285158226
-16.530275 826.6441 1280.7992 4292914105
-14.168807 826.6441 1280.7992 4292982971
25.976147 826.6441 1280.7992 4287986841
-48.880733 758.474 1282.1813 4284171849
-46.436699 758.474 1282.1813 4285619295
9.7761469 758.474 1282.1813 4286074980
13.442202 758.474 1282.1813 4287062900
17.108257 758.474 1282.1813 4284695378
19.552294 758.474 1282.1813 4283839286
21.99633 758.474 1282.1813 4287655280
24.440367 758.474 1282.1813 4289565105
-48.880733 760.34247 1283.7567 4284040011
-46.436699 760.34247 1283.7567 4285553250
14.66422 760.34247 1283.7567 4289565620
17.108257 760.34247 1283.7567 4288118174
19.552294 760.34247 1283.7567 4286541153
21.99633 760.34247 1283.7567 4285027658
24.440367 760.34247 1283.7567 4286472094
-43.827522 764.95709 1281.1075 4285158998
-41.392662 764.95709 1281.1075 4285882464
-38.957798 764.95709 1281.1075 4287195512
12.174312 764.95709 1281.1075 4293121509
-46.262386 766.8186 1282.6771 4285356904
-43.827522 766.8186 1282.6771 4285355861
-41.392662 766.8186 1282.6771 4285816412
14.609175 766.8186 1282.6771 4293448173
-43.629356 775.66467 1282.2877 4286079827
-41.205505 775.66467 1282.2877 4285619276
16.966972 775.66467 1282.2877 4292726236
19.390825 775.66467 1282.2877 4292594398
21.814678 775.66467 1282.2877 4289370541
25.450459 775.66467 1282.2877 4288974472
-46.053211 777.5177 1283.8501 4286145643
-43.629356 777.5177 1283.8501 4286145625
16.966972 777.5177 1283.8501 4292791259
19.390825 777.5177 1283.8501 4292594402
-45.878899 782.07483 1281.1523 4286407277
-43.464222 782.07483 1281.1523 4286341732
14.488073 782.07483 1281.1523 4292396757
16.902752 782.07483 1281.1523 4292791259
19.31743 782.07483 1281.1523 4292528352
-57.952293 783.9209 1282.709 4284697423
-55.537613 783.9209 1282.709 4284697423
-53.122936 783.9209 1282.709 4284828246
-45.878899 783.9209 1282.709 4286144873
16.902752 783.9209 1282.709 4292726240
19.31743 783.9209 1282.709 4292659941
-57.732109 790.2959 1281.5442 4284829265
-55.326607 790.2959 1281.5442 4284829265
-45.704586 790.2959 1281.5442 4286340971
-43.299084 790.2959 1281.5442 4286210666
-40.893578 790.2959 1281.5442 4287658112
-38.488075 790.2959 1281.5442 4287527794
13.230275 790.2959 1281.5442 4292331741
16.838531 790.2959 1281.5442 4292726751
19.244038 790.2959 1281.5442 4292594911
21.649542 790.2959 1281.5442 4288121243
24.055046 790.2959 1281.5442 4287528298
-60.137615 792.13495 1283.0947 4284697423
-57.732109 792.13495 1283.0947 4284763216
-55.326607 792.13495 1283.0947 4284500300
-48.110092 792.13495 1283.0947 4284893009
-45.704586 792.13495 1283.0947 4285419354
-43.299084 792.13495 1283.0947 4285287767
14.433027 792.13495 1283.0947 4292331995
16.838531 792.13495 1283.0947 4292726753
19.244038 792.13495 1283.0947 4291607768
-45.530273 799.39099 1282.6726 4285617242
-43.133945 799.39099 1282.6726 4286406747
-40.737614 799.39099 1282.6726 4286406747
-38.341286 798.47498 1281.9003 4286801257
-35.944954 798.47498 1281.9003 4287196014
11.981651 798.47498 1281.9003 4292791009
14.377981 799.39099 1282.6726 4292068073
16.774311 798.47498 1281.9003 4290489291
21.566973 798.47498 1281.9003 4290947269
-42.968807 806.61194 1282.2211 4286407527
-40.58165 806.61194 1282.2211 4286868078
14.322936 806.61194 1282.2211 4287988097
16.710093 806.61194 1282.2211 4286935409
28.645872 806.61194 1282.2211 4291673800
-42.968807 808.43701 1283.7599 4285485660
14.322936 808.43701 1283.7599 4287589235
16.710093 808.43701 1283.7599 4288839558
28.645872 808.43701 1283.7599 4292068305
31.033028 808.43701 1283.7599 4292199892
-40.456882 812.36346 1281.8385 4286669170
10.709174 812.36346 1281.8385 4286800225
14.278899 812.36346 1281.8385 4287920253
16.658716 812.36346 1281.8385 4289762457
34.507339 812.36346 1281.8385 4292264152
38.077065 812.36346 1281.8385 4292198106
40.456882 812.36346 1281.8385 4292395742
42.836697 812.36346 1281.8385 4292264151
45.216515 812.36346 1281.8385 4292395738
-40.456882 814.18286 1283.3726 4287459702
11.899082 814.18286 1283.3726 4287855716
14.278899 814.18286 1283.3726 4289102465
16.658716 814.18286 1283.3726 4290484118
19.038532 814.18286 1283.3726 4290484142
34.507339 814.18286 1283.3726 4290687420
38.077065 814.18286 1283.3726 4291540174
40.456882 814.18286 1283.3726 4292658911
42.836697 814.18286 1283.3726 4292396251
46.406422 814.18286 1283.3726 4292001750
49.976147 814.18286 1283.3726 4291936213
52.355965 814.18286 1283.3726 4292067540
-40.300919 820.42749 1282.0977 4287919224
4.7412844 820.42749 1282.0977 4288052620
7.1119266 820.42749 1282.0977 4288513171
10.667891 820.42749 1282.0977 4289104524
14.223853 820.42749 1282.0977 4289893275
16.594496 820.42749 1282.0977 4288840587
23.706423 820.42749 1282.0977 4285029751
26.077065 820.42749 1282.0977 4283384927
35.559631 820.42749 1282.0977 4281611320
37.930275 820.42749 1282.0977 4283715686
-42.671558 822.23987 1283.6259 4286736999
4.7412844 822.23987 1283.6259 4289109403
7.1119266 822.23987 1283.6259 4288780439
10.667891 822.23987 1283.6259 4287200918
14.223853 822.23987 1283.6259 4287394956
16.594496 822.23987 1283.6259 4286868612
22.521101 822.23987 1283.6259 4285025110
26.077065 822.23987 1283.6259 4283511620
28.447706 822.23987 1283.6259 4282922313
30.818348 822.23987 1283.6259 4282198590
34.374313 822.23987 1283.6259 4281676105
37.930275 822.23987 1283.6259 4282795340
23.614679 829.35217 1283.0825 4289044166
25.976147 828.44946 1282.3214 4287462548
-51.517429 754.77606 1285.6035 4283976012
-49.06422 753.83832 1284.8127 4285090902
17.172478 753.83832 1284.8127 4283313714
26.985321 754.77606 1285.6035 4293118439
29.438532 754.77606 1285.6035 4292855773
31.891743 754.77606 1285.6035 4292789980
34.344955 754.77606 1285.6035 4292659416
36.798164 753.83832 1284.8127 4292528343
39.251377 753.83832 1284.8127 4292265948
46.611008 753.83832 1284.8127 4292660191
49.06422 753.83832 1284.8127 4292463063
51.517429 753.83832 1284.8127 4292463063
-48.880733 763.1452 1286.1199 4284106320
-46.436699 762.21094 1285.3322 4285487457
14.66422 762.21094 1285.3322 4293383148
17.108257 763.1452 1286.1199 4293382892
19.552294 763.1452 1286.1199 4292396243
21.99633 764.07947 1286.9076 4287197574
24.440367 763.1452 1286.1199 4285882968
-48.697247 770.5415 1285.8162 4284041546
-46.262386 769.61078 1285.0314 4285620580
-43.827522 768.68005 1284.2466 4285486925
17.044037 769.61078 1285.0314 4293251040
19.478899 770.5415 1285.8162 4292594398
21.913761 770.5415 1285.8162 4288778403
25.566055 770.5415 1285.8162 4288251796
-58.172478 779.37079 1285.4126 4284763216
-55.748623 779.37079 1285.4126 4284829265
-48.477066 779.37079 1285.4126 4285288797
-49.688992 781.22388 1286.9751 4285355101
-53.122936 785.76697 1284.2655 4284829011
-49.500916 785.76697 1284.2655 4285289307
-53.122936 787.61298 1285.822 4284829011
-49.500916 787.61298 1285.822 4285354844
-55.326607 793.974 1284.6454 4284435020
-52.921101 793.974 1284.6454 4284827729
-49.312843 793.974 1284.6454 4284959060
-45.704586 793.974 1284.6454 4285682271
16.838531 793.974 1284.6454 4292397788
19.244038 793.974 1284.6454 4290093511
24.055046 793.974 1284.6454 4288315804
-57.732109 795.81299 1286.196 4284500813
-55.326607 795.81299 1286.196 4284500813
-52.921101 795.81299 1286.196 4284893523
-49.312843 795.81299 1286.196 4285419608
19.244038 795.81299 1286.196 4288315806
24.055046 795.81299 1286.196 4292199610
-46.329052 803.36035 1286.0195 4285881189
-43.133945 802.13904 1284.9897 4286079330
-40.737614 802.13904 1284.9897 4286276709
14.377981 802.13904 1284.9897 4288913085
16.774311 802.13904 1284.9897 4286939295
19.170643 803.05505 1285.7621 4288776844
22.365747 803.36035 1286.0195 4292067004
26.359632 803.05505 1285.7621 4291540918
28.755962 802.13904 1284.9897 4291278269
-42.968807 811.17444 1286.0681 4286077541
19.097248 810.26196 1285.2987 4289762722
22.280121 811.47858 1286.3246 4291802309
26.258715 811.17444 1286.0681 4292658644
28.645872 811.17444 1286.0681 4292528348
31.033028 811.17444 1286.0681 4292462555
47.743118 810.26196 1285.2987 4292133847
50.130276 810.26196 1285.2987 4292133847
52.517429 810.26196 1285.2987 4292133847
-42.836697 816.00226 1284.9066 4286865766
14.278899 816.00226 1284.9066 4289235077
16.658716 816.00226 1284.9066 4290682780
19.038532 816.91199 1285.6736 4289301920
22.211618 816.6087 1285.418 4290684601
26.177982 816.00226 1284.9066 4291739345
28.557798 816.91199 1285.6736 4286347399
30.937614 816.91199 1285.6736 4285294198
34.110703 816.6087 1285.418 4286346351
38.077065 816.00226 1284.9066 4289632960
40.456882 816.91199 1285.6736 4291279833
42.836697 816.91199 1285.6736 4292003035
46.406422 816.91199 1285.6736 4292265947
49.976147 816.91199 1285.6736 4292002771
-21.335779 824.05225 1285.1539 4289035899
-18.965137 824.05225 1285.1539 4291006107
2.3706422 824.05225 1285.1539 4287460729
4.7412844 824.05225 1285.1539 4285755255
7.1119266 824.05225 1285.1539 4285031532
10.667891 824.05225 1285.1539 4283195770
14.223853 824.05225 1285.1539 4286412174
16.594496 824.05225 1285.1539 4288122536
18.965137 824.05225 1285.1539 4289500075
22.521101 824.05225 1285.1539 4291276489
28.447706 824.05225 1285.1539 4286538364
11.853211 825.86462 1286.6821 4288713351
14.223853 825.86462 1286.6821 4289108400
16.594496 825.86462 1286.6821 4290621639
18.965137 825.86462 1286.6821 4291145686
21.335779 825.86462 1286.6821 4292198118
-51.517429 757.58936 1287.9755 4283778117
26.985321 757.58936 1287.9755 4293051647
29.438532 757.58936 1287.9755 4293053665
-51.517429 759.46484 1289.5569 4283975501
22.078899 759.46484 1289.5569 4285949293
26.985321 759.46484 1289.5569 4291804868
29.438532 759.46484 1289.5569 4292396251
-52.546791 765.94794 1288.4832 4284107087
-48.880733 765.94794 1288.4832 4283975501
19.552294 765.94794 1288.4832 4293446626
21.99633 765.94794 1288.4832 4288709530
25.662384 765.94794 1288.4832 4288776791
29.32844 765.94794 1288.4832 4291343815
-48.697247 772.40302 1287.3857 4284238672
-46.262386 772.40302 1287.3857 4285949291
-56.001835 774.26447 1288.9552 4284502349
-51.132111 774.26447 1288.9552 4284369227
-48.697247 774.26447 1288.9552 4284698197
-60.366974 791.30505 1288.9351 4284500048
-57.952293 791.30505 1288.9351 4284435020
-53.122936 789.45898 1287.3785 4284630351
-50.708256 789.45898 1287.3785 4284827729
-55.326607 797.65204 1287.7466 4284500561
-52.921101 797.65204 1287.7466 4284696660
-49.312843 797.65204 1287.7466 4285025364
16.838531 797.65204 1287.7466 4288252341
19.244038 797.65204 1287.7466 4288054667
21.649542 797.65204 1287.7466 4292397005
25.257797 797.65204 1287.7466 4291805385
-52.921101 799.49109 1289.2972 4284630866
-49.312843 799.49109 1289.2972 4284960343
24.055046 799.49109 1289.2972 4292198599
-46.728439 805.80304 1288.0791 4285419866
19.170643 805.80304 1288.0791 4290417823
22.765137 805.80304 1288.0791 4290814631
26.359632 805.80304 1288.0791 4292132286
-46.728439 807.63507 1289.6239 4285288283
23.963303 807.63507 1289.6239 4290815159
-45.355965 814.82446 1289.1456 4286931818
-42.968807 815.73694 1289.915 4287063915
-45.216515 821.46045 1289.5088 4285289812
-42.836697 821.46045 1289.5088 4285224019
19.038532 819.64099 1287.9747 4286407014
40.456882 819.64099 1287.9747 4288585124
42.836697 819.64099 1287.9747 4290949822
21.335779 827.677 1288.2102 4290816987
-54.172478 752.95374 1290.6071 4284043091
-54.172478 754.83624 1292.1943 4284436304
32.011009 754.83624 1292.1943 4292790750
-51.517429 761.34033 1291.1383 4283843915
26.985321 761.34033 1291.1383 4291540637
29.438532 761.34033 1291.1383 4292002512
-56.423855 763.21582 1292.7196 4285091669
-56.212845 767.81641 1290.0586 4284632411
-52.546791 767.81641 1290.0586 4284172880
-52.546791 769.68494 1291.634 4284172880
-52.349541 776.12592 1290.5248 4284829011
-60.366974 794.0741 1291.2698 4284434770
-57.952293 794.99713 1292.0481 4284500561
-55.326607 803.16913 1292.3984 4284107339
-52.921101 802.24963 1291.6232 4284172114
-50.515594 802.24963 1291.6232 4284895837
-46.728439 809.46704 1291.1686 4286404961
-50.322937 811.29907 1292.7133 4285749079
-47.926605 811.29907 1292.7133 4286207582
-45.355965 817.56201 1291.4539 4286933106
-50.130276 819.38696 1292.9927 4285487197
-47.743118 819.38696 1292.9927 4285289812
-45.216515 823.27979 1291.0428 4285093201
-42.836697 823.27979 1291.0428 4285093203
9.5192661 823.27979 1291.0428 4288713351
14.278899 825.09918 1292.5769 4288976287
16.658716 825.09918 1292.5769 4290489269
19.038532 825.09918 1292.5769 4291079903
-54.172478 757.66003 1294.5752 4284501845
-56.423855 766.9668 1295.8823 4284567120
-53.768806 771.55341 1293.2095 4284698193
-61.57431 796.8432 1293.6047 4284500564
-57.952293 796.8432 1293.6047 4284369227
-55.537613 796.8432 1293.6047 4284435020
-60.366974 798.68921 1295.1613 4284368975
-57.952293 798.68921 1295.1613 4284041546
-55.537613 798.68921 1295.1613 4284107339
-55.326607 805.92767 1294.7244 4284632143
-52.921101 805.92767 1294.7244 4284828496
-50.515594 805.92767 1294.7244 4285025875
-55.115597 814.96313 1295.8027 4285421150
-52.719265 814.96313 1295.8027 4285618525
-50.322937 814.04712 1295.0303 4285749852
-47.926605 814.04712 1295.0303 4286143330
-50.130276 821.21198 1294.5314 4285290077
-47.743118 821.21198 1294.5314 4285093201
19.038532 826.91858 1294.111 4290424026
22.608257 826.91858 1294.111 4286347172
21.418348 828.73798 1295.645 4284110475
-56.845871 753.9726 1298.0062 4284436304
-59.097248 760.48376 1296.9562 4284170567
-57.952293 800.53528 1296.7178 4284370511
-57.952293 802.38135 1298.2743 4284566607
-57.732109 808.68622 1297.0503 4285026392
-55.326607 808.68622 1297.0503 4285026392
-52.921101 808.68622 1297.0503 4285486164
-57.732109 810.52527 1298.601 4285289816
-55.326607 810.52527 1298.601 4285421402
-52.921101 810.52527 1298.601 4285749079
-58.710091 817.71118 1298.1198 4285487713
-55.115597 817.71118 1298.1198 4285421664
-52.719265 817.71118 1298.1198 4285552992
16.710093 824.862 1297.609 4290884004
-56.845871 755.86212 1299.5995 4284763218
-61.57431 806.07336 1301.3873 4285420884
-57.952293 804.22736 1299.8308 4284960851
-60.137615 812.36426 1300.1516 4285420380
-57.732109 812.36426 1300.1516 4285289564
-58.710091 820.45917 1300.4368 4284898920
-52.719265 820.45917 1300.4368 4285487459
-50.322937 820.45917 1300.4368 4285421665
-46.728439 820.45917 1300.4368 4285094234
-63.020184 799.75439 1302.5996 4284895571
-60.596329 799.75439 1302.5996 4284829778
-64.232109 801.60742 1304.162 4285027160
-60.596329 801.60742 1304.162 4284961364
-61.57431 807.91943 1302.9438 4285158744
-55.326607 817.88135 1304.8035 4285291363
-63.306423 794.74066 1306.2202 4284895571
-60.871559 794.74066 1306.2202 4284698193
-49.312843 819.7204 1306.354 4285291109
-60.366974 817.14966 1310.7266 4285293174
-57.952293 817.14966 1310.7266 4285093984
-55.537613 817.14966 1310.7266 4285291363
-53.122936 817.14966 1310.7266 4285290857
-50.708256 818.99573 1312.2831 4285684842
21.732111 820.84174 1313.8396 4282530646
24.14679 820.84174 1313.8396 4281483857
-60.596329 816.43188 1316.6616 4286478479
-58.172478 816.43188 1316.6616 4286277756
-55.748623 816.43188 1316.6616 4285290861
-53.324772 816.43188 1316.6616 4285618793
26.561468 824.53381 1316.9528 4282463556
19.390825 818.28497 1318.224 4287399329
21.814678 820.13806 1319.7865 4283055727
26.561468 826.37988 1318.5093 4284832093
-48.697247 813.35541 1321.9156 4285618793
17.044037 813.35541 1321.9156 4290817722
19.478899 813.35541 1321.9156 4288452814
-60.596329 821.99109 1321.3489 4289963708
24.238533 821.99109 1321.3489 4283121487
-60.596329 823.84412 1322.9114 4291345613
-60.871559 815.21686 1323.4852 4287923095
-58.436699 815.21686 1323.4852 4286803611
-56.001835 815.21686 1323.4852 4285619338
-52.349541 815.21686 1323.4852 4285029488
17.044037 815.21686 1323.4852 4290095054
-60.871559 817.07837 1325.0548 4289436851
-58.436699 817.07837 1325.0548 4289040556
-56.001835 817.07837 1325.0548 4287790745
-52.349541 817.07837 1325.0548 4285951871
19.478899 817.07837 1325.0548 4282660970
24.348623 817.07837 1325.0548 4283648598
-63.020184 825.6972 1324.4739 4292990689
-60.596329 825.6972 1324.4739 4291806414
14.66422 812.6601 1327.8696 4288911037
-58.436699 818.93982 1326.6244 4289568437
-56.001835 818.93982 1326.6244 4288383907
-52.349541 818.93982 1326.6244 4286805129
19.478899 818.93982 1326.6244 4283713376
21.913761 818.93982 1326.6244 4282331723
-58.436699 820.80127 1328.1938 4290950088
-56.001835 820.80127 1328.1938 4289502642
-53.566971 820.80127 1328.1938 4289040808
19.478899 820.80127 1328.1938 4289303216
21.913761 820.80127 1328.1938 4283973984
24.348623 820.80127 1328.1938 4282792510
-63.020184 827.55023 1326.0363 4293517037
14.719266 808.22784 1330.6726 4289304484
-48.880733 814.52856 1329.4451 4285817455
17.108257 814.52856 1329.4451 4283058558
-48.880733 816.39709 1331.0205 4285556332
14.66422 816.39709 1331.0205 4284828020
17.108257 816.39709 1331.0205 4285157242
-60.871559 824.52423 1331.333 4292727264
-58.436699 823.59351 1330.5482 4292003028
-56.001835 823.59351 1330.5482 4290818754
-53.566971 824.52423 1331.333 4291015884
19.478899 822.66278 1329.7634 4289894854
21.913761 822.66278 1329.7634 4285025915
24.348623 823.59351 1330.5482 4283122739
-34.601833 795.54224 1333.0566 4285289816
-32.130276 795.54224 1333.0566 4285355609
7.4146791 797.43176 1334.6499 4286804602
13.543119 803.78162 1333.4637 4287987587
-49.06422 810.10333 1332.2539 4285685615
13.083793 811.3537 1333.3082 4284308605
-51.324772 818.26556 1332.5959 4287988119
-48.880733 818.26556 1332.5959 4286938246
14.66422 818.26556 1332.5959 4290882760
17.108257 818.26556 1332.5959 4290159293
-52.546791 820.13403 1334.1714 4289040812
-48.880733 820.13403 1334.1714 4287857563
14.66422 820.13403 1334.1714 4292063177
17.108257 820.13403 1334.1714 4291273661
-60.871559 826.38568 1332.9026 4293055716
-58.436699 826.38568 1332.9026 4292989409
-56.001835 826.38568 1332.9026 4292068307
-53.566971 826.38568 1332.9026 4292002512
19.478899 826.38568 1332.9026 4287593850
21.913761 826.38568 1332.9026 4284304200
-58.436699 828.24719 1334.472 4293187052
-56.001835 828.24719 1334.472 4292726501
-53.566971 828.24719 1334.472 4292003294
19.478899 828.24719 1334.472 4288053899
-44.488075 799.32129 1336.243 4285028441
7.4146791 799.32129 1336.243 4289695119
9.8862381 799.32129 1336.243 4291471289
12.357799 799.32129 1336.243 4290287016
-46.959633 801.21082 1337.8363 4285291363
7.4146791 801.21082 1337.8363 4287858069
9.8862381 801.21082 1337.8363 4288710298
12.311927 805.66412 1335.051 4286480277
-46.611008 814.79211 1336.2074 4285556591
12.266055 814.79211 1336.2074 4286999684
-51.324772 822.93677 1336.5345 4290160569
-48.880733 822.93677 1336.5345 4289698993
-46.436699 822.93677 1336.5345 4288843428
13.849541 823.24823 1336.7971 4289895855
17.108257 822.93677 1336.5345 4289235871
19.552294 822.00256 1335.7468 4289236647
21.99633 822.00256 1335.7468 4284828259
-58.436699 830.10864 1336.0416 4293318890
-56.001835 830.10864 1336.0416 4292989669
-56.001835 831.97009 1337.6112 4291409356
-42.203671 794.32996 1339.8827 4285027410
-37.238533 793.38098 1339.0825 4285092944
-34.755962 794.32996 1339.8827 4285223771
-32.273396 794.32996 1339.8827 4285223771
-28.549541 793.38098 1339.0825 4286011745
-24.825687 794.32996 1339.8827 4286274131
-4.9651375 794.32996 1339.8827 4291538866
-2.4825687 794.32996 1339.8827 4289762711
1.2412844 794.32996 1339.8827 4284633465
4.9651375 794.32996 1339.8827 4283975503
-46.959633 803.10034 1339.4294 4285618793
-44.488075 803.10034 1339.4294 4285619045
7.4146791 803.10034 1339.4294 4281938746
9.8862381 803.10034 1339.4294 4281808974
-46.78532 809.42914 1338.2256 4285883248
9.8495417 809.42914 1338.2256 4284309109
-44.322937 811.31165 1339.813 4285947510
9.8495417 811.31165 1339.813 4286341260
-46.611008 817.60535 1338.5795 4286607752
-44.157799 817.60535 1338.5795 4285949545
12.266055 817.60535 1338.5795 4291077731
-44.157799 819.48083 1340.1609 4287463559
9.8128443 819.48083 1340.1609 4290219398
12.266055 819.48083 1340.1609 4291798431
-48.880733 826.67371 1339.6855 4290882763
-46.436699 827.60797 1340.4733 4290487493
13.849541 826.98517 1339.9481 4286347419
17.108257 826.67371 1339.6855 4287400355
-24.917431 789.84021 1342.6372 4287851882
-42.203671 796.22791 1341.483 4285225819
-34.755962 796.22791 1341.483 4285225567
-32.273396 796.22791 1341.483 4285291361
-28.549541 796.22791 1341.483 4285551966
-24.825687 796.22791 1341.483 4284961103
-22.343119 796.22791 1341.483 4285355861
-19.86055 796.22791 1341.483 4285288797
-4.9651375 796.22791 1341.483 4291737796
-2.4825687 796.22791 1341.483 4288908697
0 796.22791 1341.483 4284376182
4.9651375 796.22791 1341.483 4285220939
-44.686237 798.12585 1343.0833 4285225567
-32.273396 798.12585 1343.0833 4285487459
-28.549541 798.12585 1343.0833 4285487459
-24.825687 798.12585 1343.0833 4285683559
-22.343119 798.12585 1343.0833 4285617510
-19.86055 798.12585 1343.0833 4285486173
-17.377981 798.12585 1343.0833 4285091415
-13.654128 798.12585 1343.0833 4286209133
-9.930275 798.12585 1343.0833 4288512385
-7.4477062 798.12585 1343.0833 4291933878
-4.9651375 798.12585 1343.0833 4291607225
-2.4825687 798.12585 1343.0833 4288514954
1.2412844 798.12585 1343.0833 4282992217
4.9651375 798.12585 1343.0833 4283318352
-46.959633 804.98987 1341.0227 4285554285
-44.488075 805.93463 1341.8193 4285816170
7.4146791 805.93463 1341.8193 4284241510
9.8862381 804.98987 1341.0227 4282005070
-44.322937 813.19415 1341.4003 4286014316
-41.86055 814.13538 1342.1938 4286212206
9.8495417 814.13538 1342.1938 4286802249
-44.157799 821.35632 1341.7422 4288712599
-41.704586 821.35632 1341.7422 4287330946
9.8128443 821.35632 1341.7422 4287926431
-46.611008 823.23181 1343.3236 4290093759
-44.157799 823.23181 1343.3236 4289437103
-41.704586 823.23181 1343.3236 4288055450
9.8128443 823.23181 1343.3236 4278205788
12.266055 823.23181 1343.3236 4280709521
-48.880733 829.47644 1342.0487 4290226115
-46.436699 829.47644 1342.0487 4289633979
-43.992661 829.47644 1342.0487 4289435050
13.442202 829.47644 1342.0487 4291671754
12.220183 831.34497 1343.6241 4291868371
-39.867889 791.74518 1344.2434 4284961614
-22.425688 791.74518 1344.2434 4288050542
-19.933945 791.74518 1344.2434 4289892742
-9.9669724 791.74518 1344.2434 4291405733
-7.4752293 791.74518 1344.2434 4291932077
-39.867889 793.65015 1345.8496 4285094234
-37.376148 793.65015 1345.8496 4285028441
-17.442202 793.65015 1345.8496 4285420382
-13.704587 793.65015 1345.8496 4287392626
-9.9669724 793.65015 1345.8496 4290744977
-7.4752293 793.65015 1345.8496 4292850097
2.4917431 793.65015 1345.8496 4281283912
-32.273396 800.0238 1344.6836 4285619045
-28.549541 800.0238 1344.6836 4285946726
-24.825687 800.0238 1344.6836 4285947494
-22.343119 800.0238 1344.6836 4286078824
-19.86055 800.0238 1344.6836 4286210153
-17.377981 800.0238 1344.6836 4286210153
-13.654128 800.0238 1344.6836 4285618527
-9.930275 800.0238 1344.6836 4285816412
-7.4477062 800.0238 1344.6836 4289500564
-4.9651375 800.0238 1344.6836 4290027707
-2.4825687 800.0238 1344.6836 4288908969
1.2412844 800.0238 1344.6836 4283975001
4.9651375 800.0238 1344.6836 4280951850
-42.203671 801.92175 1346.2839 4285816423
-34.755962 801.92175 1346.2839 4285684838
-32.273396 801.92175 1346.2839 4285684838
-28.549541 801.92175 1346.2839 4285750630
-24.825687 801.92175 1346.2839 4286078824
-22.343119 801.92175 1346.2839 4286144873
-19.86055 801.92175 1346.2839 4286144619
-17.377981 801.92175 1346.2839 4286342254
-13.654128 801.92175 1346.2839 4285947758
-9.930275 801.92175 1346.2839 4286144873
-7.4477062 801.92175 1346.2839 4288118663
-4.9651375 801.92175 1346.2839 4288908695
-2.4825687 801.92175 1346.2839 4288842902
1.2412844 801.92175 1346.2839 4283977563
4.9651375 801.92175 1346.2839 4281939279
-42.016514 808.76892 1344.2091 4286079096
-22.244038 808.76892 1344.2091 4286408561
-19.772476 808.76892 1344.2091 4286277743
-17.300917 808.76892 1344.2091 4286277743
7.4146791 808.76892 1344.2091 4288516488
-39.544952 810.65845 1345.8022 4286342254
-24.715597 810.65845 1345.8022 4286408045
-22.244038 810.65845 1345.8022 4286671217
-19.772476 810.65845 1345.8022 4286474865
-17.300917 810.65845 1345.8022 4286474865
-13.593578 810.65845 1345.8022 4286540662
-9.8862381 810.65845 1345.8022 4286540662
-7.4146791 810.65845 1345.8022 4286211697
0 810.65845 1345.8022 4285355609
4.943119 810.65845 1345.8022 4287464842
7.4146791 810.65845 1345.8022 4286675583
-40.629356 817.90045 1345.3684 4286607991
0 818.84167 1346.1621 4290094250
7.387156 817.90045 1345.3684 4285623410
-52.744034 826.0451 1345.6957 4291673297
-44.157799 825.10736 1344.905 4289829812
-41.704586 826.0451 1345.6957 4288579743
0 826.0451 1345.6957 4291344075
4.9064221 826.0451 1345.6957 4288580017
7.359633 826.0451 1345.6957 4287724708
9.8128443 826.0451 1345.6957 4287660712
0 833.2135 1345.1997 4291080647
-16.255962 789.16034 1348.6042 4291734950
-12.504587 789.16034 1348.6042 4291800491
-42.359634 796.50757 1348.2589 4285356641
-39.867889 796.50757 1348.2589 4285356641
-37.376148 796.50757 1348.2589 4285422435
-34.884403 796.50757 1348.2589 4285553252
-42.203671 803.8197 1347.8842 4285947758
-39.7211 803.8197 1347.8842 4286078826
-34.755962 803.8197 1347.8842 4285947496
-32.273396 803.8197 1347.8842 4285947496
-28.549541 803.8197 1347.8842 4286013033
-24.825687 803.8197 1347.8842 4286079850
-22.343119 803.8197 1347.8842 4286145643
-19.86055 803.8197 1347.8842 4286276459
-17.377981 803.8197 1347.8842 4286342252
-13.654128 803.8197 1347.8842 4286277745
-9.930275 803.8197 1347.8842 4286277491
-7.4477062 803.8197 1347.8842 4286606455
-4.9651375 803.8197 1347.8842 4286803846
-2.4825687 803.8197 1347.8842 4286869895
1.2412844 803.8197 1347.8842 4286607484
4.9651375 803.8197 1347.8842 4286938498
-39.7211 805.71765 1349.4845 4286144619
-37.238533 805.71765 1349.4845 4286210412
-34.755962 805.71765 1349.4845 4286210666
-32.273396 805.71765 1349.4845 4286210666
-28.549541 805.71765 1349.4845 4286144619
-24.825687 805.71765 1349.4845 4286145389
-13.654128 805.71765 1349.4845 4286343029
-9.930275 805.71765 1349.4845 4286540662
-7.4477062 805.71765 1349.4845 4286540662
-4.9651375 805.71765 1349.4845 4286739059
-2.4825687 805.71765 1349.4845 4286870645
1.2412844 805.71765 1349.4845 4287660415
4.9651375 805.71765 1349.4845 4288647817
-39.544952 812.54797 1347.3955 4286211448
-29.658716 812.54797 1347.3955 4286540401
-24.715597 812.54797 1347.3955 4286737775
-22.244038 812.54797 1347.3955 4286737775
-19.772476 812.54797 1347.3955 4286606707
-17.300917 812.54797 1347.3955 4286606707
-13.593578 812.54797 1347.3955 4286803064
-9.8862381 812.54797 1347.3955 4286408824
-7.4146791 812.54797 1347.3955 4285750895
-4.943119 812.54797 1347.3955 4286341482
-2.4715595 812.54797 1347.3955 4286604911
0 812.54797 1347.3955 4286210134
4.943119 812.54797 1347.3955 4285158757
7.4146791 812.54797 1347.3955 4284566620
-39.544952 814.4375 1348.9886 4286474869
-37.073395 814.4375 1348.9886 4286540662
-34.601833 814.4375 1348.9886 4286474356
-32.130276 814.4375 1348.9886 4286540149
-28.422935 814.4375 1348.9886 4286737271
-24.715597 814.4375 1348.9886 4286672500
-22.244038 814.4375 1348.9886 4286869623
-19.772476 814.4375 1348.9886 4286738809
-17.300917 814.4375 1348.9886 4286870395
-13.593578 814.4375 1348.9886 4286738039
-9.8862381 814.4375 1348.9886 4285554785
-7.4146791 814.4375 1348.9886 4286475887
-4.943119 814.4375 1348.9886 4288381329
-2.4715595 814.4375 1348.9886 4289105308
0 814.4375 1348.9886 4288118413
4.943119 814.4375 1348.9886 4282396968
-51.710091 820.72424 1347.7494 4291016399
-39.398167 820.72424 1347.7494 4287792012
-9.8495417 820.72424 1347.7494 4288772730
-2.4623854 820.72424 1347.7494 4292195530
0 820.72424 1347.7494 4291213262
4.9247708 820.72424 1347.7494 4284181075
7.387156 820.72424 1347.7494 4282470713
-39.398167 822.60675 1349.3367 4288514454
-2.4623854 822.60675 1349.3367 4291868364
2.4623854 822.60675 1349.3367 4289831092
-2.4532111 830.73383 1349.649 4291145670
1.2266055 829.79608 1348.8584 4291146441
4.9064221 828.85834 1348.0677 4291605704
7.359633 828.85834 1348.0677 4291737546
9.8128443 828.85834 1348.0677 4291868371
-39.867889 799.36499 1350.6682 4285684838
-37.376148 799.36499 1350.6682 4285684838
-37.376148 801.26996 1352.2744 4285947496
-37.238533 808.56458 1351.885 4286276723
-34.755962 808.56458 1351.885 4286341999
-32.273396 808.56458 1351.885 4286342255
-28.13578 808.24823 1351.6183 4286342509
-4.9651375 807.6156 1351.0848 4286276459
-2.4825687 807.6156 1351.0848 4286078824
2.4825687 808.56458 1351.885 4286210654
-37.073395 817.27179 1351.3784 4286804857
-34.601833 817.27179 1351.3784 4286738297
-32.130276 817.27179 1351.3784 4286738554
