# .PCD v0.7 - Point Cloud Data file format
VERSION 0.7
FIELDS x y z rgb
SIZE 4 4 4 4
TYPE F F F U
COUNT 1 1 1 1
WIDTH 1169
HEIGHT 1
VIEWPOINT 0 0 0 1 0 0 0
POINTS 1169
DATA ascii
38.14679 795.75983 779.94348 4294967295
7.612844 798.56403 779.69189 4287334294
11.842202 798.56403 779.69189 4293391048
13.533945 798.56403 779.69189 4293321719
16.07156 798.56403 779.69189 4288251798
19.455046 798.56403 779.69189 4293579997
22.764221 800.82611 777.67517 4293780199
26.136696 800.82611 777.67517 4294967295
28.666056 800.82611 777.67517 4294967295
31.195412 800.82611 777.67517 4294967295
34.680733 798.56403 779.69189 4294967268
37.218349 798.56403 779.69189 4294967295
-37.900002 802.86792 778.08868 4285224270
-35.333946 803.62054 777.41528 4285618763
-31.127522 803.62054 777.41528 4285946967
-16.000917 802.86792 778.08868 4287067258
10.96055 803.40442 779.84912 4291349409
13.489908 802.75989 779.3056 4292993272
15.738227 802.54498 779.12445 4286479250
19.110703 802.54498 779.12445 4294440169
22.764221 802.1153 778.76208 4292268251
26.136696 802.1153 778.76208 4294967295
28.666056 802.1153 778.76208 4294967295
31.195412 802.1153 778.76208 4294967295
34.56789 802.75989 779.3056 4294967295
37.097248 803.40442 779.84912 4294967295
-37.857796 804.90686 778.49988 4285421395
-31.127522 805.55005 779.04218 4286079323
-28.60367 805.55005 779.04218 4286605159
-26.079817 806.19324 779.58447 4287068008
-22.71468 806.19324 779.58447 4287068019
-19.349541 805.55005 779.04218 4287001974
-16.264832 805.33563 778.86139 4286935925
13.46055 806.19324 779.58447 4292926181
16.264832 805.76447 779.22296 4287728530
19.349541 805.55005 779.04218 4294242549
22.43425 805.33563 778.86139 4290822088
26.079817 804.90686 778.49988 4294967295
28.60367 804.90686 778.49988 4294967295
31.127522 804.90686 778.49988 4294967295
34.492661 806.19324 779.58447 4294967295
-36.895412 809.08374 778.09753 4285618261
-34.379818 809.08374 778.09753 4285947479
15.93211 809.72479 778.63806 4292529618
19.28624 809.08374 778.09753 4294769139
22.919876 809.29742 778.27765 4291151054
25.994495 808.44269 777.55701 4294967295
28.510092 809.08374 778.09753 4294967295
31.305199 808.87006 777.9173 4294967295
34.379814 809.72479 778.63806 4294967295
-35.218349 811.00696 779.71912 4286275678
13.416513 811.00696 779.71912 4293252064
15.93211 811.00696 779.71912 4293909992
19.536392 811.57648 778.45538 4294505210
22.590824 812.50092 778.36292 4290558660
25.937614 811.86127 777.82349 4294967295
28.447706 812.50092 778.36292 4294967295
30.6789 812.07446 778.00336 4294967295
34.341286 811.75391 779.04102 4294967295
36.895412 811.00696 779.71912 4294967295
15.060551 813.78027 779.44153 4293779439
19.244038 813.78027 779.44153 4294701565
22.590824 813.78027 779.44153 4293123046
25.937614 813.78027 779.44153 4294967295
28.447706 813.78027 779.44153 4294967295
30.957798 813.78027 779.44153 4294967295
34.304588 813.78027 779.44153 4294967295
23.350458 818.56732 779.55383 4294964991
25.852295 818.56732 779.55383 4294967295
28.354128 818.56732 779.55383 4294967295
30.855965 818.56732 779.55383 4294967295
34.191742 818.56732 779.55383 4294967295
-21.049541 748.11841 781.63043 4290889952
-19.275229 749.5675 781.54431 4285957043
-16.365749 748.60138 781.60175 4288061893
-13.149542 748.508 781.30493 4284903092
-10.513762 748.89771 780.97949 4278656813
-7.8853207 748.89764 780.97949 4280035627
-4.3899083 748.00891 782.84619 4284637030
-1.7522936 749.5675 781.54431 4287728041
0.87798166 748.11841 781.63043 4292729570
3.5045872 748.89771 780.97949 4294110187
47.311928 748.22784 780.41467 4294967295
50.232418 748.67438 780.7912 4294967295
52.568806 748.89771 780.97949 4294967295
54.434864 748.00891 782.84619 4294967295
-19.275229 750.9071 782.67383 4282795901
-16.64679 750.9071 782.67383 4282730576
-14.018349 750.9071 782.67383 4283323217
-4.380734 750.9071 782.67383 4286346371
-1.7522936 750.9071 782.67383 4287266950
1.7522936 750.9071 782.67383 4290358483
50.816513 750.9071 782.67383 4294967295
52.568806 750.9071 782.67383 4294967295
-19.21468 755.91162 782.96936 4286738807
-16.885626 755.0213 782.21875 4286673785
-12.664221 754.91003 782.12488 4286213746
-10.480734 754.57617 781.84344 4286542202
-8.1516819 753.68585 781.09277 4285753466
-4.3669724 755.2439 782.40637 4288252299
0.87339449 753.90845 781.2804 4288976051
4.6581039 753.68585 781.09277 4290888382
6.9871559 753.24072 780.71741 4294967294
46.726604 754.24231 781.56189 4294967295
49.34679 754.91003 782.12488 4294967295
-7.6697245 757.72833 781.88513 4287331453
-4.6483178 758.35016 782.40948 4288318349
-1.7431192 757.46173 781.6604 4289239192
0.69724768 757.72833 781.88513 4290291131
3.9220183 757.46179 781.6604 4289504940
7.8440366 756.12915 780.53674 4288848044
43.57798 756.79547 781.09857 4294967295
45.756882 757.79492 781.94135 4294967295
48.807339 758.79437 782.78406 4294967295
5.2128439 761.11542 780.81702 4288253080
43.440369 761.11542 780.81702 4294967295
0.86880732 762.44385 781.93701 4290816442
4.3440366 762.44385 781.93701 4289568176
45.177982 762.44385 781.93701 4294967295
0.86605507 767.40906 782.19946 4290553785
5.1963301 766.08484 781.08301 4289041591
45.034863 766.08484 781.08301 4294967295
0.8642202 770.26941 781.99512 4290094516
4.3211012 769.60876 781.43805 4289765572
6.9137616 768.948 780.88098 4288714675
44.3633 769.38849 781.25238 4294967295
0.8614679 773.89075 781.12451 4290225583
4.3073397 773.89075 781.12451 4290291390
7.4660554 773.01263 780.38409 4288518059
44.796329 773.89075 781.12451 4294967295
-1.7229358 775.20795 782.23523 4289108638
0.8614679 775.20795 782.23523 4289897902
4.3073397 775.20795 782.23523 4291671245
6.8770642 776.73846 780.90967 4292529118
44.700916 776.73846 780.90967 4294967295
46.519264 775.20795 782.23523 4294967295
48.242203 775.20795 782.23523 4294967295
0 778.05286 782.01782 4289371306
5.1577983 778.05286 782.01782 4292395990
46.420185 778.05286 782.01782 4294967295
0 782.96478 782.23535 4289240994
4.5700307 782.52808 781.86713 4291935697
6.8550458 780.99951 780.57825 4290363346
44.557796 780.99951 780.57825 4294967295
47.128441 782.30969 781.68298 4294967295
49.699081 782.96478 782.23535 4294967295
5.1302752 785.79419 782.005 4292660445
7.410398 784.92261 781.2702 4287335833
11.115597 784.48682 780.90271 4289968071
43.607338 784.48682 780.90271 4294967295
47.027523 785.1405 781.45386 4294967295
49.592659 785.79419 782.005 4294967295
8.5229359 788.07312 780.00244 4283979878
11.079817 788.07312 780.00244 4291540926
13.636697 788.07312 780.00244 4290955219
16.193579 788.07312 780.00244 4289835975
18.750458 788.07312 780.00244 4292861946
40.0578 788.07312 780.00244 4294508497
43.466972 788.07312 780.00244 4294967295
46.023853 788.07312 780.00244 4294967295
4.5455661 790.24506 781.8338 4292067534
7.6706424 790.02783 781.65076 4286546318
11.079817 789.37628 781.10132 4290296783
13.636697 789.37628 781.10132 4292861401
43.751068 789.81061 781.46759 4294967295
46.592052 790.24506 781.8338 4294967295
5.1027522 793.49353 781.95679 4292658646
7.6541286 793.49353 781.95679 4285954186
10.772477 792.62665 781.22583 4288126130
13.60734 792.84338 781.40857 4292796643
16.442202 792.62665 781.22583 4288453037
40.822018 792.84338 781.40857 4294967295
43.089905 793.06006 781.59131 4294967295
5.0862384 797.05597 781.03638 4291936202
10.172477 797.05597 781.03638 4283851319
38.994495 797.05597 781.03638 4294967295
40.689907 797.05597 781.03638 4294967295
43.233028 797.05597 781.03638 4294967295
0.84770644 798.35211 782.12927 4289895851
4.2385321 798.35211 782.12927 4291146173
7.612844 799.85742 780.78247 4287664283
10.99633 799.85742 780.78247 4289439915
38.06422 799.85742 780.78247 4294967295
40.601833 799.85742 780.78247 4294967295
43.233028 798.35211 782.12927 4294967295
45.776146 798.35211 782.12927 4294967295
-13.533945 801.79742 782.41821 4287133051
-10.99633 802.44409 782.9635 4287198842
0.56391436 802.013 782.59991 4289698214
4.5113149 802.013 782.59991 4291015097
7.3308868 801.58185 782.23651 4290425538
38.910091 801.15076 781.87292 4294967295
40.601833 801.15076 781.87292 4294967295
43.421406 801.58185 782.23651 4294967295
46.240978 802.013 782.59991 4294967295
49.060551 802.44409 782.9635 4294967295
-15.176147 805.33813 781.47955 4287198585
-13.489908 805.98273 782.02307 4287263867
0 805.98273 782.02307 4289237921
8.4311924 805.33813 781.47955 4291673034
10.679511 805.12329 781.29834 4292726220
37.940369 804.69354 780.93604 4294967295
40.469727 805.33813 781.47955 4294967295
42.718044 805.55298 781.66071 4294967295
46.371559 805.98273 782.02307 4294967295
48.900917 805.98273 782.02307 4294967295
-33.651375 808.76587 781.75366 4286145625
-31.127522 808.12274 781.21136 4286144862
-28.60367 808.12268 781.21136 4286802543
-26.079817 808.12268 781.2113 4287199342
-22.71468 808.12268 781.21136 4287199095
-19.349541 808.12268 781.2113 4287067510
-16.825687 808.12268 781.21136 4287198335
11.217125 808.3371 781.39209 4292857299
13.46055 807.47955 780.66907 4293384434
38.138226 807.90826 781.03058 4294967295
40.381653 808.76587 781.75366 4294967295
42.905502 808.76587 781.75366 4294967295
45.429359 808.76587 781.75366 4294967295
-33.651375 810.05225 782.83826 4286145375
-31.127522 810.05225 782.83826 4286408807
-28.60367 810.05225 782.83826 4286672750
-26.079817 810.05225 782.83826 4287199092
5.0477066 810.05225 782.83826 4290949307
8.4128437 810.05225 782.83826 4292002249
10.917431 811.17065 781.81921 4292725720
13.416513 812.28906 780.80017 4293121509
16.770641 812.28906 780.80017 4293911791
37.733944 812.28906 780.80017 4294967295
40.381653 810.05225 782.83826 4294967295
42.905502 810.05225 782.83826 4294967295
46.270645 810.05225 782.83826 4294967295
48.794495 810.05225 782.83826 4294967295
8.3853207 814.85333 782.9624 4289106853
10.900917 814.21228 782.42181 4290489278
13.387156 815.05957 780.52026 4292858339
15.897248 815.05957 780.52026 4293910769
19.244038 815.05957 780.52026 4294569207
22.590824 815.05957 780.52026 4294372857
25.937614 815.05957 780.52026 4294967295
28.447706 815.05957 780.52026 4294967295
30.957798 815.05957 780.52026 4294967295
34.304588 815.05957 780.52026 4294967295
37.693577 814.31543 781.20074 4294967295
41.367584 813.9986 782.24164 4294967295
43.603668 814.21228 782.42181 4294967295
45.280735 814.21228 782.42181 4294967295
13.387156 816.97858 782.13831 4289302181
15.897249 816.97858 782.13831 4291803586
18.965137 816.76538 781.9585 4294766317
21.754128 816.33893 781.599 4294965759
37.651375 816.97858 782.13831 4294967295
40.719265 817.19183 782.31805 4294967295
13.34312 821.11755 781.7041 4294169820
15.011009 821.11755 781.7041 4293643476
20.014679 820.47998 781.1665 4292006108
22.516514 820.47998 781.1665 4294374393
25.852293 820.47998 781.1665 4294967295
28.354128 820.47998 781.1665 4294967295
30.577982 820.26752 780.9873 4294967295
34.191742 820.47998 781.1665 4294967295
13.34312 822.3927 782.7793 4292922821
22.490826 823.13129 782.09399 4292925915
25.852295 822.3927 782.7793 4294967295
29.155045 823.13129 782.09399 4294967295
31.620184 823.23376 780.87231 4294967295
34.191742 822.3927 782.7793 4294967295
-21.07156 749.35132 783.97815 4283124610
54.434864 749.35132 783.97815 4294967295
-19.275229 752.24677 783.80334 4286343295
-14.018349 752.24677 783.80334 4286936440
-3.5045872 752.24677 783.80334 4287924360
50.816513 752.24677 783.80334 4294967295
52.568806 752.24677 783.80334 4294967295
54.434864 750.69379 785.11011 4294967295
-15.770642 753.58643 784.93286 4286412152
52.568806 753.58643 784.93286 4294967295
-13.100918 757.91479 784.65833 4286608241
-10.480734 757.91479 784.65839 4287002998
50.656879 757.24707 784.09534 4294967295
52.403671 758.58246 785.22144 4294967295
-7.5535164 760.57123 784.28223 4287332220
-4.3577981 760.79333 784.46948 4288121227
-1.7431192 760.12701 783.90771 4289173150
47.06422 760.12701 783.90771 4294967295
49.969418 760.57123 784.28223 4294967295
-1.7376146 763.77222 783.05713 4289305503
0.86880732 763.77222 783.05713 4290488762
3.4752293 763.77222 783.05713 4291015382
46.915596 763.77222 783.05713 4294967295
48.65321 763.77222 783.05713 4294967295
-3.4752293 765.76489 784.7373 4287727498
-1.7376146 765.10065 784.17725 4289306017
46.915596 765.10065 784.17725 4294967295
49.811619 765.54346 784.5506 4294967295
-3.4642203 770.0575 784.43262 4287990157
-1.7321101 768.73328 783.31604 4288978335
46.766972 768.73328 783.31604 4294967295
48.499084 768.73328 783.31604 4294967295
-3.4568808 772.91223 784.22351 4288055950
-1.7284404 771.59082 783.10938 4289174431
46.667889 771.59082 783.10938 4294967295
49.548626 772.03125 783.48077 4294967295
52.829357 771.38165 785.54919 4294967295
-3.4568808 774.23358 785.33765 4287924360
-1.7229358 776.52515 783.34583 4288911511
1.7229358 776.52515 783.34583 4290095286
3.4458716 776.52515 783.34583 4290619322
49.103668 776.52515 783.34583 4294967295
51.85321 774.23358 785.33765 4294967295
-3.4458716 778.50098 785.01172 4287924364
-1.7192661 779.36725 783.1261 4288911259
0.85963303 779.36725 783.1261 4289569705
3.4385321 779.36725 783.1261 4290554301
48.999084 779.36725 783.1261 4294967295
51.688072 778.50098 785.01172 4294967295
-3.4385321 781.99603 785.34265 4288187538
-1.7192661 780.68164 784.23438 4288911259
1.7192661 780.68164 784.23438 4290425011
-1.7137614 784.93005 783.8924 4288910755
0.85688072 784.93005 783.8924 4289635229
3.4275229 784.27496 783.34009 4290686655
51.412846 784.93005 783.8924 4294967295
-3.4275229 786.89532 785.54944 4287463561
-1.7100917 788.40894 784.20972 4288976800
0.85504586 788.40894 784.20972 4289634464
3.4201834 787.10156 783.10742 4290948798
47.882568 787.10156 783.10742 4294967295
49.592659 787.75525 783.65857 4294967295
52.269726 786.89532 785.54944 4294967295
-1.7100917 789.71637 785.31213 4289436065
0.85229355 791.98267 783.29883 4289568678
3.4091742 791.98267 783.29883 4290684856
46.876144 791.98267 783.29883 4294967295
49.433029 791.98267 783.29883 4294967295
51.302753 789.71637 785.31213 4294967295
-4.2614679 794.58899 785.49646 4287924107
-1.7045871 793.28583 784.39771 4288976539
0.85229355 794.03986 783.72546 4289830312
3.401835 794.79388 783.05322 4290225840
46.77523 794.79388 783.05322 4294967295
49.433029 793.28583 784.39771 4294967295
51.137615 794.58899 785.49646 4294967295
-13.60734 796.09424 784.14966 4287067258
-10.205504 797.39459 785.24609 4287134335
-8.5045872 797.39459 785.24609 4287265664
-4.2522936 797.39459 785.24609 4287792519
-1.7009175 796.74438 784.69788 4288910997
47.625687 796.09424 784.14966 4294967295
49.326607 796.09424 784.14966 4294967295
51.027523 797.39459 785.24609 4294967295
-11.86789 799.64832 783.22217 4287198845
-7.6293578 800.94446 784.31506 4287199614
-3.3908257 800.94446 784.31506 4287924098
-1.6954129 800.94446 784.31506 4289174165
1.6954129 799.64832 783.22217 4290552754
3.3908257 799.64832 783.22217 4290226351
47.471561 799.64832 783.22217 4294967295
49.166973 799.64832 783.22217 4294967295
-10.99633 803.73743 784.05396 4287264122
-7.612844 803.73743 784.05396 4287133821
-4.2293577 803.73743 784.05396 4287726725
-1.6917431 803.73743 784.05396 4288977043
1.6917431 803.73743 784.05396 4290159023
4.2293577 803.73743 784.05396 4290422962
6.7669725 803.73743 784.05396 4291079873
50.752293 803.73743 784.05396 4294967295
-7.612844 805.03082 785.14453 4287199614
-5.0752292 805.03082 785.14453 4288119947
50.752293 805.03082 785.14453 4294967295
-26.136696 809.85016 785.28394 4287593082
-22.764221 809.20557 784.74048 4287199101
-19.391743 809.20557 784.74048 4286870135
-15.738227 808.13129 783.83466 4287132800
-13.489908 807.27185 783.10999 4287133303
-10.96055 807.27185 783.10999 4287068026
-3.3724773 808.56097 784.19696 4288120193
-1.6862386 808.56097 784.19696 4289107088
1.0117432 808.30322 783.97961 4289370284
3.9345562 807.7016 783.47235 4290027951
7.3070335 807.70148 783.47235 4291409859
47.21468 807.27185 783.10999 4294967295
49.744034 807.91638 783.6535 4294967295
52.835476 809.42041 784.92163 4294967295
-30.286238 811.33856 783.92285 4286474858
-28.60367 811.33856 783.92285 4286935409
-1.6825688 812.62494 785.00745 4288713360
0 811.98175 784.46515 4288910248
4.2064219 811.98175 784.46515 4289766575
7.2911315 811.76733 784.28436 4290357942
47.111927 811.98175 784.46515 4294967295
49.63578 811.98175 784.46515 4294967295
52.159634 812.62494 785.00745 4294967295
0 817.4176 785.12451 4289303966
4.4721713 816.99023 784.76416 4288648100
7.542201 817.14648 784.24194 4288646557
10.88899 817.51648 783.8999 4291272364
16.733946 818.89758 783.75635 4291150799
18.407339 818.89758 783.75635 4290624455
37.651375 818.89758 783.75635 4294967295
40.998165 818.89758 783.75635 4294967295
43.555962 817.51654 783.8999 4294967295
46.068806 817.51654 783.8999 4294967295
49.193882 816.99023 784.76416 4294967295
51.988991 817.4176 785.12451 4294967295
7.5302753 820.81653 785.37433 4289502111
10.877064 820.17688 784.83496 4290880407
37.651375 820.17688 784.83496 4294967295
41.277065 820.60333 785.19452 4294967295
43.508255 820.81653 785.37433 4294967295
45.739452 820.60333 785.19452 4294967295
38.361469 823.66779 783.85437 4294967295
40.029358 823.66779 783.85437 4294967295
-21.137615 749.03772 787.63776 4285817456
56.366974 749.03772 787.63776 4294967295
54.434864 752.03625 786.24194 4294967295
-19.315596 754.04993 787.93988 4286543222
-16.64679 754.92603 786.0625 4286346361
52.568806 754.92603 786.0625 4294967295
55.312843 754.04993 787.93988 4294967295
57.946789 754.72113 788.50586 4294967295
-16.64679 756.93549 787.75671 4286608504
-13.142202 757.60535 788.32153 4286739056
54.905201 757.15887 787.94501 4294967295
57.825687 757.60535 788.32153 4294967295
-10.480734 760.58563 786.9104 4287396473
-8.7339449 760.58563 786.9104 4287528059
52.403671 760.58563 786.9104 4294967295
54.150459 761.25336 787.47339 4294967295
-10.480734 762.58875 788.59937 4287330174
-7.5596328 763.1687 787.34424 4287397253
-5.2293577 763.45862 786.71674 4287858319
52.293579 764.12494 787.27856 4294967295
54.966972 763.35681 787.93896 4294967295
57.644035 762.58875 788.59937 4294967295
-7.8440366 765.45752 788.40222 4287331206
-5.2128439 767.75751 786.41736 4287923862
52.997246 767.75751 786.41736 4294967295
55.779816 765.45752 788.40222 4294967295
-5.2128439 769.08594 787.53748 4288119958
55.603668 769.75012 788.09753 4294967295
-5.1963301 772.70587 786.66565 4288119958
53.695412 772.70587 786.66565 4294967295
-6.9284406 775.35431 788.8988 4287528072
-5.1908255 775.45325 787.67413 4287988623
53.638531 775.45325 787.67413 4294967295
55.427525 775.35431 788.8988 4294967295
57.159634 775.35431 788.8988 4294967295
-6.9137616 778.19781 788.68018 4287264649
55.310093 778.19781 788.68018 4294967295
57.902752 778.19781 788.68018 4294967295
-5.1688075 781.13538 787.23303 4287791249
53.411011 780.47675 786.67773 4294967295
55.995415 781.79395 787.78833 4294967295
-6.8917432 783.11115 788.89893 4287527307
-4.5847096 784.62482 787.55927 4287725457
53.297249 783.31042 786.45093 4294967295
55.629971 784.55841 788.37518 4294967295
58.579815 783.11115 788.89893 4294967295
-3.4275229 788.20551 786.65417 4287988619
53.126606 788.20551 786.65417 4294967295
-6.8550458 789.51569 787.75891 4287461764
-4.2807341 790.26971 787.08667 4288054669
52.157799 791.02374 786.41443 4294967295
55.697247 790.17078 788.31128 4294967295
-11.115597 792.33112 787.51672 4287264381
-7.6954126 792.33112 787.51672 4287462789
53.012844 792.33112 787.51672 4294967295
55.292965 793.2027 788.25165 4294967295
-6.8183484 795.89215 786.59521 4287463559
52.842201 796.5437 787.14465 4294967295
54.546787 797.19531 787.69409 4294967295
-5.1027522 798.69501 786.34253 4287726989
51.877983 799.34521 786.89075 4294967295
54.546787 798.49847 788.79285 4294967295
52.557796 803.53674 786.50085 4294967295
54.253212 803.53674 786.50085 4294967295
-13.533945 806.32416 786.23499 4287067767
-10.99633 806.32416 786.23499 4287068537
-7.612844 806.32416 786.23499 4287265149
-5.0752292 806.32416 786.23499 4288250763
55.042202 806.22662 787.46082 4294967295
-25.376146 808.91089 788.41602 4287724155
-23.684404 808.91089 788.41602 4287526526
-19.455046 808.91089 788.41602 4286607987
-16.07156 808.26416 787.87085 4286805113
-13.533945 808.26416 787.87079 4286805107
-10.99633 808.26416 787.87085 4287002230
-7.8948007 808.04858 787.68903 4287264891
-5.0752292 807.61749 787.32556 4288184969
55.827522 808.91089 788.41602 4294967295
-26.979816 811.13928 786.37097 4287263604
-21.921101 811.13928 786.37097 4287263354
-6.7449541 811.78381 786.91443 4287329921
-4.2155962 811.78381 786.91443 4287857029
1.6862385 811.13928 786.37097 4289831605
53.959633 811.13928 786.37097 4294967295
55.64587 812.42841 787.45789 4294967295
-21.921101 813.71759 788.54492 4287067510
-6.7449541 813.71759 788.54492 4287133313
-4.2119265 814.45758 787.86078 4287857030
-1.6825688 814.55444 786.63434 4289041298
1.1217126 814.34003 786.45361 4289896617
3.3651376 813.91125 786.09204 4289767086
50.477066 813.91125 786.09204 4294967295
53.281342 814.34003 786.45361 4294967295
55.64587 813.71759 788.54492 4294967295
-3.3651376 816.48395 788.26135 4287988610
-1.6825688 816.48395 788.26135 4288778126
0.84128439 817.5918 787.23346 4289961121
4.1926603 818.69971 786.20557 4289106853
49.473396 818.69971 786.20557 4294967295
52.827522 818.69971 786.20557 4294967295
55.524769 816.48395 788.26135 4294967295
-1.6770642 821.26398 788.36768 4288580246
0.83853209 820.62292 787.82715 4289698459
4.1926603 820.62292 787.82715 4290881719
46.398777 820.83661 788.00732 4294967295
49.752903 820.40924 787.64697 4294967295
53.107037 820.40924 787.64697 4294967295
0 824.01483 788.07104 4288975515
48.528439 823.37518 787.53174 4294967295
51.875229 822.73553 786.99243 4294967295
58.310093 748.73669 791.30798 4294967295
56.366974 751.05768 789.34094 4294967295
59.889908 753.75098 791.61194 4294967295
61.651375 753.75098 791.61194 4294967295
-15.770642 758.94495 789.45117 4286805113
-13.142202 758.94495 789.45117 4286871158
56.073395 758.94495 789.45117 4294967295
58.764221 758.17548 790.11041 4294967295
61.458717 757.40601 790.76965 4294967295
63.21468 757.40601 790.76965 4294967295
-15.770642 760.95447 791.14545 4286739320
-13.142202 760.95441 791.14545 4286739568
59.57798 760.28461 790.58069 4294967295
61.330276 760.28461 790.58069 4294967295
-10.480734 763.92419 789.72546 4287395967
58.517433 763.92419 789.72546 4294967295
61.137615 763.92419 789.72546 4294967295
-10.480734 765.25964 790.85144 4287461503
-8.1406727 766.7251 790.34308 4287330178
58.456879 766.0249 790.18866 4294967295
61.719879 766.1499 791.60205 4294967295
-7.8440366 768.78912 791.21136 4287330434
58.685013 768.56708 791.02411 4294967295
61.880733 769.45544 791.77319 4294967295
-7.8192658 772.40698 790.33777 4287462274
55.603668 771.7428 789.77771 4294967295
58.210091 772.40698 790.33777 4294967295
60.816513 773.07117 790.89783 4294967295
60.623852 776.67853 790.01526 4294967295
-7.7871561 778.76099 790.46313 4287396483
58.766972 779.51923 789.79443 4294967295
61.42569 778.76099 790.46313 4294967295
-8.6422014 780.84064 790.90857 4287395967
61.359634 780.84064 790.90857 4294967295
63.952293 780.84064 790.90857 4294967295
-10.337615 785.74554 791.12024 4287198847
-7.753211 784.42834 790.00952 4287330435
56.85688 784.42834 790.00952 4294967295
58.579815 784.42834 790.00952 4294967295
60.877064 785.30646 790.75 4294967295
63.748623 785.74554 791.12024 4294967295
-12.894495 787.2536 789.77576 4287199096
-8.5963306 787.2536 789.77576 4287330176
56.735779 787.2536 789.77576 4294967295
58.455048 787.91077 790.3299 4294967295
61.033943 788.56799 790.88403 4294967295
64.472473 788.56799 790.88403 4294967295
56.433029 794.94586 789.72144 4294967295
59.124771 792.79126 790.52063 4294967295
61.695412 792.7912 790.52069 4294967295
64.266052 792.7912 790.52069 4294967295
56.433029 796.25323 790.82385 4294967295
58.998165 797.56061 791.92615 4294967295
61.563301 797.56061 791.92615 4294967295
63.273396 797.56061 791.92615 4294967295
56.251377 799.80164 789.89172 4294967295
56.130276 802.59607 789.63184 4294967295
57.893578 802.50061 790.85938 4294967295
61.365139 801.10486 790.99048 4294967295
63.069725 801.10486 790.99048 4294967295
59.532108 805.19684 791.82471 4294967295
61.233028 805.19684 791.82471 4294967295
-16.106422 808.72137 790.87231 4286870899
-13.563303 808.72137 790.87231 4286805352
-11.86789 808.72137 790.87231 4286937194
57.644035 807.42523 789.77942 4294967295
61.034863 808.72137 790.87231 4294967295
-25.376146 810.20422 789.50659 4287526776
-22.838531 810.20422 789.50659 4287264117
-19.476147 810.11084 790.7359 4286935922
-16.106422 810.01758 791.96521 4287067256
-13.563303 810.01758 791.96521 4286936690
-10.722936 810.57306 790.68964 4287133302
-8.4587154 811.49756 790.59717 4287133047
58.534309 811.23889 790.37903 4294967295
61.748623 812.14423 791.1424 4294967295
-6.7449541 815.00671 789.63184 4287133311
-5.0587158 815.00671 789.63184 4287659911
57.332111 815.00671 789.63184 4294967295
-4.2119265 817.03308 790.03241 4287856772
-1.6825688 817.77026 789.34595 4288843156
55.524769 817.77026 789.34595 4294967295
58.175228 816.94043 791.26233 4294967295
-4.4868503 819.48535 790.79205 4287922307
55.524769 819.69977 790.97284 4294967295
-3.3541284 823.18719 789.98926 4287660162
-1.6770642 822.54614 789.44873 4288384402
1.6770642 822.54614 789.44873 4289765287
50.311928 823.18719 789.98926 4294967295
52.827522 822.54614 789.44873 4294967295
-1.6733944 825.29419 789.14978 4288778126
55.343121 825.11035 791.61084 4294967295
60.264221 747.77075 794.41772 4294967295
-15.770642 762.96387 792.83972 4286936442
-13.142202 762.96387 792.83972 4286936436
-10.513762 764.30353 793.96936 4287330174
-10.480734 767.93054 793.10339 4287396219
-10.480734 769.26593 794.22937 4287462012
-10.458715 772.12073 794.02039 4287462012
-10.425688 775.72803 793.13794 4287462012
-8.6880732 774.3996 792.01782 4287527805
-13.03211 777.05646 794.25806 4287133297
-10.39266 779.32697 792.24841 4287395967
-12.963303 782.16205 792.02271 4287067256
-10.370643 782.16205 792.02271 4287198847
62.223854 782.16205 792.02271 4294967295
64.088074 780.65118 793.36499 4294967295
59.124771 794.75647 792.17773 4294967295
61.695412 794.75647 792.17773 4294967295
63.612843 792.51123 794.20874 4294967295
59.85321 798.86798 793.02856 4294967295
59.660549 802.40802 792.08923 4294967295
61.365139 802.40802 792.08923 4294967295
63.069725 802.40802 792.08923 4294967295
-20.344954 811.31372 793.05811 4287001463
-13.563303 811.31372 793.05811 4286804854
-10.737615 811.74579 793.42236 4286936182
-8.4770641 812.60986 794.151 4286936692
-6.7669725 814.73096 793.32343 4287133557
62.594494 814.73096 793.32343 4294967295
-7.6018348 817.77258 793.92603 4287395193
58.175232 818.87415 792.89282 4294967295
62.594494 816.67096 794.95923 4294967295
-6.7449541 820.16327 793.97974 4287658875
-5.0477066 821.62927 792.59973 4287856511
53.000916 821.62927 792.59973 4294967295
55.524769 821.62927 792.59973 4294967295
58.175232 820.16327 793.97974 4294967295
53.000916 822.91565 793.68433 4294967295
57.20734 822.91565 793.68433 4294967295
-13.169725 762.77582 795.29736 4286936699
-13.142202 766.31299 795.66364 4286937464
-13.100918 770.60138 795.35547 4287003766
-13.073395 773.45331 795.14404 4286936688
-19.305199 808.98193 796.76019 4287067253
-16.158716 809.0979 795.11401 4287001463
-15.87523 810.83173 796.57593 4286935413
-13.60734 811.04846 796.75867 4286804593
-11.906422 811.04846 796.75867 4287199351
-10.737615 814.77008 795.97247 4287066485
-8.4770641 813.90601 795.2439 4287330424
-13.563303 816.49835 797.42969 4287131255
-11.020184 816.49835 797.42969 4287131256
-8.4587154 817.96436 796.04968 4287526272
62.730274 816.49835 797.42969 4294967295
64.42569 816.49835 797.42969 4294967295
-7.612844 819.25769 797.14026 4287658877
59.018349 821.45245 795.06677 4294967295
61.748623 819.25769 797.14026 4294967295
58.175232 822.74158 796.15369 4294967295
-19.666054 808.01965 800.745 4286869612
-19.602753 812.18182 800.3302 4287000435
-16.466667 811.58545 798.95538 4287131254
-13.60734 812.99902 798.40332 4287131253
-16.158716 814.94958 800.04797 4287197303
-13.60734 815.59973 800.59619 4287066995
-11.020184 817.79449 798.52258 4287264119
64.42569 817.79449 798.52258 4294967295
66.121101 817.79449 798.52258 4294967295
-7.612844 820.55103 798.23071 4287330425
59.21101 821.84436 799.32129 4294967295
61.748623 821.19763 798.776 4294967295
64.42569 819.73877 800.16193 4294967295
66.686241 819.95477 800.34406 4294967295
-19.602753 814.13654 801.97852 4287197046
-17.045872 815.4397 803.07727 4287131766
-15.308257 816.90009 801.69263 4287197559
-13.60734 816.90009 801.69263 4287199348
-10.772477 817.3335 802.05811 4287199351
-8.5045872 818.20044 802.78906 4287068790
61.882568 821.68298 801.80127 4294967295
64.42569 821.68298 801.80127 4294967295
66.121101 821.68298 801.80127 4294967295
62.730274 823.6272 803.44061 4294967295
64.42569 823.6272 803.44061 4294967295
66.121101 823.6272 803.44061 4294967295
-19.666054 813.90283 805.70551 4286934643
-17.100918 814.55658 806.25671 4286803055
-15.341285 816.74292 804.17603 4287065971
-13.636697 816.74292 804.17603 4286937194
-11.363914 817.61176 804.90863 4287331186
62.730274 825.57141 805.07983 4294967295
-22.278898 814.40924 808.74841 4286671465
-19.42263 814.84595 809.1167 4287329143
-16.263302 815.79169 808.60608 4287921028
-13.695413 815.79169 808.60608 4287856249
-11.13945 815.71942 809.85315 4287856514
-16.245872 818.4787 809.56372 4287660426
-13.680734 818.4787 809.56372 4287132799
-11.115597 818.4787 809.56372 4286541178
-11.93211 821.95557 808.57129 4283121993
-22.350458 813.5415 811.94092 4287130219
-20.631193 813.5415 811.94092 4287131253
-22.278898 817.68469 811.51025 4287723636
-19.708256 817.68469 811.51025 4286280562
-16.245872 819.78607 810.66614 4283189837
-13.680734 820.43976 811.21729 4283319367
-11.970642 821.09344 811.76843 4283385412
-22.350458 817.48468 815.26575 4285488740
-19.771561 817.48468 815.26575 4283517267
-20.565138 820.96014 814.27209 4283582542
-16.280735 820.30505 813.71973 4283518019
-13.710092 820.96014 814.27209 4284043343
-17.137615 822.27032 815.37671 4284304465
-11.970642 823.70819 813.97314 4284436556
-24.069725 818.79907 816.37402 4283518295
-22.350458 818.79907 816.37402 4283320917
-18.952293 817.35834 817.77527 4283845713
-22.350458 820.11346 817.4823 4283714634
-19.485016 820.55157 817.85175 4284435544
-15.473394 820.77063 818.03644 4284501331
-13.181041 820.98975 818.22119 4284436559
-19.708256 824.2356 817.03381 4284632662
-17.137615 823.58051 816.48145 4284632404
-16.333027 822.74225 819.69885 4284436054
-12.894495 822.74225 819.69885 4284109136
64.495415 808.10168 824.35864 4294967295
67.110092 808.10168 824.35864 4294967295
-15.506422 822.62714 822.21777 4284764762
64.631195 807.99359 826.88354 4294967295
67.179817 808.71399 826.18292 4294967295
-13.03211 816.90906 827.86072 4284569687
-15.588991 820.37756 826.86121 4284569185
61.458717 804.39172 830.38672 4294967295
63.082569 805.83246 828.98547 4294967295
62.884403 809.32898 828.00952 4294967295
64.631195 809.32898 828.00952 4294967295
67.251373 809.32898 828.00952 4294967295
62.884403 811.33215 829.69855 4294967295
64.631195 810.66443 829.1355 4294967295
67.542503 811.10956 829.51093 4294967295
64.495415 814.09851 829.41504 4294967295
66.819572 814.32062 829.60229 4294967295
69.72477 814.76483 829.97681 4294967295
-13.900917 818.23749 828.98083 4284635480
-15.638532 819.56592 830.10095 4284898401
61.651375 800.88397 831.35327 4294967295
63.412846 800.88397 831.35327 4294967295
59.889908 803.57733 833.62415 4294967295
61.458717 805.73419 831.51868 4294967295
59.702751 808.41907 833.78247 4294967295
61.330276 809.18164 831.80933 4294967295
61.330276 811.19104 833.50366 4294967295
-12.227523 814.67078 832.51355 4284898651
62.884403 814.00305 831.95056 4294967295
68.124771 814.67078 832.51355 4294967295
-15.688073 818.7627 833.34778 4285096035
-13.073395 818.09644 832.78589 4285161053
62.011009 816.00616 833.63953 4294967295
64.563309 816.05182 832.37 4294967295
66.913757 816.03662 832.79315 4294967295
69.72477 816.09747 831.10046 4294967295
59.097248 782.4903 836.77258 4294967295
60.888073 782.4903 836.77258 4294967295
61.656879 785.31415 836.53748 4294967295
-8.9082565 790.22046 836.75024 4285620592
61.277065 793.75208 835.80383 4294967295
63.941284 793.75208 835.80383 4294967295
-12.407339 797.90851 836.6925 4283977549
-10.65688 795.10992 836.94885 4283385160
58.552292 796.50922 836.82068 4294967295
60.264221 796.55341 835.54993 4294967295
60.077065 800.06958 834.59058 4294967295
58.310093 802.09583 836.29913 4294967295
59.889908 804.92395 834.75964 4294967295
59.702751 809.76154 834.91443 4294967295
-10.53578 811.104 836.04639 4284767061
59.702751 811.104 836.04639 4294967295
61.330276 812.5307 834.63318 4294967295
-10.513762 814.54016 836.32758 4284963421
59.57798 814.54016 836.32758 4294967295
-12.227523 818.67706 835.8916 4285554789
59.390827 818.67706 835.8916 4294967295
62.011009 818.00934 835.32861 4294967295
64.631195 817.34161 834.76562 4294967295
67.251373 817.34161 834.76562 4294967295
-13.944954 820.09534 834.47144 4285751912
64.495415 820.09534 834.47144 4294967295
66.238533 820.09534 834.47144 4294967295
54.955963 776.74011 839.77234 4294967295
58.380737 778.9306 837.69519 4294967295
55.686237 780.30396 838.85315 4294967295
57.482571 780.30396 838.85315 4294967295
59.097248 784.54395 838.50409 4294967295
58.976147 788.04675 838.84155 4294967295
61.656879 787.36359 838.2655 4294967295
64.337616 787.36359 838.26556 4294967295
-10.689908 791.58252 837.8988 4283186250
-8.0284405 790.4978 838.94617 4283186251
-5.3614678 789.41302 839.99353 4283252044
57.991745 790.4978 838.94617 4294967295
-8.0174313 792.94464 839.04724 4283450953
57.012844 792.94464 839.04724 4294967295
-10.65688 796.46777 838.09375 4284043343
-8.8807335 797.14673 838.6662 4284043596
56.836697 797.14673 838.6662 4294967295
-10.634862 799.9411 838.40637 4284175182
-10.601835 804.12219 838.00769 4284109136
56.543118 805.47302 839.14661 4294967295
58.310093 804.12219 838.00769 4294967295
-10.568808 807.61731 837.03052 4284438100
58.128441 808.29065 837.59827 4294967295
-8.8073397 810.31061 839.30151 4284767065
58.128441 810.31061 839.30151 4294967295
-8.7798166 814.46008 838.87616 4285620327
57.946789 814.46008 838.87616 4294967295
-10.513762 817.21948 838.58667 4285751912
-13.100918 820.68018 837.58057 4285818475
59.390827 820.68018 837.58057 4294967295
62.011009 820.68018 837.58057 4294967295
64.631195 820.68018 837.58057 4294967295
-15.721101 822.68335 839.26965 4286410861
59.390827 822.68335 839.26965 4294967295
62.011009 822.68335 839.26965 4294967295
52.412846 773.16779 840.68433 4294967295
54.220184 773.16779 840.68433 4294967295
52.412846 774.54956 841.84937 4294967295
54.055046 778.8064 841.51447 4294967295
55.686237 781.67725 840.01111 4294967295
57.482571 781.67725 840.01111 4294967295
-3.5926607 784.42389 842.32703 4284830306
-1.7963303 784.42389 842.32703 4284633183
55.686237 783.73718 841.74805 4294967295
57.482571 783.05054 841.16907 4294967295
-7.1633029 786.5976 840.23572 4285093234
-4.4770641 787.2821 840.81293 4283975774
55.515594 787.96667 841.39014 4294967295
57.306423 786.5976 840.23572 4294967295
-4.4678898 790.7793 841.14563 4283385160
-1.7908257 789.33575 842.54443 4283385160
0 789.33575 842.54443 4283516749
55.401836 790.7793 841.14563 4294967295
-7.1266055 794.3067 840.19568 4283977549
-4.4596329 793.2262 841.24664 4283910986
-1.787156 792.14563 842.29761 4284041546
55.401836 792.14563 842.29761 4294967295
-7.1266055 796.34985 841.91846 4284175182
-5.344954 796.34985 841.91846 4284109645
55.231194 796.34985 841.91846 4294967295
-8.2886848 800.08881 841.14691 4284174930
55.948624 799.86249 840.95605 4294967295
-7.9834862 802.61401 841.96808 4284372309
-5.3284402 801.89929 842.67346 4284503642
55.833027 802.65125 840.69147 4294967295
-7.9623852 805.75391 841.34546 4284766039
55.744953 805.75391 841.34546 4294967295
-7.0678897 808.17474 841.42468 4285028189
55.65963 808.85022 841.9942 4294967295
-7.0458717 811.65723 840.43689 4285225313
56.366974 811.65723 840.43689 4294967295
-7.0458717 813.67725 842.14014 4285950312
56.366974 813.67725 842.14014 4294967295
-8.7798166 817.14502 841.13995 4286212462
56.190826 817.81622 841.70593 4294967295
57.946789 816.47375 840.57397 4294967295
-12.266055 820.56854 841.41052 4286409072
-10.524771 819.19385 841.55945 4286278257
-8.7798166 819.15869 842.83789 4286475637
56.190826 819.15869 842.83789 4294967295
57.825687 820.5686 841.41046 4294967295
59.390827 824.0188 840.39563 4294967295
61.137615 824.0188 840.39563 4294967295
59.390827 826.02197 842.08459 4294967295
61.137615 825.35425 841.52161 4294967295
40.326607 757.32013 845.6344 4294967295
46.601833 762.32605 845.93115 4294967295
49.194496 764.52924 843.86475 4294967295
51.016514 764.52924 843.86475 4294967295
0 765.92218 845.03931 4288975267
50.054131 766.65515 844.3493 4294967295
52.732109 767.38818 843.6593 4294967295
-1.8183486 768.77832 844.83142 4288384651
50.004585 768.77832 844.83142 4294967295
-4.5321102 773.74493 845.09509 4288645514
-1.812844 773.052 844.5108 4289303956
0 773.74493 845.09509 4289437862
49.85321 773.052 844.5108 4294967295
50.605503 775.93127 843.0144 4294967295
52.412846 775.93127 843.0144 4294967295
-9.0366974 778.6947 845.34448 4287396993
-7.2293577 778.6947 845.34448 4286936703
-1.8073394 777.31299 844.17944 4290028196
0 778.6947 845.34448 4287065723
49.701836 778.00385 844.76196 4294967295
52.412846 777.31299 844.17944 4294967295
-4.5045872 780.87262 843.25671 4286870139
-1.8018348 780.87262 843.25671 4286935418
0 782.25012 844.41821 4284828772
52.253212 781.5614 843.83746 4294967295
54.055046 781.5614 843.83746 4294967295
-1.7963303 785.79718 843.48486 4283055948
0 785.79718 843.48486 4283121739
49.550461 783.62769 845.57971 4294967295
53.07156 784.7124 844.53229 4294967295
50.297249 788.54382 845.80078 4294967295
52.692356 787.62823 845.02881 4294967295
0 790.7049 843.69885 4283911504
53.72477 790.7049 843.69885 4294967295
-3.574312 794.19507 844.0257 4284043343
-1.787156 794.19507 844.0257 4284043343
0 794.19507 844.0257 4284370259
52.747704 793.83557 844.37659 4294967295
50.040367 796.24451 845.75366 4294967295
51.827522 796.24451 845.75366 4294967295
-4.1571865 798.84698 844.02393 4284306519
-1.7816514 799.07397 844.21539 4284437848
0 799.07397 844.21539 4284437078
52.855656 799.30103 844.4068 4294967295
-4.4403667 803.2572 843.81836 4284896857
-1.7816514 801.11713 845.93811 4284896855
0 801.11713 845.93811 4285158748
49.886238 801.11713 845.93811 4294967295
52.476147 802.18713 844.87823 4294967295
-4.4348621 805.32703 844.25562 4285027677
-1.7761468 804.61505 844.96338 4285289823
0 804.61505 844.96338 4285487195
53.284405 804.61505 844.96338 4294967295
54.946789 806.03894 843.54785 4294967295
-4.4311924 808.07153 845.26172 4285685863
52.288074 808.07153 845.26172 4294967295
-5.3009176 811.55188 844.27222 4285950312
53.009174 811.55188 844.27222 4294967295
54.776146 811.55188 844.27222 4294967295
-7.0458717 815.6972 843.84338 4286278508
-5.3009176 813.57825 845.98071 4286278508
52.125687 813.57825 845.98071 4294967295
54.605503 815.6972 843.84338 4294967295
-7.0458717 817.04388 844.97876 4286410355
-5.2844038 817.04388 844.97876 4286410355
54.605503 817.04388 844.97876 4294967295
-13.169725 821.17236 844.53577 4286737785
-10.53578 821.17236 844.53577 4286738808
-8.7798166 821.17236 844.53577 4286804601
55.020184 820.94855 844.34717 4294967295
-12.266055 824.58746 844.79919 4287200389
-10.513762 824.58746 844.79919 4287396993
56.073395 823.24786 843.66968 4294967295
57.825687 823.91766 844.23444 4294967295
56.073395 825.92712 845.92871 4294967295
57.825687 825.92712 845.92871 4294967295
38.609173 755.10858 847.69373 4294967295
40.447708 756.51416 848.87891 4294967295
43.142204 757.6178 847.84747 4294967295
46.742203 758.7215 846.81604 4294967295
3.666055 760.12286 847.99756 4290158246
43.076149 760.12286 847.99756 4294967295
1.827523 763.72321 847.10925 4289896369
3.655046 763.72321 847.10925 4290092705
46.601833 763.72321 847.10925 4294967295
-4.5550461 767.31512 846.21375 4287922817
0.9137615 766.21777 847.25049 4289304484
3.655046 765.12036 848.28723 4290158498
43.86055 765.12036 848.28723 4294967295
46.530273 766.21777 847.25049 4294967295
-4.5458717 770.16846 846.00354 4288054146
1.2146789 769.65918 847.31818 4289700014
3.6440368 770.10101 848.56274 4291081660
41.906422 770.10101 848.56274 4294967295
43.728439 770.10101 848.56274 4294967295
46.125992 769.65918 847.31818 4294967295
49.095413 770.16846 846.00354 4294967295
-9.0917435 772.94873 848.34778 4287989892
-7.2733946 771.55859 847.17566 4287724670
43.640366 772.94873 848.34778 4294967295
46.367889 772.25366 847.76172 4294967295
-7.2513762 775.13086 846.26367 4288383105
-4.5321102 775.13086 846.26367 4288843660
0.90642202 775.82385 846.84796 4288711573
46.529663 776.05487 847.04272 4294967295
3.6256881 777.90271 848.60083 4285289573
43.508255 777.90271 848.60083 4294967295
45.321102 777.90271 848.60083 4294967295
1.8073394 780.76733 847.09204 4284172634
4.2171254 782.37933 848.45123 4283317831
43.376148 782.8399 848.8396 4294967295
46.087158 781.45819 847.67456 4294967295
49.701836 780.07642 846.50952 4294967295
1.8018348 785.00519 846.74121 4283516749
46.847706 785.00519 846.74121 4294967295
49.550461 785.00519 846.74121 4294967295
1.8018348 786.38269 847.90271 4283977297
3.6036696 786.38269 847.90271 4283977300
46.847706 786.38269 847.90271 4294967295
48.64954 786.38269 847.90271 4294967295
1.7963303 790.60376 847.53772 4284370259
46.704586 791.29041 848.1167 4294967295
49.099689 790.37482 847.34473 4294967295
1.7908257 794.81219 847.16211 4284567638
3.5816514 794.81219 847.16211 4284567640
49.247707 794.12769 846.5849 4294967295
1.7908257 796.18127 848.31641 4284437848
3.5816514 796.18127 848.31641 4284830810
46.561466 796.18127 848.31641 4294967295
49.14679 797.61084 846.90576 4294967295
1.787156 798.97711 848.05774 4285290077
5.3614678 798.97711 848.05774 4285158748
46.466057 798.97711 848.05774 4294967295
48.253212 798.97711 848.05774 4294967295
48.995415 803.16028 847.66083 4294967295
51.667889 802.47925 847.08655 4294967295
-3.5522935 805.97296 846.10828 4285291111
-1.7761468 805.97296 846.10828 4285356904
0 805.97296 846.10828 4285947746
51.508255 805.97296 846.10828 4294967295
-1.7761468 807.33081 847.25317 4286277743
0 808.00977 847.82562 4286211433
47.955963 808.68872 848.39807 4294967295
49.732109 808.00977 847.82562 4294967295
-3.5449541 810.78168 847.54688 4286212460
-1.772477 810.78168 847.54688 4286212204
49.629356 811.45923 848.11816 4294967295
51.401836 810.10413 846.97559 4294967295
-3.5339448 814.92908 847.11975 4286344312
52.125687 814.92908 847.11975 4294967295
-7.0458717 818.39056 846.11426 4286607991
-4.4091744 817.33527 847.18652 4286739321
-1.7669724 816.27997 848.25879 4286607737
49.475231 816.27997 848.25879 4294967295
52.043121 817.33527 847.18652 4294967295
-7.0458717 820.41052 847.8175 4287067773
-5.2844038 819.73718 847.24976 4286936188
52.256882 820.63495 848.00677 4294967295
-8.7798166 823.85724 846.79962 4287331455
55.020184 823.63348 846.61102 4294967295
52.678898 825.87091 848.49744 4294967295
55.19725 827.26678 847.05835 4294967295
52.568806 828.60645 848.18787 4294967295
54.150459 830.69598 846.02563 4294967295
11.097248 750.68542 851.8125 4290555064
13.871559 750.68542 851.8125 4289634744
16.645872 750.68542 851.8125 4289832650
24.968807 750.68542 851.8125 4293120983
28.667891 750.68542 851.8125 4294043124
31.442202 750.68542 851.8125 4294967295
34.164223 751.7912 850.78284 4294967295
36.880733 752.89697 849.75317 4294967295
7.3761468 754.30676 850.94177 4291276995
35.036697 754.30676 850.94177 4294967295
37.80275 754.30676 850.94177 4294967295
5.5155964 757.91974 850.06396 4290816176
40.447708 757.91974 850.06396 4294967295
5.4990826 761.52423 849.1792 4290882221
7.3541284 759.32532 851.24915 4290747832
38.609173 759.32532 851.24915 4294967295
40.326607 761.52423 849.1792 4294967295
43.076149 761.52423 849.1792 4294967295
5.4990826 763.62628 850.9516 4291671736
7.3321099 764.32697 851.54236 4291868601
40.326607 763.62628 850.9516 4294967295
42.159634 762.9256 850.36084 4294967295
4.5688076 767.21606 850.05432 4291343801
7.310092 767.91467 850.64331 4291870400
40.205505 767.91467 850.64331 4294967295
42.946789 766.51752 849.46533 4294967295
5.4825687 769.31183 851.82141 4292199373
7.310092 769.31183 851.82141 4292067776
10.051376 769.31183 851.82141 4292660174
37.464218 769.31183 851.82141 4294967295
1.8220184 771.49396 849.73718 4291278269
4.5550461 772.19043 850.32446 4289633189
7.2880735 772.8869 850.91174 4288777863
40.995415 772.19043 850.32446 4294967295
4.5458717 775.03394 850.10602 4286803322
7.2733946 775.729 850.69214 4286804322
40.912842 775.729 850.69214 4294967295
43.640366 774.33887 849.5199 4294967295
5.4385319 779.2887 849.76941 4283577926
7.2733946 777.11914 851.86426 4283184170
9.0917435 777.11914 851.86426 4283118377
40.849541 778.20392 850.81683 4294967295
43.508255 779.2887 849.76941 4294967295
7.2513762 780.67462 850.93799 4283513918
40.78899 780.67462 850.93799 4294967295
5.4220185 784.22162 850.00464 4283977300
7.2293577 784.91248 850.58716 4284305492
9.0366974 785.60333 851.16968 4284306262
41.568806 784.91248 850.58716 4294967295
43.376148 784.91248 850.58716 4294967295
45.183487 784.22162 850.00464 4294967295
4.5045872 787.76025 849.06421 4284436054
45.946789 787.76025 849.06421 4294967295
4.5045872 789.13776 850.22571 4284501847
7.2073393 790.51526 851.38721 4284503642
9.0091743 790.51526 851.38721 4284437848
41.442204 790.51526 851.38721 4294967295
43.244038 789.82654 850.80646 4294967295
45.045872 789.82654 850.80646 4294967295
5.3889909 793.35034 849.85358 4284699225
44.010094 794.03705 850.4325 4294967295
46.704586 792.6637 849.27466 4294967295
3.5816514 797.55042 849.47083 4285158748
7.1853213 795.41034 851.59045 4284962398
43.941284 796.48035 850.53064 4294967295
1.787156 800.34338 849.20984 4285487195
4.4733944 799.63147 849.91754 4285356122
7.7602448 799.83221 851.39484 4285686116
41.188992 800.28857 851.77966 4294967295
43.829357 799.63147 849.91754 4294967295
46.466057 800.34338 849.20984 4294967295
1.787156 801.70972 850.36182 4286210918
4.4678898 802.39282 850.93774 4286080614
43.78532 802.39288 850.93781 4294967295
46.466057 801.70972 850.36182 4294967295
1.7816514 805.88446 849.95776 4286211434
3.5633028 806.56549 850.53198 4286211949
43.650459 806.56549 850.53198 4294967295
46.322937 805.88446 849.95776 4294967295
48.104588 805.20343 849.38354 4294967295
1.7816514 807.92761 851.68054 4286344051
3.5633028 807.92761 851.68054 4286409844
43.650459 807.92761 851.68054 4294967295
46.322937 807.92761 851.68054 4294967295
-1.772477 812.81427 849.26074 4286278519
0.59204894 811.87445 850.21222 4286409848
3.5522935 812.76233 851.83289 4286540662
47.245506 811.67609 850.91699 4294967295
49.629356 812.81427 849.26074 4294967295
0 814.84692 850.97449 4286870140
47.85688 815.52441 851.54578 4294967295
-4.1229358 818.53143 850.15704 4287133308
-1.7669724 818.30627 849.96729 4287264638
49.475231 818.30627 849.96729 4294967295
51.242203 817.6308 849.39783 4294967295
-7.0678897 820.33252 851.67578 4287528059
-4.4174314 820.33252 851.67578 4287462014
-1.7669724 820.33252 851.67578 4287133053
0 820.33252 851.67578 4287265153
49.475231 820.33252 851.67578 4294967295
49.321102 823.77716 850.65613 4294967295
51.669724 822.87939 849.89911 4294967295
50.122017 826.16858 850.71051 4294967295
50.922935 828.55579 850.76135 4294967295
52.568806 829.94604 849.31738 4294967295
19.168808 748.00104 853.47321 4290951125
22.26055 747.76471 853.27393 4292069057
10.172478 752.09937 853.00464 4292199125
13.871559 752.09937 853.00464 4291803860
16.645872 752.09937 853.00464 4291144907
18.495413 752.09937 853.00464 4291406778
24.968807 752.09937 853.00464 4293450978
28.667891 752.09937 853.00464 4293517298
31.442202 752.09937 853.00464 4294967295
33.291744 752.09937 853.00464 4294967295
7.3761468 755.71655 852.13049 4290551732
10.142202 755.71655 852.13049 4289039013
13.871559 753.51337 854.1969 4290681780
