# .PCD v0.7 - Point Cloud Data file format
VERSION 0.7
FIELDS x y z rgb
SIZE 4 4 4 4
TYPE F F F U
COUNT 1 1 1 1
WIDTH 1161
HEIGHT 1
VIEWPOINT 0 0 0 1 0 0 0
POINTS 1161
DATA ascii
-43.347706 787.94 1235.0847 4286278751
-39.833027 787.94 1235.0847 4287265665
-37.48991 787.94 1235.0847 4287265930
-43.211929 793.72241 1234.728 4286344814
-52.355965 761.42053 1238.8848 4282533978
-49.976147 759.6012 1237.3507 4283258471
-47.596329 759.6012 1237.3507 4284765807
-42.836697 761.42053 1238.8848 4286212213
-54.524769 767.86859 1237.7814 4292198108
-52.154129 766.9624 1237.0173 4289765531
-49.783485 766.05621 1236.2532 4285159257
-46.227524 766.05621 1236.2532 4286015086
-42.671558 766.05621 1236.2532 4286673532
-40.300919 767.86859 1237.7814 4287396487
-55.888073 775.49219 1237.6693 4287662474
-51.952293 775.19128 1237.4155 4291934936
-49.590824 775.19128 1237.4155 4291145420
-47.229359 774.28857 1236.6544 4289632386
-43.293579 774.89038 1237.1617 4286342757
-51.750458 782.47888 1237.02 4291344335
-49.398167 782.47888 1237.02 4291146700
-39.988991 782.47888 1237.02 4287396989
-51.750458 784.27722 1238.5364 4289434269
-51.548622 790.62701 1237.3502 4284633683
-49.205505 790.62701 1237.3502 4285291613
-46.862385 790.62701 1237.3502 4285488992
-39.833027 790.62701 1237.3502 4287463801
-37.48991 790.62701 1237.3502 4287397518
-51.548622 792.41833 1238.8607 4285028441
-49.205505 792.41833 1238.8607 4285752164
-46.862385 792.41833 1238.8607 4285751912
-39.833027 792.41833 1238.8607 4287331709
-37.48991 792.41833 1238.8607 4287200139
-46.715595 796.401 1236.9866 4285556586
-43.211929 796.401 1236.9866 4286542711
-49.051376 798.18677 1238.4923 4285556834
-46.715595 798.18677 1238.4923 4285490793
-43.211929 798.18677 1238.4923 4286410357
-45.355965 757.33698 1240.6737 4285555580
-42.968807 757.33698 1240.6737 4286145664
-54.735779 763.23993 1240.4188 4289898684
-40.456882 763.23993 1240.4188 4287397254
-38.077065 763.23993 1240.4188 4287201927
-38.077065 765.05933 1241.9529 4287397766
-35.697247 765.05933 1241.9529 4288187538
-55.710091 769.68097 1239.3094 4290947512
-40.300919 769.68097 1239.3094 4287593352
-37.930275 769.68097 1239.3094 4287528068
-54.524769 771.49335 1240.8376 4293646810
-40.300919 771.49335 1240.8376 4287659146
-55.494495 778.802 1240.46 4287200378
-40.144955 777.89929 1239.6989 4287528322
-37.783485 778.802 1240.46 4287331975
-54.102753 786.97473 1240.8108 4284568913
-52.720184 794.20966 1240.3711 4285029210
-49.205505 794.20966 1240.3711 4285883750
-39.833027 794.20966 1240.3711 4287331457
-37.48991 794.20966 1240.3711 4287396487
-51.548622 796.00098 1241.8815 4284833110
-39.833027 796.00098 1241.8815 4287593350
-37.48991 796.00098 1241.8815 4287593350
-49.051376 799.97247 1239.9979 4285425246
-46.715595 799.97247 1239.9979 4285490539
-44.379818 799.97247 1239.9979 4286280054
-47.926605 752.67462 1243.2826 4289372593
-52.719265 754.50665 1244.8274 4281810769
-40.737614 754.50665 1244.8274 4286803850
-38.341286 754.50665 1244.8274 4286673030
-40.58165 759.16193 1242.2124 4287067521
-38.194496 759.16193 1242.2124 4286937217
-35.807339 760.98694 1243.7512 4287991442
-35.697247 766.87872 1243.4869 4288252048
-40.300919 773.30573 1242.3658 4287724670
-37.930275 773.30573 1242.3658 4287266438
-55.494495 781.51001 1242.7433 4286346102
-35.42202 783.31543 1244.2656 4287923862
-54.102753 789.67224 1243.0853 4284962900
-51.548622 797.79236 1243.3918 4284570193
-42.176147 797.79236 1243.3918 4286541944
-39.833027 797.79236 1243.3918 4287463046
-37.48991 797.79236 1243.3918 4287593862
-52.720184 799.58368 1244.9023 4284504923
-49.205505 799.58368 1244.9023 4285294180
-46.862385 799.58368 1244.9023 4285424746
-43.347706 799.58368 1244.9023 4286345848
-39.833027 799.58368 1244.9023 4287266950
-37.48991 799.58368 1244.9023 4287136134
-34.746788 757.25464 1247.1444 4287859086
-38.077065 768.69812 1245.021 4287266438
-54.102753 793.26898 1246.1179 4284964193
-54.102753 795.06732 1247.6343 4284701536
-52.329662 801.97217 1246.9161 4284832865
-49.205505 802.27069 1247.168 4285358953
-46.862385 802.27069 1247.168 4285556336
-43.347706 802.27069 1247.168 4286345851
-39.833027 802.27069 1247.168 4287201158
-37.48991 802.27069 1247.168 4287136132
-33.548622 760.00269 1249.4614 4288318345
-35.807339 768.28693 1249.9064 4288055698
-35.697247 772.33691 1248.0891 4288121491
-35.559631 782.36761 1250.0066 4287923862
-49.205505 804.9577 1249.4335 4285424494
-46.862385 805.85339 1250.1887 4285424746
-43.347706 805.85339 1250.1887 4286345850
-39.833027 805.85339 1250.1887 4287135622
-37.48991 805.85339 1250.1887 4287267975
-35.14679 805.85339 1250.1887 4287794319
-33.548622 761.83472 1251.0061 4288186766
-35.944954 763.66675 1252.5509 4288055698
-33.420185 770.11194 1251.4452 4288187540
-34.613762 771.93695 1252.984 4288055698
-35.559631 785.99237 1253.0629 4288251796
-35.42202 793.24487 1252.6378 4288187281
-35.284405 800.46234 1252.1832 4287859854
-54.102753 802.26068 1253.6996 4284832356
-51.750458 802.26068 1253.6996 4284832356
-43.347706 808.54034 1252.4543 4286214518
-39.833027 808.54034 1252.4543 4287399049
-37.48991 808.54034 1252.4543 4287333256
-35.14679 808.54034 1252.4543 4287859600
-39.833027 810.33167 1253.9647 4287463300
-37.48991 810.33167 1253.9647 4287529356
-33.677063 760.87146 1256.7341 4288252563
-21.649542 760.87146 1256.7341 4290490806
-16.838531 760.87146 1256.7341 4290557115
-12.027523 760.87146 1256.7341 4286611866
-33.548622 765.49872 1254.0956 4288187540
-21.566973 767.33075 1255.6403 4290227889
-34.613762 773.76196 1254.5228 4288055700
-33.420185 775.58698 1256.0615 4288055700
-35.697247 781.43384 1255.7594 4287989655
-35.559631 787.80475 1254.5909 4288382866
-35.42202 795.95294 1254.9213 4287859854
-49.398167 804.05908 1255.2159 4284964195
-47.045872 805.85742 1256.7322 4285095781
-32.93211 805.85742 1256.7322 4288187536
-31.390825 754.38422 1257.8043 4288778896
-28.976147 754.38422 1257.8043 4289173152
-25.35413 754.38422 1257.8043 4289962673
-12.073395 754.38422 1257.8043 4290690235
-31.390825 756.23022 1259.361 4288976539
-28.976147 756.23022 1259.361 4289304738
-25.35413 756.23022 1259.361 4289634219
-21.732111 756.23022 1259.361 4290227385
-19.31743 756.23022 1259.361 4289965242
-16.902752 756.23022 1259.361 4290162877
-13.280734 756.23022 1259.361 4287731873
-9.6587152 756.23022 1259.361 4287205279
-31.271559 763.63 1259.0601 4288911007
-28.866055 763.63 1259.0601 4288845727
-25.257797 763.63 1259.0601 4289306533
-21.649542 762.71051 1258.2848 4290490806
-19.244038 763.63 1259.0601 4290687675
-16.838531 763.63 1259.0601 4290885310
-13.230276 763.63 1259.0601 4288519088
-9.6220188 763.63 1259.0601 4286613914
-7.2165136 763.63 1259.0601 4286679450
-4.8110094 764.54956 1259.8354 4287007385
-2.4055047 764.54956 1259.8354 4292599790
0 764.54956 1259.8354 4294243325
-31.152294 770.07874 1257.9574 4288845215
-22.365747 770.38409 1258.2148 4289898413
-19.170643 770.07874 1257.9574 4290424504
-16.774311 770.07874 1257.9574 4290753469
-33.420185 778.32446 1258.3698 4288055698
-33.060551 799.56366 1257.9657 4288187536
-33.060551 801.36902 1259.4879 4288253330
-30.699083 801.36902 1259.4879 4288713880
-43.517433 808.55493 1259.0067 4286410092
-39.988991 809.4541 1259.7649 4287593854
-37.636696 809.4541 1259.7649 4287725200
-35.284405 808.55493 1259.0067 4288186518
-32.93211 808.55493 1259.0067 4288252561
-37.078899 839.08484 1259.8962 4285294432
-31.390825 758.07629 1260.9175 4289173409
-28.976147 758.07629 1260.9175 4289173409
-25.35413 758.07629 1260.9175 4289503143
-19.31743 758.07629 1260.9175 4290425530
-14.488073 758.07629 1260.9175 4288848827
-9.6587152 758.07629 1260.9175 4286678937
-7.2440367 758.07629 1260.9175 4289047485
-4.8293576 758.07629 1260.9175 4289769174
0 758.07629 1260.9175 4294506239
-4.8293576 759.92236 1262.474 4287270813
-2.4146788 759.92236 1262.474 4293323769
0 759.92236 1262.474 4294374399
-28.866055 766.38855 1261.3861 4288714911
-25.257797 766.38855 1261.3861 4289372326
-13.230275 766.38855 1261.3861 4288387757
-9.6220188 766.38855 1261.3861 4287270295
-7.2165136 766.38855 1261.3861 4287336088
-4.8110094 766.38855 1261.3861 4287468188
-2.4055047 766.38855 1261.3861 4292600042
0 766.38855 1261.3861 4293782783
-28.866055 768.2276 1262.9366 4288911007
-26.46055 768.2276 1262.9366 4289437351
-13.230275 768.2276 1262.9366 4289240501
-9.6220188 768.2276 1262.9366 4288452003
-7.2165136 768.2276 1262.9366 4287794329
-4.8110094 768.2276 1262.9366 4287599261
-2.4055047 768.2276 1262.9366 4292402149
0 768.2276 1262.9366 4293913340
-31.152294 772.82678 1260.2744 4288713631
-22.765137 772.82678 1260.2744 4289700521
-19.170643 772.82678 1260.2744 4290425532
-16.774311 772.82678 1260.2744 4290820289
-14.377981 772.82678 1260.2744 4291214280
-10.783486 772.82678 1260.2744 4291280069
-7.1889906 772.82678 1260.2744 4290096049
-31.152294 774.65881 1261.8191 4288647835
-28.755962 774.65881 1261.8191 4288845212
-26.359632 774.65881 1261.8191 4289371556
-22.765137 774.65881 1261.8191 4289569702
-19.170643 774.65881 1261.8191 4290293430
-16.774311 774.65881 1261.8191 4290951103
-14.377981 774.65881 1261.8191 4290820803
-10.783486 774.65881 1261.8191 4290755009
-7.1889906 774.65881 1261.8191 4290820801
-4.7926607 774.65881 1261.8191 4289504189
-2.3963304 774.65881 1261.8191 4288188329
0 774.65881 1261.8191 4290097334
-33.420185 781.97449 1261.4474 4288055952
-19.097248 781.97449 1261.4474 4289963952
-16.710093 781.97449 1261.4474 4291082433
-14.322936 782.88696 1262.2168 4290491840
-10.742202 782.88696 1262.2168 4288584095
-7.161468 782.88696 1262.2168 4289702828
-4.774312 782.88696 1262.2168 4289374138
-33.317432 787.80176 1261.1287 4288056718
-19.038532 788.71143 1261.8956 4290226353
-16.658716 787.80176 1261.1287 4291213248
-14.278899 788.71143 1261.8956 4291016385
-10.709174 788.71143 1261.8956 4288846238
-7.1394496 787.80176 1261.1287 4289373351
-4.7596331 788.71143 1261.8956 4289109153
-2.3798165 788.71143 1261.8956 4292596183
0 788.71143 1261.8956 4292860651
-33.188992 795.0542 1260.7036 4287859850
-30.818348 795.96045 1261.4677 4288845977
-28.447706 796.86664 1262.2317 4288976539
-21.335779 796.86664 1262.2317 4290226865
-18.965137 796.86664 1262.2317 4290161594
-16.594496 796.86664 1262.2317 4290885060
-14.223853 796.86664 1262.2317 4290425784
-10.667891 796.86664 1262.2317 4289570218
-7.1119266 795.96045 1261.4677 4289636521
-4.7412844 796.86664 1262.2317 4289636765
-2.3706422 796.86664 1262.2317 4291478969
0 796.86664 1262.2317 4292466405
-30.699083 803.17438 1261.0101 4288713880
-47.229359 804.97974 1262.5323 4287004291
-30.699083 804.97974 1262.5323 4288713883
-28.337614 804.97974 1262.5323 4288844447
-21.25321 804.97974 1262.5323 4290029742
-18.891743 804.97974 1262.5323 4289964460
-16.530275 804.97974 1262.5323 4290688440
-14.168807 804.97974 1262.5323 4290754492
-7.0844035 804.97974 1262.5323 4291148485
-43.517433 811.25244 1261.2811 4286540150
-39.988991 811.25244 1261.2811 4287724668
-37.636696 811.25244 1261.2811 4287724939
-35.284405 811.25244 1261.2811 4288382612
-31.755962 811.25244 1261.2811 4288647573
-39.988991 813.05078 1262.7975 4287659396
-37.636696 813.05078 1262.7975 4287724937
-35.284405 813.05078 1262.7975 4288317073
-34.899082 834.71423 1262.7512 4287858805
-9.3064222 834.71423 1262.7512 4291477438
-6.9798164 834.71423 1262.7512 4291477438
-4.6532111 834.71423 1262.7512 4291083957
0 834.71423 1262.7512 4289768885
-7.2715597 753.42798 1263.5383 4290232014
-4.8477063 753.42798 1263.5383 4292465891
-2.4238532 754.35449 1264.3196 4294374143
0 753.42798 1263.5383 4293914873
2.4146788 763.61444 1265.587 4294177535
4.8293576 763.61444 1265.587 4293979644
-28.866055 770.06665 1264.4873 4288844701
-26.46055 770.06665 1264.4873 4289436838
-4.8110094 770.06665 1264.4873 4287862178
-2.4055047 770.06665 1264.4873 4288520365
0 770.06665 1264.4873 4291016647
-31.152294 776.49084 1263.3638 4288713885
-28.755962 776.49084 1263.3638 4288714911
-26.359632 776.49084 1263.3638 4289241255
-22.765137 776.49084 1263.3638 4289569448
-19.170643 776.49084 1263.3638 4289963956
-16.774311 776.49084 1263.3638 4290687936
-14.377981 776.49084 1263.3638 4289900986
-10.783486 776.49084 1263.3638 4288649894
-7.1889906 776.49084 1263.3638 4290688451
-4.7926607 776.49084 1263.3638 4291148487
-2.3963304 776.49084 1263.3638 4292266711
0 776.49084 1263.3638 4292466395
-31.152294 778.32281 1264.9086 4288845212
-28.755962 778.32281 1264.9086 4288911007
-26.359632 778.32281 1264.9086 4289503144
-22.765137 778.32281 1264.9086 4289569707
-14.377981 778.32281 1264.9086 4290359998
-10.783486 778.32281 1264.9086 4288583588
-7.1889906 778.32281 1264.9086 4290425793
-4.7926607 778.32281 1264.9086 4290820047
-2.3963304 778.32281 1264.9086 4293122802
0 778.32281 1264.9086 4293190132
-31.033028 784.71198 1263.7555 4288648087
-22.677982 784.71198 1263.7555 4289701036
-19.097248 784.71198 1263.7555 4290226351
-14.322936 784.71198 1263.7555 4290754496
-10.742202 784.71198 1263.7555 4288781220
-4.774312 784.71198 1263.7555 4289373357
-2.387156 784.71198 1263.7555 4292663007
0 784.71198 1263.7555 4292992751
-31.033028 786.53699 1265.2943 4288518036
-28.645872 786.53699 1265.2943 4288713631
-26.258715 786.53699 1265.2943 4289437353
-22.677982 786.53699 1265.2943 4289701036
2.387156 786.53699 1265.2943 4293386995
4.774312 786.53699 1265.2943 4293190130
-33.317432 790.53076 1263.4297 4287925897
-30.937614 790.53076 1263.4297 4288583828
-21.418348 790.53076 1263.4297 4289964460
-19.038532 790.53076 1263.4297 4290095286
-16.658716 790.53076 1263.4297 4291345096
-14.278899 790.53076 1263.4297 4290754492
-10.709174 790.53076 1263.4297 4288781215
-7.1394496 790.53076 1263.4297 4289834930
-4.7596331 790.53076 1263.4297 4289242277
-2.3798165 790.53076 1263.4297 4291939534
0 790.53076 1263.4297 4292598247
-28.557798 792.35016 1264.9637 4288976800
-26.177982 792.35016 1264.9637 4289371558
-22.608257 792.35016 1264.9637 4289634984
-19.038532 792.35016 1264.9637 4289964983
-16.658716 792.35016 1264.9637 4290820035
-14.278899 792.35016 1264.9637 4290622654
-10.709174 792.35016 1264.9637 4288912800
-4.7596331 792.35016 1264.9637 4289109403
-2.3798165 792.35016 1264.9637 4291938503
0 792.35016 1264.9637 4292532198
-52.154129 798.67896 1263.7599 4284043093
-49.783485 800.49133 1265.2881 4284637281
-28.447706 799.58514 1264.5239 4288909467
-26.077065 799.58514 1264.5239 4289633190
-22.521101 799.58514 1264.5239 4289700777
-18.965137 799.58514 1264.5239 4289964722
-16.594496 799.58514 1264.5239 4290820030
-14.223853 799.58514 1264.5239 4290622650
-10.667891 799.58514 1264.5239 4290622394
-7.1119266 799.58514 1264.5239 4290884797
-4.7412844 799.58514 1264.5239 4290097329
-2.3706422 799.58514 1264.5239 4291281603
0 799.58514 1264.5239 4292006115
-47.229359 806.7851 1264.0547 4289632906
-30.699083 806.7851 1264.0547 4288975515
-28.337614 806.7851 1264.0547 4288844447
-25.976147 806.7851 1264.0547 4289371047
-22.433945 806.7851 1264.0547 4289569448
-18.891743 806.7851 1264.0547 4289898919
-16.530275 806.7851 1264.0547 4290622643
-14.168807 806.7851 1264.0547 4290557115
-11.80734 806.7851 1264.0547 4290622908
-7.0844035 806.7851 1264.0547 4291346634
-47.229359 808.59045 1265.5769 4291013317
-28.337614 808.59045 1265.5769 4288844701
-25.976147 808.59045 1265.5769 4289436838
-22.433945 808.59045 1265.5769 4289569705
-18.891743 808.59045 1265.5769 4289702824
-16.530275 808.59045 1265.5769 4289965996
-14.168807 808.59045 1265.5769 4288847790
-10.626606 808.59045 1265.5769 4288255392
-7.0844035 808.59045 1265.5769 4290492092
-4.7229357 808.59045 1265.5769 4291214534
-2.3614678 808.59045 1265.5769 4292398552
-22.34679 816.64746 1265.8301 4289765798
-18.818348 816.64746 1265.8301 4289898156
-16.466055 816.64746 1265.8301 4290490293
-14.113762 816.64746 1265.8301 4289964462
-10.585321 816.64746 1265.8301 4289109667
-7.056881 816.64746 1265.8301 4289899953
-4.704587 816.64746 1265.8301 4289242800
-11.715596 821.07971 1263.0272 4289833905
-14.058716 822.87103 1264.5376 4290031800
-10.544037 822.87103 1264.5376 4289702337
-7.0293579 822.87103 1264.5376 4289241544
-4.6862388 822.87103 1264.5376 4288913587
-14.014679 830.32977 1265.5945 4291213512
-10.511009 829.43689 1264.8417 4289899187
-7.0073395 829.43689 1264.8416 4289439146
-4.6715598 829.43689 1264.8416 4289112233
-2.3357799 830.32977 1265.5945 4289902520
0 830.32977 1265.5945 4291214032
0 836.49298 1264.251 4287801518
2.4238532 758.06067 1267.4445 4294308862
4.8477063 758.98718 1268.2257 4294045689
7.2715597 758.98718 1268.2257 4293979896
2.4146788 766.38348 1267.9219 4294372859
4.8293576 766.38348 1267.9219 4294242047
7.2440367 766.38348 1267.9219 4293979131
9.6587152 767.30652 1268.7001 4293453300
12.073395 767.30652 1268.7001 4293979644
2.4055047 772.8252 1266.8132 4293979378
4.8110094 772.8252 1266.8132 4294111742
7.2165136 772.8252 1266.8132 4293848315
-31.152294 780.15485 1266.4532 4288713883
-28.755962 781.07086 1267.2256 4288779166
-26.359632 781.07086 1267.2256 4289371303
-22.765137 780.15485 1266.4532 4289437865
-2.3963304 780.15485 1266.4532 4292532202
1.1981652 781.07086 1267.2256 4293322230
4.7926607 781.98688 1267.9979 4293650933
7.1889906 781.98688 1267.9979 4293716726
9.5853214 781.98688 1267.9979 4293453554
-28.645872 788.36194 1266.8331 4288910757
-26.258715 788.36194 1266.8331 4289502894
-23.871559 788.36194 1266.8331 4289503909
2.387156 788.36194 1266.8331 4293321971
4.774312 788.36194 1266.8331 4293321971
7.161468 788.36194 1266.8331 4293453300
2.387156 790.18695 1268.3719 4293321971
4.774312 790.18695 1268.3719 4293190384
7.161468 790.18695 1268.3719 4293058542
-26.177982 794.16956 1266.4978 4289305503
-23.798164 794.16956 1266.4978 4289174433
2.3798165 794.16956 1266.4978 4293519093
2.3798165 795.98895 1268.0319 4293190132
4.7596331 795.98895 1268.0319 4292663786
7.1394496 795.98895 1268.0319 4292729579
-49.783485 802.30371 1266.8162 4287794842
-26.077065 802.30371 1266.8162 4289436840
-23.706423 802.30371 1266.8162 4289371556
-10.667891 802.30371 1266.8162 4290951617
-4.7412844 802.30371 1266.8162 4290558396
-2.3706422 802.30371 1266.8162 4291282376
0 802.30371 1266.8162 4292005604
-9.4825687 804.11609 1268.3444 4290754496
-4.7412844 804.11609 1268.3444 4290886846
-2.3706422 804.11609 1268.3444 4291873741
0 804.11609 1268.3444 4292071651
-43.293579 810.99756 1267.6066 4286606966
-40.144955 812.20117 1268.6213 4287594368
-37.783485 812.20117 1268.6213 4287528841
-33.847706 811.59937 1268.1139 4288449936
-30.699083 811.29846 1267.8602 4288976020
-28.337614 811.29846 1267.8602 4288910235
-25.976147 811.29846 1267.8602 4289568165
-22.433945 811.29846 1267.8602 4289766057
-18.891743 811.29846 1267.8602 4289832618
-16.530275 811.29846 1267.8602 4290227376
-14.168807 811.29846 1267.8602 4289503667
-10.626606 811.29846 1267.8602 4289175209
-7.0844035 811.29846 1267.8602 4289833134
-4.7229357 811.29846 1267.8602 4289767874
-2.3614678 811.29846 1267.8602 4292004836
0 811.29846 1267.8602 4292071645
-22.34679 818.44586 1267.3464 4289831591
-18.818348 818.44586 1267.3464 4289767084
-16.466055 818.44586 1267.3464 4290293428
-14.113762 818.44586 1267.3464 4290097334
-9.409174 818.44586 1267.3464 4289045173
-7.056881 818.44586 1267.3464 4289045173
-4.704587 818.44586 1267.3464 4288650922
-2.3522935 818.44586 1267.3464 4290427076
0 818.44586 1267.3464 4291545051
-30.579817 820.2442 1268.8628 4288911005
-25.875229 820.2442 1268.8628 4289634212
-22.34679 820.2442 1268.8628 4289700777
-18.818348 820.2442 1268.8628 4290094511
-16.466055 820.2442 1268.8628 4290555062
-2.3522935 820.2442 1268.8628 4290229447
0 820.2442 1268.8628 4291085272
-14.058716 824.66235 1266.048 4289965494
-10.544037 824.66235 1266.048 4288649384
-7.0293579 824.66235 1266.048 4289241271
-4.6862388 824.66235 1266.048 4289768883
-2.3431194 824.66235 1266.048 4290492349
0 824.66235 1266.048 4290691545
-16.401834 826.45374 1267.5583 4290620594
-14.058716 826.45374 1267.5583 4290096310
-2.3431194 826.45374 1267.5583 4290690496
0 826.45374 1267.5583 4291412449
-37.372478 832.11548 1267.1001 4287858805
-31.533028 832.11548 1267.1001 4288580997
-11.678899 832.11548 1267.1001 4292001229
-2.3357799 832.11548 1267.1001 4290162855
4.8697248 753.78827 1271.6902 4294045691
7.3045874 753.78827 1271.6902 4294045691
9.7394495 753.78827 1271.6902 4294176761
7.2715597 760.84021 1269.7881 4294045693
9.6954126 760.84021 1269.7881 4294045693
12.119267 760.84021 1269.7881 4294045693
9.6954126 762.6933 1271.3506 4294111486
12.119267 762.6933 1271.3506 4294243071
9.6587152 770.07556 1271.0349 4293717237
12.878288 770.38324 1271.2943 4293783031
2.4055047 775.58368 1269.1392 4294440191
4.8110094 775.58368 1269.1392 4294045693
7.2165136 775.58368 1269.1392 4293782522
9.6220188 775.58368 1269.1392 4293913851
12.027523 775.58368 1269.1392 4293913851
2.4055047 777.42273 1270.6898 4293716990
4.8110094 777.42273 1270.6898 4293585142
7.2165136 777.42273 1270.6898 4293585142
9.6220188 777.42273 1270.6898 4293256175
13.230275 777.42273 1270.6898 4293519347
7.1889906 783.81885 1269.5426 4293321973
10.384098 785.04022 1270.5724 4293124849
14.377981 785.65088 1271.0874 4293453554
16.774311 785.65088 1271.0874 4293914105
19.170643 785.65088 1271.0874 4293585142
26.359632 785.65088 1271.0874 4293979898
28.755962 783.81885 1269.5426 4293849082
-54.904587 793.83698 1271.4495 4285221690
4.774312 792.01196 1269.9108 4293190384
7.161468 792.01196 1269.9108 4293058542
10.344342 793.22858 1270.9366 4292992493
14.322936 792.92444 1270.6802 4293124588
16.710093 793.83698 1271.4495 4293255405
-52.355965 797.80835 1269.5659 4284176730
2.3798165 797.80835 1269.5659 4293124852
4.7596331 797.80835 1269.5659 4292992749
7.1394496 797.80835 1269.5659 4292729833
2.3798165 799.62775 1271.1001 4293058292
4.7596331 799.62775 1271.1001 4292993003
7.1394496 799.62775 1271.1001 4292795624
9.5192661 799.62775 1271.1001 4292729833
0 805.92847 1269.8724 4292203235
-47.412846 807.74084 1271.4006 4290948798
2.3706422 807.74084 1271.4006 4292992490
4.7412844 807.74084 1271.4006 4292926696
7.1119266 807.74084 1271.4006 4292794854
9.4825687 807.74084 1271.4006 4292335073
-40.144955 814.90918 1270.9047 4287660933
-37.783485 814.90918 1270.9047 4287726220
-34.241287 814.90918 1270.9047 4288384148
-30.699083 814.90918 1270.9047 4288976539
-28.337614 814.90918 1270.9047 4289107611
-25.976147 814.90918 1270.9047 4289633956
-2.3614678 814.00653 1270.1436 4290822088
1.1807339 814.90918 1270.9047 4292466153
-37.636696 823.84088 1271.8954 4288185992
-35.284405 823.84088 1271.8954 4288843665
-30.579817 823.84088 1271.8954 4289501863
-25.875229 822.94171 1271.1372 4289700007
-22.34679 822.94171 1271.1372 4289962918
-18.818348 822.94171 1271.1372 4290226093
-16.466055 822.04254 1270.3792 4290555316
2.3522935 823.84088 1271.8954 4293715199
-39.833027 830.03638 1270.5792 4287397756
-35.14679 828.245 1269.0688 4288909710
-30.46055 828.245 1269.0688 4289633951
-25.774311 828.245 1269.0688 4290227107
-18.744955 828.245 1269.0688 4290686643
-16.401834 828.245 1269.0688 4291410110
2.3431194 829.14069 1269.824 4291346382
9.7394495 755.64972 1273.2598 4293979898
12.174312 755.64972 1273.2598 4293914105
14.609175 757.51123 1274.8293 4294045689
14.543119 766.39941 1274.4755 4293979896
16.966972 766.39941 1274.4755 4294045689
14.488073 772.8446 1273.3698 4293782776
16.902752 772.8446 1273.3698 4293782776
16.902752 774.69067 1274.9263 4293914105
19.31743 774.69067 1274.9263 4293782774
21.732111 774.69067 1274.9263 4293979896
25.35413 774.69067 1274.9263 4293782006
28.976147 774.69067 1274.9263 4293914105
13.230275 779.26178 1272.2404 4293651188
16.838531 779.26178 1272.2404 4294177531
19.244038 779.26178 1272.2404 4293914103
25.257797 779.26178 1272.2404 4293848312
28.866055 779.26178 1272.2404 4293914103
13.230275 781.10083 1273.791 4293322225
16.838531 781.10083 1273.791 4293716726
19.244038 781.10083 1273.791 4293256691
21.649542 781.10083 1273.791 4293783035
25.257797 781.10083 1273.791 4293849082
10.783486 787.48291 1272.6321 4293058542
14.377981 787.48291 1272.6321 4293124589
16.774311 787.48291 1272.6321 4293585140
19.170643 787.48291 1272.6321 4293453554
22.765137 787.48291 1272.6321 4293716726
26.359632 787.48291 1272.6321 4293782776
11.981651 789.31494 1274.1768 4293585142
16.774311 789.31494 1274.1768 4293651187
19.170643 789.31494 1274.1768 4293519345
22.765137 789.31494 1274.1768 4293651188
26.359632 789.31494 1274.1768 4293783033
-52.517429 797.48694 1274.5271 4287728793
11.14006 796.27032 1273.5012 4292795625
14.322936 796.57446 1273.7577 4292927210
16.710093 795.66199 1272.9883 4293058796
-49.976147 802.35681 1273.4011 4291209140
2.3798165 802.35681 1273.4011 4292992752
4.7596331 802.35681 1273.4011 4292664293
7.1394496 802.35681 1273.4011 4292664293
10.312538 802.65997 1273.6569 4292663524
14.278899 803.26648 1274.1682 4292729831
-45.042202 809.55322 1272.9287 4286016898
2.3706422 809.55322 1272.9287 4292992749
4.7412844 809.55322 1272.9287 4292795626
7.1119266 809.55322 1272.9287 4292664040
9.4825687 809.55322 1272.9287 4292466659
-45.042202 811.3656 1274.4569 4286542418
-42.671558 811.3656 1274.4569 4286805113
2.3706422 811.3656 1274.4569 4293386741
4.7412844 811.3656 1274.4569 4293190382
7.1119266 811.3656 1274.4569 4292795624
9.4825687 811.3656 1274.4569 4292598245
-40.144955 817.61731 1273.188 4287857803
-37.783485 817.61731 1273.188 4287726985
-34.241287 817.61731 1273.188 4288253331
-28.337614 817.61731 1273.188 4289107868
2.3614678 817.61731 1273.188 4292993269
4.7229357 817.61731 1273.188 4293058796
-42.50642 819.42261 1274.7102 4286936701
-40.144955 819.42261 1274.7102 4287857803
-37.783485 819.42261 1274.7102 4287727237
-34.241287 819.42261 1274.7102 4288384659
-30.699083 819.42261 1274.7102 4288911007
-28.337614 819.42261 1274.7102 4289107868
2.3614678 819.42261 1274.7102 4292862714
4.7229357 819.42261 1274.7102 4293190382
-28.227524 825.63922 1273.4117 4289766556
-22.34679 825.63922 1273.4117 4290490030
4.704587 826.53839 1274.1699 4290624207
2.3431194 831.8277 1272.0896 4282143064
14.609175 760.30341 1277.1836 4294177531
17.044037 761.23413 1277.9684 4294045689
16.966972 768.25244 1276.038 4293979898
19.390825 770.10547 1277.6003 4293914103
21.814678 770.10547 1277.6003 4294045689
21.732111 776.53674 1276.4828 4294045689
21.649542 782.93982 1275.3417 4293979644
24.055046 782.93982 1275.3417 4294045691
19.170643 791.14691 1275.7214 4293124589
22.765137 791.14691 1275.7214 4293585395
26.359632 791.14691 1275.7214 4293783287
-57.511925 792.97894 1277.2662 4284962146
-55.115597 792.97894 1277.2662 4284370009
19.170643 792.97894 1277.2662 4293058796
22.765137 792.97894 1277.2662 4293519601
26.359632 792.97894 1277.2662 4293980150
-52.517429 799.31195 1276.0659 4290486707
11.93578 799.31195 1276.0659 4292664038
14.322936 799.31195 1276.0659 4292795624
19.097248 799.31195 1276.0659 4292729831
22.677982 799.31195 1276.0659 4293058796
26.258715 799.31195 1276.0659 4293650933
-52.517429 801.13696 1277.6047 4292062645
16.710093 801.13696 1277.6047 4292927210
19.097248 801.13696 1277.6047 4292730344
22.677982 801.13696 1277.6047 4292927467
26.258715 801.13696 1277.6047 4293322225
-49.976147 805.08594 1275.7023 4292986286
-47.596329 806.90527 1277.2363 4287661724
11.899082 805.99561 1276.4692 4292598245
14.278899 805.99561 1276.4692 4292598245
-45.042202 813.17798 1275.9851 4286804852
-42.671558 814.08417 1276.7491 4286805625
4.7412844 813.17798 1275.9851 4293124591
7.1119266 814.08417 1276.7491 4292664039
10.667891 814.08411 1276.7491 4292466403
-42.50642 821.22803 1276.2325 4287395969
-40.144955 821.22803 1276.2325 4288185742
-33.060551 821.22803 1276.2325 4288712347
-28.337614 821.22803 1276.2325 4289371043
4.7229357 821.22803 1276.2325 4293583857
7.0844035 821.22803 1276.2325 4293254892
9.4458714 821.22803 1276.2325 4292926442
-40.144955 823.03333 1277.7548 4288579466
-37.783485 823.03333 1277.7548 4288514952
-33.060551 823.03333 1277.7548 4288778642
7.0844035 823.03333 1277.7548 4291083727
9.4458714 823.03333 1277.7548 4289309376
4.704587 829.23596 1276.4443 4282400862
17.108257 754.737 1279.0303 4293914103
17.108257 756.60547 1280.6058 4294177529
19.552294 756.60547 1280.6058 4294045689
19.478899 763.09564 1279.538 4293913851
-58.710091 794.81097 1278.8109 4289831345
-55.115597 794.81097 1278.8109 4288319108
16.774311 794.81097 1278.8109 4292927210
19.170643 794.81097 1278.8109 4292794856
22.765137 794.81097 1278.8109 4293124334
26.359632 794.81097 1278.8109 4293650933
-55.115597 796.64294 1280.3556 4290355875
16.774311 796.64294 1280.3556 4292993003
-52.517429 802.96198 1279.1434 4292525735
16.710093 802.96198 1279.1434 4292927210
19.097248 802.96198 1279.1434 4292795878
21.484404 802.96198 1279.1434 4292795878
26.258715 802.96198 1279.1434 4293256429
-52.517429 804.78699 1280.6823 4290422951
-50.130276 804.78699 1280.6823 4290159523
16.710093 804.78699 1280.6823 4292664038
19.097248 804.78699 1280.6823 4292532452
21.484404 804.78699 1280.6823 4292664038
-47.596329 808.72467 1278.7704 4287200348
11.899082 808.72467 1278.7704 4292664038
14.278899 808.72467 1278.7704 4292532452
-47.596329 810.54407 1280.3044 4285817957
14.278899 810.54407 1280.3044 4292466145
-45.042202 816.80273 1279.0414 4287067258
7.1119266 816.80273 1279.0414 4292993003
11.062997 817.40692 1279.5508 4292794858
14.223853 817.70892 1279.8054 4293057256
16.594496 818.61511 1280.5696 4293189099
-42.50642 826.6441 1280.7992 4285492335
-40.144955 826.6441 1280.7992 4285360749
19.552294 758.474 1282.1813 4293716728
21.99633 758.474 1282.1813 4293782522
21.99633 760.34247 1283.7567 4293782522
19.478899 764.95709 1281.1075 4293979898
24.348623 766.8186 1282.6771 4293782776
-58.310699 799.69629 1282.9302 4291013541
-55.115597 799.39099 1282.6726 4292197050
23.963303 800.30701 1283.4451 4292993001
-52.517429 806.61194 1282.2211 4288909199
-50.130276 806.61194 1282.2211 4287856511
16.710093 806.61194 1282.2211 4292664038
19.097248 806.61194 1282.2211 4292664038
21.484404 806.61194 1282.2211 4292927210
-52.517429 808.43701 1283.7599 4285618793
-50.130276 808.43701 1283.7599 4285947758
16.710093 808.43701 1283.7599 4292531939
19.097248 808.43701 1283.7599 4292465891
21.484404 808.43701 1283.7599 4292465891
-45.216515 812.36346 1281.8385 4287000959
14.278899 812.36346 1281.8385 4292465891
16.658716 812.36346 1281.8385 4292597734
-47.596329 814.18286 1283.3726 4286277743
16.658716 814.18286 1283.3726 4293122792
19.038532 814.18286 1283.3726 4293057512
-45.042202 820.42749 1282.0977 4287724668
-42.671558 820.42749 1282.0977 4287921280
11.853211 820.42749 1282.0977 4287927723
14.223853 820.42749 1282.0977 4288252048
16.594496 820.42749 1282.0977 4287396739
-45.042202 822.23987 1283.6259 4287003258
-42.671558 822.23987 1283.6259 4287134585
7.1119266 822.23987 1283.6259 4288059310
10.667891 822.23987 1283.6259 4285954449
14.223853 822.23987 1283.6259 4285817705
26.077065 822.23987 1283.6259 4282797918
22.078899 753.83832 1284.8127 4294177531
24.53211 755.71381 1286.3942 4293782524
21.99633 762.21094 1285.3322 4293914105
25.662384 763.1452 1286.1199 4293914362
29.32844 764.07947 1286.9076 4293914105
-57.732109 793.974 1284.6454 4291276977
-57.511925 803.05505 1285.7621 4287263089
-55.115597 803.05505 1285.7621 4289763223
23.963303 803.05505 1285.7621 4292598245
26.359632 802.13904 1284.9897 4292927210
-54.904587 810.26196 1285.2987 4285356372
-52.517429 811.17444 1286.0681 4285816417
-50.130276 811.17444 1286.0681 4286408554
-47.743118 810.26196 1285.2987 4286211699
19.097248 810.26196 1285.2987 4292465893
22.67798 811.17444 1286.0681 4292926443
26.258715 811.17444 1286.0681 4292992237
-46.406422 816.91199 1285.6736 4287461500
19.038532 816.91199 1285.6736 4289111730
22.608257 816.91199 1285.6736 4288256173
26.177982 816.91199 1285.6736 4287269543
-46.227524 824.05225 1285.1539 4286082676
7.1119266 824.05225 1285.1539 4282729826
10.667891 824.05225 1285.1539 4283654245
23.706423 824.05225 1285.1539 4283450970
26.077065 824.05225 1285.1539 4283714141
-45.042202 825.86462 1286.6821 4286148732
-42.671558 825.86462 1286.6821 4285951353
7.1119266 825.86462 1286.6821 4280636259
23.706423 825.86462 1286.6821 4282927499
26.077065 825.86462 1286.6821 4282269568
24.53211 757.58936 1287.9755 4293913851
-60.137615 799.49109 1289.2972 4286145891
-58.710091 805.80304 1288.0791 4284764499
-55.115597 805.80304 1288.0791 4285422167
23.963303 805.80304 1288.0791 4292400100
-57.511925 807.63507 1289.6239 4285159250
-54.904587 815.73694 1289.915 4286408297
-52.517429 815.73694 1289.915 4286803566
-50.130276 814.82446 1289.1456 4286737778
-47.743118 813.91199 1288.3762 4286869110
-49.976147 821.46045 1289.5088 4286149750
-47.596329 819.64099 1287.9747 4286937465
14.278899 821.46045 1289.5088 4289107859
16.658716 820.55072 1288.7417 4288778385
19.038532 820.55072 1288.7417 4288582040
22.211618 820.2475 1288.486 4283320658
26.077065 827.677 1288.2102 4289375153
27.086239 754.83624 1292.1943 4294111486
-60.137615 801.33008 1290.8479 4285686370
-62.304588 809.46704 1291.1686 4285883498
-58.710091 809.46704 1291.1686 4285487965
-55.115597 809.46704 1291.1686 4285882203
-64.70092 811.29907 1292.7133 4285556332
-62.304588 811.29907 1292.7133 4285490793
-58.710091 811.29907 1292.7133 4285620833
-55.115597 811.29907 1292.7133 4285882716
-52.719265 811.29907 1292.7133 4286013803
-54.904587 817.56201 1291.4539 4286937213
-50.130276 817.56201 1291.4539 4286937465
-62.066055 819.38696 1292.9927 4286939282
-58.485321 819.38696 1292.9927 4286281857
-54.904587 819.38696 1292.9927 4286085240
-52.517429 819.38696 1292.9927 4286347129
-47.596329 823.27979 1291.0428 4286148732
10.709174 823.27979 1291.0428 4286607477
21.418348 823.27979 1291.0428 4287661974
23.798164 825.09918 1292.5769 4290230719
28.317432 756.71875 1293.7816 4293914875
-60.137615 805.00818 1293.9491 4284832356
-62.304588 814.04712 1295.0303 4285621608
-58.710091 814.04712 1295.0303 4286344561
-52.719265 814.96313 1295.8027 4286806135
-62.066055 821.21198 1294.5314 4287663269
-58.485321 821.21198 1294.5314 4286281605
14.322936 821.21198 1294.5314 4292594861
16.710093 821.21198 1294.5314 4294502858
19.097248 821.21198 1294.5314 4293254379
23.798164 826.91858 1294.111 4292597461
-55.115597 818.62714 1298.8921 4285952886
-52.719265 818.62714 1298.8921 4286018178
-50.322937 818.62714 1298.8921 4286018178
21.484404 823.03699 1296.0702 4291742184
-62.304588 820.45917 1300.4368 4287864761
-58.710091 820.45917 1300.4368 4286875805
-55.115597 820.45917 1300.4368 4286149766
19.170643 820.45917 1300.4368 4292729079
-58.710091 822.2912 1301.9814 4287400871
21.566973 822.2912 1301.9814 4292663788
-52.921101 817.88135 1304.8035 4286018684
-50.515594 817.88135 1304.8035 4285886841
16.838531 817.88135 1304.8035 4293121757
23.963303 824.12317 1303.5262 4293255146
26.359632 824.12317 1303.5262 4292926181
-60.137615 821.55945 1307.9047 4289112765
-57.732109 821.55945 1307.9047 4288651192
-55.326607 819.7204 1306.354 4286413469
21.649542 821.55945 1307.9047 4291812856
-48.293579 815.30359 1309.17 4286084227
-53.122936 817.14966 1310.7266 4285822845
19.31743 817.14966 1310.7266 4291611100
26.46055 823.39844 1309.4553 4291545557
28.866055 823.39844 1309.4553 4291283652
14.543119 812.72583 1313.5366 4293121757
19.31743 818.99573 1312.2831 4289312722
-60.366974 820.84174 1313.8396 4289902281
-57.952293 820.84174 1313.8396 4289177540
21.732111 820.84174 1313.8396 4292532722
24.14679 820.84174 1313.8396 4292466659
-50.900917 814.57886 1315.0991 4285559929
-55.748623 816.43188 1316.6616 4287401381
-53.324772 816.43188 1316.6616 4287007375
-60.366974 822.68774 1315.3962 4291217623
-55.748623 818.28497 1318.224 4287729838
19.390825 818.28497 1318.224 4290690518
21.814678 820.13806 1319.7865 4286545028
25.450459 820.13806 1319.7865 4284314757
29.086239 820.13806 1319.7865 4283659398
-48.697247 811.4939 1320.3462 4286149766
17.044037 811.4939 1320.3462 4290688447
-51.132111 813.35541 1321.9156 4286283396
-48.697247 813.35541 1321.9156 4286413439
17.044037 813.35541 1321.9156 4287213774
25.450459 821.99109 1321.3489 4284444036
26.662386 823.84412 1322.9114 4285298538
-46.436699 807.05463 1323.1432 4286150020
-52.349541 815.21686 1323.4852 4286678424
-58.436699 817.07837 1325.0548 4290953432
-56.001835 817.07837 1325.0548 4289834950
-52.349541 817.07837 1325.0548 4287994284
19.478899 817.07837 1325.0548 4287860888
-48.880733 812.6601 1327.8696 4286282621
17.108257 812.6601 1327.8696 4289443817
-58.436699 818.93982 1326.6244 4291348190
-56.001835 818.93982 1326.6244 4290558930
-52.349541 818.93982 1326.6244 4288914618
19.478899 818.93982 1326.6244 4286150002
21.913761 818.93982 1326.6244 4283781453
-58.436699 820.80127 1328.1938 4292597995
-56.001835 820.80127 1328.1938 4291676893
-52.349541 820.80127 1328.1938 4290230733
21.913761 820.80127 1328.1938 4285293689
24.348623 820.80127 1328.1938 4282798661
21.814678 829.40332 1327.5988 4289311186
-44.322937 801.89905 1331.8765 4286214780
12.311927 801.89905 1331.8765 4293115595
-46.611008 806.35229 1329.0912 4286281351
14.719266 806.35229 1329.0912 4291083205
-46.611008 808.22784 1330.6726 4286479233
14.719266 808.22784 1330.6726 4282805386
-48.880733 814.52856 1329.4451 4287334553
17.108257 814.52856 1329.4451 4287924389
-48.880733 816.39709 1331.0205 4287663282
-46.436699 816.39709 1331.0205 4287268524
14.66422 816.39709 1331.0205 4285227616
17.108257 816.39709 1331.0205 4286214511
-58.436699 822.66278 1329.7634 4293124850
-56.001835 822.66278 1329.7634 4291940833
-52.349541 822.66278 1329.7634 4290822100
17.044037 824.52423 1331.333 4283659902
19.478899 823.59351 1330.5482 4287600818
21.913761 823.59351 1330.5482 4285034890
24.348623 823.59351 1330.5482 4286019165
16.966972 833.10944 1330.7236 4292794341
19.390825 832.18286 1329.9424 4292729062
21.814678 831.25635 1329.1611 4292794854
-42.016514 797.43176 1334.6499 4285754231
1.2357798 797.43176 1334.6499 4285493882
4.943119 797.43176 1334.6499 4279583315
-44.322937 803.78162 1333.4637 4286214530
-46.611008 811.04108 1333.0447 4286676873
-44.157799 811.97882 1333.8353 4286741887
14.719266 811.04108 1333.0447 4284769676
-48.880733 818.26556 1332.5959 4289375424
-46.436699 818.26556 1332.5959 4288256686
17.108257 818.26556 1332.5959 4291282372
19.552294 818.26556 1332.5959 4291215059
-48.880733 820.13403 1334.1714 4289835973
-46.436699 820.13403 1334.1714 4288849077
-43.992661 820.13403 1334.1714 4287861928
14.66422 820.13403 1334.1714 4291349436
17.108257 820.13403 1334.1714 4291546558
14.609175 826.38568 1332.9026 4286349713
17.044037 826.38568 1332.9026 4287467938
19.478899 826.38568 1332.9026 4287929533
14.609175 828.24719 1334.472 4292596700
17.044037 828.24719 1334.472 4292794080
-42.016514 799.32129 1336.243 4286148986
7.4146791 799.32129 1336.243 4284505188
9.8862381 799.32129 1336.243 4289694615
-42.016514 801.21082 1337.8363 4286214530
-39.544952 801.21082 1337.8363 4286345850
7.4146791 801.21082 1337.8363 4285363829
9.8862381 801.21082 1337.8363 4288451491
12.357799 801.21082 1337.8363 4291346384
-44.322937 805.66412 1335.051 4286477949
12.311927 805.66412 1335.051 4283654272
-44.322937 807.54663 1336.6384 4286938752
-41.86055 807.54663 1336.6384 4286938752
12.311927 807.54663 1336.6384 4283129711
-44.157799 814.79211 1336.2074 4287137415
-40.886852 815.10468 1336.4709 4286874245
13.083793 815.10468 1336.4709 4288059813
-52.546791 822.93683 1336.5345 4292138469
-48.880733 822.93677 1336.5345 4291546072
-46.436699 822.93677 1336.5345 4290427847
-43.992661 822.93677 1336.5345 4289967293
-41.548622 822.93677 1336.5345 4288980398
9.7761469 823.87103 1337.3223 4285559144
13.034863 822.62543 1336.272 4285429375
13.391743 830.10864 1336.0416 4292794341
-34.088074 831.97009 1337.6112 4286744215
9.7394495 831.97009 1337.6112 4292465891
13.391743 831.97009 1337.6112 4292071390
-39.7211 794.32996 1339.8827 4285689189
-37.238533 793.38098 1339.0825 4285754726
-34.755962 793.38098 1339.0825 4285754219
-32.273396 793.38098 1339.0825 4285622633
-28.963303 793.69727 1339.3492 4285425511
-24.825687 794.32996 1339.8827 4285819251
-22.343119 794.32996 1339.8827 4286214009
-19.86055 794.32996 1339.8827 4286869611
-17.377981 794.32996 1339.8827 4289040780
-13.654128 794.32996 1339.8827 4290753184
-9.930275 794.32996 1339.8827 4291476666
-7.4477062 793.38098 1339.0825 4292266183
-4.9651375 793.38098 1339.0825 4292003019
-2.4825687 793.38098 1339.0825 4291871433
-42.016514 803.10034 1339.4294 4286477949
-39.544952 803.10034 1339.4294 4286477949
-34.601833 803.10034 1339.4294 4286412924
-32.130276 803.10034 1339.4294 4286412924
-28.422935 803.10034 1339.4294 4286412924
-24.715597 803.10034 1339.4294 4286412926
-22.244038 803.10034 1339.4294 4286544255
-19.772476 803.10034 1339.4294 4286675329
-17.300917 803.10034 1339.4294 4286675329
-13.593578 803.10034 1339.4294 4286806910
-9.8862381 803.10034 1339.4294 4286544507
7.4146791 803.10034 1339.4294 4283914575
9.8862381 803.10034 1339.4294 4282930549
-40.629356 809.42914 1338.2256 4286873218
12.311927 809.42914 1338.2256 4283192924
-39.398167 811.31165 1339.813 4286873223
-36.93578 811.31165 1339.813 4286807430
-29.548624 811.31165 1339.813 4286872705
9.8495417 811.31165 1339.813 4283783015
-40.477982 817.60535 1338.5795 4286941081
-36.798164 817.60535 1338.5795 4286743699
12.266055 817.60535 1338.5795 4292136179
-39.251377 819.48083 1340.1609 4287797669
-36.798164 819.48083 1340.1609 4287008409
-34.344955 819.48083 1340.1609 4287073421
-31.891743 819.48083 1340.1609 4287270543
-29.438532 819.48083 1340.1609 4287071370
9.8128443 819.48083 1340.1609 4287595681
-48.880733 825.7395 1338.8978 4292597480
-46.436699 825.7395 1338.8978 4291939549
-43.992661 826.67371 1339.6855 4291018710
-40.733944 826.98511 1339.9481 4289900486
-34.216515 827.60797 1340.4733 4288190382
7.3321099 826.67371 1339.6855 4291415768
9.7761469 826.67371 1339.6855 4292071130
12.220183 825.7395 1338.8978 4292071386
-28.655045 787.93524 1341.031 4289240196
-27.409174 789.84021 1342.6372 4285425759
-24.917431 789.84021 1342.6372 4286278258
-22.425688 789.84021 1342.6372 4287199360
-19.933945 789.84021 1342.6372 4288053118
-17.442202 789.84021 1342.6372 4290158750
-13.704587 789.84021 1342.6372 4291868612
-9.9669724 789.84021 1342.6372 4292003012
-39.7211 796.22791 1341.483 4286215030
-37.238533 796.22791 1341.483 4286346359
-34.755962 796.22791 1341.483 4286018680
-32.273396 796.22791 1341.483 4285952886
-28.549541 796.22791 1341.483 4286018680
-24.825687 796.22791 1341.483 4286148984
-22.343119 796.22791 1341.483 4286017398
-19.86055 796.22791 1341.483 4285951340
-17.377981 796.22791 1341.483 4286083182
-13.654128 796.22791 1341.483 4285951857
-9.930275 796.22791 1341.483 4287003258
-7.4477062 796.22791 1341.483 4289174683
-4.9651375 796.22791 1341.483 4291801785
-2.4825687 796.22791 1341.483 4293052109
1.2412844 796.22791 1341.483 4287466141
4.9651375 796.22791 1341.483 4283518293
-37.238533 798.12585 1343.0833 4286543229
-34.755962 798.12585 1343.0833 4286281338
-32.273396 798.12585 1343.0833 4286281338
-28.549541 798.12585 1343.0833 4286281340
-24.825687 798.12585 1343.0833 4286281084
-22.343119 798.12585 1343.0833 4286215291
-19.86055 798.12585 1343.0833 4286411139
-17.377981 798.12585 1343.0833 4286279553
-13.654128 798.12585 1343.0833 4286017137
-9.930275 798.12585 1343.0833 4286346611
-7.4477062 798.12585 1343.0833 4288123279
-4.9651375 798.12585 1343.0833 4290095006
-2.4825687 798.12585 1343.0833 4292924105
1.2412844 798.12585 1343.0833 4289568951
4.9651375 798.12585 1343.0833 4284311141
-39.544952 804.98987 1341.0227 4286806914
-37.073395 805.93463 1341.8193 4286609535
-34.601833 805.93463 1341.8193 4286675582
-32.130276 805.93463 1341.8193 4286675582
-28.422935 805.93463 1341.8192 4286675581
-24.715597 805.93463 1341.8193 4286741119
-22.244038 805.93463 1341.8193 4286741119
-19.772476 805.93463 1341.8193 4286806912
-17.300917 805.93463 1341.8193 4287004548
-13.593578 805.93457 1341.8193 4287004802
-9.8862381 805.93463 1341.8193 4287070343
-7.4146791 805.93463 1341.8193 4286873221
-4.943119 805.93463 1341.8193 4287200900
-2.4715595 805.93463 1341.8193 4289306276
0 805.93463 1341.8193 4288847795
7.4146791 805.93463 1341.8193 4283061610
9.8862381 805.93463 1341.8193 4282799713
-36.93578 813.19415 1341.4003 4286939786
-34.473396 814.13538 1342.1938 4287005319
-32.011009 814.13538 1342.1938 4287070855
-28.31743 814.13538 1342.1938 4286872964
-24.623854 814.13538 1342.1938 4287201158
-22.161469 814.13538 1342.1938 4287398536
-19.699083 814.13538 1342.1938 4287267973
-17.236698 814.13538 1342.1938 4287399303
7.387156 815.07666 1342.9875 4289243581
9.8495417 814.13538 1342.1938 4289769680
-39.251377 821.35632 1341.7422 4288913835
-36.798164 821.35632 1341.7422 4287861147
-34.344955 821.35632 1341.7422 4287729801
-31.891743 821.35632 1341.7422 4287532423
-29.438532 821.35632 1341.7422 4287596944
-19.625689 821.35632 1341.7422 4287532175
7.359633 821.35632 1341.7422 4283129711
-39.251377 823.23181 1343.3236 4289637824
-36.798164 823.23181 1343.3236 4288979893
-34.344955 823.23181 1343.3236 4288519079
-31.891743 823.23181 1343.3236 4287597977
-29.438532 823.23181 1343.3236 4287465357
-22.078899 823.23181 1343.3236 4286806408
-19.625689 823.23181 1343.3236 4286084727
4.9064221 823.23181 1343.3236 4290364617
-31.772476 829.47644 1342.0487 4286612629
-29.32844 829.47644 1342.0487 4286349441
-26.884403 829.47644 1342.0487 4286612870
7.3321099 829.47644 1342.0487 4292596707
-26.884403 831.34497 1343.6241 4289966511
-25.009174 785.33636 1345.3799 4289897893
-22.508257 785.33636 1345.3799 4290621359
-20.007339 785.33636 1345.3799 4290883504
-16.255962 785.33636 1345.3799 4291738563
-37.238533 800.0238 1344.6836 4286543742
-7.4477062 800.0238 1344.6836 4286215543
-4.9651375 800.0238 1344.6836 4287135100
-2.4825687 800.0238 1344.6836 4290951094
1.2412844 800.0238 1344.6836 4289173945
4.9651375 800.0238 1344.6836 4285032800
2.4825687 801.92175 1346.2839 4286674812
4.9651375 801.92175 1346.2839 4283257715
-34.601833 808.76892 1344.2091 4286872707
-32.130276 808.76892 1344.2091 4286872707
-27.187157 808.76892 1344.2091 4286938498
-24.715597 808.76892 1344.2091 4286938498
-22.244038 808.76892 1344.2091 4286938498
-19.772476 808.76892 1344.2091 4286938500
-17.300917 808.76892 1344.2091 4287201673
-13.593578 808.76892 1344.2091 4287333254
-9.8862381 808.76892 1344.2091 4287465348
-7.4146791 808.76892 1344.2091 4287531141
-4.943119 808.76892 1344.2091 4287465355
-2.4715595 808.76892 1344.2091 4287991700
0 808.76892 1344.2091 4287336590
4.943119 808.76892 1344.2091 4283324260
7.4146791 808.76892 1344.2091 4283456103
-13.593578 810.65845 1345.8022 4287465096
-9.8862381 810.65845 1345.8022 4287464842
-7.4146791 810.65845 1345.8022 4287399049
-4.943119 810.65845 1345.8022 4287071624
-2.4715595 810.65845 1345.8022 4287071624
0 810.65845 1345.8022 4285888136
4.943119 810.65845 1345.8022 4283980393
7.4146791 810.65845 1345.8022 4288388524
-27.086239 817.90045 1345.3684 4287399821
-24.623854 817.90045 1345.3684 4287465368
-22.161469 817.90045 1345.3684 4287596954
-19.699083 816.95923 1344.5748 4287400846
-17.236698 817.90045 1345.3684 4287466639
-13.543119 817.90051 1345.3684 4287005579
-9.8495417 817.90045 1345.3684 4286413689
-7.387156 818.84167 1346.1621 4287465609
-4.9247708 818.84167 1346.1621 4290686621
0 818.84167 1346.1621 4292794854
4.9247708 817.90045 1345.3684 4283518045
7.387156 816.95923 1344.5748 4286867063
-36.798164 825.10736 1344.905 4288913848
-31.891743 825.10736 1344.905 4287203231
-29.438532 825.10736 1344.905 4286742150
-25.758717 826.0451 1345.6957 4287727764
-22.078899 826.0451 1345.6957 4287990679
-19.625689 826.98285 1346.4863 4290622395
0 825.10736 1344.905 4292795624
4.9064221 826.0451 1345.6957 4292334562
2.4825687 803.8197 1347.8842 4284507015
4.9651375 803.8197 1347.8842 4282865762
2.4825687 805.71765 1349.4845 4284310113
-13.593578 812.54797 1347.3955 4287465098
-9.8862381 812.54797 1347.3955 4287202953
-7.4146791 812.54797 1347.3955 4286742402
-4.943119 812.54797 1347.3955 4287068801
-2.4715595 812.54797 1347.3955 4287595401
0 812.54797 1347.3955 4286872201
4.943119 812.54797 1347.3955 4283783019
-7.4146791 814.4375 1348.9886 4286085492
-4.943119 814.4375 1348.9886 4288251005
