# .PCD v0.7 - Point Cloud Data file format
VERSION 0.7
FIELDS x y z rgb
SIZE 4 4 4 4
TYPE F F F U
COUNT 1 1 1 1
WIDTH 1167
HEIGHT 1
VIEWPOINT 0 0 0 1 0 0 0
POINTS 1167
DATA ascii
33.014679 759.78699 779.6969 4292270568
20.78532 764.76062 779.96643 4294967295
22.517431 764.76062 779.96643 4294967295
25.115597 764.76062 779.96643 4294703870
28.579817 764.76062 779.96643 4286811345
32.044037 764.76062 779.96643 4278588258
19.877064 767.62659 779.76685 4294964991
22.469725 767.62659 779.76685 4294967295
25.062386 767.62659 779.76685 4289903831
28.519266 767.62659 779.76685 4278201206
31.111927 767.62659 779.76685 4282981669
22.398165 771.25635 778.90332 4294174462
24.982569 771.25635 778.90332 4285230488
28.42844 771.25635 778.90332 4279183885
31.012844 771.25635 778.90332 4284104763
28.081345 774.9859 779.43195 4286602817
30.946789 775.42407 779.80139 4288575089
80.939453 800.82611 777.67517 4294967295
61.51376 803.13611 778.96887 4294967039
64.7789 803.62054 777.41528 4294967295
64.7789 805.55005 779.04224 4294967039
67.30275 805.55005 779.04218 4294966783
68.759636 808.44269 777.55701 4294966527
70.436699 809.08374 778.09753 4294966527
72.952293 809.08374 778.09753 4294966783
75.467888 808.44269 777.55701 4294967295
72.952293 811.00696 779.71912 4294967295
8.7798166 748.00891 782.84619 4292004829
10.53578 748.00891 782.84619 4292136662
13.142202 749.5675 781.54431 4293386220
16.64679 748.22784 780.41467 4294176765
19.275229 748.89771 780.97949 4294637823
21.903669 748.22784 780.41467 4294769407
25.408257 748.22784 780.41467 4294702847
28.912844 748.22784 780.41467 4294703103
31.541285 748.22784 780.41467 4294833919
34.461773 748.67438 780.7912 4294768895
37.714676 748.78821 782.19525 4294967295
40.387157 748.00891 782.84619 4294967295
59.702751 748.00891 782.84619 4294967295
61.394497 748.11841 781.63043 4294967295
63.710705 748.60138 781.60175 4294967039
66.587158 749.5675 781.54431 4294900479
40.302753 750.9071 782.67383 4294967295
7.8605504 755.91162 782.96936 4290815674
10.480734 754.57617 781.84344 4292464854
13.275597 754.30908 781.61816 4293781232
16.594496 754.57617 781.84332 4294506235
19.796942 753.68585 781.09277 4294769407
28.822018 753.24072 780.71741 4294702335
31.442202 753.24072 780.71741 4294967039
37.847095 753.68585 781.09277 4294046713
40.758411 755.46649 782.59406 4293124843
43.669724 755.91162 782.96936 4294967295
7.8440366 758.79437 782.78406 4289235343
10.458715 758.79437 782.78406 4289434269
12.782875 758.35016 782.40948 4292989144
16.559633 758.79437 782.78406 4294966015
20.220184 757.72833 781.88513 4294835711
22.660551 756.79547 781.09857 4294703871
25.27523 756.12915 780.53674 4294965759
28.761467 756.12915 780.53674 4294966783
31.376146 756.12915 780.53674 4294967295
34.281345 756.57343 780.91132 4293191922
37.302753 757.72827 781.88513 4288383912
40.091743 758.79437 782.78406 4284627814
22.588991 761.11542 780.81702 4294967295
25.195412 761.11542 780.81702 4294967295
28.670643 761.11542 780.81702 4292006884
31.277063 761.11542 780.81702 4284710833
33.883484 761.11542 780.81702 4281608798
12.163302 762.44385 781.93701 4290356645
17.376146 762.44385 781.93701 4294967039
19.113762 762.44385 781.93701 4294967295
34.752293 762.44385 781.93701 4281475366
37.358719 762.44385 781.93701 4282525226
12.990826 766.74695 781.64124 4288843398
16.166361 766.52618 781.45514 4291080111
32.910091 766.08484 781.08301 4285218631
34.6422 766.08484 781.08301 4285023814
36.374313 766.08484 781.08301 4285352779
39.838531 767.40906 782.19946 4286471262
13.827523 770.26941 781.99512 4287199348
16.708258 769.82892 781.62372 4289895831
19.877064 768.948 780.88098 4294305002
32.840366 768.948 780.88098 4284894023
34.568806 768.948 780.88098 4285354312
37.161469 769.60876 781.43805 4286011206
39.754128 770.26941 781.99512 4287654455
17.229359 773.89075 781.12451 4289501570
19.813763 773.23218 780.56921 4289500326
22.398165 773.23218 780.56921 4284499833
24.982569 773.23212 780.56921 4284236884
29.289907 772.57355 780.01392 4286013491
32.161469 773.01263 780.38409 4287392356
34.458717 773.23218 780.56921 4287458145
36.181652 773.89075 781.12451 4287654239
13.783486 775.20795 782.23523 4286210905
16.367889 775.20795 782.23523 4286475367
19.771561 776.73846 780.90967 4285421922
22.350458 776.73846 780.90967 4286078063
24.929358 776.73846 780.90967 4287392596
28.367889 776.73846 780.90967 4289757800
31.806421 776.73846 780.90967 4292190622
34.458717 775.20795 782.23523 4291669391
37.043121 775.20795 782.23523 4294434508
39.627522 775.20795 782.23523 4294967295
16.333027 778.05286 782.01782 4285422170
19.771561 778.05286 782.01782 4285552472
22.350458 778.05286 782.01782 4287064926
32.666054 778.05286 782.01782 4292917187
34.385323 778.05286 782.01782 4294631584
36.104588 778.05286 782.01782 4294965689
19.708256 782.30969 781.68298 4285881159
23.307156 781.91663 781.35156 4290287222
25.706423 781.6546 781.13062 4293187768
28.105688 781.39252 780.90967 4293449938
31.704586 781.6546 781.13062 4293252034
34.846485 782.52808 781.86713 4294966522
37.702751 782.96478 782.23535 4294967295
23.941284 785.79419 782.005 4294365387
25.651377 785.79419 782.005 4294967295
28.501528 785.3584 781.63751 4294835709
31.351683 785.3584 781.63751 4294898664
35.056881 785.79419 782.005 4294967295
20.455046 790.67944 782.20007 4288905535
23.011927 790.67944 782.20007 4294304963
25.568808 790.67944 782.20007 4294967295
28.125687 790.67944 782.20007 4294768892
31.534863 790.67944 782.20007 4291482067
34.091743 790.67944 782.20007 4290756028
27.21468 793.49353 781.95679 4294967295
30.616514 793.49353 781.95679 4293585138
27.974312 797.05597 781.03638 4294242802
30.517431 797.05597 781.03638 4294174962
16.917431 799.85742 780.78247 4292198331
20.344954 798.35211 782.12927 4294566377
22.888073 798.35211 782.12927 4294967295
25.431192 798.35211 782.12927 4293255133
27.913761 799.85742 780.78247 4294373877
31.332111 799.10474 781.45587 4290162871
34.755962 798.35211 782.12927 4289971320
37.299084 798.35211 782.12927 4293978612
58.427521 799.10474 781.45587 4294967295
13.533945 801.79742 782.41821 4291144886
16.07156 801.79742 782.41821 4291474619
19.737001 802.013 782.59991 4293120727
22.556574 801.58185 782.23651 4293450465
25.376146 801.15076 781.87292 4293517037
27.913761 801.15076 781.87292 4294438902
31.579206 801.58185 782.23651 4294768635
34.398777 802.013 782.59991 4294768885
37.218349 802.44409 782.9635 4294967295
58.365135 801.79749 782.41821 4294967295
16.862385 805.98273 782.02307 4291540415
19.391743 805.98273 782.02307 4292857814
23.045259 805.55298 781.66071 4293253854
26.136696 805.33813 781.47955 4293779942
28.666056 805.33813 781.47955 4294897910
30.914373 805.55298 781.66071 4294834171
33.72477 805.98273 782.02307 4294967295
61.547707 805.33813 781.47955 4294967295
20.190826 808.76587 781.75366 4292923864
23.555964 808.76587 781.75366 4293319644
26.079817 808.76587 781.75366 4293516510
30.286238 808.76587 781.75366 4294570491
64.7789 808.12268 781.2113 4294966783
68.144035 808.12274 781.21136 4294966783
70.667892 808.76587 781.75366 4294967039
19.316513 811.17065 781.81921 4292922838
22.676147 811.17065 781.81921 4293187033
26.038532 811.17065 781.81921 4293713631
28.60367 810.05225 782.83826 4294700271
31.127522 810.05225 782.83826 4294703100
34.492661 810.05225 782.83826 4294967295
68.985321 810.05225 782.83826 4294967295
16.770641 814.85333 782.9624 4292262338
19.56575 814.42596 782.60205 4293054167
22.360855 813.9986 782.24164 4293450720
25.994495 813.57123 781.88123 4293845732
28.510092 813.57123 781.88123 4294503664
31.025688 813.57123 781.88123 4294768379
34.379814 813.57123 781.88123 4294111730
37.733944 814.85333 782.9624 4282864241
16.733946 817.61823 782.67761 4291737024
20.080734 817.61823 782.67761 4292858069
22.869726 817.19183 782.31805 4293582560
25.937614 816.97858 782.13831 4293911782
28.447706 816.97858 782.13831 4294767862
30.957798 816.97858 782.13831 4294833662
34.304588 816.97858 782.13831 4288848069
36.814678 817.61823 782.67761 4283189260
16.6789 822.3927 782.7793 4290422920
22.516514 822.3927 782.7793 4294370528
31.689909 822.3927 782.7793 4282268494
33.3578 822.3927 782.7793 4282268416
7.901835 749.35132 783.97815 4292002778
43.089909 748.18451 784.95636 4294967295
-1.7559633 750.69379 785.11011 4286934110
5.26789 750.69379 785.11011 4290352531
7.8926606 751.47028 784.45673 4291998152
42.93119 752.24677 783.80334 4294966271
46.485321 751.47028 784.45673 4294967295
50.044952 750.69379 785.11011 4294967295
52.678898 750.69379 785.11011 4294967295
55.312843 750.69379 785.11011 4294967295
5.2568808 753.58643 784.93286 4289172605
45.559631 753.58643 784.93286 4294967295
1.746789 758.58246 785.22144 4287133815
4.075841 757.6922 784.4707 4287396466
41.922935 757.24707 784.09534 4284109931
43.669724 757.91479 784.65839 4286872207
45.998779 758.13739 784.84601 4291213273
4.6483178 761.01544 784.65674 4287657336
7.5535164 760.57123 784.28223 4288118390
10.458715 760.12701 783.90771 4288843406
13.944954 760.12701 783.90771 4291344565
15.688073 760.12701 783.90771 4294305506
41.253822 760.57123 784.28223 4283973956
43.57798 761.45966 785.03125 4284502597
45.321102 761.45966 785.03125 4285030755
8.6880732 763.77222 783.05713 4287328368
10.425688 763.77222 783.05713 4288053109
38.227524 763.77222 783.05713 4285748039
39.965137 763.77222 783.05713 4286274383
5.2128439 765.76489 784.7373 4287986817
7.8192654 765.76483 784.7373 4287395965
10.425688 765.10065 784.17725 4287133805
41.702751 765.10065 784.17725 4286340687
43.440369 765.76489 784.7373 4287522406
45.177982 766.42908 785.29736 4287199848
5.1963301 770.0575 784.43262 4288513673
6.9284406 770.0575 784.43262 4288578701
10.39266 768.73328 783.31604 4286672750
12.124771 768.73328 783.31604 4286606957
41.570641 768.73328 783.31604 4290414742
43.302753 770.0575 784.43262 4291798722
45.034863 770.0575 784.43262 4290226826
1.7321101 771.38165 785.54919 4287462012
4.3302751 771.38165 785.54919 4288316807
8.0660553 772.47174 783.85211 4289105302
10.370643 772.25153 783.66644 4288579722
12.675229 772.03125 783.48077 4286606441
15.555964 771.59082 783.10938 4288317821
38.025688 771.59082 783.10938 4287782493
40.906422 772.03125 783.48077 4293182670
43.21101 772.91223 784.22351 4293716460
45.034863 771.38165 785.54919 4291149500
5.1853213 774.23358 785.33765 4288909199
7.7642202 775.37939 784.34174 4290027680
10.337615 776.52515 783.34583 4290225066
12.922018 776.52515 783.34583 4287067505
37.904587 776.52515 783.34583 4294967295
40.488991 776.52515 783.34583 4294967295
44.006424 775.37939 784.34174 4292333527
5.1688075 779.15955 785.56702 4288843908
7.4660554 778.28143 784.82666 4289634206
10.337615 778.50098 785.01172 4291145901
12.922018 777.84235 784.45642 4289765537
16.333027 779.36725 783.1261 4284764750
36.964218 779.36725 783.1261 4294967295
40.446789 778.6048 783.79126 4294967295
44.222015 778.28143 784.82666 4291018446
8.5963306 781.33887 784.78851 4290488994
10.315597 781.99603 785.34265 4291670958
12.607951 781.11981 784.60382 4291803053
16.333027 780.68164 784.23438 4285093183
40.402752 780.68164 784.23438 4294967295
43.554737 781.55792 784.97321 4291808471
8.5688076 785.58514 784.4447 4290357408
11.13945 785.58514 784.4447 4291868600
13.710092 784.27496 783.34009 4292197312
16.280735 784.27496 783.34009 4288317053
19.708256 784.27496 783.34009 4285355312
22.278898 784.27496 783.34009 4291077231
37.702751 784.27496 783.34009 4294967295
40.273396 784.93005 783.89246 4294967295
43.700916 785.58514 784.4447 4290294220
8.5688076 786.89532 785.54944 4290488745
11.126606 787.6521 784.87958 4291539897
13.680734 787.75525 783.65857 4292461249
16.245872 787.75525 783.65857 4290882222
19.381041 787.53735 783.47485 4286734693
23.086239 787.10156 783.10742 4294171353
25.651377 787.10156 783.10742 4294967295
28.216515 787.10156 783.10742 4294704123
31.636698 787.10156 783.10742 4294900222
35.341896 787.53735 783.47485 4294967295
37.622017 787.75525 783.65857 4294967295
40.187157 788.40894 784.20972 4294967295
43.655045 787.6521 784.87958 4289436571
47.128441 786.89532 785.54944 4291275433
8.5504589 789.71637 785.31213 4290817711
11.115597 789.71637 785.31213 4291603895
13.636697 791.98267 783.29883 4292000184
16.193579 791.98267 783.29883 4292066491
19.602753 791.98267 783.29883 4291143076
23.011927 791.98267 783.29883 4294963183
25.568808 791.98267 783.29883 4294967295
28.977982 791.98267 783.29883 4294834162
32.387157 791.98267 783.29883 4285690234
34.944038 791.98267 783.29883 4290960278
37.500916 791.98267 783.29883 4294967295
40.123856 790.84949 784.30548 4294967295
43.607338 789.71637 785.31213 4288452236
46.172478 789.71637 785.31213 4290622363
8.5229359 794.58899 785.49646 4290487715
10.795719 793.72021 784.76398 4291078834
13.60734 794.79388 783.05322 4291080377
16.158716 794.79388 783.05322 4292067009
19.560551 794.79388 783.05322 4293908178
22.962385 794.79388 783.05322 4294966520
25.513762 794.79388 783.05322 4294308084
32.317432 794.79388 783.05322 4287595662
34.868805 794.79388 783.05322 4290954077
37.420185 794.79388 783.05322 4292271342
40.3419 793.72021 784.76398 4294967295
43.466972 793.93738 784.94714 4286342990
46.592052 794.1546 785.13019 4293314972
49.433029 794.58899 785.49646 4294967295
56.251377 794.58899 785.49646 4294967295
11.055964 796.74438 784.69788 4291472819
13.60734 796.09424 784.14966 4291408061
15.308257 796.09424 784.14966 4291737026
18.710093 796.09424 784.14966 4294500830
39.688072 796.96112 784.88062 4293979903
43.373394 797.39459 785.24609 4285753953
45.92477 797.39459 785.24609 4292792712
54.429359 797.39459 785.24609 4294967295
11.302752 800.51239 783.95074 4291144623
18.649542 799.64832 783.22217 4293514455
35.603668 799.64832 783.22217 4294967286
38.14679 800.29639 783.76862 4294572025
40.689907 800.94446 784.31506 4288973289
55.948624 800.29639 783.76862 4294967295
8.4770641 802.2406 785.40796 4290092685
11.007339 802.98901 784.73096 4290750885
13.533945 803.73743 784.05396 4291210930
15.225688 803.73743 784.05396 4291474358
35.526604 803.73743 784.05396 4294967295
38.06422 803.73743 784.05396 4292532444
40.601833 803.73743 784.05396 4286998663
43.233028 802.2406 785.40796 4289366656
45.776146 802.2406 785.40796 4294168735
55.100918 802.2406 785.40796 4294967295
58.365135 803.73743 784.05396 4294967295
10.99633 805.03082 785.14453 4290684327
13.533945 805.03082 785.14453 4291014572
38.910091 805.03082 785.14453 4287268244
40.601833 805.03082 785.14453 4285555773
43.13945 805.03082 785.14453 4290090631
58.365135 805.03082 785.14453 4294967295
13.489908 809.20557 784.74048 4290881707
16.019266 807.91638 783.65344 4291343288
18.548624 807.27185 783.10999 4292659409
21.921101 807.27185 783.10999 4293450208
28.666056 807.27185 783.10999 4294766320
32.038532 807.27185 783.10999 4294967295
34.56789 807.27185 783.10999 4294967295
37.659328 808.13129 783.83466 4289968087
40.469727 809.20557 784.74048 4287322693
42.718044 809.42041 784.92163 4292719010
61.969265 808.23871 783.92523 4294901247
64.920181 809.20557 784.74048 4294966527
67.449539 808.56097 784.19702 4294967295
15.703975 811.76733 784.28436 4291605172
18.508257 811.33856 783.92285 4293053906
37.857796 811.33856 783.92285 4286281629
40.381653 812.62494 785.00745 4290874469
15.640368 817.48358 784.30811 4290619554
18.978594 817.97687 783.85205 4292726482
22.590824 818.89758 783.75635 4294043625
25.937614 818.89758 783.75635 4294635252
28.447706 818.89758 783.75635 4294964477
30.957798 818.89758 783.75635 4289704396
34.304588 818.89758 783.75635 4282076039
37.958408 817.97687 783.85205 4289104480
41.088074 817.4176 785.12451 4291865773
43.603668 817.4176 785.12451 4292525263
15.060551 820.81653 785.37433 4287396207
19.244038 820.17688 784.83496 4292331180
25.937614 820.17688 784.83496 4294700026
28.447706 820.81653 785.37433 4289305522
30.121101 820.81653 785.37433 4286738574
35.141285 820.17688 784.83496 4285558058
37.651375 820.17688 784.83496 4289496468
40.161469 820.81653 785.37433 4290880167
31.689909 823.66779 783.85437 4284234853
34.191742 824.30536 784.39197 4287720288
37.527523 824.30536 784.39197 4290024336
40.029358 824.94293 784.92957 4290617764
-4.1100917 749.26221 787.82697 4285619288
0 749.03772 787.63776 4286475364
3.5229359 748.36438 787.07007 4289957774
59.009178 749.03772 787.63782 4294967295
61.651375 749.03772 787.63776 4294967295
63.412846 749.03772 787.63776 4294835199
-1.7559633 752.03625 786.24194 4286408811
1.7559633 752.03625 786.24194 4287396973
3.5119267 752.03625 786.24194 4288251503
47.411011 752.03625 786.24194 4294967295
50.044952 752.03625 786.24194 4294967295
52.678898 752.03625 786.24194 4294967295
55.312843 752.03625 786.24194 4294967295
-4.0972476 754.27362 788.1286 4285882720
-1.7522936 754.92603 786.0625 4286475887
0.87614679 754.15234 786.7182 4286607723
47.311928 754.92603 786.0625 4294967295
49.993576 754.15234 786.7182 4294967295
52.678898 753.37866 787.3739 4294967295
55.020184 754.27368 788.1286 4294967295
-3.5045872 757.60535 788.32153 4286145123
-1.7522936 756.26569 787.19202 4287000178
0 756.26569 787.19202 4286673264
49.940369 756.26569 787.19202 4294967295
52.568806 756.93555 787.75677 4294967295
54.321102 757.60535 788.32153 4294967295
-1.746789 760.58563 786.9104 4286934636
0.58226299 760.36304 786.72272 4287001457
47.163303 759.91791 786.34741 4292070606
50.074615 760.36304 786.72272 4294243064
52.403671 761.25336 787.47339 4294967295
-1.7431192 764.12494 787.27856 4287132520
1.1620795 763.16864 787.34424 4287198579
3.4862385 763.45862 786.71674 4287526009
46.483181 763.23651 786.52948 4288780420
49.388378 763.68073 786.90399 4291742945
52.403671 762.58875 788.59937 4294636799
54.150459 762.58875 788.59937 4294967295
-3.4862385 765.45752 788.40222 4286671969
-1.7431192 765.45752 788.40222 4287132520
0.86880732 766.60754 787.40979 4287396207
3.4752293 767.75751 786.41736 4287724157
46.915596 767.75751 786.41736 4288910966
49.522018 767.75751 786.41736 4291939284
52.293579 765.45752 788.40222 4294307316
-3.4752293 769.75012 788.09753 4286605919
-1.7376146 769.75012 788.09753 4287329386
0 769.75012 788.09753 4287264379
46.915596 769.08594 787.53748 4288320401
49.522018 769.08594 787.53748 4291806669
52.128441 769.75012 788.09753 4294109932
1.7321101 772.70587 786.66565 4287790212
3.4642203 772.70587 786.66565 4287790461
46.766972 772.70587 786.66565 4286806149
49.365139 772.70587 786.66565 4291675851
-1.7321101 774.6922 788.34052 4287329138
0.86513764 775.07269 788.00732 4287592574
4.0330276 775.99542 786.82324 4288251517
46.667889 776.2157 787.00897 4286676367
49.287155 775.83447 787.34155 4292199871
51.963303 774.6922 788.34052 4294832621
-1.7284404 778.19781 788.68018 4287460980
0.8642202 778.19781 788.68018 4287396475
51.85321 778.19781 788.68018 4294965237
1.7229358 781.79395 787.78833 4287922304
4.0201836 780.91583 787.04791 4288448895
6.8917432 780.47675 786.67773 4289436306
46.519264 780.47675 786.67773 4287597729
49.390827 780.91583 787.04791 4293515988
-1.7229358 783.11115 788.89893 4287459952
1.7229358 783.11115 788.89893 4287987327
4.47156 784.58496 788.04883 4288646277
6.8770642 783.96765 787.00507 4289436309
46.420185 783.31042 786.45093 4287858876
48.999084 783.96765 787.00507 4292990679
51.633026 784.52515 788.7832 4294967295
6.8550458 788.20551 786.65417 4289304216
47.985321 788.20551 786.65417 4292725716
49.699081 788.20551 786.65417 4294967039
4.2844038 790.17078 788.31128 4288448128
7.6954126 791.02374 786.41443 4289830046
47.882568 791.02374 786.41443 4293514968
49.592659 791.02374 786.41443 4294967039
52.269726 789.51569 787.75891 4294967295
4.560245 793.2027 788.25165 4288513923
6.8403668 792.33112 787.51672 4289237648
52.157799 792.33112 787.51672 4294967295
54.722935 792.33112 787.51672 4294967295
5.1137614 797.19531 787.69409 4289171085
7.3865438 796.32648 786.96149 4289763469
47.728439 795.89215 786.59521 4292990670
49.433029 795.89215 786.59521 4294965488
51.705811 796.32648 786.96149 4294967295
4.2559633 799.24695 788.11591 4288315522
7.6541286 799.34521 786.89075 4289500549
43.373394 798.69501 786.34253 4286210716
47.058716 799.12848 786.70801 4293252056
49.326607 799.34521 786.89075 4294964207
52.161469 799.56195 787.07349 4294967295
54.429359 798.69501 786.34253 4294967295
4.2522936 801.29572 788.5354 4288117630
7.6293578 803.53674 786.50085 4289434244
46.700916 802.41626 787.51813 4294960874
49.166973 803.53674 786.50085 4294967295
51.877983 801.29572 788.5354 4294967295
55.188992 802.41626 787.51813 4294967295
1.6954129 806.12909 788.68665 4287459434
3.9559631 805.26495 787.95801 4287788154
7.612844 806.32416 786.23499 4289105024
10.99633 806.32416 786.23499 4290289562
43.985321 806.32416 786.23499 4293899696
46.57431 805.57849 786.91437 4294967295
50.014679 805.48096 788.1402 4294967295
52.557796 805.48096 788.1402 4294967295
54.777985 805.76202 787.50513 4294967039
58.365135 806.32416 786.23499 4294967295
60.902752 806.32416 786.23499 4294967295
4.5113149 808.47974 788.05255 4287722101
7.6128435 808.26416 787.87085 4288117619
10.714374 808.04858 787.68903 4289696917
46.522934 808.26416 787.87085 4294967295
55.827522 807.61749 787.32556 4294967295
58.365135 807.61749 787.32556 4294966783
61.466663 808.47974 788.05255 4294966783
8.4311924 812.42841 787.45789 4287920253
11.24159 811.99872 787.09552 4289499031
13.489908 811.13928 786.37097 4290749086
42.999084 811.13928 786.37097 4292853422
45.528439 812.42841 787.45789 4294967295
5.0587158 813.71759 788.54492 4287724409
7.5880733 813.71759 788.54492 4287921270
10.947706 814.45758 787.86078 4287986046
13.46055 814.55444 786.63434 4289039491
40.381653 813.91125 786.09204 4290615447
42.905502 813.91125 786.09204 4292591049
46.322021 814.45758 787.86078 4294967295
11.777982 816.48395 788.26135 4287658875
13.416513 818.69971 786.20557 4287790454
41.926605 818.69971 786.20557 4292195769
43.603668 818.69971 786.20557 4291672764
45.429359 816.48395 788.26135 4294964213
11.73945 821.26398 788.36768 4288512906
13.416513 819.98187 787.28662 4286409824
41.926605 819.98187 787.28662 4291801783
43.603668 819.98187 787.28662 4291148720
41.834862 822.73553 786.99243 4291473073
43.508255 822.73553 786.99243 4291344565
-7.6568809 748.28638 790.92841 4284963413
63.611008 748.73669 791.30798 4294637055
-7.0458717 752.40436 790.47644 4285553752
-5.2844038 751.05768 789.34094 4285686620
56.366974 751.05768 789.34094 4294967295
59.009178 751.73102 789.90869 4294967039
61.651375 751.73102 789.90869 4294834943
-7.9266057 753.75098 791.61194 4286014549
59.889908 753.75098 791.61194 4294835199
61.651375 753.75098 791.61194 4294835199
-7.6091743 758.30096 791.52423 4285882196
-4.6801224 757.4715 789.95282 4286408545
55.528442 757.98456 789.51337 4294967295
58.532108 757.40601 790.76971 4294901247
-7.0091743 761.62427 791.71021 4286539867
-4.6727829 760.7312 790.95721 4286736992
56.073395 760.28461 790.58069 4294967295
57.825687 760.95447 791.14545 4294966271
55.023853 763.92419 789.72546 4294967295
-5.2403669 765.25964 790.85144 4286737247
55.277065 766.21503 790.78491 4294899967
57.644035 766.59509 791.97742 4294636286
-5.2293577 768.78912 791.21136 4286474845
54.617737 769.01123 791.39862 4294832885
-3.4752293 772.40698 790.33777 4286671208
53.866055 773.07117 790.89783 4294965745
-3.4642203 776.67853 790.01526 4287132016
53.695412 776.67853 790.01526 4294965494
-3.4642203 778.00275 791.13184 4287000430
-1.7284404 779.51923 789.79443 4287329651
0 779.51923 789.79443 4287329911
52.71743 779.51923 789.79443 4294966779
55.427525 778.00275 791.13184 4294965247
-3.4568808 780.84064 790.90857 4286802022
0 780.84064 790.90857 4287526776
53.58165 780.84064 790.90857 4294967295
55.310093 780.84064 790.90857 4294967295
57.038532 780.84064 790.90857 4294967295
-3.4458716 785.74554 791.12024 4286803305
-1.7229358 785.08691 790.56488 4287197553
0.8614679 785.08698 790.56482 4287790202
53.411011 784.42834 790.00952 4294967295
55.995415 784.42834 790.00952 4294967295
-1.7192661 788.56799 790.88403 4287197552
1.7192661 788.56799 790.88403 4288118398
3.4385321 787.2536 789.77576 4288053370
55.876144 787.2536 789.77576 4294967295
58.455048 787.2536 789.77576 4294967295
60.174313 787.2536 789.77576 4294967295
-1.7192661 789.88245 791.99219 4287394924
0 789.88245 791.99219 4287526260
1.7137614 792.7912 790.52069 4287921526
3.4201834 794.94586 789.72144 4288052605
-3.4201834 797.56061 791.92615 4286934121
-1.7100917 797.56061 791.92615 4287197550
0.85504586 796.90692 791.375 4287525747
1.7045871 799.80164 789.89172 4287722612
-3.4091742 801.10486 790.99048 4287328870
-1.7027524 802.50061 790.85938 4287525994
0.56697249 802.53241 790.4502 4287591020
-3.401835 805.19684 791.82471 4287459434
-3.3908257 808.72137 790.87231 4287261808
-1.6954129 807.42523 789.77942 4287591020
0.56513762 807.85724 790.14374 4287525997
50.014679 807.42523 789.77942 4294967295
52.557796 807.42523 789.77942 4294967295
55.100918 808.0733 790.32587 4294967295
58.209179 807.85724 790.14374 4294966783
61.882568 808.72137 790.87231 4294967295
-3.9510701 811.43536 791.41669 4287263085
-1.6917433 811.49756 790.59717 4287788406
1.0150459 811.75623 790.81525 4287986548
3.9474003 810.63531 789.87012 4287723125
6.7669725 810.20422 789.50659 4287459702
47.368809 810.20422 789.50659 4294967295
50.075596 811.23889 790.37903 4294835710
52.444042 811.49756 790.59717 4294901759
54.740063 811.43536 791.41669 4294967295
4.2155962 815.00671 789.63184 4288183677
7.5880733 815.00671 789.63184 4287986813
10.117432 815.00671 789.63184 4287790461
47.21468 815.00671 789.63184 4294967039
48.900917 815.00671 789.63184 4294966527
-3.3724771 817.58502 791.80579 4287526260
-1.6862385 816.94043 791.26233 4288052605
1.124159 817.15527 791.44354 4288710013
4.2155962 816.94043 791.26233 4289301636
7.3009171 817.21704 790.62354 4289171336
10.936697 817.77026 789.34595 4287989896
46.619572 817.21704 790.62354 4293978604
49.462994 817.15527 791.44354 4294967295
53.116516 817.58502 791.80579 4294966783
5.0477066 820.34296 791.51514 4290550676
7.5715594 819.69977 790.97284 4290090642
10.095413 819.05658 790.43054 4289434008
45.990215 819.91412 791.15363 4294637040
48.794495 820.34296 791.51514 4294967295
53.842201 820.34296 791.51514 4294967295
8.3853207 822.54614 789.44873 4290880161
-12.368808 752.78931 794.7251 4285421402
-10.601835 751.43842 793.58606 4285686094
-8.8348627 750.08752 792.44702 4285095242
63.611008 751.43842 793.58612 4294637055
-10.568808 755.09766 792.74731 4286080081
-8.8073397 755.09766 792.74731 4285948752
59.889908 755.09766 792.74731 4294835455
61.651375 755.09766 792.74731 4294901247
-15.853211 756.44434 793.88281 4284499530
-13.21101 756.44434 793.88281 4285091920
-10.568808 756.44434 793.88281 4286080081
61.651375 756.44434 793.88281 4294834687
63.412846 756.44434 793.88281 4294506239
-16.681652 760.76208 793.59943 4284499274
-12.877065 760.98584 793.78809 4286472024
-10.53578 760.76215 793.59943 4286736471
-8.7798166 760.76215 793.59943 4286670679
59.702751 760.09094 793.03345 4294703103
61.458717 760.76215 793.59943 4294374397
63.21468 761.43335 794.16541 4294702335
-7.5932717 763.85693 793.59277 4286474075
58.993885 763.4104 793.21631 4294505469
-6.9871559 767.93054 793.10339 4286541151
58.517433 767.93054 793.10339 4294965502
-6.9871559 769.26593 794.22937 4286606944
-5.2293577 770.78809 792.89673 4286606944
55.779816 770.78809 792.89673 4294965244
58.456879 770.02698 793.56305 4294967295
-6.972477 772.12073 794.02039 4286541666
55.779816 772.12073 794.02039 4294965244
57.522934 772.12073 794.02039 4294967295
-5.2128439 775.06384 792.57788 4286672994
57.341286 775.72803 793.13794 4294967295
-6.9504585 777.05646 794.25806 4286540903
-5.1963301 779.32697 792.24841 4286606696
59.078899 777.05646 794.25806 4294967295
-6.9284406 781.9754 794.48145 4286474858
-4.3266053 781.40662 792.69385 4286540139
58.766972 782.16205 792.02271 4294967295
-5.1853213 784.14417 793.69403 4286671467
-4.0201836 787.94092 792.97119 4287000426
0 787.06274 792.23083 4287526260
-4.3036699 790.44696 793.77625 4286606183
-1.7192661 791.19678 793.10046 4287263856
0 791.19678 793.10046 4287461482
-4.2981653 792.51123 794.20874 4286343520
-1.7137614 794.75647 792.17773 4287132270
0 794.75647 792.17773 4287197552
-6.8550458 797.37683 794.38721 4286869348
-5.1412845 796.06665 793.28247 4286737762
-6.8403668 800.17542 794.13086 4286868578
-5.1302752 798.86798 793.02856 4287000933
-4.5455661 802.84247 792.45557 4287065958
-6.8183484 805.01434 794.28687 4287066211
-5.1027522 806.49719 792.92114 4287132005
59.532108 806.49719 792.92114 4294967295
-6.8036699 807.79755 794.01758 4287000931
58.681648 807.79755 794.01758 4294835199
62.083488 807.79755 794.01758 4294966527
-5.0862384 811.96179 793.60455 4287067749
55.948624 811.31372 793.05811 4294967295
57.644035 811.96179 793.60455 4294967295
-4.2293577 814.73096 793.32343 4287395433
0 814.08429 792.7782 4288315515
50.752293 814.08429 792.7782 4294967295
52.444038 814.08429 792.7782 4294967039
55.263611 814.51538 793.14166 4294967039
-4.2238531 817.77258 793.92603 4287460717
-1.6862385 818.87415 792.89282 4287921020
0.84311926 818.87415 792.89282 4288907134
3.3724771 818.87415 792.89282 4289958539
50.587154 818.87415 792.89282 4294834687
52.273396 818.87415 792.89282 4294966783
55.827522 816.67096 794.95923 4294967039
-3.3724771 820.16327 793.97974 4287788919
-1.6825688 821.62927 792.59973 4288051834
0 820.16327 793.97974 4288381558
49.690826 820.89624 793.28973 4294967295
53.000916 821.62927 792.59973 4294900991
55.64587 820.16327 793.97974 4294900479
-1.6825688 822.91565 793.68433 4288708737
50.477066 822.91565 793.68433 4294967295
53.842201 822.91565 793.68433 4294637823
-12.407339 749.12585 795.56018 4285749333
-15.952293 750.4809 796.70276 4284827727
-14.179816 750.4809 796.70276 4284566093
65.377983 755.49103 797.00305 4294505727
-14.091743 757.79095 795.01831 4285222222
63.412846 757.79095 795.01831 4294439934
65.174309 759.81091 796.7215 4294967295
66.935783 759.13763 796.15381 4294967295
-16.38899 763.22333 795.67462 4285815642
-13.169725 763.44702 795.86328 4286342232
-10.53578 763.44702 795.86328 4286408281
61.458717 762.77582 795.29736 4294702590
63.21468 763.44702 795.86328 4294966271
67.604584 762.77582 795.29736 4294967295
-15.80367 765.46075 797.56116 4286473318
-13.169725 765.46075 797.56116 4286409049
-10.53578 765.46075 797.56116 4286540380
-8.7614679 766.31299 795.66364 4286474844
61.330276 766.31299 795.66364 4294967039
64.026604 766.2218 796.89478 4294967295
-10.513762 768.32245 797.35803 4286409310
-8.7614679 768.32245 797.35803 4286541153
59.390827 770.60138 795.35547 4294967295
61.137615 770.60138 795.35547 4294967295
63.082569 768.32245 797.35803 4294967295
-7.8532109 772.69507 795.81274 4286475363
59.266056 773.45331 795.14404 4294967295
62.302139 772.38202 796.85675 4294967295
-8.7155962 775.45227 796.82953 4286212452
61.009174 774.78595 796.2677 4294967295
-7.8192658 779.04907 795.93817 4286474856
60.816513 778.38489 795.37817 4294967295
-8.6880732 781.04175 797.61829 4286343267
-8.0831804 784.62378 796.71454 4286540387
-7.4899082 787.44769 796.47949 4286606180
-6.8917432 791.01434 795.56274 4286541666
-10.337615 793.64874 797.78394 4286737760
-7.7458715 793.07855 795.99518 4286934883
-8.5963306 795.79718 796.97943 4286803809
-8.5688076 799.99719 796.59656 4286869348
-10.282569 801.30737 797.70129 4286144869
-7.704587 801.39508 796.46722 4286868586
-8.5504589 804.09753 797.43787 4286999403
-7.9498467 808.54755 796.39386 4286934895
59.532108 809.0979 795.11401 4294967295
61.233028 809.0979 795.11401 4294966271
63.069725 807.62073 796.4845 4294900479
-6.8036699 810.39825 796.21045 4287002213
59.532108 811.04846 796.75867 4294967295
61.233028 811.04846 796.75867 4294900991
-6.7816515 814.55408 795.79034 4286803288
57.644035 814.55408 795.79034 4294967295
-6.7816515 816.49835 797.42969 4286407764
-5.0752292 817.96436 796.04968 4287723624
57.519264 817.96436 796.04968 4294967295
-4.2238531 820.3551 796.10352 4287918959
52.273396 821.45245 795.06677 4294967295
55.64587 821.45245 795.06677 4294900991
57.519264 819.25769 797.14026 4294967295
-3.3724771 822.74158 796.15369 4287919472
53.959633 822.74158 796.15369 4294967295
65.174309 761.83093 798.42468 4294967295
67.816513 761.83093 798.42468 4294967295
70.458717 761.83093 798.42468 4294966783
67.522942 764.07538 800.3172 4294967295
70.458717 764.52423 800.69568 4294967295
-15.80367 766.80316 798.69312 4286144608
-13.169725 766.80316 798.69312 4286343003
64.970642 766.80316 798.69312 4294967295
-16.38899 769.04059 800.57959 4286210648
-13.169725 768.81683 800.39099 4286343007
-10.513762 769.66211 798.48755 4286212451
64.834862 769.66211 798.48755 4294967295
67.604584 768.14563 799.82495 4294967295
-12.266055 772.34143 800.7467 4286343004
-10.513762 771.00177 799.61707 4286212451
64.834862 771.00177 799.61707 4294967295
66.587158 771.67163 800.18188 4294967295
-15.721101 775.94312 799.8595 4286276963
-13.100918 775.94312 799.8595 4286277211
-10.480734 774.60767 798.7334 4286212451
62.884403 775.27539 799.29645 4294967295
64.631195 774.60767 798.7334 4294967295
-16.594496 777.27856 800.98547 4285487209
-13.100918 777.27856 800.98547 4286474844
-10.458715 778.11755 799.07684 4286409061
-12.201835 780.11646 800.76221 4286671454
-10.425688 782.37012 798.7384 4286541153
-12.163302 785.02698 800.97864 4286999905
-10.425688 784.36279 800.41858 4286671969
-12.099083 791.41193 799.82202 4286868065
-10.370643 790.09052 798.70776 4286737247
-12.060551 794.96594 798.89453 4286671719
-10.337615 794.96594 798.89453 4286803809
-12.922018 796.28314 800.00525 4286672489
-10.315597 797.7688 798.64185 4286737762
-16.333027 800.39758 800.85828 4285091406
-12.894495 799.08313 799.75012 4286341732
-15.423853 803.92773 799.91077 4284960851
-13.710092 803.27264 799.3584 4285223513
-11.425076 803.05426 799.17432 4285683804
-15.390825 806.71228 799.64258 4284895821
-13.680734 806.71228 799.64258 4284831314
-10.830582 806.27655 799.27515 4285553503
-15.390825 808.01965 800.745 4285487177
-11.115597 808.01965 800.745 4285685084
-18.750458 812.83337 800.87964 4286014307
-16.193579 812.83337 800.87964 4285946699
-13.636697 811.53021 799.78094 4285815125
-11.079817 812.83337 800.87964 4285486163
-8.5229359 810.87866 799.23151 4286276966
59.532108 812.99902 798.40332 4294967295
61.233028 812.99902 798.40332 4294900991
63.069725 810.87866 799.23151 4294967295
-7.9376144 815.16632 800.23071 4286209621
62.933945 814.29938 799.49976 4294967295
-5.0752292 820.55103 798.23071 4287853678
52.444038 820.55103 798.23071 4294967295
68.911926 760.89447 801.5592 4294967295
70.678902 760.89447 801.5592 4294967295
-16.681652 770.83051 802.08887 4285948245
-14.047707 770.83051 802.08887 4286277211
-16.594496 779.28174 802.67444 4285356122
-13.974312 778.61401 802.11145 4286539867
-16.559633 782.78174 803.00952 4286077779
-13.363914 781.89331 802.26044 4286671450
-19.113762 787.68384 803.21875 4286210918
-16.507339 787.68384 803.21875 4286342754
-13.03211 786.35541 802.09863 4286736733
-19.053211 791.24487 802.29724 4286342754
-15.588991 791.24487 802.29724 4286736999
-13.856881 790.58276 801.73901 4286736995
-19.012844 794.05469 802.05029 4286409824
-16.420183 794.05469 802.05029 4286671969
-18.952293 797.60034 801.11584 4286606176
-16.367889 797.60034 801.11584 4286408027
-18.952293 799.57617 802.78174 4285354324
-17.192661 801.71198 801.96655 4285157974
-17.137615 805.89301 801.56787 4285290061
-16.245872 809.32703 801.84729 4286079827
-11.115597 809.32703 801.84729 4285815382
-18.750458 814.78809 802.52789 4285354843
-16.477676 814.57098 802.34473 4285749329
-13.636697 814.13654 801.97852 4285683277
-11.079817 814.13654 801.97852 4286078033
63.069725 814.13654 801.97852 4294967295
-15.308257 816.90009 801.69263 4286473057
-13.60734 817.55029 802.24084 4286540119
-11.055963 817.55029 802.24084 4286671963
-7.6541281 817.55029 802.24084 4286868062
-15.308257 819.50085 803.8855 4286407764
-13.60734 819.50085 803.8855 4286342484
-11.055964 819.50085 803.8855 4286539608
-7.6293578 821.68298 801.80127 4287064420
-10.172477 824.27527 803.98706 4287000430
-7.3467889 823.84326 803.62274 4287724150
-19.174313 784.11438 804.13318 4285814877
-16.559633 784.11438 804.13318 4286013283
-17.376146 789.01227 804.33887 4286473570
-18.952293 801.55194 804.44775 4285617748
-18.911926 804.99792 804.73724 4285291859
-18.750458 817.39453 804.72546 4286472289
-16.477676 817.17731 804.5423 4286342232
-18.750458 819.34924 806.37366 4286405980
-16.177065 820.0752 805.6778 4286538321
-13.60734 820.80121 804.98193 4286473813
-11.055964 820.80121 804.98193 4286802525
-8.5045872 820.80121 804.98193 4287592558
-16.158716 822.10156 806.07837 4286474065
-13.60734 822.10156 806.07837 4286670935
-11.906422 822.10156 806.07837 4286934364
-10.737615 826.00342 805.44415 4285158229
-8.4770641 825.57141 805.07983 4285026896
-18.710093 824.70227 808.27124 4286014566
-16.158716 824.05212 807.72302 4286277470
-13.60734 824.05212 807.72302 4285815897
-11.906422 824.70227 808.27124 4284631366
-16.158716 826.00269 809.36768 4283116331
-13.60734 826.00269 809.36768 4283117875
-11.906422 826.00269 809.36768 4283183668
-10.172477 828.16376 807.26562 4282854710
-16.158716 827.30304 810.46411 4283117875
-13.60734 827.30304 810.46411 4283184170
-11.055964 827.30304 810.46411 4283381558
-18.710093 828.60339 811.56055 4283448375
-17.009174 828.60339 811.56055 4283579963
-13.60734 828.60339 811.56055 4283448121
66.587158 807.17212 830.11499 4294505727
64.631195 811.99988 830.2616 4294504703
66.377983 811.99988 830.2616 4294374139
61.651375 803.57733 833.62415 4294768127
63.412846 803.57733 833.62415 4294439679
64.970642 805.73419 831.51868 4294439679
61.458717 808.41907 833.78247 4294637823
63.666668 808.95831 831.62109 4294439423
66.587158 808.51178 831.24451 4294504959
61.330276 811.19104 833.50366 4294243327
62.884403 813.33533 831.38757 4293913340
64.631195 814.00305 831.95056 4294110462
67.251373 814.00305 831.95056 4294242042
69.871559 814.67078 832.51355 4294373375
64.631195 816.00616 833.63953 4294044926
67.251373 816.00616 833.63953 4294044410
60.960548 802.7713 836.86865 4294637055
61.330276 812.5307 834.63318 4294242554
63.082569 812.5307 834.63318 4293979133
-14.018349 815.20996 836.89233 4284171849
61.330276 814.54016 836.32758 4294241277
63.082569 813.87036 835.76282 4294044926
70.091743 813.87036 835.76282 4294175483
-15.721101 817.34161 834.76562 4284040262
62.302139 818.23193 835.5163 4293847804
64.631195 817.34161 834.76562 4294176255
66.377983 817.34161 834.76562 4294044156
64.495415 820.76166 835.03326 4293715704
66.238533 820.76166 835.03326 4293715191
66.238533 822.76062 836.71863 4292795626
61.466972 792.94464 839.04724 4294965503
58.612843 797.82568 839.23865 4294570751
61.277065 796.46777 838.09375 4294702335
63.941284 796.46777 838.09375 4294505727
58.491745 800.61865 838.97766 4294439935
60.264221 799.26355 837.83508 4294636543
60.077065 804.12219 838.00769 4294440447
-12.330276 808.96393 838.16602 4284106046
59.889908 808.29065 837.59827 4294374398
-12.291743 812.44641 837.17822 4284106308
-10.568808 810.31061 839.30151 4283910212
59.889908 810.31061 839.30151 4294504447
-12.291743 813.78888 838.31018 4284237642
-10.53578 815.13135 839.44214 4284566859
59.702751 813.78888 838.31018 4294307583
-16.64679 816.54962 838.02185 4284632652
-13.142202 817.21948 838.58667 4284632140
59.57798 817.21948 838.58667 4294242559
-19.21468 820.68018 837.58057 4285224018
-16.594496 820.68018 837.58057 4285026895
62.302139 820.45758 837.39288 4293913082
64.631195 821.3479 838.14355 4293584375
-19.174313 824.09326 837.84229 4285617748
-16.576147 823.38831 838.55597 4285552468
62.011009 822.68335 839.26965 4293781239
64.631195 822.68335 839.26965 4293583091
66.238533 824.09326 837.84229 4293453550
-19.174313 825.42584 838.96594 4286011736
-16.559633 825.42584 838.96594 4285684824
58.559631 779.49512 842.09521 4294901247
61.262386 779.49512 842.09521 4294900479
63.06422 779.49512 842.09521 4294966783
58.380737 784.42389 842.32703 4294967295
61.07523 784.42389 842.32703 4294966783
59.097248 787.96667 841.39014 4294703615
61.783485 787.96667 841.39014 4294834431
-8.9541283 789.33575 842.54443 4283644742
58.082569 790.7793 841.14563 4294768895
-8.9357796 792.14563 842.29761 4283249211
57.991745 793.2262 841.24664 4294636543
-12.47156 797.03088 842.49268 4283579963
-10.689908 797.03088 842.49268 4283187263
57.012844 796.34985 841.91846 4294505215
-10.65688 800.54144 841.52856 4283253057
-10.634862 803.3288 841.2627 4283777856
-8.8807335 801.89929 842.67346 4283843649
56.836697 801.89929 842.67346 4294111484
58.491745 802.65125 840.69147 4294243070
-10.601835 806.82391 840.28564 4283843649
58.491745 804.68384 842.40527 4294439935
-8.2458715 809.07538 842.18408 4283976004
58.310093 808.85022 841.9942 4294504703
-10.568808 811.65723 840.43689 4284041798
-8.8073397 813.67725 842.14014 4284369223
58.128441 813.67725 842.14014 4294373631
-10.53578 817.14502 841.13995 4284895054
-12.966972 820.3006 841.18457 4285290063
-10.524771 820.53345 842.68896 4285552468
-8.7798166 819.15869 842.83789 4285486675
59.577984 820.5686 841.41046 4293978619
61.330276 820.5686 841.41052 4293978363
-13.974312 824.0188 840.39563 4285487959
62.884403 824.0188 840.39563 4293714678
64.631195 824.0188 840.39563 4293583091
-19.174313 826.75848 840.0896 4285948260
-16.559633 826.75848 840.0896 4285947996
-13.974312 826.02197 842.08459 4286013533
62.884403 825.35425 841.52161 4293912056
-19.174313 828.75745 841.77509 4285227623
-16.559633 828.75745 841.77515 4285882460
55.291744 773.74493 845.09509 4294637823
58.738533 775.93127 843.0144 4294901503
56.027523 778.00385 844.76196 4294967039
55.85688 782.25012 844.41821 4294966783
58.559631 780.87262 843.25671 4294967039
61.262386 780.87262 843.25671 4294637823
63.06422 781.5614 843.83746 4294901247
-7.2073393 783.62769 845.57971 4284436304
55.686237 785.79718 843.48486 4294506239
57.482571 785.79718 843.48486 4294703615
-7.1853213 787.17047 844.64282 4282985274
-4.1914372 787.62823 845.02881 4282921014
-1.7963303 788.54382 845.80078 4283775807
55.686237 787.17047 844.64282 4294637055
-7.1633029 790.7049 843.69885 4283118395
-5.3724771 790.7049 843.69885 4283381567
55.515594 790.7049 843.69885 4294505727
-8.0458717 793.83557 844.37659 4283251519
-5.3724771 792.07397 844.85327 4283579462
55.458717 793.47607 844.72748 4294308095
-5.3614678 796.24451 845.75366 4283384899
55.401836 796.24451 845.75366 4294373887
-7.7204895 798.84698 844.02393 4283319363
-5.344954 799.75507 844.78967 4283451205
55.231194 799.75507 844.78967 4294439679
57.012844 798.39294 843.64111 4294111484
-7.9926605 803.2572 843.81836 4283777602
-5.344954 801.11713 845.93811 4283843653
56.033943 802.18713 844.87823 4294571519
-7.0899081 806.03894 843.54785 4283583044
-5.3284402 804.61505 844.96338 4283583044
56.836697 804.61505 844.96338 4294570239
56.719265 808.74908 845.83301 4293978364
-7.0678897 811.55188 844.27222 4284238408
-7.9376144 814.6377 844.91205 4285224274
56.543118 813.57825 845.98071 4293847292
58.128441 815.6972 843.84338 4294176255
-7.0458717 817.04388 844.97876 4285355859
58.128441 817.04388 844.97876 4294241791
-8.7798166 821.17236 844.53577 4285815640
57.946789 820.5011 843.96985 4294043642
-12.266055 823.91766 844.23444 4286013532
-10.513762 823.24786 843.66968 4286013019
59.57798 823.24786 843.66968 4294043642
61.330276 823.24786 843.66968 4294372607
-12.266055 825.92712 845.92871 4286342754
-15.688073 830.75641 843.46057 4287198576
-13.959633 829.39075 843.61707 4286606182
51.170643 763.72321 847.10925 4294967295
49.343121 765.12036 848.28723 4294967295
52.004585 766.21777 847.25049 4294967039
-4.5550461 770.10101 848.56274 4287852648
51.623852 769.17236 847.77972 4294967295
54.550457 770.16846 846.00354 4294966783
52.732109 772.25366 847.76172 4294967039
52.572475 776.51678 847.43225 4294966015
54.385323 775.82385 846.84796 4294900479
-4.5321102 777.90271 848.60083 4288382596
-1.812844 777.90271 848.60083 4288974220
52.572475 777.90271 848.60083 4294966271
-4.5183487 781.45819 847.67456 4283779657
-1.8073394 781.45819 847.67456 4283583305
52.412846 782.14905 848.25708 4294505727
54.220184 780.76733 847.09204 4294703359
-1.8018348 785.00519 846.74121 4282725940
54.055046 785.00519 846.74121 4294505727
52.253212 786.38269 847.90271 4294439935
54.055046 786.38269 847.90271 4294439679
-3.5926607 789.91711 846.95874 4283448121
-1.7963303 790.60376 847.53772 4283252024
53.889908 790.60376 847.53772 4294439679
-4.1785932 793.89948 846.39252 4283187775
53.72477 794.81219 847.16211 4294439679
-3.574312 797.61084 846.90576 4283385412
-1.7908257 796.18127 848.31641 4283254083
52.774311 796.89606 847.61108 4294439935
-3.574312 798.97711 848.05774 4283385412
53.614677 798.97711 848.05774 4294637055
-3.5633028 803.16028 847.66083 4283582789
53.449543 803.84131 848.23511 4294242303
55.231194 803.16028 847.66083 4294241791
-5.3284402 805.97296 846.10828 4284041796
56.836697 805.97296 846.10828 4294307583
-4.1443424 807.78345 847.63477 4284502092
55.060551 808.00977 847.82562 4294044409
-5.317431 810.78168 847.54688 4284830031
56.719265 810.10413 846.97559 4293913342
-5.3009176 814.92908 847.11975 4285290066
56.543118 814.92908 847.11975 4294241791
-7.0458717 818.39056 846.11426 4285618261
-5.3009176 816.27997 848.25879 4285618261
55.65963 816.27997 848.25879 4294175228
-7.0458717 820.41052 847.8175 4286078558
-5.2844038 820.41052 847.8175 4286012765
56.366974 820.41052 847.8175 4293912310
58.128441 820.41052 847.8175 4293977847
-10.53578 823.85724 846.79962 4286210144
-8.7798166 823.85724 846.79962 4286275937
59.702751 823.18604 846.23364 4293846009
-12.266055 827.26678 847.05835 4286343267
-10.53578 825.87091 848.49744 4286669922
-8.7798166 825.87091 848.49744 4286735715
57.946789 825.87091 848.49744 4293977849
-13.100918 830.69598 846.02563 4286540647
47.801834 757.91974 850.06396 4293120712
47.801834 759.32532 851.24915 4294371562
49.491745 761.52423 849.1792 4294967295
47.658714 763.62628 850.9516 4294967295
-1.827523 767.21606 850.05432 4288905595
47.515594 767.91467 850.64331 4294967295
49.343121 767.21606 850.05432 4294967295
46.601833 769.31183 851.82141 4294966783
-4.5550461 771.49396 849.73718 4287983724
-1.8220184 771.49396 849.73718 4289035636
47.372478 772.8869 850.91174 4294702847
49.194496 772.19043 850.32446 4294834943
51.016514 771.49396 849.73718 4294967295
-4.5458717 774.33887 849.5199 4288775035
-1.8183486 774.33887 849.5199 4289497988
50.913761 775.03394 850.10602 4294702335
0 777.11914 851.86426 4283649098
47.277065 777.11914 851.86426 4294109949
49.927521 778.20392 850.81683 4294439423
0 780.67462 850.93799 4282986027
49.85321 780.67462 850.93799 4294439679
0.6024465 785.14276 850.78131 4283579700
50.003056 785.14276 850.78131 4294571519
52.253212 787.76025 849.06421 4294439679
0 790.51526 851.38721 4283254083
49.850769 790.05609 851 4294702847
52.253212 789.13776 850.22571 4294636543
-1.7963303 792.6637 849.27466 4283188034
50.297249 794.03705 850.4325 4294374399
52.093578 792.6637 849.27466 4294505471
-1.7908257 797.55042 849.47083 4283385412
49.322018 796.48035 850.53064 4294440447
51.933945 797.55042 849.47083 4294637823
-1.787156 800.34338 849.20984 4283254083
0 800.28857 851.77966 4283975501
49.546177 799.83221 851.39484 4294439167
52.7211 800.34338 849.20984 4294241534
-1.787156 801.70972 850.36182 4283583044
50.040367 803.07599 851.51379 4294439679
51.827522 802.39282 850.93781 4294505471
-1.7816514 805.88446 849.95776 4284436555
52.855656 806.11151 850.14917 4294373373
49.886238 807.92761 851.68054 4294109949
51.667889 807.92761 851.68054 4294044156
-3.5486238 811.43042 849.40192 4285093201
-1.7761468 811.40448 850.68799 4285290067
49.732109 812.76233 851.83289 4293978364
52.396328 811.40442 850.68799 4293978108
55.00367 811.43042 849.40192 4294241277
-3.5449541 814.84692 850.97449 4285750106
-1.772477 815.52441 851.54578 4285750363
52.288074 814.84692 850.97449 4293715449
-3.5339448 818.98169 850.53674 4285947998
53.009174 818.30627 849.96729 4293715195
54.776146 818.30627 849.96729 4294043902
-3.5339448 820.33252 851.67578 4286210914
