# .PCD v0.7 - Point Cloud Data file format
VERSION 0.7
FIELDS x y z rgb
SIZE 4 4 4 4
TYPE F F F U
COUNT 1 1 1 1
WIDTH 1167
HEIGHT 1
VIEWPOINT 0 0 0 1 0 0 0
POINTS 1167
DATA ascii
25.852295 807.09131 769.87744 4294965246
28.354128 807.09131 769.87744 4294965244
30.022018 807.09131 769.87744 4293123304
18.447706 800.74988 771.07068 4293778147
18.447706 802.03204 772.15173 4293778147
33.541283 803.31415 773.23279 4294967295
20.080734 804.82501 771.89075 4293646558
22.590824 804.82501 771.89075 4293778917
25.937614 806.10431 772.96936 4294701048
28.447706 806.10431 772.96936 4294833147
30.957798 805.46466 772.43005 4293583847
16.862385 796.95868 774.41418 4293185753
16.862385 798.89246 776.04468 4293053909
18.508257 801.69104 775.78827 4293711325
33.651375 802.33423 776.33057 4294966783
20.124771 804.59631 774.31384 4293712352
22.640366 804.59631 774.31384 4293844710
25.155964 805.87842 775.3949 4294700791
31.025688 805.23737 774.85437 4294176232
26.254435 807.23492 775.66669 4294635253
28.478899 807.27209 775.26202 4294965502
30.187157 807.16058 776.47595 4294964986
13.100918 751.90527 779.59143 4294967295
16.303364 751.01495 778.84064 4294967295
13.073395 754.79651 779.41309 4294967295
15.688073 754.79651 779.41309 4294967295
10.425688 758.45856 778.57678 4294631655
10.425688 759.78699 779.6969 4292855768
8.6605501 764.76062 779.96643 4291932870
10.39266 764.09851 779.40814 4292064957
13.158899 763.48108 778.36426 4293120218
15.588992 763.43634 778.84991 4293779430
10.370643 767.62659 779.76685 4292196282
12.675229 767.1861 779.39545 4292525507
13.680734 783.17944 779.80029 4292132806
16.245872 783.17944 779.80029 4292922067
15.341285 786.76996 778.90369 4293120214
15.308257 790.24261 779.2157 4292857556
35.719265 790.89282 779.76392 4294967295
15.258716 794.46368 778.85059 4292988372
13.563303 795.75983 779.94348 4292198599
15.225688 797.27069 778.60144 4292987859
35.526604 796.62402 778.05615 4294967295
13.533945 798.56403 779.69189 4292460233
16.044037 799.69507 778.68353 4292855247
35.526604 798.56403 779.69189 4294967295
16.300306 802.97479 779.48682 4292920783
19.096024 803.04669 778.67548 4293710812
22.71468 803.62054 777.41528 4294107625
31.968807 803.62054 777.41528 4294373611
34.56789 802.75989 779.30566 4294967039
20.190826 805.55005 779.04218 4293514713
22.71468 805.55005 779.04224 4293844195
31.968807 805.55005 779.04218 4294965244
33.651375 806.19324 779.58447 4294967295
25.994495 809.08374 778.09753 4294699762
28.510092 809.08374 778.09753 4294964987
30.187157 809.08374 778.09753 4294964733
25.994495 811.00696 779.71912 4294567661
28.510092 811.00696 779.71912 4294964476
31.025688 811.00696 779.71912 4294964990
30.121101 813.78027 779.44153 4294963450
7.8926606 748.78821 782.19525 4294967295
10.513762 748.89771 780.97949 4294967295
13.142202 748.22784 780.41467 4294967295
37.71376 748.11841 781.63043 4294967295
40.387157 748.00891 782.84619 4294967295
43.021103 748.00891 782.84619 4294967295
46.533028 748.00891 782.84619 4294967295
7.0091743 750.9071 782.67383 4294967295
42.055046 750.9071 782.67383 4294967295
5.2403669 755.2439 782.40637 4290754493
7.8605504 753.90845 781.2804 4293055708
10.480734 753.24072 780.71741 4294967295
41.922935 755.2439 782.40637 4294967295
43.669724 754.57617 781.84344 4294967295
45.853214 754.91003 782.12488 4294967295
5.2293577 758.79437 782.78406 4291541709
7.8440366 757.46179 781.6604 4291079087
13.073395 756.12915 780.53674 4294965499
15.688073 756.12915 780.53674 4294967295
8.6880732 761.11542 780.81702 4291867317
6.9504585 762.44385 781.93701 4290617266
5.1963301 767.40906 782.19946 4292264905
7.5058103 766.52618 781.45514 4291012006
15.588991 766.74695 781.64124 4293710304
37.240368 767.40906 782.19946 4294967295
40.704586 767.40906 782.19946 4294967295
43.302753 767.40906 782.19946 4294967295
45.034863 767.40906 782.19946 4294967295
8.0660543 769.82892 781.62372 4291209642
10.370643 768.948 780.88098 4291604413
13.251376 769.38849 781.25238 4292394957
15.555964 770.26941 781.99512 4292988376
37.161469 770.26941 781.99512 4294967295
40.618347 770.26941 781.99512 4294967295
43.21101 770.26941 781.99512 4294967295
8.6146793 773.89075 781.12451 4291406768
10.337615 773.23218 780.56921 4291342775
12.634862 773.45166 780.75433 4292329928
15.506422 773.89075 781.12451 4293054167
39.627522 773.89075 781.12451 4294967295
7.753211 775.20795 782.23523 4290947242
10.315597 776.73846 780.90967 4291474358
12.894495 776.73846 780.90967 4292395976
15.473394 776.73846 780.90967 4292988372
37.043121 775.20795 782.23523 4294967295
40.488991 775.20795 782.23523 4294967295
43.073395 775.20795 782.23523 4294967295
8.5963306 778.05286 782.01782 4291013037
10.315597 778.05286 782.01782 4291408565
12.894495 778.05286 782.01782 4292197573
37.823853 778.05286 782.01782 4294967295
40.402752 778.05286 782.01782 4294967295
42.981651 778.05286 782.01782 4294967295
8.5688076 782.30969 781.68298 4291406756
10.853824 782.09131 781.49884 4291671475
16.280735 780.34442 780.02588 4293052885
35.988991 782.96478 782.23535 4294967295
41.130276 782.96478 782.23535 4294967295
43.415287 782.52808 781.86713 4294967295
8.5504589 785.79419 782.005 4291734686
11.400612 785.3584 781.63751 4292065973
13.680734 784.48682 780.90271 4292067270
35.911926 785.79419 782.005 4294967295
37.622017 785.1405 781.45386 4294967295
39.902142 785.3584 781.63751 4294967295
42.752293 785.79419 782.005 4294967295
13.636697 788.07312 780.00244 4291936454
11.93211 790.67944 782.20007 4292328633
13.636697 789.37628 781.10132 4291936454
37.500916 789.37628 781.10132 4294967295
40.0578 790.02783 781.6507 4294967295
42.614677 790.67944 782.20007 4294967295
13.60734 792.19318 780.86035 4292067270
37.420185 792.84338 781.40857 4294967295
39.121101 793.49353 781.95679 4294967295
11.86789 797.05597 781.03638 4292328384
37.299084 797.05597 781.03638 4294967295
8.4770641 798.35211 782.12927 4291601583
11.007339 799.10474 781.45587 4291736763
13.533945 799.85742 780.78247 4292328902
15.225688 799.85742 780.78247 4292789453
38.106422 799.10474 781.45587 4294967295
8.4587154 802.44409 782.9635 4291339690
10.99633 801.79742 782.41821 4291867067
13.533945 801.15076 781.87292 4292328904
38.346176 801.58185 782.23651 4294967295
40.601833 802.44409 782.9635 4294967295
42.293579 802.44409 782.9635 4294967295
11.80367 805.98273 782.02307 4292196032
13.489908 805.33813 781.47955 4292393926
16.019264 805.33813 781.47955 4292789452
18.548624 805.33813 781.47955 4293579737
35.411011 804.69354 780.93604 4294967295
37.659328 805.55298 781.66071 4294967295
40.469727 805.98273 782.02307 4294967295
42.155964 805.98273 782.02307 4294967295
20.190826 808.12268 781.21136 4293580765
22.995108 807.90839 781.03058 4293712352
31.968807 807.47955 780.66907 4294965247
34.492661 808.12274 781.21136 4294967039
37.857796 808.76587 781.75366 4294967295
40.381653 808.76587 781.75366 4294967295
20.190826 810.05225 782.83826 4293579482
22.71468 810.05225 782.83826 4293711838
25.994495 812.28906 780.80017 4294370282
28.510092 812.28906 780.80017 4294963703
31.86422 812.28906 780.80017 4294765814
34.379814 812.28906 780.80017 4294768894
37.857796 810.05225 782.83826 4294967295
40.381653 810.05225 782.83826 4294967295
42.06422 810.05225 782.83826 4294967295
20.124771 814.85333 782.9624 4293251801
22.640366 814.21228 782.42181 4294107365
25.937614 815.05957 780.52026 4294370795
28.447706 815.05957 780.52026 4294963446
30.957798 815.05957 780.52026 4294831609
34.379814 813.57123 781.88123 4294637305
37.733944 814.21228 782.42181 4294967295
41.088074 814.85333 782.9624 4294967295
22.869726 817.19183 782.31805 4293910241
25.937614 816.97858 782.13831 4294305258
28.447706 816.97858 782.13831 4294964730
30.957798 816.33893 781.599 4294766841
34.304588 816.97858 782.13831 4294505722
37.372478 817.19183 782.31805 4294967295
30.855965 820.47998 781.1665 4294372597
34.191742 821.11755 781.7041 4294242038
30.821102 823.13129 782.09399 4293977329
34.191742 822.3927 782.7793 4294242297
4.3954129 748.18451 784.95636 4294768889
37.753212 749.35132 783.97815 4294967295
40.387157 749.35132 783.97815 4294967295
47.411011 749.35132 783.97815 4294967295
49.166973 749.35132 783.97815 4294967295
3.5045872 752.24677 783.80334 4293912304
38.550457 752.24677 783.80334 4294967295
40.302753 752.24677 783.80334 4294967295
47.311928 752.24677 783.80334 4294967295
49.166973 750.69379 785.11011 4294967295
1.7522936 753.58643 784.93286 4293908963
3.5045872 753.58643 784.93286 4294306799
40.302753 753.58643 784.93286 4294967295
49.06422 753.58643 784.93286 4294967295
1.746789 757.91479 784.65839 4294565342
3.493578 757.24707 784.09534 4294963711
38.429359 758.58246 785.22144 4294967295
40.758411 757.6922 784.4707 4294967295
43.669724 757.24707 784.09534 4294967295
46.581039 757.6922 784.4707 4294967295
48.910091 758.58246 785.22144 4294967295
4.0672784 760.57123 784.28223 4293778409
41.834862 760.12701 783.90771 4294967295
43.57798 760.12701 783.90771 4294967295
46.192661 760.79333 784.46948 4294967295
48.807339 761.45966 785.03125 4294967295
5.2128439 763.77222 783.05713 4291673300
38.227524 763.77222 783.05713 4294967295
40.833946 763.77222 783.05713 4294967295
43.440369 763.77222 783.05713 4294967295
45.177982 763.77222 783.05713 4294967295
3.4752293 766.42908 785.29736 4294963455
46.915596 765.10065 784.17725 4294967295
49.522018 765.76489 784.7373 4294967295
4.3302751 769.39539 783.87433 4293976300
46.189602 769.17462 783.68823 4294967295
49.365139 769.39539 783.87433 4294967295
1.7321101 771.38165 785.54919 4294694618
4.6091743 772.47174 783.85211 4293778407
6.9137616 771.59082 783.10938 4291274926
17.284403 771.59082 783.10938 4293447126
37.161469 771.59082 783.10938 4294967295
41.482571 771.59082 783.10938 4294967295
44.3633 772.03125 783.48077 4294967295
46.667889 772.91223 784.22351 4294967295
48.972477 772.47174 783.85211 4294967295
51.963303 771.38165 785.54919 4294967295
1.7284404 774.23358 785.33765 4294497238
4.3128443 775.37939 784.34174 4293779172
6.8917432 776.52515 783.34583 4290749865
36.181652 776.52515 783.34583 4294967295
44.796329 776.52515 783.34583 4294967295
46.519264 776.52515 783.34583 4294967295
49.183487 775.37939 784.34174 4294967295
51.85321 774.23358 785.33765 4294967295
1.7229358 779.15955 785.56702 4294562770
4.0201836 778.28143 784.82666 4293910509
6.8770642 779.36725 783.1261 4290288787
36.964218 779.36725 783.1261 4294967295
40.402752 779.36725 783.1261 4294967295
44.700916 779.36725 783.1261 4294967295
46.519264 777.84235 784.45642 4294967295
49.103668 778.50092 785.01172 4294967295
4.5847096 781.55792 784.97321 4292856282
6.8770642 780.68164 784.23438 4290353813
46.420185 780.68164 784.23438 4294967295
48.13945 781.99603 785.34265 4294967295
5.1412845 785.58514 784.4447 4291474617
6.8550458 784.27496 783.34009 4290615949
44.557796 784.27496 783.34009 4294967295
46.842815 785.14844 784.07648 4294967295
4.2788992 787.6521 784.87958 4292926175
7.6954126 787.75525 783.65857 4290813855
10.830582 787.53735 783.47485 4291737009
43.892353 787.53735 783.47485 4294967295
47.078899 787.6521 784.87958 4294967295
49.699081 786.89532 785.54944 4294967295
4.2752295 789.71637 785.31213 4292926944
7.6816511 790.84949 784.30548 4290615967
11.079817 791.98267 783.29883 4291802036
40.910091 791.98267 783.29883 4294967295
43.466972 791.98267 783.29883 4294967295
47.027523 789.71637 785.31213 4294967295
4.5455661 794.1546 785.13019 4292005841
7.6614676 794.03986 783.72546 4290549392
10.205504 794.79388 783.05322 4291341232
39.971558 794.79388 783.05322 4294967295
43.421101 794.03986 783.72546 4294967295
47.160244 793.72021 784.76398 4294967295
49.433029 794.58899 785.49646 4294967295
5.1027522 797.39459 785.24609 4290557115
6.8036699 796.09424 784.14966 4289693330
40.822018 796.09424 784.14966 4294967295
43.373394 796.09424 784.14966 4294967295
46.491745 796.96112 784.88062 4294967295
5.0862384 800.94446 784.31506 4291407813
7.3467889 800.08038 783.58643 4290352271
40.689907 799.64832 783.22217 4294967295
43.515594 800.08038 783.58643 4294967295
45.776146 800.94446 784.31506 4294967295
4.2330275 802.98901 784.73096 4292922851
7.612844 803.73743 784.05396 4290485901
10.150458 803.73743 784.05396 4291274930
43.985321 803.73743 784.05396 4294967295
46.57431 802.98901 784.73096 4294967295
49.166973 802.2406 785.40796 4294967295
4.2293577 805.03082 785.14453 4293052370
6.7669725 805.03082 785.14453 4290156433
46.522934 805.03082 785.14453 4294967295
49.060551 805.03082 785.14453 4294967295
5.0587158 809.85016 785.28394 4290815411
7.7566962 808.81885 784.41437 4290812815
10.960551 808.56104 784.19696 4292063675
13.489908 807.91638 783.6535 4292263616
16.019266 807.91638 783.6535 4292856011
18.548624 807.91638 783.6535 4293514457
21.921101 807.27185 783.10999 4293514972
43.280121 807.70148 783.47235 4294967295
46.371559 809.20557 784.74048 4294967295
8.4128437 812.62494 785.00745 4291731602
10.936697 812.62494 785.00745 4291866297
13.46055 811.98175 784.46515 4292197821
15.984404 811.98175 784.46509 4292855754
19.069113 811.76733 784.28436 4293382359
21.873394 811.33856 783.92285 4294303718
38.699081 811.33856 783.92285 4294967295
40.381653 811.33856 783.92285 4294967295
43.185932 811.76733 784.28436 4294967295
45.429359 812.62494 785.00745 4294967295
8.3853207 817.4176 785.12451 4291142827
10.894495 817.14648 784.24194 4291735482
13.401834 817.51654 783.8999 4291935677
15.64159 817.48358 784.30811 4292790988
19.27523 817.14648 784.24194 4293382871
22.590824 818.89758 783.75635 4293975775
25.937614 818.89758 783.75635 4294239721
28.447706 818.89758 783.75635 4294965243
37.651375 818.89758 783.75635 4294967295
41.043121 817.51648 783.8999 4294967295
43.555962 817.51654 783.8999 4294967295
45.839756 816.99023 784.76416 4294967295
11.155963 821.02979 785.55414 4291867832
13.387156 820.81653 785.37433 4292329408
15.897248 820.17688 784.83496 4292987595
18.407339 820.17688 784.83496 4294040031
26.774311 820.17688 784.83496 4294436844
28.447706 820.17688 784.83496 4294963703
37.930275 820.60333 785.19452 4294967295
40.998165 820.81653 785.37433 4294967295
43.508255 820.81653 785.37433 4294967295
35.025688 823.66779 783.85437 4294967295
37.527523 824.30536 784.39197 4294967295
-7.0458717 749.71106 788.20544 4286144862
-4.1100917 749.26221 787.82697 4287724150
-1.7614679 748.36438 787.07007 4287198828
1.7614679 748.36438 787.07007 4293776861
51.963303 748.36438 787.07007 4294967295
54.605503 749.71106 788.20544 4294967295
-1.7559633 752.03625 786.24194 4287263604
0 752.03625 786.24194 4287724420
38.631191 752.03625 786.24194 4294967295
50.922935 752.03625 786.24194 4294967295
52.678898 752.03625 786.24194 4294967295
-3.5119267 754.04993 787.93988 4287526776
-1.7559633 753.37866 787.3739 4287329397
0 753.37866 787.3739 4287986560
49.993576 754.15234 786.7182 4294967295
52.678898 754.04993 787.93988 4294967295
54.434864 754.72113 788.50586 4294967295
-3.5045872 757.60535 788.32153 4287921531
-1.7522936 756.93555 787.75677 4287592568
0 756.93555 787.75677 4288907396
50.816513 756.26569 787.19202 4294967295
52.568806 757.60535 788.32153 4294967295
54.321102 757.60535 788.32153 4294967295
-1.746789 761.25336 787.47339 4288249983
0.87339449 760.58563 786.9104 4291999153
50.656879 759.91791 786.34741 4294967295
52.403671 761.25336 787.47339 4294967295
54.150459 761.25336 787.47339 4294967295
-3.493578 762.58875 788.59937 4287921270
-1.7431192 764.12494 787.27856 4287987063
1.1620795 763.68073 786.90399 4292722879
3.4862385 762.7923 786.15491 4294963447
50.550457 762.7923 786.15491 4294967295
52.293579 764.12494 787.27856 4294967295
54.150459 762.58875 788.59937 4294967295
-3.4862385 765.45752 788.40222 4287789680
-1.7431192 765.45752 788.40222 4287855473
0.86880732 766.60754 787.40979 4292062897
52.128441 767.75751 786.41736 4294967295
54.036697 765.45752 788.40222 4294967295
-3.4752293 770.41437 788.65759 4287591533
-1.7376146 769.08594 787.53748 4287921268
0 769.08594 787.53748 4288839040
53.866055 770.41437 788.65759 4294967295
-1.7321101 772.70587 786.66565 4288118133
0 772.70587 786.66565 4288970626
-3.4642203 775.35431 788.8988 4287590770
-1.7284404 776.2157 787.00897 4288380799
0.57614678 775.48712 787.26678 4290879135
52.467274 775.92853 787.63892 4294967295
55.427525 775.35431 788.8988 4294967295
53.58165 778.19781 788.68018 4294967295
-1.7229358 781.13538 787.23303 4288379256
0.8614679 781.13538 787.23303 4292126886
49.965137 780.47675 786.67773 4294967295
51.688072 781.13538 787.23303 4294967295
-3.4458716 783.11115 788.89893 4288049774
-1.7192661 785.28198 788.11334 4287983981
0.57308871 784.55835 788.37518 4291143589
3.4385321 783.31042 786.45093 4294962930
49.858715 783.31042 786.45093 4294967295
52.494495 783.86798 788.22906 4294967295
55.07523 784.52515 788.7832 4294967295
1.7137614 788.20551 786.65417 4294967295
49.699081 788.20551 786.65417 4294967295
52.269726 788.20551 786.65417 4294967295
-1.7137614 789.51569 787.75891 4288180331
0.85504586 790.26971 787.08667 4291937471
3.4201834 791.02374 786.41443 4294967295
49.592659 791.02374 786.41443 4294967295
52.157799 791.02374 786.41443 4294967295
54.840366 790.17078 788.31128 4294967295
-1.7100917 792.9848 788.06793 4288246890
0.57003057 792.76691 787.88422 4291998381
52.442814 792.76691 787.88422 4294967295
54.722935 793.63849 788.61914 4294967295
-3.4091742 797.19531 787.69409 4288378991
-1.7045871 797.19531 787.69409 4288773749
0.85229355 796.5437 787.14465 4292986054
3.4091742 795.89215 786.59521 4294967295
49.433029 795.89215 786.59521 4294967295
51.705811 796.76093 787.32782 4294967295
-3.4091742 798.49847 788.79285 4288378737
-1.7009175 799.99536 787.43896 4288839288
1.133945 799.56195 787.07349 4293052870
3.401835 798.69501 786.34253 4294966015
47.625687 798.69501 786.34253 4294967295
49.326607 798.69501 786.34253 4294967295
51.93486 799.24695 788.11591 4294967295
54.546787 798.49847 788.79285 4294967295
-3.401835 801.29572 788.5354 4287919222
-1.7009175 801.29572 788.5354 4288642688
0.84770644 803.53674 786.50085 4292588977
51.877983 801.29572 788.5354 4294967295
-1.6954129 804.83289 787.59375 4288971390
0.56391436 805.76202 787.50513 4291865765
4.2293577 806.32416 786.23499 4292593371
49.961468 805.57849 786.91437 4294967295
52.557796 806.12909 788.68665 4294967295
-1.6917431 808.26416 787.87079 4289104002
1.1278287 808.47974 788.05255 4293247679
3.3834863 807.61749 787.32556 4294960370
50.188381 808.04865 787.68903 4294967295
52.444038 808.91089 788.41602 4294967295
-1.6862385 812.42841 787.45789 4288511863
1.6862385 812.42841 787.45789 4294958047
4.2155962 811.78387 786.91443 4293711073
6.7449541 811.13928 786.37097 4291008136
47.21468 811.13928 786.37097 4294967295
49.462994 811.99872 787.09552 4294967295
-1.6862385 813.71759 788.54492 4288314227
1.6862385 813.71759 788.54492 4294629338
4.2100916 814.45758 787.86078 4294962431
7.2911315 814.34003 786.45361 4292786102
16.825687 813.91125 786.09204 4292987861
47.111927 813.91125 786.09204 4294967295
49.690826 814.45758 787.86078 4294967295
52.273396 813.71759 788.54492 4294967295
4.2064219 816.48395 788.26135 4294964476
7.5577979 817.5918 787.23346 4292985040
10.062386 818.69971 786.20557 4291012272
46.119267 818.69971 786.20557 4294967295
48.794495 816.48395 788.26135 4294967295
52.159634 816.48395 788.26135 4294967295
4.4721713 820.83661 788.00732 4294962427
7.2672782 820.40924 787.64697 4293249483
46.398777 820.40924 787.64697 4294967295
8.3669729 822.73553 786.99243 4290750610
40.998165 822.73553 786.99243 4294967295
43.508255 822.73553 786.99243 4294967295
45.181652 823.37518 787.53174 4294967295
43.365139 826.21802 786.00464 4294967295
-8.8348627 748.06128 790.73853 4285816670
56.543118 748.06128 790.73853 4294967295
-7.6330276 751.95551 790.09796 4286146135
-5.2844038 751.73102 789.90869 4287527529
55.486237 751.73102 789.90869 4294967295
-10.568808 753.75098 791.61194 4286212701
-8.8073397 753.75098 791.61194 4286015322
56.366974 753.75098 791.61194 4294967295
58.128441 753.75098 791.61194 4294967295
-10.53578 758.74847 791.90161 4285685844
-7.9018345 757.40601 790.76965 4286080341
-4.6764526 757.98456 789.51337 4287855986
56.190826 757.40601 790.76965 4294967295
58.824768 758.07727 791.33563 4294967295
-7.5932717 761.17773 791.33368 4286078805
-5.2568808 760.28461 790.58069 4288052077
56.073395 760.28461 790.58069 4294967295
57.825687 760.95447 791.14545 4294967295
-5.2403669 763.92419 789.72546 4287394661
55.897247 763.92419 789.72546 4294967295
-6.9871559 765.92737 791.41443 4286077773
-4.3577981 766.79016 789.52588 4287591786
17.431192 766.79016 789.52588 4293382103
54.966972 766.0249 790.18866 4294967295
58.517433 765.92737 791.41443 4294967295
61.137615 766.59509 791.97742 4294967295
-5.2293577 768.78912 791.21136 4287459939
55.779816 768.1228 790.64954 4294967295
58.103973 769.01123 791.39862 4294967295
-4.3440366 772.40698 790.33777 4287196775
53.866055 771.7428 789.77771 4294967295
55.603668 771.7428 789.77771 4294967295
57.341286 773.07117 790.89783 4294967295
-3.4642203 776.67853 790.01526 4287853428
55.427525 776.67853 790.01526 4294967295
57.159634 776.67853 790.01526 4294967295
-4.3266053 778.76099 790.46313 4287787881
53.58165 779.51923 789.79443 4294967295
55.310093 779.51923 789.79443 4294967295
58.025688 778.00275 791.13184 4294967295
60.623852 778.00275 791.13184 4294967295
57.902752 780.84064 790.90857 4294967295
-4.0201836 785.30646 790.75 4287983716
56.85688 785.74554 791.12024 4294967295
58.579815 785.74554 791.12024 4294967295
61.164223 785.74554 791.12024 4294967295
63.748623 785.74554 791.12024 4294967295
-3.4385321 788.56799 790.88403 4288246888
56.735779 788.56799 790.88403 4294967295
58.455048 788.56799 790.88403 4294967295
60.174313 788.56799 790.88403 4294967295
-5.1577983 789.88245 791.99219 4288181346
61.033943 789.88245 791.99219 4294967295
-3.4275229 792.13611 789.96838 4288575600
55.903362 794.00928 789.80371 4294967295
58.839142 793.00958 790.70477 4294967295
61.695412 793.44629 791.073 4294967295
-5.1302752 797.56061 791.92615 4287723112
56.433029 796.90692 791.375 4294967295
58.14312 797.56061 791.92615 4294967295
54.546787 799.80164 789.89172 4294967295
-3.972477 802.53247 790.4502 4287459175
52.728439 802.59607 789.63184 4294967295
55.036701 802.53247 790.4502 4294967295
-5.1027522 805.19684 791.82471 4286604375
54.429359 805.19684 791.82471 4294967295
-4.2385321 808.0733 790.32587 4286539104
-4.2293577 811.49756 790.59717 4286144081
0 810.85089 790.05188 4289824908
52.444038 810.20422 789.50659 4294967295
55.011925 811.12756 790.93915 4294967295
-3.3724771 815.00671 789.63184 4286406484
-1.6862385 815.00671 789.63184 4288182639
0.84311926 815.00671 789.63184 4292390318
50.587154 815.00671 789.63184 4294967295
53.959633 815.00671 789.63184 4294967295
-4.4966359 816.72559 791.08124 4285945422
-1.6825688 817.77026 789.34595 4288839542
0.84128439 817.03308 790.03241 4292918223
3.3651376 817.77026 789.34595 4294963199
49.952908 817.7085 790.16583 4294967295
53.000916 817.77026 789.34595 4294967295
55.64587 817.58502 791.80579 4294967295
-3.9259939 819.91412 791.15363 4285617485
-1.6825688 819.05658 790.43054 4289170307
0.84128439 819.05658 790.43054 4292789979
49.35535 819.91412 791.15363 4294967295
53.000916 819.05658 790.43054 4294967295
-1.6770642 822.54614 789.44873 4288184177
0 822.54614 789.44873 4288183954
46.957798 822.54614 789.44873 4294967295
52.827522 823.18719 789.98926 4294967295
48.528439 825.29419 789.14978 4294967295
52.827522 825.11035 791.61084 4294967295
-12.407339 747.77075 794.41772 4286210666
60.264221 747.77075 794.41772 4294967295
-12.368808 752.11389 794.15558 4285947993
-10.601835 750.08752 792.44702 4286212701
58.310093 750.08752 792.44702 4294967295
60.960548 752.11389 794.15558 4294967295
63.611008 752.78931 794.7251 4294967295
-10.568808 755.09766 792.74731 4286147158
59.889908 755.09766 792.74731 4294967295
-12.330276 756.44434 793.88281 4285816660
61.651375 756.44434 793.88281 4294967295
63.412846 756.44434 793.88281 4294967295
-15.80367 761.43335 794.16541 4285421654
-13.169725 761.43335 794.16541 4285617748
-10.53578 760.09094 793.03345 4285749850
59.702751 760.09094 793.03345 4294967295
61.458717 760.09094 793.03345 4294967295
-10.513762 762.96387 792.83972 4285618254
-8.7614679 763.63367 793.40454 4285354826
59.57798 762.96387 792.83972 4294967295
61.330276 762.96387 792.83972 4294967295
63.082569 763.63367 793.40454 4294967295
-6.9871559 767.93054 793.10339 4285749320
62.011009 767.93054 793.10339 4294967295
-7.8532109 770.02698 793.56305 4285486416
59.266056 770.78809 792.89673 4294967295
61.880733 770.78809 792.89673 4294967295
-6.972477 772.12073 794.02039 4285420357
62.752293 772.12073 794.02039 4294967295
-6.9504585 775.72803 793.13794 4285617734
-5.2128439 774.3996 792.01782 4287393891
59.078899 774.3996 792.01782 4294967295
61.685318 775.06384 792.57788 4294967295
64.29174 775.72803 793.13794 4294967295
-6.9504585 777.05646 794.25806 4285683527
-5.1963301 779.32697 792.24841 4287459938
61.489906 779.32697 792.24841 4294967295
-5.1853213 782.16205 792.02271 4287393368
57.902752 782.16205 792.02271 4294967295
61.42569 781.40662 792.69385 4294967295
-6.9137616 784.14417 793.69403 4285813561
-6.8917432 788.37994 793.34143 4286075971
-5.1688075 787.06274 792.23083 4287919192
62.025688 787.06274 792.23083 4294967295
63.748623 787.06274 792.23083 4294967295
-7.753211 789.69714 794.45203 4285420615
-5.1577983 791.19678 793.10046 4287723110
-6.8770642 792.51123 794.20874 4286012492
-5.1412845 794.75647 792.17773 4287723110
59.124771 794.75647 792.17773 4294967295
61.893578 792.51123 794.20874 4294967295
-6.8550458 796.72174 793.83484 4286078030
59.981651 796.06665 793.28247 4294967295
61.695412 796.72174 793.83484 4294967295
-6.8403668 800.17542 794.13086 4285881420
58.998169 799.52173 793.57971 4294967295
61.563301 800.17542 794.13086 4294967295
-6.8183484 803.71118 793.18811 4285551687
-5.1137614 802.40802 792.08923 4287197279
56.251377 803.05957 792.63867 4294967295
57.955963 803.71118 793.18811 4294967295
-6.8183484 805.01434 794.28687 4284566343
56.130276 806.49719 792.92114 4294967295
58.808258 805.01434 794.28687 4294967295
61.365139 805.01434 794.28687 4294967295
-6.8036699 807.79755 794.01758 4284828729
58.681648 807.79755 794.01758 4294967295
-6.7816515 812.60986 794.151 4283775528
58.491745 811.31372 793.05811 4294967295
61.882568 811.96179 793.60455 4294967295
55.827522 814.08429 792.7782 4294967295
58.365135 814.73096 793.32343 4294967295
61.748623 814.73096 793.32343 4294967295
-6.7669725 816.67096 794.95923 4284959305
55.64587 818.87415 792.89282 4294967295
58.365135 816.67096 794.95923 4294967295
50.477066 821.62927 792.59973 4294967295
55.524769 821.62927 792.59973 4294967295
50.477066 822.91565 793.68433 4294967295
55.524769 822.91565 793.68433 4294967295
-14.209174 747.58417 796.87634 4285750104
62.036697 749.12585 795.56018 4294967295
-15.952293 750.4809 796.70276 4285684057
-14.179816 750.4809 796.70276 4285619280
-15.902752 754.14014 795.86414 4285618777
-14.135779 754.14014 795.86414 4285750867
-15.853211 757.79095 795.01831 4285684057
-13.21101 757.79095 795.01831 4285684311
64.293579 757.79095 795.01831 4294967295
-15.853211 760.48425 797.28918 4285487195
-14.091743 760.48425 797.28918 4285355609
-15.80367 764.11829 796.4292 4285684570
-12.877065 763.67072 796.05194 4285487449
-10.53578 762.77582 795.29736 4285420619
-15.80367 765.46075 797.56116 4285946963
-13.169725 765.46075 797.56116 4285749847
-10.513762 766.31299 795.66364 4285289553
-8.7614679 765.64319 795.09888 4285289803
-10.513762 768.32245 797.35803 4285026626
-8.7339449 770.60138 795.35547 4284829504
-10.480734 772.60455 797.04443 4285092672
-8.7155962 773.45331 795.14404 4284698167
-8.7155962 775.45227 796.82953 4284565569
64.495415 774.78595 796.2677 4294967295
-7.8192658 779.04907 795.93817 4285090618
64.29174 778.38489 795.37817 4294967295
66.029358 778.38489 795.37817 4294967295
-8.6605501 783.96167 796.15631 4284433457
64.816513 787.44769 796.47949 4294967295
-8.6146793 791.01434 795.56274 4285288519
-10.337615 793.64874 797.78394 4285551687
-8.6146793 792.33154 796.67334 4285288519
63.748623 793.64874 797.78394 4294967295
-8.5963306 795.79718 796.97943 4285552199
-8.5688076 799.99719 796.59656 4284697913
-8.5688076 801.30737 797.70129 4284500552
59.85321 801.48279 795.23315 4294967295
61.563301 801.48279 795.23315 4294967295
63.273396 802.79016 796.33557 4294967295
-8.5504589 804.09753 797.43787 4284169761
61.365139 806.3175 795.38562 4294967295
63.069725 806.3175 795.38562 4294967295
-7.6633029 809.01086 796.34863 4283842597
62.933945 809.0979 795.11401 4294967295
-6.7816515 813.90601 795.2439 4284036921
61.600002 814.77008 795.97247 4294967039
-6.7669725 817.96436 796.04968 4284957771
58.365135 817.96436 796.04968 4294967295
61.816513 817.23132 796.73969 4294769406
58.271561 820.3551 796.10352 4294967295
60.902752 819.25769 797.14026 4294967039
57.332111 822.74158 796.15369 4294967295
-15.853211 764.52423 800.69568 4285880922
-14.091743 764.52423 800.69568 4285880670
-12.291743 766.80316 798.69312 4285617498
-16.38899 769.04059 800.57959 4286274139
-13.453823 769.09863 799.75653 4286012255
-16.64679 772.34143 800.7467 4286275165
-13.142202 771.67163 800.18188 4286143064
-16.594496 775.94312 799.8595 4286144607
-13.100918 775.27539 799.29645 4286210138
-10.480734 774.60767 798.7334 4285025613
-16.577982 778.03119 800.31207 4286144608
-12.782875 778.33966 799.26416 4285815643
-10.458715 778.11755 799.07684 4284631095
-19.174313 780.11646 800.76221 4286078812
-16.559633 780.11646 800.76221 4286078563
-13.073395 780.11646 800.76221 4285947219
-10.425688 782.37012 798.7384 4285025081
-13.03211 784.36279 800.41858 4285881169
-10.425688 783.69855 799.85852 4285486412
-19.053211 787.93433 799.50592 4286144608
-16.455046 787.93433 799.50598 4286078818
-12.124771 787.93433 799.50592 4285618514
-10.39266 787.27222 798.94763 4285551435
-12.099083 791.41193 799.82202 4285552468
-10.370643 790.09052 798.70776 4285617484
-15.555964 792.73328 800.93616 4286144360
-12.944036 793.84961 799.91534 4285749597
-10.337615 794.96594 798.89453 4284960318
-12.060551 796.28314 800.00525 4285355859
-10.315597 797.7688 798.64185 4284632120
-15.473394 800.39758 800.85828 4286341732
-12.894495 800.39758 800.85828 4285421652
-10.315597 799.08313 799.75012 4284566345
-10.282569 803.27264 799.3584 4283841053
-10.26055 806.71228 799.64258 4283974174
-8.5504589 805.40491 798.54028 4283841823
-15.390825 808.01965 800.745 4286668639
-13.680734 808.01965 800.745 4286274912
-11.970642 808.01965 800.745 4285288017
-18.750458 812.83337 800.87964 4286735965
-15.909481 812.39899 800.51337 4286669661
-13.636697 812.18176 800.33026 4286407774
-10.65367 811.85596 800.05554 4285552457
-8.5137615 811.61304 798.54272 4284038964
-19.560551 815.59973 800.59619 4286538850
-17.009174 815.59973 800.59619 4286341984
-8.5045872 814.94958 800.04797 4284893751
62.730274 817.79449 798.52258 4294834175
64.42569 817.79449 798.52258 4294966271
66.121101 817.79449 798.52258 4294967039
-8.4770641 819.73877 800.16193 4285551173
59.21101 821.19769 798.776 4294967295
61.816513 820.4682 799.46893 4294834943
64.42569 819.73877 800.16193 4294768895
66.686241 819.95477 800.34406 4294834687
-19.174313 781.4491 801.88586 4286210134
-16.559633 781.4491 801.88586 4286013539
-13.944954 781.4491 801.88586 4286275414
-13.900917 786.35541 802.09863 4286144862
64.29174 786.35541 802.09863 4294967295
-16.455046 789.92065 801.18079 4286341221
-13.856881 789.92065 801.18079 4286341984
-19.053211 792.56909 803.41382 4286472287
-16.420183 794.05469 802.05029 4286144356
-13.827523 794.05469 802.05029 4286211168
-16.367889 797.60034 801.11584 4286144610
-12.922018 797.60034 801.11584 4285816660
-17.229359 799.57617 802.78174 4286341730
-16.046484 802.5882 802.70538 4286604643
-12.894495 801.71198 801.96655 4285355089
-17.137615 806.5481 802.12024 4286734432
-13.710092 805.23792 801.0155 4286079330
-11.99633 805.23792 801.0155 4284434505
-18.851376 807.85828 803.22485 4286800225
-17.100918 809.32703 801.84729 4286734432
-11.970642 809.32703 801.84729 4285946713
-15.341285 814.13654 801.97852 4286407777
-13.636697 814.13654 801.97852 4286079831
-11.363914 814.57086 802.34473 4286210132
-19.277063 817.33356 802.05811 4286473563
-16.158716 817.55029 802.24084 4286276188
-13.60734 817.55029 802.24084 4286472537
-10.772476 817.76703 802.42358 4286143568
-19.560551 819.50085 803.8855 4286603866
-16.131193 820.59192 802.84338 4286603866
-13.60734 819.50085 803.8855 4286538073
-11.055964 819.50085 803.8855 4286603095
-8.4770641 821.68298 801.80127 4286997338
61.882568 821.68298 801.80127 4294834431
64.42569 821.68298 801.80127 4294505727
66.968811 821.68298 801.80127 4294966783
-10.172477 824.27527 803.98706 4287855212
-8.4770641 822.97913 802.89417 4289036922
62.165134 823.41113 803.25848 4294768895
66.968811 822.97913 802.89417 4294966527
-8.4587154 825.72443 802.5929 4288249970
-22.588991 790.3407 805.45898 4286341471
-19.113762 789.01227 804.33887 4286342234
-17.376146 789.01227 804.33887 4286341482
-19.919266 793.89331 804.5304 4286407012
-19.877064 796.69751 804.27869 4286603616
-19.877064 798.67969 805.94995 4286407268
-18.952293 802.86914 805.55835 4286473061
-22.111927 820.80121 804.98193 4286407514
-19.560551 820.80121 804.98193 4286406487
-16.158716 820.80121 804.98193 4286735195
-13.60734 820.80121 804.98193 4287196514
-11.055964 820.80121 804.98193 4288116846
64.634865 820.80121 804.98193 4294308095
-16.158716 822.10156 806.07837 4286736742
-13.60734 822.10156 806.07837 4287067243
-11.906422 822.10156 806.07837 4287396208
64.634865 822.10156 806.07837 4294373375
-10.172477 826.21948 805.62628 4283248943
-20.917431 788.11224 807.50403 4286340958
-22.159634 821.30396 808.02191 4286735970
-19.602753 821.30396 808.02197 4286603103
67.331192 820.6524 807.47253 4294966271
-22.159634 823.25873 809.67004 4286407795
-19.602753 823.25873 809.67004 4285552736
-16.158716 824.05212 807.72302 4284566610
-13.60734 824.05212 807.72302 4283777607
-11.906422 824.05212 807.72302 4283251263
-15.308257 826.00269 809.36768 4282857019
-13.60734 826.00269 809.36768 4283447612
-11.906422 826.00269 809.36768 4283644991
64.128441 819.78607 810.66614 4294636799
67.54863 819.78607 810.66614 4294966527
-18.811008 822.40082 812.87085 4283447621
-17.045872 824.56189 810.76892 4282857019
-16.177065 826.58411 811.16589 4283513669
-13.60734 827.30304 810.46411 4283513918
67.051376 817.48468 815.26575 4294966527
-22.278898 820.96014 814.27209 4283187784
-20.565138 820.96014 814.27209 4283645257
64.266052 819.64996 813.16736 4294637567
68.550461 819.64996 813.16736 4294966783
-19.688072 822.98926 814.67493 4283121470
68.917435 817.35834 817.77527 4294966527
64.816513 815.19727 819.8772 4294505983
67.409172 815.19727 819.8772 4294966783
69.137611 816.51862 820.99133 4294967295
67.552292 815.08069 822.39502 4294967295
67.552292 816.40491 823.5116 4294966783
69.284401 817.06702 824.06982 4294967039
-15.688073 812.09955 827.72961 4283711815
-13.944954 812.09955 827.72961 4283776321
67.766975 815.58069 826.74072 4294966783
69.504585 816.90906 827.86072 4294965503
64.631195 809.32898 828.00952 4294900479
66.377983 809.32898 828.00952 4294900479
-13.974312 811.99988 830.2616 4283579462
64.631195 811.33215 829.69855 4294966015
66.377983 811.33215 829.69855 4294965759
-15.688073 813.43219 828.85327 4283973702
67.981651 814.76483 829.97681 4294966271
63.21468 805.73419 831.51868 4294900479
-12.291743 807.74786 833.21655 4283513408
63.082569 809.18164 831.80933 4294965503
-14.018349 811.19104 833.50366 4284106056
63.082569 811.19104 833.50366 4294966271
-15.721101 814.00305 831.95056 4284106309
-13.974312 814.67078 832.51355 4284369477
64.631195 814.00305 831.95056 4294967039
66.960243 814.22559 832.13818 4294966783
64.631195 816.00616 833.63953 4294966015
67.251373 816.00616 833.63953 4294966015
69.72477 816.76379 831.66229 4294900223
62.100918 796.50922 836.82068 4294967039
63.875229 796.50922 836.82068 4294703615
61.844036 801.42041 835.72961 4294967039
61.651375 805.59729 835.32733 4294965759
-12.291743 809.76154 834.91443 4284106056
61.458717 809.76154 834.91443 4294965759
-12.266055 812.5307 834.63318 4284238148
61.458717 811.104 836.04639 4294965503
63.082569 812.5307 834.63318 4294965759
-15.770642 814.54016 836.32758 4284434757
-13.142202 814.54016 836.32758 4284368712
63.958717 814.54016 836.32758 4294833919
67.463303 815.20996 836.89233 4294966271
64.631195 818.67706 835.8916 4294965759
59.460552 776.74011 839.77234 4294967295
-8.9357796 789.41302 839.99353 4283248682
-8.9082565 792.94464 839.04724 4283183668
60.576145 792.94464 839.04724 4294967295
-10.65688 796.46777 838.09375 4283842366
-8.2886848 797.37305 838.85699 4283646524
60.388992 796.46777 838.09375 4294967295
-12.407339 799.26355 837.83508 4283448125
-10.634862 799.9411 838.40637 4283579960
60.264221 799.9411 838.40637 4294966783
-10.601835 804.12219 838.00769 4283513668
60.077065 804.79761 838.57715 4294966527
-10.568808 808.29065 837.59827 4283975238
59.889908 808.96393 838.16602 4294966527
-10.53578 812.44641 837.17822 4284368201
-8.8073397 810.31061 839.30151 4284236358
59.889908 810.31061 839.30151 4294900479
61.458717 812.44641 837.17822 4294834687
-10.53578 814.46008 838.87616 4284632399
-8.7798166 815.13135 839.44214 4284895571
59.702751 815.13135 839.44214 4294965247
61.458717 813.78888 838.31018 4294966271
63.21468 813.78888 838.31018 4294965503
-15.770642 817.21948 838.58667 4285027408
-13.142202 817.21942 838.58667 4284830544
61.330276 817.21948 838.58667 4294965759
63.082569 817.21948 838.58667 4294966527
67.463303 816.54962 838.02185 4294965503
64.631195 820.68018 837.58057 4294966527
66.377983 820.68018 837.58057 4294966271
64.631195 822.68335 839.26965 4294967295
57.834862 774.54956 841.84937 4294967295
58.559635 778.8064 841.5144 4294967295
61.262386 778.8064 841.51447 4294967295
63.06422 779.49512 842.09521 4294967295
61.973396 783.73718 841.74805 4294967295
62.081955 787.51031 841.00537 4294967039
64.469727 787.2821 840.81293 4294900735
-7.1486239 790.7793 841.14563 4282986798
-4.4715595 790.0575 841.84503 4282922030
58.141285 790.0575 841.84503 4294967295
-7.1266055 794.3067 840.19568 4283646270
-4.4596329 793.2262 841.24664 4283515710
57.991745 793.2262 841.24664 4294967295
-4.7510705 796.57684 842.10986 4283122494
57.903671 796.34985 841.91846 4294966783
-7.9926605 799.18353 840.38354 4283581506
-5.3284402 800.54144 841.52856 4283188034
56.836697 800.54144 841.52856 4294966527
58.612843 799.18353 840.38354 4294967039
-7.9761467 802.65125 840.69147 4283581509
-4.4403667 801.89929 842.67346 4283647814
56.836697 801.89929 842.67346 4294966271
58.491745 802.65125 840.69147 4294967295
-7.951376 806.82391 840.28564 4283975239
58.310093 806.82391 840.28564 4294967295
-7.0678897 808.17474 841.42468 4284106056
58.310093 808.85022 841.9942 4294899967
-7.9266057 811.65723 840.43689 4284171851
59.889908 811.65723 840.43689 4294900479
-7.0458717 813.67725 842.14014 4284961618
-5.2844038 814.35059 842.70789 4285093201
58.128441 813.67725 842.14014 4294965503
-15.80367 817.81622 841.70593 4285619801
-13.169725 817.81622 841.70593 4285357658
-10.53578 817.14502 841.13995 4285290582
-8.7798166 817.14502 841.13995 4285158996
59.702751 817.14502 841.13995 4294833919
-12.291743 819.15869 842.83789 4285882716
-10.53578 819.15869 842.83789 4285685340
-8.7798166 819.15869 842.83789 4285422167
59.702751 819.15869 842.83789 4294768127
61.330276 820.56854 841.41046 4294833919
63.082569 820.5686 841.41046 4294966783
62.884403 825.35425 841.52161 4294965759
-4.5550461 765.92218 845.03931 4285616717
-1.8220184 765.92218 845.03931 4287788904
56.198166 773.74493 845.09509 4294967295
-1.8073394 778.6947 845.34448 4290022794
56.027523 778.6947 845.34448 4294967295
57.834862 778.6947 845.34448 4294967295
-3.6036696 782.25012 844.41821 4288183677
-1.8018348 782.25012 844.41821 4288051834
58.85994 781.79102 844.03107 4294967295
61.262386 780.87262 843.25671 4294967295
-7.1853213 785.79718 843.48486 4282986296
-4.4908257 785.79718 843.48486 4282790450
-1.8018348 783.62769 845.57971 4282462761
55.85688 783.62769 845.57971 4294967295
58.468807 784.7124 844.53229 4294967295
-1.7963303 787.17047 844.64282 4282989106
55.686237 787.85718 845.2218 4294967295
-1.7908257 790.7049 843.69885 4283385149
-3.574312 793.5119 843.44971 4283319106
-1.787156 794.19507 844.0257 4283254082
55.458717 793.47607 844.72748 4294966783
57.188992 793.5119 843.44971 4294967295
55.401836 796.24451 845.75366 4294967295
-3.5633028 798.39294 843.64111 4283319106
-1.7816514 799.07397 844.21539 4283647301
55.231194 799.75507 844.78967 4294967295
-4.4403667 803.2572 843.81836 4283843912
-1.7816514 801.11713 845.93811 4283974988
53.449543 801.11713 845.93811 4294967295
56.033943 802.18713 844.87823 4294967039
-4.4348621 805.32703 844.25562 4283974469
-1.7761468 804.61505 844.96338 4284171849
55.889908 805.32703 844.25562 4294834175
-4.4311924 808.07153 845.26172 4284304205
56.719265 807.39398 844.69043 4294834175
-5.3009176 810.87646 843.70276 4284895571
56.543118 811.55188 844.27222 4294964735
-7.0458717 815.6972 843.84338 4285420884
-5.3009176 813.57825 845.98071 4285486677
56.543118 813.57825 845.98071 4294833919
58.128441 815.6972 843.84338 4294965759
-7.0458717 817.04388 844.97876 4285683805
56.366974 817.04388 844.97876 4294965503
58.128441 817.04388 844.97876 4294966015
-15.80367 820.5011 843.96985 4286209884
-13.169725 821.17236 844.53577 4286079335
-10.53578 820.5011 843.96985 4286210918
58.824768 821.17236 844.53577 4294768127
59.57798 823.91766 844.23444 4294767359
61.330276 823.91766 844.23444 4294965247
59.57798 825.92712 845.92871 4294767359
55.779816 833.42163 845.70776 4294504703
57.522934 832.08899 844.58411 4294504703
1.8330275 760.12286 847.99756 4290749881
3.666055 760.12286 847.99756 4291668930
45.825687 760.12286 847.99756 4294967295
0.9137615 763.72321 847.10925 4288446344
3.655046 763.72321 847.10925 4289694877
49.343121 763.72321 847.10925 4294967295
51.170643 763.72321 847.10925 4294967295
-4.5550461 767.31512 846.21375 4285944386
-1.8220184 767.31512 846.21375 4287985246
0.9137615 765.12036 848.28723 4288250497
47.515594 765.12036 848.28723 4294967295
49.343121 765.12036 848.28723 4294967295
52.007339 766.21777 847.25049 4294967295
-7.2880735 770.10101 848.56274 4285550894
-4.5458717 770.16846 846.00354 4285879629
-1.8183486 770.16846 846.00354 4287721827
0 770.10101 848.56274 4288904824
49.194496 770.10101 848.56274 4294967295
51.927521 769.40454 847.97546 4294967295
55.514679 769.43823 846.69586 4294967295
-7.2733946 772.94873 848.34778 4287258950
-4.5458717 771.55859 847.17566 4286602306
-1.8183486 771.55859 847.17566 4288443236
0 772.94873 848.34778 4289036670
52.732109 772.94873 848.34778 4294967295
54.550457 772.25366 847.76172 4294967295
-7.2513762 776.51678 847.43225 4290218883
-4.5321102 775.82385 846.84796 4289101173
-1.812844 775.13086 846.26367 4289101442
52.572475 776.51678 847.43225 4294967295
55.291744 775.82385 846.84796 4294967295
0 777.90271 848.60083 4289172089
52.572475 777.90271 848.60083 4294967295
54.385323 777.90271 848.60083 4294967295
-7.2293577 780.07642 846.50952 4288707972
-5.4220185 780.07642 846.50952 4288642179
0.90366971 782.14905 848.25708 4282594600
50.605503 782.8399 848.8396 4294967295
52.412846 782.14905 848.25708 4294967295
55.123856 780.76733 847.09204 4294967295
0 785.00519 846.74121 4282857771
54.055046 785.00519 846.74121 4294967295
0 786.38269 847.90271 4283121207
52.253212 786.38269 847.90271 4294967295
54.055046 786.38269 847.90271 4294967295
0 790.60376 847.53772 4283188034
53.889908 790.60376 847.53772 4294966527
0 794.81219 847.16211 4283385412
53.72477 794.81219 847.16211 4294967039
0.89541286 796.89606 847.61108 4283844166
52.774311 796.89606 847.61108 4294967295
0 798.97711 848.05774 4283909960
51.827522 798.97711 848.05774 4294967295
53.449543 803.16028 847.66083 4294965247
-3.5522935 805.97296 846.10828 4284237642
-1.7761468 805.97296 846.10828 4284632400
55.060551 805.97296 846.10828 4294965247
-1.7761468 807.33081 847.25317 4284633935
53.284405 808.00977 847.82562 4294964991
55.060551 807.33081 847.25317 4294965503
-3.5449541 810.78168 847.54688 4285355860
-1.772477 810.78168 847.54688 4285421653
53.174313 811.45923 848.11816 4294702335
54.946789 810.78168 847.54688 4294965247
-5.3009176 814.92908 847.11975 4285749854
54.776146 814.92908 847.11975 4294966015
-7.9266057 818.39056 846.11426 4286144868
-5.3009176 816.27997 848.25879 4286079330
53.009174 816.27997 848.25879 4294767103
55.486237 818.39056 846.11426 4294767359
58.128441 818.39056 846.11426 4294898943
-10.568808 820.41052 847.8175 4286211177
-8.2201834 820.18604 847.62823 4286210919
55.192657 820.18604 847.62823 4294833151
55.605503 824.08099 846.98828 4294767615
57.946789 823.85724 846.79962 4294701823
55.254128 826.56885 847.77789 4294965247
57.825687 827.26678 847.05835 4294833151
55.023853 830.69598 846.02563 4294899711
54.150459 832.03137 847.15161 4294636287
35.141285 750.68542 851.8125 4293384682
36.880733 752.89697 849.75317 4293583857
38.72477 754.30676 850.94177 4294967295
40.568806 754.30676 850.94177 4294967295
5.5155964 757.91974 850.06396 4290682035
44.124771 757.91974 850.06396 4294967295
5.4990826 761.52423 849.1792 4290023841
7.3541284 759.32532 851.24915 4290353313
43.205505 759.32532 851.24915 4294967295
46.742203 761.52423 849.1792 4294967295
-7.3321099 762.9256 850.36084 4285219129
3.666055 763.62628 850.9516 4289762458
43.076149 764.32697 851.54236 4294967295
45.825687 763.62628 850.9516 4294967295
-7.310092 766.51752 849.46533 4285484365
1.2183486 766.98322 849.85797 4288840579
3.655046 767.91467 850.64331 4289893275
46.906422 767.44891 850.25067 4294967295
49.343121 766.51752 849.46533 4294967295
42.946789 769.31183 851.82141 4294967295
45.688072 769.31183 851.82141 4294967295
1.8220184 772.19043 850.32446 4290550419
3.6440368 772.19043 850.32446 4290748065
46.765137 772.42261 850.5202 4294967295
49.194496 771.49396 849.73718 4294967295
51.016514 771.49396 849.73718 4294967295
0.90917432 775.03394 850.10602 4289631106
3.6366973 775.729 850.69214 4289762681
47.277065 775.729 850.69214 4294967295
50.004585 775.03394 850.10608 4294967295
1.812844 779.2887 849.76941 4282397220
3.6366973 777.11914 851.86426 4282789637
46.367889 777.11914 851.86426 4294967295
49.85321 779.2887 849.76941 4294967295
3.6256881 780.67462 850.93799 4282986027
47.133945 780.67462 850.93799 4294967295
48.946789 780.67462 850.93799 4294967295
1.8073394 784.22162 850.00464 4283253049
3.6146789 784.91248 850.58716 4283711811
46.388378 785.14276 850.78131 4294967039
49.400616 784.68219 850.39301 4294967039
1.8018348 787.76025 849.06421 4283253057
50.451378 787.76025 849.06421 4294967295
52.253212 787.76025 849.06421 4294967295
1.8018348 789.13776 850.22571 4282991425
3.6036696 790.51526 851.38721 4283777604
46.847706 790.51526 851.38721 4294966783
49.250153 789.59692 850.61285 4294967039
52.253212 789.13776 850.22571 4294966527
1.7963303 792.6637 849.27466 4283254083
50.297249 793.35034 849.85358 4294967039
52.093578 792.6637 849.27466 4294966783
1.7908257 797.55042 849.47083 4283909960
3.5926607 795.41034 851.59045 4284237642
49.322018 796.48035 850.53064 4294966527
0.89357799 800.34338 849.20984 4284171853
4.1785932 799.83221 851.39484 4284303441
48.949238 799.37579 851.01007 4294768383
51.827522 800.34338 849.20984 4294965247
1.1914374 802.1651 850.74579 4284500814
3.574312 803.07599 851.51379 4285025622
49.444653 802.62061 851.12982 4294834687
51.827522 801.70972 850.36182 4294965503
0 805.88446 849.95776 4285092949
49.886238 806.56549 850.53198 4294966271
51.667889 805.88446 849.95776 4294900479
0.89082569 807.92761 851.68054 4285422168
49.886238 807.92761 851.68054 4294768127
-3.5449541 812.81427 849.26074 4285683805
-1.772477 812.81427 849.26074 4285749854
0 812.76233 851.83289 4285947746
49.732109 812.76233 851.83289 4294636287
52.06361 811.42181 849.83057 4294833663
-3.5449541 814.84692 850.97449 4286013537
-1.772477 814.84692 850.97449 4286079586
51.401836 814.84692 850.97449 4294833663
