# .PCD v0.7 - Point Cloud Data file format
VERSION 0.7
FIELDS x y z rgb
SIZE 4 4 4 4
TYPE F F F U
COUNT 1 1 1 1
WIDTH 1156
HEIGHT 1
VIEWPOINT 0 0 0 1 0 0 0
POINTS 1156
DATA ascii
-7.1119266 793.24188 1259.1754 4291807187
-4.7412844 793.24188 1259.1754 4292267745
-2.3706422 793.24188 1259.1754 4293649398
-16.530275 799.56366 1257.9657 4290489271
-14.168807 799.56366 1257.9657 4290489021
-10.626606 799.56366 1257.9657 4290687423
-7.0844035 799.56366 1257.9657 4291478217
-18.891743 801.36902 1259.4879 4290555062
-16.530275 801.36902 1259.4879 4290357940
-14.168807 801.36902 1259.4879 4290291643
-10.626606 801.36902 1259.4879 4290621630
-7.0844035 801.36902 1259.4879 4291543243
-4.7229357 801.36902 1259.4879 4292004059
-2.3614678 801.36902 1259.4879 4293254127
-11.678899 823.18689 1259.5718 4290949057
-9.3064222 831.15686 1259.7517 4291014850
-6.9798164 831.15686 1259.7517 4291409608
-24.14679 758.07629 1260.9175 4289567917
-21.732111 758.07629 1260.9175 4290357690
-19.31743 758.07629 1260.9175 4290488769
-2.4146788 758.07629 1260.9175 4294636543
-28.976147 759.92236 1262.474 4289041310
-25.35413 759.92236 1262.474 4289633703
-21.732111 759.92236 1262.474 4290422963
-21.649542 766.38855 1261.3861 4290226353
-19.244038 766.38855 1261.3861 4290160054
-16.838531 766.38855 1261.3861 4290620605
-13.230275 766.38855 1261.3861 4290752443
-9.6220188 766.38855 1261.3861 4291015617
-4.8110094 766.38855 1261.3861 4292464356
-2.4055047 766.38855 1261.3861 4293977851
-24.055046 768.2276 1262.9366 4289503148
-21.649542 768.2276 1262.9366 4290095286
-19.244038 768.2276 1262.9366 4290226102
-16.838531 768.2276 1262.9366 4290686652
-9.6220188 768.2276 1262.9366 4290688447
-16.774311 772.82678 1260.2744 4290687166
-14.377981 772.82678 1260.2744 4290490554
-11.981651 772.82678 1260.2744 4290885312
-7.1889906 772.82678 1260.2744 4289768631
-4.7926607 772.82678 1260.2744 4287272862
-2.3963304 772.82678 1260.2744 4290628305
-16.774311 774.65881 1261.8191 4290752446
-14.377981 774.65881 1261.8191 4290490554
-10.783486 774.65881 1261.8191 4290819777
-7.1889906 774.65881 1261.8191 4290754242
-4.7926607 774.65881 1261.8191 4290359487
-2.3963304 774.65881 1261.8191 4292004055
-22.677982 782.88696 1262.2168 4289766068
-19.097248 782.88696 1262.2168 4290226102
-16.710093 781.06195 1260.678 4290621111
-14.322936 781.06195 1260.678 4290424511
-10.742201 781.97449 1261.4474 4290622654
-7.161468 781.97449 1261.4474 4292201938
-4.774312 782.88696 1262.2168 4292794089
-2.387156 781.97449 1261.4474 4294437885
-26.177982 788.71143 1261.8956 4289568169
-22.608257 786.89203 1260.3616 4289765817
-19.038532 786.89203 1260.3616 4290226102
-9.5192661 786.89203 1260.3616 4290622906
-7.1394496 786.89203 1260.3616 4292004559
-4.7596331 786.89203 1260.3616 4292399846
-2.3798165 787.80176 1261.1287 4293715962
-22.521101 795.96045 1261.4677 4289634219
-18.965137 795.96045 1261.4677 4290357943
-16.594496 795.0542 1260.7036 4290423994
-14.223853 795.0542 1260.7036 4290358205
-9.4825687 795.0542 1260.7036 4290359738
-7.1119266 795.0542 1260.7036 4291675598
-4.7412844 795.96045 1261.4677 4292135902
-2.3706422 795.96045 1261.4677 4293517555
-10.626606 803.17438 1261.0101 4290752704
-7.0844035 803.17438 1261.0101 4291477450
-4.7229357 803.17438 1261.0101 4292004059
-2.3614678 803.17438 1261.0101 4293385712
-9.4458714 804.97974 1262.5323 4290293691
-7.0844035 804.97974 1262.5323 4291149000
-4.7229357 804.97974 1262.5323 4291806681
-2.3614678 804.97974 1262.5323 4293517298
-18.744955 819.28833 1261.5167 4290489523
-14.058716 819.28833 1261.5167 4290685115
-11.715596 819.28833 1261.5167 4291145666
-28.029358 824.9726 1261.0774 4289173152
-22.189907 824.9726 1261.0774 4290095015
-18.686239 824.9726 1261.0774 4290489269
-16.350458 824.9726 1261.0774 4290292147
-14.014679 824.9726 1261.0774 4290488506
-10.511009 824.9726 1261.0774 4290752958
-7.0073395 824.9726 1261.0774 4291214532
-30.365137 826.7583 1262.583 4289173661
-28.029358 826.7583 1262.583 4289173663
-25.693579 826.7583 1262.583 4289831594
-22.189907 826.7583 1262.583 4290029226
-18.686239 826.7583 1262.583 4290225840
-16.350458 826.7583 1262.583 4290488756
-14.014679 826.7583 1262.583 4290751414
-10.511009 826.7583 1262.583 4290751672
-7.0073395 826.7583 1262.583 4291344067
-4.6715598 826.7583 1262.583 4291477715
-2.3357799 826.7583 1262.583 4293451505
-30.245872 832.93555 1261.2515 4289039752
-10.469725 832.93555 1261.2515 4291015613
-6.9798164 832.93555 1261.2515 4291540674
-4.6532111 832.93555 1261.2515 4290490051
-2.3266056 832.93555 1261.2515 4288384931
-30.245872 834.71423 1262.7512 4287989099
-27.919266 834.71423 1262.7512 4288910203
-10.469725 834.71423 1262.7512 4291147196
-6.9798164 834.71423 1262.7512 4291542209
-4.6532111 834.71423 1262.7512 4290162877
-2.3266056 834.71423 1262.7512 4285162353
-38.781651 755.28107 1265.1007 4287331709
-33.933945 754.35449 1264.3196 4288317337
-31.510092 754.35449 1264.3196 4288712096
-29.086239 754.35449 1264.3196 4288647065
-25.854433 754.04565 1264.0592 4289436582
0.80795103 754.66333 1264.58 4293978873
-31.390825 761.76837 1264.0305 4288778907
-28.976147 761.76837 1264.0305 4289040797
-25.35413 761.76837 1264.0305 4289567909
0 761.76837 1264.0305 4294241789
-33.805504 763.61444 1265.587 4288514454
-31.390825 763.61444 1265.587 4288975005
-28.976147 763.61444 1265.587 4288975519
-25.35413 763.61444 1265.587 4289567912
1.2073394 763.61444 1265.587 4293518582
7.2440367 763.61444 1265.587 4293386995
9.6587152 763.61444 1265.587 4293583605
13.280734 763.61444 1265.587 4293452019
-33.677063 770.06665 1264.4873 4288185488
-31.271559 770.06665 1264.4873 4288975003
-28.866055 770.06665 1264.4873 4288975519
-25.257797 770.06665 1264.4873 4289568171
-21.649542 770.06665 1264.4873 4290029238
-19.244038 770.06665 1264.4873 4290029492
-9.6220188 770.06665 1264.4873 4290558146
-19.170643 776.49084 1263.3638 4290292147
-16.774311 776.49084 1263.3638 4290621111
-14.377981 776.49084 1263.3638 4290424507
-10.783486 776.49084 1263.3638 4290753470
-7.1889906 776.49084 1263.3638 4292332243
-4.7926607 776.49084 1263.3638 4292923612
-2.3963304 776.49084 1263.3638 4294305265
-22.765137 778.32281 1264.9086 4289766321
-19.170643 778.32281 1264.9086 4290226353
-4.7926607 778.32281 1264.9086 4293252845
-26.258715 784.71198 1263.7555 4289305252
1.193578 784.71198 1263.7555 4293847545
-28.645872 786.53699 1265.2943 4288910496
1.193578 786.53699 1265.2943 4293452273
4.774312 786.53699 1265.2943 4293517809
7.161468 786.53699 1265.2943 4293715445
-26.177982 790.53076 1263.4297 4289699242
0 790.53076 1263.4297 4293518313
-28.557798 792.35016 1264.9637 4289106855
-26.177982 792.35016 1264.9637 4289304234
1.1899083 792.35016 1264.9637 4293254892
-28.447706 800.49133 1265.2881 4289107103
-26.077065 799.58514 1264.5239 4289567657
-22.521101 799.58514 1264.5239 4289700525
-18.965137 800.49133 1265.2881 4290423217
-16.594496 800.49133 1265.2881 4290554803
-14.223853 800.49133 1265.2881 4290554301
-18.891743 806.7851 1264.0547 4290159541
-16.530275 806.7851 1264.0547 4290620092
-10.626606 806.7851 1264.0547 4290752703
-7.0844035 806.7851 1264.0547 4291148487
-4.7229357 806.7851 1264.0547 4291806933
-2.3614678 806.7851 1264.0547 4293583343
-22.433945 808.59045 1265.5769 4289634478
-18.891743 808.59045 1265.5769 4290224818
-16.530275 808.59045 1265.5769 4290422198
-14.168807 808.59045 1265.5769 4290356152
-10.626606 808.59045 1265.5769 4290752191
-7.0844035 808.59045 1265.5769 4291608268
-4.7229357 808.59045 1265.5769 4292004057
-2.3614678 808.59045 1265.5769 4293583345
-18.818348 814.84912 1264.3138 4290357169
-16.466055 814.84912 1264.3138 4290488756
-14.113762 814.84912 1264.3138 4290685115
-10.585321 814.84912 1264.3138 4290817467
-7.056881 814.84912 1264.3138 4291541700
-4.704587 814.84912 1264.3138 4291675092
-2.3522935 814.84912 1264.3138 4293517296
-30.579817 816.64746 1265.8301 4289238173
-28.227524 816.64746 1265.8301 4289237921
-25.875229 816.64746 1265.8301 4290027694
-22.34679 816.64746 1265.8301 4290095020
-16.466055 816.64746 1265.8301 4290358194
-9.409174 816.64746 1265.8301 4290556086
-7.056881 816.64746 1265.8301 4291213760
-4.704587 816.64746 1265.8301 4291609553
-2.3522935 816.64746 1265.8301 4293583343
-28.117432 821.07971 1263.0272 4289237921
-25.774311 821.07971 1263.0272 4289698472
-22.259632 821.07971 1263.0272 4289766055
-18.744955 821.07971 1263.0272 4290489269
-16.401834 821.07971 1263.0272 4290292147
-14.058716 821.07971 1263.0272 4290422713
-9.3724775 821.07971 1263.0272 4290622395
-7.0293579 821.07971 1263.0272 4291148739
-4.6862388 821.07971 1263.0272 4291543506
-30.46055 822.87103 1264.5376 4289107868
-25.774311 822.87103 1264.5376 4289896618
-4.6862388 822.87103 1264.5376 4291477715
-2.3431194 822.87103 1264.5376 4293385712
-31.533028 829.43689 1264.8416 4288777356
-28.029358 829.43689 1264.8416 4289566358
-25.693579 829.43689 1264.8416 4290487716
-22.189907 829.43689 1264.8417 4290685617
-18.686239 829.43689 1264.8416 4290818234
-16.350458 829.43689 1264.8416 4290686648
-14.014679 829.43689 1264.8416 4290686905
-11.678899 828.54401 1264.0887 4290949307
-4.6715598 828.54401 1264.0887 4291477200
-2.3357799 828.54401 1264.0887 4293648368
-4.6532111 836.49298 1264.251 4289770427
-2.3266056 836.49298 1264.251 4284441194
-37.569725 758.06067 1267.4445 4287726473
-33.933945 758.06067 1267.4445 4288120981
-31.510092 757.13409 1266.6632 4288515999
1.6159021 757.75177 1267.1841 4293781497
4.8477063 758.98718 1268.2257 4293518584
7.2715597 758.98718 1268.2257 4293715706
9.6954126 758.98718 1268.2257 4293781751
13.735168 758.36945 1267.705 4293584373
16.966972 758.98718 1268.2257 4293518580
-36.220184 766.38348 1267.9219 4288054924
-33.805504 765.46045 1267.1436 4288448409
-31.390825 765.46045 1267.1436 4289040547
-28.976147 765.46045 1267.1436 4288975519
-26.561468 765.46045 1267.1436 4289633449
1.2073394 766.38354 1267.9219 4292993267
4.8293576 766.38348 1267.9219 4293386737
7.2440367 766.38348 1267.9219 4293320943
9.6587152 766.38348 1267.9219 4293254896
13.280735 766.38354 1267.9219 4293452532
16.902752 766.38348 1267.9219 4293518325
19.31743 767.30652 1268.7001 4293517296
-31.271559 773.74469 1267.5885 4288843415
-28.866055 772.8252 1266.8132 4288909983
-25.257797 772.82513 1266.8132 4289699758
-21.649542 772.8252 1266.8132 4290160569
-19.244038 771.90564 1266.038 4290226102
1.2027524 772.8252 1266.8132 4293715191
4.8110094 773.74469 1267.5885 4293387247
7.2165136 772.8252 1266.8132 4293518834
-31.152294 781.07086 1267.2256 4288975008
-28.755962 781.07086 1267.2256 4288712858
-26.359632 780.15485 1266.4532 4289305252
1.1981652 780.15485 1266.4532 4293518582
4.7926607 781.07086 1267.2256 4293584371
7.1889906 781.07086 1267.2256 4293650164
-28.645872 788.36194 1266.8331 4289107105
2.387156 788.36194 1266.8331 4293255142
4.774312 788.36194 1266.8331 4293386734
7.161468 788.36194 1266.8331 4293715443
-31.033028 790.18695 1268.3719 4288909721
4.774312 790.18695 1268.3719 4293189099
7.161468 790.18695 1268.3719 4293320685
-28.557798 794.16956 1266.4978 4289040808
-26.177982 794.16956 1266.4978 4289567152
1.1899083 794.16956 1266.4978 4293452525
4.7596331 794.16956 1266.4978 4293254894
-33.317432 795.98895 1268.0319 4288382864
-30.937614 795.98895 1268.0319 4288975001
-28.557798 795.98895 1268.0319 4288909473
1.1899083 795.98895 1268.0319 4293122795
4.7596331 795.98895 1268.0319 4293057260
7.1394496 795.98895 1268.0319 4293057260
-33.188992 802.30371 1266.8162 4288448659
-30.818348 802.30371 1266.8162 4289106590
-28.447706 802.30371 1266.8162 4289041564
-26.077065 802.30371 1266.8162 4289633701
-22.521101 802.30371 1266.8162 4289700273
-18.965137 802.30371 1266.8162 4290094515
-16.594496 802.30371 1266.8162 4290555066
-14.223853 802.30371 1266.8162 4290620092
-11.853211 802.30371 1266.8162 4291014850
-37.930275 804.11609 1268.3444 4287856522
-34.374313 804.11609 1268.3444 4288514452
-30.818348 804.11609 1268.3444 4289040797
-28.447706 804.11609 1268.3444 4288844952
-26.077065 804.11609 1268.3444 4289568419
-22.521101 804.11609 1268.3444 4289896884
-14.223853 804.11609 1268.3444 4290554299
-34.241287 811.29846 1267.8602 4288449172
-30.699083 811.29846 1267.8602 4289303966
-28.337614 811.29846 1267.8602 4289172639
-25.976147 811.29846 1267.8602 4289765032
-22.433945 811.29846 1267.8602 4289963436
-18.891743 810.39581 1267.0991 4290159795
-16.530275 810.39581 1267.0991 4290422711
-14.168807 810.39581 1267.0991 4290619324
-10.626606 810.39581 1267.0991 4290817727
-7.0844035 810.39581 1267.0991 4291674061
-4.7229357 810.39581 1267.0991 4291938264
-2.3614678 810.39581 1267.0991 4293977847
2.3614678 812.20117 1268.6213 4293386734
-31.755962 818.44586 1267.3464 4288778392
-2.3522935 818.44586 1267.3464 4293385710
-32.93211 820.2442 1268.8628 4288515988
1.1761467 820.2442 1268.8628 4293188585
-32.803669 824.66235 1266.048 4288778903
-32.803669 826.45374 1267.5583 4289041046
1.1715597 826.45374 1267.5583 4293321201
-25.693579 832.11548 1267.1001 4289238911
-14.014679 832.11548 1267.1001 4291081149
0 833.0083 1267.8529 4280567921
-43.827522 753.78827 1271.6902 4286738809
-41.392662 753.78827 1271.6902 4287528068
4.8697248 753.78827 1271.6902 4293518582
7.3045874 753.78827 1271.6902 4293781753
9.7394495 753.78827 1271.6902 4293716726
12.174312 753.78827 1271.6902 4293716726
17.044037 753.78827 1271.6902 4293715958
-37.569725 760.84021 1269.7881 4287791497
4.8477063 760.84021 1269.7881 4293452789
16.966972 760.84021 1269.7881 4293583605
-43.629356 762.6933 1271.3506 4286738044
-41.205505 762.6933 1271.3506 4287461510
-38.781651 762.6933 1271.3506 4287331457
19.390825 762.6933 1271.3506 4293649652
-36.220184 770.07556 1271.0349 4288317839
-33.805504 770.07556 1271.0349 4288317324
-31.390825 769.15259 1270.2567 4288843665
4.8293576 769.15259 1270.2567 4293453041
9.6587152 770.07556 1271.0349 4293453039
13.280734 770.07556 1271.0349 4293452528
16.902752 770.07556 1271.0349 4293781238
19.31743 770.07556 1271.0349 4293649395
25.35413 770.9986 1271.8132 4293584372
-36.082569 775.58368 1269.1392 4288317839
-33.677063 775.58368 1269.1392 4288448657
-31.271559 775.58368 1269.1392 4288909208
-28.866055 775.58368 1269.1392 4288844447
-26.46055 775.58368 1269.1392 4289633962
1.2027524 775.58368 1269.1392 4293912820
4.8110094 775.58368 1269.1392 4293518834
7.2165136 775.58368 1269.1392 4293584627
9.6220188 775.58368 1269.1392 4293321198
-36.082569 777.42273 1270.6898 4288383118
-33.677063 777.42273 1270.6898 4288514454
9.6220188 777.42273 1270.6898 4293320687
12.027523 777.42273 1270.6898 4293517809
-33.548622 784.73486 1270.3149 4288317844
-31.152294 784.73486 1270.3149 4288910238
9.5853214 784.73486 1270.3149 4293452786
-34.613762 792.92444 1270.6802 4288251790
-31.033028 792.01196 1269.9108 4288909458
7.161468 792.01196 1269.9108 4293254894
9.548624 793.83698 1271.4495 4293254894
-34.507339 797.80835 1269.5659 4288317843
-30.937614 797.80835 1269.5659 4289238175
1.1899083 797.80835 1269.5659 4293320174
4.7596331 797.80835 1269.5659 4293123054
7.1394496 797.80835 1269.5659 4292925931
-42.836697 799.62775 1271.1001 4286870397
-40.456882 799.62775 1271.1001 4287528070
-38.077065 799.62775 1271.1001 4287528841
-35.697247 799.62775 1271.1001 4288318356
1.1899083 799.62775 1271.1001 4293385710
4.7596331 799.62775 1271.1001 4293254640
7.1394496 799.62775 1271.1001 4293188847
-42.671558 805.92847 1269.8724 4287067004
-40.300919 805.92847 1269.8724 4287725191
-37.930275 805.92847 1269.8724 4287856268
-34.374313 805.92847 1269.8724 4288514453
-30.818348 805.92847 1269.8724 4289106590
-28.447706 805.92847 1269.8724 4289107357
-26.077065 805.92847 1269.8724 4289633701
1.1853211 805.92847 1269.8724 4293255148
-42.671558 807.74084 1271.4006 4287001463
-40.300919 807.74084 1271.4006 4287725443
-37.930275 807.74084 1271.4006 4287725452
1.1853211 807.74084 1271.4006 4293584107
4.7412844 807.74084 1271.4006 4293583341
-40.144955 814.90918 1270.9047 4287922571
-37.783485 814.90918 1270.9047 4287661192
-34.634861 814.60834 1270.651 4288384147
1.1807339 814.90924 1270.9047 4293320429
4.7229357 814.90918 1270.9047 4293123565
7.0844035 815.81189 1271.6658 4292926444
1.1761467 822.04254 1270.3792 4293582575
4.704587 822.94171 1271.1372 4293057262
7.056881 823.84088 1271.8954 4291545051
9.409174 823.84088 1271.8954 4290559430
1.5620795 828.8421 1269.5723 4285296783
4.6862388 830.03638 1270.5792 4282928486
-43.827522 755.64972 1273.2598 4286607739
-41.392662 755.64972 1273.2598 4287397254
-46.262386 757.51123 1274.8293 4286868598
-43.827522 757.51123 1274.8293 4286672250
-41.392662 757.51123 1274.8293 4287527559
19.478899 757.51123 1274.8293 4293649652
-46.053211 764.54633 1272.913 4286999926
-43.629356 764.54633 1272.913 4286738809
-41.205505 764.54633 1272.913 4287396739
-38.781651 764.54633 1272.913 4287593602
21.814678 764.54633 1272.913 4293649139
-46.053211 766.39941 1274.4755 4286869875
-43.629356 766.39941 1274.4755 4286607737
-41.205505 766.39941 1274.4755 4287397252
-38.781651 766.39941 1274.4755 4287594116
21.814678 766.39941 1274.4755 4293517296
24.238533 766.39941 1274.4755 4293452787
-43.464222 772.8446 1273.3698 4286673784
-41.049541 772.8446 1273.3698 4287529093
-38.634861 772.8446 1273.3698 4287659909
13.280734 772.8446 1273.3698 4293583857
16.902752 772.8446 1273.3698 4293978101
24.14679 772.8446 1273.3698 4293452787
-45.878899 774.69067 1274.9263 4286869110
-43.464222 774.69067 1274.9263 4286672760
-41.049541 774.69067 1274.9263 4287528068
-38.634861 774.69067 1274.9263 4287593602
14.488073 774.69067 1274.9263 4293517296
16.902752 774.69067 1274.9263 4293714932
19.31743 774.69067 1274.9263 4293386482
25.35413 774.69067 1274.9263 4293583602
-40.893578 779.26178 1272.2404 4287396993
-37.285324 779.26178 1272.2404 4287792008
-33.677063 779.26178 1272.2404 4288514716
9.6220188 779.26178 1272.2404 4293649398
12.027523 779.26178 1272.2404 4293781240
-43.299084 781.10083 1273.791 4286935416
-40.893578 781.10083 1273.791 4287593602
-37.285324 781.10083 1273.791 4287791497
12.027523 781.10083 1273.791 4293452789
-34.746788 787.48291 1272.6321 4288251794
9.5853214 787.48291 1272.6321 4293320687
-40.737614 789.31494 1274.1768 4287528572
-38.341286 789.31494 1274.1768 4287529356
-35.944954 789.31494 1274.1768 4288121493
9.5853214 789.31494 1274.1768 4293320687
23.963303 789.31494 1274.1768 4293517809
-45.355965 797.48694 1274.5271 4286804600
-42.968807 795.66199 1272.9883 4286804602
-40.58165 795.66199 1272.9883 4287593862
-38.194496 795.66199 1272.9883 4287528841
9.548624 796.57446 1273.7577 4293057773
-46.009785 802.65997 1273.6569 4287001460
-42.836697 801.44714 1272.6342 4287198595
-40.456882 801.44714 1272.6342 4287922061
1.1899083 801.44714 1272.6342 4293254892
4.7596331 802.35681 1273.4011 4293254128
7.1394496 802.35681 1273.4011 4293451506
9.5192661 802.35681 1273.4011 4293188334
-42.671558 809.55322 1272.9287 4287133051
-40.300919 809.55322 1272.9287 4287856518
-37.930275 809.55322 1272.9287 4287725963
0 809.55322 1272.9287 4293320685
4.7412844 809.55322 1272.9287 4293189099
7.1119266 809.55322 1272.9287 4293057512
9.4825687 809.55322 1272.9287 4292925677
-42.671558 811.3656 1274.4569 4287395971
7.1119266 811.3656 1274.4569 4292860134
9.4825687 811.3656 1274.4569 4292926190
-40.144955 817.61731 1273.188 4287726985
-37.783485 817.61731 1273.188 4287726985
-35.42202 817.61731 1273.188 4288384915
4.7229357 817.61731 1273.188 4293385710
7.0844035 817.61731 1273.188 4293583345
9.4458714 817.61731 1273.188 4293517296
-40.144955 819.42261 1274.7102 4287726987
-37.783485 819.42261 1274.7102 4288120462
-35.42202 819.42261 1274.7102 4288909721
7.0844035 819.42261 1274.7102 4293713907
9.4458714 819.42261 1274.7102 4292990954
4.704587 825.63922 1273.4117 4283920260
7.056881 826.53839 1274.1699 4286417826
2.3431194 831.8277 1272.0896 4280175218
4.6862388 831.8277 1272.0896 4283779614
-48.697247 761.23413 1277.9684 4286210666
-46.262386 759.37268 1276.3989 4286999928
21.913761 759.37268 1276.3989 4294044410
-46.053211 769.17896 1276.8191 4286869621
-43.629356 768.25244 1276.038 4286541944
-41.205505 768.25244 1276.038 4287397252
-38.781651 768.25244 1276.038 4287659909
19.390825 770.10547 1277.6003 4293583605
21.814678 769.17896 1276.8191 4293517810
-45.878899 776.53674 1276.4828 4286934905
-43.464222 776.53674 1276.4828 4286738807
14.488073 776.53674 1276.4828 4293518580
16.902752 776.53674 1276.4828 4293781751
19.31743 776.53674 1276.4828 4293452787
21.732111 776.53674 1276.4828 4293518580
25.35413 776.53674 1276.4828 4293453041
-45.704586 782.93982 1275.3417 4286738807
-43.299084 782.93982 1275.3417 4286804600
-40.893578 782.93982 1275.3417 4287594116
-37.285324 782.93982 1275.3417 4287792013
12.027523 782.93982 1275.3417 4293518834
-48.110092 784.77881 1276.8922 4285949291
-45.704586 784.77881 1276.8922 4286738807
-43.299084 784.77881 1276.8922 4286673012
-40.893578 784.77881 1276.8922 4287528320
-38.488075 784.77881 1276.8922 4287659659
13.230275 784.77881 1276.8922 4293386480
21.649542 784.77881 1276.8922 4293386482
24.055046 784.77881 1276.8922 4293385710
-45.530273 791.14691 1275.7214 4286935418
-43.133945 791.14691 1275.7214 4287067767
-40.737614 791.14691 1275.7214 4287528318
-38.341286 791.14691 1275.7214 4287593866
11.981651 791.14691 1275.7214 4293254894
22.765137 791.14691 1275.7214 4293321200
-46.728439 792.97894 1277.2662 4286277744
11.981651 792.97894 1277.2662 4293254894
14.377981 792.97894 1277.2662 4293124078
19.170643 792.97894 1277.2662 4293255407
22.765137 792.97894 1277.2662 4293255407
-47.743118 799.31195 1276.0659 4286014305
11.93578 799.31195 1276.0659 4293385712
21.484404 799.31195 1276.0659 4292992749
-50.130276 801.13696 1277.6047 4285095531
11.93578 801.13696 1277.6047 4293385712
21.484404 801.13696 1277.6047 4292795626
-46.406422 805.99561 1276.4692 4286276717
7.1394496 805.08594 1275.7023 4293649135
11.105809 805.69238 1276.2135 4293188591
14.278899 806.90527 1277.2363 4293254892
-42.671558 814.08417 1276.7491 4287134336
11.062997 813.78204 1276.4945 4293320432
16.594496 814.99036 1277.5132 4293781751
-37.783485 821.22803 1276.2325 4288383118
-35.42202 821.22803 1276.2325 4289041048
11.80734 821.22803 1276.2325 4289111984
-35.42202 823.03333 1277.7548 4287527548
9.4458714 823.03333 1277.7548 4283132832
-51.324772 754.737 1279.0303 4285882464
-48.880733 754.737 1279.0303 4286078826
21.99633 754.737 1279.0303 4293649652
-51.324772 756.60547 1280.6058 4285816925
-48.880733 756.60547 1280.6058 4286144619
-48.697247 763.09564 1279.538 4286146408
-49.285015 773.19403 1280.2045 4286079595
21.814678 771.95856 1279.1628 4293517811
-48.293579 778.38275 1278.0393 4286079596
-45.878899 778.38275 1278.0393 4286869112
14.488073 778.38275 1278.0393 4293321202
16.902752 778.38275 1278.0393 4293715704
19.31743 778.38275 1278.0393 4293321971
25.35413 778.38275 1278.0393 4293518834
-49.500916 780.22882 1279.5958 4286015340
14.488073 780.22882 1279.5958 4293452787
16.902752 780.22882 1279.5958 4293781751
19.31743 780.22882 1279.5958 4293584629
21.732111 780.22882 1279.5958 4293715958
25.35413 780.22882 1279.5958 4293912306
-52.921101 788.45691 1279.9935 4285291361
-49.312843 787.53741 1279.2183 4285817449
-45.704586 786.61786 1278.4429 4287001211
-43.299084 786.61786 1278.4429 4286804850
13.631192 787.2309 1278.9598 4293386735
16.838531 787.53735 1279.2183 4293452529
19.244038 787.53735 1279.2183 4293189615
21.649542 786.61786 1278.4429 4293649398
-50.322937 794.81097 1278.8109 4284898150
-47.926605 794.81097 1278.8109 4285488740
11.981651 794.81097 1278.8109 4292926444
14.377981 794.81097 1278.8109 4292926956
22.765137 794.81097 1278.8109 4293058286
-52.719265 796.64294 1280.3556 4284371551
-50.322937 796.64294 1280.3556 4284898152
14.377981 796.64294 1280.3556 4293254894
16.774311 796.64294 1280.3556 4293386480
19.170643 796.64294 1280.3556 4292992749
23.963303 796.64294 1280.3556 4293058031
-50.130276 802.96198 1279.1434 4285227114
14.322936 802.96198 1279.1434 4293254892
16.710093 802.96198 1279.1434 4293254892
21.484404 802.96198 1279.1434 4293321198
-50.130276 804.78699 1280.6823 4284501847
16.710093 804.78699 1280.6823 4293123306
19.097248 804.78699 1280.6823 4293057258
21.484404 804.78699 1280.6823 4293123308
-46.406422 808.72467 1278.7704 4285947510
11.899082 808.72467 1278.7704 4293320948
14.278899 808.72467 1278.7704 4293123306
16.658716 808.72467 1278.7704 4293057512
-46.406422 810.54407 1280.3044 4286738545
14.278899 810.54407 1280.3044 4293058285
16.658716 810.54407 1280.3044 4293452787
19.038532 810.54407 1280.3044 4293518580
-42.671558 816.80273 1279.0414 4287068801
-40.300919 818.61511 1280.5696 4287858053
11.853211 816.80273 1279.0414 4292727783
14.223853 817.70892 1279.8054 4289244622
16.594496 817.70892 1279.8054 4288323521
18.965137 817.70892 1279.8054 4286677432
22.521101 818.61511 1280.5696 4282994561
9.4458714 824.83875 1279.277 4287667148
23.614679 826.6441 1280.7992 4289175458
-51.324772 758.474 1282.1813 4286014307
-52.546791 760.34247 1283.7567 4285620578
-48.697247 764.95709 1281.1075 4286211949
-51.132111 766.8186 1282.6771 4286015340
-48.697247 766.8186 1282.6771 4286212201
-50.900917 775.66467 1282.2877 4285883498
21.814678 775.66467 1282.2877 4293519093
-53.324772 777.5177 1283.8501 4285357154
-53.122936 782.07483 1281.1523 4285030242
-50.708256 782.07483 1281.1523 4285622379
16.902752 782.07483 1281.1523 4293517809
19.31743 782.07483 1281.1523 4293254640
-55.537613 783.9209 1282.709 4285291609
-53.122936 783.9209 1282.709 4285357154
-55.326607 790.2959 1281.5442 4284962398
-52.921101 790.2959 1281.5442 4284896353
-50.515594 790.2959 1281.5442 4285422697
16.838531 790.2959 1281.5442 4293386993
-61.340366 792.13495 1283.0947 4283911504
-57.732109 792.13495 1283.0947 4284043093
-55.326607 792.13495 1283.0947 4284306264
-52.921101 792.13495 1283.0947 4284174683
16.838531 792.13495 1283.0947 4293124591
19.244038 792.13495 1283.0947 4293058542
-55.115597 800.30701 1283.4451 4284437850
-52.719265 799.39099 1282.6726 4284503393
14.377981 798.47498 1281.9003 4293517550
16.774311 798.47498 1281.9003 4293385708
19.170643 799.39099 1282.6726 4292795369
23.963303 799.39099 1282.6726 4292926956
-50.130276 806.61194 1282.2211 4284567388
19.097248 806.61194 1282.2211 4292926444
21.484404 806.61194 1282.2211 4292992238
-50.130276 808.43701 1283.7599 4285816421
22.677982 808.43701 1283.7599 4293583863
-46.406422 812.36346 1281.8385 4286674036
14.278899 812.36346 1281.8385 4293518580
19.038532 812.36346 1281.8385 4293585142
22.608257 812.36346 1281.8385 4293584631
-46.406422 814.18286 1283.3726 4286673784
22.608257 814.18286 1283.3726 4287530405
26.177982 814.18286 1283.3726 4285490050
-37.930275 820.42749 1282.0977 4287329913
11.853211 820.42749 1282.0977 4283001246
14.223853 820.42749 1282.0977 4282340479
16.594496 820.42749 1282.0977 4281879928
18.965137 820.42749 1282.0977 4281027433
22.521101 820.42749 1282.0977 4282865523
26.077065 820.42749 1282.0977 4284637821
11.853211 822.23987 1283.6259 4286548410
14.223853 822.23987 1283.6259 4284643484
16.594496 822.23987 1283.6259 4281814385
18.965137 822.23987 1283.6259 4283124832
22.521101 822.23987 1283.6259 4287006855
26.077065 822.23987 1283.6259 4289375640
-53.970642 754.77606 1285.6035 4285553755
24.53211 755.71381 1286.3942 4293649400
-52.954132 762.8338 1285.8573 4285554533
-52.349541 769.61078 1285.0314 4285816420
-55.748623 779.37079 1285.4126 4285357658
-58.172478 781.22388 1286.9751 4285094486
-60.366974 785.76697 1284.2655 4285421915
-57.952293 785.76697 1284.2655 4285092951
-55.537613 785.76697 1284.2655 4285158744
-61.57431 787.61298 1285.822 4284896854
-57.952293 787.61298 1285.822 4284764762
-61.340366 793.974 1284.6454 4284109140
-57.732109 793.974 1284.6454 4284174679
-55.326607 793.974 1284.6454 4284372057
-60.137615 795.81299 1286.196 4284306264
-57.732109 795.81299 1286.196 4284633433
-55.326607 795.81299 1286.196 4284764762
-57.511925 803.05505 1285.7621 4284567892
-55.115597 803.05505 1285.7621 4284567636
-52.719265 803.05505 1285.7621 4284435800
23.963303 803.05505 1285.7621 4293189362
-54.904587 811.17444 1286.0681 4285751133
-52.517429 811.17444 1286.0681 4285554787
-50.130276 811.17444 1286.0681 4286278254
-47.596329 816.00226 1284.9066 4286476404
-42.836697 816.00226 1284.9066 4287265916
-40.456882 817.82166 1286.4407 4287131768
26.177982 816.00226 1284.9066 4281217869
7.1119266 824.05225 1285.1539 4290227328
10.667891 824.05225 1285.1539 4291808731
14.223853 824.05225 1285.1539 4291612661
16.594496 824.05225 1285.1539 4285493912
18.965137 824.05225 1285.1539 4284369227
21.335779 824.05225 1285.1539 4287198326
26.077065 824.05225 1285.1539 4289833644
22.521101 825.86462 1286.6821 4286546804
26.077065 825.86462 1286.6821 4288848785
-56.423855 757.58936 1287.9755 4284832608
-56.423855 759.46484 1289.5569 4284964195
-53.768806 765.94794 1288.4832 4285553502
-53.566971 772.40302 1287.3857 4285357154
-56.001835 774.26447 1288.9552 4285291613
-61.340366 797.65204 1287.7466 4284174683
-57.732109 797.65204 1287.7466 4284306264
-61.340366 799.49109 1289.2972 4284437599
-57.511925 805.80304 1288.0791 4285289299
-55.115597 805.80304 1288.0791 4285552470
-52.719265 805.80304 1288.0791 4285553250
-62.304588 807.63507 1289.6239 4285423451
-58.710091 807.63507 1289.6239 4285751644
-57.291744 814.82446 1289.1456 4285949036
-54.904587 814.82446 1289.1456 4285882987
-52.517429 814.82446 1289.1456 4285817709
-50.130276 814.82446 1289.1456 4286344053
-46.549541 814.82446 1289.1456 4286804600
-42.968807 815.73694 1289.915 4286802803
23.706423 827.677 1288.2102 4289042856
26.077065 827.677 1288.2102 4288648099
23.706423 829.48938 1289.7384 4290424789
-59.097248 754.83624 1292.1943 4284043093
-58.877064 761.34033 1291.1383 4283911256
-56.423855 761.34033 1291.1383 4285095531
-58.877064 763.21582 1292.7196 4283582540
-56.423855 763.21582 1292.7196 4285030242
-56.212845 767.81641 1290.0586 4284898903
-56.212845 769.68494 1291.634 4285094740
-58.436699 776.12592 1290.5248 4285094486
-63.306423 777.98743 1292.0944 4285357658
-60.871559 777.98743 1292.0944 4285357658
-62.781651 793.15112 1290.4916 4284306264
-61.340366 802.24963 1291.6232 4284633434
-58.710091 809.46704 1291.1686 4285685601
-62.304588 811.29907 1292.7133 4285685864
-59.908257 811.29907 1292.7133 4285685864
-57.291744 817.56201 1291.4539 4286278256
-54.904587 817.56201 1291.4539 4286278256
-50.130276 817.56201 1291.4539 4286212463
-47.743118 817.56201 1291.4539 4286146669
10.709174 823.27979 1291.0428 4291809994
14.278899 823.27979 1291.0428 4291154411
16.658716 823.27979 1291.0428 4285298577
19.038532 823.27979 1291.0428 4283257928
16.658716 825.09918 1292.5769 4283324816
19.038532 825.09918 1292.5769 4283588186
21.418348 825.09918 1292.5769 4285298804
-59.097248 756.71875 1293.7816 4283845713
-58.877064 766.02905 1295.0917 4283977030
-58.656879 771.55341 1293.2095 4284633683
-63.306423 779.84888 1293.6639 4285487709
-62.543118 806.84717 1295.4998 4285686370
-62.304588 813.1311 1294.2579 4286145643
-59.908257 813.1311 1294.2579 4286276972
-52.719265 814.96313 1295.8027 4286146669
-45.530273 813.1311 1294.2579 4286540914
-65.196327 800.53528 1296.7178 4284306012
-57.511925 816.79517 1297.3474 4286278258
-55.115597 816.79517 1297.3474 4286278258
-52.719265 816.79517 1297.3474 4286015340
-50.322937 816.79517 1297.3474 4286146669
14.322936 823.03699 1296.0702 4285430449
19.097248 824.862 1297.609 4288584372
21.484404 824.862 1297.609 4289966025
-61.78899 755.86212 1299.5995 4283912027
-61.78899 757.75165 1301.1926 4283582805
-61.559631 766.13135 1301.718 4284765016
-61.330276 770.71783 1299.0452 4285094234
-65.196327 804.22736 1299.8308 4285554789
-61.340366 812.36426 1300.1516 4285885294
-45.704586 812.36426 1300.1516 4286015340
-60.137615 814.20331 1301.7021 4285951603
-48.110092 814.20331 1301.7021 4285819503
-61.78899 760.58594 1303.5825 4283911759
-67.611008 807.91943 1302.9438 4285752164
-65.196327 807.91943 1302.9438 4285883750
-43.464222 809.7655 1304.5005 4286277745
-57.732109 816.96185 1304.0281 4286147191
-55.326607 816.96185 1304.0281 4286344570
-52.921101 816.04236 1303.2528 4286212465
21.566973 824.12317 1303.5262 4293253095
-64.546791 756.37109 1307.8767 4284635480
-62.781651 811.61151 1306.057 4285951603
-61.57431 813.45758 1307.6135 4285689964
-50.708256 813.45758 1307.6135 4286146415
-57.732109 819.7204 1306.354 4285491836
16.838531 819.7204 1306.354 4288778403
19.244038 821.55945 1307.9047 4293253095
-64.546791 758.26904 1309.4771 4284569691
-65.444038 808.09314 1309.6306 4286017395
-46.053211 809.01965 1310.4117 4285556332
-60.366974 815.30359 1309.17 4285820796
-53.122936 815.30359 1309.17 4286214009
-60.366974 817.14966 1310.7266 4286216076
-55.537613 817.14966 1310.7266 4285952387
-53.122936 817.14966 1310.7266 4286082689
14.488073 817.14966 1310.7266 4288909990
19.244038 823.39844 1309.4553 4292860134
21.649542 823.39844 1309.4553 4293254892
-67.277061 753.646 1312.1191 4284437848
-63.020184 812.72583 1313.5366 4287071120
-49.688992 811.79932 1312.7554 4285885044
-60.366974 818.99573 1312.2831 4287465887
-57.952293 818.99573 1312.2831 4287005327
16.902752 818.99573 1312.2831 4292858060
16.902752 820.84174 1313.8396 4291875010
19.244038 825.23749 1311.006 4291940579
21.649542 825.23749 1311.006 4292861681
24.055046 827.07648 1312.5565 4290692065
-76.698166 805.90955 1315.6376 4286013789
-73.045868 804.97876 1314.8528 4286738040
-70.611008 804.97876 1314.8528 4286803833
-68.176147 804.97876 1314.8528 4286346360
-63.020184 814.57886 1315.0991 4287663522
-63.020184 816.43188 1316.6616 4289373884
-55.748623 816.43188 1316.6616 4286478983
-53.324772 816.43188 1316.6616 4286084475
14.543119 816.43188 1316.6616 4292331716
16.902752 823.61078 1316.1746 4290366955
19.31743 824.53381 1316.9528 4292071651
21.732111 824.53381 1316.9528 4292663788
-67.524773 754.74481 1319.5859 4284830810
-65.023849 754.74481 1319.5859 4284896603
-85.541283 803.31769 1319.9923 4284314264
-83.097244 803.31769 1319.9923 4284964456
-80.653214 803.31769 1319.9923 4284833127
-41.548622 801.44922 1318.4169 4286540660
-76.292358 808.39142 1317.7302 4288975003
-73.045868 808.70172 1317.9918 4290096585
-70.611008 808.70172 1317.9918 4289504705
-68.176147 808.70172 1317.9918 4288191402
-65.741287 808.70172 1317.9918 4286481041
-48.697247 809.63245 1318.7766 4286343799
-63.020184 818.28497 1318.224 4289966275
-60.596329 818.28497 1318.224 4288189865
-58.172478 818.28497 1318.224 4287399842
-55.748623 818.28497 1318.224 4286676375
14.543119 818.28497 1318.224 4289506206
-60.596329 820.13806 1319.7865 4289572544
-58.172478 820.13806 1319.7865 4289372605
-55.748623 820.13806 1319.7865 4287990952
14.543119 820.13806 1319.7865 4284842634
14.488073 826.37988 1318.5093 4286544524
16.902752 826.37988 1318.5093 4287334039
19.31743 826.37988 1318.5093 4286480275
21.732111 826.37988 1318.5093 4286019724
24.14679 826.37988 1318.5093 4284050604
-67.524773 756.6568 1321.198 4285094234
-65.023849 756.6568 1321.198 4285094234
-39.251377 798.85034 1322.7657 4286935909
-83.097244 805.18616 1321.5677 4286015086
-80.653214 805.18616 1321.5677 4285685864
-46.436699 805.18616 1321.5677 4285753458
7.3321099 805.18616 1321.5677 4288387232
-70.611008 811.4939 1320.3462 4290689985
-68.176147 811.4939 1320.3462 4289900232
-65.741287 811.4939 1320.3462 4288189615
-51.132111 811.4939 1320.3462 4286082689
-70.611008 813.35541 1321.9156 4291545823
-68.176147 813.35541 1321.9156 4290887641
-65.741287 813.35541 1321.9156 4289834952
-51.132111 813.35541 1321.9156 4286281597
-60.596329 821.99109 1321.3489 4290492103
-58.172478 821.99109 1321.3489 4289965005
-55.748623 821.99109 1321.3489 4288649145
14.543119 821.99109 1321.3489 4286680514
-60.596329 823.84412 1322.9114 4291807194
-58.172478 823.84412 1322.9114 4291084504
-55.748623 823.84412 1322.9114 4289834437
14.488073 829.14893 1320.844 4288320926
16.902752 829.14893 1320.844 4288913062
19.31743 829.14893 1320.844 4289308328
21.732111 829.14893 1320.844 4289768622
-44.157799 800.72583 1324.3472 4285358952
-85.862389 802.60132 1325.9285 4284903780
2.4532111 802.60132 1325.9285 4282205559
4.9064221 802.60132 1325.9285 4282794827
-85.541283 807.05463 1323.1432 4285294180
-83.097244 807.05463 1323.1432 4285882703
-79.023857 807.67749 1323.6683 4291410365
-75.765137 808.9231 1324.7186 4293186789
-73.321098 808.9231 1324.7186 4292466395
-48.880733 808.9231 1324.7186 4286214009
9.7761469 807.05463 1323.1432 4290230215
12.220183 807.98889 1323.9309 4289241269
-70.611008 815.21686 1323.4852 4292006108
-68.176147 815.21686 1323.4852 4291348190
-65.741287 815.21686 1323.4852 4290164172
-52.349541 815.21686 1323.4852 4286215804
-64.523857 817.07837 1325.0548 4291020759
-52.349541 817.07837 1325.0548 4287005322
12.174312 817.07837 1325.0548 4285364876
-63.020184 825.6972 1324.4739 4292795626
-60.596329 825.6972 1324.4739 4292137696
-58.172478 825.6972 1324.4739 4291939545
-55.748623 825.6972 1324.4739 4290492099
12.119267 825.6972 1324.4739 4283066205
14.488073 832.841 1323.957 4292990954
16.902752 832.841 1323.957 4292925161
19.31743 832.841 1323.957 4292662755
-36.93578 796.25153 1327.1146 4287067495
-40.629356 798.13403 1328.7019 4285489767
-46.611008 804.47681 1327.5099 4286278006
7.359633 804.47681 1327.5099 4287999633
-78.209175 811.72583 1327.0819 4294637311
-75.765137 812.6601 1327.8696 4293978101
-73.321098 811.72583 1327.0819 4292927215
-48.880733 811.72583 1327.0819 4286478208
12.220183 811.72583 1327.0819 4291147720
-68.176147 818.93982 1326.6244 4293651185
-64.523857 818.93982 1326.6244 4291940058
-52.349541 818.93982 1326.6244 4287334557
-48.697247 818.93982 1326.6244 4287071099
12.174312 818.93982 1326.6244 4285499795
-68.176147 820.80127 1328.1938 4293650681
-64.523857 820.80127 1328.1938 4292531687
-53.566971 820.80127 1328.1938 4289307578
-48.697247 820.80127 1328.1938 4287794838
12.174312 820.80127 1328.1938 4283795323
-60.596329 827.55023 1326.0363 4292665070
12.119267 827.55023 1326.0363 4290623158
9.6954126 829.40332 1327.5988 4292334283
12.119267 829.40332 1327.5988 4292597198
14.488073 835.61011 1326.292 4292793832
16.902752 835.61011 1326.292 4292793832
19.31743 835.61011 1326.292 4292596446
7.2440367 837.45612 1327.8484 4292333794
9.6587152 837.45612 1327.8484 4292465378
-34.601833 793.65271 1331.4635 4287462755
-88.645874 800.01654 1330.2892 4284443229
-44.322937 800.01654 1330.2892 4285883500
-40.629356 800.01654 1330.2892 4285948783
-7.387156 800.01654 1330.2892 4292002760
-4.9247708 800.01654 1330.2892 4290688701
-2.4623854 800.01654 1330.2892 4286872707
0 800.01654 1330.2892 4284574107
-44.322937 801.89905 1331.8765 4286146415
-41.86055 801.89905 1331.8765 4286212465
-7.387156 801.89905 1331.8765 4292131784
-2.4623854 801.89905 1331.8765 4292463315
2.4623854 801.89905 1331.8765 4290426058
4.9247708 801.89905 1331.8765 4287078531
-85.862389 806.35229 1329.0912 4285358700
-83.409172 806.35229 1329.0912 4288908636
-80.955963 806.35229 1329.0912 4292593044
7.359633 806.35229 1329.0912 4291545795
9.8128443 806.35229 1329.0912 4292331745
-80.955963 808.22784 1330.6726 4294960871
-76.049538 808.22784 1330.6726 4293781499
-46.611008 808.22784 1330.6726 4286411902
7.359633 808.22784 1330.6726 4293057247
9.8128443 808.22784 1330.6726 4293777656
-73.321098 814.52856 1329.4451 4293913855
-70.877068 814.52856 1329.4451 4293584890
-68.433029 814.52856 1329.4451 4292599790
-48.880733 814.52856 1329.4451 4286611073
-46.436699 814.52856 1329.4451 4286545280
-70.877068 816.39709 1331.0205 4293716728
-46.436699 816.39709 1331.0205 4286544755
9.7761469 816.39709 1331.0205 4287276205
-65.741287 822.66278 1329.7634 4293190384
-58.436699 824.52423 1331.333 4292268778
-56.001835 824.52423 1331.333 4291545055
9.7394495 824.52423 1331.333 4289702056
7.2715597 833.10944 1330.7236 4292662241
9.6954126 832.18286 1329.9424 4292661985
12.119267 832.18286 1329.9424 4292859364
-102.98899 763.01392 1334.4064 4293055199
-100.47707 763.01392 1334.4064 4292333279
-100.0367 771.95258 1334.0951 4292136156
-96.390823 797.43176 1334.6499 4292135645
-93.919266 797.43176 1334.6499 4289439942
-91.447708 797.43176 1334.6499 4284834433
-37.073395 796.487 1333.8533 4285817196
-34.601833 797.43176 1334.6499 4285556082
-32.130276 797.43176 1334.6499 4285621875
-9.8862381 796.487 1333.8533 4291345600
-7.4146791 795.54224 1333.0566 4291543493
-98.495415 803.78162 1333.4637 4287595431
-88.645874 803.78162 1333.4637 4284569185
-46.78532 803.78162 1333.4637 4286214009
-44.322937 803.78162 1333.4637 4286082680
-9.8495417 803.78162 1333.4637 4288119456
-7.387156 803.78162 1333.4637 4291409106
-4.9247708 803.78162 1333.4637 4291411656
-2.4623854 803.78162 1333.4637 4293253860
4.9247708 803.78162 1333.4637 4290887609
-80.955963 810.10333 1332.2539 4294965503
-76.049538 811.97882 1333.8353 4294505727
-46.611008 810.10333 1332.2539 4286412672
-44.157799 811.97882 1333.8353 4286937217
7.359633 811.04108 1333.0447 4292856539
9.8128443 811.04108 1333.0447 4291020497
-51.324772 818.26556 1332.5959 4288386476
-46.436699 818.26556 1332.5959 4286610821
9.7761469 818.26556 1332.5959 4283400565
-52.546791 820.13403 1334.1714 4289373116
-48.880733 820.13403 1334.1714 4288123049
-46.436699 820.13403 1334.1714 4287333790
9.7761469 820.13403 1334.1714 4282474068
-58.436699 826.38568 1332.9026 4292793841
7.3045874 826.38568 1332.9026 4291016662
4.8697248 828.24719 1334.472 4292925157
7.3045874 828.24719 1334.472 4292728035
12.119267 834.96246 1332.2861 4292596707
-100.84404 758.41748 1337.0709 4292596448
-98.322937 758.41748 1337.0709 4292201690
-94.121094 757.77509 1336.5292 4292793568
-90.759636 758.41748 1337.0709 4292399333
-102.98899 764.93433 1336.0256 4292201952
-100.47707 764.93433 1336.0256 4292004827
-100.47707 766.85468 1337.6448 4292136156
-97.965141 766.85468 1337.6448 4291939034
-95.453209 766.85468 1337.6448 4292136149
-92.941284 766.85468 1337.6448 4292662493
-92.533943 773.86456 1335.7072 4292925159
-95.034859 775.77649 1337.3193 4292201952
-96.390823 799.32129 1336.243 4287004836
-93.919266 799.32129 1336.243 4284440192
-91.447708 799.32129 1336.243 4283782263
-88.976151 799.32129 1336.243 4284570200
-39.544952 799.32129 1336.243 4285885045
-37.073395 799.32129 1336.243 4285885045
-34.601833 799.32129 1336.243 4286016883
-17.300917 799.32129 1336.243 4285688937
-13.593578 799.32129 1336.243 4287070077
-9.8862381 799.32129 1336.243 4289960615
-4.943119 799.32129 1336.243 4291739593
0 799.32129 1336.243 4292399848
-96.390823 801.21082 1337.8363 4284832125
-93.919266 801.21082 1337.8363 4284242523
-91.447708 801.21082 1337.8363 4283913301
-42.016514 801.21082 1337.8363 4286082680
-39.544952 801.21082 1337.8363 4286016883
-37.073395 801.21082 1337.8363 4286082676
-34.601833 801.21082 1337.8363 4286082680
-32.130276 801.21082 1337.8363 4286214009
-22.244038 801.21082 1337.8363 4286541948
-19.772476 801.21082 1337.8363 4286213505
-17.300917 801.21082 1337.8363 4286082176
-13.593578 801.21082 1337.8363 4286674811
1.2357798 801.21082 1337.8363 4292070874
-86.183487 805.66412 1335.051 4288315735
-83.7211 805.66412 1335.051 4291799980
-44.322937 805.66412 1335.051 4286411641
-41.86055 805.66412 1335.051 4286411641
-17.236698 805.66412 1335.051 4286870656
-13.543119 805.66412 1335.051 4286280053
-9.8495417 805.66412 1335.051 4286279800
-7.387156 805.66412 1335.051 4288845984
-4.9247708 805.66412 1335.051 4290095545
-2.4623854 805.66412 1335.051 4293187815
4.9247708 805.66412 1335.051 4292991454
-86.183487 807.54663 1336.6384 4290156713
-83.7211 807.54663 1336.6384 4292066518
-44.322937 807.54663 1336.6384 4286870906
-40.629356 807.54663 1336.6384 4286739320
-17.236698 807.54663 1336.6384 4287068803
-13.543119 807.54663 1336.6384 4286871424
-9.8495417 807.54663 1336.6384 4286215032
-7.387156 807.54663 1336.6384 4287925393
-4.9247708 807.54663 1336.6384 4290095017
-2.4623854 807.54663 1336.6384 4293516253
4.9247708 807.54663 1336.6384 4293253095
-44.157799 814.79211 1336.2074 4286740101
-41.704586 814.79211 1336.2074 4286740358
4.9064221 815.72986 1336.998 4289510085
7.359633 814.79211 1336.2074 4287796898
-52.13945 822.62531 1336.272 4290557895
-48.880733 822.93677 1336.5345 4289899448
-46.436699 822.93677 1336.5345 4289110188
-43.992661 822.93677 1336.5345 4288846502
-41.548622 823.87103 1337.3223 4287924882
4.8880734 823.87103 1337.3223 4289700802
7.3321099 822.00256 1335.7468 4288189878
4.8697248 830.10864 1336.0416 4292728035
4.8697248 831.97009 1337.6112 4291939036
-101.2844 753.27051 1340.5792 4292923349
-97.486237 753.27051 1340.5792 4292660950
-91.15596 753.27051 1340.5792 4292990689
-98.322937 760.34491 1338.696 4292135643
-94.541283 760.34491 1338.696 4292399581
-90.759636 760.34491 1338.696 4292333027
-98.322937 762.27234 1340.3212 4291939034
-94.541283 762.27234 1340.3212 4292202204
-90.759636 762.27234 1340.3212 4292136158
-100.47707 770.69543 1340.8833 4292530655
-97.965141 769.73523 1340.0737 4292333277
-95.453209 769.73523 1340.0737 4292201434
-92.941284 768.77509 1339.264 4292858851
-94.337616 792.43201 1338.2825 4291086567
-91.855049 792.43201 1338.2825 4287862710
-89.372475 792.43201 1338.2825 4283985299
-34.755962 792.43201 1338.2825 4285489244
-32.273396 792.43201 1338.2825 4285818209
-29.790825 794.32996 1339.8827 4286015340
-19.86055 794.32996 1339.8827 4287857261
-17.377981 794.32996 1339.8827 4289502085
-13.654127 793.38098 1339.0825 4291211950
-96.390823 803.10034 1339.4294 4284765557
-93.919266 803.10034 1339.4294 4285290077
-91.447708 803.10034 1339.4294 4284829526
-88.976151 803.10034 1339.4294 4285947187
-39.544952 803.10034 1339.4294 4286345848
-37.073395 803.10034 1339.4294 4286345848
-34.601833 803.10034 1339.4294 4286476150
-32.130276 803.10034 1339.4294 4286541944
-29.658716 803.10034 1339.4294 4286542198
-24.715597 803.10034 1339.4294 4286541944
-22.244038 803.10034 1339.4294 4286805115
-19.772476 803.10034 1339.4294 4286936449
1.2357798 803.10034 1339.4294 4292991470
-40.629356 809.42914 1338.2256 4286740092
-19.699083 809.42914 1338.2256 4286936701
-17.236698 809.42914 1338.2256 4287331459
-13.543119 809.42914 1338.2256 4287200643
-9.8495417 809.42914 1338.2256 4286741635
-7.387156 809.42914 1338.2256 4287662737
-4.9247708 809.42914 1338.2256 4287991190
-2.4623854 809.42914 1338.2256 4288385948
2.4623854 809.42914 1338.2256 4290355621
4.9247708 809.42914 1338.2256 4292328398
-39.398167 811.31165 1339.813 4286870910
-19.699083 811.31165 1339.813 4287134596
-17.236698 811.31165 1339.813 4287397768
-13.543119 811.31165 1339.813 4287331971
-9.8495417 811.31165 1339.813 4287070088
-7.387156 811.31165 1339.813 4287464846
-4.9247708 811.31165 1339.813 4287135880
-2.4623854 811.31165 1339.813 4286806914
2.4623854 811.31165 1339.813 4290028666
4.9247708 811.31165 1339.813 4290162877
-44.157799 817.60535 1338.5795 4287135630
-40.477982 817.60535 1338.5795 4287200907
4.9064221 817.60535 1338.5795 4289376939
7.359633 817.60535 1338.5795 4282995018
-40.477982 819.48083 1340.1609 4287267984
-12.266055 819.48083 1340.1609 4286346863
-9.8128443 819.48083 1340.1609 4288251544
-4.9064221 819.48083 1340.1609 4286548108
-2.4532111 819.48083 1340.1609 4284771440
2.4532111 819.48083 1340.1609 4284192961
4.9064221 819.48083 1340.1609 4287400362
-51.324772 825.7395 1338.8978 4291477200
-48.880733 825.7395 1338.8978 4291411658
-46.436699 826.67371 1339.6855 4289768369
-43.992661 826.67371 1339.6855 4289504181
-4.8880734 827.60797 1340.4733 4292596961
2.4440367 826.67371 1339.6855 4292663268
-103.81651 755.2063 1342.2115 4293120214
-29.900917 789.84021 1342.6372 4285818209
-17.442202 789.84021 1342.6372 4291076520
-32.273396 796.22791 1341.483 4286016883
-28.549541 796.22791 1341.483 4286410355
-24.825687 796.22791 1341.483 4286214261
-22.343119 796.22791 1341.483 4285951090
-19.86055 796.22791 1341.483 4285491302
-28.549541 798.12585 1343.0833 4286410357
-24.825687 798.12585 1343.0833 4286475898
-37.073395 805.93463 1341.8193 4286739833
-34.601833 805.93463 1341.8193 4286739577
-32.130276 805.93463 1341.8193 4286870906
-28.422935 805.93463 1341.8192 4286870907
-24.715597 805.93463 1341.8193 4286871164
-22.244038 805.93463 1341.8193 4286871421
-19.772476 804.98987 1341.0227 4286937217
0.82385319 805.61969 1341.5537 4292068046
-39.398167 813.19415 1341.4003 4287068290
