# .PCD v0.7 - Point Cloud Data file format
VERSION 0.7
FIELDS x y z rgb
SIZE 4 4 4 4
TYPE F F F U
COUNT 1 1 1 1
WIDTH 1161
HEIGHT 1
VIEWPOINT 0 0 0 1 0 0 0
POINTS 1161
DATA ascii
7.8192658 757.79431 778.01672 4293585394
10.425688 757.13013 777.45667 4294967295
13.900917 757.13013 777.45667 4294967295
15.638532 757.13013 777.45667 4294967295
20.851376 757.13013 777.45667 4294967295
38.227524 757.13013 777.45667 4294967295
40.833946 757.79431 778.01672 4294967295
43.440369 758.45856 778.57678 4294967295
0.86880732 759.78699 779.6969 4288850640
43.440369 759.78699 779.6969 4294967295
-1.7321101 764.76062 779.96643 4286812322
0.86605507 763.4364 778.84985 4288783816
4.157064 763.17157 778.62659 4292201442
6.9211011 763.54797 777.63593 4292793321
32.840366 764.98376 777.53845 4294967295
34.568806 764.98376 777.53845 4294967295
37.161469 764.98376 777.53845 4294967295
40.704586 763.43646 778.84991 4294967295
43.302753 763.4364 778.84985 4294967295
0.8642202 766.96582 779.20972 4289898189
4.6091747 767.1861 779.39545 4292595682
6.9137616 766.96588 779.20972 4292924649
37.161469 766.30518 778.65259 4294967295
40.618347 767.62659 779.76685 4294967295
43.21101 767.62659 779.76685 4294967295
8.6146793 769.93915 777.7926 4293846263
10.337615 769.93915 777.7926 4294109688
37.043121 769.93915 777.7926 4294967295
7.753211 771.25635 778.90332 4293319920
10.315597 772.79529 777.58484 4294043894
12.034863 772.79529 777.58484 4294767359
34.385323 772.79529 777.58484 4294967295
37.043121 771.25635 778.90332 4294967295
40.488991 771.25635 778.90332 4294967295
7.7366972 774.76685 779.24725 4293188849
36.964218 774.10968 778.69312 4294967295
40.689297 774.54785 779.0625 4294967295
7.9975533 778.59747 778.55292 4293386481
11.13945 777.72406 777.81653 4294307580
35.988991 777.72406 777.81653 4294967295
37.702751 777.72406 777.81653 4294967295
40.273396 778.37915 778.36884 4294967295
8.5504589 781.87207 778.698 4293714930
11.115597 781.21838 778.14685 4294176252
13.680734 781.21838 778.14679 4294439423
15.960856 781.00049 777.96307 4294967039
18.811008 780.5647 777.59558 4294967295
35.911926 780.5647 777.59558 4294967295
37.622017 780.5647 777.59558 4294967295
39.902142 781.43628 778.33057 4294967295
42.752293 781.87207 778.698 4294967295
7.6954126 783.17944 779.80029 4292925418
11.115597 783.17944 779.80029 4294045178
13.636697 785.4668 777.80493 4294374143
16.193579 785.4668 777.80493 4294967039
19.602753 785.4668 777.80493 4294967295
23.011927 785.4668 777.80493 4294967295
25.568808 785.4668 777.80493 4294967295
28.125687 785.4668 777.80493 4294967295
31.534863 785.4668 777.80493 4294967295
34.944038 785.4668 777.80493 4294967295
37.500916 785.4668 777.80493 4294967295
40.123856 784.32312 778.80261 4294967295
42.752293 783.17944 779.80029 4294967295
8.5229359 786.76996 778.90369 4293517300
11.079817 786.76996 778.90369 4293978871
13.636697 786.76996 778.90369 4294439935
16.17523 787.53101 778.23737 4294967039
19.560551 788.29205 777.57104 4294967295
22.962385 788.29205 777.57104 4294967295
25.513762 788.29205 777.57104 4294967295
28.065138 788.29205 777.57104 4294967295
31.466972 788.29205 777.57104 4294967295
34.868805 788.29205 777.57104 4294967295
37.420185 788.29205 777.57104 4294967295
40.0578 786.76996 778.90369 4294967295
42.614677 786.76996 778.90369 4294967295
8.5045872 790.89282 779.76392 4293583343
11.055964 790.89282 779.76392 4294241528
13.60734 789.59241 778.66748 4294439934
15.308257 789.59241 778.66748 4294966783
18.710093 789.59241 778.66748 4294967295
22.962385 789.59241 778.66748 4294967295
39.971558 789.59241 778.66748 4294967295
42.522934 790.89282 779.76392 4294967295
8.4770641 794.46368 778.85059 4293320687
11.020184 794.46368 778.85059 4294372857
13.563303 793.16748 777.75769 4294570750
15.258716 793.16748 777.75769 4294967295
22.888073 793.16748 777.75769 4294967295
35.603668 793.16748 777.75769 4294967295
38.14679 793.16748 777.75769 4294967295
40.689907 793.81555 778.30414 4294967295
5.0862384 795.75983 779.94348 4292332254
7.6293578 795.75983 779.94348 4292794343
10.99633 797.27069 778.60144 4294043894
13.533945 795.97736 777.51086 4294505727
16.07156 795.97736 777.51086 4294967295
18.609175 795.97736 777.51086 4294967295
23.120489 796.40845 777.87433 4294967295
25.376146 796.62402 778.05615 4294967295
27.631805 796.40845 777.87433 4294967295
31.579206 796.40845 777.87433 4294967295
34.680733 796.62402 778.05615 4294967295
38.06422 796.62402 778.05615 4294967295
40.601833 797.27069 778.60144 4294967295
42.385323 795.75983 779.94348 4294967295
5.0752292 798.56403 779.69189 4292135647
7.612844 798.56403 779.69189 4292794343
10.96055 800.82611 777.67517 4293912822
22.764221 800.82611 777.67517 4294967295
26.136696 800.82611 777.67517 4294967295
28.666056 800.82611 777.67517 4294967295
31.195412 800.82611 777.67517 4294967295
34.56789 800.82611 777.67517 4294967295
38.00367 799.69507 778.68353 4294967295
40.601833 798.56403 779.69189 4294967295
7.8691125 802.97467 779.48682 4293056232
10.679511 802.54498 779.12445 4293780724
13.46055 803.62054 777.41528 4294373629
15.984404 803.62054 777.41528 4294966783
18.508257 803.62054 777.41528 4294967295
22.71468 803.62054 777.41528 4294967295
26.079817 803.62054 777.41528 4294967295
28.60367 803.62054 777.41528 4294967295
31.162384 802.86792 778.08868 4294967295
34.84893 802.54498 779.12445 4294967295
37.940369 802.75983 779.30566 4294967295
40.469727 803.40442 779.84912 4294967295
11.217125 805.76447 779.22296 4293912565
16.825687 804.90686 778.49988 4294967295
26.079817 804.90686 778.49988 4294967295
31.968807 804.90686 778.49988 4294967295
34.492661 805.55005 779.04218 4294967295
37.857796 806.19324 779.58447 4294967295
11.73945 809.72479 778.63806 4294241787
13.416513 808.44269 777.55701 4294241789
15.93211 808.44269 777.55701 4294966783
18.447706 808.44269 777.55701 4294967295
31.86422 808.44269 777.55701 4294967295
34.379814 809.08374 778.09753 4294967295
37.733944 809.72479 778.63806 4294967295
40.249542 809.72479 778.63806 4294967295
8.3853207 811.00696 779.71912 4293451240
10.888073 811.75391 779.04102 4293846515
13.387156 811.86127 777.82355 4294241789
15.897249 811.86127 777.82355 4294900223
18.407339 811.22162 777.28418 4294967295
31.794495 811.22162 777.28418 4294967295
34.025692 812.07446 778.00336 4294967295
37.693577 811.75391 779.04102 4294967295
41.088074 811.00696 779.71912 4294967295
10.877064 813.78027 779.44153 4293846515
13.387156 813.78027 779.44153 4294044408
34.304588 813.78027 779.44153 4294967295
37.651375 813.78027 779.44153 4294967295
40.161469 813.78027 779.44153 4294967295
15.844954 816.65466 777.9411 4294966015
19.173393 817.54034 778.25177 4294967295
22.508562 817.54028 778.25177 4294967295
25.823854 817.39886 777.26056 4294967295
28.867277 817.85944 777.21289 4294967295
31.133947 816.44214 777.7619 4294967295
34.191742 817.92975 779.01624 4294967295
36.693577 818.56732 779.55383 4294967295
22.466972 821.32526 779.26306 4294967295
25.795414 820.68909 778.72668 4294967295
29.123852 820.05298 778.19031 4294967295
31.620184 820.05298 778.19031 4294967295
34.116516 821.32526 779.26306 4294967295
29.059631 823.44287 778.43256 4294967295
31.550459 823.44287 778.43256 4294967295
-4.3862386 748.78821 782.19525 4288911789
-1.7522936 748.22784 780.41467 4294967295
43.807339 748.22784 780.41467 4294967295
46.43578 749.5675 781.54431 4294967295
49.993576 748.78821 782.19525 4294967295
-3.5045872 750.9071 782.67383 4286348709
47.311928 750.9071 782.67383 4294967295
-3.493578 755.91162 782.96936 4285234069
-1.746789 753.24072 780.71741 4289309138
1.746789 753.24072 780.71741 4291545069
46.289909 753.90845 781.2804 4294967295
48.910091 754.57617 781.84344 4294967295
-4.3577981 758.79437 782.78406 4285955736
-1.7431192 756.79547 781.09857 4286221732
46.192661 757.46173 781.6604 4294967295
-1.7376146 761.11542 780.81702 4286483619
45.177982 761.11542 780.81702 4294967295
-3.4752293 762.44385 781.93701 4285628049
43.440369 762.44385 781.93701 4294967295
-3.4642203 766.74695 781.64124 4286283384
-1.7321101 766.08484 781.08301 4287337874
45.034863 767.40906 782.19946 4294967295
-3.4568808 770.26941 781.99512 4289634714
-1.7284404 769.6087 781.43805 4289635742
1.1522936 769.38849 781.25238 4291146715
4.0330276 769.38849 781.25238 4292266464
44.07523 769.6087 781.43805 4294967295
-1.7229358 773.89075 781.12451 4290885564
0.57431191 773.45166 780.75433 4291278280
4.5944958 773.45166 780.75433 4292332512
6.8917432 772.57355 780.01392 4292794091
43.647705 773.45166 780.75433 4294967295
-3.4458716 775.20795 782.23523 4289240490
-1.7229358 775.20795 782.23523 4290622143
0.8614679 775.97321 781.57245 4291081159
4.3018351 775.97321 781.57245 4292200668
43.888992 775.97321 781.57245 4294967295
46.519264 775.20795 782.23523 4294967295
49.103668 775.20795 782.23523 4294967295
-1.7192661 778.05286 782.01782 4290228430
0 778.05286 782.01782 4290686914
3.4385321 778.05286 782.01782 4291542995
46.420185 778.05286 782.01782 4294967295
0.85688072 782.96478 782.23535 4291082946
5.1412845 780.99951 780.57825 4292529890
6.8550458 780.34442 780.02588 4292662241
44.557796 780.99951 780.57825 4294967295
46.271561 781.6546 781.13062 4294967295
0.85504586 785.79419 782.005 4290951875
4.2752295 785.1405 781.45386 4291871959
6.8403668 784.48682 780.90271 4292464356
44.462387 785.1405 781.45386 4294967295
46.172478 785.1405 781.45386 4294967295
7.6706419 788.07312 780.00244 4292860136
11.079817 788.07312 780.00244 4294110199
42.614677 788.07312 780.00244 4294967295
0.85229355 790.67944 782.20007 4290884295
4.2614679 790.02783 781.6507 4292200922
6.8183484 789.37628 781.10132 4292596448
44.319267 789.37628 781.10132 4294967295
46.592045 790.24506 781.8338 4294967295
4.2522936 792.84338 781.40857 4292003545
6.8036699 792.19318 780.86035 4292465378
43.656879 792.62665 781.22583 4294967295
45.92477 793.49353 781.95679 4294967295
3.3908257 797.05597 781.03638 4291082703
43.233028 797.05597 781.03638 4294967295
45.776146 797.05597 781.03638 4294967295
0.84770644 798.35211 782.12927 4290950340
4.2293577 799.85742 780.78247 4291805915
6.7669725 799.85742 780.78247 4292267232
40.601833 799.85742 780.78247 4294967295
43.13945 799.85742 780.78247 4294967295
46.623856 798.35211 782.12927 4294967295
1.1278287 801.58185 782.23651 4291081157
3.9474003 801.58185 782.23651 4291740120
43.13945 801.15076 781.87292 4294967295
46.240978 802.013 782.59991 4294967295
49.060551 802.44409 782.9635 4294967295
-1.6862385 805.98273 782.02307 4290293430
0.56207949 805.55298 781.66071 4290818245
4.4966359 805.55298 781.66071 4292200414
7.5880733 804.69354 780.93604 4292793830
40.469727 804.69354 780.93604 4294967295
43.280121 805.12329 781.29834 4294967295
45.528439 805.98273 782.02307 4294967295
0 808.76587 781.75366 4290752196
4.2064219 808.76587 781.75366 4292133851
7.2911315 807.90826 781.03058 4292793824
10.095413 807.47955 780.66907 4293254892
42.905502 808.12268 781.21136 4294967295
45.429359 808.76587 781.75366 4294967295
-1.6825688 810.05225 782.83826 4286938748
0.84128439 810.05225 782.83826 4289433239
4.1981649 811.17065 781.81921 4292394192
7.5467887 812.28906 780.80017 4293056484
41.926605 812.28906 780.80017 4294967295
43.603668 812.28906 780.80017 4294967295
46.196331 811.17065 781.81921 4294967295
48.794495 810.05225 782.83826 4294967295
0 814.85333 782.9624 4289700007
4.1926603 814.21228 782.42188 4290489033
7.2611618 814.49469 781.7879 4292464609
10.877064 815.05957 780.52026 4293846261
13.387156 815.05957 780.52026 4294307064
37.651375 815.05957 780.52026 4294967295
41.044037 814.31543 781.20074 4294967295
43.603668 813.57123 781.88123 4294967295
45.839756 814.42596 782.60205 4294967295
5.0201836 817.61823 782.67761 4291544290
7.809175 817.19183 782.31805 4292728297
10.877064 816.97858 782.13831 4293780467
13.387156 816.33893 781.599 4294307064
16.176147 816.76538 781.9585 4294966527
38.488075 816.33893 781.599 4294967295
40.998165 816.97858 782.13831 4294967295
43.508255 816.97858 782.13831 4294967295
45.181652 817.61823 782.67761 4294967295
8.3394499 821.11755 781.7041 4293122802
10.841284 821.11755 781.7041 4293714930
13.34312 820.47998 781.1665 4294242040
15.566974 820.69257 781.3457 4294966271
19.180733 820.48004 781.1665 4294967295
37.527523 820.48004 781.1665 4294967295
40.029358 821.11755 781.7041 4294967295
8.3394499 822.3927 782.7793 4293253877
22.466972 822.5976 780.33594 4294967295
24.963303 822.5976 780.33594 4294967295
34.948624 822.5976 780.33594 4294967295
38.361469 822.3927 782.7793 4294967295
40.029358 822.3927 782.7793 4294967295
-5.26789 749.35132 783.97815 4286478492
50.922935 749.35132 783.97815 4294967295
-7.0238533 750.69379 785.11011 4285427837
-4.3862386 751.47028 784.45673 4284575101
50.816513 752.24677 783.80334 4294967295
52.678898 750.69379 785.11011 4294967295
50.816513 753.58643 784.93286 4294967295
-7.8605504 757.91479 784.65839 4285361547
49.492355 758.13739 784.84601 4294967295
-7.8440366 760.79333 784.46948 4284639364
-5.2293577 760.12701 783.90771 4285627551
46.192661 760.12701 783.90771 4294967295
49.678898 761.45966 785.03125 4294967295
-6.9504585 763.77222 783.05713 4283720315
-5.2128439 763.77222 783.05713 4284904845
46.046791 763.77222 783.05713 4294967295
-7.5296631 765.98627 784.92401 4288186781
-5.2128439 765.10065 784.17725 4286806680
46.915596 765.10065 784.17725 4294967295
49.522018 765.10065 784.17725 4294967295
52.128441 766.42908 785.29736 4294967295
-6.9284406 770.0575 784.43262 4289173934
-5.1963301 769.39539 783.87433 4289437102
46.766972 768.73328 783.31604 4294967295
49.365139 768.73328 783.31604 4294967295
51.963303 770.0575 784.43262 4294967295
-6.9284406 771.38165 785.54919 4286413197
-4.3211012 772.25153 783.66644 4288057244
46.667889 771.59082 783.10938 4294967295
49.260551 771.59082 783.10938 4294967295
52.774311 772.14697 784.88635 4294967295
-4.3155966 775.37939 784.34174 4287333535
1.7229358 776.52515 783.34583 4291279307
49.103668 776.52515 783.34583 4294967295
52.634861 775.37939 784.34174 4294967295
-4.5944958 778.28143 784.82666 4287004050
-1.7192661 779.36725 783.1261 4290425030
0.85963303 779.36725 783.1261 4291147717
3.4385321 779.36725 783.1261 4291411153
48.999084 779.36725 783.1261 4294967295
51.688072 778.50098 785.01172 4294967295
-3.4385321 781.33887 784.78851 4287465633
-1.7192661 780.68164 784.23438 4290228680
48.999084 780.68164 784.23438 4294967295
-1.7137614 784.93005 783.8924 4289900761
47.985321 784.27496 783.34009 4294967295
49.699081 784.27496 783.34009 4294967295
-3.4275229 786.89532 785.54944 4284244864
-1.7100917 788.40894 784.20972 4289376718
0.85504586 787.10156 783.10742 4290885315
3.4201834 787.10156 783.10742 4291608786
47.882568 787.10156 783.10742 4294967295
49.592659 787.75525 783.65857 4294967295
51.412846 786.89532 785.54944 4294967295
-3.4201834 789.71637 785.31213 4282931305
-1.7045871 791.98267 783.29883 4288786626
0.85229355 791.98267 783.29883 4291147467
47.728439 791.98267 783.29883 4294967295
49.433029 791.98267 783.29883 4294967295
51.302753 789.71637 785.31213 4294967295
-3.4091742 793.93738 784.94708 4284701521
-1.7009175 794.79388 783.05322 4289636490
0.85045874 794.79388 783.05322 4290819783
47.625687 794.79388 783.05322 4294967295
49.326607 794.79388 783.05322 4294967295
51.705811 794.1546 785.13019 4294967295
-3.401835 797.39459 785.24609 4289435014
-1.7009175 796.09424 784.14966 4289307050
49.326607 796.09424 784.14966 4294967295
51.027523 797.39459 785.24609 4294967295
-3.3908257 800.94446 784.31506 4289304738
-1.6954129 800.29639 783.76862 4290291106
47.471561 799.64832 783.22217 4294967295
49.166973 799.64832 783.22217 4294967295
-4.2348623 802.98901 784.73096 4289109159
47.368809 803.73743 784.05396 4294967295
49.961468 802.98901 784.73096 4294967295
-5.0752292 805.03082 785.14453 4288715679
50.752293 805.03082 785.14453 4294967295
-3.7940364 808.8833 784.46875 4287134329
-1.6862385 807.27185 783.10999 4290359990
1.6862385 807.27185 783.10999 4291739091
47.21468 807.27185 783.10999 4294967295
50.025074 808.56097 784.19696 4294967295
52.273396 809.85016 785.28394 4294967295
-3.3651376 812.62494 785.00745 4289500055
-1.6825688 811.98175 784.46515 4288579715
1.1217126 811.76733 784.28436 4288646531
47.111927 811.33856 783.92285 4294967295
48.794495 811.98175 784.46515 4294967295
-1.6770642 816.77655 784.58398 4288321443
0.83853209 817.14655 784.24194 4288978362
3.9070332 817.97687 783.85205 4290162896
6.6935778 818.89758 783.75635 4292135907
41.834862 818.89758 783.75635 4294967295
43.508255 818.89758 783.75635 4294967295
46.331497 817.97687 783.85205 4294967295
49.193882 816.99023 784.76416 4294967295
-1.6733944 821.45618 785.9137 4286872205
0.55779815 821.02979 785.55414 4287399075
4.183486 820.81653 785.37433 4289831877
6.6935778 820.17688 784.83496 4292332775
41.834862 820.81653 785.37433 4294967295
43.508255 820.81653 785.37433 4294967295
45.739452 821.02979 785.55414 4294967295
48.528439 821.45618 785.9137 4294967295
0 824.94293 784.92957 4287196570
6.6715598 823.66779 783.85437 4291672264
0 828.95911 785.69983 4290816694
-10.568808 749.71106 788.20544 4285097087
-8.8073397 749.03772 787.63776 4285097342
54.605503 749.71106 788.20544 4294967295
-7.0238533 752.03625 786.24194 4284639109
-5.26789 752.03625 786.24194 4286020762
52.678898 752.03625 786.24194 4294967295
-10.53578 754.72113 788.50586 4285032581
-8.7798166 753.37866 787.3739 4285557379
50.816513 754.92603 786.0625 4294967295
52.678898 753.37866 787.3739 4294967295
54.434864 754.72113 788.50586 4294967295
52.568806 756.93555 787.75677 4294967295
-10.480734 759.91791 786.34741 4283651178
52.403671 761.25336 787.47339 4294967295
54.150459 761.25336 787.47339 4294967295
-12.227523 762.58875 788.59937 4287660942
-10.458715 763.45862 786.71674 4286870147
-8.7155962 762.7923 786.15491 4285752954
54.966972 763.35681 787.93896 4294967295
-10.458715 765.45752 788.40222 4288053651
-8.6880732 767.75751 786.41736 4289698220
53.866055 767.75751 786.41736 4294967295
55.779816 765.45752 788.40222 4294967295
-8.6880732 769.75012 788.09753 4287726745
55.603668 769.08594 787.53748 4294967295
57.341286 770.41437 788.65759 4294967295
-6.9284406 772.70587 786.66565 4286412688
55.427525 772.70587 786.66565 4294967295
58.891743 772.70587 786.66565 4294967295
60.623852 772.70587 786.66565 4294967295
-7.7871561 775.45392 787.67474 4287070357
53.58165 776.2157 787.00897 4294967295
55.310093 776.2157 787.00897 4294967295
58.025688 774.6922 788.34052 4294967295
60.623852 774.6922 788.34052 4294967295
-6.9137616 778.19781 788.68018 4286675844
55.310093 778.19781 788.68018 4294967295
57.902752 778.19781 788.68018 4294967295
-6.8917432 781.79395 787.78833 4287466628
-5.1688075 780.47675 786.67773 4285754742
52.8367 780.91583 787.04791 4294967295
55.133945 781.79395 787.78833 4294967295
-7.4611626 784.05377 788.82178 4288189351
-4.5847096 783.74854 786.82031 4284177520
52.437614 783.96765 787.00507 4294967295
56.203053 784.55835 788.37518 4294967295
58.579815 783.11115 788.89893 4294967295
-5.1412845 788.20551 786.65417 4282005072
53.126606 788.20551 786.65417 4294967295
54.840366 788.20551 786.65417 4294967295
-6.8550458 790.82587 788.86365 4288253356
-5.1412845 789.51569 787.75891 4283912047
53.012844 791.02374 786.41443 4294967295
55.638531 790.26971 787.08667 4294967295
-6.8403668 793.63849 788.61914 4288447905
-5.1302752 792.33112 787.51672 4286542738
55.862995 792.76691 787.88422 4294967295
-5.1137614 795.89215 786.59521 4288513698
52.842201 795.89215 786.59521 4294967295
55.114986 796.76093 787.32782 4294967295
-6.8183484 798.49847 788.79285 4288056732
-5.1027522 798.69501 786.34253 4289106853
52.161469 799.12842 786.70801 4294967295
55.34037 799.24695 788.11591 4294967295
-6.8036699 801.29572 788.5354 4287925906
52.557796 803.53674 786.50085 4294967295
54.429359 801.29572 788.5354 4294967295
-6.7816515 805.48096 788.1402 4285424492
-5.0752292 806.32416 786.23499 4284704623
52.444038 806.32416 786.23499 4294967295
54.253212 804.83289 787.59375 4294967295
-6.7669725 808.91089 788.41602 4288906632
54.13578 807.61749 787.32556 4294967295
-5.0587158 811.78381 786.91443 4288776843
50.587154 811.13928 786.37097 4294967295
52.273396 811.78381 786.91443 4294967295
-6.7449541 813.71759 788.54492 4285033081
-3.9259937 814.7688 786.81512 4286874513
50.477066 813.91125 786.09204 4294967295
53.059631 814.45758 787.86078 4294967295
-4.2009172 817.5918 787.23346 4286808978
-1.6770642 818.69971 786.20557 4288388776
1.6770642 818.69971 786.20557 4288518075
46.957798 818.69971 786.20557 4294967295
49.473396 818.69971 786.20557 4294967295
53.000916 816.48395 788.26135 4294967295
-4.1926603 820.62292 787.82715 4285686911
50.311928 820.62292 787.82715 4294967295
52.827522 820.62292 787.82715 4294967295
-3.3467889 824.01483 788.07104 4289435554
-1.6733944 822.73553 786.99243 4287263118
1.6733944 823.37518 787.53174 4290224062
3.3467889 822.73553 786.99243 4288646554
46.855045 822.73553 786.99243 4294967295
48.528439 823.37518 787.53174 4294967295
51.875229 823.37518 787.53174 4294967295
-3.3357799 827.49316 787.07983 4289697446
-1.66789 826.85559 786.54224 4290290351
0 826.21802 786.00464 4290159025
-3.3357799 828.76825 788.15491 4289237144
-12.957798 748.28638 790.92841 4285031037
56.543118 748.73669 791.30798 4294967295
-12.330276 752.40436 790.47644 4284770184
-10.568808 751.05768 789.34094 4285425792
55.486237 751.73102 789.90869 4294967295
-15.853211 753.75098 791.61194 4283915631
58.128441 753.75098 791.61194 4294967295
-16.681652 758.74847 791.90161 4286873741
-13.163303 757.11951 789.87402 4284243572
55.56636 757.02411 789.5755 4294967295
57.946789 758.07727 791.33563 4294967295
-14.018349 760.28461 790.58069 4287660942
57.825687 761.62427 791.71021 4294967295
-16.594496 763.92419 789.72546 4287202197
-13.100918 763.92419 789.72546 4287333008
-15.721101 765.25964 790.85144 4285558144
-13.087156 766.69263 790.75165 4285885042
-10.458715 766.79016 789.52588 4287857303
58.394493 766.79016 789.52588 4294967295
-12.201835 769.45544 791.77319 4285495136
-10.458715 768.1228 790.64954 4287595931
-10.425688 772.40698 790.33777 4287333273
-8.6605501 776.67853 790.01526 4288646054
60.623852 776.67853 790.01526 4294967295
-10.39266 778.00275 791.13184 4287593614
-8.6422014 779.51923 789.79443 4289238695
57.902752 779.51923 789.79443 4294967295
60.495415 779.51923 789.79443 4294967295
61.359634 780.84064 790.90857 4294967295
-10.337615 785.74554 791.12024 4287659659
-8.6146793 784.42834 790.00952 4289502115
58.579815 784.42834 790.00952 4294967295
60.302753 785.74554 791.12024 4294967295
-8.023242 787.69171 790.1452 4288976298
58.455048 787.91077 790.3299 4294967295
60.174313 788.56799 790.88403 4294967295
-10.315597 789.88245 791.99219 4287134094
61.893578 789.88245 791.99219 4294967295
63.612843 789.88245 791.99219 4294967295
-7.9926605 793.50946 790.25421 4287988889
59.06147 793.54102 789.84485 4294967295
61.563301 794.94586 789.72144 4294967295
63.409176 793.44629 791.073 4294967295
-8.5504589 796.25323 790.82385 4287661978
59.283184 796.68903 791.19122 4294967295
61.563301 796.90692 791.375 4294967295
63.273396 797.56061 791.92615 4294967295
-8.5229359 799.80164 789.89172 4287530901
56.251377 799.80164 789.89172 4294967295
57.955963 799.80164 789.89172 4294967295
-10.227523 801.10486 790.99048 4284112229
-8.5045872 803.24622 790.18005 4285162347
56.130276 803.24622 790.18005 4294967295
58.808258 801.10486 790.99048 4294967295
-10.205504 805.19684 791.82471 4287459450
56.130276 805.19684 791.82471 4294967295
-8.4770641 808.0733 790.32587 4287066489
55.100918 808.0733 790.32587 4294967295
-10.172477 810.01758 791.96521 4285360499
-7.8948007 811.49756 790.59717 4286412154
54.981651 810.85089 790.05188 4294967295
57.58165 811.40424 791.82642 4294967295
-6.7449541 815.00671 789.63184 4286281868
55.64587 815.00671 789.63184 4294967295
-7.8642197 817.21704 790.62354 4285029225
53.842201 817.77026 789.34595 4294967295
55.524769 817.77026 789.34595 4294967295
57.332111 816.94043 791.26233 4294967295
-6.7302752 819.69977 790.97284 4286738823
55.524769 819.69977 790.97284 4294967295
-6.7082567 823.82825 790.52979 4288579216
-5.0311928 822.54614 789.44873 4289106590
50.311928 822.54614 789.44873 4294967295
53.666054 823.18719 789.98926 4294967295
55.343121 823.82825 790.52979 4294967295
-6.7082567 825.11035 791.61084 4288447374
-5.0201836 825.93384 789.68915 4288973975
49.365135 825.29419 789.14978 4294967295
52.51009 825.17163 790.79053 4294967295
55.343121 825.11035 791.61084 4294967295
-14.135779 750.08752 792.44702 4284112511
58.310093 750.08752 792.44702 4294967295
61.844036 752.78931 794.7251 4294967295
63.611008 752.78931 794.7251 4294967295
-15.853211 755.09766 792.74731 4284374372
59.889908 755.09766 792.74731 4294967295
59.889908 756.44434 793.88281 4294967295
59.702751 760.09094 793.03345 4294967295
61.458717 760.09094 793.03345 4294967295
-16.64679 763.63367 793.40454 4286084489
-15.721101 767.93054 793.10339 4285360770
-13.974312 767.93054 793.10339 4283521346
-13.073395 770.78809 792.89673 4284375151
-13.944954 772.12073 794.02039 4283651147
-12.163302 775.06384 792.57788 4284834663
-10.425688 774.3996 792.01782 4287395987
-12.163302 777.05646 794.25806 4285424744
-10.39266 779.32697 792.24841 4287265932
-12.990826 781.31329 793.92322 4284307811
-10.370643 782.16205 792.02271 4287528068
61.359634 782.16205 792.02271 4294967295
64.088074 780.65118 793.36499 4294967295
-12.963303 784.14417 793.69403 4285162600
62.223854 783.48346 793.13696 4294967295
63.952293 783.48346 793.13696 4294967295
-12.634862 787.94086 792.97119 4286870906
-10.337615 787.06274 792.23083 4287527820
62.025688 787.06274 792.23083 4294967295
63.748623 787.06274 792.23083 4294967295
-12.909174 790.44696 793.77625 4287330442
-10.315597 791.19678 793.10046 4287265683
-12.034863 792.51123 794.20874 4287594897
-10.282569 794.75647 792.17773 4287398549
63.409176 794.75647 792.17773 4294967295
-13.710092 797.37683 794.38721 4285097328
-11.13945 796.06665 793.28247 4287135889
-11.970642 799.52173 793.57971 4285359979
61.563301 798.86798 793.02856 4294967295
-11.079817 803.05957 792.63867 4286410353
58.808258 803.05957 792.63867 4294967295
61.365139 803.05957 792.63867 4294967295
-11.068808 805.75574 793.604 4286607990
58.745872 805.75574 793.604 4294967295
61.365139 805.01434 794.28687 4294967295
-11.906422 807.79755 794.01758 4285294704
59.532108 807.79755 794.01758 4294967295
61.233028 807.79755 794.01758 4294967295
-11.020184 811.96179 793.60455 4285689464
59.339451 811.96179 793.60455 4294967295
61.034863 811.31372 793.05811 4294967295
-10.150458 814.73096 793.32343 4285028706
59.21101 815.37762 793.86865 4294967295
60.902752 814.08429 792.7782 4294967295
-10.979816 817.77258 793.92603 4287198335
-8.4311924 818.87415 792.89282 4287987593
58.271561 817.77258 793.92603 4294967295
-10.96055 820.16327 793.97974 4287791234
-8.4128437 821.62927 792.59973 4288054153
57.332111 820.16327 793.97974 4294967295
-10.095413 824.20197 794.76892 4287659144
-8.4128437 823.55884 794.22662 4287528327
57.20734 823.55884 794.22662 4294967295
-7.5467887 827.03357 793.23242 4288776599
61.21468 748.35498 796.21826 4294967295
-17.724771 750.4809 796.70276 4284374372
61.844036 754.14014 795.86414 4294967295
63.611008 754.14014 795.86414 4294967295
-17.559633 763.44702 795.86328 4286742421
-15.770642 766.98285 796.22839 4285164420
-15.721101 770.60138 795.35547 4285360518
-15.721101 772.60455 797.04443 4285557379
-13.944954 773.45331 795.14404 4283978596
-15.688073 776.11859 797.39136 4285491574
-13.944954 775.45227 796.82953 4284306786
-15.638532 779.71332 796.49817 4285227131
-19.982569 781.04175 797.61829 4285292910
-17.376146 781.04175 797.61829 4286806914
-22.517431 785.948 797.83105 4287135630
-19.919266 785.948 797.83105 4287069059
-15.588991 783.29956 795.59802 4285293676
-22.469725 786.12628 795.36523 4287134346
-19.877064 787.44769 796.47943 4286937729
-16.420183 786.78699 795.92236 4287265933
-16.367889 791.01434 795.56274 4287068040
-13.783486 791.01434 795.56274 4287200139
-19.526606 793.20966 797.41376 4286675079
-16.351376 793.07855 795.99518 4286806660
-13.754128 793.82556 795.31702 4286807182
-18.911926 796.45435 797.53357 4285687684
-16.619572 795.57812 796.79474 4286082691
-15.995107 799.56049 796.22833 4286146432
-13.710092 798.68701 795.49194 4285490789
-16.264221 802.04877 797.01843 4286279816
-13.680734 802.13647 795.78436 4286936950
-15.390825 804.09753 797.43787 4284768124
-13.636697 806.3175 795.38562 4284899946
-15.341285 808.27234 797.03387 4285818753
-13.636697 807.62073 796.4845 4285425792
-11.906422 809.0979 795.11401 4286149516
-13.60734 811.04846 796.75867 4285753983
-13.563303 815.20215 796.33679 4286277491
-11.86789 813.90601 795.2439 4284963189
61.034863 814.55408 795.79034 4294967295
-13.563303 816.49835 797.42969 4287199608
59.21101 817.96436 796.04968 4294967295
60.902752 817.96436 796.04968 4294967295
-10.96055 821.45245 795.06677 4287529352
60.902752 819.25769 797.14026 4294967295
-11.80367 822.74158 796.15369 4287725963
-11.217125 825.91705 796.21503 4288383638
-19.436697 759.54358 800.42017 4286806147
-17.614679 763.17761 799.56018 4287006624
-17.559633 766.80316 798.69312 4287399844
-17.559633 768.81689 800.39093 4287267997
-17.522936 772.34143 800.7467 4287333778
-20.088074 775.94312 799.8595 4284768088
-17.46789 775.94312 799.8595 4287200921
-22.588991 785.02698 800.97864 4287069836
-22.517431 788.59644 800.06421 4287070086
-22.469725 791.41193 799.82202 4286806408
-20.741285 790.09052 798.70776 4287070340
-22.469725 792.73328 800.93616 4286609549
-20.67523 794.96594 798.89453 4286016392
-19.793579 797.026 799.32355 4285687681
-17.137615 802.61755 798.80603 4284241780
-17.100918 806.05859 799.09143 4286345096
-17.100918 808.01965 800.745 4286607737
-15.341285 811.53021 799.78094 4285884790
-13.563303 817.79449 798.52258 4287397764
-13.548624 820.46753 799.46838 4287528072
59.21101 821.19769 798.776 4294967295
60.902752 821.19769 798.776 4294967295
-19.497248 758.61133 803.55823 4286742421
-19.436697 763.59619 803.83716 4286544787
-19.376146 767.21759 802.96655 4286348146
-24.326605 787.68384 803.21875 4286872201
-22.469725 794.05469 802.05029 4285557631
-22.469725 795.3761 803.16455 4285490298
-19.813763 797.60034 801.11584 4285426306
-19.813763 799.57617 802.78174 4284702830
-18.911926 802.36914 802.52069 4285951612
-17.100918 809.32703 801.84729 4285490039
-17.100918 810.6344 802.94971 4286345598
-15.341285 814.78809 802.52789 4287134847
-15.308257 818.20044 802.78906 4287265401
-11.842202 827.01782 803.68335 4283650132
-46.466053 748.42413 805.4328 4285751901
-21.445871 749.79047 806.58484 4286150522
-19.658716 749.79047 806.58484 4286413437
-55.231194 754.80615 806.88989 4286146919
-52.558716 754.80615 806.88989 4286343536
-49.886238 754.80615 806.88989 4286212715
-21.379816 754.12512 806.31567 4284504168
-21.313761 758.44714 806.03577 4283584592
-19.497248 759.96643 804.70068 4286808193
-21.269724 762.67657 806.98584 4283519047
-19.376146 768.56421 804.10205 4286149770
-24.326605 790.3407 805.45892 4286411913
-22.517431 795.21753 805.64685 4285621879
-20.741285 796.69751 804.27869 4285163386
-22.469725 798.67963 805.94995 4285556341
-20.67523 802.21057 805.00305 4286411655
-22.398165 804.18634 806.66895 4285359732
-19.352753 805.28796 805.6358 4285556612
-17.100918 811.94177 804.052 4287397766
-17.100918 813.90283 805.70551 4287068279
-15.341285 818.04608 805.2749 4287924100
-13.636697 818.04608 805.2749 4287991190
-15.341285 819.34924 806.37366 4287266184
-13.636697 819.34924 806.37366 4286413185
-11.93211 819.34924 806.37366 4285360497
-52.829357 748.26276 807.91272 4286212465
-49.247707 748.26276 807.91272 4285883745
-43.875229 748.94727 808.48993 4284501580
-25.966972 749.63184 809.06714 4287399058
-57.188992 752.52307 808.88892 4286673264
-55.401836 751.15674 807.73682 4286409326
-52.7211 751.15674 807.73682 4286409072
-48.848927 751.61212 808.12085 4285423199
-46.466057 751.8399 808.31287 4284698709
-44.678898 751.8399 808.31287 4284435536
-25.020184 752.52307 808.88892 4287333526
-23.233028 751.8399 808.31287 4285030258
-57.606731 757.07635 808.80402 4286476913
-55.231194 756.8493 808.61261 4286016619
-52.558716 756.8493 808.61261 4286277999
-49.886238 756.8493 808.61261 4286015336
-25.537003 757.07635 808.80402 4287596442
-23.161469 756.8493 808.61261 4284767600
-24.866055 761.16296 808.32556 4287662235
-22.201836 760.48401 807.75311 4284307308
-60.388992 762.52081 809.47058 4287004797
-58.612843 762.52081 809.47058 4286938748
-56.836697 762.52081 809.47058 4286807414
-24.866055 762.52081 809.47058 4287267992
-22.179817 763.27625 808.7995 4284504687
-24.403669 788.11224 807.50403 4286149768
-26.14679 790.77753 809.75134 4286608250
-58.210091 794.32593 808.81921 4288516240
-55.603668 794.32593 808.81921 4288909971
-24.905809 793.88312 808.4458 4286345340
-58.210091 795.65436 809.93933 4288647569
-55.603668 795.65436 809.93933 4288582546
-53.866055 795.65436 809.93933 4288648339
-27.801834 795.65436 809.93933 4287134598
-25.156881 796.76013 808.90967 4286345599
-28.579817 799.19012 808.99646 4287068295
-25.115597 799.19012 808.99646 4286543235
-22.469725 800.66174 807.62122 4286873477
-31.688074 802.86407 809.47821 4287593360
-28.519266 802.64386 809.29248 4287198860
-25.062386 802.64392 809.29248 4286805637
-22.469725 803.30457 809.84961 4285293676
-20.67523 806.16211 808.33496 4286476680
-18.911926 808.94116 808.06207 4287331720
-18.911926 810.91272 809.72449 4286938752
-15.90948 821.52118 808.20508 4284174439
-13.636697 820.6524 807.47253 4283518045
-16.193579 823.25873 809.67004 4283650131
-13.60734 824.05212 807.72302 4283715671
-37.722935 748.03113 811.6416 4285751662
-35.028442 748.03113 811.6416 4286344301
-42.979816 751.68549 810.79877 4284764247
-39.995106 751.45728 810.60638 4285159265
-30.444036 751.68549 810.79877 4287333016
-28.653212 751.00092 810.22156 4287334028
-26.862385 751.00092 810.22156 4287465357
-58.976147 753.88934 810.04089 4286674036
-48.253212 754.57251 810.61694 4284699475
-46.466057 754.57251 810.61694 4284501582
-44.678898 753.88934 810.04089 4284633935
-30.444036 753.73914 812.53027 4287530387
-28.594496 754.57251 810.61694 4287464853
-26.807339 753.88934 810.04089 4287728280
-60.576145 758.89246 810.33533 4286675833
-57.903671 758.89246 810.33533 4286477426
-55.231194 758.89246 810.33533 4286476654
-52.558716 758.89246 810.33533 4286346098
-30.381651 756.62195 812.34497 4287594897
-28.594496 756.62195 812.34497 4287398549
-26.724771 758.89246 810.33533 4287595929
-55.231194 760.25452 811.48376 4286412656
-52.558716 760.25452 811.48376 4286674286
-28.506422 760.93555 812.05804 4287659405
-26.724771 760.93555 812.05804 4287922319
-60.388992 763.87872 810.61548 4287136647
-58.612843 763.87872 810.61548 4287070854
-24.866055 763.87872 810.61548 4287201427
-23.089909 763.87872 810.61548 4285490552
-61.009174 792.77643 811.43683 4288581776
-58.210091 796.98279 811.05945 4288713362
-55.603668 796.98279 811.05945 4288713360
-52.997246 796.98279 811.05945 4288647312
-58.210091 798.31122 812.17944 4288187018
-55.603668 798.31122 812.17944 4288383368
-52.997246 798.31122 812.17944 4288251527
-50.231194 800.51434 810.11304 4288711565
-46.189602 802.72137 811.97394 4286213497
-36.374313 803.16278 812.34619 4287198074
-32.910091 803.16278 812.34619 4287724937
-34.568806 805.28668 811.52081 4287133565
-31.111927 804.62598 810.96375 4287593100
-28.519266 805.28662 811.52081 4287265157
-25.062386 805.28662 811.52081 4287199875
-22.469725 805.28668 811.52081 4287133825
-24.121101 809.45514 811.11145 4286938500
-22.398165 809.45514 811.11145 4286675329
-20.67523 808.79651 810.55615 4287069568
-24.121101 810.77234 812.22217 4287330694
-22.398165 810.77234 812.22217 4287264901
-19.793579 811.49976 811.5274 4287396223
-17.192661 812.22711 810.83264 4287134585
-18.851376 818.33978 812.06262 4283583586
61.695412 818.33978 812.06262 4294967295
64.266052 818.33978 812.06262 4294967295
-16.193579 824.56189 810.76892 4283913303
-13.636697 824.56189 810.76892 4284044639
-17.045872 825.86511 811.86768 4284175446
-41.315598 750.09113 813.37854 4285355870
-37.722935 750.09113 813.37854 4285948010
-34.729053 750.54889 813.76447 4286803570
-32.333946 751.46442 814.53644 4287069325
-30.381651 757.98822 813.49695 4287266184
-61.009174 794.77539 813.12231 4288910225
-61.009174 796.10803 814.24597 4288252811
-59.266056 797.44067 815.36951 4288514956
-57.341286 799.63959 813.29956 4288580749
-55.603668 799.63959 813.29956 4288383368
-52.997246 800.30377 813.85962 4289831075
-49.522018 800.30383 813.85962 4290554547
-52.997246 802.29645 815.53979 4292398808
-50.390827 802.29645 815.53979 4293517802
-48.499084 805.14911 814.02094 4294308341
-45.900917 805.14911 814.02094 4286608255
-43.302753 805.14911 814.02094 4284895844
-40.704586 805.81122 814.57922 4285882973
-36.951683 805.36981 814.20703 4286737781
-34.6422 805.81122 814.57922 4286806660
-32.044037 805.14911 814.02087 4287201158
-29.445871 805.81122 814.57922 4287136395
-48.499084 807.13544 815.6958 4294967295
-45.900917 807.13544 815.6958 4287332227
-43.302753 807.13544 815.6958 4285223771
-40.704586 807.13544 815.6958 4285882215
-36.925995 808.06085 815.604 4286869618
-34.605503 808.52356 815.55811 4286938252
-32.044037 807.13544 815.6958 4287464594
-28.102753 808.2265 814.65363 4287134853
-25.926605 808.59015 814.30634 4287200644
-24.121101 812.08954 813.33276 4288117909
-22.398165 812.08954 813.33276 4288907425
-19.813763 812.08954 813.33276 4288513423
-17.229359 812.08954 813.33276 4287595149
-36.181652 814.72394 815.55396 4286869623
-34.458717 814.72394 815.55396 4286936188
-24.121101 813.40674 814.44336 4288053663
-17.229359 813.40674 814.44336 4286872205
65.332108 817.48468 815.26575 4294967295
-61.137615 796.64233 817.3125 4289502111
-59.390827 797.31006 817.87549 4290818491
-58.103973 799.66168 817.24225 4291740364
-55.779816 799.43958 817.05499 4291740361
-58.394493 801.43854 818.74048 4294966015
-55.779816 801.43854 818.74048 4294966527
-52.997246 803.62488 816.65979 4294966527
-50.390827 803.62488 816.65979 4294967295
-57.341286 805.61755 818.33997 4294967295
-55.603668 805.61755 818.33997 4294967295
-52.997246 805.61755 818.33997 4294967295
-50.390827 804.95331 817.77991 4294967295
-49.365139 809.1217 817.37048 4294967295
-45.900917 809.12177 817.37054 4286938513
-43.302753 809.1217 817.37054 4284830843
-40.704586 809.12177 817.37054 4285947239
-38.106422 808.45966 816.81226 4286408297
-32.332722 808.90106 817.18439 4287463819
-29.445871 808.45966 816.81226 4287134850
-37.161469 811.23303 816.53467 4286672752
-34.568806 811.23303 816.53467 4287266436
-31.688074 812.11395 817.2774 4287066746
-28.519266 811.89368 817.09174 4288053130
-25.350458 812.11395 817.2774 4287330696
-22.469725 811.89374 817.09174 4286212995
-20.165138 811.67352 816.90607 4286148476
-36.297249 813.87585 818.76294 4286999926
-34.568806 813.87585 818.76294 4287198074
-31.976147 813.87585 818.76294 4287199361
-29.383486 813.87585 818.76294 4288253080
-25.926605 813.87585 818.76294 4285753727
-27.566973 816.04114 816.66467 4287595931
-24.121101 817.35834 817.77521 4284043104
-22.398165 816.69971 817.21997 4283517269
-19.641468 817.09491 817.5531 4283846494
63.748623 816.04114 816.66467 4294967295
-61.137615 798.64551 819.00146 4291806414
-59.266056 802.77118 819.86414 4294967295
-52.128441 807.61011 820.02014 4294967295
-45.177982 808.93854 821.14026 4282867057
-43.440369 808.93854 821.14026 4283788159
-41.702751 808.93854 821.14026 4285683555
-49.365139 811.10803 819.04541 4289908722
-46.766972 811.10803 819.04541 4283532748
-39.838531 811.10803 819.04541 4286473070
-38.106422 811.77014 819.6037 4286211436
62.355965 812.43225 820.16199 4294967295
-31.177982 813.75647 821.27844 4287005579
-28.579817 813.75647 821.27844 4284375156
-25.981651 813.75647 821.27844 4283257715
62.355965 813.75647 821.27844 4294967295
64.816513 815.19727 819.8772 4294967295
65.680733 816.51862 820.99133 4294967295
-18.952293 819.99274 819.99646 4284503392
-16.367889 819.99274 819.99646 4284437850
65.471558 821.30994 821.10718 4294967295
-43.57798 808.10168 824.35864 4285491554
-41.834862 808.10168 824.35864 4286078576
-39.965137 810.26697 822.26025 4286539127
-33.014679 811.5954 823.38037 4288316571
60.816513 810.26697 822.26025 4294967295
-25.981651 815.08069 822.39502 4283978844
62.355965 815.08069 822.39502 4294967295
64.088074 815.08069 822.39502 4294967295
62.355965 816.40491 823.5116 4294967295
64.884399 817.12244 822.80853 4294967295
-17.284403 819.16144 823.21973 4284569698
62.223854 819.82214 823.77679 4294967295
63.952293 819.82214 823.77679 4294967295
65.471558 822.62714 822.21777 4294967295
59.390827 806.65814 825.75757 4294967295
59.390827 807.99359 826.88354 4294967295
61.009174 809.43433 825.4823 4294967295
61.009174 810.76697 826.60596 4294967295
60.816513 814.9165 826.18066 4294967295
-19.113762 816.90906 827.86072 4284963943
-17.376146 816.90906 827.86072 4284701540
60.816513 816.90906 827.86072 4294967295
62.355965 821.03967 827.41949 4294967295
64.5737 821.77008 826.29126 4294967295
65.680733 823.12567 826.56226 4294967295
57.946789 804.39172 830.38672 4294967295
58.608257 808.25055 829.06226 4294967295
59.390827 811.33215 829.69855 4294967295
59.266056 814.76483 829.97681 4294967295
-19.113762 818.23749 828.98083 4285226860
60.816513 818.23749 828.98083 4294967295
60.816513 819.56592 830.10095 4294967295
62.355965 824.35022 830.21082 4294967295
64.954132 823.68811 829.65253 4294967295
57.903671 786.13416 833.30481 4294967295
60.576145 786.13416 833.30481 4294967295
58.128441 800.88397 831.35327 4294967295
56.366974 803.57733 833.62415 4294967295
-15.80367 805.73419 831.51868 4284241239
-14.047707 805.73419 831.51868 4284306783
-15.770642 809.85144 832.37415 4284569698
-14.047707 807.74786 833.21655 4284503905
57.946789 807.74786 833.21655 4294967295
-15.770642 811.19104 833.50366 4284701540
-14.018349 811.19104 833.50366 4284767080
57.825687 811.19104 833.50366 4294967295
-15.721101 814.67078 832.51355 4284701036
59.390827 814.67078 832.51355 4294967295
-17.431192 816.76379 831.66229 4285095790
59.266056 817.43011 832.22412 4294967295
61.009174 818.7627 833.34778 4294967295
62.554127 820.89435 831.22107 4294967295
62.355965 825.67438 831.32739 4294967295
64.088074 825.67438 831.32739 4294967295
53.72477 781.80573 836.19537 4294967295
55.401836 782.58154 834.2334 4294967295
58.082569 782.58154 834.2334 4294967295
55.401836 784.63098 835.96149 4294967295
57.903671 788.17731 835.02759 4294967295
60.576145 788.17731 835.02759 4294967295
-8.9082565 790.22046 836.75024 4282862417
55.231194 790.22046 836.75024 4294967295
57.903671 790.22046 836.75024 4294967295
60.576145 790.22046 836.75024 4294967295
-12.433027 792.39417 834.65894 4283451996
-10.65688 793.07312 835.23138 4283256405
56.836697 793.75208 835.80383 4294967295
58.612843 793.75208 835.80383 4294967295
61.277065 793.75208 835.80383 4294967295
-12.407339 797.23096 836.12122 4284044639
-10.645871 796.50922 836.82068 4284044124
-8.8807335 795.10992 836.94885 4283913051
55.948624 795.10992 836.94885 4294967295
56.543118 800.06958 834.59058 4294967295
-12.368808 802.09583 836.29913 4284306783
56.543118 802.7713 836.86865 4294967295
-12.330276 806.27063 835.89502 4284569698
56.366974 806.27063 835.89502 4294967295
-12.291743 809.76154 834.91443 4284701286
-13.155046 811.81738 835.33978 4284964208
56.190826 811.104 836.04639 4294967295
57.825687 812.5307 834.63318 4294967295
-15.770642 813.87036 835.76282 4285425007
-13.434251 814.76343 836.51581 4285622383
57.825687 814.54016 836.32758 4294967295
-16.303364 817.7868 835.14093 4285885554
59.390827 817.34161 834.76562 4294967295
-20.045872 820.76166 835.03333 4286280319
-17.431192 820.76166 835.03326 4286214520
59.266056 820.76166 835.03326 4294967295
61.009174 820.76166 835.03326 4294967295
-20.045872 822.76062 836.71863 4286610051
-17.431192 822.76062 836.71863 4286477949
59.266056 822.76062 836.71863 4294967295
61.781651 823.82013 835.64996 4294967295
52.253212 776.05133 839.19159 4294967295
54.055046 775.36255 838.61084 4294967295
52.093578 780.30396 838.85315 4294967295
-10.744954 785.22845 839.0813 4285097582
-8.9541283 785.22845 839.0813 4284439395
53.127827 784.77216 838.69647 4294967295
53.614677 788.04675 838.84155 4294967295
55.401836 786.68042 837.68958 4294967295
-8.0284405 790.4978 838.94617 4283650391
52.7211 789.41302 839.99353 4294967295
55.231194 791.58252 837.8988 4294967295
-7.1266055 792.94464 839.04724 4284043606
53.449543 792.94464 839.04724 4294967295
-8.2886848 797.37305 838.85699 4284306524
53.284405 797.82568 839.23865 4294967295
55.060551 796.46777 838.09375 4294967295
-10.634862 799.9411 838.40637 4284437599
-8.8623857 800.61865 838.97766 4284569185
54.946789 799.9411 838.40637 4294967295
-10.601835 804.12219 838.00769 4284635234
-8.8348627 805.47302 839.14661 4284767334
54.776146 804.79761 838.57715 4294967295
-10.568808 808.29065 837.59827 4284898663
55.486237 808.29065 837.59827 4294967295
-12.291743 812.44641 837.17822 4285293680
-10.53578 812.44641 837.17822 4285424494
-8.8073397 810.31061 839.30151 4285424494
55.398163 811.37854 838.23987 4294967295
-10.53578 814.46008 838.87616 4286147956
56.190826 814.46008 838.87616 4294967295
-13.142202 817.21948 838.58667 4286410101
57.825687 817.21948 838.58667 4294967295
-15.721101 820.68018 837.58057 4286280314
-20.045872 824.09326 837.84229 4286938500
-16.559633 824.09326 837.84229 4287003008
-13.974312 822.68335 839.26965 4287002499
59.390827 822.68335 839.26965 4294967295
61.009174 824.09326 837.84229 4294967295
-19.174313 825.42584 838.96594 4287134337
-16.559633 825.42584 838.96594 4287199108
50.913761 765.99805 842.48718 4294967295
50.759632 770.97308 842.75793 4294967295
50.605503 774.54956 841.84937 4294967295
-9.9100914 779.49512 842.09521 4289174679
-7.2073393 778.8064 841.51447 4289304993
49.550461 779.49512 842.09521 4294967295
52.093578 781.67725 840.01111 4294967295
-7.1853213 783.05054 841.16907 4283716442
-5.3889909 784.42389 842.32703 4283124049
49.698471 783.96606 841.9411 4294967295
-7.1633029 786.5976 840.23572 4282992719
-5.3724771 787.96667 841.39014 4283913303
50.14312 787.96667 841.39014 4294967295
51.933945 786.5976 840.23572 4294967295
-4.4715595 790.0575 841.84503 4284174682
-1.7908257 789.33575 842.54443 4284569187
49.196331 790.0575 841.84503 4294967295
51.827522 790.7793 841.14563 4294967295
-7.1266055 794.3067 840.19568 4284372057
-4.4596329 793.2262 841.24664 4284371803
50.040367 792.14563 842.29761 4294967295
52.638535 793.2262 841.24664 4294967295
-4.75107 796.57684 842.10986 4284503644
51.667889 796.34985 841.91846 4294967295
-7.1045871 799.86249 840.95605 4284700766
-5.3284402 800.54144 841.52856 4284766559
53.284405 799.86249 840.95605 4294967295
-7.9761467 802.65125 840.69147 4284832357
-4.4403667 801.89929 842.67346 4285094757
52.341286 802.61401 841.96808 4294967295
-7.951376 806.82391 840.28564 4285161321
-5.317431 804.68384 842.40527 4285292907
52.205505 805.75391 841.34546 4294967295
-7.0678897 808.17474 841.42468 4285751914
53.009174 808.85022 841.9942 4294967295
-7.9266057 811.65723 840.43689 4286147697
54.605503 811.65723 840.43689 4294967295
-7.6330276 813.45282 841.95087 4286278777
52.844036 813.67725 842.14014 4294967295
54.605503 813.67725 842.14014 4294967295
-10.53578 817.14502 841.13995 4286411642
-8.7798166 817.14502 841.13995 4286411899
56.190826 817.14502 841.13995 4294967295
-12.704129 820.2337 841.12811 4286870400
-10.524771 820.53345 842.68896 4286938499
-8.7798166 819.15869 842.83789 4287004545
56.190826 819.15869 842.83789 4294967295
57.825687 819.89874 840.84576 4294967295
-13.974312 824.0188 840.39563 4287002756
-19.174313 826.75848 840.0896 4287201675
-16.559633 826.75848 840.0896 4287134096
-13.086239 826.0564 840.8056 4287134094
43.076149 757.32013 845.6344 4294967295
46.601833 760.92889 844.75317 4294967295
49.343121 760.92889 844.75317 4294967295
46.601833 762.32605 845.93115 4294967295
49.194496 764.52924 843.86475 4294967295
50.054131 766.65515 844.3493 4294967295
-1.8183486 768.77832 844.83142 4290289832
0 768.77832 844.83142 4290422963
