# .PCD v0.7 - Point Cloud Data file format
VERSION 0.7
FIELDS x y z rgb
SIZE 4 4 4 4
TYPE F F F U
COUNT 1 1 1 1
WIDTH 1160
HEIGHT 1
VIEWPOINT 0 0 0 1 0 0 0
POINTS 1160
DATA ascii
-25.257797 768.2276 1262.9366 4289369256
-21.649542 768.2276 1262.9366 4289895601
-19.244038 768.2276 1262.9366 4289633460
-16.838531 768.2276 1262.9366 4290291647
-13.230275 768.2276 1262.9366 4289437351
-9.6220188 768.2276 1262.9366 4287925154
-7.2165136 768.2276 1262.9366 4290096580
-4.8110094 768.2276 1262.9366 4291083227
-21.335779 796.86664 1262.2317 4289961901
-18.965137 796.86664 1262.2317 4290159025
-16.594496 796.86664 1262.2317 4289961647
-14.223853 796.86664 1262.2317 4290027692
-31.510092 755.28107 1265.1007 4288579746
-29.086239 755.28107 1265.1007 4288580248
-25.450459 755.28107 1265.1007 4289829806
-21.814678 754.35449 1264.3196 4290092982
-19.390825 754.35449 1264.3196 4289896117
-16.966972 754.35449 1264.3196 4289962166
-13.331194 754.35455 1264.3196 4290819766
-9.6954126 754.35449 1264.3196 4292530906
-7.2715597 755.28107 1265.1007 4293977336
-4.8477063 755.28107 1265.1007 4293516787
0 755.28107 1265.1007 4292727787
-33.805504 761.76837 1264.0305 4288448144
-31.390825 761.76837 1264.0305 4288842902
-28.976147 761.76837 1264.0305 4288646293
-25.35413 761.76837 1264.0305 4289501097
-21.732111 761.76837 1264.0305 4290224316
-19.31743 761.76837 1264.0305 4289831092
-16.902752 761.76837 1264.0305 4290225850
-13.280734 761.76837 1264.0305 4289502894
-9.6587152 761.76837 1264.0305 4289370795
-7.2440367 761.76837 1264.0305 4292989409
-4.8293576 761.76837 1264.0305 4293384945
-2.4146788 761.76837 1264.0305 4292792807
-33.805504 763.61444 1265.587 4287987858
-31.390825 763.61444 1265.587 4288777118
-28.976147 763.61444 1265.587 4288646041
-24.14679 763.61444 1265.587 4289565870
-13.280734 763.61444 1265.587 4289306028
-9.6587152 763.61444 1265.587 4288382110
-7.2440367 763.61444 1265.587 4292658911
-4.8293576 763.61444 1265.587 4292334572
-2.4146788 763.61444 1265.587 4292531950
0 763.61444 1265.587 4292464356
-31.271559 770.06665 1264.4873 4288842915
-28.866055 770.06665 1264.4873 4288712347
-25.257797 770.06665 1264.4873 4289238434
-21.649542 770.06665 1264.4873 4289764265
-19.244038 770.06665 1264.4873 4289567667
-16.838531 770.06665 1264.4873 4290159804
-13.230275 770.06665 1264.4873 4289765301
-9.6220188 770.06665 1264.4873 4287465626
-7.2165136 770.06665 1264.4873 4287926177
-4.8110094 770.06665 1264.4873 4288781747
-2.4055047 770.06665 1264.4873 4292531948
-19.170643 776.49084 1263.3638 4289895603
-16.774311 776.49084 1263.3638 4290356154
-26.359632 778.32281 1264.9086 4289303205
-23.963303 778.32281 1264.9086 4289106853
-19.170643 778.32281 1264.9086 4289698222
-16.774311 778.32281 1264.9086 4290290359
-14.377981 778.32281 1264.9086 4290290359
-11.981651 778.32281 1264.9086 4290356152
-19.097248 784.71198 1263.7555 4289436590
-16.710093 784.71198 1263.7555 4290028470
-14.322936 784.71198 1263.7555 4290159543
-28.645872 786.53699 1265.2943 4288382616
-26.258715 786.53699 1265.2943 4288908960
-22.677982 786.53699 1265.2943 4289238184
-19.097248 786.53699 1265.2943 4289436590
-16.710093 786.53699 1265.2943 4289897141
-14.322936 786.53699 1265.2943 4290093750
-11.93578 786.53699 1265.2943 4289567406
-21.418348 790.53076 1263.4297 4289698222
-19.038532 790.53076 1263.4297 4289764269
-16.658716 790.53076 1263.4297 4290224820
-22.608257 792.35016 1264.9637 4289434534
-19.038532 792.35016 1264.9637 4290092719
-16.658716 792.35016 1264.9637 4290158512
-14.278899 792.35016 1264.9637 4290026671
-22.521101 799.58514 1264.5239 4289500842
-18.965137 799.58514 1264.5239 4289896361
-16.594496 799.58514 1264.5239 4289896361
-14.223853 799.58514 1264.5239 4290027691
-36.3578 758.98718 1268.2257 4288448659
-33.933945 757.13409 1266.6632 4288250261
-31.510092 757.13409 1266.6632 4288842654
-29.086239 757.13409 1266.6632 4288842904
-26.662386 757.13409 1266.6632 4289698213
-4.8477063 757.13409 1266.6632 4293318386
-2.4238532 757.13409 1266.6632 4292792042
0 758.06067 1267.4445 4292529640
-36.220184 765.46045 1267.1436 4288184719
-33.805504 766.38348 1267.9219 4288053399
-2.4146788 765.46045 1267.1436 4292727796
0 766.38348 1267.9219 4292793321
-31.271559 772.8252 1266.8132 4288776604
-28.866055 772.8252 1266.8132 4288580758
-25.257797 772.82513 1266.8132 4289172639
-21.649542 772.8252 1266.8132 4289699239
-19.244038 771.90564 1266.038 4289895351
-16.838531 771.90564 1266.038 4290421696
-13.230276 772.8252 1266.8132 4289961650
-9.6220188 772.8252 1266.8132 4289237926
-7.2165136 772.8252 1266.8132 4289961905
-4.8110094 772.8252 1266.8132 4291081424
-2.4055047 772.8252 1266.8132 4293318129
0 772.8252 1266.8132 4293055723
-28.755962 781.07086 1267.2256 4288579736
-26.359632 781.07086 1267.2256 4289040287
-22.765137 781.07086 1267.2256 4289369513
-19.170643 780.15485 1266.4532 4289567406
-16.774311 780.15485 1266.4532 4290159543
-14.377981 780.15485 1266.4532 4290159543
-11.182874 781.37622 1267.483 4289765042
-7.1889906 781.98688 1267.9979 4292199642
-4.7926607 781.98688 1267.9979 4292266982
-2.3963304 781.07086 1267.2256 4292990704
0 781.98688 1267.9979 4292858601
-28.645872 788.36194 1266.8331 4288579225
-26.258715 788.36194 1266.8331 4289039776
-23.871559 788.36194 1266.8331 4288974499
-14.322936 788.36194 1266.8331 4290158771
-11.93578 788.36194 1266.8331 4289698220
-31.033028 790.18695 1268.3719 4288448144
-28.645872 790.18695 1268.3719 4288579225
-26.258715 790.18695 1268.3719 4288842654
-10.742202 790.18695 1268.3719 4289566889
-7.161468 790.18695 1268.3719 4291738570
0 790.18695 1268.3719 4292727785
-28.557798 794.16956 1266.4978 4288579477
-26.177982 794.16956 1266.4978 4288908699
-23.798164 794.16956 1266.4978 4288843163
-11.899082 794.16956 1266.4978 4290159277
-28.557798 795.98895 1268.0319 4288578964
-26.177982 795.98895 1268.0319 4289105308
-11.899082 795.98895 1268.0319 4289764519
-28.447706 802.30371 1266.8162 4288578964
-26.077065 802.30371 1266.8162 4288578964
-22.521101 802.30371 1266.8162 4289236644
-18.965137 802.30371 1266.8162 4289565607
-16.594496 802.30371 1266.8162 4290091951
-14.223853 802.30371 1266.8162 4289765037
-11.853211 802.30371 1266.8162 4289765037
-28.447706 804.11609 1268.3444 4288578962
-26.077065 804.11609 1268.3444 4288578962
-22.521101 804.11609 1268.3444 4289170597
-18.965137 804.11609 1268.3444 4289565868
-16.594496 804.11609 1268.3444 4290092213
-14.223853 804.11609 1268.3444 4289765039
-10.667891 804.11609 1268.3444 4290027950
-7.1119266 804.11609 1268.3444 4291409599
-4.7412844 804.11609 1268.3444 4291673048
-25.976147 812.20117 1268.6213 4288973470
-22.040367 811.59937 1268.1139 4289237408
-18.891743 811.29846 1267.8602 4289566126
-16.530275 811.29846 1267.8602 4289763762
-14.168807 811.29846 1267.8602 4289698222
-11.80734 812.20117 1268.6213 4290158773
-22.34679 818.44586 1267.3464 4289172128
-18.818348 818.44586 1267.3464 4289567406
-16.466055 818.44586 1267.3464 4289633199
-14.113762 818.44586 1267.3464 4290026158
-11.761468 818.44586 1267.3464 4290026158
-30.579817 820.2442 1268.8628 4288644757
-25.875229 820.2442 1268.8628 4289039002
-22.34679 820.2442 1268.8628 4289303455
-18.818348 820.2442 1268.8628 4289830312
-16.466055 820.2442 1268.8628 4289830312
-14.113762 820.2442 1268.8628 4290092203
-11.761468 820.2442 1268.8628 4289960617
-31.533028 832.11548 1267.1001 4288975003
-7.0073395 833.90118 1268.6057 4288976287
-4.6715598 833.90118 1268.6057 4285955469
-2.3357799 833.90118 1268.6057 4281810510
-37.740364 753.78827 1271.6902 4287790214
2.4348624 753.78827 1271.6902 4292595433
-37.569725 760.84021 1269.7881 4287790731
-38.781651 762.6933 1271.3506 4287527046
2.4238532 762.6933 1271.3506 4292333027
-36.220184 770.9986 1271.8132 4287921800
-33.805504 770.07556 1271.0349 4287987088
2.4146788 770.07556 1271.0349 4292661221
4.8293576 770.9986 1271.8132 4292661737
7.2440367 770.9986 1271.8132 4292595944
-31.271559 775.58368 1269.1392 4288448148
-28.866055 775.58368 1269.1392 4288645018
-21.649542 775.58368 1269.1392 4289633197
-9.6220188 775.58368 1269.1392 4289962666
-7.2165136 775.58368 1269.1392 4292002249
-4.8110094 775.58368 1269.1392 4292989421
-2.4055047 775.58368 1269.1392 4293318386
0 775.58368 1269.1392 4292925159
-33.677063 777.42273 1270.6898 4288053901
-31.271559 777.42273 1270.6898 4288448659
-9.6220188 777.42273 1270.6898 4290028209
-7.2165136 777.42273 1270.6898 4292264915
-4.8110094 777.42273 1270.6898 4292530153
0 777.42273 1270.6898 4292793832
-33.548622 785.65088 1271.0874 4287988108
-31.152294 784.73486 1270.3149 4288382866
-9.5853214 784.73486 1270.3149 4288975531
-7.1889906 784.73486 1270.3149 4291870422
-4.7926607 784.73486 1270.3149 4292200425
-2.3963304 784.73486 1270.3149 4292989941
0 784.73486 1270.3149 4292661477
-33.420185 792.92444 1270.6802 4287987340
-31.033028 792.92444 1270.6802 4288448147
-9.548624 792.92444 1270.6802 4289173150
-7.161468 792.92444 1270.6802 4291409855
-4.774312 792.92444 1270.6802 4291936992
-2.387156 792.92444 1270.6802 4292923887
0 792.92444 1270.6802 4292792551
-30.937614 797.80835 1269.5659 4288645268
-28.557798 797.80835 1269.5659 4288644757
-26.177982 797.80835 1269.5659 4289105308
-10.709174 797.80835 1269.5659 4289632930
-30.937614 799.62775 1271.1001 4288382866
-9.5192661 799.62775 1271.1001 4289567393
-7.1394496 799.62775 1271.1001 4291278010
-4.7596331 799.62775 1271.1001 4291541205
-2.3798165 799.62775 1271.1001 4292725736
0 799.62775 1271.1001 4292595433
-30.818348 805.92847 1269.8724 4288448148
-28.447706 805.92847 1269.8724 4288578964
-26.077065 805.92847 1269.8724 4288710550
-22.521101 805.92847 1269.8724 4289105315
-18.965137 805.92847 1269.8724 4289500075
-16.594496 805.92847 1269.8724 4289763504
-14.223853 805.92847 1269.8724 4289501611
-10.667891 805.92847 1269.8724 4289896365
-7.1119266 805.92847 1269.8724 4291475651
-4.7412844 805.92847 1269.8724 4291936217
-34.374313 807.74084 1271.4006 4287987597
-30.818348 807.74084 1271.4006 4288448148
-28.447706 807.74084 1271.4006 4288578712
-26.077065 807.74084 1271.4006 4288973470
-23.706423 807.74084 1271.4006 4288711064
-10.667891 807.74084 1271.4006 4289830576
-7.1119266 807.74084 1271.4006 4291476168
-4.7412844 807.74084 1271.4006 4291608538
-2.3706422 807.74084 1271.4006 4292858349
-37.783485 815.81189 1271.6658 4287461764
-34.241283 814.90918 1270.9047 4287987341
-30.699083 814.90918 1270.9047 4288447380
-28.337614 814.90918 1270.9047 4288578458
-25.976147 814.90918 1270.9047 4288973216
-22.433945 814.00653 1270.1436 4289237921
-18.891743 814.00653 1270.1436 4289698222
-16.530275 814.00653 1270.1436 4289764015
-14.168807 814.00653 1270.1436 4290026671
-10.233027 814.60834 1270.651 4289764781
-7.0844035 815.81189 1271.6658 4290160056
-4.7229357 815.81189 1271.6658 4290820051
-2.3614678 815.81189 1271.6658 4292399083
-35.284405 823.84088 1271.8954 4288249999
-31.363914 823.24146 1271.39 4288710548
-28.227524 822.94171 1271.1372 4288842134
-25.875229 823.84088 1271.8954 4289105819
-21.954742 823.24146 1271.39 4289631912
-18.818348 822.94171 1271.1372 4289895847
-16.466055 822.94171 1271.1372 4289830054
-14.113762 822.94171 1271.1372 4290092465
-10.585321 822.94171 1271.1372 4289895342
-7.056881 822.94171 1271.1372 4289501096
-4.704587 823.84088 1271.8954 4291078858
-35.14679 830.03638 1270.5792 4288776594
-30.46055 828.245 1269.0688 4289237662
-28.117432 829.14069 1269.824 4289041054
-25.774311 829.14069 1269.824 4289172384
-18.744955 828.245 1269.0688 4290289580
-14.058716 828.245 1269.0688 4290224307
-10.934556 829.43927 1270.0757 4290224562
-7.0293579 830.03638 1270.5792 4289896618
-4.6862388 830.03638 1270.5792 4289898165
-38.957798 755.64972 1273.2598 4287527557
2.4348624 755.64972 1273.2598 4292529640
-43.827522 757.51123 1274.8293 4286803066
-41.392662 757.51123 1274.8293 4287527046
2.4348624 757.51123 1274.8293 4292333027
4.8697248 757.51123 1274.8293 4292464358
-37.569725 764.54633 1272.913 4287724423
2.4238532 764.54633 1272.913 4292464356
-41.205505 766.39941 1274.4755 4287658373
-37.569725 766.39941 1274.4755 4287790211
4.8477063 766.39941 1274.4755 4292530149
7.2715597 766.39941 1274.4755 4292596198
-36.220184 772.8446 1273.3698 4287921548
-33.805504 772.8446 1273.3698 4287987597
2.4146788 772.8446 1273.3698 4292925159
4.8293576 772.8446 1273.3698 4292792556
7.2440367 772.8446 1273.3698 4292595433
9.6587152 772.8446 1273.3698 4292595685
13.280734 772.8446 1273.3698 4292660969
-43.464222 774.69067 1274.9263 4286540410
-41.049541 774.69067 1274.9263 4287461512
-37.427521 774.69067 1274.9263 4287724423
2.4146788 774.69067 1274.9263 4292661989
4.8293576 774.69067 1274.9263 4292595433
7.2440367 774.69067 1274.9263 4292726762
9.6587152 774.69067 1274.9263 4292792294
13.280734 774.69067 1274.9263 4292660967
16.902752 774.69067 1274.9263 4292529640
19.31743 774.69067 1274.9263 4292332256
-40.893578 779.26178 1272.2404 4287460999
-36.082569 779.26178 1272.2404 4288053901
-33.677063 779.26178 1272.2404 4288053899
-31.271559 779.26178 1272.2404 4288514450
2.4055047 779.26178 1272.2404 4292595685
-40.893578 781.10083 1273.791 4287263617
-37.285324 781.10083 1273.791 4287527557
-33.677063 781.10083 1273.791 4287988108
2.4055047 781.10083 1273.791 4292595944
4.8110094 781.10083 1273.791 4292596198
7.2165136 781.10083 1273.791 4292596198
-34.746788 787.48291 1272.6321 4287921546
-4.7926607 787.48291 1272.6321 4291740388
-2.3963304 787.48291 1272.6321 4292727283
-40.737614 789.31494 1274.1768 4287263615
-38.341286 789.31494 1274.1768 4287329922
-35.944954 789.31494 1274.1768 4287856522
2.3963304 789.31494 1274.1768 4292727014
-34.2159 796.8786 1274.0142 4287922316
-7.161468 795.66199 1272.9883 4291146422
-4.774312 795.66199 1272.9883 4291936217
-2.387156 795.66199 1272.9883 4293054699
1.193578 796.57446 1273.7577 4292529640
-38.077065 803.26648 1274.1682 4287000961
-34.110703 802.65997 1273.6569 4287922061
-30.937614 801.44714 1272.6342 4288382866
-2.3798165 802.35681 1273.4011 4292659942
0 802.35681 1273.4011 4292463590
-37.930275 809.55322 1272.9287 4287329409
-34.374313 809.55322 1272.9287 4287987085
-30.818348 809.55322 1272.9287 4288512919
-28.447706 809.55322 1272.9287 4288578712
-9.4825687 809.55322 1272.9287 4289831344
-7.1119266 809.55322 1272.9287 4291476168
-4.7412844 809.55322 1272.9287 4291476696
-2.3706422 809.55322 1272.9287 4292529640
0 809.55322 1272.9287 4292398304
-45.042202 811.3656 1274.4569 4286803318
-42.671558 811.3656 1274.4569 4286803066
-40.300919 811.3656 1274.4569 4287395204
-37.930275 811.3656 1274.4569 4287461251
-7.1119266 811.3656 1274.4569 4291213249
-4.7412844 811.3656 1274.4569 4291214293
-2.3706422 811.3656 1274.4569 4292530153
0 811.3656 1274.4569 4292464095
-42.50642 817.61731 1273.188 4286934905
-40.144955 817.61731 1273.188 4287658627
-37.783485 817.61731 1273.188 4287527044
-34.241287 817.61731 1273.188 4288053132
-28.337614 817.61731 1273.188 4288841366
-9.4458714 817.61731 1273.188 4289238189
-7.0844035 817.61731 1273.188 4289961912
-4.7229357 817.61731 1273.188 4290753742
-2.3614678 817.61731 1273.188 4292661740
0 817.61731 1273.188 4292464610
-42.50642 819.42261 1274.7102 4287065721
-40.144955 819.42261 1274.7102 4287526272
-37.783485 819.42261 1274.7102 4287592067
-34.241287 819.42261 1274.7102 4288184204
-25.976147 819.42261 1274.7102 4289170329
-23.614679 819.42261 1274.7102 4289040028
-4.7229357 819.42261 1274.7102 4290884045
-2.3614678 819.42261 1274.7102 4292857836
0 819.42261 1274.7102 4292530149
-39.988991 827.43756 1274.9281 4288316560
-37.636696 826.53839 1274.1699 4288184714
-35.284405 825.63922 1273.4117 4288645522
-32.93211 825.63922 1273.4117 4288711062
-22.34679 826.53839 1274.1699 4290025128
-18.818348 827.43756 1274.9281 4290945713
-16.466055 826.53839 1274.1699 4290485932
-14.113762 827.43756 1274.9281 4290157745
-9.409174 825.63922 1273.4117 4290159023
-7.056881 825.63922 1273.4117 4289961901
-4.704587 825.63922 1273.4117 4291603139
-2.3522935 827.43756 1274.9281 4290424509
-28.117432 831.8277 1272.0896 4287919231
-10.544037 831.8277 1272.0896 4290421938
9.7761469 752.86853 1277.4548 4292661991
-46.262386 761.23413 1277.9684 4286868598
-43.827522 760.30341 1277.1836 4286869371
-41.392662 760.30341 1277.1836 4287461508
4.8697248 760.30341 1277.1836 4292332515
7.3045874 760.30341 1277.1836 4292398308
9.7394495 761.23413 1277.9684 4292265696
-43.629356 769.17896 1276.8191 4286540155
-41.205505 769.17896 1276.8191 4287461257
-38.781651 769.17896 1276.8191 4287658630
9.6954126 768.25244 1276.038 4292596198
12.119267 768.25244 1276.038 4292530149
-45.878899 776.53674 1276.4828 4286540410
-43.464222 776.53674 1276.4828 4286737019
-38.634861 776.53674 1276.4828 4287329922
4.8293576 776.53674 1276.4828 4292726760
7.2440367 776.53674 1276.4828 4292924396
9.6587152 776.53674 1276.4828 4292727014
13.280734 776.53674 1276.4828 4292661221
16.902752 776.53674 1276.4828 4292529636
19.31743 776.53674 1276.4828 4292398304
-43.299084 782.93982 1275.3417 4286737271
-40.893578 782.93982 1275.3417 4287329409
-37.285324 782.93982 1275.3417 4287593352
2.4055047 782.93982 1275.3417 4292858853
4.8110094 782.93982 1275.3417 4292727014
7.2165136 782.93982 1275.3417 4292792807
9.6220188 782.93982 1275.3417 4292596198
13.230275 782.93982 1275.3417 4292530150
-45.704586 784.77881 1276.8922 4286737525
-43.299084 784.77881 1276.8922 4286737273
-40.893578 784.77881 1276.8922 4287329411
-38.488075 784.77881 1276.8922 4287329411
2.4055047 784.77881 1276.8922 4292596198
4.8110094 784.77881 1276.8922 4292463847
7.2165136 784.77881 1276.8922 4292792556
9.6220188 784.77881 1276.8922 4292661991
19.244038 784.77881 1276.8922 4292398304
-43.133945 791.14691 1275.7214 4286606457
-40.737614 791.14691 1275.7214 4287132801
-38.341286 791.14691 1275.7214 4287329924
-35.944954 791.14691 1275.7214 4287922061
2.3963304 791.14691 1275.7214 4292594661
-45.530273 792.97894 1277.2662 4286409844
-43.133945 792.97894 1277.2662 4286606457
-40.737614 792.97894 1277.2662 4287329924
-38.341286 792.97894 1277.2662 4287068290
-35.944954 792.97894 1277.2662 4287792012
2.3963304 792.97894 1277.2662 4292397798
4.7926607 792.97894 1277.2662 4292528866
-40.58165 799.31195 1276.0659 4287395204
-38.194496 799.31195 1276.0659 4287133313
-35.807339 799.31195 1276.0659 4287791499
2.387156 799.31195 1276.0659 4292924144
4.774312 799.31195 1276.0659 4292726762
7.161468 799.31195 1276.0659 4292529640
-46.549541 801.13696 1277.6047 4286276975
-42.968807 801.13696 1277.6047 4286606457
-40.58165 801.13696 1277.6047 4287132801
2.387156 801.13696 1277.6047 4292595685
4.774312 801.13696 1277.6047 4292135141
7.161468 801.13696 1277.6047 4292266984
9.548624 801.13696 1277.6047 4292463843
-45.216515 806.90527 1277.2363 4286803318
-42.836697 806.90527 1277.2363 4286803066
-40.456882 805.99561 1276.4692 4287329410
-38.077065 805.08594 1275.7023 4287198595
1.5865444 805.69238 1276.2135 4292595680
4.7596331 806.90527 1277.2363 4292398050
-46.227524 814.08411 1276.7491 4286540146
-42.671558 813.17798 1275.9851 4286672250
-40.300919 813.17798 1275.9851 4287395717
1.5804281 813.78204 1276.4945 4292266719
4.7412844 814.99036 1277.5132 4292333029
7.1119266 814.99036 1277.5132 4292333029
9.4825687 814.99036 1277.5132 4292135134
-42.50642 821.22803 1276.2325 4287065721
-40.144955 821.22803 1276.2325 4287329149
-37.783485 821.22803 1276.2325 4287657862
-2.3614678 821.22803 1276.2325 4293842164
0 821.22803 1276.2325 4293187050
-42.50642 823.03333 1277.7548 4287526272
-40.144955 823.03333 1277.7548 4288184458
-2.3614678 823.03333 1277.7548 4293247964
0 823.03333 1277.7548 4292134362
-18.818348 829.23596 1276.4443 4292656329
-16.466055 829.23596 1276.4443 4291274676
-14.113762 829.23596 1276.4443 4290617779
-46.436699 754.737 1279.0303 4286868346
7.3321099 754.737 1279.0303 4292464358
9.7761469 754.737 1279.0303 4292201189
13.442202 754.737 1279.0303 4292661993
-48.880733 756.60547 1280.6058 4286144367
-46.436699 756.60547 1280.6058 4286999676
9.7761469 756.60547 1280.6058 4292397800
13.442202 756.60547 1280.6058 4292793322
-46.262386 763.09564 1279.538 4286803318
-43.827522 763.09564 1279.538 4286868858
9.7394495 763.09564 1279.538 4292464356
12.174312 763.09564 1279.538 4292333027
-49.688992 773.81165 1280.7252 4285882224
-46.053211 771.95856 1279.1628 4286278006
-45.878899 778.38275 1278.0393 4286737273
-43.464222 778.38275 1278.0393 4286737273
9.6587152 778.38275 1278.0393 4292333027
13.280734 778.38275 1278.0393 4292530405
16.902752 778.38275 1278.0393 4292596198
19.31743 778.38275 1278.0393 4292464610
-48.293579 780.22882 1279.5958 4286013803
-45.878899 780.22882 1279.5958 4286605940
16.902752 780.22882 1279.5958 4292924909
19.31743 780.22882 1279.5958 4292595681
-48.911926 787.84393 1279.4767 4285948267
-45.704586 787.53735 1279.2183 4286671989
-43.299084 786.61786 1278.4429 4286803064
4.8110094 787.53735 1279.2183 4292332515
7.2165136 787.53735 1279.2183 4292398308
9.6220188 787.53735 1279.2183 4292333026
21.649542 788.45691 1279.9935 4292463843
-46.728439 794.81097 1278.8109 4286276973
-43.133945 794.81097 1278.8109 4286474617
-40.737614 794.81097 1278.8109 4287329926
-38.341286 794.81097 1278.8109 4287199108
4.7926607 794.81097 1278.8109 4292595431
7.1889906 794.81097 1278.8109 4292595431
-50.322937 796.64294 1280.3556 4286013803
-46.728439 796.64294 1280.3556 4286211180
-43.133945 796.64294 1280.3556 4286605944
9.5853214 796.64294 1280.3556 4292397798
-46.549541 802.96198 1279.1434 4286408560
-42.968807 802.96198 1279.1434 4286803064
4.774312 802.96198 1279.1434 4292332259
7.161468 802.96198 1279.1434 4292332259
9.548624 802.96198 1279.1434 4292332256
-47.743118 804.78699 1280.6823 4286013803
7.161468 804.78699 1280.6823 4292332256
9.548624 804.78699 1280.6823 4292003294
-47.596329 808.72467 1278.7704 4286145389
2.3798165 808.72467 1278.7704 4292398302
4.7596331 808.72467 1278.7704 4292332256
7.1394496 808.72467 1278.7704 4292332256
9.5192661 808.72467 1278.7704 4292134880
-49.976147 810.54407 1280.3044 4286407277
4.7596331 810.54407 1280.3044 4292266209
7.1394496 810.54407 1280.3044 4292332259
10.709174 810.54407 1280.3044 4292069341
14.278899 810.54407 1280.3044 4292135134
-46.227524 817.70892 1279.8054 4286671472
2.3706422 817.70892 1279.8054 4292793063
4.7412844 817.70892 1279.8054 4292727784
7.1119266 817.70892 1279.8054 4292727784
9.4825687 817.70892 1279.8054 4292135400
-42.50642 824.83875 1279.277 4287461251
1.1807339 824.83875 1279.277 4288254626
0 826.6441 1280.7992 4282069593
-51.324772 758.474 1282.1813 4285947244
-48.880733 758.474 1282.1813 4285947496
13.442202 758.474 1282.1813 4292529634
-52.546791 760.34247 1283.7567 4285946726
-48.880733 760.34247 1283.7567 4286013803
14.66422 760.34247 1283.7567 4292398302
-48.697247 764.95709 1281.1075 4286014316
-46.262386 764.95709 1281.1075 4286606453
14.609175 764.95709 1281.1075 4292398050
-51.132111 766.8186 1282.6771 4286209649
-48.697247 766.8186 1282.6771 4285883248
-46.262386 766.8186 1282.6771 4286409592
17.044037 766.8186 1282.6771 4292595181
19.478899 766.8186 1282.6771 4292397798
-49.688992 775.66467 1282.2877 4285947758
-50.900917 777.5177 1283.8501 4285947758
-49.500916 782.07483 1281.1523 4286013292
13.280734 782.07483 1281.1523 4292530405
16.902752 782.07483 1281.1523 4292727785
-55.537613 783.9209 1282.709 4285092951
-53.122936 783.9209 1282.709 4285289823
-50.708256 783.9209 1282.709 4285948010
13.280734 783.9209 1282.709 4292661989
16.902752 783.9209 1282.709 4292793830
19.31743 783.9209 1282.709 4292595681
-52.921101 790.2959 1281.5442 4285092701
-49.312843 790.2959 1281.5442 4285948780
7.2165136 790.2959 1281.5442 4292528866
9.6220188 790.2959 1281.5442 4292333029
21.649542 790.2959 1281.5442 4292529638
-55.326607 792.13495 1283.0947 4285027156
-52.921101 792.13495 1283.0947 4285092701
-50.515594 792.13495 1283.0947 4286013803
9.6220188 792.13495 1283.0947 4292463845
12.027523 792.13495 1283.0947 4292595431
-55.115597 800.30701 1283.4451 4285289051
-52.719265 799.39099 1282.6726 4285026657
-50.322937 799.39099 1282.6726 4285947759
11.981651 799.39099 1282.6726 4292398050
-50.130276 806.61194 1282.2211 4286341484
11.93578 806.61194 1282.2211 4292332259
14.322936 806.61194 1282.2211 4292135134
-52.517429 808.43701 1283.7599 4285551968
16.710093 808.43701 1283.7599 4292332256
19.097248 808.43701 1283.7599 4292332256
21.484404 808.43701 1283.7599 4292463843
-52.355965 812.36346 1281.8385 4285749348
-49.976147 812.36346 1281.8385 4286473070
11.899082 812.36346 1281.8385 4292332256
14.278899 812.36346 1281.8385 4292398050
16.658716 812.36346 1281.8385 4292529636
19.038532 812.36346 1281.8385 4292464356
-52.355965 814.18286 1283.3726 4285947746
-49.976147 814.18286 1283.3726 4286342504
11.899082 814.18286 1283.3726 4292726762
14.278899 814.18286 1283.3726 4292135393
16.658716 814.18286 1283.3726 4291214291
19.038532 814.18286 1283.3726 4289373123
21.418348 814.18286 1283.3726 4287728041
-46.227524 820.42749 1282.0977 4287067256
2.3706422 820.42749 1282.0977 4290095036
4.7412844 820.42749 1282.0977 4288188592
-46.227524 822.23987 1283.6259 4287001463
4.7412844 822.23987 1283.6259 4284767376
7.1119266 822.23987 1283.6259 4283122295
-53.152905 754.46344 1285.34 4285552486
17.172478 754.77606 1285.6035 4292596450
19.625689 755.71381 1286.3942 4292464356
-58.656879 764.07947 1286.9076 4285223004
-56.212845 764.07947 1286.9076 4285420382
-52.954132 762.8338 1285.8573 4285618537
17.108257 762.21094 1285.3322 4292595685
19.552294 762.21094 1285.3322 4292333029
-56.001835 769.61078 1285.0314 4285288797
-52.755352 769.30054 1284.7698 4285486438
-48.697247 768.68005 1284.2466 4285685868
-55.748623 779.37079 1285.4126 4285158744
-53.324772 779.37079 1285.4126 4285420900
-55.537613 785.76697 1284.2655 4285027156
-53.122936 785.76697 1284.2655 4285092701
13.280734 785.76697 1284.2655 4292398819
16.902752 785.76697 1284.2655 4292464610
19.31743 785.76697 1284.2655 4292332256
-57.952293 787.61298 1285.822 4284829526
-55.537613 787.61298 1285.822 4285026906
13.280734 787.61298 1285.822 4292596198
16.902752 787.61298 1285.822 4292596196
19.31743 787.61298 1285.822 4292398052
-57.732109 793.974 1284.6454 4284698445
-55.326607 793.974 1284.6454 4285027410
-52.921101 793.974 1284.6454 4285092701
13.230275 793.974 1284.6454 4292397796
19.244038 793.974 1284.6454 4292134880
21.649542 793.974 1284.6454 4292266209
-61.340366 795.81299 1286.196 4284961112
-57.732109 795.81299 1286.196 4285027410
-55.326607 795.81299 1286.196 4285093203
14.433027 795.81299 1286.196 4292398050
16.838531 795.81299 1286.196 4292332256
19.244038 795.81299 1286.196 4291805658
21.649542 795.81299 1286.196 4292134880
-55.115597 803.05505 1285.7621 4285223259
-52.719265 803.05505 1285.7621 4285485921
-50.322937 802.13904 1284.9897 4286209903
11.981651 802.13904 1284.9897 4292266209
14.377981 802.13904 1284.9897 4292266463
16.774311 803.05505 1285.7621 4292069341
19.170643 803.97107 1286.5344 4292003292
21.566973 803.97107 1286.5344 4292003292
-62.066055 812.08698 1286.8374 4285290077
-58.485321 812.08698 1286.8374 4285355613
-54.904587 811.17444 1286.0681 4285684067
22.677982 811.17444 1286.0681 4290226375
-52.355965 816.91199 1285.6736 4286079332
-49.976147 816.91199 1285.6736 4286671469
7.1394496 817.82166 1286.4407 4285622922
11.105809 817.21515 1285.9293 4286412437
14.278899 816.91199 1285.6736 4284576153
16.658716 816.91199 1285.6736 4283852173
19.038532 816.91199 1285.6736 4283520125
22.608257 816.91199 1285.6736 4282598256
-46.227524 824.05225 1285.1539 4285815141
-42.671558 824.05225 1285.1539 4285617761
2.3706422 824.05225 1285.1539 4282135386
4.7412844 824.05225 1285.1539 4281673550
7.1119266 824.05225 1285.1539 4284700285
23.706423 824.05225 1285.1539 4290621141
-49.783485 825.86462 1286.6821 4285487709
23.706423 825.86462 1286.6821 4292854503
-56.423855 757.58936 1287.9755 4285289823
17.172478 757.58936 1287.9755 4292793059
-58.877064 759.46484 1289.5569 4285092699
-56.423855 759.46484 1289.5569 4285290077
-58.656879 765.94794 1288.4832 4285420382
-56.001835 772.40302 1287.3857 4285355870
-53.566971 772.40302 1287.3857 4285289827
-56.001835 774.26447 1288.9552 4285355872
-53.566971 774.26447 1288.9552 4285355620
-58.172478 783.0769 1288.5375 4284829776
-61.57431 791.30505 1288.9351 4284567638
-57.952293 789.45898 1287.3785 4284829776
14.488073 789.45898 1287.3785 4292530149
16.902752 790.38202 1288.1567 4292398307
19.31743 789.45898 1287.3785 4292266209
-64.948624 797.65204 1287.7466 4284896605
-61.340366 797.65204 1287.7466 4284830810
-57.732109 797.65204 1287.7466 4285223258
14.433027 797.65204 1287.7466 4292332254
16.838531 797.65204 1287.7466 4292266461
19.244038 797.65204 1287.7466 4292003294
21.649542 797.65204 1287.7466 4292266209
-64.948624 799.49109 1289.2972 4284896605
-61.340366 799.49109 1289.2972 4284961112
-57.732109 799.49109 1289.2972 4285223771
19.244038 799.49109 1289.2972 4292069341
21.649542 799.49109 1289.2972 4292003292
-62.304588 805.80304 1288.0791 4285158748
-58.710091 805.80304 1288.0791 4285091930
-55.115597 805.80304 1288.0791 4285486175
-62.304588 807.63507 1289.6239 4285158748
-58.710091 807.63507 1289.6239 4285223772
23.963303 807.63507 1289.6239 4292529901
-58.485321 814.82446 1289.1456 4285551967
-54.904587 814.82446 1289.1456 4285815140
-57.115597 821.46045 1289.5088 4285947244
-54.735779 820.55072 1288.7417 4286275951
-52.355965 820.55072 1288.7417 4286211175
-49.976147 820.55072 1288.7417 4286408554
10.709174 820.55078 1288.7417 4288972923
14.278899 820.55072 1288.7417 4288579263
16.658716 820.55072 1288.7417 4285092490
19.038532 820.55072 1288.7417 4285157485
22.211622 820.2475 1288.4861 4286012543
-59.097248 754.83624 1292.1943 4285092701
19.699083 754.83624 1292.1943 4292596196
-61.330276 763.21582 1292.7196 4285092699
-58.656879 767.81641 1290.0586 4285288797
-61.100918 769.68494 1291.634 4284896605
-58.656879 769.68494 1291.634 4285158748
-58.436699 776.12592 1290.5248 4284895571
-60.871559 777.98743 1292.0944 4284765016
-58.436699 777.98743 1292.0944 4284698193
-63.020184 784.92993 1290.1 4284633433
-60.596329 784.92993 1290.1 4284633433
-63.020184 786.78302 1291.6624 4284633433
-60.596329 786.78302 1291.6624 4284501847
-64.948624 802.24963 1291.6232 4285027678
-61.340366 801.33008 1290.8479 4284961115
-57.732109 801.33008 1290.8479 4285157210
-64.70092 809.46704 1291.1686 4285028191
-64.70092 811.29907 1292.7133 4285487459
-62.304588 811.29907 1292.7133 4285486173
-58.485321 817.56201 1291.4539 4285946726
-57.115597 823.27979 1291.0428 4285881964
-54.735779 823.27979 1291.0428 4285684842
-52.355965 823.27979 1291.0428 4285487709
11.899082 823.27979 1291.0428 4291802791
19.038532 823.27979 1291.0428 4289434519
21.418348 823.27979 1291.0428 4293250769
16.658716 825.09918 1292.5769 4285890968
19.038532 825.09918 1292.5769 4290616760
-61.559631 758.60126 1295.3689 4284961364
-63.783485 766.02905 1295.0917 4284830556
-61.330276 765.09131 1294.301 4284896092
-63.544952 773.42188 1294.7849 4284896603
-61.100918 772.48767 1293.9972 4284765017
-58.656879 771.55341 1293.2095 4285092701
-63.306423 779.84888 1293.6639 4284830810
-60.871559 779.84888 1293.6639 4284633687
-64.948624 805.00818 1293.9491 4285289827
-62.304588 814.04712 1295.0303 4285683553
-62.066055 821.21198 1294.5314 4286014836
14.322936 821.21198 1294.5314 4290554019
16.710093 821.21198 1294.5314 4287001454
-61.78899 753.9726 1298.0062 4285027158
-64.022018 760.48376 1296.9562 4285026906
-63.783485 768.84229 1297.4637 4284896603
-63.544952 775.29034 1296.3604 4284830810
-64.948624 810.52527 1298.601 4285683809
-64.70092 817.71118 1298.1198 4285752171
-62.304588 816.79517 1297.3474 4285947244
-59.908257 817.71118 1298.1198 4285816430
-57.291744 823.03699 1296.0702 4286145139
21.484404 823.03699 1296.0702 4293248480
-64.948624 812.36426 1300.1516 4285487457
-67.354126 814.20331 1301.7021 4286013803
-69.493576 820.45917 1300.4368 4289107116
-64.70092 820.45917 1300.4368 4285428873
-62.304588 820.45917 1300.4368 4285951353
-59.908257 820.45917 1300.4368 4285754231
-55.115597 820.45917 1300.4368 4285881967
-52.719265 820.45917 1300.4368 4285685868
-64.70092 822.2912 1301.9814 4286017928
-62.304588 822.2912 1301.9814 4285361020
-57.511925 822.2912 1301.9814 4285555832
-67.611008 809.7655 1304.5005 4285487457
-67.354126 816.96185 1304.0281 4286347911
14.433027 817.88135 1304.8035 4285496210
-64.70092 824.12317 1303.5262 4287532716
-69.759636 820.63989 1307.1294 4289504698
-67.354126 820.63989 1307.1294 4288453300
-60.939449 820.94647 1307.3878 4285822086
-55.326607 819.7204 1306.354 4285424246
-67.029358 758.26904 1309.4771 4284830810
-67.354126 823.39844 1309.4553 4289571018
-64.948624 823.39844 1309.4553 4288386487
-62.543118 823.39844 1309.4553 4287531943
-57.952293 818.99573 1312.2831 4285754751
-60.366974 820.84174 1313.8396 4286282133
21.732111 820.84174 1313.8396 4284040053
-67.354126 825.23749 1311.006 4290755287
-64.948624 825.23749 1311.006 4289899978
-53.324772 814.57886 1315.0991 4285423992
-55.748623 816.43188 1316.6616 4285886593
-65.196327 824.53381 1316.9528 4290819797
-62.781651 823.61078 1316.1746 4289571270
21.732111 823.61078 1316.1746 4288118972
24.14679 824.53381 1316.9528 4287465359
-51.132111 809.63245 1318.7766 4285488490
9.7394495 807.771 1317.207 4291079069
-58.172478 818.28497 1318.224 4285493130
-60.596329 820.13806 1319.7865 4287729838
19.390825 820.13806 1319.7865 4290816746
21.732111 826.37988 1318.5093 4282005365
24.14679 826.37988 1318.5093 4282853159
14.609175 811.4939 1320.3462 4286544759
17.044037 811.4939 1320.3462 4289242273
19.478899 811.4939 1320.3462 4290684897
21.913761 811.4939 1320.3462 4292395514
-53.566971 813.35541 1321.9156 4285950336
14.609175 813.35541 1321.9156 4287662750
17.044037 813.35541 1321.9156 4290097091
19.478899 813.35541 1321.9156 4289831639
21.913761 813.35541 1321.9156 4286673575
-60.596329 821.99109 1321.3489 4288977847
19.390825 821.99109 1321.3489 4291211495
-63.020184 823.84412 1322.9114 4291214293
-60.596329 823.84412 1322.9114 4290424778
19.390825 823.84412 1322.9114 4289176803
21.732111 829.14893 1320.844 4283057004
19.244038 838.11066 1321.8602 4292530403
-51.324772 808.9231 1324.7186 4285423992
12.220183 807.98889 1323.9309 4288778404
-56.001835 815.21686 1323.4852 4285558923
14.609175 815.21686 1323.4852 4288516040
17.044037 815.21686 1323.4852 4291213553
19.478899 815.21686 1323.4852 4290027216
-58.436699 817.07837 1325.0548 4286940828
-56.001835 817.07837 1325.0548 4286151313
17.044037 817.07837 1325.0548 4292000725
-63.020184 825.6972 1324.4739 4291477463
-60.596329 825.6972 1324.4739 4290753740
19.390825 825.6972 1324.4739 4287992244
19.31743 832.841 1323.957 4289898181
21.732111 832.841 1323.957 4290950869
9.8128443 804.47681 1327.5099 4292397536
-53.768806 812.6601 1327.8696 4286082691
12.220183 811.72583 1327.0819 4286218154
-58.436699 818.93982 1326.6244 4287925936
-56.001835 818.93982 1326.6244 4287136676
14.609175 818.93982 1326.6244 4288975464
17.044037 818.93982 1326.6244 4292462237
-58.436699 820.80127 1328.1938 4289898947
14.609175 820.80127 1328.1938 4290748854
17.044037 820.80127 1328.1938 4292327630
14.543119 827.55023 1326.0363 4282734464
16.966972 827.55023 1326.0363 4283260809
19.390825 827.55023 1326.0363 4284503685
14.543119 829.40332 1327.5988 4282796653
16.966972 829.40332 1327.5988 4286020510
16.902752 835.61011 1326.292 4292661740
-49.247707 800.01654 1330.2892 4285684588
-49.247707 801.89905 1331.8765 4285750645
9.8128443 806.35229 1329.0912 4291475401
-51.517429 808.22784 1330.6726 4285950336
9.8128443 808.22784 1330.6726 4283125907
-53.768806 814.52856 1329.4451 4286018180
14.66422 814.52856 1329.4451 4288645539
-53.768806 816.39709 1331.0205 4286478983
12.220183 816.39709 1331.0205 4284109933
-63.306423 824.52423 1331.333 4291806431
-60.871559 824.52423 1331.333 4291477209
-58.436699 822.66278 1329.7634 4290622152
13.391743 823.59351 1330.5482 4287004565
17.044037 822.66278 1329.7634 4290884831
14.543119 832.18286 1329.9424 4291609043
16.966972 831.25635 1329.1611 4292135636
-46.959633 797.43176 1334.6499 4285618795
-44.488075 797.43176 1334.6499 4285421663
-12.357799 797.43176 1334.6499 4291210432
-9.8862381 797.43176 1334.6499 4290488497
-7.4146791 797.43176 1334.6499 4289435552
-4.943119 797.43176 1334.6499 4286809238
-2.4715595 797.43176 1334.6499 4281348675
0 797.43176 1334.6499 4280693839
4.943119 797.43176 1334.6499 4283247962
7.4146791 797.43176 1334.6499 4287129749
-49.247707 803.78162 1333.4637 4285424246
-51.517429 811.04108 1333.0447 4285951618
-49.06422 811.97882 1333.8353 4286410105
12.266055 811.97882 1333.8353 4285228927
-56.212845 818.26556 1332.5959 4289043638
12.220183 818.26556 1332.5959 4286937733
-56.212845 820.13403 1334.1714 4289372341
-53.768806 820.13403 1334.1714 4288715179
12.220183 820.13403 1334.1714 4288714675
12.174312 826.38568 1332.9026 4282597516
12.174312 828.24719 1334.472 4290754508
9.6954126 834.96246 1332.2861 4291476948
12.119267 834.96246 1332.2861 4291476948
-46.959633 799.32129 1336.243 4285750645
-44.488075 799.32129 1336.243 4285554283
-17.300917 799.32129 1336.243 4287459979
-13.593578 799.32129 1336.243 4290483877
-9.8862381 799.32129 1336.243 4290883254
-7.4146791 799.32129 1336.243 4290883254
-4.943119 799.32129 1336.243 4288255141
-2.4715595 799.32129 1336.243 4283254874
0 799.32129 1336.243 4282728791
4.943119 799.32129 1336.243 4287193464
7.4146791 799.32129 1336.243 4292654282
-46.959633 801.21082 1337.8363 4285424246
-19.772476 801.21082 1337.8363 4285487459
-17.300917 801.21082 1337.8363 4286737525
-13.593578 801.21082 1337.8363 4288842650
-9.8862381 801.21082 1337.8363 4290948262
-7.4146791 801.21082 1337.8363 4291540655
-4.943119 801.21082 1337.8363 4289304234
-2.4715595 801.21082 1337.8363 4283909208
0 801.21082 1337.8363 4282466907
4.943119 801.21082 1337.8363 4285815417
7.4146791 801.21082 1337.8363 4291868373
-49.247707 805.66412 1335.051 4285753204
-49.247707 807.54663 1336.6384 4286278008
9.8495417 807.54663 1336.6384 4282599773
-52.335163 815.10468 1336.4709 4286743183
9.8128443 814.79211 1336.2074 4283583067
-63.544952 823.87103 1337.3223 4292267747
-61.100918 823.87103 1337.3223 4291675610
-58.656879 822.93677 1336.5345 4291082965
-56.212845 822.93677 1336.5345 4290293193
-52.546787 822.93677 1336.5345 4289635515
9.7761469 822.93677 1336.5345 4283848059
9.7394495 830.10864 1336.0416 4291937501
12.174312 830.10864 1336.0416 4291871708
7.3045874 831.97009 1337.6112 4291607764
-42.203671 793.38098 1339.0825 4285618530
-39.7211 793.38098 1339.0825 4285487452
-37.238533 793.38098 1339.0825 4285750624
-34.755962 794.32996 1339.8827 4285553000
-32.273396 794.32996 1339.8827 4285881964
-17.377981 794.32996 1339.8827 4291143608
-14.895412 794.32996 1339.8827 4290815674
2.4825687 794.32996 1339.8827 4281417562
-46.959633 803.10034 1339.4294 4285753204
-44.488075 803.10034 1339.4294 4285621875
-22.244038 803.10034 1339.4294 4286277495
-19.772476 803.10034 1339.4294 4285949041
-17.300917 803.10034 1339.4294 4285883248
-13.593578 803.10034 1339.4294 4285885047
-9.8862381 803.10034 1339.4294 4288708754
-7.4146791 803.10034 1339.4294 4291142838
-4.943119 803.10034 1339.4294 4289435818
-2.4715595 803.10034 1339.4294 4283448655
0 803.10034 1339.4294 4282334035
4.943119 803.10034 1339.4294 4283451494
7.4146791 803.10034 1339.4294 4284043887
-46.78532 809.42914 1338.2256 4286147190
9.8495417 809.42914 1338.2256 4283320930
-49.247707 811.31165 1339.813 4286213755
-46.78532 811.31165 1339.813 4286279804
-24.623854 811.31165 1339.813 4286738044
-22.161469 811.31165 1339.813 4286738044
-19.699083 811.31165 1339.813 4286607739
-17.236698 811.31165 1339.813 4286804861
-13.543119 811.31165 1339.813 4286607738
-9.8495417 811.31165 1339.813 4286605690
7.387156 811.31165 1339.813 4283124832
-51.517429 817.60535 1338.5795 4287333526
-49.06422 817.60535 1338.5795 4286872737
9.8128443 817.60535 1338.5795 4282990684
-49.06422 819.48083 1340.1609 4288189615
-46.611008 819.48083 1340.1609 4287202720
-44.157799 819.48083 1340.1609 4286873990
-19.625689 819.48083 1340.1609 4287397514
-17.172478 819.48083 1340.1609 4286936963
-13.492661 819.48083 1340.1609 4285752684
-9.8128443 819.48083 1340.1609 4286473307
7.359633 819.48083 1340.1609 4286476682
-58.656879 825.7395 1338.8978 4291215838
-56.212845 826.67371 1339.6855 4290820568
-52.546791 826.67371 1339.6855 4290557901
-48.880733 826.67371 1339.6855 4290095297
-46.436699 827.60797 1340.4733 4289437103
-43.992661 827.60797 1340.4733 4288583089
-41.548622 827.60797 1340.4733 4287990952
-13.442202 825.7395 1338.8978 4288644478
7.3321099 827.60797 1340.4733 4292003292
9.7761469 825.7395 1338.8978 4291017680
4.8697248 833.8316 1339.1807 4291278805
7.3045874 833.8316 1339.1807 4291476185
-34.884403 789.84021 1342.6372 4286342254
-32.392662 789.84021 1342.6372 4286276461
-42.203671 796.22791 1341.483 4285554283
-39.7211 796.22791 1341.483 4285882214
-37.238533 796.22791 1341.483 4285948008
-34.755962 796.22791 1341.483 4286078824
-32.273396 796.22791 1341.483 4285947494
-28.549541 796.22791 1341.483 4285749348
-24.825687 796.22791 1341.483 4285027939
-22.343119 796.22791 1341.483 4285422697
-19.86055 796.22791 1341.483 4286144119
2.4825687 796.22791 1341.483 4283123549
-43.444954 798.12585 1343.0833 4285751662
-39.7211 798.12585 1343.0833 4285817455
-37.238533 798.12585 1343.0833 4285883248
-34.755962 798.12585 1343.0833 4285947758
-32.273396 798.12585 1343.0833 4286013551
-28.549541 798.12585 1343.0833 4285881460
-24.825687 798.12585 1343.0833 4285356400
-22.343119 798.12585 1343.0833 4285356400
2.4825687 798.12585 1343.0833 4282927458
-46.959633 804.98987 1341.0227 4286211959
-43.252296 805.93457 1341.8193 4286211956
-39.544952 805.93463 1341.8193 4286212212
-32.130276 806.87939 1342.6158 4286278006
-28.422935 806.87939 1342.6158 4286343801
-24.715597 805.93463 1341.8193 4286278011
-22.244038 805.93463 1341.8193 4286343805
-19.772476 805.93463 1341.8193 4286409598
-17.300917 805.93463 1341.8193 4286475647
-13.593578 805.93463 1341.8192 4286409854
-9.8862381 805.93463 1341.8193 4286738559
-7.4146791 805.93463 1341.8193 4289764780
-4.943119 805.93463 1341.8193 4289108398
-2.4715595 805.93463 1341.8193 4284634473
0.82385319 805.61969 1341.5537 4283451750
4.943119 805.93463 1341.8193 4283387240
7.4146791 805.93463 1341.8193 4283124068
-49.247707 813.19415 1341.4003 4286741135
-46.78532 814.13538 1342.1938 4286543764
-44.322937 815.07666 1342.9875 4286870910
-24.623854 814.13538 1342.1938 4286673530
-22.161469 814.13538 1342.1938 4286870909
-19.699083 814.13538 1342.1938 4286870911
-17.236698 814.13538 1342.1938 4286805630
-13.543119 814.13538 1342.1938 4286541690
-9.8495417 814.13538 1342.1938 4285883246
-7.387156 814.13538 1342.1938 4288712601
4.9247708 813.19415 1341.4003 4284309109
7.387156 814.13538 1342.1938 4282334043
-49.06422 821.35632 1341.7422 4289241525
-46.611008 821.35632 1341.7422 4287925408
-44.157799 821.35632 1341.7422 4287268235
-41.704586 821.35632 1341.7422 4286741635
-19.625689 821.35632 1341.7422 4287002499
-17.172478 821.35632 1341.7422 4286410105
-13.492661 821.35632 1341.7422 4286145902
-9.8128443 821.35632 1341.7422 4287854219
-7.359633 821.35632 1341.7422 4291867849
-4.9064221 821.35632 1341.7422 4292396505
4.9064221 821.35632 1341.7422 4291807196
7.359633 821.35632 1341.7422 4288451753
-46.611008 823.23181 1343.3236 4288977593
-44.157799 823.23181 1343.3236 4288254889
-41.704586 823.23181 1343.3236 4287728545
-22.078899 823.23181 1343.3236 4286146156
-19.625689 823.23181 1343.3236 4285357154
-17.172478 823.23181 1343.3236 4285554789
-9.8128443 823.23181 1343.3236 4291537584
-7.359633 823.23181 1343.3236 4292458686
-4.9064221 823.23181 1343.3236 4291935702
4.9064221 823.23181 1343.3236 4291805658
7.359633 823.23181 1343.3236 4291608536
-41.548622 829.47644 1342.0487 4287134878
-12.220183 829.47644 1342.0487 4291805386
0 829.47644 1342.0487 4291607766
4.8880734 829.47644 1342.0487 4291344848
1.2220184 831.34497 1343.6241 4291542230
-28.655045 791.74518 1344.2434 4287132270
-19.933945 791.74518 1344.2434 4291472573
-42.203671 800.0238 1344.6836 4285621875
-39.7211 800.0238 1344.6836 4285556336
-37.238533 800.0238 1344.6836 4285622129
-34.755962 800.0238 1344.6836 4285949041
-32.273396 800.0238 1344.6836 4285949041
-28.549541 800.0238 1344.6836 4285948793
-24.825687 800.0238 1344.6836 4286211445
2.4825687 800.0238 1344.6836 4283320930
-37.238533 801.92175 1346.2839 4286146419
-34.755962 801.92175 1346.2839 4286146419
-32.273396 801.92175 1346.2839 4286146419
-28.549541 801.92175 1346.2839 4286146166
-43.252296 808.76892 1344.2091 4286540664
-39.544952 808.76892 1344.2091 4286344312
-34.601833 808.76892 1344.2091 4286344564
-32.130276 808.76892 1344.2091 4286344564
-28.422935 808.76892 1344.2091 4286344312
-7.4146791 808.76892 1344.2091 4288842652
-4.943119 808.76892 1344.2091 4289566641
-2.4715595 808.76892 1344.2091 4289566641
1.2357798 808.76892 1344.2091 4285357435
4.943119 808.76892 1344.2091 4282730074
-43.252296 810.65845 1345.8022 4286672251
-39.544952 810.65845 1345.8022 4286541946
-37.073395 810.65845 1345.8022 4286476152
-34.601833 810.65845 1345.8022 4286541946
-32.130276 810.65845 1345.8022 4286410359
-28.422935 810.65845 1345.8022 4286410362
-4.943119 810.65845 1345.8022 4290553016
-2.4715595 810.65845 1345.8022 4292526806
1.2357798 810.65845 1345.8022 4289436597
-40.21896 817.58673 1345.1039 4286673540
-28.317432 818.84167 1346.1621 4287133313
-24.623854 817.90045 1345.3684 4287003010
-22.161469 817.90045 1345.3684 4287003010
-7.387156 816.95923 1344.5748 4291013024
-4.9247708 816.95923 1344.5748 4291870157
-2.4623854 817.90045 1345.3684 4292330966
1.2311927 817.90051 1345.3684 4292003036
4.9247708 816.95923 1344.5748 4291213778
-19.625689 826.0451 1345.6957 4288250515
-17.172478 826.0451 1345.6957 4289829547
-13.901528 825.73248 1345.4321 4290817206
-9.8128443 826.0451 1345.6957 4291739091
-7.359633 826.0451 1345.6957 4291870676
-4.9064221 826.0451 1345.6957 4291673812
-2.4532111 826.0451 1345.6957 4291608019
1.6354741 825.73248 1345.4321 4291542488
4.9064221 825.10736 1344.905 4291542741
-25.009174 789.16034 1348.6042 4289236867
-22.508257 789.16034 1348.6042 4291144864
-37.238533 803.8197 1347.8842 4286278006
-34.755962 803.8197 1347.8842 4286343799
2.4825687 803.8197 1347.8842 4283842659
-37.238533 805.71765 1349.4845 4286344312
-42.016514 812.54797 1347.3955 4286607739
-39.544952 812.54797 1347.3955 4286738046
-37.073395 812.54797 1347.3955 4286869375
-34.601833 812.54797 1347.3955 4286738555
-32.130276 812.54797 1347.3955 4286738555
-28.422935 812.54797 1347.3955 4286607739
-4.943119 812.54797 1347.3955 4291673509
-2.4715595 812.54797 1347.3955 4293120955
1.2357798 812.54797 1347.3955 4290949824
4.943119 812.54797 1347.3955 4286346138
-37.073395 814.4375 1348.9886 4286934403
-34.601833 814.4375 1348.9886 4287000448
-32.130276 814.4375 1348.9886 4287066241
-28.422935 814.4375 1348.9886 4286870910
-39.398167 820.72424 1347.7494 4287267992
-36.93578 820.72424 1347.7494 4286873235
-28.317432 820.72424 1347.7494 4286935418
-24.623854 820.72424 1347.7494 4286606707
-2.4623854 820.72424 1347.7494 4291935702
1.2311927 820.72424 1347.7494 4291411668
-39.398167 822.60675 1349.3367 4287135893
-27.086239 822.60675 1349.3367 4286474356
-24.623854 822.60675 1349.3367 4286144869
-22.161469 822.60675 1349.3367 4285684318
-17.172478 828.85834 1348.0677 4292198869
-13.083793 829.48346 1348.5948 4291805139
-9.8128443 828.85834 1348.0677 4291608790
-7.359633 828.85834 1348.0677 4291476948
-4.9064221 828.85834 1348.0677 4291345107
-2.4532111 828.85834 1348.0677 4291345107
-27.631193 784.13818 1352.2178 4288840333
-25.119267 784.13818 1352.2178 4290350746
-22.60734 784.13818 1352.2178 4292324536
-37.073395 816.32703 1350.5819 4286804109
-34.601833 817.27179 1351.3784 4287198853
-32.130276 817.27179 1351.3784 4287133317
-39.398167 824.48926 1350.924 4286411141
-27.086239 824.48926 1350.924 4288580500
-22.161469 824.48926 1350.924 4290553517
-32.011009 826.37177 1352.5112 4289040549
-27.086239 826.37177 1352.5112 4290686139
-19.699083 826.37177 1352.5112 4292198869
-37.073395 821.05084 1354.5649 4286477449
-34.601833 821.05084 1354.5649 4286540929
-32.130276 821.05084 1354.5649 4286606722
-29.658716 821.05084 1354.5649 4287000955
