# .PCD v0.7 - Point Cloud Data file format
VERSION 0.7
FIELDS x y z rgb
SIZE 4 4 4 4
TYPE F F F U
COUNT 1 1 1 1
WIDTH 1160
HEIGHT 1
VIEWPOINT 0 0 0 1 0 0 0
POINTS 1160
DATA ascii
-9.6220188 763.63 1259.0601 4290690526
-26.359632 770.99475 1258.7297 4289110469
-22.765137 770.99475 1258.7297 4289308361
-16.774311 770.99475 1258.7297 4290163670
-16.594496 793.24188 1259.1754 4290031830
-2.3174312 839.08484 1259.8962 4292862207
-33.805504 758.07629 1260.9175 4288320431
-31.390825 758.07629 1260.9175 4288780982
-28.976147 758.07629 1260.9175 4288780732
-19.31743 758.07629 1260.9175 4289966289
-16.902752 758.07629 1260.9175 4290361046
-14.488073 758.07629 1260.9175 4290230228
-7.2440367 758.07629 1260.9175 4287532947
-4.8293576 758.07629 1260.9175 4286744717
0 758.07629 1260.9175 4293586431
-33.805504 759.92236 1262.474 4288320685
-31.390825 759.92236 1262.474 4288649393
-28.976147 759.92236 1262.474 4288648893
-26.561468 759.92236 1262.474 4289307080
-7.2440367 759.92236 1262.474 4291612133
-4.8293576 759.92236 1262.474 4292138979
-2.4146788 759.92236 1262.474 4294046975
0 759.92236 1262.474 4294571775
-31.271559 766.38855 1261.3861 4288845743
-28.866055 766.38855 1261.3861 4288452030
-25.257797 766.38855 1261.3861 4289110214
-21.649542 766.38855 1261.3861 4289768140
-19.244038 766.38855 1261.3861 4289768144
-16.838531 766.38855 1261.3861 4290228695
-13.230275 766.38855 1261.3861 4290229458
-9.6220188 766.38855 1261.3861 4290690791
-7.2165136 766.38855 1261.3861 4293059327
-38.488075 768.2276 1262.9366 4287464356
-33.677063 768.2276 1262.9366 4288188583
-31.271559 768.2276 1262.9366 4289109685
-28.866055 768.2276 1262.9366 4288781247
-19.244038 768.2276 1262.9366 4289637326
-13.230275 768.2276 1262.9366 4290098643
-9.6220188 768.2276 1262.9366 4290231525
-7.2165136 768.2276 1262.9366 4292731647
-4.8110094 768.2276 1262.9366 4293519615
-2.4055047 768.2276 1262.9366 4293848575
0 768.2276 1262.9366 4293783295
-26.359632 772.82678 1260.2744 4289044422
-22.765137 772.82678 1260.2744 4289308361
-19.170643 772.82678 1260.2744 4289571533
-16.774311 772.82678 1260.2744 4290163670
-28.755962 774.65881 1261.8191 4288386489
-26.359632 774.65881 1261.8191 4289044420
-22.765137 774.65881 1261.8191 4289308361
-19.170643 774.65881 1261.8191 4289637324
-16.774311 774.65881 1261.8191 4290229461
-22.677982 781.97449 1261.4474 4289373900
-19.097248 781.97449 1261.4474 4289505487
-16.710093 782.88696 1262.2168 4290031832
-23.798164 788.71143 1261.8956 4289505225
-16.658716 788.71143 1261.8956 4290031832
-14.278899 788.71143 1261.8956 4289901014
-22.521101 796.86664 1262.2317 4289374413
-18.965137 796.86664 1262.2317 4289637837
-16.594496 795.96045 1261.4677 4289769425
-14.223853 795.96045 1261.4677 4289769432
-11.853211 796.86664 1262.2317 4290230240
-10.511009 826.7583 1262.583 4289965775
-7.0073395 826.7583 1262.583 4290690012
-9.3064222 834.71423 1262.7512 4290097875
-6.9798164 834.71423 1262.7512 4291282148
-4.6532111 834.71423 1262.7512 4291414766
-41.205505 754.35449 1264.3196 4287399585
-37.569725 754.35449 1264.3196 4287859892
-33.933945 753.42798 1263.5383 4288188594
-2.4238532 754.35449 1264.3196 4291876059
1.2119266 754.35449 1264.3196 4293192447
-33.805504 761.76837 1264.0305 4288188329
-7.2440367 761.76837 1264.0305 4292664063
-4.8293576 761.76837 1264.0305 4293847807
-2.4146788 761.76837 1264.0305 4294768895
0 761.76837 1264.0305 4294243327
-41.049541 763.61444 1265.587 4287464604
-37.427521 763.61444 1265.587 4287793319
-33.805504 763.61444 1265.587 4288253606
-4.8293576 763.61444 1265.587 4293520127
-2.4146788 763.61444 1265.587 4293783551
0 763.61444 1265.587 4293652223
16.902752 763.61444 1265.587 4293585919
19.31743 763.61444 1265.587 4293191423
-40.893578 770.06665 1264.4873 4287333276
-37.285324 770.06665 1264.4873 4287661735
-33.677063 770.06665 1264.4873 4288254124
-31.271559 770.06665 1264.4873 4288648882
-28.866055 770.06665 1264.4873 4288452284
-13.230275 770.06665 1264.4873 4290033361
-9.6220188 770.06665 1264.4873 4289968867
-7.2165136 770.06665 1264.4873 4292600575
-4.8110094 770.06665 1264.4873 4293454335
-2.4055047 770.06665 1264.4873 4293651967
0 770.06665 1264.4873 4293454079
-31.152294 776.49084 1263.3638 4288385976
-28.755962 776.49084 1263.3638 4288386487
-26.359632 776.49084 1263.3638 4289110467
-22.765137 776.49084 1263.3638 4289373900
-19.170643 776.49084 1263.3638 4289702349
-16.774311 776.49084 1263.3638 4290162900
-31.152294 778.32281 1264.9086 4288648895
-28.755962 778.32281 1264.9086 4288386741
-26.359632 778.32281 1264.9086 4289110465
-16.774311 778.32281 1264.9086 4290097623
-14.377981 778.32281 1264.9086 4289966035
-10.783486 778.32281 1264.9086 4290098906
-7.1889906 778.32281 1264.9086 4292402687
-26.258715 784.71198 1263.7555 4288978626
-22.677982 784.71198 1263.7555 4289571265
-19.097248 784.71198 1263.7555 4289571029
-16.710093 784.71198 1263.7555 4290097373
-14.322936 784.71198 1263.7555 4289835219
-28.645872 786.53699 1265.2943 4288386489
-26.258715 786.53699 1265.2943 4289044420
-21.484404 786.53699 1265.2943 4289702347
-19.097248 786.53699 1265.2943 4289242316
-10.742202 786.53699 1265.2943 4290033625
-7.161468 786.53699 1265.2943 4292139770
-4.774312 786.53699 1265.2943 4292993279
-22.608257 790.53076 1263.4297 4289439693
-19.038532 790.53076 1263.4297 4289637072
-14.278899 790.53076 1263.4297 4289900762
-11.899082 790.53076 1263.4297 4290229727
-28.557798 792.35016 1264.9637 4288452282
-26.177982 792.35016 1264.9637 4289110469
-22.608257 792.35016 1264.9637 4289242829
-19.038532 792.35016 1264.9637 4289637839
-10.709174 792.35016 1264.9637 4289967834
-7.1394496 792.35016 1264.9637 4291877366
-4.7596331 792.35016 1264.9637 4292533503
-2.3798165 792.35016 1264.9637 4293191423
0 792.35016 1264.9637 4293191423
-30.818348 800.49133 1265.2881 4288320433
-28.447706 799.58514 1264.5239 4288255422
-26.077065 799.58514 1264.5239 4289242317
-22.521101 799.58514 1264.5239 4289505738
-18.965137 799.58514 1264.5239 4289506248
-16.594496 799.58514 1264.5239 4289834956
-14.223853 799.58514 1264.5239 4289638097
-10.66789 799.58514 1264.5239 4289770710
-7.1119266 799.58514 1264.5239 4291745272
-4.7412844 799.58514 1264.5239 4292533502
-2.3706422 800.49133 1265.2881 4293191679
0 800.49133 1265.2881 4293191423
-28.337614 806.7851 1264.0547 4288189615
-33.060551 808.59045 1265.5769 4288056495
-30.699083 808.59045 1265.5769 4288582839
-28.337614 808.59045 1265.5769 4288386993
-25.976147 808.59045 1265.5769 4289242046
-22.433945 808.59045 1265.5769 4289505740
-18.891743 808.59045 1265.5769 4289570247
-16.530275 808.59045 1265.5769 4290030798
-14.168807 808.59045 1265.5769 4289834450
-30.579817 816.64746 1265.8301 4288452534
-28.227524 816.64746 1265.8301 4288518327
-25.875229 816.64746 1265.8301 4289439429
-22.34679 816.64746 1265.8301 4289636304
-18.818348 816.64746 1265.8301 4289833424
-16.466055 816.64746 1265.8301 4290030546
-14.113762 816.64746 1265.8301 4290095574
-10.585321 816.64746 1265.8301 4289636563
-7.056881 816.64746 1265.8301 4291217135
-4.704587 816.64746 1265.8301 4291744764
-2.3522935 816.64746 1265.8301 4293455103
-14.058716 821.07971 1263.0272 4290358996
-11.715596 821.07971 1263.0272 4290161874
-7.0293579 821.07971 1263.0272 4290822631
-23.431192 822.87103 1264.5376 4289438925
-18.744955 822.87103 1264.5376 4290162639
-16.401834 822.87103 1264.5376 4290294225
-14.058716 822.87103 1264.5376 4290425043
-10.544037 822.87103 1264.5376 4289965521
-7.0293579 822.87103 1264.5376 4290558687
-4.6862388 822.87103 1264.5376 4291086582
-2.3431194 822.87103 1264.5376 4292994559
-35.036697 830.32977 1265.5945 4288976298
-31.533028 830.32977 1265.5945 4289044142
-14.014679 830.32977 1265.5945 4290491095
-10.511009 829.43689 1264.8416 4290163154
-7.0073395 829.43689 1264.8416 4290953183
-4.6715598 829.43689 1264.8416 4291414770
-2.3357799 829.43689 1264.8416 4293125375
-4.6532111 836.49298 1264.251 4291348973
0 836.49298 1264.251 4292731135
-41.205505 758.06067 1267.4445 4287333788
-37.569725 758.06061 1267.4445 4287728047
2.4238532 758.06067 1267.4445 4293913855
4.8477063 758.98718 1268.2257 4293586431
7.2715597 758.98718 1268.2257 4293586431
14.543119 758.98718 1268.2257 4293520127
16.966972 758.98718 1268.2257 4293520127
-45.878899 767.30652 1268.7001 4286544524
-43.464222 766.38348 1267.9219 4286741138
-41.049541 765.46045 1267.1436 4287464604
-36.220184 765.46045 1267.1436 4287661735
2.4146788 766.38348 1267.9219 4293585919
4.8293576 766.38348 1267.9219 4293454079
16.902752 765.46045 1267.1436 4293652223
-43.299084 773.74469 1267.5885 4286741400
-40.893578 773.74469 1267.5885 4287333538
-37.285324 772.8252 1266.8132 4287662251
-33.677063 772.8252 1266.8132 4287991214
-31.271559 771.90564 1266.038 4288320433
-13.230275 772.8252 1266.8132 4290098384
-9.6220188 772.8252 1266.8132 4290165731
-7.2165136 772.8252 1266.8132 4292600063
-4.8110094 772.8252 1266.8132 4293191423
-2.4055047 772.8252 1266.8132 4293520639
0 772.8252 1266.8132 4293256959
-40.737614 781.98688 1267.9979 4287662750
-34.347401 781.37622 1267.483 4288057264
-31.152294 781.07086 1267.2256 4288583097
-28.755962 781.07086 1267.2256 4288386488
-26.359632 780.15485 1266.4532 4289044674
-14.377981 780.15485 1266.4532 4289835473
-10.783486 781.07086 1267.2256 4289967832
-7.1889906 781.07086 1267.2256 4292205567
-4.7926607 781.07086 1267.2256 4293059327
-2.3963304 781.07086 1267.2256 4293519871
0 781.07086 1267.2256 4293191679
21.566973 781.98688 1267.9979 4293520639
-31.033028 788.36194 1266.8331 4288583348
-28.645872 788.36194 1266.8331 4288320696
-26.258715 788.36194 1266.8331 4289110469
-9.548624 788.36194 1266.8331 4289837269
-7.161468 788.36194 1266.8331 4292073975
-4.774312 788.36194 1266.8331 4292861951
-2.387156 788.36194 1266.8331 4293519615
0 788.36194 1266.8331 4293323263
-33.420185 790.18695 1268.3719 4287925929
-31.033028 790.18695 1268.3719 4288583602
-30.937614 794.16956 1266.4978 4288452273
-28.557798 794.16956 1266.4978 4288321468
-26.177982 794.16956 1266.4978 4289176521
-9.5192661 794.16956 1266.4978 4289640404
-7.1394496 794.16956 1266.4978 4291811573
-4.7596331 794.16956 1266.4978 4292664575
-2.3798165 794.16956 1266.4978 4293191167
0 794.16956 1266.4978 4293191423
-33.317432 795.98895 1268.0319 4287531684
-30.937614 795.98895 1268.0319 4288123822
-2.3798165 795.98895 1268.0319 4293256959
0 795.98895 1268.0319 4292862207
-33.188992 802.30371 1266.8162 4287794089
-30.818348 802.30371 1266.8162 4288386226
-28.447706 802.30371 1266.8162 4288320696
-26.077065 802.30371 1266.8162 4289241798
-22.521101 802.30371 1266.8162 4289374154
-18.965137 802.30371 1266.8162 4289571531
-16.594496 802.30371 1266.8162 4289966289
-14.223853 802.30371 1266.8162 4289703630
-10.667891 802.30371 1266.8162 4290099159
-7.1119266 802.30371 1266.8162 4291810035
-4.7412844 802.30371 1266.8162 4291810558
-2.3706422 802.30371 1266.8162 4292994559
0 802.30371 1266.8162 4293257215
-37.930275 804.11609 1268.3444 4287464356
-34.374313 804.11609 1268.3444 4287925163
-30.818348 804.11609 1268.3444 4288386226
-26.077065 804.11609 1268.3444 4289110717
-22.521101 804.11609 1268.3444 4289439947
-18.965137 804.11609 1268.3444 4289767629
-16.594496 804.11609 1268.3444 4290162387
-14.223853 804.11609 1268.3444 4289834446
-10.667891 804.11609 1268.3444 4290033366
-7.1119266 804.11609 1268.3444 4291613426
-4.7412844 804.11609 1268.3444 4291941887
-2.3706422 804.11609 1268.3444 4292994559
0 804.11609 1268.3444 4293191423
-37.783485 812.20117 1268.6213 4287530147
-34.241287 811.29846 1267.8602 4288056750
-30.699083 811.29846 1267.8602 4288780219
-28.337614 811.29846 1267.8602 4288452788
-25.976147 811.29846 1267.8602 4289308097
-22.433945 811.29846 1267.8602 4289702352
-18.891743 811.29846 1267.8602 4289899470
-16.530275 811.29846 1267.8602 4289965264
-14.168807 811.29846 1267.8602 4290031061
-11.020184 811.59937 1268.1139 4290031574
-7.0844035 811.29846 1267.8602 4291546350
-4.7229357 811.29846 1267.8602 4292007931
-2.3614678 811.29846 1267.8602 4293126143
0 812.20117 1268.6213 4292928767
-31.755962 818.44586 1267.3464 4288189614
-28.227524 818.44586 1267.3464 4288846525
-25.875229 818.44586 1267.3464 4289504454
-22.34679 818.44586 1267.3464 4289701583
-18.818348 818.44586 1267.3464 4289768144
-16.466055 818.44586 1267.3464 4290031317
-9.409174 818.44586 1267.3464 4289177807
-4.704587 818.44586 1267.3464 4291218680
-2.3522935 818.44586 1267.3464 4292797951
0 818.44586 1267.3464 4292862463
-35.284405 820.2442 1268.8628 4288254889
-31.755962 820.2442 1268.8628 4288386991
-28.227524 820.2442 1268.8628 4288847040
-25.875229 820.2442 1268.8628 4289439177
-21.170643 820.2442 1268.8628 4290162648
0 820.2442 1268.8628 4293125375
-18.744955 824.66235 1266.048 4289833937
-16.401834 824.66235 1266.048 4290228695
-14.058716 824.66235 1266.048 4290294225
-4.6862388 824.66235 1266.048 4290954481
-2.3431194 824.66235 1266.048 4292994047
-30.46055 826.45374 1267.5583 4289043640
-28.117432 826.45374 1267.5583 4288912822
-25.774311 826.45374 1267.5583 4289702338
-22.259632 826.45374 1267.5583 4290161878
-18.744955 826.45374 1267.5583 4290425556
-16.401834 826.45374 1267.5583 4290293971
-14.058716 826.45374 1267.5583 4290425554
0 826.45374 1267.5583 4293060351
-28.029358 832.11548 1267.1001 4289241785
-25.693579 832.11548 1267.1001 4290228680
-14.014679 832.11548 1267.1001 4290556631
-11.678899 832.11548 1267.1001 4290490582
-2.3357799 832.11548 1267.1001 4293059583
1.16789 833.0083 1267.8529 4292797183
-51.132111 753.78827 1271.6902 4285623172
-48.697247 753.78827 1271.6902 4286214276
-46.262386 753.78827 1271.6902 4286806412
-43.827522 753.78827 1271.6902 4286544274
4.8697248 753.78827 1271.6902 4293586431
7.3045874 753.78827 1271.6902 4293586431
9.7394495 753.78827 1271.6902 4293651711
13.391743 753.78827 1271.6902 4293388287
17.044037 753.78827 1271.6902 4293585663
-43.629356 760.84021 1269.7881 4286609295
2.4238532 760.84021 1269.7881 4293652223
4.8477063 760.84021 1269.7881 4293520639
7.2715597 760.84021 1269.7881 4293520639
9.6954126 760.84021 1269.7881 4293651711
13.331193 760.84021 1269.7881 4293585919
-46.053211 762.6933 1271.3506 4286675090
7.2715597 762.6933 1271.3506 4293585919
9.6954126 762.6933 1271.3506 4293585919
13.331193 762.6933 1271.3506 4293651967
19.390825 762.6933 1271.3506 4293454591
-48.293579 770.9986 1271.8132 4285820798
-45.878899 770.07556 1271.0349 4286610569
-43.464222 769.15259 1270.2567 4286741398
-41.049541 769.15259 1270.2567 4287333536
2.4146788 770.07556 1271.0349 4293125375
4.8293576 770.07556 1271.0349 4293191167
7.2440367 770.07556 1271.0349 4293585919
9.6587152 770.9986 1271.8132 4293586431
13.280734 770.9986 1271.8132 4293389055
16.902752 770.9986 1271.8132 4293323263
19.31743 770.07556 1271.0349 4293256703
21.732111 770.9986 1271.8132 4293322239
-45.704586 775.58368 1269.1392 4286544778
-43.299084 775.58368 1269.1392 4286676377
-40.893578 775.58368 1269.1392 4287334051
-37.285324 775.58368 1269.1392 4287596707
-33.677063 775.58368 1269.1392 4287990966
-4.8110094 775.58368 1269.1392 4293125119
-2.4055047 775.58368 1269.1392 4293585663
0 775.58368 1269.1392 4293454591
19.244038 775.58368 1269.1392 4293388287
21.649542 775.58368 1269.1392 4293519871
-45.704586 777.42273 1270.6898 4286544526
-43.299084 777.42273 1270.6898 4286478740
-40.893578 777.42273 1270.6898 4287334049
-37.285324 777.42273 1270.6898 4287597223
2.4055047 777.42273 1270.6898 4292928767
4.8110094 777.42273 1270.6898 4292993791
14.433027 777.42273 1270.6898 4293322239
16.838531 777.42273 1270.6898 4293454079
19.244038 777.42273 1270.6898 4293191423
21.649542 777.42273 1270.6898 4293454591
-43.133945 785.65088 1271.0874 4286741396
-40.737614 784.73486 1270.3149 4287333790
-38.341286 784.73486 1270.3149 4287333284
-34.746788 784.73486 1270.3149 4287991469
-31.152294 783.81885 1269.5426 4288583348
-2.3963304 783.81885 1269.5426 4293519615
0 783.81885 1269.5426 4293323263
-40.58165 792.92444 1270.6802 4287136409
-38.194496 792.92444 1270.6802 4287267237
-35.011623 792.6203 1270.4237 4287859372
2.387156 793.83698 1271.4495 4292862207
-34.507339 797.80835 1269.5659 4287859371
-40.456882 799.62775 1271.1001 4287333790
-38.077065 799.62775 1271.1001 4287333286
-35.697247 799.62775 1271.1001 4287859630
2.3798165 799.62775 1271.1001 4293125631
-40.300919 805.92847 1269.8724 4287464352
-37.930275 805.92847 1269.8724 4287464356
-35.559631 805.92847 1269.8724 4287990700
-10.667891 805.92847 1269.8724 4289901271
-7.1119266 805.92847 1269.8724 4291612915
-4.7412844 805.92847 1269.8724 4292073214
-2.3706422 805.92847 1269.8724 4292994303
0 805.92847 1269.8724 4292862463
-42.671558 807.74084 1271.4006 4287003803
-40.300919 807.74084 1271.4006 4287464354
-37.930275 807.74084 1271.4006 4287530147
-9.4825687 807.74084 1271.4006 4289901779
1.1853211 807.74084 1271.4006 4293191679
-42.50642 815.81189 1271.6658 4287004827
-40.144955 814.90918 1270.9047 4287596707
-37.783485 814.90918 1270.9047 4287662499
-34.634865 814.60834 1270.651 4288123308
0 814.00653 1270.1436 4293389823
-37.636696 823.84088 1271.8954 4288253352
-35.284405 822.94171 1271.1372 4288517807
-32.14801 822.64203 1270.8845 4288518321
-28.227524 822.04254 1270.3792 4288649914
-25.875229 822.04254 1270.3792 4289439429
-22.34679 822.04254 1270.3792 4289702354
1.1761467 822.94171 1271.1372 4292797183
-37.48991 828.245 1269.0688 4288187038
-28.117432 828.245 1269.0688 4289439933
-25.774311 828.245 1269.0688 4290032071
-22.259632 828.245 1269.0688 4290687965
-18.744955 828.245 1269.0688 4290819295
-16.401834 828.245 1269.0688 4290556379
0 828.245 1269.0688 4292666111
-51.132111 755.64972 1273.2598 4285951883
-48.697247 755.64972 1273.2598 4286018180
-46.262386 755.64972 1273.2598 4286478731
-43.827522 755.64972 1273.2598 4286478733
9.7394495 755.64972 1273.2598 4293651711
12.174312 755.64972 1273.2598 4293585919
-51.132111 757.51123 1274.8293 4285820296
-48.697247 757.51123 1274.8293 4285886339
-46.262386 757.51123 1274.8293 4286478733
-49.688992 764.54633 1272.913 4285885828
7.2715597 764.54633 1272.913 4293322239
9.6954126 764.54633 1272.913 4293190911
13.331193 764.54633 1272.913 4293454335
16.966972 764.54633 1272.913 4293257471
19.390825 764.54633 1272.913 4293257215
-49.688992 766.39941 1274.4755 4286017411
9.6954126 766.39941 1274.4755 4293520639
13.331193 766.39941 1274.4755 4293389055
16.966972 766.39941 1274.4755 4293191679
-49.500916 772.8446 1273.3698 4285886340
2.4146788 772.8446 1273.3698 4293323263
4.8293576 772.8446 1273.3698 4293125631
7.2440367 772.8446 1273.3698 4293323263
9.6587152 772.8446 1273.3698 4293454591
13.280734 772.8446 1273.3698 4293454335
16.902752 772.8446 1273.3698 4293388287
-49.500916 774.69067 1274.9263 4285952135
7.2440367 774.69067 1274.9263 4293191167
9.6587152 774.69067 1274.9263 4293124863
12.073395 774.69067 1274.9263 4293322239
-48.110092 779.26178 1272.2404 4286017928
-45.704586 779.26178 1272.2404 4286544272
-43.299084 779.26178 1272.2404 4286544526
-38.488075 779.26178 1272.2404 4287662502
2.4055047 779.26178 1272.2404 4293257471
4.8110094 779.26178 1272.2404 4293191423
7.2165136 779.26178 1272.2404 4293454591
14.433027 779.26178 1272.2404 4293257471
16.838531 779.26178 1272.2404 4293586175
19.244038 779.26178 1272.2404 4293454591
-49.312843 781.10083 1273.791 4285820296
-45.704586 781.10083 1273.791 4286544276
-43.299084 781.10083 1273.791 4286741396
2.4055047 781.10083 1273.791 4293191423
4.8110094 781.10083 1273.791 4293059583
7.2165136 781.10083 1273.791 4293191167
9.6220188 781.10083 1273.791 4292993791
14.433027 781.10083 1273.791 4293191423
19.244038 781.10083 1273.791 4293191423
-45.530273 787.48291 1272.6321 4286675092
-43.133945 787.48291 1272.6321 4286806932
-40.737614 787.48291 1272.6321 4287267483
-38.341286 787.48291 1272.6321 4287464102
-35.944954 787.48291 1272.6321 4287990446
2.3963304 787.48291 1272.6321 4293125631
7.1889906 787.48291 1272.6321 4293125375
-45.530273 789.31494 1274.1768 4286676375
-43.133945 789.31494 1274.1768 4286873239
2.3963304 789.31494 1274.1768 4293323007
4.7926607 789.31494 1274.1768 4293059583
7.1889906 789.31494 1274.1768 4293191423
9.5853214 789.31494 1274.1768 4293192191
-45.355965 797.48694 1274.5271 4286742167
-42.968807 796.57446 1273.7577 4286939031
-40.58165 795.66199 1272.9883 4287004823
-38.194496 795.66199 1272.9883 4287332774
2.387156 795.66199 1272.9883 4292993791
4.774312 796.57446 1273.7577 4292993791
7.161468 796.57446 1273.7577 4293125375
9.548624 797.48694 1274.5271 4292797183
-42.836697 802.35681 1273.4011 4286938008
-40.456882 801.44714 1272.6342 4287464352
2.3798165 802.35681 1273.4011 4293125631
4.7596331 802.35681 1273.4011 4292994303
7.1394496 802.35681 1273.4011 4293191679
9.5192661 802.35681 1273.4011 4293060095
-42.671558 809.55322 1272.9287 4287069596
-40.300919 809.55322 1272.9287 4287530147
2.3706422 809.55322 1272.9287 4292928767
4.7412844 809.55322 1272.9287 4292731135
-46.227524 811.3656 1274.4569 4286544020
-42.671558 811.3656 1274.4569 4287004827
2.3706422 811.3656 1274.4569 4293192190
4.7412844 811.3656 1274.4569 4292994815
7.1119266 811.3656 1274.4569 4293191935
-43.687157 817.61731 1273.188 4287136154
-40.144955 817.61731 1273.188 4287794341
-37.783485 817.61731 1273.188 4287794338
2.3614678 817.61731 1273.188 4293125375
-43.687157 819.42261 1274.7102 4287005338
-40.144955 819.42261 1274.7102 4287663269
-37.783485 819.42261 1274.7102 4287794854
2.3614678 819.42261 1274.7102 4292928511
4.7229357 819.42261 1274.7102 4292994559
-42.341286 825.63922 1273.4117 4287462807
-39.988991 825.63922 1273.4117 4288120993
2.3522935 826.53839 1274.1699 4292731647
19.552294 752.86853 1277.4548 4293520127
-56.001835 761.23413 1277.9684 4285161337
-52.755352 759.99316 1276.922 4285359489
-48.697247 759.37268 1276.3989 4285951623
-55.748623 769.17896 1276.8191 4285227131
-53.324772 769.17896 1276.8191 4285030781
-50.900917 768.25244 1276.038 4285951883
-53.122936 776.53674 1276.4828 4285293698
-50.708256 776.53674 1276.4828 4285886091
9.6587152 776.53674 1276.4828 4293190911
12.073395 776.53674 1276.4828 4293322239
-49.312843 782.93982 1275.3417 4286016906
-45.704586 782.93982 1275.3417 4286740885
2.4055047 782.93982 1275.3417 4293191679
4.8110094 782.93982 1275.3417 4292993791
7.2165136 782.93982 1275.3417 4293257215
9.6220188 782.93982 1275.3417 4293059583
13.230275 782.93982 1275.3417 4293257215
16.838531 782.93982 1275.3417 4293520383
19.244038 782.93982 1275.3417 4293323263
-49.312843 784.77881 1276.8922 4286016905
4.8110094 784.77881 1276.8922 4292862463
9.6220188 784.77881 1276.8922 4293125631
13.230275 784.77881 1276.8922 4293454335
16.838531 784.77881 1276.8922 4293323263
19.244038 784.77881 1276.8922 4293125631
-46.728439 791.14691 1275.7214 4286347408
-43.133945 791.14691 1275.7214 4287004823
4.7926607 791.14691 1275.7214 4292730623
7.1889906 791.14691 1275.7214 4293125375
9.5853214 791.14691 1275.7214 4293060607
-46.728439 792.97894 1277.2662 4286413201
10.783486 792.97894 1277.2662 4293323007
-45.355965 799.31195 1276.0659 4286873239
-46.549541 801.13696 1277.6047 4286674576
11.93578 801.13696 1277.6047 4292928767
-46.009785 806.29883 1276.725 4286740114
4.7596331 805.08594 1275.7023 4293059583
7.1394496 805.99561 1276.4692 4293125887
9.5192661 805.99561 1276.4692 4292993791
-49.783485 814.99036 1277.5132 4286543252
-46.622631 813.78204 1276.4945 4286609554
2.3706422 813.17798 1275.9851 4292993791
4.7412844 814.08417 1276.7491 4292928255
7.1119266 814.08417 1276.7491 4292994047
9.4825687 814.99036 1277.5132 4292993791
-47.229359 821.22803 1276.2325 4286544274
-43.687157 821.22803 1276.2325 4287333019
-40.144955 821.22803 1276.2325 4288122277
4.7229357 821.22803 1276.2325 4292862975
-47.229359 823.03333 1277.7548 4286674831
-44.867889 823.03333 1277.7548 4287069333
4.7229357 823.03333 1277.7548 4292862975
-56.212845 754.737 1279.0303 4285292924
-53.768806 754.737 1279.0303 4285030781
-56.212845 756.60547 1280.6058 4285424253
-56.001835 763.09564 1279.538 4285161337
-53.566971 763.09564 1279.538 4285227133
21.913761 763.09564 1279.538 4293257215
-55.748623 772.88513 1279.9441 4285162367
-53.324772 771.95856 1279.1628 4285162623
-55.537613 778.38275 1278.0393 4285031035
-53.122936 778.38275 1278.0393 4285293952
12.073395 778.38275 1278.0393 4293191167
16.902752 778.38275 1278.0393 4293454591
-55.537613 780.22882 1279.5958 4285227131
-53.122936 780.22882 1279.5958 4285424255
-57.732109 788.45691 1279.9935 4285095544
-55.326607 787.53735 1279.2183 4285292925
-52.921101 787.53735 1279.2183 4285293185
-49.71376 787.2309 1278.9598 4285951628
13.230275 787.53735 1279.2183 4293257727
16.838531 787.53735 1279.2183 4293126143
19.244038 787.53735 1279.2183 4292994047
-50.322937 794.81097 1278.8109 4286017676
-47.926605 794.81097 1278.8109 4286018443
11.981651 794.81097 1278.8109 4293191679
-52.719265 796.64294 1280.3556 4285490050
-50.322937 796.64294 1280.3556 4286345359
-47.926605 796.64294 1280.3556 4286083723
11.981651 796.64294 1280.3556 4293257215
14.377981 796.64294 1280.3556 4293192191
21.566973 796.64294 1280.3556 4293323263
-50.130276 802.96198 1279.1434 4286411150
-47.743118 802.96198 1279.1434 4286411404
11.93578 802.96198 1279.1434 4293125631
-52.517429 804.78699 1280.6823 4285490050
-50.130276 804.78699 1280.6823 4286345359
11.93578 804.78699 1280.6823 4293125375
14.322936 804.78699 1280.6823 4293125375
10.709174 808.72467 1278.7704 4293060351
-52.355965 810.54407 1280.3044 4285884806
-49.976147 810.54407 1280.3044 4286476943
10.709174 810.54407 1280.3044 4292862207
-52.154129 817.70892 1279.8054 4285556869
-49.783485 817.70892 1279.8054 4286477971
-47.412846 816.80273 1279.0414 4286413201
7.1119266 817.70892 1279.8054 4292928767
10.272783 818.01099 1280.0602 4292862207
16.594496 818.61511 1280.5696 4293125631
4.7229357 824.83875 1279.277 4292797183
4.7229357 826.6441 1280.7992 4292797183
-58.656879 758.474 1282.1813 4285095544
21.99633 758.474 1282.1813 4293257215
-61.100918 760.34247 1283.7567 4285029749
-58.656879 760.34247 1283.7567 4285095544
-60.596329 777.5177 1283.8501 4285030001
-58.172478 777.5177 1283.8501 4285095544
-55.537613 782.07483 1281.1523 4285357947
-53.122936 782.07483 1281.1523 4285292926
-60.366974 783.9209 1282.709 4285095029
-57.952293 783.9209 1282.709 4285029497
-61.340366 790.2959 1281.5442 4285160822
-57.732109 790.2959 1281.5442 4285292924
-55.326607 790.2959 1281.5442 4285556095
-52.921101 790.2959 1281.5442 4285359743
-50.515594 790.2959 1281.5442 4286083723
14.433027 790.2959 1281.5442 4293257215
16.838531 790.2959 1281.5442 4293257215
19.244038 790.2959 1281.5442 4293191423
-60.137615 792.13495 1283.0947 4285293174
-57.732109 792.13495 1283.0947 4285424505
-55.326607 792.13495 1283.0947 4285490298
-52.921101 792.13495 1283.0947 4285293952
14.433027 792.13495 1283.0947 4293257983
16.838531 792.13495 1283.0947 4293257983
19.244038 792.13495 1283.0947 4293060607
-62.304588 800.30701 1283.4451 4285161587
-58.710091 800.30701 1283.4451 4285227127
-55.115597 799.39099 1282.6726 4285490300
-52.719265 799.39099 1282.6726 4285621890
-50.322937 798.47498 1281.9003 4286345357
14.377981 799.39099 1282.6726 4292993791
21.566973 798.47498 1281.9003 4293060607
-59.678898 806.61194 1282.2211 4285490300
-52.517429 806.61194 1282.2211 4285621890
-50.130276 806.61194 1282.2211 4286345357
14.322936 806.61194 1282.2211 4293191423
16.710093 806.61194 1282.2211 4293257215
19.097248 806.61194 1282.2211 4293191423
-64.453209 808.43701 1283.7599 4285030781
-62.066055 808.43701 1283.7599 4285293176
-58.485321 808.43701 1283.7599 4285424505
-54.904587 808.43701 1283.7599 4285622140
14.322936 808.43701 1283.7599 4292993791
16.710093 808.43701 1283.7599 4293257215
19.097248 808.43701 1283.7599 4292994559
21.484404 808.43701 1283.7599 4292928767
-57.115597 812.36346 1281.8385 4285556093
-54.735779 812.36346 1281.8385 4285885058
-52.355965 812.36346 1281.8385 4285753736
11.899082 812.36346 1281.8385 4293323007
14.278899 812.36346 1281.8385 4293323263
16.658716 812.36346 1281.8385 4293454591
19.038532 812.36346 1281.8385 4293059583
-61.875229 814.18286 1283.3726 4285095542
-58.305504 814.18286 1283.3726 4285556094
-54.735779 814.18286 1283.3726 4285687680
11.899082 814.18286 1283.3726 4292993791
14.278899 814.18286 1283.3726 4292993791
16.658716 814.18286 1283.3726 4293125375
19.038532 814.18286 1283.3726 4292731135
22.608257 814.18286 1283.3726 4292994303
-52.154129 820.42749 1282.0977 4286017928
-49.783485 820.42749 1282.0977 4286478479
7.1119266 820.42749 1282.0977 4292928767
10.667891 820.42749 1282.0977 4292797182
-49.783485 822.23987 1283.6259 4286281097
-47.412846 822.23987 1283.6259 4286346892
7.1119266 822.23987 1283.6259 4292994559
10.667891 822.23987 1283.6259 4292731646
16.594496 822.23987 1283.6259 4292993791
23.706423 822.23987 1283.6259 4293125631
-58.877064 753.83832 1284.8127 4285029751
-61.100918 762.21094 1285.3322 4285095794
-58.656879 763.1452 1286.1199 4285095289
-58.436699 770.5415 1285.8162 4284965241
-60.596329 779.37079 1285.4126 4285095542
-58.172478 779.37079 1285.4126 4285357947
-61.57431 785.76697 1284.2655 4285095542
-61.340366 793.974 1284.6454 4285161335
-57.732109 793.974 1284.6454 4285293176
-55.326607 793.974 1284.6454 4285424505
16.838531 793.974 1284.6454 4293323775
19.244038 793.974 1284.6454 4293323263
-64.948624 795.81299 1286.196 4285096044
-61.340366 795.81299 1286.196 4285227380
-57.732109 795.81299 1286.196 4285424505
16.838531 795.81299 1286.196 4293125375
19.244038 795.81299 1286.196 4292994815
-62.304588 802.13904 1284.9897 4285095794
-58.310699 802.74969 1285.5046 4285358968
-55.115597 803.05505 1285.7621 4285490298
16.774311 802.13904 1284.9897 4293257215
19.170643 802.13904 1284.9897 4293191423
21.566973 803.97107 1286.5344 4293257215
-66.84037 811.17444 1286.0681 4284964472
-64.453209 811.17444 1286.0681 4285425024
-62.066055 810.26196 1285.2987 4285292924
-59.678898 810.26196 1285.2987 4285292924
22.677982 810.26196 1285.2987 4293059583
-58.305508 816.91199 1285.6736 4285885058
-54.735779 816.91199 1285.6736 4285951109
14.278899 816.91199 1285.6736 4293059583
16.658716 817.82166 1286.4407 4293059583
19.038532 816.91199 1285.6736 4292993791
22.608257 816.91199 1285.6736 4293125631
-47.412846 824.05225 1285.1539 4285228675
7.1119266 824.05225 1285.1539 4292928767
23.706423 824.05225 1285.1539 4292862463
23.706423 825.86462 1286.6821 4293191423
-58.656879 765.94794 1288.4832 4284504438
-58.436699 772.40302 1287.3857 4284965241
-62.781651 789.45898 1287.3785 4284832623
16.838531 797.65204 1287.7466 4293125631
19.244038 797.65204 1287.7466 4293191423
21.649542 797.65204 1287.7466 4293323263
24.055046 797.65204 1287.7466 4293191423
-64.948624 799.49109 1289.2972 4285095542
21.649542 799.49109 1289.2972 4293191423
-66.84037 813.91199 1288.3762 4284964989
-64.453209 813.91199 1288.3762 4285491334
-62.066055 814.82446 1289.1456 4285753213
-54.735779 819.64099 1287.9747 4286018180
-52.355965 820.55072 1288.7417 4285623424
-49.976147 821.46045 1289.5088 4285359995
10.709174 821.46045 1289.5088 4292731391
14.278899 820.55072 1288.7417 4293059583
16.658716 821.46045 1289.5088 4293059583
19.038532 820.55072 1288.7417 4292993791
21.418348 820.55072 1288.7417 4293125375
-63.544952 769.68494 1291.634 4284899446
-61.100918 769.68494 1291.634 4284965239
-64.948624 801.33008 1290.8479 4284899192
-62.543118 801.33008 1290.8479 4285161335
-62.066055 817.56201 1291.4539 4285623174
-58.485321 817.56201 1291.4539 4285886342
-57.291744 819.38696 1292.9927 4285425792
-54.904587 819.38696 1292.9927 4285491586
11.899082 823.27979 1291.0428 4292796927
14.278899 823.27979 1291.0428 4293059583
16.658716 823.27979 1291.0428 4293585919
19.038532 823.27979 1291.0428 4293520639
21.418348 823.27979 1291.0428 4293454847
14.278899 825.09918 1292.5769 4292797183
16.658716 825.09918 1292.5769 4293191679
19.038532 825.09918 1292.5769 4293257215
-61.559631 758.60126 1295.3689 4284702320
-61.330276 765.09131 1294.301 4284965239
-63.544952 771.55341 1293.2095 4285030001
-64.70092 814.04712 1295.0303 4285426050
-61.559631 760.48376 1296.9562 4284702068
-64.70092 817.71118 1298.1198 4285494425
-62.304588 817.71118 1298.1198 4285492869
-59.109478 818.01654 1298.3772 4285689735
-55.115597 818.62714 1298.8921 4285952135
-52.719265 818.62714 1298.8921 4285623676
21.484404 823.03699 1296.0702 4293257215
-67.354126 812.36426 1300.1516 4285031548
-67.354126 814.20331 1301.7021 4286086301
-67.097244 820.45917 1300.4368 4286683083
-64.70092 820.45917 1300.4368 4285498552
-62.304588 820.45917 1300.4368 4285824925
-67.611008 807.91943 1302.9438 4285096828
-67.354126 816.04236 1303.2528 4286350252
-60.137615 817.88135 1304.8035 4285298581
-57.732109 817.88135 1304.8035 4286148744
-55.326607 817.88135 1304.8035 4286280586
-69.759636 819.7204 1306.354 4289573327
-67.354126 820.63989 1307.1294 4289114599
-64.948624 820.63989 1307.1294 4287535311
-61.741283 820.33344 1306.871 4286416816
-53.122936 815.30359 1309.17 4285952648
-57.952293 817.14966 1310.7266 4285493130
-55.537613 817.14966 1310.7266 4285822095
-65.196327 820.84174 1313.8396 4289048278
19.31743 820.84174 1313.8396 4293191423
-60.596329 816.43188 1316.6616 4286153904
-58.172478 816.43188 1316.6616 4286282912
-55.748623 816.43188 1316.6616 4286282912
-65.196327 822.68774 1315.3962 4290495472
19.31743 823.61078 1316.1746 4293191679
9.7394495 807.771 1317.207 4292796927
-63.020184 818.28497 1318.224 4288324317
-63.020184 820.13806 1319.7865 4289969130
-53.566971 811.4939 1320.3462 4285755285
14.609175 811.4939 1320.3462 4293059583
17.044037 811.4939 1320.3462 4293191423
19.478899 811.4939 1320.3462 4293191423
14.609175 813.35541 1321.9156 4293257215
17.044037 813.35541 1321.9156 4293191423
19.478899 813.35541 1321.9156 4293191423
16.966972 821.99109 1321.3489 4293257215
16.966972 823.84412 1322.9114 4293453823
19.390825 823.84412 1322.9114 4293191167
9.7761469 807.05463 1323.1432 4292599807
12.220183 807.05463 1323.1432 4292796927
-60.871559 815.21686 1323.4852 4286876871
-58.436699 815.21686 1323.4852 4286021305
-56.001835 815.21686 1323.4852 4285823669
14.609175 815.21686 1323.4852 4293192191
17.044037 815.21686 1323.4852 4293060607
-60.871559 817.07837 1325.0548 4288719063
-58.436699 817.07837 1325.0548 4288257999
-56.001835 817.07837 1325.0548 4287534276
17.044037 817.07837 1325.0548 4293061119
19.390825 825.6972 1324.4739 4293584895
16.902752 832.841 1323.957 4288585914
-51.517429 804.47681 1327.5099 4285755525
-53.768806 811.72583 1327.0819 4285888914
12.220183 811.72583 1327.0819 4293388543
-64.523857 818.93982 1326.6244 4290890224
-60.871559 818.93982 1326.6244 4289442523
-58.436699 818.93982 1326.6244 4288784609
-56.001835 818.93982 1326.6244 4287995093
-53.566971 818.93982 1326.6244 4287009202
14.609175 818.93982 1326.6244 4293323263
-64.523857 820.80127 1328.1938 4291678713
-60.871559 820.80127 1328.1938 4290888683
-58.436699 820.80127 1328.1938 4290559471
-56.001835 820.80127 1328.1938 4289704162
14.609175 820.80127 1328.1938 4293651455
14.543119 827.55023 1326.0363 4287990966
16.966972 827.55023 1326.0363 4288846275
19.390825 827.55023 1326.0363 4290292690
14.543119 829.40332 1327.5988 4286348687
14.488073 835.61011 1326.292 4290758399
16.902752 835.61011 1326.292 4291613439
9.6587152 837.45612 1327.8484 4287079898
12.073395 837.45612 1327.8484 4285961418
-46.959633 793.65271 1331.4635 4286346892
-44.488075 793.65271 1331.4635 4287003791
-39.544952 793.65271 1331.4635 4287464594
-37.073395 793.65271 1331.4635 4287661974
-51.710091 800.01654 1330.2892 4285491834
-49.247707 800.01654 1330.2892 4285687943
7.387156 800.01654 1330.2892 4293191935
-49.247707 801.89905 1331.8765 4285951373
7.387156 801.89905 1331.8765 4292862975
9.8128443 806.35229 1329.0912 4292796671
12.266055 806.35229 1329.0912 4293059583
-51.517429 808.22784 1330.6726 4285823378
9.8128443 808.22784 1330.6726 4292862463
-52.546791 814.52856 1329.4451 4286612897
13.442202 814.52856 1329.4451 4293126911
-51.324772 816.39709 1331.0205 4285956513
-48.880733 816.39709 1331.0205 4286283929
12.220183 816.39709 1331.0205 4293652223
-63.306423 822.66278 1329.7634 4291745276
-60.871559 822.66278 1329.7634 4291021809
14.609175 822.66278 1329.7634 4293848319
17.044037 822.66278 1329.7634 4293584895
13.331193 832.18286 1329.9424 4290757589
-46.959633 796.487 1333.8533 4285425284
-43.252296 796.48694 1333.8533 4285293702
-39.544952 796.487 1333.8533 4285031550
-7.4146791 797.43176 1334.6499 4291215579
-4.943119 797.43176 1334.6499 4291480559
-2.4715595 797.43176 1334.6499 4293059583
1.2357798 797.43176 1334.6499 4292927999
4.943119 797.43176 1334.6499 4292928767
-51.710091 803.78162 1333.4637 4285689491
-49.247707 803.78162 1333.4637 4285820817
7.387156 803.78162 1333.4637 4292862718
-51.517429 810.10333 1332.2539 4285888656
-49.06422 811.97882 1333.8353 4286872987
9.8128443 811.04108 1333.0447 4292862719
-52.546791 818.26556 1332.5959 4287798977
-48.880733 818.26556 1332.5959 4286943920
9.7761469 818.26556 1332.5959 4293520383
12.220183 818.26556 1332.5959 4293652223
-58.656879 820.13403 1334.1714 4290823926
-56.212845 820.13403 1334.1714 4289770981
-52.546791 820.13403 1334.1714 4288390864
9.7761469 820.13403 1334.1714 4293256189
12.220183 820.13403 1334.1714 4294111487
12.174312 826.38568 1332.9026 4285885338
9.7394495 828.24719 1334.472 4291281372
12.174312 828.24719 1334.472 4291083737
-42.203671 790.53406 1336.6821 4287201427
-34.755962 790.53406 1336.6821 4288452491
-32.273396 790.53406 1336.6821 4288978835
-46.959633 799.32129 1336.243 4285951373
-43.252296 799.32129 1336.243 4285885324
-39.544952 799.32129 1336.243 4285821319
-17.300917 799.32129 1336.243 4285692060
-13.593578 799.32129 1336.243 4289501622
-9.8862381 799.32129 1336.243 4290884306
-7.4146791 799.32129 1336.243 4291871202
-4.943119 799.32129 1336.243 4291874545
-2.4715595 799.32129 1336.243 4293124863
0 799.32129 1336.243 4292993791
4.943119 799.32129 1336.243 4292862975
-46.959633 801.21082 1337.8363 4285820817
-43.252296 801.21082 1337.8363 4285755022
-39.544952 801.21082 1337.8363 4285821069
-22.244038 801.21082 1337.8363 4285624982
-19.772476 801.21082 1337.8363 4285559185
-17.300917 801.21082 1337.8363 4285691027
-13.593578 801.21082 1337.8363 4287466155
-9.8862381 801.21082 1337.8363 4289176532
-7.4146791 801.21082 1337.8363 4291413494
-4.943119 801.21082 1337.8363 4291743729
-2.4715595 801.21082 1337.8363 4293125375
1.2357798 801.21082 1337.8363 4292797438
4.943119 801.21082 1337.8363 4292862718
-49.247707 805.66412 1335.051 4286019476
-12.311927 805.66412 1335.051 4285955469
0 805.66412 1335.051 4293059583
7.387156 805.66412 1335.051 4292796671
-49.247707 807.54663 1336.6384 4286281116
-46.78532 807.54663 1336.6384 4286281116
-13.543119 807.54663 1336.6384 4286217621
-7.387156 807.54663 1336.6384 4289575896
-2.4623854 807.54663 1336.6384 4293258239
0 807.54663 1336.6384 4293257471
4.9247708 807.54663 1336.6384 4292730623
7.387156 807.54663 1336.6384 4292730623
-46.611008 814.79211 1336.2074 4286416546
-44.157799 815.72986 1336.998 4286546073
-12.266055 815.72986 1336.998 4286412949
-9.8128443 815.72986 1336.998 4285230211
-7.359633 815.72986 1336.998 4289704134
-4.9064221 815.72986 1336.998 4291809522
-2.4532111 815.72986 1336.998 4293191167
0 815.72986 1336.998 4293322239
4.9064221 815.72986 1336.998 4293387775
7.359633 814.79211 1336.2074 4293651199
9.8128443 813.85437 1335.4167 4293454591
-61.100918 822.00256 1335.7468 4291680511
-58.656879 822.00256 1335.7468 4291482367
-56.212845 822.00256 1335.7468 4290692854
-52.546791 822.00256 1335.7468 4289706213
-4.8880734 823.87103 1337.3223 4290035455
-2.4440367 822.93677 1336.5345 4286415290
0 822.93677 1336.5345 4282277010
7.3321099 823.87103 1337.3223 4284900507
9.7761469 822.93677 1336.5345 4285885857
12.220183 822.00256 1335.7468 4286939321
9.7394495 830.10864 1336.0416 4290494400
0 831.97009 1337.6112 4290621921
4.8697248 831.97009 1337.6112 4281949317
7.3045874 831.97009 1337.6112 4286554826
-37.238533 793.38098 1339.0825 4285163136
-34.755962 793.38098 1339.0825 4285031551
-32.273396 793.38098 1339.0825 4285228930
-28.549541 794.32996 1339.8827 4285491595
-24.825687 794.32996 1339.8827 4286413185
-17.377981 794.32996 1339.8827 4291084229
-13.654128 794.32996 1339.8827 4291280350
-9.930275 793.38098 1339.0825 4290557908
-7.4477062 792.43201 1338.2825 4291085024
-46.959633 803.10034 1339.4294 4286085270
-43.252296 803.10034 1339.4294 4285953168
-39.544952 803.10034 1339.4294 4286150031
-28.422935 803.10034 1339.4294 4286215823
-24.715597 803.10034 1339.4294 4286282646
-22.244038 803.10034 1339.4294 4286348439
-19.772476 803.10034 1339.4294 4286480025
-17.300917 803.10034 1339.4294 4286480025
-14.829358 803.10034 1339.4294 4285889676
-9.8862381 803.10034 1339.4294 4286613676
-7.4146791 803.10034 1339.4294 4290429670
-4.943119 803.10034 1339.4294 4291547122
-2.4715595 803.10034 1339.4294 4293060351
2.4715595 803.10034 1339.4294 4292993791
4.943119 803.10034 1339.4294 4292730623
-46.78532 809.42914 1338.2256 4286807193
-44.322937 809.42914 1338.2256 4286478742
-13.543119 809.42914 1338.2256 4286611609
-9.8495417 809.42914 1338.2256 4285495708
-7.387156 809.42914 1338.2256 4289048530
0 809.42914 1338.2256 4292928767
4.9247708 809.42914 1338.2256 4292534527
7.387156 809.42914 1338.2256 4292797695
-44.322937 811.31165 1339.813 4286742171
-41.86055 811.31165 1339.813 4286610328
-13.543119 811.31165 1339.813 4286611613
-9.8495417 811.31165 1339.813 4285691036
-7.387156 811.31165 1339.813 4288849357
-4.9247708 811.31165 1339.813 4290955232
-2.4623854 811.31165 1339.813 4293257983
1.2311927 811.31165 1339.813 4293454591
4.9247708 811.31165 1339.813 4293454079
-49.06422 817.60535 1338.5795 4287535544
-46.611008 817.60535 1338.5795 4286482856
-44.157799 817.60535 1338.5795 4286545819
-12.266055 817.60535 1338.5795 4285427083
-9.8128443 817.60535 1338.5795 4285294230
-7.359633 817.60535 1338.5795 4291018477
-4.9064221 817.60535 1338.5795 4292401407
-2.4532111 817.60535 1338.5795 4293125119
1.2266055 817.60535 1338.5795 4291349736
4.9064221 817.60535 1338.5795 4291678440
7.359633 817.60535 1338.5795 4292599542
-49.06422 819.48083 1340.1609 4288719819
-46.611008 819.48083 1340.1609 4287535546
-44.157799 819.48083 1340.1609 4287598770
-41.704586 819.48083 1340.1609 4287138219
-13.492661 819.48083 1340.1609 4285823363
-9.8128443 819.48083 1340.1609 4289765060
-7.359633 819.48083 1340.1609 4293318139
-4.9064221 819.48083 1340.1609 4292795903
2.4532111 819.48083 1340.1609 4283260811
4.9064221 819.48083 1340.1609 4282406535
7.359633 819.48083 1340.1609 4283590553
-9.7761469 825.7395 1338.8978 4291874815
-7.3321099 825.7395 1338.8978 4288782290
-4.8880734 826.67371 1339.6855 4283196844
-2.4440367 826.67371 1339.6855 4283328430
0.81467891 826.98511 1339.9481 4283391374
4.8880734 826.67371 1339.6855 4285095567
7.3321099 826.67371 1339.6855 4289042891
1.2174312 833.8316 1339.1807 4288454335
-28.655045 789.84021 1342.6372 4286016908
-24.917431 789.84021 1342.6372 4288645287
-17.442202 789.84021 1342.6372 4291345378
-13.704587 789.84021 1342.6372 4290951385
-37.238533 796.22791 1341.483 4285821319
-34.755962 796.22791 1341.483 4286018443
-32.273396 796.22791 1341.483 4285952650
-28.549541 796.22791 1341.483 4285493132
-24.825687 796.22791 1341.483 4284837506
-22.343119 796.22791 1341.483 4285034628
-19.86055 796.22791 1341.483 4285033874
2.4825687 796.22791 1341.483 4292993791
-37.238533 798.12585 1343.0833 4286083984
-34.755962 798.12585 1343.0833 4286018189
-32.273396 798.12585 1343.0833 4286018189
-28.549541 798.12585 1343.0833 4285887377
-24.825687 798.12585 1343.0833 4285756568
-42.840366 805.61969 1341.5538 4286281620
-39.544952 805.93463 1341.8193 4286413203
-37.073395 805.93463 1341.8193 4286347411
-34.601833 805.93463 1341.8193 4286412945
-32.130276 805.93463 1341.8193 4286412945
-28.422935 805.93457 1341.8193 4286412946
-24.715597 805.93463 1341.8193 4286610070
-22.244038 805.93463 1341.8193 4286610070
-19.772476 805.93463 1341.8193 4286676375
-17.300917 805.93463 1341.8193 4286873754
-9.8862381 804.98987 1341.0227 4285759902
-4.943119 805.93463 1341.8193 4290889704
-2.4715595 806.87939 1342.6158 4292995071
2.4715595 805.93463 1341.8193 4292928510
-40.629356 814.13538 1342.1938 4286742173
-17.236698 814.13538 1342.1938 4287137956
-14.774312 814.13538 1342.1938 4287005601
2.4623854 813.19415 1341.4003 4293125119
-58.877064 821.35632 1341.7422 4292205311
-56.423855 821.35632 1341.7422 4291481336
-52.744034 821.35632 1341.7422 4290626281
-49.06422 821.35632 1341.7422 4289902031
-46.611008 821.35632 1341.7422 4288651964
-44.157799 821.35632 1341.7422 4288388036
-41.704586 821.35632 1341.7422 4287466934
-13.492661 821.35632 1341.7422 4288320153
-9.8128443 821.35632 1341.7422 4290491135
-7.359633 821.35632 1341.7422 4292859647
2.4532111 821.35632 1341.7422 4280701071
4.9064221 821.35632 1341.7422 4283189633
-46.611008 823.23181 1343.3236 4289901529
-44.157799 823.23181 1343.3236 4289047000
-41.704586 823.23181 1343.3236 4287994311
-17.172478 823.23181 1343.3236 4288384942
-13.492661 823.23181 1343.3236 4292853989
2.4532111 823.23181 1343.3236 4282736782
-4.8880734 829.47644 1342.0487 4290554835
-2.4440367 829.47644 1342.0487 4291607266
2.4440367 829.47644 1342.0487 4285226894
-4.8880734 831.34497 1343.6241 4289044435
-2.4440367 831.34497 1343.6241 4292268287
-22.508257 787.24835 1346.9921 4290816455
-20.007339 787.24835 1346.9921 4290884827
-22.425688 791.74518 1344.2434 4288781734
-19.933945 791.74518 1344.2434 4290360250
-37.238533 800.0238 1344.6836 4286150031
-34.755962 800.0238 1344.6836 4286215822
-32.273396 800.0238 1344.6836 4286215822
-39.544952 808.76892 1344.2091 4286610328
-37.073395 808.76892 1344.2091 4286610328
-34.601833 808.76892 1344.2091 4286741396
-32.130276 808.76892 1344.2091 4286741396
-28.422935 808.76892 1344.2091 4286676628
-24.715597 808.76892 1344.2091 4286742167
-22.244038 808.76892 1344.2091 4286742167
-19.772476 808.76892 1344.2091 4286611612
-17.300917 808.76892 1344.2091 4286874783
-37.073395 810.65845 1345.8022 4286872733
-34.601833 810.65845 1345.8022 4286938778
-32.130276 810.65845 1345.8022 4286938778
-28.422935 810.65845 1345.8022 4286611864
-24.715597 810.65845 1345.8022 4286611866
-22.244038 810.65845 1345.8022 4286808988
-19.772476 810.65845 1345.8022 4286940578
-39.398167 817.90045 1345.3684 4287202468
-36.93578 817.90045 1345.3684 4287202212
-28.317432 818.84167 1346.1621 4287465891
-24.623854 818.84167 1346.1621 4286809256
-22.161469 818.84167 1346.1621 4286677670
-19.699083 817.90045 1345.3684 4286808225
-17.236698 817.90045 1345.3684 4286281881
-44.157799 825.10736 1344.905 4288718804
-41.704586 825.10736 1344.905 4287797702
-17.172478 826.98285 1346.4863 4291874545
-13.492661 826.0451 1345.6957 4290427115
-9.8128443 826.0451 1345.6957 4286416319
-7.359633 826.0451 1345.6957 4285561010
-37.073395 812.54797 1347.3955 4287004323
-34.601833 812.54797 1347.3955 4287004573
-32.130276 812.54797 1347.3955 4287004573
-28.422935 812.54797 1347.3955 4286808990
-24.715597 812.54797 1347.3955 4286874783
-22.244038 812.54797 1347.3955 4287138212
-19.772476 812.54797 1347.3955 4287335334
-34.601833 814.4375 1348.9886 4287070366
-32.130276 814.4375 1348.9886 4287201951
-28.422935 814.4375 1348.9886 4287202722
-24.715597 814.4375 1348.9886 4287006883
-22.244038 814.4375 1348.9886 4287072676
-49.247707 820.72424 1347.7494 4290559460
-39.398167 820.72424 1347.7494 4287665330
-36.93578 820.72424 1347.7494 4287204779
-32.011009 820.72424 1347.7494 4286939291
-28.317432 820.72424 1347.7494 4286414232
-24.623854 820.72424 1347.7494 4285034630
-22.161469 820.72424 1347.7494 4284771458
-19.699083 820.72424 1347.7494 4286016394
-39.398167 822.60675 1349.3367 4287204529
-32.011009 822.60675 1349.3367 4285953931
-19.699083 822.60675 1349.3367 4288649412
-17.236698 822.60675 1349.3367 4292004854
-29.438532 828.85834 1348.0677 4291809244
-26.985321 829.79608 1348.8584 4292927731
-19.625689 828.85834 1348.0677 4292862207
-17.172478 829.79608 1348.8584 4287602906
-13.083793 829.48346 1348.5948 4282478245
-9.8128443 829.79608 1348.8584 4281948284
-7.359633 828.85834 1348.0677 4285566898
-25.119267 782.21777 1350.5986 4290556377
-22.60734 782.21777 1350.5986 4291872237
-20.095413 782.21777 1350.5986 4291279848
