# .PCD v0.7 - Point Cloud Data file format
VERSION 0.7
FIELDS x y z rgb
SIZE 4 4 4 4
TYPE F F F U
COUNT 1 1 1 1
WIDTH 1158
HEIGHT 1
VIEWPOINT 0 0 0 1 0 0 0
POINTS 1158
DATA ascii
-14.322936 784.71198 1263.7555 4287595427
-16.710093 786.53699 1265.2943 4287726236
-31.510092 758.98718 1268.2257 4287989907
-16.966972 758.98718 1268.2257 4286148764
-12.927218 757.75177 1267.1841 4286346891
-9.6954126 758.06067 1267.4445 4287529887
-7.2715597 758.06067 1267.4445 4288187817
-4.8477063 758.06067 1267.4445 4290159280
-2.4238532 758.98718 1268.2257 4292726499
-31.390825 767.30652 1268.7001 4288119697
-28.976147 766.38348 1267.9219 4287989649
-24.951683 766.69116 1268.1813 4288383638
-21.732111 765.46045 1267.1436 4287265936
-19.31743 765.46045 1267.1436 4287069333
-7.2440367 765.46045 1267.1436 4291871194
-4.8293576 766.38348 1267.9219 4292003551
-2.4146788 767.30652 1268.7001 4292201189
-28.866055 772.8252 1266.8132 4288054412
-25.257797 772.8252 1266.8132 4288055180
-21.649542 772.8252 1266.8132 4287858825
-19.244038 771.90564 1266.038 4289043106
-7.2165136 771.90564 1266.038 4291213791
-4.8110094 772.8252 1266.8132 4291411672
-2.4055047 772.8252 1266.8132 4292003809
-28.755962 781.07086 1267.2256 4288120205
-26.359632 781.07086 1267.2256 4288120205
-22.765137 781.07086 1267.2256 4287331717
-19.170643 780.15485 1266.4532 4287990698
-10.783486 781.07086 1267.2256 4289042867
-7.1889906 781.07086 1267.2256 4291082191
-4.7926607 781.07086 1267.2256 4290885327
-2.3963304 781.07086 1267.2256 4291477720
-21.484404 788.36194 1266.8331 4287068301
-19.097248 788.36194 1266.8331 4287923612
-16.710093 788.36194 1266.8331 4287923612
-14.322936 788.36194 1266.8331 4287725984
-21.484404 790.18695 1268.3719 4287070088
-19.097248 790.18695 1268.3719 4288184988
-16.710093 790.18695 1268.3719 4288184988
-14.322936 790.18695 1268.3719 4287726236
-10.742202 790.18695 1268.3719 4288910762
-7.161468 790.18695 1268.3719 4290293180
-4.774312 790.18695 1268.3719 4289832890
-19.038532 795.98895 1268.0319 4288845995
-16.658716 795.98895 1268.0319 4288714409
-10.709174 795.98895 1268.0319 4288712866
-10.667891 804.11609 1268.3444 4289897901
-7.1119266 804.11609 1268.3444 4290160560
-11.80734 812.20117 1268.6213 4288712860
-14.113762 820.2442 1268.8628 4288645287
-11.761468 820.2442 1268.8628 4288776616
-4.704587 820.2442 1268.8628 4289306042
-37.372478 833.90118 1268.6057 4285881953
-35.036697 833.90118 1268.6057 4285947746
-9.3431196 833.90118 1268.6057 4289896367
-7.0073395 833.90118 1268.6057 4289041058
-4.6715598 833.90118 1268.6057 4288844197
-2.3357799 833.90118 1268.6057 4291607502
-37.740364 753.78827 1271.6902 4287132801
-34.088074 753.78827 1271.6902 4287200391
-31.653212 753.78827 1271.6902 4287923858
-29.218349 753.78827 1271.6902 4287989905
-25.566055 753.78827 1271.6902 4287200905
-21.913761 753.78827 1271.6902 4287135630
-19.478899 753.78827 1271.6902 4286412447
-17.044037 753.78827 1271.6902 4285622931
-2.4348624 753.78827 1271.6902 4293118416
-31.510092 760.84021 1269.7881 4287923858
-29.086239 760.84021 1269.7881 4287793555
-25.450459 760.84021 1269.7881 4286872714
-21.814678 760.84021 1269.7881 4286675340
-19.390825 760.84021 1269.7881 4286872475
-7.2715597 760.84021 1269.7881 4292198620
-4.8477063 760.84021 1269.7881 4292332508
-2.4238532 760.84021 1269.7881 4292529888
-36.3578 762.6933 1271.3506 4287527046
-33.933945 762.6933 1271.3506 4287396487
-31.510092 762.6933 1271.3506 4288120210
-26.662386 762.6933 1271.3506 4288516249
-2.4238532 762.6933 1271.3506 4292727014
-33.805504 770.9986 1271.8132 4287461510
-31.390825 770.07556 1271.0349 4287988110
0.80489296 770.38324 1271.2943 4292003298
13.280734 770.9986 1271.8132 4292069854
16.902752 770.9986 1271.8132 4292266463
19.31743 770.9986 1271.8132 4292266209
-31.271559 775.58368 1269.1392 4287987858
-28.866055 775.58368 1269.1392 4287989644
-4.8110094 775.58368 1269.1392 4291082455
-2.4055047 775.58368 1269.1392 4291806179
-33.677063 777.42273 1270.6898 4287199108
-31.271559 777.42273 1270.6898 4287857038
-33.548622 785.65088 1271.0874 4287134083
-31.152294 784.73486 1270.3149 4287659915
-28.755962 784.73486 1270.3149 4287988107
-26.359632 784.73486 1270.3149 4288382865
-23.164526 784.4295 1270.0575 4287134343
-19.170643 783.81885 1269.5426 4287989151
-14.377981 783.81885 1269.5426 4287725984
-10.783486 784.73486 1270.3149 4288910510
-7.1889906 784.73486 1270.3149 4290949833
-4.7926607 784.73486 1270.3149 4291081672
-2.3963304 784.73486 1270.3149 4291147465
-22.280123 793.2287 1270.9365 4288646806
-19.097248 792.01196 1269.9108 4287989151
-16.710093 792.01196 1269.9108 4287660442
-14.322936 792.92444 1270.6802 4288515240
-10.742202 792.01196 1269.9108 4288909998
-7.161468 792.92444 1270.6802 4290357946
-4.774312 792.92444 1270.6802 4290094520
-2.387156 793.83698 1271.4495 4289238952
-19.038532 797.80835 1269.5659 4289173161
-16.658716 797.80835 1269.5659 4289304748
-14.278899 797.80835 1269.5659 4289238954
-10.709174 797.80835 1269.5659 4289172907
-7.1394496 797.80835 1269.5659 4290554562
-4.7596331 797.80835 1269.5659 4290159025
-21.418348 799.62775 1271.1001 4289042593
-19.038532 799.62775 1271.1001 4289238956
-16.658716 799.62775 1271.1001 4289370543
-14.278899 799.62775 1271.1001 4289238954
-10.709174 799.62775 1271.1001 4289700016
-7.1394496 799.62775 1271.1001 4290292408
-4.7596331 799.62775 1271.1001 4291014852
-21.335779 805.92847 1269.8724 4287989655
-18.965137 805.92847 1269.8724 4287923610
-16.594496 805.92847 1269.8724 4288449954
-14.223853 805.92847 1269.8724 4289173409
-10.667891 805.92847 1269.8724 4290094771
-7.1119266 805.92847 1269.8724 4289897652
-4.7412844 805.92847 1269.8724 4290424259
-21.335779 807.74084 1271.4006 4288185751
-18.965137 807.74084 1271.4006 4288186003
-16.594496 807.74084 1271.4006 4288514968
-14.223853 807.74084 1271.4006 4288844699
-10.667891 807.74084 1271.4006 4290095284
-7.1119266 807.74084 1271.4006 4289898167
-4.7412844 807.74084 1271.4006 4290620609
-2.3706422 807.74084 1271.4006 4292265435
-30.699083 815.81189 1271.6658 4287988106
-28.337614 815.81189 1271.6658 4287988360
-22.433945 815.81189 1271.6658 4288582294
-18.891743 814.90918 1270.9047 4288844956
-16.530275 814.90918 1270.9047 4288844955
-14.168807 814.90918 1270.9047 4288580254
-10.626606 814.90918 1270.9047 4288449177
-7.0844035 814.90918 1270.9047 4289502117
-4.7229357 814.90918 1270.9047 4289963455
-2.3614678 815.81189 1271.6658 4291805147
-14.113762 822.94171 1271.1372 4288119699
-11.761468 822.94171 1271.1372 4288843165
-7.056881 823.84088 1271.8954 4288910253
-4.704587 822.94171 1271.1372 4289174193
-2.3522935 823.84088 1271.8954 4291805397
-11.715596 830.03638 1270.5792 4289566370
-7.0293579 830.03638 1270.5792 4288251294
-4.6862388 830.03638 1270.5792 4288713381
-41.392662 755.64972 1273.2598 4286934905
-37.740364 755.64972 1273.2598 4287132547
-34.088074 755.64972 1273.2598 4287200391
-29.218349 755.64972 1273.2598 4287924110
-25.566055 755.64972 1273.2598 4287069067
-21.913761 755.64972 1273.2598 4287858850
-19.478899 755.64972 1273.2598 4287069866
-43.827522 757.51123 1274.8293 4285947758
-41.392662 757.51123 1274.8293 4286934653
-37.740364 757.51123 1274.8293 4286870911
-34.088074 757.51123 1274.8293 4287266184
0 757.51123 1274.8293 4291938012
-36.3578 764.54633 1272.913 4287527046
-33.933945 764.54633 1272.913 4287461510
-37.569725 766.39941 1274.4755 4287197825
-33.933945 766.39941 1274.4755 4287461510
2.4238532 766.39941 1274.4755 4291937760
4.8477063 766.39941 1274.4755 4292003557
7.2715597 766.39941 1274.4755 4292266730
9.6954126 766.39941 1274.4755 4292201954
13.331193 766.39941 1274.4755 4292333284
-36.220184 772.8446 1273.3698 4287460997
-33.805504 772.8446 1273.3698 4287395465
1.2073394 772.8446 1273.3698 4292069350
4.8293576 772.8446 1273.3698 4291872991
7.2440367 772.8446 1273.3698 4292004577
13.280734 772.8446 1273.3698 4292135391
16.902752 772.8446 1273.3698 4292266463
19.31743 772.8446 1273.3698 4292266209
-37.427521 774.69067 1274.9263 4287132031
1.2073394 774.69067 1274.9263 4291412706
4.8293576 774.69067 1274.9263 4291544540
7.2440367 774.69067 1274.9263 4292005091
9.6587152 774.69067 1274.9263 4292136160
13.280734 774.69067 1274.9263 4292135647
16.902752 774.69067 1274.9263 4292398050
19.31743 774.69067 1274.9263 4292266463
21.732111 774.69067 1274.9263 4292332256
-36.082569 779.26178 1272.2404 4287460997
-33.677063 779.26178 1272.2404 4287264649
-31.271559 779.26178 1272.2404 4287988371
1.2027524 779.26178 1272.2404 4291806178
-36.082569 781.10083 1273.791 4287329926
-33.677063 781.10083 1273.791 4287330694
1.2027524 781.10083 1273.791 4291346132
4.8110094 781.10083 1273.791 4291543254
7.2165136 781.10083 1273.791 4292069598
9.6220188 781.10083 1273.791 4291676380
13.230275 781.10083 1273.791 4292004831
16.838531 781.10083 1273.791 4292267747
-34.746788 787.48291 1272.6321 4287067265
-31.152294 787.48291 1272.6321 4287725450
-28.755962 787.48291 1272.6321 4287792012
-26.359632 787.48291 1272.6321 4288186514
-23.963303 787.48291 1272.6321 4287201675
-2.3963304 787.48291 1272.6321 4289174960
-34.746788 789.31494 1274.1768 4287132544
-31.152294 789.31494 1274.1768 4287725452
-28.755962 789.31494 1274.1768 4287725963
-26.359632 789.31494 1274.1768 4288252563
-23.963303 789.31494 1274.1768 4288120462
-2.3963304 789.31494 1274.1768 4289634485
-33.420185 797.48694 1274.5271 4286804602
-31.033028 797.48694 1274.5271 4287528068
-28.645872 797.48694 1274.5271 4287135880
-26.258715 797.48694 1274.5271 4287793809
-23.075842 796.27032 1273.5012 4288449684
-2.387156 796.57446 1273.7577 4290422456
2.387156 797.48694 1274.5271 4287857301
4.774312 797.48694 1274.5271 4285622388
-33.317432 803.26648 1274.1682 4287067004
-30.937614 803.26648 1274.1682 4287659398
-22.608257 802.35681 1273.4011 4288647585
-19.038532 801.44714 1272.6342 4289437101
-16.658716 801.44714 1272.6342 4289634481
-14.278899 801.44714 1272.6342 4289503398
-4.7596331 801.44714 1272.6342 4291014602
-2.3798165 802.35681 1273.4011 4292397281
2.3798165 803.26648 1274.1682 4292265696
-42.671558 809.55322 1272.9287 4286079850
-40.300919 809.55322 1272.9287 4286737523
-37.930275 809.55322 1272.9287 4286803316
-34.374313 809.55322 1272.9287 4287198333
-30.818348 809.55322 1272.9287 4287922315
-28.447706 809.55322 1272.9287 4287529858
-26.077065 809.55322 1272.9287 4287200893
-22.521101 809.55322 1272.9287 4287593863
-18.965137 809.55322 1272.9287 4288909460
-16.594496 809.55322 1272.9287 4288975253
-14.223853 809.55322 1272.9287 4288647067
-9.4825687 809.55322 1272.9287 4288517283
-7.1119266 809.55322 1272.9287 4289701556
-4.7412844 809.55322 1272.9287 4290490055
-2.3706422 809.55322 1272.9287 4291805658
-42.671558 811.3656 1274.4569 4286079850
-40.300919 811.3656 1274.4569 4286803316
-37.930275 811.3656 1274.4569 4286803316
-34.374313 811.3656 1274.4569 4287264126
-30.818348 811.3656 1274.4569 4288119949
-28.447706 811.3656 1274.4569 4287726467
-26.077065 811.3656 1274.4569 4287529345
-22.521101 811.3656 1274.4569 4287791245
-2.3706422 811.3656 1274.4569 4292003294
0 811.3656 1274.4569 4291872209
-30.699083 817.61731 1273.188 4287922315
-28.337614 817.61731 1273.188 4288053901
-25.976147 817.61731 1273.188 4288580246
-22.433945 817.61731 1273.188 4288844696
-18.891743 817.61731 1273.188 4289437114
-16.530275 817.61731 1273.188 4289502907
-9.4458714 817.61731 1273.188 4288515486
-7.0844035 817.61731 1273.188 4288778657
-2.3614678 817.61731 1273.188 4291543004
-40.144955 819.42261 1274.7102 4286869112
-37.783485 819.42261 1274.7102 4286869110
-34.241287 819.42261 1274.7102 4287527552
-30.699083 819.42261 1274.7102 4287988360
-28.337614 819.42261 1274.7102 4287857805
-25.976147 819.42261 1274.7102 4288055185
-22.433945 819.42261 1274.7102 4287529606
-18.891743 819.42261 1274.7102 4287463842
-16.530275 819.42261 1274.7102 4287661222
-9.4458714 819.42261 1274.7102 4289303718
-7.0844035 819.42261 1274.7102 4289040547
-2.3614678 819.42261 1274.7102 4291608536
-39.988991 827.43756 1274.9281 4287527548
-37.636696 827.43756 1274.9281 4287527809
-35.284405 826.53839 1274.1699 4287988360
-31.363914 826.83813 1274.4227 4288382857
-28.227524 826.53839 1274.1699 4288317074
-14.113762 826.53839 1274.1699 4289830313
-10.585321 826.53839 1274.1699 4288909475
-7.056881 825.63922 1273.4117 4288056480
-4.704587 825.63922 1273.4117 4289107114
-2.3522935 827.43756 1274.9281 4291608016
-31.632111 831.8277 1272.0896 4286604391
-11.715596 831.8277 1272.0896 4290420914
0 831.8277 1272.0896 4291543508
-43.827522 760.30341 1277.1836 4286145647
-41.392662 760.30341 1277.1836 4286869371
-38.957798 760.30341 1277.1836 4286868860
1.2174312 760.30334 1277.1836 4292135649
4.8697248 760.30341 1277.1836 4292069092
7.3045874 761.23413 1277.9684 4292069348
9.7394495 761.23413 1277.9684 4292069348
12.174312 761.23413 1277.9684 4292464106
-43.629356 770.10547 1277.6003 4286079344
-41.205505 769.17896 1276.8191 4286868858
-37.973698 768.87012 1276.5587 4287000446
4.8477063 768.25244 1276.038 4291807198
7.2715597 768.25244 1276.038 4292004577
9.6954126 769.17896 1276.8191 4292070367
-41.049541 776.53674 1276.4828 4286737273
-38.634861 776.53674 1276.4828 4286803066
4.8293576 776.53674 1276.4828 4291741149
7.2440367 776.53674 1276.4828 4292135907
9.6587152 776.53674 1276.4828 4291938782
13.280734 776.53674 1276.4828 4292070111
16.902752 776.53674 1276.4828 4292596198
19.31743 776.53674 1276.4828 4292332256
-40.893578 782.93982 1275.3417 4286539895
-37.285324 782.93982 1275.3417 4286869375
1.2027524 782.93982 1275.3417 4291213512
4.8110094 782.93982 1275.3417 4292201692
7.2165136 782.93982 1275.3417 4292267486
9.6220188 782.93982 1275.3417 4291873502
13.230275 782.93982 1275.3417 4292201696
16.838531 782.93982 1275.3417 4292398304
-45.704586 784.77881 1276.8922 4285816423
-43.299084 784.77881 1276.8922 4285684842
-40.893578 784.77881 1276.8922 4286605944
-38.488075 784.77881 1276.8922 4286474617
1.2027524 784.77881 1276.8922 4290948289
4.8110094 784.77881 1276.8922 4292269030
7.2165136 784.77881 1276.8922 4291282135
9.6220188 784.77881 1276.8922 4290230730
14.433027 784.77881 1276.8922 4292398050
16.838531 784.77881 1276.8922 4292332256
-38.341286 791.14691 1275.7214 4286540662
-34.746788 791.14691 1275.7214 4287067006
-31.152294 791.14691 1275.7214 4287724937
-28.755962 791.14691 1275.7214 4287659659
-26.359632 791.14691 1275.7214 4288251796
2.3963304 791.14691 1275.7214 4288252048
-43.133945 792.97894 1277.2662 4285882216
-40.737614 792.97894 1277.2662 4286474354
-38.341286 792.97894 1277.2662 4286605942
-34.746788 792.97894 1277.2662 4287132285
-31.152294 792.97894 1277.2662 4287725191
-28.755962 792.97894 1277.2662 4287463307
-26.359632 792.97894 1277.2662 4288055700
1.1981652 792.97894 1277.2662 4287923333
4.7926607 792.97894 1277.2662 4286016646
7.1889906 792.97894 1277.2662 4285621888
-40.58165 799.31195 1276.0659 4286670967
-33.420185 799.31195 1276.0659 4286870397
-31.033028 799.31195 1276.0659 4287528070
-28.645872 799.31195 1276.0659 4287463813
-26.258715 799.31195 1276.0659 4288121743
-23.871559 799.31195 1276.0659 4288187034
1.193578 799.31195 1276.0659 4291015881
4.774312 799.31195 1276.0659 4287332752
7.161468 799.31195 1276.0659 4283648600
-45.355965 801.13696 1277.6047 4286078312
-42.968807 801.13696 1277.6047 4286078312
-40.58165 801.13696 1277.6047 4286736499
-38.194496 801.13696 1277.6047 4286606194
-35.807339 801.13696 1277.6047 4287198074
-28.645872 801.13696 1277.6047 4287594886
-26.258715 801.13696 1277.6047 4287989644
0 801.13696 1277.6047 4292397539
4.774312 801.13696 1277.6047 4291805651
7.161468 801.13696 1277.6047 4286213246
9.548624 801.13696 1277.6047 4285223771
-45.216515 805.99561 1276.4692 4286078825
-42.836697 805.08594 1275.7023 4286144619
-40.456882 805.08594 1275.7023 4286737012
-38.077065 805.08594 1275.7023 4286737775
-34.507339 805.08594 1275.7023 4287198586
-30.937614 805.08594 1275.7023 4287922313
-28.557798 805.08594 1275.7023 4287529858
-26.177982 805.08594 1275.7023 4287595651
-23.798164 805.08594 1275.7023 4287725200
1.1899083 805.99561 1276.4692 4292003030
4.7596331 805.99561 1276.4692 4292134111
7.1394496 806.90527 1277.2363 4291936988
9.5192661 806.90527 1277.2363 4290554814
-45.042202 814.99036 1277.5132 4286013801
-42.671558 814.08417 1276.7491 4286079596
-40.300919 814.08417 1276.7491 4286803318
-37.930275 814.08417 1276.7491 4286803062
-34.374313 814.08411 1276.7491 4287263870
-26.077065 813.17798 1275.9851 4288514704
1.1853211 814.08417 1276.7491 4291542995
4.7412844 814.08417 1276.7491 4291476952
7.1119266 814.99036 1277.5132 4291871454
10.272783 814.38623 1277.0038 4291146448
-42.50642 821.22803 1276.2325 4286145902
-40.144955 821.22803 1276.2325 4286935418
-37.783485 821.22803 1276.2325 4287001465
-34.241287 821.22803 1276.2325 4287593602
-30.699083 821.22803 1276.2325 4288054153
-28.337614 821.22803 1276.2325 4287857290
-25.976147 821.22803 1276.2325 4288581013
-22.433945 821.22803 1276.2325 4288383118
-18.891743 821.22803 1276.2325 4288447646
-16.530275 821.22803 1276.2325 4288315804
-9.4458714 821.22803 1276.2325 4288647337
0 821.22803 1276.2325 4291542741
-42.50642 823.03333 1277.7548 4286409072
-40.144955 823.03333 1277.7548 4287198845
-37.783485 823.03333 1277.7548 4287395967
-33.060551 823.03333 1277.7548 4287988356
-25.976147 823.03333 1277.7548 4288449943
-22.433945 823.03333 1277.7548 4289566877
-18.891743 823.03333 1277.7548 4290290613
-16.530275 823.03333 1277.7548 4289961649
-9.4458714 823.03333 1277.7548 4287990686
-2.3614678 823.03333 1277.7548 4291739091
-39.988991 829.23596 1276.4443 4285486943
-28.227524 829.23596 1276.4443 4287393139
-14.113762 829.23596 1276.4443 4290618550
-46.436699 754.737 1279.0303 4286079344
2.4440367 754.737 1279.0303 4292069598
4.8880734 754.737 1279.0303 4292134628
7.3321099 754.737 1279.0303 4292134628
9.7761469 754.737 1279.0303 4292003555
13.442202 754.737 1279.0303 4292398566
-48.880733 756.60547 1280.6058 4285355620
-46.436699 756.60547 1280.6058 4286079344
7.3321099 756.60547 1280.6058 4292068835
9.7761469 756.60547 1280.6058 4292069350
13.442202 756.60547 1280.6058 4292332775
-46.262386 763.09564 1279.538 4286079344
-43.827522 763.09564 1279.538 4286145389
-41.392662 763.09564 1279.538 4286869112
17.044037 763.09564 1279.538 4292464356
-46.053211 773.81165 1280.7252 4285881964
-43.629356 772.88513 1279.9441 4285882735
-41.205505 771.95856 1279.1628 4286606970
-43.464222 778.38275 1278.0393 4285881964
-41.049541 778.38275 1278.0393 4286539895
-38.634861 778.38275 1278.0393 4286474617
19.31743 778.38275 1278.0393 4292003805
21.732111 778.38275 1278.0393 4292201440
-45.878899 780.22882 1279.5958 4285881964
-43.464222 780.22882 1279.5958 4285881964
19.31743 780.22882 1279.5958 4292266461
21.732111 780.22882 1279.5958 4292464097
-49.312843 788.45691 1279.9935 4285027424
-45.704586 787.53735 1279.2183 4285751148
-43.299084 787.53735 1279.2183 4285816685
-40.893578 787.53735 1279.2183 4286474871
-38.488075 786.61786 1278.4429 4286605944
0.80183488 787.2309 1278.9598 4289962420
4.8110094 787.53735 1279.2183 4289174450
7.2165136 787.53735 1279.2183 4287924127
9.6220188 787.53735 1279.2183 4288120725
13.230276 787.53735 1279.2183 4291278025
16.838531 787.53735 1279.2183 4292856035
19.244038 788.45691 1279.9935 4292134882
-45.530273 794.81097 1278.8109 4285881964
-43.133945 794.81097 1278.8109 4285948010
-40.737614 794.81097 1278.8109 4286474354
-38.341286 794.81097 1278.8109 4286474356
-35.944954 794.81097 1278.8109 4287000700
0 794.81097 1278.8109 4291146952
7.1889906 794.81097 1278.8109 4283912027
10.783486 794.81097 1278.8109 4284829779
14.377981 794.81097 1278.8109 4285358703
-50.322937 796.64294 1280.3556 4285026906
-46.728439 796.64294 1280.3556 4285814888
-43.133945 796.64294 1280.3556 4285947244
-38.341286 796.64294 1280.3556 4286540149
-35.944954 796.64294 1280.3556 4287066493
10.783486 796.64294 1280.3556 4283912025
14.377981 796.64294 1280.3556 4284373078
-47.743118 802.96198 1279.1434 4285551968
7.161468 802.96198 1279.1434 4288976048
10.742202 802.96198 1279.1434 4285619815
-47.743118 804.78699 1280.6823 4285290077
11.93578 804.78699 1280.6823 4284172894
14.322936 804.78699 1280.6823 4283056184
-46.406422 808.72467 1278.7704 4285685092
2.3798165 808.72467 1278.7704 4291674831
4.7596331 808.72467 1278.7704 4291739352
7.1394496 808.72467 1278.7704 4292331745
10.709174 808.72467 1278.7704 4288449187
-46.406422 810.54407 1280.3044 4285684837
7.1394496 810.54407 1280.3044 4291937247
11.899082 810.54407 1280.3044 4286804363
14.278899 810.54407 1280.3044 4287061596
-46.227524 817.70898 1279.8054 4285684838
-42.671558 816.80273 1279.0414 4286145389
1.5804281 817.40692 1279.5508 4291279824
4.7412844 817.70892 1279.8054 4291411155
7.1119266 816.80273 1279.0414 4291805658
11.062997 817.40692 1279.5508 4290818513
-43.687157 824.83875 1279.277 4286671976
-25.976147 824.83875 1279.277 4289105306
-22.433945 824.83875 1279.277 4289894556
-18.891743 824.83875 1279.277 4291012272
-16.530275 824.83875 1279.277 4290749356
1.1807339 824.83875 1279.277 4291477713
-42.50642 826.6441 1280.7992 4285421150
-25.976147 826.6441 1280.7992 4287985276
-16.530275 826.6441 1280.7992 4291013816
2.3614678 826.6441 1280.7992 4291214543
-51.324772 758.474 1282.1813 4285355872
-48.880733 758.474 1282.1813 4285355872
-46.436699 758.474 1282.1813 4286079596
14.66422 758.474 1282.1813 4292333540
17.108257 758.474 1282.1813 4292267747
-52.546791 760.34247 1283.7567 4284765019
-48.880733 760.34247 1283.7567 4285355620
-46.262386 764.95709 1281.1075 4285948010
-43.827522 764.95709 1281.1075 4285882216
-48.697247 766.8186 1282.6771 4285355872
-46.262386 766.8186 1282.6771 4286013803
-49.688992 775.66467 1282.2877 4285224287
-46.053211 775.66467 1282.2877 4285881964
-49.688992 777.5177 1283.8501 4285224287
-49.500916 782.07483 1281.1523 4285092701
12.073395 782.07483 1281.1523 4291875299
19.31743 782.07483 1281.1523 4292003292
21.732111 782.07483 1281.1523 4292069341
24.14679 782.07483 1281.1523 4292133597
-49.500916 783.9209 1282.709 4285026910
19.31743 783.9209 1282.709 4292069087
21.732111 783.9209 1282.709 4292003294
-49.312843 790.2959 1281.5442 4285289823
-45.704586 790.2959 1281.5442 4285948010
9.6220188 790.2959 1281.5442 4285949043
13.230275 790.2959 1281.5442 4288185506
16.838531 790.2959 1281.5442 4292658419
19.244038 790.2959 1281.5442 4292463593
-52.921101 792.13495 1283.0947 4284895319
-49.312843 792.13495 1283.0947 4285158495
16.838531 792.13495 1283.0947 4290951107
19.244038 792.13495 1283.0947 4291478235
-52.719265 800.30701 1283.4451 4284959579
-50.322937 799.39099 1282.6726 4285092189
-47.926605 798.47498 1281.9003 4285486175
11.981651 798.47498 1281.9003 4284434255
14.377981 799.39099 1282.6726 4283583057
16.774311 800.30701 1283.4451 4284701540
14.322936 806.61194 1282.2211 4283251796
16.710093 806.61194 1282.2211 4283646297
-50.130276 808.43701 1283.7599 4285094238
16.710093 808.43701 1283.7599 4285285185
21.484404 808.43701 1283.7599 4288849075
-47.596329 812.36346 1281.8385 4285421663
14.278899 812.36346 1281.8385 4287922815
16.658716 812.36346 1281.8385 4284238407
21.418348 812.36346 1281.8385 4287663522
-49.976147 814.18286 1283.3726 4285290077
14.278899 814.18286 1283.3726 4289040547
16.658716 814.18286 1283.3726 4283908693
21.418348 814.18286 1283.3726 4287923599
-46.227524 820.42749 1282.0977 4285882215
1.1853211 820.42749 1282.0977 4291346129
4.7412844 820.42749 1282.0977 4291214030
-49.783485 822.23987 1283.6259 4286605424
-47.412846 822.23987 1283.6259 4286408797
4.7412844 822.23987 1283.6259 4291214282
-56.423855 755.71381 1286.3942 4284501845
-53.152905 754.46344 1285.34 4284830045
17.172478 753.83832 1284.8127 4292267234
-56.212845 764.07947 1286.9076 4284698197
-52.546791 763.1452 1286.1199 4285026908
-48.880733 762.21094 1285.3322 4285421665
-56.001835 770.5415 1285.8162 4284501845
-52.349541 769.61084 1285.0314 4284895320
-48.697247 769.61078 1285.0314 4285092703
-46.262386 768.68005 1284.2466 4286013803
-55.748623 779.37079 1285.4126 4284829526
-53.324772 779.37079 1285.4126 4284829272
-55.748623 781.22388 1286.9751 4284632404
-53.324772 781.22388 1286.9751 4284632150
-53.122936 785.76697 1284.2655 4284500564
21.732111 785.76697 1284.2655 4292134882
-55.537613 787.61298 1285.822 4284632404
-53.122936 787.61298 1285.822 4284829272
-57.732109 793.974 1284.6454 4284436052
-55.326607 793.974 1284.6454 4284567638
-52.921101 793.974 1284.6454 4284895319
16.838531 793.974 1284.6454 4289175710
19.244038 793.974 1284.6454 4290292176
21.649542 793.974 1284.6454 4292463345
-57.732109 795.81299 1286.196 4284501845
-55.326607 795.81299 1286.196 4284633687
-52.921101 795.81299 1286.196 4284895319
16.838531 795.81299 1286.196 4285688687
19.244038 795.81299 1286.196 4287923358
21.649542 795.81299 1286.196 4292528868
-52.719265 803.05505 1285.7621 4284763990
-50.322937 803.05505 1285.7621 4285224541
16.774311 802.13904 1284.9897 4283845700
19.170643 803.05505 1285.7621 4283912539
21.566973 803.05505 1285.7621 4290162874
-57.291744 812.08698 1286.8374 4284633687
-54.904587 811.17444 1286.0681 4284567894
-52.517429 811.17444 1286.0681 4284895320
-50.130276 810.26196 1285.2987 4285355872
19.097248 811.17444 1286.0681 4283188050
-52.355965 816.91199 1285.6736 4285158236
-49.976147 816.91199 1285.6736 4285487201
7.1394496 816.91199 1285.6736 4291608532
10.312538 817.21515 1285.9293 4291673049
14.278899 816.91199 1285.6736 4289371569
16.658716 816.91199 1285.6736 4283450198
21.418348 816.91199 1285.6736 4287202428
-46.227524 824.05225 1285.1539 4285749080
-22.521101 824.05225 1285.1539 4290155416
-18.965137 824.05225 1285.1539 4291211452
4.7412844 824.05225 1285.1539 4291214028
-45.042202 825.86462 1286.6821 4285290325
-42.671558 825.86462 1286.6821 4285159007
-18.965137 825.86462 1286.6821 4290948512
-58.877064 757.58936 1287.9755 4284501845
-56.423855 757.58936 1287.9755 4284501845
19.625689 757.58936 1287.9755 4292332259
-58.877064 759.46484 1289.5569 4284698197
-56.423855 759.46484 1289.5569 4284698197
-58.656879 765.94794 1288.4832 4284502097
-56.212845 765.94794 1288.4832 4284502097
-60.871559 772.40302 1287.3857 4284108886
-58.436699 772.40302 1287.3857 4284436052
-56.001835 772.40302 1287.3857 4284567638
-53.566971 772.40302 1287.3857 4285026906
-60.871559 774.26447 1288.9552 4284109140
-58.436699 774.26447 1288.9552 4284436052
-56.001835 774.26447 1288.9552 4284567638
-53.566971 774.26447 1288.9552 4284895319
-55.748623 783.0769 1288.5375 4284632404
-61.171864 790.6897 1288.4161 4284304466
-57.952293 789.45898 1287.3785 4284501845
-55.537613 789.45898 1287.3785 4284633687
-60.137615 797.65204 1287.7466 4284436052
-57.732109 797.65204 1287.7466 4284698197
-55.326607 797.65204 1287.7466 4284698197
19.244038 797.65204 1287.7466 4286082939
21.649542 797.65204 1287.7466 4292004309
-60.137615 799.49109 1289.2972 4284436052
-57.732109 799.49109 1289.2972 4284698197
-55.326607 799.49109 1289.2972 4284829526
-57.511925 805.80304 1288.0791 4284502097
-55.115597 805.80304 1288.0791 4284567890
-52.719265 805.80304 1288.0791 4284567638
19.170643 805.80304 1288.0791 4283125084
-64.70092 807.63507 1289.6239 4284109140
-62.304588 807.63507 1289.6239 4284501845
-58.710091 807.63507 1289.6239 4284501845
-57.291744 814.82446 1289.1456 4284895573
-54.904587 814.82446 1289.1456 4284961367
19.097248 814.82446 1289.1456 4283188799
-54.735779 820.55072 1288.7417 4285356124
-52.355965 820.55072 1288.7417 4285684322
-49.976147 821.46045 1289.5088 4285684322
7.1394496 820.55072 1288.7417 4291411405
11.105809 820.2475 1288.4861 4291673555
14.278899 820.55072 1288.7417 4290095031
16.658716 820.55072 1288.7417 4283976539
19.038532 819.64099 1287.9747 4282992201
21.418348 819.64099 1287.9747 4286808195
19.699083 752.95374 1290.6071 4292201440
-58.877064 761.34033 1291.1383 4284698197
-61.330276 763.21582 1292.7196 4284501845
-61.100918 767.81641 1290.0586 4284108886
-58.656879 767.81641 1290.0586 4284370259
21.99633 767.81641 1290.0586 4292332256
24.440367 767.81641 1290.0586 4292135393
-60.871559 776.12592 1290.5248 4284436304
-58.436699 776.12592 1290.5248 4284698197
-60.871559 777.98743 1292.0944 4284370511
-58.436699 777.98743 1292.0944 4284632404
-60.596329 784.92993 1290.1 4284370259
-58.172478 784.92993 1290.1 4284632404
-61.57431 793.15112 1290.4916 4284370259
-64.948624 803.16913 1292.3984 4284370259
-61.340366 802.24963 1291.6232 4284370260
-57.732109 801.33008 1290.8479 4284436052
-55.326607 801.33008 1290.8479 4284501845
-64.70092 809.46704 1291.1686 4284501845
-62.304588 809.46704 1291.1686 4284436304
-59.908257 809.46704 1291.1686 4284502097
-64.70092 811.29907 1292.7133 4284501845
-62.304588 811.29907 1292.7133 4284436556
-59.908257 811.29907 1292.7133 4284568142
-57.291744 817.56201 1291.4539 4285158744
-64.453209 819.38696 1292.9927 4284962396
-62.066055 819.38696 1292.9927 4285290077
-57.291744 819.38696 1292.9927 4285355870
9.548624 819.38696 1292.9927 4291805397
-52.355965 823.27979 1291.0428 4285487457
-49.976147 823.27979 1291.0428 4285290077
-47.596329 823.27979 1291.0428 4285093203
-66.634865 825.09918 1292.5769 4286216324
-64.255043 825.09918 1292.5769 4285097843
-60.871559 779.84888 1293.6639 4284370511
-58.436699 779.84888 1293.6639 4284632404
-64.70092 814.04712 1295.0303 4284765017
-62.304588 814.04712 1295.0303 4284765271
-59.908257 814.04712 1295.0303 4284765271
-64.453209 821.21198 1294.5314 4285096031
-62.066055 821.21198 1294.5314 4285686118
-57.291744 821.21198 1294.5314 4285291363
-54.904587 821.21198 1294.5314 4285291363
14.322936 821.21198 1294.5314 4289702326
-66.634865 826.91858 1294.111 4287334039
-64.255043 826.91858 1294.111 4285360249
-66.634865 828.73798 1295.645 4288257972
-64.255043 828.73798 1295.645 4286942112
-59.908257 817.71118 1298.1198 4285290590
-62.066055 823.03699 1296.0702 4284834153
-57.291744 823.03699 1296.0702 4285421414
-54.904587 823.03699 1296.0702 4285421414
-52.517429 823.03699 1296.0702 4285355872
-50.130276 823.03699 1296.0702 4285355872
-47.743118 823.03699 1296.0702 4285094238
-61.78899 755.86212 1299.5995 4284436304
-59.908257 820.45917 1300.4368 4284637031
-62.304588 822.2912 1301.9814 4284571497
-63.544952 787.43555 1306.6008 4284304466
-60.137615 819.7204 1306.354 4284440168
-57.732109 819.7204 1306.354 4284765807
-55.326607 819.7204 1306.354 4284897650
-53.122936 817.14966 1310.7266 4285290857
14.543119 812.72583 1313.5366 4289897915
-61.57431 818.99573 1312.2831 4285494404
-58.172478 816.43188 1316.6616 4285097078
-55.748623 816.43188 1316.6616 4285491836
26.561468 824.53381 1316.9528 4291608786
9.7394495 807.771 1317.207 4291674581
12.174312 807.771 1317.207 4291542995
17.044037 809.63245 1318.7766 4283976546
24.238533 820.13806 1319.7865 4291805145
-51.132111 811.4939 1320.3462 4285290857
14.609175 811.4939 1320.3462 4288913846
17.044037 811.4939 1320.3462 4283387490
19.478899 811.4939 1320.3462 4283518314
-53.566971 813.35541 1321.9156 4285490802
14.609175 813.35541 1321.9156 4286483360
17.044037 813.35541 1321.9156 4285562258
19.478899 813.35541 1321.9156 4286808164
24.238533 821.99109 1321.3489 4291608786
19.390825 823.84412 1322.9114 4291609040
25.450459 823.84412 1322.9114 4291280852
12.220183 807.98889 1323.9309 4291345618
-63.306423 815.21686 1323.4852 4287399842
-60.871559 815.21686 1323.4852 4285952396
-58.436699 815.21686 1323.4852 4285163132
-56.001835 815.21686 1323.4852 4285163132
14.609175 815.21686 1323.4852 4287726989
17.044037 815.21686 1323.4852 4287463561
19.478899 815.21686 1323.4852 4287989937
21.913761 815.21686 1323.4852 4291476709
-63.306423 817.07837 1325.0548 4288452271
-60.871559 817.07837 1325.0548 4287201947
17.044037 817.07837 1325.0548 4289896355
19.478899 817.07837 1325.0548 4290948546
21.913761 817.07837 1325.0548 4292132563
16.966972 825.6972 1324.4739 4291871696
19.390825 825.6972 1324.4739 4291609036
21.732111 832.841 1323.957 4290093491
9.8128443 804.47681 1327.5099 4291674842
-53.768806 812.6601 1327.8696 4285294200
12.220183 811.72583 1327.0819 4289371305
-60.871559 818.93982 1326.6244 4287991470
14.609175 818.93982 1326.6244 4290423467
17.044037 818.93982 1326.6244 4290949811
19.478899 818.93982 1326.6244 4291278803
21.913761 818.93982 1326.6244 4291936734
31.653212 818.93982 1326.6244 4291608788
-63.306423 820.80127 1328.1938 4290359498
-60.871559 820.80127 1328.1938 4289701824
14.609175 820.80127 1328.1938 4290489789
17.044037 820.80127 1328.1938 4291410891
21.913761 820.80127 1328.1938 4291609040
29.218349 820.80127 1328.1938 4291346643
14.543119 827.55023 1326.0363 4292135384
16.966972 827.55023 1326.0363 4291871955
19.390825 827.55023 1326.0363 4291609299
21.814678 827.55023 1326.0363 4291675092
24.238533 827.55023 1326.0363 4291282126
14.543119 829.40332 1327.5988 4291017414
16.966972 829.40332 1327.5988 4291609551
19.390825 829.40332 1327.5988 4291871703
16.902752 835.61011 1326.292 4285093232
19.31743 835.61011 1326.292 4286279260
57.099083 784.84027 1331.8812 4292199905
56.845871 793.65271 1331.4635 4291543256
7.387156 800.01654 1330.2892 4291411153
7.387156 801.89905 1331.8765 4291478485
-49.06422 806.35229 1329.0912 4285291111
9.8128443 806.35229 1329.0912 4292003546
-51.517429 808.22784 1330.6726 4285227631
-49.06422 808.22784 1330.6726 4285095785
9.8128443 808.22784 1330.6726 4291674581
-58.656879 814.52856 1329.4451 4286478481
-56.212845 814.52856 1329.4451 4285754501
-52.546791 814.52856 1329.4451 4285492086
13.442202 814.52856 1329.4451 4289633197
-63.544952 816.39709 1331.0205 4288846779
-58.656879 816.39709 1331.0205 4287070377
-56.212845 816.39709 1331.0205 4286215324
-52.546791 816.39709 1331.0205 4285492853
12.220183 816.39709 1331.0205 4290292687
-60.871559 823.59351 1330.5482 4290557133
13.391743 823.59351 1330.5482 4292067016
21.913761 822.66278 1329.7634 4291675085
25.566055 822.66278 1329.7634 4291346897
29.218349 822.66278 1329.7634 4291478481
13.735168 832.4917 1330.2028 4285555841
16.966972 831.25635 1329.1611 4285030783
19.390825 831.25635 1329.1611 4287196798
27.732111 754.56268 1333.8207 4292003805
30.25321 754.56268 1333.8207 4292069341
54.818348 778.41046 1332.9999 4287794852
52.326607 780.31543 1334.6061 4290555877
54.818348 780.31543 1334.6061 4289044181
57.310093 780.31543 1334.6061 4288649423
54.616512 786.73822 1333.4816 4292003294
57.099083 786.73822 1333.4816 4292069087
-2.4715595 797.43176 1334.6499 4291804366
4.943119 797.43176 1334.6499 4291345359
56.845871 795.54224 1333.0566 4291608536
7.387156 803.78162 1333.4637 4292266198
-51.517429 810.10333 1332.2539 4285097078
-49.06422 811.04108 1333.0447 4285556081
9.8128443 811.04108 1333.0447 4290159798
-58.656879 818.26556 1332.5959 4288846525
-56.212845 818.26556 1332.5959 4287793837
12.220183 818.26556 1332.5959 4289898945
31.772476 818.26556 1332.5959 4291346643
-63.544952 820.13403 1334.1714 4290820049
-58.656879 820.13403 1334.1714 4289636038
-56.212845 820.13403 1334.1714 4288254386
-52.546791 820.13403 1334.1714 4287070363
12.220183 820.13403 1334.1714 4291278251
31.772476 820.13403 1334.1714 4291412688
12.174312 826.38568 1332.9026 4290622615
9.7394495 828.24719 1334.472 4280567643
12.174312 828.24719 1334.472 4281554538
9.6954126 834.96246 1332.2861 4292133597
52.519264 773.86456 1335.7072 4281612347
55.020184 773.86456 1335.7072 4278798382
50.018349 775.77649 1337.3193 4290164172
52.519264 775.77649 1337.3193 4287795624
52.326607 782.22034 1336.2123 4292003044
54.818348 782.22034 1336.2123 4291936734
47.343121 784.12531 1337.8186 4291608536
49.834862 784.12531 1337.8186 4291805658
52.326607 784.12531 1337.8186 4292134880
54.616512 788.63611 1335.0818 4291609047
57.099083 788.63611 1335.0818 4291543254
54.616512 790.53406 1336.6821 4291477463
4.943119 799.32129 1336.243 4291478485
-46.959633 801.21082 1337.8363 4285291111
-19.772476 801.21082 1337.8363 4285289051
-17.300917 801.21082 1337.8363 4285880931
-14.829358 801.21082 1337.8363 4286472053
-2.4715595 801.21082 1337.8363 4290883768
4.943119 801.21082 1337.8363 4292134612
49.431194 801.21082 1337.8363 4291674842
51.902752 801.21082 1337.8363 4291740636
7.387156 805.66412 1335.051 4292264403
-46.78532 807.54663 1336.6384 4285490287
7.387156 807.54663 1336.6384 4290948794
-52.744034 815.72986 1336.998 4286413453
-49.06422 814.79211 1336.2074 4285819770
-46.611008 813.85437 1335.4167 4285687932
9.8128443 814.79211 1336.2074 4288779956
34.344955 814.79211 1336.2074 4291346132
36.798164 814.79211 1336.2074 4291346132
39.251377 814.79211 1336.2074 4291346133
-63.544952 822.00256 1335.7468 4291281370
-61.100918 823.87103 1337.3223 4291346134
-58.656879 822.93677 1336.5345 4290688972
-56.212845 822.00256 1335.7468 4289505474
-53.768806 822.93677 1336.5345 4289767103
9.7761469 822.93677 1336.5345 4291212201
9.7394495 830.10864 1336.0416 4286083471
7.3045874 831.97009 1337.6112 4291673298
12.174312 831.97009 1337.6112 4291475666
46.640366 762.27234 1340.3212 4292069601
50.42202 762.27234 1340.3212 4292464360
47.726604 770.69543 1340.8833 4291608284
50.238533 770.69543 1340.8833 4289573300
52.750458 768.77509 1339.264 4284507519
46.266972 778.64453 1339.7374 4291740636
50.018349 778.64447 1339.7375 4291476968
44.851376 786.03027 1339.4248 4291542743
47.343121 786.03027 1339.4248 4291608536
49.834862 786.03027 1339.4248 4291608536
52.326607 786.03027 1339.4248 4291608536
-42.203671 794.32996 1339.8827 4284764249
-39.7211 794.32996 1339.8827 4284633687
-37.238533 794.32996 1339.8827 4285225567
-17.377981 794.32996 1339.8827 4291277477
-13.654128 794.32996 1339.8827 4291143610
-9.930275 794.32996 1339.8827 4290290100
-7.4477062 794.32996 1339.8827 4289566120
-4.9651375 794.32996 1339.8827 4289304488
1.2412844 794.32996 1339.8827 4291476948
49.651375 793.38098 1339.0825 4291542744
52.133945 793.38098 1339.0825 4291411158
54.616512 793.38098 1339.0825 4291411157
-46.959633 803.10034 1339.4294 4285095785
-22.244038 803.10034 1339.4294 4285817705
-19.772476 803.10034 1339.4294 4285751912
-17.300917 803.10034 1339.4294 4285488740
-13.593578 803.10034 1339.4294 4285161322
-2.4715595 803.10034 1339.4294 4289370793
4.943119 803.10034 1339.4294 4291211715
-46.78532 809.42914 1338.2256 4285753204
7.387156 809.42914 1338.2256 4288713885
34.473396 809.42914 1338.2256 4291411155
36.93578 809.42914 1338.2256 4291542741
-44.322937 811.31165 1339.813 4285816944
7.387156 811.31165 1339.813 4288713880
41.86055 811.31165 1339.813 4291346134
-49.06422 817.60535 1338.5795 4285885308
-46.611008 817.60535 1338.5795 4286148737
7.359633 817.60535 1338.5795 4289566891
9.8128443 817.60535 1338.5795 4290554271
34.344955 817.60535 1338.5795 4291477713
-51.517429 819.48083 1340.1609 4288517294
-49.06422 819.48083 1340.1609 4287728284
-46.611008 819.48083 1340.1609 4287070098
7.359633 819.48083 1340.1609 4290618300
-58.656879 825.7395 1338.8978 4291214291
-56.212845 826.67371 1339.6855 4290950860
-52.546791 826.67371 1339.6855 4290226895
7.3321099 826.67371 1339.6855 4282602349
37.981651 755.2063 1342.2115 4291872991
40.51376 755.2063 1342.2115 4291872991
43.045872 755.2063 1342.2115 4291938784
45.57798 755.2063 1342.2115 4291938782
48.110092 755.2063 1342.2115 4292136160
37.981651 757.14215 1343.8438 4292003807
40.51376 757.14215 1343.8438 4292003809
43.045872 757.14215 1343.8438 4292069602
45.57798 757.14215 1343.8438 4292069600
49.376144 757.14215 1343.8438 4292135648
46.640366 764.19971 1341.9463 4292266977
50.42202 764.19971 1341.9463 4291741680
52.943119 764.19971 1341.9463 4291347178
42.858715 766.12708 1343.5714 4292201189
46.640366 766.12708 1343.5714 4292332257
50.42202 766.12708 1343.5714 4289968337
46.470642 772.61584 1342.5024 4291806430
45.016514 781.51245 1342.1556 4291805658
44.851376 787.93524 1341.031 4291476698
47.343121 787.93524 1341.031 4291608284
49.834862 787.93524 1341.031 4291608536
52.326607 787.93524 1341.031 4291608536
44.851376 789.84021 1342.6372 4291280087
47.343121 789.84021 1342.6372 4291477209
-47.168808 796.22791 1341.483 4285094238
-43.444954 796.22791 1341.483 4284701022
-28.549541 796.22791 1341.483 4284569687
-24.825687 796.22791 1341.483 4284174679
-22.343119 796.22791 1341.483 4284437850
-19.86055 796.22791 1341.483 4285420900
-17.377981 796.22791 1341.483 4286407795
-13.654128 796.22791 1341.483 4289758611
-9.930275 796.22791 1341.483 4290420653
-7.4477062 796.22791 1341.483 4290091431
-4.9651375 796.22791 1341.483 4289568421
-2.4825687 796.22791 1341.483 4291476418
2.4825687 796.22791 1341.483 4291477715
49.651375 796.22791 1341.483 4291477209
52.133945 796.22791 1341.483 4291477209
-43.444954 798.12585 1343.0833 4285159520
-27.308256 798.12585 1343.0833 4284898152
-24.825687 798.12585 1343.0833 4284635230
-22.343119 798.12585 1343.0833 4284766559
-12.412844 798.12585 1343.0833 4289103773
-9.930275 798.12585 1343.0833 4289436065
-7.4477062 798.12585 1343.0833 4290028459
-4.9651375 798.12585 1343.0833 4289896616
1.2412844 798.12585 1343.0833 4291542983
47.168808 798.12585 1343.0833 4291675096
-43.664219 806.24951 1342.0848 4285489768
-27.187157 806.87939 1342.6158 4286014316
-24.715597 806.87939 1342.6158 4285490539
-22.244038 805.93463 1341.8193 4285687147
-19.772476 805.93463 1341.8193 4285883500
-17.300917 805.93463 1341.8193 4286014829
-13.593578 805.93457 1341.8193 4286079350
-9.8862381 806.87939 1342.6158 4285947758
-7.4146791 805.93463 1341.8193 4288184973
-4.943119 806.87939 1342.6158 4287659146
-2.4715595 805.93463 1341.8193 4288449171
4.943119 805.93463 1341.8193 4288909980
39.544952 806.87939 1342.6158 4291608536
42.016514 806.87939 1342.6158 4291608536
-46.78532 813.19415 1341.4003 4286017144
-44.322937 814.13538 1342.1938 4286081904
4.9247708 814.13538 1342.1938 4287791503
7.387156 813.19415 1341.4003 4288582042
36.93578 815.07666 1342.9875 4291346384
40.629356 814.13538 1342.1938 4291412181
-56.423855 821.35632 1341.7422 4289964731
-51.517429 821.35632 1341.7422 4289043379
-49.06422 821.35632 1341.7422 4288649132
-46.611008 821.35632 1341.7422 4287267479
-44.157799 821.35632 1341.7422 4286873475
4.9064221 821.35632 1341.7422 4286147992
7.359633 821.35632 1341.7422 4288187831
-49.06422 823.23181 1343.3236 4288782267
-46.611008 823.23181 1343.3236 4287795372
-44.157799 823.23181 1343.3236 4287466141
-41.704586 823.23181 1343.3236 4286610832
4.9064221 823.23181 1343.3236 4278661183
-56.212845 829.47644 1342.0487 4289501359
4.8880734 829.47644 1342.0487 4290028216
2.4440367 831.34497 1343.6241 4291344857
4.8880734 831.34497 1343.6241 4290820301
40.51376 759.07794 1345.476 4292069348
43.045872 759.07794 1345.476 4292069348
53.174313 759.07794 1345.476 4292661740
42.858715 768.0545 1345.1965 4292332256
45.379818 768.0545 1345.1965 4292332007
-34.884403 791.74518 1344.2434 4285618011
-32.392662 791.74518 1344.2434 4285946976
-28.655045 791.74518 1344.2434 4286540122
-24.917431 791.74518 1344.2434 4288185462
-22.425688 791.74518 1344.2434 4289238150
47.343121 791.74518 1344.2434 4291542743
-39.867889 793.65015 1345.8496 4284569687
-37.376148 793.65015 1345.8496 4284898651
-34.884403 793.65015 1345.8496 4284832606
-32.392662 793.65015 1345.8496 4284569691
0 793.65015 1345.8496 4291148750
44.851376 793.65015 1345.8496 4291805912
47.343121 793.65015 1345.8496 4291608790
-43.444954 800.0238 1344.6836 4285291363
-27.308256 800.0238 1344.6836 4285358700
-24.825687 800.0238 1344.6836 4285751912
-9.930275 800.0238 1344.6836 4286606455
-7.4477062 800.0238 1344.6836 4289698726
-4.9651375 800.0238 1344.6836 4289699757
1.2412844 800.0238 1344.6836 4290028459
43.444954 800.0238 1344.6836 4291017682
47.168808 800.0238 1344.6836 4291280600
49.651375 800.0238 1344.6836 4291345880
-42.203671 801.92175 1346.2839 4285554789
-39.7211 801.92175 1346.2839 4285488742
-37.238533 801.92175 1346.2839 4285488742
-34.755962 801.92175 1346.2839 4285488490
-32.273396 801.92175 1346.2839 4285554283
-28.549541 801.92175 1346.2839 4285424745
-24.825687 801.92175 1346.2839 4285817705
-9.930275 801.92175 1346.2839 4286013801
-4.9651375 801.92175 1346.2839 4289896870
1.2412844 801.92175 1346.2839 4289763988
42.203671 801.92175 1346.2839 4291280085
-42.016514 808.76892 1344.2091 4285948273
-39.544952 808.76892 1344.2091 4285817194
-28.422935 808.76892 1344.2091 4285490543
-24.715597 808.76892 1344.2091 4285556082
-22.244038 808.76892 1344.2091 4285753204
-19.772476 808.76892 1344.2091 4286014834
-17.300917 808.76892 1344.2091 4286278006
-13.593578 808.76892 1344.2091 4286408822
-9.8862381 808.76892 1344.2091 4285950588
-7.4146791 808.76892 1344.2091 4286476932
-4.943119 808.76892 1344.2091 4287067517
-2.4715595 808.76892 1344.2091 4287199360
2.4715595 808.76892 1344.2091 4287592317
4.943119 808.76892 1344.2091 4287069055
-42.016514 810.65845 1345.8022 4286015086
-39.544952 810.65845 1345.8022 4285622129
-37.073395 810.65845 1345.8022 4285753458
-34.601833 810.65845 1345.8022 4285753458
-28.422935 810.65845 1345.8022 4285819503
-24.715597 810.65845 1345.8022 4285885297
-22.244038 810.65845 1345.8022 4285819503
-19.772476 810.65845 1345.8022 4286212465
-17.300917 810.65845 1345.8022 4286344051
-13.593578 810.65845 1345.8022 4286344051
-9.8862381 810.65845 1345.8022 4285621875
-7.4146791 810.65845 1345.8022 4286213755
-4.943119 810.65845 1345.8022 4286805113
-2.4715595 810.65845 1345.8022 4287463300
2.4715595 810.65845 1345.8022 4287724939
-44.322937 816.95923 1344.5748 4286544253
-40.629356 817.90045 1345.3684 4286280570
-29.548624 818.84167 1346.1621 4286475898
-24.623854 818.84167 1346.1621 4286476150
-22.161469 818.84167 1346.1621 4286476150
-19.699083 817.90045 1345.3684 4286214008
-17.236698 818.84167 1346.1621 4286016631
-13.543119 817.90051 1345.3684 4285621358
-9.8495417 818.84167 1346.1621 4288054094
-7.387156 818.84167 1346.1621 4291870088
-4.9247708 818.84167 1346.1621 4291608286
-2.4623854 818.84167 1346.1621 4289502653
2.4623854 818.84167 1346.1621 4284901995
4.9247708 816.95923 1344.5748 4288644253
-49.06422 825.10736 1344.905 4289175478
-46.611008 825.10736 1344.905 4288451499
-44.157799 825.10736 1344.905 4287728291
-41.704586 825.10736 1344.905 4287004825
2.4532111 826.98285 1346.4863 4290095558
4.9064221 825.10736 1344.905 4282069591
43.045872 761.01379 1347.1082 4292069350
-39.867889 796.50757 1348.2589 4285225570
-37.376148 796.50757 1348.2589 4285357156
-34.884403 796.50757 1348.2589 4285029735
-32.392662 796.50757 1348.2589 4285161577
-29.900917 796.50757 1348.2589 4285161322
39.867889 797.46002 1349.062 4291017680
43.605507 795.55505 1347.4558 4291543253
-39.7211 803.8197 1347.8842 4285685864
-37.238533 803.8197 1347.8842 4285685864
-34.755962 803.8197 1347.8842 4285751400
-32.273396 803.8197 1347.8842 4285817194
-29.790825 803.8197 1347.8842 4285817194
1.2412844 803.8197 1347.8842 4287788667
44.686237 803.8197 1347.8842 4291410903
47.168808 803.8197 1347.8842 4291476696
-37.238533 805.71765 1349.4845 4285948523
-34.755962 805.71765 1349.4845 4285490287
-32.273396 805.71765 1349.4845 4285490287
0 805.71765 1349.4845 4287197559
44.686237 805.71765 1349.4845 4291345880
47.168808 805.71765 1349.4845 4291345880
-42.016514 812.54797 1347.3955 4286082930
-39.544952 812.54797 1347.3955 4286212213
-37.073395 812.54797 1347.3955 4286146419
-34.601833 812.54797 1347.3955 4285885047
-32.130276 812.54797 1347.3955 4285950840
-28.422935 812.54797 1347.3955 4286016883
-24.715597 812.54797 1347.3955 4286016883
-22.244038 812.54797 1347.3955 4286016883
-19.772476 812.54797 1347.3955 4286214259
-17.300917 812.54797 1347.3955 4286411639
-13.593578 812.54797 1347.3955 4286212976
-9.8862381 812.54797 1347.3955 4285685868
-7.4146791 812.54797 1347.3955 4286672764
-4.943119 812.54797 1347.3955 4288908163
-2.4715595 812.54797 1347.3955 4290158230
2.4715595 812.54797 1347.3955 4288252048
-37.073395 814.4375 1348.9886 4285950838
-34.601833 814.4375 1348.9886 4286343799
-32.130276 814.4375 1348.9886 4286343799
-28.422935 814.4375 1348.9886 4286148216
-24.715597 814.4375 1348.9886 4286214261
-22.244038 814.4375 1348.9886 4286214261
-17.300917 814.4375 1348.9886 4286411643
-9.8862381 814.4375 1348.9886 4285355831
-7.4146791 814.4375 1348.9886 4290290307
-4.943119 814.4375 1348.9886 4291933905
-2.4715595 814.4375 1348.9886 4291012803
1.2357798 814.4375 1348.9886 4289172896
-39.398167 820.72424 1347.7494 4286544005
-36.93578 820.72424 1347.7494 4286609799
-34.473396 820.72424 1347.7494 4286346879
