# .PCD v0.7 - Point Cloud Data file format
VERSION 0.7
FIELDS x y z rgb
SIZE 4 4 4 4
TYPE F F F U
COUNT 1 1 1 1
WIDTH 1167
HEIGHT 1
VIEWPOINT 0 0 0 1 0 0 0
POINTS 1167
DATA ascii
26.136696 807.91644 783.6535 4292464344
28.666056 807.91638 783.6535 4292069585
31.195412 808.56104 784.19696 4289961921
34.28685 809.42041 784.92163 4292002450
37.097248 809.85016 785.28394 4294961151
16.825687 812.62494 785.00745 4291345600
19.629969 812.19611 784.64594 4291805641
22.43425 811.76733 784.28436 4292332243
26.079817 811.33856 783.92285 4292726743
28.60367 811.33856 783.92285 4291739593
31.127522 811.98175 784.46515 4291343810
34.492661 812.62494 785.00745 4293252564
10.900917 817.4176 785.12451 4289105292
13.416513 817.4176 785.12451 4291474360
16.21162 816.99023 784.76416 4291739331
19.28624 816.77655 784.58398 4291806155
22.640366 816.77655 784.58398 4292332755
25.994495 816.77655 784.58398 4292397779
28.510092 816.77655 784.58398 4292923613
30.746178 816.99023 784.76416 4292989662
34.379814 817.4176 785.12451 4289767881
36.895412 817.4176 785.12451 4285429121
11.713761 820.81653 785.37433 4289238164
13.387156 820.81653 785.37433 4289306271
15.61835 820.60333 785.19452 4290490546
19.244038 820.17688 784.83496 4292200654
28.447706 820.17688 784.83496 4291806164
34.304588 821.45618 785.9137 4289824915
-7.0458717 749.71106 788.20544 4284702042
-4.4036698 749.03772 787.63776 4287729543
-1.7614679 748.36438 787.07007 4289504954
0.587156 748.81329 787.44855 4290752192
3.5229359 748.36438 787.07007 4292462811
45.798164 749.03772 787.63776 4293848060
-1.7559633 752.03625 786.24194 4287925406
1.7559633 752.03625 786.24194 4290753461
3.5119267 752.03625 786.24194 4292266691
43.021103 752.03625 786.24194 4293848062
-7.0238533 754.72113 788.50586 4284833108
-4.3899083 754.04993 787.93988 4284437841
-1.7559633 753.37866 787.3739 4284766563
0.58409786 754.34198 787.31415 4285949302
3.5045872 754.92603 786.0625 4288511883
42.93119 754.92603 786.0625 4293848060
-3.5045872 757.60535 788.32153 4284833127
-1.7522936 756.26569 787.19202 4284437850
0 757.60535 788.32153 4284175976
43.807339 756.26569 787.19202 4293782524
-1.746789 760.58563 786.9104 4285423724
0.87339449 760.58563 786.9104 4284438123
3.493578 759.91791 786.34741 4284241239
43.669724 760.58563 786.9104 4293913850
-3.493578 762.58875 788.59937 4286737512
-1.7431192 764.12494 787.27856 4287132270
0.87155962 763.45862 786.71674 4285752694
46.242203 763.35681 787.93896 4294308095
-3.4862385 765.45752 788.40222 4285949011
-1.7376146 767.75751 786.41736 4286277976
0 767.75751 786.41736 4286146415
43.440369 767.75751 786.41736 4293979644
45.321102 765.45752 788.40222 4294045439
-3.4752293 769.75012 788.09753 4286607213
-1.7376146 769.75012 788.09753 4286607213
0 769.75012 788.09753 4286475627
46.046791 769.75012 788.09753 4293914109
1.7321101 772.70587 786.66565 4287725172
45.034863 772.70587 786.66565 4293848830
-3.4642203 775.35431 788.8988 4286410357
-1.7302753 775.45325 787.67413 4286870907
0.8642202 775.83447 787.34155 4288316539
3.4568808 775.55499 786.4519 4289629835
44.3633 775.99542 786.82324 4293717243
46.766972 775.35431 788.8988 4293979644
-3.4568808 778.19781 788.68018 4284238668
0 778.19781 788.68018 4286937465
46.667889 778.19781 788.68018 4293913853
-1.7229358 781.13538 787.23303 4285687400
1.7229358 781.13538 787.23303 4286411893
3.4458716 780.47675 786.67773 4285359452
44.796329 780.47675 786.67773 4293453302
46.519264 781.79395 787.78833 4293782524
-1.7211009 784.52515 788.7832 4286149732
1.1461774 784.55835 788.37518 4286873984
3.4385321 783.31042 786.45093 4284900448
44.700916 783.96765 787.00507 4293716731
46.469727 784.52515 788.7832 4293848060
48.242203 783.11115 788.89893 4293848828
3.4275229 788.20551 786.65417 4285493099
43.700916 788.20551 786.65417 4293847805
-1.7137614 790.82587 788.86365 4285359452
1.1425077 790.38916 788.49542 4287266686
4.2752295 791.02374 786.41443 4285624937
40.187157 791.02374 786.41443 4293256182
43.655045 790.26971 787.08667 4293584378
46.271561 790.82587 788.86365 4293716478
0.85504586 793.63849 788.61914 4287330176
3.4201834 792.33112 787.51672 4285951344
41.042202 792.9848 788.06793 4293715965
43.607338 792.9848 788.06787 4293781756
-1.7045871 797.19531 787.69409 4285225567
1.7045871 797.19531 787.69409 4287789950
4.2614679 796.5437 787.14465 4286343783
6.8183484 795.89215 786.59521 4288513171
39.773701 796.76093 787.32782 4294242047
42.614677 797.19531 787.69409 4294768383
-3.4091742 798.49847 788.79285 4286739813
-1.7009175 799.99536 787.43896 4287068521
0.85045874 799.24695 788.11591 4287854974
4.2559633 799.24695 788.11591 4287592557
7.3706422 799.12842 786.70801 4289368736
39.971558 799.99536 787.43896 4289307066
43.466972 798.49847 788.79285 4288780214
46.023853 798.49847 788.79285 4288582324
-1.7009175 801.29572 788.5354 4287660147
0.85045874 801.29572 788.5354 4288251001
4.2440367 802.41626 787.51813 4288382584
6.7816515 803.53674 786.50085 4289171353
38.994495 803.53674 786.50085 4288381077
40.689907 803.53674 786.50085 4288250251
43.304588 802.41626 787.51813 4287000449
-3.3908257 806.12909 788.68665 4287066993
-1.6954129 805.48096 788.1402 4287396214
0.84770644 805.48096 788.1402 4288447868
4.2385321 804.83289 787.59375 4288317564
7.612844 806.32416 786.23499 4289895592
10.99633 806.32416 786.23499 4289896367
13.533945 806.32416 786.23499 4289304972
15.225688 806.32416 786.23499 4291410348
35.526604 806.32416 786.23499 4292002469
38.06422 806.32416 786.23499 4293248493
40.601833 806.32416 786.23499 4293180415
43.187157 805.57849 786.91437 4288314276
46.623856 806.12909 788.68665 4284764779
-3.3834863 808.91089 788.41602 4287591533
-1.6917431 808.91089 788.41602 4288052084
1.1278287 808.47974 788.05255 4288841855
4.2293577 808.26416 787.87085 4288843662
7.612844 807.61749 787.32556 4289960617
10.150458 807.61749 787.32556 4290421418
38.910091 807.61749 787.32556 4294961407
40.601833 807.61749 787.32556 4293839359
43.13945 808.26416 787.87079 4285289605
45.677063 808.91089 788.41602 4284300355
5.0587158 812.42841 787.45789 4289108372
7.5880733 811.78381 786.91443 4289961905
10.96055 811.13928 786.37097 4290815406
13.489908 811.13928 786.37097 4290949298
15.176147 811.13928 786.37097 4291672764
38.221409 811.56903 786.73322 4291211227
40.469727 811.78381 786.91443 4286939804
42.999084 812.42841 787.45789 4282527761
-1.6862385 813.71759 788.54492 4285624178
4.2155962 813.71759 788.54492 4286477697
7.5788989 814.45758 787.86078 4287264901
10.936697 813.91125 786.09204 4290684842
13.46055 813.91125 786.09204 4291080116
15.143119 813.91125 786.09204 4291935168
31.968807 813.91125 786.09204 4293318622
34.492661 813.91125 786.09204 4292790773
37.857796 814.55444 786.63434 4287597222
40.469727 813.71759 788.54492 4284438352
42.999084 813.71759 788.54492 4287263346
46.371559 813.71759 788.54492 4286799981
8.4128437 816.48395 788.26135 4287724420
10.062386 818.69971 786.20557 4287789698
22.640366 818.69971 786.20557 4292398288
25.994495 818.69971 786.20557 4292661466
31.025688 818.69971 786.20557 4291542495
34.379814 818.69971 786.20557 4288383398
37.797249 817.5918 787.23346 4287661151
10.062386 820.62292 787.82715 4289567635
25.994495 819.98187 787.28662 4292398035
28.510092 819.98187 787.28662 4291017153
31.025688 820.62292 787.82715 4288056743
37.733944 819.98187 787.28662 4293909210
40.249542 821.26398 788.36768 4294965247
11.155963 823.58838 787.71149 4288908954
13.387156 823.37518 787.53174 4288514977
15.060551 822.73553 786.99243 4288515499
28.447706 822.73553 786.99243 4291083194
34.304588 823.37518 787.53174 4292266440
37.651375 823.37518 787.53174 4294240755
40.161469 824.01483 788.07104 4293979133
38.361469 827.49316 787.07983 4293912054
-10.601835 748.73669 791.30798 4286278748
47.708256 748.06128 790.73853 4293979389
-8.2201834 751.50659 789.71942 4285357647
46.385319 751.95551 790.09796 4293848057
-10.568808 753.75098 791.61194 4285884000
49.321102 753.75098 791.61194 4293914621
51.082569 753.75098 791.61194 4293848828
-7.901835 757.40607 790.76971 4286409576
-4.6764526 757.98456 789.51337 4285095006
46.509174 757.11951 789.87402 4294111484
49.166973 757.40601 790.76965 4294045693
-7.8853211 761.62427 791.71021 4286342245
-5.2568808 760.28461 790.58069 4285881183
49.940369 760.28461 790.58069 4294045693
52.568806 761.62427 791.71021 4294045183
-5.2403669 763.92419 789.72546 4284829265
47.163303 763.92419 789.72546 4294111231
49.783485 763.92419 789.72546 4294110463
-7.5694184 765.70477 791.22675 4286145891
-5.2293577 766.79016 789.52588 4285816673
47.06422 766.79016 789.52588 4293979644
49.732109 766.0249 790.18866 4294044927
52.403671 766.59509 791.97742 4293979646
-5.2293577 768.78912 791.21136 4286543470
49.969418 768.56708 791.02411 4293913855
-4.3440366 772.40698 790.33777 4286607982
46.915596 771.7428 789.77771 4293848830
48.65321 772.40698 790.33777 4294110975
-5.1963301 776.67853 790.01526 4285359200
48.499084 776.67853 790.01526 4293979646
-4.3266053 778.76099 790.46313 4284241237
0 779.51923 789.79443 4287004545
49.313763 778.76099 790.46313 4293914105
-4.3211012 780.84064 790.90857 4284043333
50.124771 780.84064 790.90857 4293848828
-3.4458716 785.08691 790.56488 4283516725
0 784.42834 790.00952 4287202688
49.103668 785.08691 790.56488 4293913853
-1.7192661 787.2536 789.77576 4286016324
0 787.2536 789.77576 4287463559
46.420185 787.2536 789.77576 4293847292
48.13945 787.91077 790.3299 4293782270
-4.2981653 789.88245 791.99219 4284832339
49.858715 789.88245 791.99219 4294637567
-4.2844038 793.44629 791.073 4285620322
-1.7137614 792.13611 789.96838 4285029195
0 794.94586 789.72144 4287460729
44.462387 794.94586 789.72144 4294768639
47.103668 793.16608 790.1828 4294637311
-5.1302752 796.25323 790.82385 4286869362
47.882568 796.25323 790.82385 4288581302
49.592659 797.56061 791.92615 4285688435
-4.2614679 799.80164 789.89172 4286935664
46.876144 799.80164 789.89172 4286344575
-4.5394497 802.53247 790.4502 4286934897
0 802.59607 789.63184 4287987577
46.77523 802.59607 789.63184 4285684580
49.379818 802.50061 790.85938 4284106577
-6.8036699 805.19684 791.82471 4286341732
49.326607 805.19684 791.82471 4284301361
51.027523 805.19684 791.82471 4284500532
-5.0862384 808.0733 790.32587 4286803822
47.471561 807.42523 789.77942 4284037932
50.014679 808.72137 790.87231 4282856464
52.557796 808.72137 790.87231 4284239398
-3.8091745 811.12756 790.93921 4285687654
-1.6917431 811.49756 790.59711 4287002231
0.84587163 811.49756 790.59717 4286741105
3.3834863 810.20422 789.50659 4288318856
46.522934 810.20422 789.50659 4283117837
49.906422 812.14423 791.1424 4284367959
52.444038 812.14423 791.1424 4282527010
54.253212 810.01758 791.96521 4283578655
4.2155962 815.00671 789.63184 4286674826
6.7449541 815.00671 789.63184 4287527042
40.469727 815.00671 789.63184 4289501601
42.999084 815.00671 789.63184 4291080125
46.371559 815.00671 789.63184 4289039036
-1.6862385 816.94043 791.26233 4285945700
1.6862385 816.94043 791.26233 4286275437
4.2155962 816.94043 791.26233 4286671480
7.3009171 817.21704 790.62354 4288249725
40.381653 817.77026 789.34595 4294307316
42.905502 817.77026 789.34595 4294636027
46.371559 816.94043 791.26233 4294636030
49.462997 817.15527 791.44354 4294767358
5.0477066 820.34296 791.51514 4288910744
7.5715594 819.69977 790.97284 4288842630
42.905502 819.05658 790.43054 4294834175
45.429359 820.34296 791.51514 4293716730
8.3853207 822.54614 789.44873 4289106062
41.926605 822.54614 789.44873 4294044926
43.603668 823.18719 789.98926 4293913082
40.161469 825.29419 789.14978 4293913338
-12.407339 747.77075 794.41772 4285882466
-12.368808 751.43842 793.58606 4286080098
-10.601835 750.08752 792.44702 4285884000
49.475231 750.08752 792.44702 4294045691
52.420185 751.43848 793.58612 4293913595
-12.330276 755.09766 792.74731 4286080352
-10.568808 755.09766 792.74731 4286342754
51.082569 755.09766 792.74731 4294045693
-12.330276 756.44434 793.88281 4286211418
-10.568808 756.44434 793.88281 4286473570
52.844036 756.44434 793.88281 4294045439
-10.53578 760.76215 793.59943 4286210142
-8.7614679 764.30353 793.96936 4286145121
52.568806 762.96387 792.83972 4294044927
54.321102 763.63367 793.40454 4293979390
-6.9871559 767.93054 793.10339 4286346861
52.403671 767.93054 793.10339 4294111486
54.150459 767.93054 793.10339 4293979644
-7.8532109 770.02698 793.56305 4286541675
50.550457 770.78809 792.89673 4294439935
52.293579 770.78809 792.89673 4294111486
54.150459 769.26593 794.22937 4293979644
57.644035 769.26593 794.22937 4294505727
-8.7155962 772.12073 794.02039 4286474604
52.293579 772.12073 794.02039 4294045439
54.036697 772.12073 794.02039 4293979646
-6.9504585 775.06384 792.57788 4286280560
50.390827 774.3996 792.01782 4293979646
52.997246 775.72803 793.13794 4293979644
-7.8192658 777.05646 794.25806 4287001720
52.91468 778.19171 793.25323 4293716475
55.603668 777.05646 794.25806 4294111486
-6.9284406 781.31329 793.92322 4286740352
-5.1853213 782.16205 792.02271 4285095013
50.124771 782.16205 792.02271 4294243071
52.829357 780.65118 793.36499 4293979646
55.427525 781.9754 794.48145 4294243071
-6.9137616 784.80487 794.2511 4286410355
-5.1853213 783.48346 793.13696 4284767334
52.71743 783.48346 793.13696 4293914366
55.310093 784.80487 794.2511 4294243071
-6.8917432 788.37994 793.34143 4286082930
-4.3073397 787.06274 792.23083 4284503122
49.965137 787.06274 792.23083 4294045183
52.549545 787.72131 792.78613 4294308862
55.133945 788.37994 793.34143 4294505727
-6.8917432 789.69714 794.45203 4286146406
49.858715 791.19678 793.10046 4294966271
52.437614 791.19678 793.10046 4294966015
55.133945 789.69714 794.45203 4294833919
-6.8550458 794.75647 792.17773 4286145895
49.699081 794.75647 792.17773 4289436610
52.437614 792.51123 794.20874 4291213260
-8.5688076 797.37683 794.38721 4286079328
52.269726 796.06665 793.28247 4289569677
54.840366 797.37683 794.38721 4282921559
-7.6954126 799.52173 793.57971 4286079073
52.157799 798.86798 793.02856 4283056954
54.722935 800.17542 794.13086 4282391842
-7.6706419 803.05957 792.63867 4286079582
52.274006 802.84235 792.45557 4283974711
-7.6633029 805.75574 793.604 4285883484
54.546787 805.01434 794.28687 4284566345
-6.8036699 807.79755 794.01758 4285491041
-6.7816515 812.60986 794.151 4285028691
-5.0862384 811.31372 793.05811 4286212965
55.100918 811.96179 793.60455 4282532140
-3.9474003 814.51538 793.14166 4285354842
0 814.73096 793.32343 4285946215
50.752293 814.08429 792.7782 4293977068
52.444038 814.73096 793.32343 4292728030
54.699696 814.94653 793.50519 4288451762
-4.2238531 817.77258 793.92603 4287198317
-1.6862385 818.87415 792.89282 4288053118
0.84311926 817.77258 793.92603 4288842634
3.3724771 818.87415 792.89282 4288844950
47.21468 818.87415 792.89282 4293649402
49.744034 818.87415 792.89282 4293846780
52.273396 818.87415 792.89282 4294241535
54.981651 816.67096 794.95923 4294504190
-3.3724771 820.16327 793.97974 4287198052
-1.6862385 820.16327 793.97974 4287855725
0 820.16327 793.97974 4288120178
46.270645 821.62927 792.59973 4293912570
49.63578 821.62927 792.59973 4293715193
53.116516 820.16327 793.97974 4294438911
45.429359 822.91565 793.68433 4293977851
48.794495 823.55884 794.22662 4293649142
46.957798 826.39252 792.69189 4293649398
-14.179816 749.12585 795.56018 4285685340
-14.179816 750.4809 796.70276 4285685594
55.833027 751.15845 797.27405 4293913596
-16.78624 755.49103 797.00305 4285618777
-14.135779 754.81555 796.43359 4285816401
55.65963 754.81555 796.43359 4293979390
58.310093 755.49103 797.00305 4294044926
-12.330276 757.79095 795.01831 4285881935
54.605503 757.79095 795.01831 4293979391
-12.917432 759.58649 796.53223 4285946714
56.366974 759.13763 796.15381 4293979131
59.009174 759.13763 796.15381 4294044925
-10.53578 763.44702 795.86328 4285882205
56.190826 762.77582 795.29736 4293847544
59.117432 763.22333 795.67462 4293912827
61.458717 763.44702 795.86328 4294175743
-15.80367 765.46075 797.56116 4285685594
-13.169725 765.46075 797.56116 4285816412
-10.513762 766.98285 796.22839 4285685092
-8.7614679 765.64319 795.09888 4286605672
56.073395 766.31299 795.66364 4293847289
58.701836 766.31299 795.66364 4294110461
61.330276 766.98285 796.22839 4293979131
-12.266055 768.32245 797.35803 4286012508
-10.480734 770.60138 795.35547 4285882466
55.897247 770.60138 795.35547 4293716730
58.517433 770.60138 795.35547 4293979645
62.011009 770.60138 795.35547 4294111485
-12.227523 772.60455 797.04443 4285881953
-10.458715 773.45331 795.14404 4286079076
-8.7155962 773.45331 795.14404 4286868848
55.779816 773.45331 795.14404 4293913853
58.7682 772.88745 796.41095 4293979645
61.719879 772.82715 797.23212 4294308607
-12.201835 776.11859 797.39136 4285619295
-10.458715 775.45227 796.82953 4285947484
57.522934 775.45227 796.82953 4294243070
-10.425688 779.71332 796.49817 4285423199
-8.6880732 779.04907 795.93817 4286803822
55.603668 778.38489 795.37817 4294243327
58.210091 779.71332 796.49817 4294308863
-10.425688 781.04175 797.61829 4285554789
61.685318 781.04175 797.61829 4294505983
-10.39266 785.948 797.83105 4285685344
-8.6605501 783.96167 796.15631 4286081901
58.025688 783.29956 795.59802 4294505983
60.623852 784.62378 796.7146 4294637055
-8.6422014 788.1084 797.03656 4286013540
57.902756 787.44769 796.47949 4294768895
60.495415 788.1084 797.03656 4294900479
55.133945 791.01434 795.56274 4294172662
-10.337615 793.64874 797.78394 4285947998
-6.8770642 793.82556 795.31702 4286013801
55.936699 793.07855 795.99518 4294176483
58.579815 793.64874 797.78394 4290157497
56.735779 795.79718 796.97943 4284696155
-10.282569 799.99719 796.59656 4285948246
56.554127 799.99719 796.59656 4284104763
-11.128441 802.04877 797.01843 4285882713
55.57798 802.13647 795.78436 4284433987
-11.099083 805.20752 796.41174 4285685850
-8.5229359 806.3175 795.38562 4285818207
56.251377 806.3175 795.38562 4284433964
58.998165 804.09753 797.43787 4283909419
-10.795719 808.4895 797.21698 4285488985
-7.6633029 808.35931 795.79926 4285686877
56.130276 809.0979 795.11401 4283974417
59.092358 808.05511 796.85077 4284499499
-8.5045872 811.04846 796.75867 4285226580
58.681648 811.04846 796.75867 4283773988
-6.7816515 814.55408 795.79034 4285882459
-5.0862384 813.90601 795.2439 4285158998
58.209171 814.77008 795.97247 4286610045
-6.7816515 816.49835 797.42969 4286737499
-5.0752292 817.96436 796.04968 4287198050
55.827522 817.96436 796.04968 4294767871
58.365135 817.96436 796.04968 4291149241
61.034863 816.49835 797.42969 4285289314
47.21468 821.45245 795.06677 4293912056
50.587154 821.45245 795.06677 4293649402
53.116516 821.45245 795.06677 4293715450
55.64587 821.45245 795.06677 4294044926
58.271561 820.3551 796.10352 4293516526
60.902752 819.25769 797.14026 4290553769
50.587154 823.38611 796.6972 4293584118
53.397552 823.1712 796.51605 4293649909
55.64587 823.38611 796.6972 4294110972
57.332111 823.38611 796.6972 4294437887
48.794495 825.48828 795.85352 4293584375
-15.985321 748.94202 798.02124 4285618015
56.836697 748.94202 798.02124 4294176509
-15.985321 750.29993 799.16614 4285617498
-19.436697 758.19275 799.28113 4285618777
-16.78624 757.51733 798.71167 4285684059
-14.135779 758.19275 799.28113 4285749850
-19.436697 759.54358 800.42017 4285553754
-16.761469 760.68726 799.42242 4285749850
-13.21101 761.83093 798.42468 4285750619
-19.376146 763.17761 799.56018 4285619801
-17.614679 763.17761 799.56018 4285619801
-19.315596 766.80316 798.69312 4285619801
-16.681652 766.80316 798.69312 4285619801
-14.047707 766.80316 798.69312 4286012508
-21.07156 768.81689 800.39093 4285815385
-19.315596 768.81689 800.39093 4285881178
-16.665138 768.90387 799.15625 4285684311
-14.018349 769.66211 798.48755 4285881183
-16.938837 771.4483 799.99365 4285552726
-14.018349 771.00177 799.61707 4285619295
-16.303364 775.49799 799.48413 4285552984
-13.974312 775.27539 799.29645 4285618779
59.390827 774.60767 798.7334 4294374399
62.011009 774.60767 798.7334 4294374655
-16.577982 778.03119 800.31207 4285618525
-12.782875 778.33966 799.26416 4285619037
61.880733 777.45123 798.51501 4294440191
-16.559633 780.11646 800.76221 4285618777
-13.054129 781.24329 799.75031 4285291863
-10.425688 782.37012 798.7384 4285096031
62.554127 782.37012 798.7384 4294440191
64.29174 782.37012 798.7384 4294374399
66.029358 782.37012 798.7384 4294243071
-15.638532 785.02698 800.97864 4285880920
-12.742508 784.58417 800.60529 4285619538
-12.124771 788.59644 800.06421 4285684570
-10.39266 787.93433 799.50592 4285815649
-12.099083 791.41193 799.82202 4285947226
-8.6422014 790.09052 798.70776 4286078566
58.766972 790.09052 798.70776 4294967295
60.495415 790.75122 799.26489 4294766333
-12.060551 794.96594 798.89453 4285947228
-10.337615 794.96594 798.89453 4286013019
58.579815 794.96594 798.89453 4285292672
60.302753 794.96594 798.89453 4292200937
-12.034863 797.7688 798.64185 4286013019
58.579815 796.28314 800.00525 4283120955
60.302753 796.28314 800.00525 4284173899
-13.754128 799.74036 800.3042 4285355859
58.455048 799.08313 799.75012 4283382319
60.174313 799.08313 799.75012 4283842870
-13.710092 803.92773 799.91077 4285421654
-15.390825 806.71228 799.64258 4285684311
-13.680734 806.71228 799.64258 4285684311
-11.970642 805.40491 798.54028 4285618777
-15.390825 808.01965 800.745 4285684311
-15.341285 812.83337 800.87964 4285815376
-13.636697 811.53027 799.78094 4285881426
-11.245872 811.56335 799.28558 4285947476
-8.5045872 812.99902 798.40332 4286341721
-10.205504 814.94958 800.04797 4286209624
-7.9376144 815.16632 800.23071 4286341466
-5.0862384 817.79449 798.52258 4285947476
52.444038 821.84436 799.32129 4293715704
59.21101 821.19769 798.776 4294372348
61.748623 821.19763 798.776 4290095520
64.28624 821.84436 799.32129 4286991928
52.444038 823.13776 800.41187 4293978362
61.748623 823.13776 800.41187 4292200152
53.959633 825.31989 798.32764 4293453041
55.64587 826.60895 799.41461 4293913079
58.175232 825.31989 798.32764 4294438397
57.627983 829.66895 799.37854 4293781242
-17.816513 747.99573 801.14746 4285814877
58.794495 747.99573 801.14746 4294044926
-21.07156 770.83051 802.08887 4285814873
-19.315596 770.83051 802.08887 4285880922
-21.027523 773.68103 801.87622 4285618525
-19.275229 773.68103 801.87622 4285618525
-21.027523 775.02069 803.00574 4285618273
-19.275229 775.02069 803.00574 4285618273
-22.708258 779.94946 803.23743 4285684311
-20.088074 779.28174 802.67444 4285684314
-17.46789 779.94946 803.23743 4285684311
-22.660551 782.78174 803.00952 4285487961
-20.045872 782.78174 803.00952 4285881169
-16.559633 782.11542 802.44769 4285749847
-13.944954 781.4491 801.88586 4285488208
62.752293 782.11542 802.44769 4294440191
64.495415 782.11542 802.44769 4294374399
66.238533 781.4491 801.88586 4294374399
-19.113762 787.68384 803.21875 4285290579
-16.217737 787.24103 802.8454 4285487703
-13.900917 787.01965 802.65869 4285684312
-13.856881 791.24487 802.29724 4285618263
62.355965 791.24487 802.29724 4294374392
-16.455046 792.56909 803.41382 4285551705
-13.856881 792.56909 803.41382 4285420882
62.223854 794.05469 802.05029 4287396503
-16.395412 796.48822 802.1402 4285748827
-16.367889 799.57617 802.78174 4285552470
-16.333027 802.36914 802.52069 4285618262
-17.137615 806.5481 802.12024 4285618261
-16.264221 808.59265 802.53607 4285487695
-17.100918 810.6344 802.94971 4285749583
-15.909481 815.00531 802.711 4286011986
-13.636697 814.78809 802.52789 4286011733
-11.93211 814.78809 802.52789 4286209368
-16.158716 818.20044 802.78906 4286012238
-13.60734 818.20044 802.78906 4286143824
-10.772477 817.76703 802.42358 4286209110
-7.9376144 817.3335 802.05811 4286471775
-17.009174 819.50085 803.8855 4286078281
-11.055964 819.50085 803.8855 4286209360
-8.5045872 819.50085 803.8855 4286406484
54.13578 824.43109 801.50232 4293254892
62.594494 824.43109 801.50232 4290096060
54.13578 825.72443 802.5929 4293649652
55.64587 829.18732 801.5885 4293978360
58.889908 831.91998 801.27661 4294570495
60.763302 747.05786 804.28076 4293979133
66.377983 781.28485 804.36353 4294374399
-22.660551 784.7807 804.69501 4285618262
-20.336391 784.55859 804.50775 4285487184
-17.431192 784.11438 804.13318 4285618261
62.752293 784.7807 804.69501 4294966783
64.495415 784.11438 804.13318 4294703615
-22.660551 786.7796 806.38049 4285815127
-20.917431 786.7796 806.38049 4285486677
-19.113762 790.34064 805.45898 4285486421
-16.507339 789.01227 804.33887 4285486677
-19.053211 795.21753 805.64685 4285551955
-17.284403 796.69751 804.27869 4285552470
-19.012844 798.67963 805.94995 4285356112
-18.952293 802.86914 805.55835 4285422165
-19.771561 805.65515 805.29138 4285487701
-19.708256 811.78882 806.53906 4285880922
-17.100918 811.94177 804.052 4286011986
-19.666054 814.55658 806.25671 4286078035
-15.341285 818.04608 805.2749 4286144330
-13.636697 818.04608 805.2749 4286275664
-16.193579 819.34924 806.37366 4286144078
-13.636697 819.34924 806.37366 4286209871
-11.079817 819.34924 806.37366 4286340946
-17.009174 822.10156 806.07837 4286274129
-10.205504 822.10156 806.07837 4286669907
-24.455046 785.2912 807.74146 4285815127
-24.455046 787.96204 809.99353 4285748827
-22.660551 788.11224 807.50403 4285617750
-20.917431 788.11224 807.50403 4285617750
-22.660551 790.11121 809.18951 4285880411
-20.917431 789.44489 808.62769 4285617750
-22.588991 794.32593 808.81921 4285684311
-20.851376 793.66174 808.25916 4285618514
-22.517431 797.86597 807.88 4285422167
-20.78532 797.86597 807.88 4285356372
-22.469725 800.66174 807.62122 4285487959
-20.67523 805.50354 807.77966 4285618261
-19.771561 808.28394 807.50793 4285815127
-19.422628 814.84595 809.1167 4286209104
-15.341285 821.30396 808.02191 4286472022
-13.636697 821.30396 808.02191 4286671192
-11.93211 821.30396 808.02191 4286539863
-19.29052 823.35419 808.00653 4286735967
-16.453211 823.7876 808.37207 4286211166
-10.781039 823.78766 808.37207 4285685335
-24.53211 784.39819 810.9126 4285617750
-24.455046 789.29749 811.11951 4286077531
-24.403669 792.11011 810.875 4285684311
-22.350458 813.5415 811.94092 4286143824
-20.631193 813.5415 811.94092 4286274383
-13.680734 821.09344 811.76843 4285686620
-18.750458 824.56189 810.76892 4282924861
-16.218349 823.48132 811.81989 4282725935
-13.680734 822.40082 812.87085 4282005041
-11.93211 824.56189 810.76892 4282005041
96.946793 794.63922 815.62354 4293979135
99.566971 794.63922 815.62354 4293847292
-22.350458 814.8559 813.04919 4286143824
-19.771561 814.8559 813.04919 4286274131
-22.350458 816.17029 814.15747 4286078031
-22.278898 819.64996 813.16736 4286143824
-20.565138 820.30505 813.71973 4285028438
-19.708256 822.27032 815.37671 4282530108
-16.280735 822.27032 815.37671 4282398002
65.064217 746.91504 818.54858 4294243071
67.77523 746.91504 818.54858 4294242814
94.584099 746.45441 818.16022 4293913597
97.596329 746.91504 818.54858 4294176507
67.56881 751.94476 818.86548 4294374399
70.271561 751.94476 818.86548 4294373887
72.974312 751.94476 818.86548 4294242302
94.596329 751.94476 818.86548 4294373885
97.29908 751.94476 818.86548 4294242300
98.798164 754.89771 817.43127 4293979387
101.55413 767.06494 817.2262 4293716728
101.55413 768.42706 818.37463 4293716726
98.066971 781.15747 818.64441 4294109436
100.71743 781.15747 818.64441 4293977851
100.0899 789.62482 817.93567 4293518582
92.579819 797.31006 817.87549 4293978362
94.326607 796.64233 817.3125 4293715708
96.946793 795.97467 816.74951 4293847549
99.566971 795.97467 816.74951 4294044927
70.373398 803.62488 816.65979 4291083459
73.848625 803.62488 816.65979 4294110718
76.455048 803.62488 816.65979 4293913338
88.899086 801.43854 818.74048 4294109436
91.513763 801.43854 818.74048 4293846263
94.128441 801.43854 818.74048 4293846011
66.898163 805.61755 818.33997 4286277204
69.504585 804.95331 817.77991 4287991692
72.97982 804.95331 817.77991 4294504703
86.880737 804.95331 817.77991 4293912056
88.618347 804.95331 817.77991 4294306814
64.954132 809.78381 817.92883 4288778912
-24.069725 818.79907 816.37402 4286472791
-22.350458 818.79907 816.37402 4285749068
62.025688 816.04114 816.66467 4294504957
63.748623 816.04114 816.66467 4287991450
-24.069725 820.11346 817.4823 4285356872
-22.350458 820.77063 818.03644 4283318325
-18.911926 821.42786 818.59058 4283054649
-17.192661 821.42786 818.59058 4282924085
-13.754128 820.11346 817.4823 4282332209
-22.278898 824.89069 817.58618 4282791997
-19.708256 824.2356 817.03381 4282923319
-15.995107 824.45392 817.21796 4282793007
-22.278898 826.20087 818.69092 4283316290
-20.521101 826.323 816.17786 4282923833
67.77523 748.29675 819.71362 4294439679
70.486237 748.29675 819.71362 4294702335
73.19725 748.29675 819.71362 4294241789
76.811928 748.98761 820.29614 4294111485
79.522934 749.67847 820.87866 4293979644
88.559631 749.67847 820.87866 4294111486
91.571861 749.21796 820.4903 4294045437
94.885323 748.29675 819.71362 4294241533
97.596329 748.29675 819.71362 4294373627
99.403671 748.29675 819.71362 4294242041
67.56881 754.01099 820.60773 4294440191
70.271561 754.01099 820.60773 4294243071
72.974312 754.01099 820.60773 4294111486
76.57798 753.32227 820.02698 4294111486
94.596329 754.01099 820.60767 4293979897
97.29908 754.01099 820.60773 4293715962
98.798164 756.95764 819.16821 4293715706
100.5945 757.64429 819.74719 4293781752
100.5945 759.70428 821.48401 4293782524
103.12936 760.82898 820.47034 4293584635
98.495415 764.69196 821.7655 4293847546
100.28624 763.32288 820.61108 4293782522
103.65504 764.8197 819.25708 4293517559
98.293579 767.55231 821.56116 4293782522
100.67645 767.09686 821.17719 4293651446
103.65504 766.18604 820.40918 4293715706
97.990829 771.83228 821.24585 4293716473
100.36636 772.05927 821.43726 4293782523
97.486237 777.5824 819.55408 4294044410
100.14495 777.5824 819.55408 4294110205
97.183487 782.5083 819.78345 4294175231
100.71743 782.5083 819.78345 4293977851
98.950462 783.85919 820.92236 4293847292
102.48441 783.85919 820.92236 4293846779
103.04587 788.7641 821.13403 4293978877
103.60184 792.98096 820.76544 4294175998
97.252289 795.11536 819.9491 4293518330
99.880737 795.11536 819.9491 4293781501
92.579819 798.64551 819.00146 4293846009
94.326607 798.64551 819.00146 4293584377
96.946785 799.31323 819.56445 4293715705
99.566971 799.31323 819.56451 4293781752
71.467888 802.77118 819.86414 4294110441
74.954132 802.77118 819.86414 4293846779
76.69725 802.77118 819.86414 4293847033
79.311928 802.77118 819.86414 4293912571
82.798164 802.77118 819.86414 4293978620
85.412842 802.77118 819.86414 4293715704
91.513763 802.77118 819.86414 4293978362
94.326607 801.31641 821.25354 4293780735
96.946793 801.31641 821.25354 4293978620
99.566971 801.31641 821.25354 4293847544
70.596329 804.10382 820.98779 4291215550
74.082565 804.10382 820.98779 4294109949
76.69725 804.10382 820.98779 4294043642
79.311928 804.10382 820.98779 4293978364
82.798164 804.10382 820.98779 4293782267
85.412842 804.10382 820.98779 4293650935
88.027527 804.10382 820.98779 4293847547
90.642204 804.10382 820.98779 4293978360
67.766975 808.27429 820.5802 4288248429
64.954132 811.10803 819.04541 4288183928
62.223854 815.19727 819.8772 4291217637
63.952293 815.19727 819.8772 4285691025
82.484406 748.1051 823.47632 4294110718
85.203667 748.1051 823.47626 4294373887
87.01651 748.1051 823.47626 4294176766
79.522934 751.06018 822.0437 4293979646
86.752296 752.44189 823.20874 4294176255
88.559631 751.75104 822.62622 4294176511
91.270645 751.75098 822.62622 4293913854
88.559631 753.82361 824.37378 4294045693
91.270645 753.82361 824.37378 4293913855
91.893578 758.83234 824.67297 4293782522
94.776512 757.45483 823.51141 4293848056
97.29908 756.76611 822.93073 4293781756
99.100914 756.76611 822.93073 4293781756
102.70459 756.07733 822.34998 4293847544
97.899994 761.07764 822.64197 4293782270
97.001831 762.45093 823.79993 4293847546
94.913765 766.06104 822.9198 4293781751
96.70459 766.06104 822.9198 4293782522
103.86789 766.74561 823.49701 4293781753
94.719269 769.60175 823.28918 4293781752
96.506424 769.60175 823.28918 4293519095
101.86789 768.91858 822.71313 4293913853
103.33578 773.87537 822.96851 4293979135
103.01651 777.45752 822.0647 4293846011
104.57615 781.64758 822.98169 4294373375
103.36789 785.21008 822.0614 4294044670
106.34863 783.00269 824.12427 4293913338
106.01835 786.56091 823.20044 4293782524
102.16514 790.78406 822.83722 4293847291
105.68807 790.11072 822.26953 4294044927
101.84587 794.99463 822.46338 4293584377
103.60184 794.99463 822.46338 4293847292
101.84587 796.33704 823.59521 4293190132
92.579819 803.31958 822.9425 4293913080
94.326607 803.31958 822.9425 4293518584
96.655663 803.09698 822.75488 4293847547
99.566971 802.65186 822.37952 4293979131
70.596329 806.10272 822.6731 4292265174
74.082565 806.10272 822.6731 4294176252
76.777985 805.37952 823.37146 4293978105
79.395416 805.37952 823.37146 4293912569
82.841278 805.74115 823.02234 4294044411
85.502747 805.37952 823.37146 4293913592
88.120178 805.37952 823.37146 4293650424
91.351685 805.3606 823.7915 4293913594
70.596329 808.10168 824.35864 4293121772
73.211006 808.10168 824.35864 4294308095
61.685318 812.92383 824.50049 4291411915
66.46376 811.26331 823.10034 4288183647
64.088074 815.08069 822.39502 4286475889
64.088074 817.06702 824.06982 4293575656
83.390823 750.18402 825.22913 4294044926
85.203667 750.18402 825.22913 4294242303
91.270645 755.20538 825.53882 4293979646
93.981651 755.20538 825.53882 4293979898
94.596329 760.20984 825.83447 4293715958
103.86789 768.79926 825.22864 4293913853
105.65871 768.79926 825.22864 4293913853
94.623856 803.1532 826.72632 4293584377
96.376144 803.1532 826.72632 4293847292
75.985321 806.65814 825.75757 4293847033
79.478897 806.65814 825.75757 4293847033
82.972473 806.65814 825.75757 4293913594
85.592659 806.65814 825.75757 4293914105
88.212845 806.65814 825.75757 4293782776
91.852295 805.5755 826.80676 4293847547
67.981651 809.43433 825.4823 4292856704
70.596329 809.43433 825.4823 4294042350
73.365135 807.99359 826.88354 4293781240
75.985321 807.99359 826.88354 4293649142
79.478897 807.99359 826.88354 4293978365
82.972473 807.99359 826.88354 4293848316
85.592659 807.99359 826.88354 4293717240
88.212845 807.99359 826.88354 4293848312
67.981651 811.43323 827.16779 4294887370
70.305809 811.21118 826.98047 4294041844
62.554127 814.9165 826.18066 4290810571
66.608559 815.13788 826.36737 4294300867
62.554127 816.90906 827.86072 4294497772
64.29174 816.90906 827.86072 4293444828
66.029358 816.90906 827.86072 4292135114
73.365135 809.32898 828.00952 4293913592
75.985321 809.32898 828.00952 4293781751
79.478897 809.32898 828.00952 4293913597
85.592659 809.32898 828.00952 4293979898
61.137615 811.33215 829.69855 4288387495
71.618347 810.66443 829.1355 4294304504
67.981651 814.76483 829.97681 4293582560
69.72477 814.09851 829.41504 4293648629
64.29174 818.23749 828.98083 4292525020
59.57798 809.18164 831.80933 4289703098
71.84404 809.85144 832.37415 4293911289
73.673393 808.46545 832.51349 4293518581
76.22477 808.51178 831.24451 4293781497
59.57798 811.19104 833.50366 4292323255
61.137615 814.00305 831.95056 4294696684
62.348621 817.0741 832.578 4292394449
64.495415 818.09644 832.78595 4292065995
66.935776 817.16357 831.99939 4292793303
69.72477 816.76379 831.66229 4293649653
66.029358 822.22278 832.34106 4294436856
75.743118 806.27063 835.89502 4293584629
59.57798 812.5307 834.63318 4291997633
59.57798 814.54016 836.32758 4291407548
61.137615 818.00934 835.32861 4291868347
62.752293 820.09534 834.47144 4292460220
64.495415 820.76166 835.03326 4294172382
64.495415 822.76062 836.71863 4294109421
58.310093 804.79761 838.57715 4289766074
75.97982 805.47302 839.14661 4293781751
58.128441 808.96393 838.16602 4289895574
73.100922 807.61731 837.03052 4293715190
-15.853211 810.31061 839.30151 4283513918
58.128441 810.31061 839.30151 4290816412
57.946789 815.13135 839.44214 4290881176
59.57798 817.21948 838.58667 4291079085
62.302139 820.45758 837.39288 4293186263
62.884403 822.68335 839.26965 4294438137
-10.722936 792.14563 842.29761 4282528305
-13.065442 796.57684 842.10986 4282660918
-10.689908 797.03088 842.49268 4282923833
56.836697 799.18353 840.38354 4293781501
58.612843 799.18353 840.38354 4292597228
-15.985321 801.89929 842.67346 4282858803
-13.3211 801.89929 842.67346 4282923833
56.166363 802.40057 841.35211 4289501622
-15.952293 804.68384 842.40527 4283120955
-14.179816 804.68384 842.40527 4283055162
56.543118 806.82391 840.28564 4287921783
-17.669725 809.52563 842.56372 4283712063
-14.135779 808.17474 841.42468 4283253057
56.543118 808.85022 841.9942 4290092434
-15.853211 811.65723 840.43689 4283646270
-14.091743 811.65723 840.43689 4283646270
58.128441 811.65723 840.43689 4290882208
-19.376146 813.67725 842.14014 4284041284
-16.440367 813.90167 842.32941 4283909449
-14.091743 814.35059 842.70789 4283909708
56.366974 813.00391 841.57239 4289894025
58.128441 814.35059 842.70789 4291274147
-19.315596 817.81622 841.70593 4284436556
59.702751 817.81622 841.70593 4293580765
59.702751 819.15869 842.83789 4294569207
61.330276 819.89874 840.84576 4294502641
61.137615 824.0188 840.39563 4294372092
-8.0834866 787.85718 845.2218 4283843649
55.686237 788.54382 845.80078 4293584888
57.482571 787.17047 844.64282 4293781751
-8.9541283 790.7049 843.69885 4282528305
58.201836 790.7049 843.69885 4294044923
61.783485 790.7049 843.69885 4294504191
-10.722936 793.5119 843.44971 4282462512
-8.9449539 793.47607 844.72748 4282791734
55.458717 793.47607 844.72748 4294110204
58.082569 793.5119 843.44971 4294176510
60.763302 793.5119 843.44971 4294177023
-8.042202 796.24451 845.75366 4282858542
53.614677 796.24451 845.75366 4294108415
-13.362385 798.39294 843.64111 4282923833
-10.689908 799.07397 844.21539 4282989369
-8.9082565 799.75507 844.78967 4283187004
53.449543 799.75507 844.78967 4288248996
55.231194 798.39294 843.64111 4293516281
-12.433027 803.2572 843.81836 4283187004
-10.689908 801.11713 845.93811 4283055934
-8.0174313 801.11713 845.93811 4283055931
53.449543 801.11713 845.93811 4286933873
55.060551 803.2572 843.81836 4287920768
-12.407339 806.03894 843.54785 4283253057
-10.65688 804.61505 844.96338 4283645505
-8.8807335 804.61505 844.96338 4283645505
55.060551 804.61505 844.96338 4289368978
-12.407339 807.39398 844.69043 4283646270
53.174313 808.74908 845.83301 4288710017
54.946789 807.39398 844.69043 4289631134
-17.669725 810.87646 843.70276 4283974469
-12.957798 811.32672 844.08234 4283908423
55.365131 811.77704 844.4621 4289695630
-16.733946 815.6972 843.84338 4284436304
-13.230276 814.6377 844.91205 4284238925
55.65963 813.57825 845.98071 4291797665
58.128441 815.6972 843.84338 4293640898
-16.733946 817.04388 844.97876 4284633935
-13.21101 817.04388 844.97876 4284502349
58.128441 817.04388 844.97876 4293909996
59.117432 821.39606 844.72443 4294175227
59.57798 824.58746 844.79919 4293650681
46.601833 765.12036 848.28723 4293649400
47.372478 770.10101 848.56274 4293584375
49.194496 770.10101 848.56274 4293584375
51.016514 770.10101 848.56274 4293584375
50.913761 772.94873 848.34778 4293584375
52.732109 772.94873 848.34778 4293518582
54.550457 772.94873 848.34778 4293715191
52.572475 776.51678 847.43225 4293584377
54.385323 776.51678 847.43225 4293518582
50.759632 777.90271 848.60083 4293715195
52.572475 777.90271 848.60083 4293715195
55.291744 777.90271 848.60083 4293649398
-9.0366974 781.45819 847.67456 4286210134
-3.6146789 782.8399 848.8396 4284829778
49.701836 782.8399 848.8396 4293584631
52.412846 782.14905 848.25708 4293912571
55.123856 781.45819 847.67456 4293846261
57.834862 781.45819 847.67456 4293847031
-7.2073393 785.00519 846.74121 4284961616
-5.4055047 785.00519 846.74121 4284632652
54.955963 785.00519 846.74121 4293781749
59.460552 785.00519 846.74121 4293847544
61.262386 785.00519 846.74121 4294044156
-5.4055047 786.38269 847.90271 4282396718
52.253212 786.38269 847.90271 4293519095
54.055046 786.38269 847.90271 4293453302
-7.1853213 789.91711 846.95874 4282594098
-5.3889909 790.60376 847.53772 4282529073
52.991745 790.60376 847.53772 4293847802
-7.1633029 793.44312 846.00769 4282858805
-5.3724771 794.81219 847.16211 4282727457
53.72477 793.44312 846.00769 4294307327
-7.1486239 797.61084 846.90576 4283055414
-4.4715595 796.89606 847.61108 4282923831
50.14312 796.18127 848.31641 4288118945
51.827522 797.61084 846.90576 4288118945
-5.3614678 798.97711 848.05774 4282793012
51.827522 798.97711 848.05774 4286867063
-7.1266055 802.47925 847.08655 4283253563
-5.344954 803.16028 847.66083 4283384123
52.558716 803.16028 847.66083 4287987069
-10.65688 805.97296 846.10828 4283711811
-7.9926605 805.97296 846.10828 4283646016
53.284405 805.97296 846.10828 4288446861
-10.65688 807.33081 847.25317 4283842116
-7.9926605 808.00977 847.82556 4283843396
51.508255 808.68872 848.39807 4288247419
-10.634862 810.78168 847.54688 4283976523
53.174313 810.78168 847.54688 4289298561
-10.601835 814.92908 847.11975 4284436556
55.65963 814.92908 847.11975 4292659416
-16.733946 818.39056 846.11426 4285027158
-13.21101 818.39056 846.11426 4284895823
-10.601835 816.27997 848.25879 4284633935
53.009174 816.27997 848.25879 4294570488
55.57156 817.33527 847.18652 4294175731
58.128441 818.39056 846.11426 4294109940
-19.376146 821.08386 848.38525 4284373078
-16.733946 820.41052 847.8175 4284569945
-13.21101 820.41052 847.8175 4284766039
55.486237 820.41052 847.8175 4294175996
55.312843 824.52844 847.3656 4293912825
57.946789 823.85724 846.79962 4293781494
52.678898 825.87091 848.49744 4293913340
55.19725 827.26678 847.05835 4293847033
52.568806 828.60645 848.18787 4294109949
54.150459 830.69598 846.02563 4294109949
54.150459 832.03137 847.15161 4294241791
40.447708 759.32532 851.24915 4294175483
45.825687 761.52423 849.1792 4294176509
42.770641 763.39276 850.7547 4293913081
-7.310092 767.91467 850.64331 4286734432
-5.4825687 767.91467 850.64331 4287129190
43.251373 767.44891 850.25067 4293584121
46.297245 766.98322 849.85797 4293583610
49.343121 766.51752 849.46533 4293846009
-3.655046 769.31183 851.82141 4287788637
-1.827523 769.31183 851.82141 4288314981
42.946789 769.31183 851.82141 4293781240
45.688072 769.31183 851.82141 4293584375
-7.2880735 772.19043 850.32446 4286669402
-4.8587155 772.42261 850.5202 4287722858
-1.8220184 772.8869 850.91174 4288382323
46.765137 772.42261 850.5202 4293518582
49.194496 771.49396 849.73718 4293584375
64.681648 772.8869 850.91174 4294504191
-9.0917435 775.03394 850.10602 4286998619
-7.2733946 775.729 850.69214 4287329120
-4.5458717 775.729 850.69214 4287921261
-1.8183486 775.729 850.69214 4288382073
47.277065 775.729 850.69214 4293518582
49.701527 774.80225 849.91064 4293584375
56.368809 774.33887 849.5199 4293452789
-7.2513762 779.2887 849.76941 4286012506
-4.5376148 778.20392 850.81683 4286078556
-1.8183486 777.11914 851.86426 4286144862
47.277065 777.11914 851.86426 4293321973
49.85321 779.2887 849.76941 4293386741
-1.812844 780.67462 850.93799 4284895571
47.133945 780.67462 850.93799 4293255925
-3.6146789 784.22162 850.00464 4282265139
-1.8073394 784.91248 850.58716 4282462515
46.990826 785.60333 851.16968 4293978614
49.400616 784.68219 850.39301 4293584373
-3.6036696 787.76025 849.06421 4282528305
50.451378 787.76025 849.06421 4293584629
52.253212 787.76025 849.06421 4293715958
-3.6036696 789.13776 850.22571 4282923062
-1.8018348 789.82654 850.80646 4282923574
49.550461 789.82654 850.80646 4294175742
-3.5926607 792.6637 849.27466 4282858292
-1.7963303 794.03705 850.4325 4283055162
50.297249 792.6637 849.27466 4294373375
52.093578 792.6637 849.27466 4294307327
-3.5816514 797.55042 849.47083 4282923833
-1.7908257 797.55042 849.47083 4283055162
49.322018 796.48035 850.53064 4285288280
-3.574312 800.34338 849.20984 4283056184
-1.7908257 799.604 851.20245 4283383867
49.247707 799.604 851.20245 4286998881
51.827522 800.34338 849.20984 4287854710
-3.574312 802.39282 850.93781 4283646013
-1.787156 803.07599 851.51379 4283777856
49.444653 802.62054 851.12982 4286932832
-4.75107 806.11151 850.14917 4283778370
49.886238 806.56549 850.53198 4286471008
51.667889 805.20343 849.38354 4288314481
-4.4541283 807.92761 851.68054 4283648837
49.886238 807.92761 851.68054 4287917673
-7.8113761 811.41492 850.17352 4284108619
49.732109 812.76233 851.83289 4294505211
51.92477 811.7569 850.33118 4291080116
-8.8623857 814.16937 850.4032 4284502349
51.401836 815.52441 851.54578 4294504703
-10.601835 818.30627 849.96729 4284832086
-8.8348627 818.30627 849.96729 4284634707
52.420185 818.53143 850.15704 4294307582
-8.8348627 820.33252 851.67578 4285291609
49.475231 820.33252 851.67578 4293979133
51.242203 820.33252 851.67578 4293913340
-19.376146 822.43048 849.52063 4284636499
-16.440367 822.87939 849.89911 4285488223
-13.21101 823.10382 850.08838 4285488731
-10.568808 823.10382 850.08838 4285422682
51.963303 823.10382 850.08838 4293978875
-13.21101 825.12384 851.79163 4286079076
-10.568808 825.12384 851.79163 4285881701
50.122017 826.16858 850.71051 4294307325
-7.901835 829.22699 851.32727 4286342248
49.991745 829.25092 850.03937 4294110203
52.568806 829.94604 849.31738 4294175742
34.216515 753.51337 854.1969 4292530137
-3.6880734 758.53613 854.50793 4285421902
-1.8440367 758.53613 854.50793 4285685074
38.72477 757.83124 853.91357 4294438398
40.447708 760.73083 852.43433 4293978362
-4.5963302 762.13641 853.61951 4286011482
-1.8385321 762.13641 853.61951 4286472287
40.447708 762.13641 853.61951 4294110199
-3.666055 765.72833 852.724 4287327323
-1.8330275 765.72833 852.724 4288511341
40.326607 766.42902 853.31476 4293584118
42.946789 770.70898 852.99951 4293584118
0 772.10614 854.17749 4288710271
40.205505 772.10614 854.17749 4293452789
42.033028 772.10614 854.17749 4293452789
64.87706 772.10614 854.17749 4294438655
43.728439 774.97632 852.67346 4293715958
45.550457 774.97632 852.67346 4293715958
0.60733944 778.01031 854.35962 4284172623
41.906422 777.06573 854.43518 4293583859
43.684402 778.4826 854.32184 4293649396
45.458717 779.20435 853.62244 4293452274
47.133945 782.06055 852.10657 4293058544
43.508255 784.8324 854.44373 4292856543
45.321102 784.1394 853.85944 4294502908
0 788.36682 853.49976 4282858040
46.388382 787.90625 853.11139 4293912043
48.798164 786.98511 852.33472 4294243071
0.90366971 789.74854 854.66479 4283055162
43.376148 789.74854 854.66479 4286999162
46.015594 790.82068 853.60669 4286275194
48.64954 791.89276 852.54858 4287195794
0.60061163 794.18866 854.48438 4283121213
43.244038 794.64783 854.87158 4286605926
45.646484 793.72949 854.09723 4285486423
46.704586 796.78363 852.74841 4286274131
48.500916 796.78363 852.74841 4287195233
44.908257 798.15698 853.90637 4286539365
46.704586 798.15698 853.90637 4286800725
43.875229 803.02679 854.08838 4285881672
46.561466 802.34229 853.51117 4286470992
-1.787156 805.12543 853.24188 4283779396
46.466057 805.80859 853.81787 4288444030
48.253212 805.12543 853.24188 4287326312
-4.4541283 809.28967 852.82898 4284240203
-1.787156 807.17487 854.96985 4284304967
43.78532 807.17487 854.96985 4291016124
46.466057 807.17487 854.96985 4290555064
48.995415 809.28967 852.82898 4290291630
-4.4541283 810.65173 853.97742 4284502349
-1.7816514 810.65173 853.97742 4284502349
46.322937 810.65173 853.97742 4294636799
48.104588 810.65173 853.97742 4294504957
-7.1045871 814.12024 852.97778 4284306514
-5.3284402 814.12024 852.97778 4284306514
47.955963 815.47809 854.1228 4293979133
49.732109 814.12024 852.97778 4294702335
-7.0899081 817.55707 853.25964 4285029464
-5.317431 817.55707 853.25964 4285029464
49.629356 816.87952 852.68835 4293913340
-7.9623852 820.63654 853.89417 4285488731
-5.317431 819.58966 854.97351 4285423451
47.85688 819.58966 854.97351 4294110203
49.475231 821.68341 852.81482 4293979131
-7.951376 823.0343 853.95386 4285684833
-5.2844038 826.47046 852.92712 4286210916
28.838531 747.68463 857.13049 4292398030
1.8550459 752.72839 857.45911 4289172866
4.6376147 752.72839 857.45911 4289370527
7.4201837 752.72839 857.45911 4289371043
9.2752295 752.72839 857.45911 4289765800
29.680735 752.72839 857.45911 4292001999
31.53578 751.31018 856.26331 4291673800
31.442202 754.92737 855.38916 4291541448
34.216515 754.92737 855.38916 4293122276
36.990826 754.92737 855.38916 4294636031
0.61651379 757.284 857.37628 4285750622
3.6990826 757.75537 857.77368 4286078053
7.3981652 757.75537 857.77368 4287065959
