# .PCD v0.7 - Point Cloud Data file format
VERSION 0.7
FIELDS x y z rgb
SIZE 4 4 4 4
TYPE F F F U
COUNT 1 1 1 1
WIDTH 1167
HEIGHT 1
VIEWPOINT 0 0 0 1 0 0 0
POINTS 1167
DATA ascii
10.513762 748.22784 780.41467 4293977836
37.966358 748.67438 780.7912 4294966527
40.302753 748.89771 780.97949 4294965758
43.021103 748.00891 782.84619 4294965759
-7.0091743 750.9071 782.67383 4290619815
-4.380734 750.9071 782.67383 4292462264
38.550457 750.9071 782.67383 4294966271
40.302753 750.9071 782.67383 4294965503
-4.075841 755.46649 782.59406 4287593074
-1.746789 753.24072 780.71741 4293515711
1.746789 753.90845 781.2804 4292397002
4.3669724 753.24072 780.71741 4294898940
6.9871559 753.24072 780.71741 4294767354
34.93578 753.24072 780.71741 4294966271
37.381283 754.84326 782.06854 4294966527
40.176147 755.2439 782.40637 4294966271
-4.3577981 758.79437 782.78406 4288118904
-1.7431192 757.46173 781.6604 4288579714
0.87155962 757.46173 781.6604 4289236113
4.3577981 757.46185 781.66034 4290749345
7.5535164 756.57343 780.91132 4292132810
10.458715 756.12915 780.53674 4290163137
13.073395 756.12915 780.53674 4288847536
16.559633 756.12915 780.53674 4289702847
20.917431 756.12915 780.53674 4289045929
22.660551 756.12915 780.53674 4294901247
28.761467 756.12915 780.53674 4294967295
31.376146 756.12915 780.53674 4294967295
34.165138 757.19531 781.43567 4294966527
36.605503 758.79437 782.78406 4294966783
0 761.11542 780.81702 4289563792
6.9504585 761.11542 780.81702 4291143090
29.53945 761.11542 780.81702 4294966783
31.277063 761.11542 780.81702 4294965759
33.014679 761.11542 780.81702 4294967039
-3.4752293 762.44385 781.93701 4288249718
-1.7376146 762.44385 781.93701 4289170820
1.7376146 762.44385 781.93701 4289960352
4.3440366 762.44385 781.93701 4290617498
33.883484 762.44385 781.93701 4294967039
-4.3302751 767.40906 782.19946 4288053369
-1.7321101 766.08484 781.08301 4289236867
0.86605507 766.08484 781.08301 4289631900
4.3302751 766.08484 781.08301 4290618781
6.9284406 766.08484 781.08301 4291275180
32.044037 766.08484 781.08301 4294967039
34.6422 767.40906 782.19946 4294967295
36.374313 767.40906 782.19946 4294967295
-4.3211012 770.26941 781.99512 4287790967
-1.7284404 768.948 780.88098 4289171587
1.1522936 769.38849 781.25238 4289828760
4.3211012 769.6087 781.43799 4290355614
7.7779818 768.948 780.88098 4291473322
15.555964 768.948 780.88098 4293512390
28.519266 768.948 780.88098 4294967295
32.264221 769.38849 781.25238 4294967039
34.568806 770.26941 781.99512 4294967295
36.297249 770.26941 781.99512 4294967295
-3.4458716 773.89075 781.12451 4288118913
-1.7229358 773.23218 780.56921 4288843146
0.57431191 773.45166 780.75433 4289368457
4.3073397 773.89075 781.12451 4290224041
7.753211 773.23212 780.56921 4291014053
10.337615 772.57355 780.01392 4291474358
12.922018 772.57355 780.01392 4292526530
16.367889 772.57355 780.01392 4293447118
24.982569 772.57355 780.01392 4294967295
28.141283 773.01263 780.38409 4294967295
31.587156 773.45166 780.75433 4294967039
34.458717 773.89075 781.12451 4294967295
-3.4458716 775.20795 782.23523 4288118398
-1.7192661 776.73846 780.90967 4289039500
0.8614679 775.97321 781.57245 4289434505
4.3018351 775.97321 781.57245 4290355371
7.7366972 776.73846 780.90967 4291013280
31.841284 775.97321 781.57245 4294967295
34.458717 775.20795 782.23523 4294967295
37.043121 775.20795 782.23523 4294967295
-1.7192661 778.05286 782.01782 4288907913
0 778.05286 782.01782 4288842370
4.2981653 778.05286 782.01782 4290224039
32.666054 778.05286 782.01782 4294967295
34.385323 778.05286 782.01782 4294967295
36.104588 778.05286 782.01782 4294967295
0.85688072 782.96478 782.23535 4289303173
4.2844038 782.30969 781.68298 4290092965
7.7119265 780.99951 780.57825 4291079072
11.13945 780.99951 780.57825 4291868350
13.710092 780.34442 780.02588 4292197564
15.423853 780.34442 780.02588 4292789957
28.277065 780.34442 780.02588 4294967295
31.418961 781.21783 780.76239 4294967295
34.846485 782.52808 781.86713 4294967295
37.702751 782.96478 782.23535 4294967295
0 785.79419 782.005 4288974209
4.560245 785.3584 781.63751 4290158756
7.6954126 785.1405 781.45386 4291276193
11.400612 784.92261 781.2702 4292065206
13.680734 784.48682 780.90271 4292197566
16.245872 784.48682 780.90271 4292921804
18.811008 784.48682 780.90271 4293448664
23.941284 784.48682 780.90271 4293320157
28.216515 784.48682 780.90271 4294967295
31.921713 784.92261 781.2702 4294967295
35.056881 785.79419 782.005 4294967295
10.227523 788.07312 780.00244 4291539120
13.636697 788.07312 780.00244 4292263359
16.193579 788.07312 780.00244 4292790217
19.602753 788.07312 780.00244 4293383380
23.011927 788.07312 780.00244 4293713373
25.568808 788.07312 780.00244 4294967039
28.125687 788.07312 780.00244 4294967295
30.68257 788.07312 780.00244 4294967295
0.85229355 790.67944 782.20007 4289236360
4.5455661 790.24506 781.8338 4290355353
7.3865447 789.81061 781.46759 4291144609
11.079817 789.37628 781.10132 4291736499
13.636697 789.37628 781.10132 4292197566
16.193579 789.37628 781.10132 4292658887
19.602753 789.37628 781.10132 4293449428
23.011927 789.37628 781.10132 4293845214
25.568808 789.37628 781.10132 4294964981
28.125687 790.02789 781.65076 4294441420
31.534863 790.02783 781.6507 4294967275
34.091743 790.02783 781.6507 4294967295
5.1027522 793.49353 781.95679 4290684313
7.9376144 793.06006 781.59131 4291078314
10.772477 792.62665 781.22583 4291605166
13.60734 792.19318 780.86035 4292263359
16.158716 792.19318 780.86035 4292527042
19.560551 792.84332 781.40857 4293383633
22.962383 792.84332 781.40857 4293713372
25.513762 792.84338 781.40857 4294305769
28.065138 793.49353 781.95679 4294637537
30.616514 793.49353 781.95679 4294967260
5.0862384 797.05597 781.03638 4290683029
7.6293578 797.05597 781.03638 4291012010
19.497248 797.05597 781.03638 4293447885
22.888073 797.05597 781.03638 4293713117
25.431192 797.05597 781.03638 4294503662
4.2385321 798.35211 782.12927 4290222478
7.612844 799.85742 780.78247 4290946218
10.99633 799.85742 780.78247 4291604909
16.07156 799.85742 780.78247 4292657859
19.455046 799.85742 780.78247 4293316300
22.838531 799.85742 780.78247 4293844446
25.376146 799.85742 780.78247 4294569196
27.974312 798.35211 782.12927 4294966268
31.365139 798.35211 782.12927 4294967295
4.5113149 802.013 782.59991 4290419863
7.3308868 801.58185 782.23651 4290814375
10.150458 801.15076 781.87292 4290749856
18.609175 801.15076 781.87292 4293381320
25.376146 801.15076 781.87292 4294503149
27.913761 801.15076 781.87292 4294834425
31.297249 801.15076 781.87292 4294967295
33.834862 802.44409 782.9635 4294967295
5.0587158 805.98273 782.02307 4290552475
7.8691125 805.55298 781.66071 4290815400
10.96055 805.33813 781.47955 4291210917
13.489908 805.33813 781.47955 4291933884
16.019266 805.33813 781.47955 4292394944
19.110703 805.12329 781.29834 4293053386
22.764221 804.69354 780.93604 4293514969
26.136696 804.69354 780.93604 4294634738
28.666056 804.69354 780.93604 4294967295
31.195412 804.69354 780.93604 4294967295
34.56789 805.98273 782.02307 4294967295
8.4128437 808.76587 781.75366 4290816165
10.936697 808.76587 781.75366 4291211684
13.46055 808.76587 781.75366 4292064946
15.984404 808.76587 781.75366 4292591805
19.629969 808.3371 781.39209 4292790476
22.714678 808.12268 781.21136 4293252056
26.079817 807.47955 780.66907 4294371822
28.60367 807.47955 780.66907 4294967295
31.127522 807.47955 780.66907 4294967295
33.651375 808.76587 781.75366 4294967295
4.2064219 810.05225 782.83826 4290024847
7.5715594 810.05225 782.83826 4290618529
10.936697 810.05225 782.83826 4291341988
13.46055 810.05225 782.83826 4292064432
15.984404 810.05225 782.83826 4292788670
19.28624 812.28906 780.80017 4292789704
22.640366 812.28906 780.80017 4293120212
28.510092 812.28906 780.80017 4294967039
31.86422 812.28906 780.80017 4294966783
34.437614 811.17065 781.81921 4294966527
0 814.85333 782.9624 4288710271
4.1926603 814.85333 782.9624 4289958807
7.8262992 814.42596 782.60205 4290683553
10.900917 813.57123 781.88123 4291341473
13.416513 814.21228 782.42181 4291933102
15.93211 814.21228 782.42181 4292656826
19.006729 813.9986 782.24164 4292985798
22.614677 814.31543 781.20074 4293119699
25.937614 815.05957 780.52026 4294108390
28.447706 815.05957 780.52026 4294967039
30.992661 814.31543 781.20074 4294967295
34.659328 813.9986 782.24164 4294967039
36.895412 814.85333 782.9624 4294967295
13.387156 817.61823 782.67761 4291801513
15.897248 817.61823 782.67761 4292656823
19.522936 817.19183 782.31805 4292986309
22.311926 816.76538 781.9585 4293250768
25.937614 816.33893 781.599 4293910754
28.447706 816.97858 782.13831 4294964986
30.957798 816.97858 782.13831 4294965246
34.025692 817.19183 782.31805 4294966270
20.014679 821.11755 781.7041 4293052874
22.794495 820.69257 781.3457 4293185487
25.852295 820.47998 781.1665 4293778910
30.855965 821.11755 781.7041 4294767100
13.34312 822.3927 782.7793 4291670706
15.844954 822.3927 782.7793 4292328888
19.180733 822.3927 782.7793 4292987076
22.516514 822.3927 782.7793 4293251022
25.852295 822.3927 782.7793 4293778395
30.855965 822.3927 782.7793 4294767354
-8.7798166 749.35132 783.97815 4289303718
43.021103 749.35132 783.97815 4294965247
45.798164 747.0177 785.93457 4294965759
-7.8944955 751.47028 784.45673 4286343517
-5.2568808 752.24677 783.80334 4287528048
42.93119 752.24677 783.80334 4294965757
45.655045 750.69379 785.11011 4294965503
-7.8853211 753.58643 784.93286 4286737254
42.93119 753.58643 784.93286 4294966782
-10.480734 758.58246 785.22144 4286408281
-7.8605504 757.91479 784.65839 4287526765
38.429359 757.24707 784.09534 4294967039
41.049541 757.91479 784.65839 4294966270
43.669724 758.58246 785.22144 4294966271
-10.458715 761.45966 785.03125 4286343004
-7.8440366 760.79333 784.46948 4287461234
-5.2293577 760.12701 783.90771 4288118913
37.767582 760.57123 784.28223 4294966527
40.091743 761.45966 785.03125 4294966527
-6.9504585 763.77222 783.05713 4287527544
-4.3440366 763.77222 783.05713 4288250491
34.752293 763.77222 783.05713 4294967295
36.48991 763.77222 783.05713 4294967039
-8.1088686 765.54346 784.5506 4287263088
38.227524 765.10065 784.17725 4294967295
40.544342 765.98633 784.92401 4294967295
-7.7944956 769.39539 783.87433 4287263600
38.106422 768.73328 783.31604 4294967295
41.570641 770.0575 784.43262 4294967295
-7.4960246 771.96161 784.29401 4287264112
-5.1853213 772.25153 783.66644 4287790966
37.161469 771.59082 783.10938 4294967295
40.330276 772.47174 783.85211 4294967295
43.302753 771.38165 785.54919 4294967295
-6.9137616 774.23358 785.33765 4287198322
-4.3155966 775.37939 784.34174 4287921788
1.7229358 776.52515 783.34583 4289697679
37.904587 776.52515 783.34583 4294967295
40.488991 776.52515 783.34583 4294967295
43.21101 774.23358 785.33765 4294967295
-4.5944958 778.28143 784.82666 4287921532
-1.7192661 779.36725 783.1261 4288973707
0.85963303 779.36725 783.1261 4289237378
3.4385321 779.36725 783.1261 4289697695
36.964218 779.36725 783.1261 4294967295
40.488991 777.84235 784.45642 4294966783
43.647705 778.72052 785.19678 4294967295
-3.4385321 781.33887 784.78851 4288249209
-1.7192661 780.68164 784.23438 4289236617
40.402752 780.68164 784.23438 4294967295
44.700916 781.99603 785.34265 4294967295
-3.4275229 785.58514 784.4447 4287920505
-1.7137614 784.93005 783.8924 4288907141
1.7137614 784.27496 783.34009 4289632138
37.702751 784.27496 783.34009 4294967295
40.273396 784.27496 783.34009 4294967295
43.415287 785.14844 784.07648 4294967295
-3.4275229 786.89532 785.54944 4287854960
-1.7100917 788.40894 784.20972 4288710269
0.85504586 787.10156 783.10742 4289171585
3.4201834 787.10156 783.10742 4289632658
35.911926 787.75525 783.65857 4294967295
37.622017 787.75525 783.65857 4294967295
40.187157 787.75525 783.65857 4294967295
43.655045 787.6521 784.87958 4294967295
46.271561 786.89532 785.54944 4294967295
-3.4201834 789.71637 785.31213 4287658351
-1.7045871 791.98267 783.29883 4288710782
0.85229355 791.98267 783.29883 4289171088
3.4091742 791.98267 783.29883 4289565576
32.387157 791.98267 783.29883 4294967265
34.944038 791.98267 783.29883 4294967295
37.500916 791.98267 783.29883 4294967295
40.187157 789.71637 785.31213 4294967295
43.607338 789.71637 785.31213 4294967295
-3.97737 794.1546 785.13019 4287462253
-1.7045871 793.28583 784.39771 4288317560
0.85045874 794.79388 783.05322 4289040015
3.401835 794.79388 783.05322 4289827721
28.065138 794.79388 783.05322 4294966521
31.466972 794.79388 783.05322 4294967295
34.944038 793.28583 784.39771 4294967295
37.500916 793.93738 784.94708 4294967295
40.0578 793.93744 784.94708 4294967295
43.182873 794.1546 785.13019 4294967039
-3.401835 797.39459 785.24609 4287527526
-1.7009175 796.74438 784.69788 4288449142
0.85045874 796.09424 784.14966 4289105293
35.152294 796.52765 784.51514 4294967295
37.420185 797.39459 785.24609 4294967295
39.971558 797.39459 785.24609 4294967295
-1.6954129 800.94446 784.31506 4288448628
0.84770644 800.29639 783.76855 4289170823
3.3908257 799.64832 783.22217 4289761674
34.755962 800.29639 783.76862 4294967295
38.14679 800.94446 784.31506 4294967295
40.689907 800.94446 784.31506 4294967295
-3.3908257 802.2406 785.40796 4287527530
-1.6954129 802.2406 785.40796 4288580218
0.84587157 803.73743 784.05396 4288973702
3.3834863 803.73743 784.05396 4289499530
38.06422 803.73743 784.05396 4294967295
40.601833 803.73743 784.05396 4294967295
43.187157 802.98901 784.73096 4294967295
45.776146 802.2406 785.40796 4294967295
-3.3834863 805.03082 785.14453 4287396458
38.910091 805.03082 785.14453 4294967295
40.601833 805.03082 785.14453 4294967295
43.13945 805.03082 785.14453 4294967295
-3.3724771 809.85016 785.28394 4287395960
-1.6862386 808.56104 784.19696 4288185981
0.84311926 807.91644 783.6535 4289104777
4.2155962 807.27185 783.10999 4290090640
6.7449541 807.27185 783.10999 4290552736
35.411011 807.27185 783.10999 4294967295
37.940369 808.56104 784.19696 4294967295
40.469727 809.20557 784.74048 4294967295
42.155964 809.85016 785.28394 4294967295
-3.3651376 812.62494 785.00745 4287263865
-1.6825688 812.62494 785.00745 4288184967
1.1217126 811.76733 784.28436 4289171080
4.2064219 811.33856 783.92285 4289958800
6.7302752 811.33856 783.92285 4290355362
10.936697 812.62494 785.00745 4291341475
37.857796 811.98175 784.46515 4294967295
-3.3541284 817.4176 785.12451 4287527024
-1.6770642 816.77655 784.58398 4288316288
0.83853209 817.14655 784.24194 4288974212
4.1880732 817.51648 783.8999 4290156438
7.5385323 817.51648 783.8999 4290618269
10.88899 817.51648 783.8999 4291210405
13.387156 818.89758 783.75635 4291408302
15.897248 818.89758 783.75635 4292329145
18.407339 818.89758 783.75635 4293052609
28.447706 818.89758 783.75635 4294963702
34.304588 818.89758 783.75635 4294834429
37.454433 816.99023 784.76416 4294966783
-1.6733944 821.45618 785.9137 4288251253
0.55779815 821.02979 785.55414 4288973445
4.183486 820.81653 785.37433 4290156432
7.2513757 820.60333 785.19452 4290486166
10.877064 820.17688 784.83496 4291275682
28.447706 820.17688 784.83496 4294963701
30.121101 821.45618 785.9137 4294437619
34.304588 820.17688 784.83496 4294899709
0 824.94293 784.92957 4288644728
22.516514 823.66779 783.85437 4292987849
25.018349 823.66779 783.85437 4293843156
31.689909 823.66779 783.85437 4294437619
33.3578 823.66779 783.85437 4294372596
-13.21101 749.03772 787.63776 4285551446
-10.568808 748.36438 787.07007 4285685844
47.559631 749.03772 787.63776 4294965759
-12.291743 752.03625 786.24194 4285814873
-10.53578 752.03625 786.24194 4285749854
45.655045 752.03625 786.24194 4294966271
-13.169725 754.04993 787.93988 4286078044
-10.513762 754.92603 786.0625 4286407768
-8.7614679 754.92603 786.0625 4287723372
43.807339 754.92603 786.0625 4294966270
46.533028 754.04993 787.93988 4294966015
50.044952 754.72113 788.50586 4294966527
52.678898 754.72113 788.50586 4294967295
55.312843 754.72113 788.50586 4294967295
-12.266055 756.93555 787.75677 4286472801
46.143726 757.15887 787.94501 4294966527
49.06422 757.60535 788.32153 4294966527
-12.227523 761.25336 787.47339 4286735461
41.922935 759.91791 786.34741 4294966527
43.669724 760.58563 786.9104 4294966527
45.416515 761.25336 787.47339 4294967295
-12.227523 762.58875 788.59937 4286472289
-10.458715 763.45862 786.71674 4286538852
41.834862 762.7923 786.15491 4294967295
43.57798 764.12494 787.27856 4294967295
46.289909 762.58875 788.59937 4294967295
48.910091 762.58875 788.59937 4294967295
55.897247 762.58875 788.59937 4294966783
57.644035 762.58875 788.59937 4294966783
-12.201835 765.45752 788.40222 4286340960
-10.425688 767.75751 786.41736 4286407014
43.440369 767.75751 786.41736 4294967295
45.321102 765.45752 788.40222 4294967295
-10.425688 769.75012 788.09753 4286341733
46.046791 769.75012 788.09753 4294967295
-8.6605501 772.70587 786.66565 4287197298
45.034863 772.70587 786.66565 4294967295
-7.7871561 775.45392 787.67474 4287000175
44.939449 775.55499 786.4519 4294967295
46.766972 775.35431 788.8988 4294967295
-8.6422014 778.19781 788.68018 4286868076
48.396332 778.19781 788.68018 4294967295
-6.8917432 781.13538 787.23303 4287000175
-5.1688075 780.47675 786.67773 4287789948
46.519264 780.47675 786.67773 4294967295
48.242203 781.79395 787.78833 4294967295
-6.8844037 784.52515 788.7832 4287132012
-5.1577983 783.96765 787.00507 4287855226
46.420185 783.31042 786.45093 4294967295
48.190826 784.52515 788.7832 4294967295
-5.1412845 788.20551 786.65417 4287789682
46.271561 788.20551 786.65417 4294967295
-7.7119265 790.17078 788.31128 4286868838
-5.1302752 791.02374 786.41443 4287658864
44.462387 791.02374 786.41443 4294965503
47.078899 790.26971 787.08667 4294967039
-6.8403668 792.9848 788.06793 4286738278
47.312542 792.76691 787.88422 4294966527
-6.8183484 797.19531 787.69409 4286738275
-5.1137614 796.5437 787.14465 4287264619
43.466972 795.89215 786.59521 4294966783
46.876144 796.5437 787.14465 4294966527
-7.6706419 798.49847 788.79285 4286868072
-4.2522936 799.34521 786.89075 4287395691
43.373394 798.69501 786.34253 4294966783
46.77523 799.34521 786.89075 4294967039
49.433029 798.49847 788.79285 4294967039
-6.8036699 801.29572 788.5354 4286737512
-5.0862384 803.53674 786.50085 4287527028
46.623856 803.53674 786.50085 4294967039
49.326607 801.29572 788.5354 4294967039
-6.7816515 805.48096 788.1402 4286868328
-4.2348623 805.57849 786.91437 4287461490
43.13945 806.32416 786.23499 4294967039
46.57431 805.57849 786.91437 4294966783
49.166973 805.48096 788.1402 4294967039
-6.7669725 808.91089 788.41602 4287064676
-5.0752292 807.61749 787.32556 4287526514
43.985321 807.61749 787.32556 4294967295
46.522934 808.26416 787.87085 4294967039
-5.0587158 811.78381 786.91443 4287723117
40.469727 811.78381 786.91443 4294967295
42.999081 811.78381 786.91443 4294967295
-6.7449541 813.71759 788.54492 4286932828
-4.2064219 814.55444 786.63434 4287657586
38.699081 813.91125 786.09204 4294967295
40.381653 815.19757 787.17664 4294966527
42.999084 813.71759 788.54492 4294966783
45.528439 813.71759 788.54492 4294967295
-4.2009172 817.5918 787.23346 4287394917
-1.6770642 818.69971 786.20557 4288251505
1.6770642 818.69971 786.20557 4289499280
37.797249 817.5918 787.23346 4294966527
-4.4721713 820.40924 787.64697 4287592302
36.895412 819.98187 787.28662 4294898940
-3.904587 823.58838 787.71149 4287723630
-1.6733944 822.73553 786.99243 4288447862
1.6733944 822.73553 786.99243 4289500036
3.3467889 822.73553 786.99243 4289893262
-3.3357799 827.49316 787.07983 4287658603
-1.66789 826.85559 786.54224 4288776571
0.83394498 826.21802 786.00464 4288973443
-1.66789 828.76825 788.15491 4288776314
49.475231 747.3858 790.16907 4294966271
51.242203 747.3858 790.16907 4294967295
-15.853211 751.73102 789.90869 4285881173
-14.091743 751.05768 789.34094 4286209371
47.559631 751.05768 789.34094 4294966015
49.321102 751.05768 789.34094 4294966527
51.963303 751.05768 789.34094 4294967039
-16.733946 753.75098 791.61194 4286077529
-16.38899 757.85352 791.14697 4285880921
-14.033028 757.50427 789.54443 4286077530
47.311928 758.94495 789.45117 4294967295
50.267887 757.98456 789.51337 4294967295
52.623852 757.50427 789.54443 4294967295
55.255047 757.50427 789.54443 4294967039
-15.770642 761.62427 791.71021 4285881435
-14.018349 760.28461 790.58069 4286143324
50.816513 760.28461 790.58069 4294967295
52.568806 760.28461 790.58069 4294967295
54.321102 760.28461 790.58069 4294967295
-13.974312 763.92419 789.72546 4286077531
47.163303 763.92419 789.72546 4294967295
49.783485 763.92419 789.72546 4294967295
52.403671 763.92419 789.72546 4294967295
55.023853 763.92419 789.72546 4294966527
57.644035 763.92419 789.72546 4294967295
-16.303364 766.1499 791.60205 4285684570
-13.073395 766.79016 789.52588 4286209885
47.06422 766.79016 789.52588 4294967295
50.040363 766.21503 790.78491 4294967295
52.403671 765.92737 791.41443 4294967295
55.023853 765.92737 791.41443 4294966783
57.522934 766.79016 789.52588 4294966527
-15.688073 769.45544 791.77319 4285881170
-13.073395 768.78918 791.21136 4286144093
49.388378 769.01123 791.39862 4294967295
57.522934 768.1228 790.64954 4294966271
-12.163302 773.07117 790.89783 4286538080
-10.425688 772.40698 790.33777 4286341732
46.915596 771.7428 789.77771 4294967295
48.65321 773.07117 790.89783 4294967295
-10.39266 776.67853 790.01526 4286210403
-10.39266 778.00275 791.13184 4286407525
-8.6422014 779.51923 789.79443 4286999918
50.231194 778.00275 791.13184 4294967295
-10.370643 780.84064 790.90857 4286473057
-8.6422014 780.84064 790.90857 4287196779
50.124771 780.84064 790.90857 4294967295
-10.337615 785.74554 791.12024 4286144862
-8.6146793 784.42834 790.00952 4287196528
49.965137 785.08691 790.56488 4294967295
-10.315597 788.56799 790.88403 4286341984
-8.5963306 787.2536 789.77576 4286934121
49.858715 788.56799 790.88403 4294967295
-12.034863 789.88245 791.99219 4286275927
-10.315597 789.88245 791.99219 4286210905
-10.282569 793.44629 791.073 4286210905
-8.5596333 793.54102 789.84491 4286868578
49.699081 792.7912 790.52069 4294965759
-10.26055 796.90692 791.375 4286340704
51.302753 797.56061 791.92615 4294966271
-8.5229359 799.80164 789.89172 4286998635
-10.78838 802.03534 790.90308 4286275166
-8.5045872 803.24622 790.18005 4286998377
51.082569 802.50061 790.85938 4294966271
-10.205504 805.19684 791.82471 4286275164
51.027523 805.19684 791.82471 4294966015
-10.172477 808.72137 790.87231 4286341471
-8.4770641 808.0733 790.32587 4286867558
49.732113 808.28931 790.508 4294966783
-10.722936 811.43536 791.41669 4286341212
-7.612844 810.85089 790.05188 4286801760
46.80489 810.63531 789.87012 4294967295
49.933945 811.77429 791.48438 4294967039
52.557796 810.01758 791.96521 4294965759
-7.5880733 815.00671 789.63184 4286735712
40.469727 815.00671 789.63184 4294966527
42.999084 815.00671 789.63184 4294967039
46.371559 815.00671 789.63184 4294967295
-10.117432 817.58502 791.80579 4286407768
-7.8642197 817.21704 790.62354 4286802014
38.699081 817.77026 789.34595 4294965247
40.469727 816.94043 791.26233 4294965247
42.999084 816.94043 791.26233 4294965759
46.371559 816.94043 791.26233 4294966015
48.900917 817.58502 791.80579 4294965759
-7.2911315 819.91412 791.15363 4286802532
38.699081 819.05658 790.43054 4294965759
-4.4660549 825.65936 790.32977 4287394664
-21.203671 752.78931 794.7251 4285552470
-19.436697 751.43842 793.58606 4285881170
-17.669725 750.08752 792.44702 4285815127
-19.376146 755.09766 792.74731 4285749850
-19.376146 756.44434 793.88281 4285422165
-17.614679 756.44434 793.88281 4285749850
-21.07156 761.43335 794.16541 4285618775
-19.315596 761.43335 794.16541 4285618775
-17.559633 760.09094 793.03345 4285684057
-21.027523 764.30353 793.96936 4285618261
-19.275229 764.30353 793.96936 4285684311
-17.522936 762.96387 792.83972 4285749850
-20.088074 767.93054 793.10339 4285552984
-17.46789 767.93054 793.10339 4285815376
52.403671 767.93054 793.10339 4294967295
55.023853 767.93054 793.10339 4294966271
57.644035 767.93054 793.10339 4294966527
-22.708258 769.26593 794.22937 4285618261
-20.088074 769.26593 794.22937 4285552984
-16.559633 770.78809 792.89673 4285749836
-13.944954 770.78809 792.89673 4286077529
50.550457 770.78809 792.89673 4294967295
52.293579 770.78809 792.89673 4294967295
55.023853 769.26593 794.22937 4294966783
-19.174313 772.12073 794.02039 4285618777
-16.559633 772.12073 794.02039 4285815376
-13.944954 772.12073 794.02039 4286143578
54.908257 772.12073 794.02039 4294965759
57.522934 772.12073 794.02039 4294966271
-15.638532 775.72803 793.13794 4285946963
-12.742508 775.28522 792.76459 4286340953
50.390827 774.3996 792.01782 4294967295
52.707642 775.28522 792.76459 4294966271
-15.638532 777.05646 794.25806 4285947215
-13.012844 778.19171 793.25323 4286210386
52.829357 779.32697 792.24841 4294966271
55.603668 777.05646 794.25806 4294966527
57.341286 777.05646 794.25806 4294967039
-12.990826 781.31329 793.92322 4286144593
-10.370643 782.16205 792.02271 4286341219
53.081345 781.59619 793.28973 4294966271
55.427525 780.65118 793.36499 4294966270
58.766972 782.16205 792.02271 4294966783
-12.963303 784.14417 793.69403 4286144593
52.71743 784.14417 793.69403 4294965759
-12.922018 787.72131 792.78613 4286144339
52.262386 787.94086 792.97119 4294965759
-15.506422 789.69714 794.45203 4285880920
-12.909174 790.44696 793.77625 4286012506
52.549541 789.69714 794.45203 4294966783
-13.754128 792.51123 794.20874 4285815127
-11.99633 794.75647 792.17773 4286209884
51.57798 792.51123 794.20874 4294966783
-15.423853 797.37683 794.38721 4285619280
-13.710092 797.37683 794.38721 4286011736
-11.99633 796.06665 793.28247 4286340960
54.840366 797.37683 794.38721 4294965759
-13.680734 800.17542 794.13086 4285748566
53.012844 798.86798 793.02856 4294965759
54.722935 800.17542 794.13086 4294965759
-11.93211 803.05957 792.63867 4286143579
52.842201 803.05957 792.63867 4294966271
-13.636697 805.01434 794.28687 4286011736
-11.906422 806.49719 792.92114 4286340958
52.728439 806.49719 792.92114 4294965246
54.546787 805.01434 794.28687 4294965503
-13.60734 807.79755 794.01758 4286012756
54.429359 807.79755 794.01758 4294965246
-13.563303 812.60986 794.151 4285881170
-11.86789 811.31372 793.05811 4286210134
52.557796 811.31372 793.05811 4294966271
54.253212 812.60986 794.151 4294898942
-11.278287 814.51538 793.14166 4286275414
50.188381 814.51538 793.14166 4294966015
52.444038 814.73096 793.32343 4294965759
-10.979816 817.77258 793.92603 4286407255
40.469727 818.87415 792.89282 4294964733
42.999084 818.87415 792.89282 4294898940
46.371559 818.87415 792.89282 4294964733
49.744034 818.87415 792.89282 4294964990
52.444038 816.67096 794.95923 4294965247
54.13578 816.67096 794.95923 4294964733
-10.96055 820.16327 793.97974 4286275158
-7.5715594 821.62927 792.59973 4286868065
43.842201 820.16327 793.97974 4294964222
46.320183 820.89624 793.28973 4294964734
49.63578 821.62927 792.59973 4294965503
53.116516 820.16327 793.97974 4294966015
-7.571559 823.55884 794.22662 4286933602
47.111927 823.55884 794.22662 4294767100
49.63578 823.55878 794.22668 4294833404
-21.137615 757.79095 795.01831 4285618775
-19.376146 757.79095 795.01831 4285618775
-22.708258 770.60138 795.35547 4285618261
-20.961468 770.60138 795.35547 4285618777
-22.708258 771.93683 796.48145 4285684812
-20.045872 773.45331 795.14404 4285619280
-17.431192 773.45331 795.14404 4285815376
55.779816 773.45331 795.14404 4294966271
57.522934 773.45331 795.14404 4294967039
-24.403669 775.45227 796.82953 4285553235
-22.660551 775.45227 796.82953 4285552978
-20.045872 775.45227 796.82953 4285487182
-17.431192 775.45227 796.82953 4285684043
-19.982569 779.71332 796.49817 4285421902
-16.217737 779.27051 796.12482 4285815628
-13.900917 778.38489 795.37817 4286013008
55.603668 779.71332 796.49817 4294966527
57.341286 779.04907 795.93817 4294966271
-19.982569 781.04175 797.61829 4285618254
-17.376146 781.04175 797.61829 4285749583
58.210091 781.04175 797.61829 4294965503
-20.78532 785.948 797.83105 4285551955
-16.455046 783.96167 796.15631 4285815377
55.427525 783.29956 795.59802 4294965503
57.737003 785.50659 797.45892 4294964990
-19.012844 787.44769 796.47949 4285617748
-16.420183 786.78699 795.92236 4285815123
55.310093 787.44769 796.47949 4294965247
-19.813763 791.01434 795.56274 4285355859
-16.367889 791.01434 795.56274 4285618767
53.411011 791.01434 795.56274 4294966527
-22.398165 792.33154 796.67334 4285224273
-19.526606 792.77057 797.04352 4285224273
-16.351376 793.07855 795.99518 4285619280
-13.754128 793.82556 795.31702 4285880409
53.297249 793.82556 795.31702 4294965759
55.133945 792.33154 796.67334 4294965759
-17.192661 795.79718 796.97943 4285487182
-15.423853 799.3421 796.04425 4285749326
-16.264221 802.04877 797.01843 4285618254
-13.680734 801.48279 795.23315 4285748820
55.638531 801.39508 796.46722 4294966015
-15.390825 804.09753 797.43787 4285619280
56.433029 804.09753 797.43787 4294966271
-15.341285 808.27234 797.03387 4285487442
-13.60734 809.0979 795.11401 4285881170
55.34037 808.35931 795.79926 4294966015
57.955963 808.92389 797.58325 4294966015
-15.308257 811.69861 797.30688 4285749333
56.130276 810.39825 796.21045 4294965759
57.831192 811.69861 797.30688 4294967039
-13.563303 814.55408 795.79034 4285946193
55.383484 814.33807 795.60822 4294966015
-15.258716 816.49835 797.42969 4285617748
-13.533945 817.96436 796.04968 4285880656
55.827522 817.96436 796.04968 4294966783
57.519264 817.96436 796.04968 4294967295
-13.533945 819.25769 797.14026 4286011986
-10.96055 821.45245 795.06677 4286275414
45.528439 821.45245 795.06677 4294897916
53.116516 821.45245 795.06677 4294965247
55.827522 819.25769 797.14026 4294966783
57.519264 819.25769 797.14026 4294967039
-11.24159 823.17133 796.51605 4286340436
53.116516 823.38611 796.6972 4294899197
55.64587 823.38611 796.6972 4294966271
-10.095413 825.48828 795.85352 4285879625
-8.4128437 825.48828 795.85352 4286734934
49.63578 826.13147 796.39575 4294569718
53.000916 826.77466 796.93811 4294899196
55.524769 826.77466 796.93811 4294965759
-23.089909 748.94202 798.02124 4285684311
-21.313761 750.29993 799.16614 4285422165
-24.403669 778.11755 799.07684 4285355602
-22.660551 778.11755 799.07684 4285486932
59.266056 777.45123 798.51501 4294965246
-24.403669 780.11646 800.76221 4285551955
-22.660551 780.11646 800.76221 4285551955
-19.982569 782.37012 798.7384 4285618254
59.078899 782.37012 798.7384 4294965247
61.009174 780.11646 800.76221 4294966271
-24.326605 783.69855 799.85852 4285486162
-22.588991 783.69855 799.85852 4285551955
60.816513 784.36279 800.41858 4294966015
-24.249542 787.93433 799.50592 4285224017
-22.517431 787.27222 798.94763 4285420882
58.314373 787.71362 799.31982 4294833404
-24.198166 791.41193 799.82202 4285224273
-22.469725 791.41193 799.82202 4285224273
-20.741285 791.41193 799.82202 4285224273
57.038532 790.75122 799.26489 4294965247
-24.198166 792.73328 800.93616 4285224273
-22.469725 792.73328 800.93616 4285224273
-19.813763 794.96594 798.89453 4285224273
56.85688 794.96594 798.89453 4294965503
-19.813763 796.28314 800.00525 4285355339
-17.192661 797.7688 798.64185 4285683277
56.85688 796.28314 800.00525 4294965759
-20.631193 800.39758 800.85828 4285552457
-17.137615 802.61755 798.80603 4285421902
59.124771 802.61755 798.80603 4294965502
-17.100918 806.05859 799.09143 4285355856
59.283184 805.84064 798.90771 4294966015
-19.666054 808.01965 800.745 4285354826
-20.455046 812.83337 800.87964 4285617480
-16.466667 811.58545 798.95538 4285552207
59.050766 811.58545 798.95538 4294967039
61.365139 811.53021 799.78088 4294967039
-17.009174 814.94958 800.04797 4285486415
59.532108 814.94958 800.04797 4294967039
61.233028 814.94958 800.04797 4294966783
-15.258716 817.79449 798.52258 4285815376
-16.089909 820.46814 799.46899 4285552205
-13.533945 821.19769 798.776 4286010956
57.519264 821.19769 798.776 4294966271
-13.533945 823.13776 800.41187 4286075469
-11.80367 825.31989 798.32764 4286536020
50.587154 826.60901 799.41467 4294438389
53.116512 827.25354 799.95813 4294833147
55.64587 826.60901 799.41467 4294965759
57.332111 825.31989 798.32764 4294965759
59.078899 787.68384 803.21875 4294767867
60.816513 786.35541 802.09863 4294965759
58.891743 791.24487 802.29724 4294898687
-25.115597 792.56909 803.41382 4285420879
-22.469725 794.05469 802.05029 4285289553
58.766972 794.05469 802.05029 4294833147
60.623852 792.56909 803.41382 4294965247
-22.398165 797.60034 801.11584 4285289803
-19.813763 797.60034 801.11584 4285420871
58.579815 797.60034 801.11584 4294964990
60.495415 795.3761 803.16455 4294965247
-22.398165 798.91754 802.22644 4285486925
-18.952293 798.91754 802.22644 4285552457
-22.350458 802.36914 802.52069 4285421132
-19.485016 802.15009 802.33594 4285224267
-22.278898 806.5481 802.12024 4285421132
-20.565138 805.23792 801.0155 4285224523
-22.278898 807.85828 803.22485 4285486664
-19.666054 809.32703 801.84729 4285420871
-18.811008 810.6344 802.94971 4285551687
-25.568808 814.13654 801.97852 4285552461
-22.727829 814.57086 802.34473 4285683273
-19.602753 814.13654 801.97852 4285617480
-25.513762 816.90009 801.69263 4285551955
-23.812843 816.90009 801.69263 4285683273
-19.560551 816.90009 801.69263 4285420871
59.532108 816.90009 801.69263 4294966783
-16.133945 820.59192 802.84338 4285617480
59.532108 819.50085 803.8855 4294965759
-15.258716 823.6272 803.44061 4286868828
-13.563303 822.97913 802.89417 4287261791
57.519264 824.43109 801.50232 4294965759
-13.533945 825.72443 802.5929 4286869082
55.827522 825.72443 802.5929 4294966015
53.959633 829.18732 801.5885 4294635511
55.64587 829.83191 802.13202 4294833147
61.009174 785.44702 805.25684 4294966271
-27.801834 791.66907 806.57898 4285486925
-26.06422 791.66907 806.57898 4285421132
60.816513 789.01227 804.33887 4294966015
-24.249542 793.89331 804.5304 4285289803
-24.809786 796.15228 805.56299 4285289803
-24.955963 805.57794 806.5343 4285420872
-22.278898 809.16846 804.32959 4285683273
-25.568808 817.39453 804.72546 4285486668
-23.011929 817.39453 804.72546 4285486664
-19.602753 817.39453 804.72546 4285224002
59.660549 816.74292 804.17603 4294966271
-23.011927 819.34924 806.37366 4285551687
-19.602753 819.34924 806.37366 4285946449
-17.009174 820.80121 804.98193 4286407764
59.532108 820.80121 804.98193 4294965759
-17.009174 822.10156 806.07837 4286540119
57.831192 822.10156 806.07837 4294966015
-16.106422 825.57141 805.07983 4283711534
-27.801834 793.66174 808.25916 4285355339
-26.06422 794.32593 808.81921 4285289803
-25.156881 796.76013 808.90967 4285289803
-25.115597 799.19012 808.99646 4285355339
-25.706423 815.71942 809.85315 4285355077
59.85321 818.4787 809.56372 4294966271
-22.159634 820.6524 807.47253 4285617480
-19.602753 820.6524 807.47253 4286209635
-16.158716 824.70227 808.27124 4283052584
-23.941284 819.78607 810.66614 4285815127
58.998165 820.43976 811.21729 4294899452
58.14312 822.40082 812.87085 4294701304
61.695412 819.64996 813.16736 4294966527
60.302753 818.67554 818.88586 4294965759
61.893578 820.11346 817.4823 4294965246
58.766972 816.51862 820.99133 4294635511
62.025688 819.99274 819.99646 4294701304
58.891743 817.06702 824.06982 4294372086
60.559631 817.78455 823.36676 4294898430
57.341286 814.25226 825.62061 4294438389
60.816513 816.90906 827.86072 4294832893
-24.249542 821.03967 827.41949 4283974712
-22.517431 820.37756 826.86121 4283579700
-20.207951 820.81903 827.2334 4283842360
57.644035 811.99988 830.2616 4294372594
59.266056 814.76483 829.97681 4294372342
-22.588991 819.56592 830.10095 4284041014
-19.113762 819.56592 830.10095 4284106046
56.190826 808.41907 833.78247 4294372594
57.825687 811.19104 833.50366 4294372596
59.390827 814.67078 832.51355 4294438389
-19.174313 818.7627 833.34778 4284172601
-16.56789 817.0741 832.578 4283843642
59.390827 816.00616 833.63953 4294306803
-24.326605 820.89435 831.22107 4284632372
-22.588991 820.89435 831.22107 4284303407
-20.851376 820.89435 831.22107 4284172601
-24.326605 822.88696 832.90112 4284697670
-22.588991 822.88696 832.90112 4284631876
55.65963 802.09583 836.29913 4294569718
58.310093 801.42041 835.72961 4294635511
56.366974 804.92395 834.75964 4294438389
56.190826 809.76154 834.91443 4294438389
56.190826 811.104 836.04639 4294372596
57.946789 811.104 836.04639 4294438389
59.57798 815.20996 836.89233 4294569718
-19.21468 818.67706 835.8916 4284434757
-16.594496 818.00934 835.32861 4284238143
-20.917431 820.76166 835.03326 4284500807
-24.326605 824.87964 834.5813 4285420369
-22.588991 824.87964 834.5813 4285420369
-20.917431 822.76062 836.71863 4285093707
-22.588991 826.20801 835.70142 4285224273
51.933945 785.22845 839.0813 4294569718
-14.297248 789.41302 839.99353 4283119129
53.614677 789.41302 839.99353 4294635511
55.401836 789.41302 839.99353 4294701304
-14.253211 792.94464 839.04724 4282921757
55.231194 792.94464 839.04724 4294701304
57.012844 792.94464 839.04724 4294635511
-15.985321 797.82568 839.23865 4283380781
55.948624 796.46777 838.09375 4294569718
58.612843 796.46777 838.09375 4294635511
54.946789 799.26355 837.83508 4294569718
53.009174 805.47302 839.14661 4294306803
54.776146 804.12219 838.00769 4294569718
54.605503 808.29065 837.59827 4294372596
55.486237 810.31061 839.30151 4294306803
57.946789 812.44641 837.17822 4294372596
56.190826 814.46008 838.87616 4294241009
58.824768 814.46008 838.87616 4294569717
61.458717 814.46008 838.87616 4294635255
-15.770642 816.54962 838.02185 4284369477
57.825687 816.54962 838.02185 4294438389
-19.21468 820.68018 837.58057 4284764489
-16.594496 820.68018 837.58057 4284698696
-20.088074 822.68335 839.26965 4285224523
-17.46789 822.68335 839.26965 4285290055
46.990826 774.54956 841.84937 4294635002
48.798164 774.54956 841.84937 4294897918
46.847706 779.49512 842.09521 4294372596
49.550461 778.11761 840.93372 4294569719
49.399082 781.67725 840.01111 4294503925
46.704586 784.42389 842.32703 4294306549
49.399082 783.05054 841.16907 4294438132
49.247707 787.2821 840.81293 4294240755
52.530884 787.05396 840.62054 4294635256
-12.510092 790.7793 841.14563 4282987550
-10.744954 789.33575 842.54443 4282855963
-8.9541283 789.33575 842.54443 4282855963
49.196331 790.0575 841.84503 4294174706
52.7211 790.7793 841.14563 4294635257
-13.381651 793.2262 841.24664 4283447333
50.040367 792.14563 842.29761 4294174962
52.638535 793.2262 841.24664 4294635512
-13.065442 796.12286 841.72705 4283317281
49.886238 797.03088 842.49268 4294503414
52.261776 796.12286 841.72705 4294766842
-15.985321 799.86249 840.95605 4283448371
-14.209174 799.86249 840.95605 4283448878
52.396332 799.86249 840.95605 4294635512
-13.306421 802.61401 841.96808 4283710516
49.732109 801.89929 842.67346 4294306803
52.288074 802.65125 840.69147 4294504182
-14.179816 804.68384 842.40527 4283645493
52.205505 805.75391 841.34546 4294635768
-13.252294 808.85022 841.9942 4284106555
53.009174 808.85022 841.9942 4294635513
-14.091743 811.65723 840.43689 4284172601
54.605503 811.65723 840.43689 4294372342
-13.21101 813.67725 842.14014 4284501566
52.844036 814.35059 842.70789 4294701304
54.605503 813.67725 842.14014 4294635511
-14.047707 816.47375 840.57397 4284633154
56.190826 816.47375 840.57397 4294569205
58.824772 817.14496 841.14001 4294569463
61.458717 817.14502 841.13995 4294503414
-15.770642 821.2384 841.97528 4285421386
-13.4526 819.18213 841.9856 4285158471
57.946789 819.15869 842.83789 4294965247
-20.088074 824.0188 840.39563 4285421132
-17.46789 824.0188 840.39563 4285618254
-19.21468 825.35425 841.52161 4285685074
38.377983 759.53174 843.57507 4294964733
40.205505 760.92889 844.75317 4294964990
41.055962 763.42761 844.89795 4294833404
40.995415 765.92218 845.03931 4294833404
43.728439 765.92218 845.03931 4294964733
45.550457 765.92218 845.03931 4294964990
46.367889 768.77832 844.83142 4294766843
43.508255 773.74493 845.09509 4294438902
45.321102 773.052 844.5108 4294438391
46.990826 775.93127 843.0144 4294372342
-10.844037 778.6947 845.34448 4288377190
43.376148 778.00385 844.76196 4294569974
45.183487 778.00385 844.76196 4294635510
-12.612844 782.25012 844.41821 4286671960
-9.9100914 782.25012 844.41821 4287130975
45.946789 781.5614 843.83746 4294438133
-12.574312 785.79718 843.48486 4282922006
-10.777982 785.79718 843.48486 4282855963
-8.9816513 785.79718 843.48486 4282526999
45.875229 784.7124 844.53229 4294503412
-7.1853213 788.54382 845.80078 4283317544
46.704586 787.85718 845.2218 4294306803
-10.744954 790.7049 843.69885 4283382567
-8.9541283 790.7049 843.69885 4283448616
48.352295 790.7049 843.69885 4294240754
-10.722936 794.19507 844.0257 4283383086
-8.9357796 794.19507 844.0257 4283448878
46.561466 792.07397 844.85327 4294241007
48.848927 793.96735 843.83368 4294241010
-8.042202 796.24451 845.75366 4283252531
46.466057 796.24451 845.75366 4294240754
48.253212 796.24451 845.75366 4294240754
-12.47156 798.39294 843.64111 4283448627
-10.689908 799.07397 844.21539 4283514164
-8.9082565 799.75507 844.78967 4283645493
48.995415 799.07397 844.21539 4294240755
-12.433027 803.2572 843.81836 4283908665
-10.689908 801.11713 845.93811 4283842618
-8.0174313 801.11713 845.93811 4283908411
48.91835 802.18713 844.87823 4294503925
-12.407339 806.03894 843.54785 4284040766
-10.65688 804.61505 844.96338 4284040766
47.955963 804.61505 844.96338 4294306803
49.629356 806.03894 843.54785 4294108654
51.401836 806.03894 843.54785 4294634998
-10.634862 808.74908 845.83301 4284369979
49.629356 808.07153 845.26172 4294306801
51.401836 808.07153 845.26172 4294569972
-12.368808 810.87646 843.70276 4284435772
-10.601835 812.22736 844.84167 4284633156
52.125687 811.55188 844.27222 4294635511
-12.330276 815.6972 843.84338 4284961351
-10.601835 813.57825 845.98071 4284896071
49.475231 813.57825 845.98071 4294306290
52.043121 814.6377 844.91205 4294503669
55.486237 815.6972 843.84338 4294635511
55.486237 817.04388 844.97876 4294767354
-16.681652 821.84357 845.10168 4285749835
-13.169725 821.1723 844.53577 4285552970
-16.64679 824.58746 844.79919 4286012506
-14.018349 824.58746 844.79919 4285816660
-17.522936 825.92712 845.92871 4286078299
34.93211 756.51416 848.87891 4294765814
37.632111 757.6178 847.84747 4294701818
38.49358 760.12286 847.99756 4294897916
0 765.12036 848.28723 4289038216
41.055962 766.21777 847.25049 4294832890
43.728439 767.31512 846.21375 4294701307
-4.5495415 769.43823 846.69586 4287657322
-1.8220184 768.70807 847.38818 4288710519
0 769.40454 847.97546 4289300868
40.995415 769.40454 847.97546 4294767354
43.640366 770.16846 846.00354 4294635259
-7.2733946 772.25366 847.76172 4287129434
-4.5458717 772.25366 847.76172 4288182374
-1.8183486 772.25366 847.76172 4289169520
0 772.94873 848.34778 4289694847
41.2159 772.48535 847.95703 4294833147
-12.689908 776.51678 847.43225 4287327584
-9.6685019 775.59283 846.65314 4287391068
41.695412 776.51678 847.43225 4294569718
-7.2513762 777.90271 848.60083 4287591526
-1.812844 777.90271 848.60083 4288907130
40.78899 777.90271 848.60083 4294438389
-7.2293577 781.45819 847.67456 4282328586
-3.6146789 782.8399 848.8396 4282525726
-1.8073394 782.8399 848.8396 4282525726
0 782.8399 848.8396 4282523678
40.966358 782.37933 848.45123 4294438132
43.376148 780.76733 847.09204 4294503669
-7.2073393 785.00519 846.74121 4282723106
-5.4055047 785.00519 846.74121 4282591520
43.244038 785.00519 846.74121 4294569205
45.045872 785.00519 846.74121 4294569205
-4.5045872 786.38269 847.90271 4283251751
-1.8018348 786.38269 847.90271 4283251751
0 786.38269 847.90271 4283119147
43.244038 786.38269 847.90271 4294372596
45.045872 786.38269 847.90271 4294438389
-7.1853213 789.91711 846.95874 4283055664
-4.4908257 790.60376 847.53772 4282924332
-1.7963303 791.29041 848.1167 4283319093
44.309479 790.8327 847.73071 4294372596
-7.1633029 793.44312 846.00769 4283056434
-4.4770641 794.81219 847.16211 4283384116
44.770641 794.81219 847.16211 4294503412
46.561466 793.44312 846.00769 4294306803
-7.1486239 797.61084 846.90576 4283646007
-4.4715595 796.89606 847.61108 4283712057
-1.7908257 796.18127 848.31641 4283844155
44.770641 796.18127 848.31641 4294568692
46.466057 797.61084 846.90576 4294109167
-4.4678898 798.97711 848.05774 4283974460
44.678898 798.97711 848.05774 4294306801
46.466057 798.97711 848.05774 4294372596
-7.7204895 802.93329 847.46942 4284040514
-5.344954 803.16028 847.66083 4283974466
46.322937 803.16028 847.66083 4294306803
-10.65688 805.97296 846.10828 4284172353
-8.8807335 805.97296 846.10828 4284172353
47.955963 805.97296 846.10828 4294372596
-7.6966362 807.78345 847.63477 4284567621
47.06789 808.00977 847.82562 4294241010
-8.8623857 810.78168 847.54688 4284764742
47.85688 810.78168 847.54688 4294306546
49.629356 810.10413 846.97559 4294306803
-10.601835 814.92908 847.11975 4285289803
49.475231 814.92908 847.11975 4294306803
52.125687 814.92908 847.11975 4294503925
-10.568808 818.39056 846.11426 4285421902
-8.8348627 816.27997 848.25879 4285356109
49.475231 816.27997 848.25879 4294372596
52.125687 816.27997 848.25879 4294569718
55.486237 818.39056 846.11426 4294635511
-10.568808 819.73718 847.24976 4285618767
-8.8073397 821.08386 848.38525 4285619280
52.844036 820.41052 847.8175 4294503925
54.605503 819.73718 847.24976 4294569718
-15.80367 824.52844 847.3656 4286012506
-12.877065 824.08099 846.98828 4286013017
-10.53578 823.18604 846.23364 4285750867
-15.80367 825.87091 848.49744 4286538330
-13.169725 825.87091 848.49744 4286341207
29.504587 752.89697 849.75317 4293909728
31.348623 752.89697 849.75317 4294896623
29.504587 754.30676 850.94177 4293712603
31.348623 754.30676 850.94177 4294962414
33.192661 754.30676 850.94177 4294765814
36.770641 757.91974 850.06396 4294437365
34.012844 759.32532 851.24915 4294700021
37.632111 760.4248 850.21417 4294634998
1.8330275 764.32697 851.54236 4289893264
34.827522 764.32697 851.54236 4294765816
37.882568 763.85986 851.1485 4294569718
1.827523 767.91467 850.64331 4290090125
34.722935 767.91467 850.64331 4294700023
38.377983 767.91467 850.64331 4294569718
40.205505 766.51752 849.46533 4294701304
1.827523 769.31183 851.82141 4290484620
3.655046 769.31183 851.82141 4290747539
32.895412 769.31183 851.82141 4294436852
34.722935 769.31183 851.82141 4294700023
36.550457 769.31183 851.82141 4294306803
1.8220184 772.8869 850.91174 4291011477
38.262386 772.19043 850.32446 4294438388
-7.2733946 774.33887 849.5199 4289035890
-4.5458717 775.03394 850.10608 4288840052
-1.8183486 774.33887 849.5199 4290023296
0 775.03394 850.10602 4289696899
38.185322 775.729 850.69214 4294438641
40.00367 774.33887 849.5199 4294701304
-4.5321102 779.2887 849.76941 4282525449
-1.812844 779.2887 849.76941 4282985485
0 779.2887 849.76941 4283379736
38.185322 777.11914 851.86426 4294438387
39.882568 779.2887 849.76941 4294306290
38.069725 780.67462 850.93799 4294569718
1.8073394 785.60333 851.16968 4283382065
40.665138 784.91248 850.58716 4294372596
-1.8018348 787.76025 849.06421 4283121959
0 787.76025 849.06421 4283448114
43.244038 787.76025 849.06421 4294372596
0.90091741 789.82654 850.80646 4283580217
40.841591 790.05615 851 4294306545
-1.7963303 792.6637 849.27466 4283711800
0 793.35034 849.85358 4283712316
41.315598 794.03705 850.4325 4294503410
43.111927 793.35034 849.85358 4294503156
-1.7908257 797.55042 849.47083 4284040766
0.89816517 796.48035 850.53064 4284041268
40.417431 795.41034 851.59045 4294503923
42.979816 797.55042 849.47083 4294569716
-3.574312 800.34338 849.20984 4284040766
-1.787156 800.34338 849.20984 4284172353
0 798.91949 850.62524 4284238650
40.592052 799.83221 851.39484 4294569462
43.78532 800.34338 849.20984 4294504182
-3.574312 801.70972 850.36182 4284040262
-1.787156 802.39282 850.93781 4284369994
0 802.39282 850.93781 4284566847
40.21101 803.07599 851.51379 4294372596
43.78532 801.70972 850.36182 4294504182
-4.4541283 805.88446 849.95776 4284567878
-1.7816514 806.56549 850.53198 4284830530
40.977982 806.56549 850.53198 4294438389
43.650459 805.88446 849.95776 4294306803
46.322937 805.20343 849.38354 4294240754
-4.4541283 807.92761 851.68054 4284961351
-1.7816514 807.92761 851.68054 4285158730
0 807.92761 851.68054 4285224261
40.977982 807.92761 851.68054 4294306803
42.759632 807.92761 851.68054 4294108654
-7.6905198 811.42181 849.83057 4285092681
-4.7363915 812.30975 851.45123 4285355596
43.959633 811.74396 850.97424 4294174446
46.599083 811.7569 850.33118 4294306033
-7.0899081 814.84692 850.97449 4285421645
