# .PCD v0.7 - Point Cloud Data file format
VERSION 0.7
FIELDS x y z rgb
SIZE 4 4 4 4
TYPE F F F U
COUNT 1 1 1 1
WIDTH 1162
HEIGHT 1
VIEWPOINT 0 0 0 1 0 0 0
POINTS 1162
DATA ascii
31.24159 784.05878 1231.8121 4293451248
32.700916 789.25812 1230.9639 4293451503
28.337614 770.67786 1233.6099 4293517296
30.699083 770.67786 1233.6099 4293385710
25.976147 772.48322 1235.1322 4293451505
28.227524 778.8822 1233.9874 4293386482
30.579817 778.8822 1233.9874 4293517811
28.117432 787.04431 1234.3295 4293451757
31.24159 788.23859 1235.3364 4293517553
26.077065 766.9624 1237.0173 4293583345
28.447706 766.05621 1236.2532 4293583345
25.976147 775.19128 1237.4155 4293451506
25.875229 784.27722 1238.5364 4293451505
31.632111 790.62701 1237.3502 4293451506
31.632111 792.41833 1238.8607 4293254384
35.14679 792.41833 1238.8607 4293385458
23.798164 765.05933 1241.9529 4293583345
23.706423 769.68097 1239.3094 4293583091
23.706423 771.49335 1240.8376 4293583093
23.614679 779.70465 1241.2211 4293188334
25.976147 778.802 1240.46 4293319920
25.875229 786.97473 1240.8108 4293451761
28.227524 786.97473 1240.8108 4293517296
31.632111 794.20966 1240.3711 4293188592
25.774311 796.00098 1241.8815 4293188847
28.117432 796.00098 1241.8815 4293188336
31.632111 796.00098 1241.8815 4293188334
30.365137 799.97247 1239.9979 4293451251
30.365137 801.75818 1241.5037 4293056747
23.871559 760.98694 1243.7512 4293649139
21.418348 766.87872 1243.4869 4293846263
23.706423 773.30573 1242.3658 4293583091
22.521101 775.1181 1243.8939 4293517296
23.614679 781.51001 1242.7433 4293583091
23.614679 783.31543 1244.2656 4293648885
23.522936 791.47058 1244.6017 4293518063
25.875229 790.57141 1243.8435 4293386994
28.227524 790.57141 1243.8435 4293254896
23.431192 797.79236 1243.3918 4293254894
25.774311 797.79236 1243.3918 4293057258
28.117432 797.79236 1243.3918 4293188336
23.431192 799.58368 1244.9023 4293057260
25.774311 799.58368 1244.9023 4293057260
28.117432 799.58368 1244.9023 4293056747
25.693579 803.54388 1243.0093 4293122794
28.029358 803.54388 1243.0093 4293056747
30.365137 803.54388 1243.0093 4292990954
25.693579 805.32959 1244.515 4292990954
28.029358 805.32959 1244.515 4292924907
30.365137 805.32959 1244.515 4292924907
30.245872 811.59106 1243.2543 4292925677
19.097248 764.63696 1246.8289 4293583091
21.484404 762.81195 1245.29 4293714678
21.418348 769.60779 1245.7881 4293649138
21.335779 776.93048 1245.4221 4293451503
21.335779 778.74286 1246.9502 4293583091
23.614679 785.12079 1245.7878 4293517809
23.614679 786.92615 1247.3101 4292992751
23.522936 793.26898 1246.1179 4293254640
18.744955 803.16638 1247.9231 4292530149
22.259632 802.27075 1247.168 4293122540
22.579203 807.71063 1246.5225 4292925420
25.693579 808.00818 1246.7734 4292925674
28.029358 808.00818 1246.7734 4292925419
30.365137 807.11536 1246.0206 4293122540
25.592661 816.92719 1247.7535 4293057262
27.919266 816.92719 1247.7535 4292925161
24.055046 753.51538 1250.5317 4293583091
19.170643 760.00269 1249.4614 4293583091
19.097248 766.46198 1248.3677 4293714930
19.097248 768.28693 1249.9064 4293386480
19.038532 772.33691 1248.0891 4293517550
19.038532 774.15625 1249.6232 4293385710
21.335779 780.55524 1248.4784 4293648885
21.170643 796.86566 1249.1506 4293188336
18.818348 798.664 1250.667 4292925161
16.401834 804.9577 1249.4335 4292596196
18.744955 805.85339 1250.1887 4292530408
21.088074 806.74902 1250.944 4292859884
23.357798 811.57965 1249.7849 4292728553
25.693579 811.57965 1249.7849 4292860139
16.838531 755.35437 1252.0823 4292990693
19.244038 755.35437 1252.0823 4293187563
21.649542 755.35437 1252.0823 4293713907
16.838531 757.19342 1253.6329 4293648364
16.774311 761.83472 1251.0061 4293714159
16.774311 763.66675 1252.5509 4293846261
19.038532 775.97565 1251.1572 4293188334
21.335779 785.08618 1252.2988 4293320689
21.25321 792.34222 1251.8767 4293583091
16.466055 800.46234 1252.1832 4292727783
16.401834 808.54034 1252.4543 4292728548
18.744955 808.54034 1252.4543 4292597734
21.088074 808.54034 1252.4543 4292794856
16.401834 810.33167 1253.9647 4292794341
18.744955 810.33167 1253.9647 4292597480
21.088074 810.33167 1253.9647 4292597480
23.357798 814.25824 1252.0433 4292794091
25.693579 816.04395 1253.5491 4292727785
28.029358 816.04395 1253.5491 4292727785
14.433027 759.03247 1255.1836 4293319402
16.774311 766.41473 1254.8679 4293714932
19.097248 775.58698 1256.0615 4293188334
21.418348 779.61444 1254.2253 4293517811
21.335779 787.80475 1254.5909 4293517298
14.113762 805.85742 1256.7322 4292399583
16.466055 804.05908 1255.2159 4292400098
16.401834 812.12305 1255.4751 4292926183
18.744955 812.12305 1255.4751 4292728298
21.088074 812.12305 1255.4751 4292794091
22.259632 813.91437 1256.9856 4292596968
13.280734 754.38422 1257.8043 4293187561
12.073395 756.23022 1259.361 4293384682
-21.649542 764.54956 1259.8354 4288183175
-16.838531 764.54956 1259.8354 4291077274
14.433027 764.54956 1259.8354 4293451503
16.774311 770.07874 1257.9574 4293188333
19.097248 778.32446 1258.3698 4293123311
19.038532 785.07263 1258.8275 4293122540
18.965137 791.42944 1257.6473 4292727785
16.594496 793.24188 1259.1754 4293254127
14.168807 799.56366 1257.9657 4292596196
-9.4458714 801.36902 1259.4879 4287133020
14.168807 801.36902 1259.4879 4292005340
-7.056881 809.4541 1259.7649 4289369507
14.113762 808.55493 1259.0067 4292728548
25.774311 815.70569 1258.496 4292661991
28.117432 815.70569 1258.496 4292596709
13.280734 758.07629 1260.9175 4293714672
-24.14679 759.92236 1262.474 4284631355
-21.732111 759.92236 1262.474 4286934110
-19.31743 759.92236 1262.474 4288313196
-16.902752 759.92236 1262.474 4289958278
-13.280734 759.92236 1262.474 4291207072
-9.6587152 759.92236 1262.474 4290288031
13.280734 759.92236 1262.474 4293583345
-24.055046 766.38855 1261.3861 4285880906
-21.649542 766.38855 1261.3861 4289631107
-16.838531 766.38855 1261.3861 4291080114
-13.230275 766.38855 1261.3861 4291212987
14.433027 766.38855 1261.3861 4293122540
-24.055046 768.2276 1262.9366 4285158744
-21.649542 768.2276 1262.9366 4289303703
-19.244038 768.2276 1262.9366 4289960865
-16.838531 768.2276 1262.9366 4291276725
-13.230275 768.2276 1262.9366 4291474118
-9.6220188 768.2276 1262.9366 4289174443
-7.2165136 768.2276 1262.9366 4285358449
14.433027 768.2276 1262.9366 4293254127
19.097248 781.06195 1260.678 4293254640
19.038532 786.89203 1260.3616 4293188334
-10.667891 796.86664 1262.2317 4285949043
-7.1119266 796.86664 1262.2317 4288976020
0 796.86664 1262.2317 4294369523
11.853211 796.86664 1262.2317 4292728550
14.223853 795.0542 1260.7036 4292727783
-10.626606 803.17438 1261.0101 4286541437
-7.0844035 803.17438 1261.0101 4289173148
11.80734 803.17438 1261.0101 4292267747
-21.25321 804.97974 1262.5323 4288908681
-18.891743 804.97974 1262.5323 4288975285
-16.530275 804.97974 1262.5323 4287395997
-14.168807 804.97974 1262.5323 4285289823
-10.626606 804.97974 1262.5323 4287592574
-7.0844035 804.97974 1262.5323 4289828763
-4.7229357 804.97974 1262.5323 4289435304
-2.3614678 804.97974 1262.5323 4291409095
0 804.97974 1262.5323 4291280339
10.626606 804.97974 1262.5323 4292530149
-7.056881 811.25244 1261.2811 4289303453
14.113762 811.25244 1261.2811 4292794856
16.466055 811.25244 1261.2811 4292860649
18.818348 811.25244 1261.2811 4292597480
16.466055 813.05078 1262.7975 4293056999
18.818348 813.05078 1262.7975 4292662505
22.34679 813.05078 1262.7975 4292596455
-24.238533 755.28107 1265.1007 4284501063
-21.814678 755.28107 1265.1007 4284566857
-19.390825 755.28107 1265.1007 4286471744
-16.966972 754.35449 1264.3196 4286867790
-13.331193 754.35449 1264.3195 4288181616
-9.6954126 754.35449 1264.3196 4287658347
-7.2715597 755.28107 1265.1007 4287723624
-4.8477063 755.28107 1265.1007 4287923610
0 755.28107 1265.1007 4289897904
9.6954126 754.35449 1264.3196 4293450728
-31.390825 761.76837 1264.0305 4284436815
-28.976147 761.76837 1264.0305 4283911506
-25.35413 761.76837 1264.0305 4284106576
-19.31743 761.76837 1264.0305 4289695621
-13.280734 761.76837 1264.0305 4292064165
-9.6587152 761.76837 1264.0305 4290224555
-7.2440367 761.76837 1264.0305 4286737525
12.073395 761.76837 1264.0305 4293451503
-31.390825 763.61444 1265.587 4285755244
-28.976147 763.61444 1265.587 4284833379
-26.561468 763.61444 1265.587 4284175192
-19.31743 763.61444 1265.587 4289566874
-9.6587152 763.61444 1265.587 4289567917
-7.2440367 763.61444 1265.587 4286015352
-4.8293576 763.61444 1265.587 4286805363
-2.4146788 763.61444 1265.587 4290292649
0 763.61444 1265.587 4290489269
12.073395 763.61444 1265.587 4292925931
-25.257797 770.06665 1264.4873 4286871411
-21.649542 770.06665 1264.4873 4290095256
-19.244038 770.06665 1264.4873 4290096051
-16.838531 770.06665 1264.4873 4290556602
-13.230275 770.06665 1264.4873 4291015363
-9.6220188 770.06665 1264.4873 4289173159
-7.2165136 770.06665 1264.4873 4286278267
-4.8110094 770.06665 1264.4873 4287659899
-2.4055047 770.06665 1264.4873 4290883500
0 770.06665 1264.4873 4290753211
14.433027 770.06665 1264.4873 4293451505
16.838531 770.06665 1264.4873 4293254127
-2.3963304 778.32281 1264.9086 4290883516
16.774311 778.32281 1264.9086 4293385712
16.710093 784.71198 1263.7555 4293385458
-14.322936 786.53699 1265.2943 4290489537
-11.93578 786.53699 1265.2943 4287660438
-7.161468 786.53699 1265.2943 4288777599
-4.774312 786.53699 1265.2943 4289040797
-2.387156 786.53699 1265.2943 4290619572
0 786.53699 1265.2943 4290818743
16.710093 786.53699 1265.2943 4292990700
14.278899 790.53076 1263.4297 4292990954
-21.418348 792.35016 1264.9637 4289896870
-16.658716 792.35016 1264.9637 4291211715
-14.278899 792.35016 1264.9637 4290619844
-10.709174 792.35016 1264.9637 4286342246
-7.1394496 792.35016 1264.9637 4289696636
-2.3798165 792.35016 1264.9637 4294563043
0 792.35016 1264.9637 4293384934
10.709174 792.35016 1264.9637 4292728035
-21.335779 799.58514 1264.5239 4290292393
-18.965137 799.58514 1264.5239 4290751426
-16.594496 799.58514 1264.5239 4290422461
-14.223853 799.58514 1264.5239 4287922331
-11.853211 798.67896 1263.7599 4285816701
-7.1119266 798.67896 1263.7599 4289238652
-4.7412844 799.58514 1264.5239 4290024873
-2.3706422 799.58514 1264.5239 4293512158
0.79021406 799.88721 1264.7787 4293186526
4.7412844 800.49133 1265.2881 4292596198
7.1119266 799.58514 1264.5239 4292530148
10.272783 799.28302 1264.2693 4292465125
-21.25321 806.7851 1264.0547 4287921016
-18.891743 806.7851 1264.0547 4287461008
-16.530275 806.7851 1264.0547 4285947769
-14.168807 806.7851 1264.0547 4285357658
-10.626606 806.7851 1264.0547 4287725444
-4.7229357 806.7851 1264.0547 4289435556
-2.3614678 806.7851 1264.0547 4291277760
0 806.7851 1264.0547 4291542745
7.0844035 806.7851 1264.0547 4292661991
10.626606 806.7851 1264.0547 4292661991
-22.433945 808.59045 1265.5769 4285224786
-18.891743 808.59045 1265.5769 4285289075
-16.530275 808.59045 1265.5769 4285684090
-14.168807 808.59045 1265.5769 4286015311
-10.626606 808.59045 1265.5769 4287856505
-4.7229357 808.59045 1265.5769 4289436065
-2.3614678 808.59045 1265.5769 4292068042
0 808.59045 1265.5769 4291807196
7.0844035 808.59045 1265.5769 4292661991
10.626606 808.59045 1265.5769 4292793321
-7.056881 814.84912 1264.3138 4291077022
-14.113762 816.64746 1265.8301 4287590282
-10.585321 816.64746 1265.8301 4289367455
-7.056881 816.64746 1265.8301 4291407800
-4.704587 816.64746 1265.8301 4291015365
-2.3522935 816.64746 1265.8301 4292199640
0 816.64746 1265.8301 4292004057
-4.6862388 822.87103 1264.5376 4290555062
-9.3431196 830.32977 1265.5945 4291341755
-7.0073395 830.32977 1265.5945 4291210168
-4.6715598 829.43689 1264.8416 4290750645
-2.3357799 830.32977 1265.5945 4291473854
0 830.32977 1265.5945 4291542741
-37.225689 836.49298 1264.251 4285158748
-34.899082 836.49298 1264.251 4285355870
-6.9798164 836.49298 1264.251 4291539901
-4.6532111 836.49298 1264.251 4290881967
-2.3266056 836.49298 1264.251 4291342518
1.1633028 836.49298 1264.251 4292199388
2.3266056 838.27167 1265.7507 4292727012
-33.933945 758.06067 1267.4445 4286344047
-31.510092 757.13409 1266.6632 4284896092
-29.086239 757.13409 1266.6632 4284436054
-26.662386 757.13409 1266.6632 4284107089
-7.2715597 757.13409 1266.6632 4287656567
-4.8477063 758.06067 1267.4445 4287528330
-2.4238532 758.06067 1267.4445 4290423222
0 758.06067 1267.4445 4290095286
7.2715597 758.98718 1268.2257 4293846779
9.6954126 758.06067 1267.4445 4293714931
-31.390825 766.38348 1267.9219 4287529856
-28.976147 766.38348 1267.9219 4286739845
-26.561468 765.46045 1267.1436 4284173927
-4.8293576 765.46045 1267.1436 4286544507
-2.4146788 765.46045 1267.1436 4289965744
1.2073394 766.38348 1267.9219 4291213762
4.8293576 767.30652 1268.7001 4292333279
7.2440367 767.30652 1268.7001 4293649139
9.6587152 767.30652 1268.7001 4293648885
12.073395 766.38348 1267.9219 4293451505
-24.85688 773.13165 1267.0717 4288382605
-21.649542 772.8252 1266.8132 4290750894
-19.244038 772.8252 1266.8132 4290422711
-16.838531 772.8252 1266.8132 4290488247
-13.230275 772.82513 1266.8132 4290817213
-9.6220188 772.8252 1266.8132 4288580512
-7.2165136 772.8252 1266.8132 4286409087
-4.8110094 772.8252 1266.8132 4287660431
-2.4055047 772.8252 1266.8132 4290884288
0 772.8252 1266.8132 4290687677
14.433027 771.90564 1266.038 4293451505
16.838531 772.8252 1266.8132 4293254382
-22.765137 781.98688 1267.9979 4289304216
-19.170643 781.98688 1267.9979 4289764785
-16.774311 781.07086 1267.2256 4290357434
-14.377981 781.07086 1267.2256 4290554559
-10.783485 781.07086 1267.2256 4288580762
-7.1889906 781.07086 1267.2256 4287791239
-4.7926607 781.07086 1267.2256 4288975262
-2.3963304 781.07086 1267.2256 4290620086
0 781.07086 1267.2256 4290489781
14.377981 781.98688 1267.9979 4293056749
16.774311 780.15485 1266.4532 4293385458
-16.710093 788.36194 1266.8331 4291276995
-14.322936 788.36194 1266.8331 4290751162
-10.742202 788.36194 1266.8331 4287066752
-7.161468 788.36194 1266.8331 4289040797
-4.774312 788.36194 1266.8331 4289762216
-2.387156 788.36194 1266.8331 4291538627
0 788.36194 1266.8331 4292067524
7.161468 788.36194 1266.8331 4292991206
10.742202 788.36194 1266.8331 4292925409
-28.645872 790.18695 1268.3719 4287989905
-26.258715 790.18695 1268.3719 4288450456
-23.871559 790.18695 1268.3719 4288778390
-19.097248 790.18695 1268.3719 4290224820
-4.774312 790.18695 1268.3719 4290944428
2.387156 790.18695 1268.3719 4292792796
4.774312 790.18695 1268.3719 4292530401
7.161468 790.18695 1268.3719 4292728037
-22.608257 794.16956 1266.4978 4289305247
-19.038532 794.16956 1266.4978 4290553016
-16.658716 794.16956 1266.4978 4291474117
-14.278899 794.16956 1266.4978 4290027453
-4.7596331 794.16956 1266.4978 4290615719
-2.3798165 794.16956 1266.4978 4294959085
2.3798165 794.16956 1266.4978 4293317092
4.7596331 794.16956 1266.4978 4292530403
7.1394496 794.16956 1266.4978 4292727783
9.5192661 794.16956 1266.4978 4292662757
-23.798164 795.98895 1268.0319 4288714132
2.3798165 795.98895 1268.0319 4293251299
4.7596331 795.98895 1268.0319 4292333281
-23.706423 802.30371 1266.8162 4286671719
2.3706422 802.30371 1266.8162 4292727785
4.7412844 802.30371 1266.8162 4292793578
7.1119266 802.30371 1266.8162 4292596198
-28.447706 804.11609 1268.3444 4285553502
-26.077065 804.11609 1268.3444 4285356122
-23.706423 804.11609 1268.3444 4285947226
2.3706422 804.11609 1268.3444 4292990191
4.7412844 804.11609 1268.3444 4292793578
-28.337614 811.29846 1267.8602 4285686126
-25.976147 812.20117 1268.6213 4284436317
-22.433945 811.29846 1267.8602 4284764753
-18.891743 811.29846 1267.8602 4285617761
-16.530275 811.29846 1267.8602 4285946983
-14.168807 811.29846 1267.8602 4286605152
-10.626606 811.29846 1267.8602 4288249212
-7.0844035 810.39581 1267.0991 4289631652
-4.7229357 811.29846 1267.8602 4290685110
-2.3614678 811.29846 1267.8602 4292461778
0.78715593 811.59937 1268.1139 4292398558
7.0844035 811.29846 1267.8602 4292859115
10.626606 811.29846 1267.8602 4292925166
14.168807 810.39581 1267.0991 4293122792
16.530275 812.20117 1268.6213 4292925161
23.614679 812.20117 1268.6213 4292531689
25.976147 812.20117 1268.6213 4292663275
-14.113762 818.44586 1267.3464 4290287768
-10.585321 818.44586 1267.3464 4291209639
-7.056881 818.44586 1267.3464 4291210153
-4.704587 818.44586 1267.3464 4290161592
-2.3522935 818.44586 1267.3464 4291609038
0 818.44586 1267.3464 4291806681
-18.818348 820.2442 1268.8628 4290816928
-16.466055 820.2442 1268.8628 4290948514
-14.113762 820.2442 1268.8628 4291605415
-10.585321 820.2442 1268.8628 4291539376
-7.056881 820.2442 1268.8628 4291210164
-2.3522935 820.2442 1268.8628 4291542213
0 820.2442 1268.8628 4291871703
-7.0293579 824.66235 1266.048 4291210680
-4.6862388 824.66235 1266.048 4290883516
-2.3431194 824.66235 1266.048 4291475653
0 824.66235 1266.048 4291805910
-10.544037 826.45374 1267.5583 4291276475
-7.0293579 826.45374 1267.5583 4291079352
-2.3431194 826.45374 1267.5583 4291474369
0 826.45374 1267.5583 4291674329
-39.708256 833.90118 1268.6057 4285094238
-31.533028 833.90118 1268.6057 4285487456
-9.3431196 833.0083 1267.8529 4291473853
-7.0073395 832.11548 1267.1001 4291408061
-4.6715598 832.11548 1267.1001 4290750647
-2.3357799 832.11548 1267.1001 4291277247
0 832.11548 1267.1001 4291476948
4.6715598 833.90118 1268.6057 4292333281
-37.740364 753.78827 1271.6902 4286344049
2.4348624 753.78827 1271.6902 4292134612
4.8697248 753.78827 1271.6902 4292465126
7.3045874 753.78827 1271.6902 4293649400
-36.3578 760.84021 1269.7881 4287068794
-33.933945 760.84021 1269.7881 4286807932
2.4238532 760.84021 1269.7881 4291805386
7.2715597 760.84021 1269.7881 4293649398
9.6954126 760.84021 1269.7881 4293254640
-36.3578 762.6933 1271.3506 4287199097
-33.933945 762.6933 1271.3506 4287135352
2.4238532 762.6933 1271.3506 4291740106
4.8477063 762.6933 1271.3506 4292333279
7.2715597 762.6933 1271.3506 4294043896
9.6954126 762.6933 1271.3506 4293583091
-31.390825 770.07556 1271.0349 4287988361
-28.976147 770.07556 1271.0349 4288119692
-26.561468 769.15259 1270.2567 4287725189
2.4146788 770.07556 1271.0349 4292200916
4.8293576 770.07556 1271.0349 4292662241
7.2440367 770.07556 1271.0349 4293517550
9.6587152 770.07556 1271.0349 4293451505
12.878288 770.3833 1271.2944 4293517554
-28.866055 775.58368 1269.1392 4288184717
-25.257797 775.58368 1269.1392 4288843152
-21.649542 775.58368 1269.1392 4289961880
-19.244038 775.58368 1269.1392 4289699244
-16.838531 775.58368 1269.1392 4290159795
-13.230275 775.58368 1269.1392 4290488247
-9.6220188 775.58368 1269.1392 4287987616
-7.2165136 775.58368 1269.1392 4286869391
-4.8110094 775.58368 1269.1392 4288448918
0 775.58368 1269.1392 4290555834
14.433027 775.58368 1269.1392 4293385712
-31.271559 777.42273 1270.6898 4288184969
-28.866055 777.42273 1270.6898 4288184717
-25.257797 777.42273 1270.6898 4288777619
-21.649542 777.42273 1270.6898 4289830814
-19.244038 777.42273 1270.6898 4289633710
2.4055047 777.42273 1270.6898 4292398292
4.8110094 777.42273 1270.6898 4292332508
7.2165136 777.42273 1270.6898 4293187817
9.6220188 777.42273 1270.6898 4293056749
13.230275 777.42273 1270.6898 4293122542
-31.152294 785.65088 1271.0874 4287989392
-28.755962 784.73486 1270.3149 4288054672
-26.359632 784.73486 1270.3149 4288580759
-22.765137 784.73486 1270.3149 4289238936
-19.170643 784.73486 1270.3149 4289961650
-16.774311 783.81885 1269.5426 4290685887
-9.5853214 783.81885 1269.5426 4286737760
2.3963304 784.73486 1270.3149 4292792018
4.7926607 784.73486 1270.3149 4292464863
7.1889906 783.81885 1269.5426 4292925159
10.783486 783.81885 1269.5426 4292728296
14.377981 783.81885 1269.5426 4292661991
-31.033028 793.83698 1271.4495 4288120710
-28.645872 792.92444 1270.6802 4288054929
-26.258715 792.92444 1270.6802 4288581530
-23.798164 797.80835 1269.5659 4288976018
-28.557798 799.62775 1271.1001 4286210412
-26.177982 799.62775 1271.1001 4286342254
-28.447706 805.92847 1269.8724 4284764762
-26.077065 805.92847 1269.8724 4284764762
2.3706422 805.92847 1269.8724 4292728298
4.7412844 805.92847 1269.8724 4292793578
-33.188992 807.74084 1271.4006 4286078326
-30.818348 807.74084 1271.4006 4285420396
-26.077065 807.74084 1271.4006 4284567388
2.3706422 807.74084 1271.4006 4292728037
4.7412844 807.74084 1271.4006 4292793580
-30.699083 814.90918 1270.9047 4288513924
-28.337614 814.90918 1270.9047 4287921553
-25.976147 814.90918 1270.9047 4287592331
-22.433945 814.90924 1270.9047 4287067246
-18.891743 814.90918 1270.9047 4287000434
-16.530275 814.90918 1270.9047 4288118915
2.3614678 814.90918 1270.9047 4292991209
4.7229357 814.90918 1270.9047 4292991212
7.0844035 815.81189 1271.6658 4292794091
-18.818348 822.94171 1271.1372 4290946476
-16.466055 822.94171 1271.1372 4291670456
-14.113762 822.94171 1271.1372 4291342779
-10.585321 822.04254 1270.3792 4291145143
2.3522935 822.94171 1271.1372 4293121772
-37.48991 830.03638 1270.5792 4287527546
-35.14679 830.03638 1270.5792 4287856511
-30.46055 830.03638 1270.5792 4288908429
-14.058716 829.14069 1269.824 4291473599
-11.715596 829.14069 1269.824 4291210170
2.3431194 829.14069 1269.824 4292990187
4.6862388 830.03638 1270.5792 4292793830
4.6715598 835.68689 1270.1115 4292399587
-37.740364 755.64972 1273.2598 4286870129
2.4348624 755.64972 1273.2598 4291871442
4.8697248 755.64972 1273.2598 4292333540
-41.392662 757.51123 1274.8293 4286540401
-38.957798 757.51123 1274.8293 4286344814
4.8697248 757.51123 1274.8293 4292201952
-33.933945 764.54633 1272.913 4287463296
-36.3578 766.39941 1274.4755 4287724418
-33.933945 766.39941 1274.4755 4287593602
-31.390825 772.8446 1273.3698 4288053899
2.4146788 772.8446 1273.3698 4292529368
4.8293576 772.8446 1273.3698 4292662493
7.2440367 772.8446 1273.3698 4293385960
9.6587152 772.8446 1273.3698 4293451505
12.073395 772.8446 1273.3698 4293451505
-33.805504 774.69067 1274.9263 4287856005
-31.271559 779.26178 1272.2404 4288185740
-28.866055 779.26178 1272.2404 4288185488
-26.46055 779.26178 1272.2404 4288777624
2.4055047 779.26178 1272.2404 4292529106
4.8110094 779.26178 1272.2404 4292267232
7.2165136 779.26178 1272.2404 4293056747
9.6220188 779.26178 1272.2404 4293122540
12.027523 779.26178 1272.2404 4293254127
-36.082569 781.10083 1273.791 4287397506
-33.677063 781.10083 1273.791 4287594634
-31.271559 781.10083 1273.791 4287989392
-34.746788 787.48291 1272.6321 4287397248
-31.152294 787.48291 1272.6321 4288120460
-38.341286 789.31494 1274.1768 4286540914
-34.746788 789.31494 1274.1768 4287725185
-31.152294 789.31494 1274.1768 4288383368
-33.420185 797.48694 1274.5271 4286144356
-31.033028 796.57446 1273.7577 4287132269
-28.645872 795.66199 1272.9883 4288382616
-26.258715 795.66199 1272.9883 4289040547
-33.317432 803.26648 1274.1682 4285619045
-30.937614 802.35681 1273.4011 4285618274
-33.188992 809.55322 1272.9287 4287527546
-30.818348 809.55322 1272.9287 4287461753
4.7412844 809.55322 1272.9287 4292793578
14.223853 809.55322 1272.9287 4293122540
18.965137 809.55322 1272.9287 4292662505
21.335779 809.55322 1272.9287 4292662505
28.447706 809.55322 1272.9287 4292531687
-37.930275 811.3656 1274.4569 4287199097
-34.374313 811.3656 1274.4569 4287856509
7.1119266 811.3656 1274.4569 4292925161
10.667891 811.3656 1274.4569 4292990705
14.223853 811.3656 1274.4569 4292925161
16.594496 811.3656 1274.4569 4292661989
26.077065 811.3656 1274.4569 4292860145
-33.060551 817.61731 1273.188 4287987073
-30.699083 817.61731 1273.188 4288513673
-28.337614 817.61731 1273.188 4288710282
-25.976147 817.61731 1273.188 4289631384
-22.433945 817.61731 1273.188 4289370013
2.3614678 817.61731 1273.188 4293056234
4.7229357 817.61731 1273.188 4292990700
-30.699083 819.42261 1274.7102 4288447624
-28.337614 819.42261 1274.7102 4288381579
-25.976147 819.42261 1274.7102 4289105558
-22.433945 819.42261 1274.7102 4289828766
4.7229357 819.42261 1274.7102 4292990700
-39.988991 827.43756 1274.9281 4287199346
-37.636696 825.63922 1273.4117 4288053120
-35.284405 825.63922 1273.4117 4288579464
-31.755962 826.53839 1274.1699 4288776586
-28.227524 827.43756 1274.9281 4288974220
-25.875229 826.53839 1274.1699 4290026397
-18.818348 826.53839 1274.1699 4290749876
-16.466055 826.53839 1274.1699 4291670977
4.704587 825.63922 1273.4117 4292860138
7.056881 827.43756 1274.9281 4292662243
7.0293579 832.72339 1272.8447 4292070365
-41.392662 760.30341 1277.1836 4286605939
-38.146175 760.61359 1277.4452 4287000950
-36.3578 769.17896 1276.8191 4287462277
-33.933945 769.17896 1276.8191 4287527555
-37.427521 776.53674 1276.4828 4287198592
-33.805504 776.53674 1276.4828 4287856518
-36.082569 782.93982 1275.3417 4287397756
-33.677063 782.93982 1275.3417 4287528841
-43.299084 784.77881 1276.8922 4285488490
-40.893578 784.77881 1276.8922 4286278006
-38.488075 784.77881 1276.8922 4286410607
-40.737614 791.14691 1275.7214 4286408561
-38.341286 791.14691 1275.7214 4286277745
-34.746788 791.14691 1275.7214 4287199099
-40.737614 792.97894 1277.2662 4286013803
-38.341286 792.97894 1277.2662 4286408811
-34.746788 792.97894 1277.2662 4287066989
-33.420185 799.31195 1276.0659 4286078312
-38.194496 801.13696 1277.6047 4286145643
-35.807339 801.13696 1277.6047 4285882214
-38.077065 806.90527 1277.2363 4287133303
-35.697247 805.99561 1276.4692 4287133040
-37.930275 814.08417 1276.7491 4287001979
-34.769421 813.78204 1276.4945 4287659393
7.1119266 814.99036 1277.5132 4293122542
10.667891 814.08417 1276.7491 4292596459
14.223853 814.08417 1276.7491 4292662250
16.594496 814.08417 1276.7491 4292662250
26.077065 813.17798 1275.9851 4292269032
-37.783485 821.22803 1276.2325 4287658364
-34.241287 821.22803 1276.2325 4288381828
-30.699083 821.22803 1276.2325 4288776327
-28.337614 821.22803 1276.2325 4288841616
-25.976147 821.22803 1276.2325 4289368216
-22.433945 821.22803 1276.2325 4289829279
4.7229357 821.22803 1276.2325 4292990700
-40.144955 823.03333 1277.7548 4287790466
-33.060551 823.03333 1277.7548 4288907915
-28.337614 823.03333 1277.7548 4289368212
-22.433945 823.03333 1277.7548 4290027689
7.0844035 823.03333 1277.7548 4292596709
-42.341286 829.23596 1276.4443 4285094238
-28.227524 829.23596 1276.4443 4285815906
-43.992661 754.737 1279.0303 4285619299
-43.992661 756.60547 1280.6058 4285882214
-43.827522 763.09564 1279.538 4285882216
-41.392662 763.09564 1279.538 4286737525
-38.957798 763.09564 1279.538 4286869110
-43.629356 773.81165 1280.7252 4285817194
-41.205505 772.88513 1279.9441 4286540660
-37.569725 771.95856 1279.1628 4287198594
-41.049541 778.38275 1278.0393 4286475637
-38.634861 778.38275 1278.0393 4286410355
-45.878899 780.22882 1279.5958 4285882216
-43.464222 780.22882 1279.5958 4285751662
-41.049541 780.22882 1279.5958 4286606970
-38.634861 780.22882 1279.5958 4286344812
-45.704586 787.53735 1279.2183 4285487458
-43.299084 787.53735 1279.2183 4285553767
-40.893578 786.61786 1278.4429 4286278006
-40.737614 794.81097 1278.8109 4285947494
-38.341286 794.81097 1278.8109 4286209128
-35.944954 794.81097 1278.8109 4286274922
-43.133945 796.64294 1280.3556 4285749602
-40.737614 796.64294 1280.3556 4286144360
-38.341286 796.64294 1280.3556 4285947496
-35.944954 796.64294 1280.3556 4285881703
-38.194496 802.96198 1279.1434 4286738275
-40.58165 804.78699 1280.6823 4287001465
19.038532 808.72467 1278.7704 4292399848
22.608257 808.72467 1278.7704 4292465642
-40.456882 810.54407 1280.3044 4287067004
19.038532 810.54407 1280.3044 4292399846
22.608257 810.54407 1280.3044 4292334567
-40.300919 817.70892 1279.8054 4287395201
-37.930275 816.80273 1279.0414 4287198845
-34.374313 816.80273 1279.0414 4287856259
7.1119266 817.70892 1279.8054 4293056749
10.667891 817.70898 1279.8054 4292596971
23.706423 818.61511 1280.5696 4292267747
26.077065 817.70892 1279.8054 4292530662
-42.50642 824.83875 1279.277 4286870125
-22.433945 824.83875 1279.277 4290093738
9.4458714 824.83875 1279.277 4292530401
-44.867889 826.6441 1280.7992 4285094234
9.4458714 826.6441 1280.7992 4292332254
-46.436699 758.474 1282.1813 4285882216
-43.992661 758.474 1282.1813 4285948010
-46.436699 760.34247 1283.7567 4285882216
-43.827522 764.95709 1281.1075 4285882216
-41.392662 764.95709 1281.1075 4286737525
-38.957798 764.95709 1281.1075 4286672760
-46.262386 766.8186 1282.6771 4285882216
-43.827522 766.8186 1282.6771 4285751662
-41.392662 766.8186 1282.6771 4286672764
-38.957798 766.8186 1282.6771 4286738044
-46.053211 775.66467 1282.2877 4285882216
-43.629356 775.66467 1282.2877 4285751914
-48.477066 777.5177 1283.8501 4285355872
-48.293579 782.07483 1281.1523 4285355872
-45.878899 782.07483 1281.1523 4285553252
-57.952293 783.9209 1282.709 4284896603
-55.537613 783.9209 1282.709 4284962396
-49.500916 783.9209 1282.709 4285224283
-60.137615 790.2959 1281.5442 4284896603
-57.732109 790.2959 1281.5442 4284962648
-48.110092 790.2959 1281.5442 4285355870
-45.704586 790.2959 1281.5442 4285619299
-43.299084 790.2959 1281.5442 4285619045
-60.137615 792.13495 1283.0947 4284896603
-57.732109 792.13495 1283.0947 4284962396
-48.110092 792.13495 1283.0947 4285487709
-45.704586 792.13495 1283.0947 4285553502
-43.299084 792.13495 1283.0947 4285750115
-43.133945 799.39099 1282.6726 4286145895
-40.737614 799.39099 1282.6726 4286145895
-40.58165 806.61194 1282.2211 4287133053
-42.968807 808.43701 1283.7599 4286211951
-40.456882 812.36346 1281.8385 4287263104
19.038532 812.36346 1281.8385 4292399846
22.608257 812.36346 1281.8385 4292465639
26.177982 812.36346 1281.8385 4292202724
28.557798 812.36346 1281.8385 4292202722
-42.836697 814.18286 1283.3726 4286408049
14.278899 814.18286 1283.3726 4292662505
16.658716 814.18286 1283.3726 4292465126
19.038532 814.18286 1283.3726 4292464356
22.608257 814.18286 1283.3726 4292464356
28.557798 814.18286 1283.3726 4292464608
-42.671558 820.42749 1282.0977 4287000950
10.667891 820.42749 1282.0977 4292399333
14.223853 820.42749 1282.0977 4292201440
23.706423 820.42749 1282.0977 4292201954
26.077065 820.42749 1282.0977 4292662505
-45.042202 822.23987 1283.6259 4286147942
11.853211 822.23987 1283.6259 4292333279
14.223853 822.23987 1283.6259 4292333027
23.706423 822.23987 1283.6259 4292332775
26.077065 822.23987 1283.6259 4292924911
-46.611008 753.83832 1284.8127 4285882216
-51.324772 764.07947 1286.9076 4285158744
-48.880733 763.1452 1286.1199 4285290079
-46.436699 762.21094 1285.3322 4285882216
-48.697247 770.5415 1285.8162 4285355872
-46.262386 769.61078 1285.0314 4285948010
-43.827522 768.68005 1284.2466 4285751400
-50.900917 779.37079 1285.4126 4285094234
-53.324772 781.22388 1286.9751 4285158744
-60.366974 785.76697 1284.2655 4284962396
-57.952293 785.76697 1284.2655 4284962396
-55.537613 785.76697 1284.2655 4285028189
-53.122936 785.76697 1284.2655 4285290329
-49.500916 785.76697 1284.2655 4285224282
-55.537613 787.61298 1285.822 4284962648
-53.122936 787.61298 1285.822 4285290329
-50.708256 787.61298 1285.822 4285356122
-48.110092 793.974 1284.6454 4285355870
-45.704586 793.974 1284.6454 4285487457
-48.110092 795.81299 1286.196 4285487457
-45.704586 795.81299 1286.196 4286013801
-45.530273 803.97107 1286.5344 4286342767
-43.133945 803.05505 1285.7621 4286211950
-45.355965 812.08698 1286.8374 4286538604
-42.968807 810.26196 1285.2987 4286407795
-45.216515 817.82166 1286.4407 4286279019
-42.836697 816.00226 1284.9066 4286474356
14.278899 816.00226 1284.9066 4292399333
16.658716 816.91199 1285.6736 4292201698
19.038532 816.91199 1285.6736 4292332768
21.418348 816.91199 1285.6736 4292332768
11.853211 824.05225 1285.1539 4292398304
23.706423 824.05225 1285.1539 4292398052
26.077065 824.05225 1285.1539 4292726760
-45.042202 825.86462 1286.6821 4285356906
-42.671558 825.86462 1286.6821 4285225567
10.667891 825.86462 1286.6821 4292135643
23.706423 825.86462 1286.6821 4292201702
26.077065 825.86462 1286.6821 4292399081
-49.06422 757.58936 1287.9755 4285355872
-51.517429 759.46484 1289.5569 4285290329
-51.324772 765.94794 1288.4832 4285158744
-48.880733 765.94794 1288.4832 4285421665
-51.132111 772.40302 1287.3857 4285290077
-48.697247 772.40302 1287.3857 4285289823
-51.132111 774.26447 1288.9552 4285094234
-60.366974 791.30505 1288.9351 4284372057
-57.952293 791.30505 1288.9351 4284764762
-55.537613 790.38202 1288.1567 4284962397
-53.122936 790.38202 1288.1567 4285224538
-50.708256 790.38202 1288.1567 4285356124
-48.110092 797.65204 1287.7466 4285553252
-45.704586 797.65204 1287.7466 4286342767
-48.110092 799.49109 1289.2972 4285553250
-45.704586 799.49109 1289.2972 4286342765
-45.530273 805.80304 1288.0791 4286538863
-46.728439 807.63507 1289.6239 4286275178
-46.549541 814.82446 1289.1456 4286474863
-52.355965 821.46045 1289.5088 4285751910
-49.976147 821.46045 1289.5088 4285751910
-47.596329 820.55072 1288.7417 4285752674
14.278899 821.46045 1289.5088 4292333540
16.658716 820.55072 1288.7417 4292267491
19.038532 820.55072 1288.7417 4292333027
21.418348 820.55072 1288.7417 4292267234
23.706423 827.677 1288.2102 4291938784
26.077065 827.677 1288.2102 4292267749
-51.710091 752.95374 1290.6071 4285092951
-49.247707 752.95374 1290.6071 4285092701
-51.710091 754.83624 1292.1943 4285355870
-53.970642 763.21582 1292.7196 4285158744
-52.546791 767.81641 1290.0586 4285290329
-53.768806 769.68494 1291.634 4285290077
-56.001835 776.12592 1290.5248 4285094238
-53.566971 776.12592 1290.5248 4285094234
-60.366974 794.0741 1291.2698 4284109138
-57.952293 794.0741 1291.2698 4284306266
-55.537613 794.0741 1291.2698 4284766561
-53.122936 794.0741 1291.2698 4285028446
-50.708256 794.0741 1291.2698 4285291362
-52.921101 803.16913 1292.3984 4285290329
-48.911926 802.55615 1291.8816 4285552736
-52.719265 809.46704 1291.1686 4285684318
-50.322937 809.46704 1291.1686 4285684318
-47.926605 809.46704 1291.1686 4285814625
-57.511925 811.29907 1292.7133 4285618011
-55.115597 811.29907 1292.7133 4285683805
-52.719265 811.29907 1292.7133 4285683809
-50.322937 811.29907 1292.7133 4285749602
-47.926605 811.29907 1292.7133 4286078312
-57.291744 817.56201 1291.4539 4285487459
-54.904587 817.56201 1291.4539 4285882216
-52.517429 817.56201 1291.4539 4285752164
-50.130276 817.56201 1291.4539 4286410094
-62.066055 819.38696 1292.9927 4285949293
-58.485321 819.38696 1292.9927 4285621354
-54.904587 819.38696 1292.9927 4285424746
-52.355965 823.27979 1291.0428 4285751400
-49.976147 823.27979 1291.0428 4285685351
-47.596329 823.27979 1291.0428 4285422699
14.278899 823.27979 1291.0428 4292333792
16.658716 823.27979 1291.0428 4292596707
21.418348 823.27979 1291.0428 4292201954
-61.636696 831.30176 1291.2666 4289112767
-54.172478 758.60126 1295.3689 4285158744
-56.212845 771.55341 1293.2095 4285028189
-53.768806 771.55341 1293.2095 4285094234
-60.366974 796.8432 1293.6047 4284372055
-57.952293 796.8432 1293.6047 4284896603
-55.537613 796.8432 1293.6047 4285028189
-53.122936 796.8432 1293.6047 4285290077
-50.708256 796.8432 1293.6047 4285487457
-57.952293 798.68921 1295.1613 4284501847
-55.537613 798.68921 1295.1613 4284962398
-53.122936 798.68921 1295.1613 4285290077
-50.708256 798.68921 1295.1613 4285355870
-60.137615 805.92767 1294.7244 4284765018
-57.732109 805.92767 1294.7244 4284895836
-55.326607 805.92767 1294.7244 4285224801
-52.921101 805.00818 1293.9491 4285421402
-50.515594 805.00818 1293.9491 4285618525
-62.304588 814.04712 1295.0303 4285159003
-59.109478 813.74176 1294.7728 4285356124
-55.115597 813.1311 1294.2579 4285618011
-52.719265 813.1311 1294.2579 4285816160
-50.322937 813.1311 1294.2579 4286408297
-62.066055 821.21198 1294.5314 4285886843
-58.485321 821.21198 1294.5314 4285425774
-54.904587 821.21198 1294.5314 4285293928
19.097248 821.21198 1294.5314 4292267747
-54.374313 753.9726 1298.0062 4285290329
-57.952293 800.53528 1296.7178 4284370261
-55.537613 800.53528 1296.7178 4284962398
-61.340366 808.68622 1297.0503 4285356122
-62.066055 823.94946 1296.8396 4287599009
-58.485321 823.94946 1296.8396 4285822085
-54.904587 823.94946 1296.8396 4285229950
-52.517429 823.94946 1296.8396 4285489513
-50.130276 823.03699 1296.0702 4285686118
-47.743118 823.03699 1296.0702 4285947758
23.871559 824.862 1297.609 4292201954
21.566973 820.45917 1300.4368 4292201954
-50.322937 822.2912 1301.9814 4285556336
-57.291744 826.68701 1299.1478 4287201949
-57.291744 828.51196 1300.6866 4287991220
-60.871559 792.87921 1304.6508 4284501845
-59.908257 824.12317 1303.5262 4287665321
-55.115597 824.12317 1303.5262 4286280847
-60.871559 794.74066 1306.2202 4284501847
-52.921101 821.55945 1307.9047 4285951353
21.649542 819.7204 1306.354 4292135907
24.055046 821.55945 1307.9047 4292202722
-59.109478 827.17657 1306.1007 4289504703
19.31743 815.30359 1309.17 4292267747
-55.326607 823.39844 1309.4553 4287070118
26.46055 823.39844 1309.4553 4292400098
-58.710091 829.61926 1308.1604 4290294223
-58.710091 831.45123 1309.7051 4291610590
21.732111 818.99573 1312.2831 4292267747
24.14679 820.84174 1313.8396 4292202976
-55.326607 827.07648 1312.5565 4288780482
-57.511925 833.28326 1311.2498 4292136160
19.390825 814.57886 1315.0991 4292201700
-50.900917 816.43188 1316.6616 4285688181
-55.537613 822.68774 1315.3962 4288713655
26.561468 823.61078 1316.1746 4292136669
17.044037 809.63245 1318.7766 4292201954
-53.324772 818.28497 1318.224 4286346894
21.814678 818.28497 1318.224 4292333542
-53.324772 820.13806 1319.7865 4287925925
21.814678 820.13806 1319.7865 4292202724
24.238533 820.13806 1319.7865 4292202976
-55.537613 826.37988 1318.5093 4290360529
26.561468 826.37988 1318.5093 4291938782
19.478899 813.35541 1321.9156 4292136160
-53.324772 821.99109 1321.3489 4288320685
24.238533 821.99109 1321.3489 4292202206
-53.324772 823.84412 1322.9114 4289768644
24.238533 823.84412 1322.9114 4291872989
26.561468 828.22589 1320.0658 4291873243
14.66422 807.05463 1323.1432 4292201954
17.108257 808.9231 1324.7186 4292267234
19.478899 815.21686 1323.4852 4292004577
-51.132111 817.07837 1325.0548 4286807443
19.478899 817.07837 1325.0548 4291873502
24.238533 825.6972 1324.4739 4291873243
-51.324772 812.6601 1327.8696 4285491586
17.108257 811.72583 1327.0819 4292267236
-51.132111 818.93982 1326.6244 4287267740
19.478899 818.93982 1326.6244 4292137183
21.913761 818.93982 1326.6244 4292202976
-51.132111 820.80127 1328.1938 4288518577
19.478899 820.80127 1328.1938 4292136156
21.913761 820.80127 1328.1938 4292136156
21.814678 827.55023 1326.0363 4292201438
25.450459 827.55023 1326.0363 4291939036
19.390825 829.40332 1327.5988 4292660193
21.814678 829.40332 1327.5988 4292725986
24.238533 829.40332 1327.5988 4292726240
19.31743 835.61011 1326.292 4287527794
19.31743 837.45612 1327.8484 4284636527
12.311927 801.89905 1331.8765 4292136160
-49.06422 806.35229 1329.0912 4286014066
14.719266 806.35229 1329.0912 4292201440
14.719266 808.22784 1330.6726 4292069600
-48.880733 814.52856 1329.4451 4286675844
17.108257 814.52856 1329.4451 4292267234
-48.880733 816.39709 1331.0205 4287069584
17.108257 816.39709 1331.0205 4292464356
-56.001835 823.59351 1330.5482 4291544026
-52.755352 823.28326 1330.2866 4290360008
14.609175 824.52423 1331.333 4292463843
17.044037 823.59351 1330.5482 4292266462
19.478899 823.59351 1330.5482 4292004315
21.913761 822.66278 1329.7634 4292136156
16.966972 832.18286 1329.9424 4286868879
19.390825 831.25635 1329.1611 4289759907
21.814678 831.25635 1329.1611 4290615215
12.311927 803.78162 1333.4637 4292267486
-49.06422 810.10333 1332.2539 4285819503
14.719266 811.04108 1333.0447 4292069855
-48.880733 818.26556 1332.5959 4288385446
14.66422 818.26556 1332.5959 4291806683
17.108257 818.26556 1332.5959 4292135647
-48.880733 820.13403 1334.1714 4288713653
14.66422 820.13403 1334.1714 4292069337
-56.001835 826.38568 1332.9026 4292595944
14.609175 826.38568 1332.9026 4292265446
17.044037 826.38568 1332.9026 4292660204
14.609175 828.24719 1334.472 4285947015
14.543119 835.88904 1333.0674 4289966786
16.966972 834.96246 1332.2861 4287135893
7.4146791 799.32129 1336.243 4292071134
9.8862381 799.32129 1336.243 4291741403
7.4146791 801.21082 1337.8363 4292596959
9.8862381 801.21082 1337.8363 4292201692
-49.247707 805.66412 1335.051 4286211699
12.311927 805.66412 1335.051 4292266463
12.311927 807.54663 1336.6384 4292069600
13.083793 814.47949 1335.9438 4291938269
-51.324772 822.00256 1335.7468 4290294475
-48.880733 822.00256 1335.7468 4290161603
12.220183 822.93677 1336.5345 4292004033
13.391743 830.10864 1336.0416 4286345107
12.174312 831.97009 1337.6112 4290031039
-42.203671 794.32996 1339.8827 4285225567
-39.7211 794.32996 1339.8827 4285421665
-37.238533 794.32996 1339.8827 4285487459
-34.755962 794.32996 1339.8827 4285487207
-9.930275 794.32996 1339.8827 4291803069
-7.4477062 794.32996 1339.8827 4291868862
-4.9651375 794.32996 1339.8827 4291342772
-2.4825687 794.32996 1339.8827 4291276723
0 794.32996 1339.8827 4291345359
-46.959633 803.10034 1339.4294 4286277493
9.8862381 803.10034 1339.4294 4292135134
-46.78532 809.42914 1338.2256 4286215293
12.311927 809.42914 1338.2256 4292069598
-46.78532 811.31165 1339.813 4286477447
-44.322937 811.31165 1339.813 4286673012
9.8495417 811.31165 1339.813 4291740636
-46.611008 817.60535 1338.5795 4287858600
12.266055 817.60535 1338.5795 4292266713
-46.611008 819.48083 1340.1609 4289240501
9.8128443 819.48083 1340.1609 4292001997
9.7761469 826.67371 1339.6855 4286611105
12.220183 825.7395 1338.8978 4284902015
9.7394495 833.8316 1339.1807 4289307039
12.174312 833.8316 1339.1807 4289569954
-47.168808 796.22791 1341.483 4285881964
-43.444954 796.22791 1341.483 4285686121
-19.86055 796.22791 1341.483 4284964195
-17.377981 796.22791 1341.483 4285095781
-13.654128 796.22791 1341.483 4286803319
-9.930275 796.22791 1341.483 4290154135
-7.4477062 796.22791 1341.483 4292522683
-4.9651375 796.22791 1341.483 4291737278
-2.4825687 796.22791 1341.483 4291868864
1.2412844 796.22791 1341.483 4291741916
4.9651375 796.22791 1341.483 4292400098
-47.168808 798.12585 1343.0833 4285948273
-44.686237 798.12585 1343.0833 4285817455
-32.273396 798.12585 1343.0833 4286080109
-29.790825 798.12585 1343.0833 4285949043
-24.825687 798.12585 1343.0833 4285883000
-22.343119 798.12585 1343.0833 4286014586
-19.86055 798.12585 1343.0833 4285685868
-17.377981 798.12585 1343.0833 4285093732
-13.654128 798.12585 1343.0833 4286277477
-9.930275 798.12585 1343.0833 4287856009
-7.4477062 798.12585 1343.0833 4290948023
-4.9651375 798.12585 1343.0833 4291081149
-2.4825687 798.12585 1343.0833 4291870409
1.2412844 798.12585 1343.0833 4292069085
4.9651375 798.12585 1343.0833 4292596959
-46.959633 804.98987 1341.0227 4285951090
-43.664227 806.24951 1342.0848 4286408818
-29.658716 806.87939 1342.6158 4286343799
-24.715597 806.87939 1342.6158 4286344312
-22.244038 805.93463 1341.8193 4286278263
-19.772476 806.87939 1342.6158 4286343799
-17.300917 806.87939 1342.6158 4286804350
-13.181652 806.24951 1342.0848 4286541943
-9.8862381 806.87939 1342.6158 4287198845
7.4146791 806.87939 1342.6158 4291937753
9.8862381 805.93463 1341.8193 4291872220
-46.78532 813.19415 1341.4003 4287069587
-44.322937 814.13538 1342.1938 4286740355
9.8495417 814.13538 1342.1938 4291872472
-52.744034 821.35632 1341.7422 4291477979
-49.06422 821.35632 1341.7422 4290491338
9.8128443 821.35632 1341.7422 4290559137
-51.517429 823.23181 1343.3236 4292202474
7.359633 823.23181 1343.3236 4284383124
9.7761469 829.47644 1342.0487 4289899197
7.3321099 831.34497 1343.6241 4288317814
-32.392662 791.74518 1344.2434 4285618793
-28.655045 791.74518 1344.2434 4285356906
-17.442202 791.74518 1344.2434 4291605928
-13.704587 791.74518 1344.2434 4291803589
-39.867889 793.65015 1345.8496 4285817707
-37.376148 793.65015 1345.8496 4285817707
-34.884403 793.65015 1345.8496 4286013803
-32.392662 793.65015 1345.8496 4286079596
-28.655045 793.65015 1345.8496 4285620076
-24.917431 793.65015 1345.8496 4285291361
-22.425688 793.65015 1345.8496 4285554789
-44.686237 800.0238 1344.6836 4286014834
-32.273396 800.0238 1344.6836 4286146415
-28.549541 800.0238 1344.6836 4285819252
-24.825687 800.0238 1344.6836 4286278006
-22.343119 800.0238 1344.6836 4286278006
-19.86055 800.0238 1344.6836 4286343799
-17.377981 800.0238 1344.6836 4286475385
-13.654128 800.0238 1344.6836 4286147435
-9.930275 800.0238 1344.6836 4285490793
-7.4477062 800.0238 1344.6836 4286411639
-4.9651375 800.0238 1344.6836 4288710800
-2.4825687 800.0238 1344.6836 4292000450
1.2412844 800.0238 1344.6836 4292003548
4.9651375 800.0238 1344.6836 4292267232
7.4477062 800.0238 1344.6836 4292069852
-42.203671 801.92175 1346.2839 4286211699
-39.7211 801.92175 1346.2839 4286145902
-37.238533 801.92175 1346.2839 4286145902
-34.755962 801.92175 1346.2839 4286212213
-32.273396 801.92175 1346.2839 4286212213
-28.549541 801.92175 1346.2839 4286212213
-24.825687 801.92175 1346.2839 4286278008
-19.86055 801.92175 1346.2839 4286278008
-17.377981 801.92175 1346.2839 4286804352
-14.895412 801.92175 1346.2839 4286541944
-9.930275 801.92175 1346.2839 4286344049
-7.4477062 801.92175 1346.2839 4286409842
-4.9651375 801.92175 1346.2839 4286213507
-2.4825687 801.92175 1346.2839 4290753481
1.2412844 801.92175 1346.2839 4291872478
4.9651375 801.92175 1346.2839 4292332254
7.4477062 801.92175 1346.2839 4292003546
-42.016514 808.76892 1344.2091 4286870647
-39.544952 808.76892 1344.2091 4286804600
-37.073395 808.76892 1344.2091 4286607220
-34.601833 808.76892 1344.2091 4286672248
-29.658716 808.76892 1344.2091 4286476150
-24.715597 808.76892 1344.2091 4286476150
-22.244038 808.76892 1344.2091 4286476150
-19.772476 808.76892 1344.2091 4286541946
-17.300917 808.76892 1344.2091 4286804861
-13.593578 808.76892 1344.2091 4287002494
-9.8862381 808.76892 1344.2091 4287068801
-7.4146791 808.76892 1344.2091 4286608250
0 808.76892 1344.2091 4289898686
4.943119 808.76892 1344.2091 4292135134
7.4146791 808.76892 1344.2091 4292069341
-42.016514 810.65845 1345.8022 4286870906
-39.544952 810.65845 1345.8022 4286738555
-37.073395 810.65845 1345.8022 4286606968
-34.601833 810.65845 1345.8022 4286738044
-32.130276 810.65845 1345.8022 4286869373
-28.422935 810.65845 1345.8022 4286541944
-24.715597 810.65845 1345.8022 4286607739
-22.244038 810.65845 1345.8022 4286804861
-19.772476 810.65845 1345.8022 4286477949
-17.300917 810.65845 1345.8022 4286609535
-13.593578 810.65845 1345.8022 4286741122
-9.8862381 810.65845 1345.8022 4286872707
-7.4146791 810.65845 1345.8022 4286412156
-4.943119 810.65845 1345.8022 4285556336
0 810.65845 1345.8022 4289898167
4.943119 810.65845 1345.8022 4292333279
7.4146791 810.65845 1345.8022 4292069850
-46.78532 818.84167 1346.1621 4289438394
-44.322937 817.90045 1345.3684 4288780718
4.9247708 818.84167 1346.1621 4287468939
7.387156 817.90045 1345.3684 4289636521
4.9064221 826.0451 1345.6957 4285754757
7.359633 826.0451 1345.6957 4289241530
4.8880734 833.2135 1345.1997 4288645789
-25.009174 789.16034 1348.6042 4285815906
-20.007339 789.16034 1348.6042 4289171587
-42.359634 796.50757 1348.2589 4285883248
-39.867889 796.50757 1348.2589 4286014316
-37.376148 796.50757 1348.2589 4286145902
-34.884403 796.50757 1348.2589 4286080365
-27.409174 795.55505 1347.4558 4285883250
-39.7211 803.8197 1347.8842 4286539379
-37.238533 803.8197 1347.8842 4286605172
-34.755962 803.8197 1347.8842 4286540408
-32.273396 803.8197 1347.8842 4286474615
-27.308256 803.8197 1347.8842 4286343799
-7.4477062 803.8197 1347.8842 4286672500
-4.9651375 803.8197 1347.8842 4285490287
-2.4825687 803.8197 1347.8842 4289437866
1.2412844 803.8197 1347.8842 4291017428
4.9651375 803.8197 1347.8842 4292003546
-32.273396 805.71765 1349.4845 4286672248
-27.308256 805.71765 1349.4845 4286410357
-4.9651375 805.71765 1349.4845 4285687934
-2.4825687 805.71765 1349.4845 4288319397
2.4825687 805.71765 1349.4845 4292003805
-42.016514 812.54797 1347.3955 4286543754
-39.544952 812.54797 1347.3955 4286476934
-37.073395 812.54797 1347.3955 4286411141
-34.601833 812.54797 1347.3955 4286804863
-32.130276 812.54797 1347.3955 4287068292
-28.422935 812.54797 1347.3955 4286805879
-24.715597 812.54797 1347.3955 4286870656
-22.244038 812.54797 1347.3955 4286870656
-19.772476 812.54797 1347.3955 4286870656
-17.300917 812.54797 1347.3955 4287002499
-13.593578 812.54797 1347.3955 4287002756
-9.8862381 812.54797 1347.3955 4286806660
-7.4146791 812.54797 1347.3955 4286017144
0 812.54797 1347.3955 4290949572
4.943119 812.54797 1347.3955 4292333277
7.4146791 812.54797 1347.3955 4292267484
-42.016514 814.4375 1348.9886 4287596442
-39.544952 814.4375 1348.9886 4287267479
-37.073395 814.4375 1348.9886 4286806928
-34.601833 814.4375 1348.9886 4286870910
