# .PCD v0.7 - Point Cloud Data file format
VERSION 0.7
FIELDS x y z rgb
SIZE 4 4 4 4
TYPE F F F U
COUNT 1 1 1 1
WIDTH 1045
HEIGHT 1
VIEWPOINT 0 0 0 1 0 0 0
POINTS 1045
DATA ascii
43.985321 780.45715 764.42456 4294373375
46.522934 780.45715 764.42456 4294636287
48.900917 782.77814 762.45752 4294768127
42.385323 778.90979 765.73596 4294504703
40.689907 780.854 767.37531 4294702079
43.209175 781.24011 767.04688 4294373119
46.623856 780.854 767.37531 4294438654
49.987156 781.24011 767.04688 4294833663
52.500916 781.62628 766.71844 4294965247
54.194496 781.62628 766.71844 4294966015
34.944038 776.3446 770.11328 4283651710
37.500916 776.3446 770.11328 4292860651
35.719265 779.18951 769.896 4291536290
37.420185 779.18951 769.896 4293122802
39.121101 778.53931 769.34778 4294966015
34.811008 781.64404 770.00354 4287395389
38.20734 781.64404 770.00354 4294702587
40.689907 782.79822 769.01465 4294768127
43.233028 782.79822 769.01465 4294504703
46.700916 781.64404 770.00354 4294636543
50.014679 782.79822 769.01465 4294899711
52.557796 782.79822 769.01465 4294966271
55.100918 782.79822 769.01465 4294966783
34.755962 784.09442 770.10754 4289235022
38.104588 784.86249 769.44714 4294506495
40.689907 784.09442 770.10754 4294702079
43.185322 784.86249 769.44714 4294570495
45.776146 784.09442 770.10754 4294965247
50.862385 784.09442 770.10754 4294967295
52.557796 784.09442 770.10754 4294966783
55.100918 784.09442 770.10754 4294966527
57.644035 784.09442 770.10754 4294967039
34.962688 787.78613 770.60425 4292462014
38.06422 787.57056 770.42249 4294966015
40.601833 787.57056 770.42249 4294636287
43.13945 787.57056 770.42249 4294702079
45.677063 788.21722 770.96777 4294966015
55.827522 788.21722 770.96777 4294967295
58.365135 788.21722 770.96777 4294967295
59.266056 748.13336 773.79492 4294570495
61.880733 748.13336 773.79492 4294307582
28.216515 774.68146 772.63513 4285549680
31.636698 774.02777 772.08386 4282063938
28.977982 778.95093 772.31091 4290421448
31.534863 778.29938 771.76147 4285750873
34.091743 777.64777 771.21204 4280418304
28.125687 780.25409 773.40967 4287663506
31.466972 781.79022 772.08887 4286871676
47.625687 781.79022 772.08887 4294900479
49.326607 781.79022 772.08887 4294966783
28.915596 783.09058 773.1853 4290225027
31.41468 784.2406 772.19287 4285357156
33.908257 785.39056 771.20044 4282986337
46.700916 784.2406 772.19287 4294966271
50.014679 785.39056 771.20044 4294967295
52.557796 785.39056 771.20044 4294966783
55.100918 785.39056 771.20044 4294966783
57.644035 785.39056 771.20044 4294967295
31.365139 787.33478 772.83984 4286079346
47.471561 786.68671 772.29333 4294966527
50.014679 787.33478 772.83984 4294966783
52.557796 787.33478 772.83978 4294967295
54.253212 786.68671 772.29333 4294967295
32.14312 790.80396 773.1488 4294230136
34.680733 790.15723 772.60352 4293911023
38.06422 790.15729 772.60352 4294899967
40.601833 789.51056 772.05823 4294570495
43.13945 790.15723 772.60352 4294900223
46.522934 790.15723 772.60352 4294900735
50.752293 790.80396 773.1488 4294967295
54.981651 790.15723 772.60352 4294967295
58.365135 790.15729 772.60352 4294967295
38.783485 794.38043 772.24036 4294898943
40.469727 793.73584 771.69684 4294439167
42.999084 794.38043 772.24036 4294967039
45.528439 794.38043 772.24036 4294967295
35.411011 795.66956 773.32727 4294965247
37.940369 795.66956 773.32727 4294965503
40.469727 795.66956 773.32727 4294966271
42.999084 795.66956 773.32727 4294967295
46.371559 795.66956 773.32727 4294967295
40.381653 798.47522 773.07678 4294966527
61.009174 749.466 774.91858 4294241535
25.651377 776.64258 774.28857 4286473068
27.361467 776.64258 774.28857 4287658142
23.941284 779.25732 776.49329 4288049860
25.651377 777.94995 775.39099 4287325075
25.568808 782.20886 775.05786 4286274214
27.273394 781.55725 774.50842 4287198806
25.568808 784.16364 776.70605 4288840812
28.065138 785.04114 774.82996 4288513400
27.21468 786.9917 776.47461 4288710802
28.822016 790.5752 775.57196 4286406504
30.517431 790.5752 775.57196 4289298771
49.166973 789.27905 774.47913 4294967295
52.557796 789.27905 774.47913 4294967295
55.948624 791.22327 776.11835 4294967295
31.720184 793.71399 775.60248 4294965480
34.398777 792.52838 774.60278 4294966783
37.218349 792.09729 774.23926 4294965503
47.368809 792.09729 774.23926 4294967295
50.075596 793.13196 775.11169 4294967295
52.444042 793.39062 775.32983 4294967295
54.13578 792.74396 774.78455 4294967295
58.365131 793.39062 775.32983 4294967295
34.56789 796.95868 774.41418 4294966271
37.940369 796.95868 774.41418 4294967039
42.999084 796.95868 774.41418 4294967295
46.371559 796.95868 774.41418 4294967295
48.900917 796.95868 774.41418 4294967295
32.038532 798.89246 776.04468 4294967295
34.56789 798.89246 776.04468 4294966015
37.659328 798.67755 775.86353 4294967039
40.469727 798.24786 775.50122 4294966527
42.999084 798.24786 775.50122 4294967295
46.371559 798.8924 776.04468 4294967295
49.744034 798.89246 776.04468 4294967295
35.333946 802.33423 776.33057 4294966271
38.138226 801.90546 775.96906 4294966783
40.381653 801.69104 775.78827 4294967295
42.905502 801.69104 775.78833 4294967295
46.270645 802.33423 776.33057 4294967295
48.794495 802.33423 776.33057 4294967295
20.565138 779.03424 778.92114 4280093210
22.278898 777.72406 777.81653 4288113294
23.086239 781.21838 778.14679 4280158747
20.521101 783.17944 779.80029 4282654512
23.047707 784.32312 778.80261 4285879635
25.568808 785.4668 777.80493 4289170808
20.455046 786.76996 778.90369 4285028441
23.011927 786.76996 778.90369 4286606448
25.513762 788.29205 777.57104 4288645007
27.21468 788.29205 777.57104 4288052357
23.245871 790.45929 779.39844 4287529116
25.513762 790.24261 779.2157 4286146175
27.21468 789.59241 778.66748 4286075482
27.974312 793.81555 778.30414 4291340462
55.100918 793.16748 777.75769 4294967295
25.431192 795.75983 779.94348 4285364372
27.943119 796.51526 779.27246 4291871980
30.451376 796.62402 778.05615 4294967295
52.444038 796.62402 778.05615 4294967295
54.981651 796.62402 778.05615 4294967295
58.083179 796.40845 777.87433 4294967295
27.913761 798.56403 779.69189 4289704920
31.195412 800.82611 777.67517 4294967295
33.72477 800.82611 777.67517 4294966015
50.587154 800.82611 777.67517 4294967295
53.116516 800.82611 777.67517 4294967295
55.64587 800.82611 777.67517 4294967295
57.332111 800.82611 777.67517 4294967295
26.979816 803.40442 779.84912 4282735237
28.666056 802.75989 779.3056 4289445857
31.160549 802.86792 778.08868 4294966783
34.492661 803.62054 777.41528 4294967295
37.857796 803.62054 777.41528 4294967295
40.381653 803.62054 777.41528 4294967295
42.905502 803.62054 777.41528 4294967295
46.270645 803.62054 777.41528 4294967295
49.989605 803.04681 778.67548 4294967295
53.116512 802.75989 779.30566 4294967295
55.64587 802.75989 779.3056 4294967295
28.60367 806.19324 779.58447 4283852946
31.127522 804.90686 778.49988 4293058040
34.492661 804.90686 778.49988 4294967039
37.857796 804.90686 778.49988 4294967039
40.381653 804.90686 778.49988 4294967295
42.905502 804.90686 778.49988 4294967295
46.551071 805.33563 778.86139 4294967295
48.794495 805.55005 779.04218 4294967295
28.510092 809.72479 778.63806 4282997108
31.025688 809.08374 778.09753 4291017959
34.379814 809.08374 778.09753 4294967295
37.733944 809.08374 778.09753 4294967295
41.088074 809.08374 778.09753 4294967295
43.603668 809.08374 778.09753 4294967295
45.839756 809.29742 778.27765 4294967295
28.510092 811.00696 779.71912 4283324014
30.990826 811.75391 779.04102 4290559444
34.341286 811.75391 779.04102 4294967295
37.733944 811.00696 779.71912 4294967295
40.998165 812.50092 778.36292 4294967295
43.508255 812.50092 778.36292 4294967295
46.119267 811.00696 779.71912 4294967295
48.634861 811.00696 779.71912 4294967295
41.834862 813.78027 779.44153 4294967295
43.508255 813.78027 779.44153 4294967295
45.181652 813.78027 779.44153 4294967295
17.192661 778.05286 782.01782 4284372628
19.708256 780.34442 780.02588 4280951113
18.811008 785.79419 782.005 4283255135
20.455046 788.07312 780.00244 4285684338
22.159634 788.07312 780.00244 4287921300
20.455046 790.02783 781.6507 4282730083
22.962383 792.84332 781.40857 4282664551
25.513762 792.19318 780.86035 4286476182
25.431192 797.05597 781.03638 4282212475
23.735781 798.35211 782.12927 4282404720
25.376146 799.85742 780.78247 4283391615
27.06789 799.85742 780.78247 4283524233
57.519264 799.85742 780.78247 4294967295
23.684404 802.44409 782.9635 4283588477
25.376146 801.15076 781.87292 4284967820
55.827522 802.44409 782.9635 4294967295
57.519264 801.79742 782.41821 4294967295
25.855658 805.12329 781.29834 4284838294
50.587154 805.33813 781.47955 4294967295
53.116516 805.33813 781.47949 4294967295
26.360245 808.3371 781.39209 4285166225
49.63578 808.12268 781.21136 4294967295
26.079817 810.05225 782.83826 4285427601
28.60367 810.05225 782.83826 4283652725
31.025688 812.28906 780.80017 4290362064
34.379814 812.28906 780.80017 4294967295
37.733944 812.28906 780.80017 4294967295
40.249542 812.28906 780.80017 4294967295
46.957798 812.28906 780.80017 4294967295
49.555962 811.17065 781.81921 4294967295
52.159634 810.05225 782.83826 4294967295
31.305199 813.9986 782.24164 4292203486
34.659328 813.9986 782.24164 4294967295
37.733944 814.21228 782.42188 4294967295
40.808563 813.9986 782.24164 4294967295
43.603668 813.57123 781.88123 4294967295
46.094498 814.58435 782.0816 4294967295
48.634861 814.21228 782.42181 4294967295
41.834862 816.33893 781.599 4294967295
43.508255 816.33893 781.599 4294967295
17.137615 786.89532 785.54944 4280886085
18.811008 787.75525 783.65857 4281807944
17.100918 789.71637 785.31213 4281149264
19.633026 790.84949 784.30548 4280624459
19.602753 793.93738 784.94714 4281479243
22.962385 794.79388 783.05322 4281418589
22.111927 796.74438 784.69788 4282335837
23.735781 799.64832 783.22217 4283849082
22.862385 802.98901 784.73096 4283521913
55.827522 803.73743 784.05396 4294967295
57.644035 802.2406 785.40796 4294967295
21.992661 805.03082 785.14453 4283194223
55.827522 805.03082 785.14453 4294967295
23.60734 808.56104 784.19696 4285492881
25.293577 809.85016 785.28394 4286282644
53.538071 808.23871 783.92523 4294967295
26.921101 811.98175 784.46515 4284309638
28.60367 811.98175 784.46515 4283980672
30.286238 812.62494 785.00745 4288448421
33.651375 812.62494 785.00745 4294967295
50.477066 811.98175 784.46515 4294967295
52.159634 811.98175 784.46515 4294967295
35.218349 816.1355 784.04346 4294967295
38.572475 816.1355 784.04346 4294967295
41.367584 816.56281 784.40381 4294967295
43.603668 816.77655 784.58398 4294967295
46.119267 816.77649 784.58398 4294967295
49.473396 816.77649 784.58398 4294967295
15.423853 788.20551 786.65417 4281280068
16.245872 791.02374 786.41443 4281347144
16.245872 792.9848 788.06787 4281544261
19.318655 796.32648 786.96149 4281742674
17.045872 798.49847 788.79285 4280889167
19.844038 799.56195 787.07349 4281219154
22.111927 798.69501 786.34253 4282995050
17.009174 801.29572 788.5354 4281021007
19.527523 802.41626 787.51813 4281548118
57.644035 803.53674 786.50085 4294967295
16.106422 806.12909 788.68665 4281479246
19.475229 805.57849 786.91437 4281613141
21.992661 806.32416 786.23499 4283718770
55.888073 806.22662 787.46082 4294967295
57.644035 804.83289 787.59375 4294967295
16.917431 808.91089 788.41602 4281085515
19.173088 808.04865 787.68903 4281743187
21.992661 807.61749 787.32556 4284243318
20.234863 811.78381 786.91443 4282202709
22.764221 811.78381 786.91443 4285624721
25.855658 811.99872 787.09552 4284901772
28.666056 812.42841 787.45789 4285494164
53.959633 811.78381 786.91443 4294967295
20.234863 813.71759 788.54492 4282466907
22.764221 813.71759 788.54492 4285493394
26.136696 813.71759 788.54492 4284244101
28.666056 813.71759 788.54492 4285823128
31.144035 814.18445 786.97638 4292465631
34.212231 814.7688 786.81512 4294967295
37.57737 814.7688 786.81512 4294967295
40.381653 815.19757 787.17664 4294967295
52.72049 814.7688 786.81512 4294967295
55.524769 815.19757 787.17664 4294967295
38.699081 816.48395 788.26135 4294967295
42.905502 816.48395 788.26135 4294967295
46.270645 816.48395 788.26135 4294967295
49.473396 818.69971 786.20557 4294967295
53.000916 816.48395 788.26135 4294967295
33.572475 748.73669 791.30798 4280950083
13.754128 788.56799 790.88403 4281281597
13.710092 792.13611 789.96838 4281281597
16.245872 794.94586 789.72144 4281347404
15.390825 796.25323 790.82385 4281085767
15.341285 799.80164 789.89172 4281413183
16.17523 801.85046 790.31116 4281413961
57.831192 803.89642 790.72827 4294967295
13.60734 805.19684 791.82471 4281281095
13.563303 808.72137 790.87231 4280886085
15.258716 807.42523 789.77942 4281741646
55.948624 808.0733 790.32587 4294967295
13.563303 810.01758 791.96521 4280689215
16.240734 811.23889 790.37903 4281479503
19.03211 811.82092 790.86975 4281941079
21.992661 812.79089 791.68762 4285428621
23.60734 815.00671 789.63184 4285888670
26.136696 815.00671 789.63184 4284177538
28.666056 815.00671 789.63184 4287269039
31.195412 815.00671 789.63184 4292991476
34.56789 815.00671 789.63184 4294967295
37.097248 815.00671 789.63184 4294967295
40.469727 815.00671 789.63184 4294967295
31.195412 816.29584 790.71887 4293847026
34.56789 816.29584 790.71887 4294967295
37.940369 816.29584 790.71887 4294967295
40.469727 816.94043 791.26233 4294967295
42.999084 816.94043 791.26233 4294967295
46.321102 817.67761 790.57581 4294967295
49.390827 817.7085 790.16583 4294967295
53.000916 817.77026 789.34595 4294967295
50.477066 819.05658 790.43054 4294967295
52.159634 819.05658 790.43054 4294967295
8.6422014 784.80487 794.2511 4280623923
6.8917432 787.06274 792.23083 4280557874
10.337615 787.72131 792.78613 4280754489
12.060551 787.72131 792.78613 4281083453
10.337615 789.69714 794.45203 4280951349
12.907339 790.44696 793.77625 4281149503
13.710092 794.75647 792.17773 4281019974
13.710092 796.06665 793.28247 4281281597
13.680734 798.86798 793.02856 4281411900
59.85321 800.17542 794.13086 4294967295
13.636697 802.40802 792.08923 4281017923
57.955963 803.71118 793.18811 4294967295
11.93211 805.01434 794.28687 4280886839
15.823853 812.1778 793.78668 4281281612
19.737001 814.51538 793.14166 4282928231
22.838531 814.73096 793.32343 4286020250
25.376146 814.73096 793.32343 4284046209
27.913761 814.73096 793.32343 4287135398
31.297249 815.37762 793.86865 4294373881
34.680733 815.37762 793.86865 4294967295
38.06422 815.37762 793.86865 4294967295
23.684404 816.67096 794.95923 4286149788
25.376146 816.67096 794.95923 4283913083
27.913761 816.67096 794.95923 4289106351
31.297249 816.67096 794.95923 4294900735
34.680733 816.67096 794.95923 4294967295
38.06422 816.67096 794.95923 4294967295
40.601833 816.67096 794.95923 4294967295
43.06789 817.77258 793.92603 4294967295
46.371559 818.87415 792.89282 4294967295
49.744034 818.87415 792.89282 4294967295
52.273396 818.87415 792.89282 4294967295
49.744034 820.16327 793.97974 4294967295
7.9508257 787.71198 796.70227 4280623407
10.370643 788.7691 797.59363 4281082935
12.060551 791.01434 795.56274 4281477693
12.060551 792.33154 796.67334 4281214777
12.034863 795.79718 796.97943 4281083191
10.282569 801.30737 797.70129 4280557874
59.85321 801.48279 795.23315 4294967295
11.93211 806.3175 795.38562 4280887091
11.93211 808.27234 797.03387 4280952117
13.60734 809.0979 795.11401 4280886087
13.60734 810.39825 796.21045 4281281095
15.308257 811.69861 797.30688 4281609033
16.954128 813.90601 795.2439 4281346890
19.214678 814.77008 795.97247 4283058014
22.040367 815.20215 796.33679 4286478742
23.735781 816.49835 797.42969 4286083736
25.431192 816.49835 797.42969 4283517810
27.974312 816.49835 797.42969 4289370279
31.365139 816.49835 797.42969 4294967295
34.680733 817.96436 796.04968 4294967295
38.06422 817.96436 796.04968 4294967295
40.601833 817.96436 796.04968 4294967295
43.13945 817.96436 796.04968 4294967295
46.522934 817.96436 796.04968 4294967295
38.06422 819.25769 797.14026 4294967295
40.601833 819.25769 797.14026 4294967295
43.13945 819.25769 797.14026 4294967295
46.522934 819.25769 797.14026 4294967295
49.744034 821.45245 795.06677 4294967295
7.7944956 788.59644 800.06421 4280557874
10.370643 790.75122 799.26489 4280951349
6.9137616 792.73328 800.93616 4280294177
10.337615 794.96594 798.89453 4280754226
10.315597 797.7688 798.64185 4280557874
12.034863 797.7688 798.64185 4280886839
8.5688076 803.92773 799.91077 4280360241
10.282569 802.61755 798.80603 4280689712
10.26055 806.05859 799.09143 4280688944
11.115597 808.01965 800.745 4280755505
13.636697 810.87866 799.23151 4281477446
16.184404 812.54895 799.9859 4281873988
19.560551 814.29938 799.49976 4283717733
22.962385 814.94958 800.04797 4286083228
25.513762 815.59973 800.59619 4283713651
28.065138 815.59973 800.59619 4290555574
30.616514 815.59973 800.59619 4294967295
32.212845 817.79449 798.52258 4294967295
34.755962 817.79449 798.52258 4294967295
32.212845 819.09064 799.61548 4294967295
35.038532 819.52271 799.9798 4294967295
38.084404 820.83331 799.12274 4294967295
40.601833 821.19769 798.776 4294967295
43.13945 821.19769 798.776 4294967295
46.522934 821.19763 798.776 4294967295
49.060551 821.19769 798.776 4294967295
40.601833 823.13776 800.41187 4294967295
43.13945 823.13776 800.41187 4294967295
46.522934 823.13776 800.41187 4294967295
8.0831804 790.36206 801.55292 4280623142
7.7779818 794.05469 802.05029 4280557092
7.753211 797.60034 801.11584 4280492583
7.753211 799.57617 802.78174 4280294701
8.5688076 805.89301 801.56787 4280294958
8.5688076 807.85828 803.22485 4280556080
11.126606 808.59265 802.53607 4280821298
11.970642 810.6344 802.94971 4281148984
13.680734 810.6344 802.94971 4280951878
17.045872 814.13654 801.97852 4282865256
19.602753 814.78809 802.52789 4285427090
22.727829 815.00531 802.711 4285688721
25.568808 815.4397 803.07727 4284043124
27.273394 815.4397 803.07727 4287791495
28.915596 816.90009 801.69263 4294967295
31.466972 817.55029 802.24084 4294967295
34.018349 818.20044 802.78906 4294967295
34.868805 819.50085 803.8855 4294967295
38.14679 821.68298 801.80127 4294967295
40.689907 823.6272 803.44061 4294967295
43.233028 822.97913 802.89417 4294967295
46.522934 824.43109 801.50232 4294967295
43.13945 826.37109 803.13806 4294967295
45.677063 825.72443 802.5929 4294967295
5.2128439 789.01227 804.33887 4280097323
5.1963301 795.87964 806.20514 4279900199
6.9137616 796.69751 804.27869 4280229162
5.1853213 799.34033 806.50708 4280031782
5.1688075 802.86914 805.55835 4279965989
6.8917432 801.55194 804.44775 4280097575
5.1688075 804.18634 806.66895 4279768611
7.306881 805.9837 805.56842 4280161071
10.282569 809.16846 804.32959 4280951349
11.99633 811.13373 805.98669 4280951349
13.680734 811.94177 804.052 4280622915
15.390825 811.94177 804.052 4282728291
13.680734 813.24915 805.1543 4280623421
16.245872 813.90289 805.70557 4282463066
19.666054 814.55658 806.25671 4288314017
23.011927 816.74292 804.17603 4285687432
25.568808 817.39453 804.72546 4285031555
28.125687 817.39453 804.72546 4292595679
31.250765 817.61176 804.90863 4294967295
32.387157 819.34924 806.37366 4294967295
34.905502 820.0752 805.6778 4294967295
37.420185 820.80121 804.98193 4294967295
39.121101 820.80121 804.98193 4294967295
39.121101 822.10156 806.07837 4294967295
3.4752293 794.32593 808.81921 4279965739
3.4642203 797.86597 807.88 4280097575
3.4568808 800.66174 807.62122 4280031782
3.4568808 802.64386 809.29248 4279899170
5.1688075 806.16211 808.33496 4280095776
6.8917432 806.82074 808.89026 4280358950
8.5963306 808.28394 807.50793 4280753452
10.315597 808.94116 808.06207 4280754226
10.315597 810.91272 809.72449 4280820271
12.034863 810.91272 809.72449 4281017394
13.710092 813.75415 808.19611 4280820030
16.280735 814.40924 808.74841 4280818482
19.697247 815.42798 808.95349 4284372849
22.817125 815.81573 808.19043 4284044405
23.941284 817.17133 808.46143 4283710798
25.651377 817.17133 808.46143 4290026669
28.501532 817.60712 808.82886 4294242548
31.351683 818.04291 809.19629 4294967295
34.944038 820.6524 807.47253 4294967295
37.500916 821.30396 808.02191 4294967295
40.0578 821.95557 808.57129 4294967295
0.57614678 805.06641 811.33514 4279832350
4.0330276 805.5069 811.70654 4279898651
7.753211 808.79651 810.55615 4280425001
7.753211 810.77234 812.22217 4280491050
10.337615 810.77234 812.22217 4280754478
12.034863 812.22711 810.83264 4281083187
13.754128 813.5415 811.94092 4281411900
16.333027 813.5415 811.94092 4281083705
20.565138 817.0296 810.95789 4279769655
23.13578 817.0296 810.95789 4281936468
25.706423 817.0296 810.95789 4292195819
28.277065 817.68469 811.51025 4294966012
31.704586 818.33978 812.06262 4294967295
35.341896 820.22186 811.03351 4294967295
37.622017 821.09344 811.76843 4294967295
39.332111 821.09344 811.76843 4294967295
35.911926 822.40082 812.87085 4294967295
37.622017 822.40082 812.87085 4294967295
39.332111 822.40082 812.87085 4294967295
-1.7321101 804.487 813.46265 4279504143
1.7321101 805.14911 814.02094 4279832859
0.43302754 808.2265 814.65369 4280030234
4.3211012 808.59015 814.30634 4280293918
6.9137616 809.91162 815.42041 4280557093
8.6146793 812.08954 813.33276 4280820521
10.337615 812.08954 813.33276 4280951600
12.060551 812.08954 813.33276 4281214773
10.337615 813.40674 814.44336 4280820271
12.914679 814.42761 814.65015 4281214775
16.35046 814.78992 814.30164 4281412672
18.911926 814.8559 813.04919 4280228664
19.771561 816.17029 814.15747 4280756029
22.350458 816.17029 814.15747 4279177772
24.929358 816.17029 814.15747 4289364900
28.081345 817.04657 814.8963 4294967295
31.704586 819.64996 813.16736 4294967295
34.27523 819.64996 813.16736 4294967295
-1.7376146 803.62488 816.65979 4279832852
-1.7376146 805.61755 818.33997 4279702548
0.86605507 809.1217 817.37054 4280227360
3.4642203 809.78381 817.92883 4280557345
5.1853213 811.23303 816.53467 4280557345
7.7779818 811.89368 817.09174 4280623659
10.370643 812.55444 817.6488 4281017394
10.370643 813.87585 818.76294 4281082935
12.963303 813.87585 818.76294 4281609533
16.367889 816.04114 816.66467 4281740862
19.813763 816.04114 816.66467 4280886075
22.398165 816.04114 816.66467 4278190104
24.982569 816.04114 816.66467 4290355360
28.42844 817.35834 817.77527 4294967295
32.116207 818.75787 817.21124 4294967295
34.42202 818.7373 817.62994 4294967295
-3.4862385 802.77118 819.86414 4279898899
-3.4862385 804.10382 820.98779 4279505940
1.1584097 808.49579 820.76691 4280358946
4.3302751 811.10803 819.04541 4280491300
7.7944956 812.43225 820.16199 4280885807
10.39266 813.75647 821.27844 4281280570
12.963303 815.19727 819.8772 4281543486
16.420183 815.19727 819.8772 4282004291
19.877064 815.19727 819.8772 4280621870
22.469725 815.19727 819.8772 4279042073
25.062386 815.19727 819.8772 4291804091
17.284403 816.51862 820.99133 4282333253
19.877064 816.51862 820.99133 4280553245
22.469725 816.51862 820.99133 4285350744
25.062386 816.51862 820.99133 4292199646
28.519266 816.51862 820.99133 4294967295
31.111927 816.51862 820.99133 4294967295
34.458717 819.99274 819.99646 4294967295
-3.493578 803.98724 823.50549 4279703319
-1.7431192 806.10272 822.67316 4280031258
0.87155962 808.10168 824.35864 4280359202
3.4862385 808.10168 824.35864 4280622886
5.2128439 810.26697 822.26025 4280754728
8.1088686 812.03827 823.75372 4281083187
10.425688 812.92383 824.50049 4281214275
12.990826 815.08069 822.39502 4281477698
15.588991 815.08069 822.39502 4282135879
17.3211 816.40491 823.5116 4282071367
19.919266 816.40491 823.5116 4279697929
25.115597 816.40491 823.5116 4294174703
28.56422 817.42578 823.71826 4294967295
31.710093 817.80304 822.94629 4294967295
32.840366 819.16144 823.21973 4294967295
-7.0238533 800.36438 826.99097 4279375372
-4.380734 802.4834 826.16156 4279703058
-3.5045872 804.49286 827.85596 4280030237
-1.746789 806.65814 825.75757 4280096030
0.87339449 808.71399 826.18292 4280425763
4.3577981 809.43433 825.4823 4280820521
7.8440366 811.43323 827.16779 4281214773
10.458715 812.09955 827.72961 4281280068
13.03211 814.25226 825.62061 4282069578
15.638532 814.25226 825.62061 4282332999
19.982569 815.58069 826.74072 4279042052
22.588991 814.9165 826.18066 4291664285
25.195412 815.58069 826.74072 4294965759
-8.8073397 799.53735 830.21777 4279701777
-7.0238533 802.37805 828.6889 4279832599
-5.26789 802.37805 828.6889 4279898648
-7.0238533 804.39172 830.38672 4279898899
-4.3862386 805.11206 829.6861 4280096283
-1.7522936 805.83246 828.98547 4280293153
-1.7522936 807.17212 830.11499 4280293153
0.87614679 808.25055 829.06226 4280491300
4.3669724 809.32898 828.00952 4281017644
7.8605504 811.33215 829.69855 4281542970
10.480734 811.99988 830.2616 4281872450
13.073395 813.43219 828.85327 4282463818
16.850153 813.8764 829.22778 4281937209
20.045872 814.76483 829.97681 4282261248
22.660551 814.76483 829.97681 4294964901
25.27523 814.76483 829.97681 4294967295
28.761467 814.76483 829.97681 4294967295
-10.634862 793.84326 833.26477 4279832852
-10.601835 797.36786 832.3125 4279635727
-8.8348627 796.01697 831.17358 4279832852
-10.601835 798.71869 833.45154 4279437844
-8.8073397 800.88397 831.35327 4279635480
-8.2201834 803.12842 833.24561 4279898901
-4.3899083 805.73419 831.51868 4280096284
-3.5119267 807.07666 832.65063 4280294173
-1.7559633 807.74786 833.21655 4280359966
0.87706423 808.46545 832.51349 4280688678
4.3853211 808.46539 832.51355 4281083693
7.0091743 809.85144 832.37415 4281541689
8.7614679 811.19104 833.50366 4281675324
10.513762 811.19104 833.50366 4282331457
13.100918 813.33533 831.38757 4282594629
16.303364 814.22559 832.13818 4281605414
17.46789 816.00616 833.63953 4283367424
20.066973 816.05182 832.37 4290545543
22.684404 816.05182 832.37 4294967294
25.001837 816.06708 831.94678 4294967295
-14.179816 797.90851 836.6925 4279701523
-12.368808 800.06958 834.59058 4279701523
-10.601835 800.06958 834.59058 4279701523
-12.368808 802.09583 836.29913 4280225552
-10.601835 802.09583 836.29913 4280030487
-7.6330276 805.37286 835.13812 4280162330
-4.697248 805.82178 835.5166 4280294172
0 809.76154 834.91443 4280557345
7.0238533 809.76154 834.91443 4281675324
8.7798166 811.104 836.04639 4282068285
10.53578 811.104 836.04639 4282463043
13.142202 812.5307 834.63318 4282661447
14.018349 813.87036 835.76282 4282006324
16.35474 814.76343 836.51581 4283378944
20.088074 817.34161 834.76562 4294965689
22.708258 817.34161 834.76562 4294967295
-14.179816 799.9411 838.40637 4280159759
-10.601835 804.12219 838.00769 4280030487
-8.2458715 805.02277 838.76691 4280292891
-4.1100917 808.06616 837.409 4280622116
-1.7614679 808.29065 837.59827 4280687909
0.88073397 808.29065 837.59827 4281083691
4.4036698 808.29065 837.59827 4281806384
7.0458717 808.96393 838.16602 4282068285
8.8073397 810.31061 839.30151 4282594629
10.568808 810.31061 839.30151 4282857540
12.291743 812.44641 837.17822 4283581006
14.047707 813.78888 838.31018 4282914307
17.559633 815.13135 839.44214 4294964472
19.275229 816.54962 838.02185 4294967295
21.027523 816.54962 838.02185 4294967295
-15.985321 799.18353 840.38354 4280159507
-14.209174 800.54144 841.52856 4280093961
-12.420183 801.93652 841.39685 4280226060
-10.634862 803.3288 841.2627 4280291606
-7.9761467 804.68384 842.40527 4280488989
-5.3009176 806.82391 840.28564 4280883493
1.7669724 806.82391 840.28564 4281478195
-3.5339448 808.17474 841.42468 4281147433
-1.7669724 808.17474 841.42468 4281147433
0.88348621 808.17474 841.42468 4281607984
4.4174314 808.17474 841.42468 4282134328
7.0678897 808.17474 841.42468 4282463043
10.601835 809.52563 842.56372 4283057992
12.368808 809.52563 842.56372 4282071097
14.091743 813.00391 841.57239 4285474816
15.853211 813.00391 841.57239 4294225524
-16.034863 798.39294 843.64111 4280093713
-14.253211 799.75507 844.78967 4280226317
-13.343119 802.18713 844.87823 4280357903
-10.65688 803.2572 843.81836 4280423448
-7.1045871 804.61505 844.96338 4280686884
-5.317431 806.03894 843.54785 4281147435
-1.772477 807.39398 844.69043 4281474601
0 807.39398 844.69043 4281344310
5.317431 807.39398 844.69043 4282397250
7.9761467 807.39398 844.69043 4283120962
10.634862 808.74908 845.83301 4281152271
12.407339 808.74908 845.83301 4278652160
14.135779 812.22736 844.84167 4291137373
16.78624 812.22736 844.84167 4294965214
19.436697 812.22736 844.84167 4294967295
16.78624 813.57825 845.98071 4294967295
-16.99633 796.89606 847.61108 4280159507
-12.47156 802.47925 847.08655 4280425245
-10.689908 802.47925 847.08655 4280228380
-8.0174313 803.16028 847.66083 4280622113
-4.4403667 805.97296 846.10828 4281344041
1.7761468 805.97296 846.10828 4281804861
3.5522935 805.97296 846.10828 4282068285
-1.7761468 807.33081 847.25317 4282066739
0 807.33081 847.25317 4282527290
7.9926605 807.33081 847.25317 4283121223
10.65688 808.68872 848.39807 4283437568
12.433027 808.68872 848.39807 4285279763
-19.759632 794.03705 850.4325 4279964444
-19.699083 797.55042 849.47083 4280291606
-17.012844 797.55042 849.47083 4280160020
-16.117432 798.91949 850.62524 4280423448
-13.729664 799.83221 851.39484 4280293916
-10.722936 801.70972 850.36182 4280752927
-8.9357796 801.70972 850.36182 4280687134
-5.3614678 803.07599 851.51379 4281803566
-3.5633028 805.20343 849.38354 4281737517
-1.7816514 806.56549 850.53198 4282593596
1.7816514 805.20343 849.38354 4282790461
4.75107 805.65747 849.76636 4283120453
8.0174313 806.56549 850.53198 4282332477
10.689908 807.92761 851.68054 4288962597
13.362385 807.92761 851.68054 4294960841
-21.622019 794.64783 854.87158 4279898395
-19.820183 794.64783 854.87158 4280161824
-17.963303 796.78363 852.74841 4280489242
-17.065138 798.15698 853.90637 4280423449
-10.744954 801.65771 852.93396 4280950306
-7.7602448 802.11407 853.31879 4281277734
-5.3724771 803.02679 854.08838 4281869359
-3.574312 804.44226 852.66589 4282199094
-1.787156 805.80859 853.81787 4283119942
0.59571868 804.89771 853.04987 4283054404
4.4678898 805.12543 853.24188 4282596414
8.042202 805.80859 853.81787 4281215744
8.042202 807.17487 854.96985 4286464537
10.722936 807.17487 854.96985 4293705113
13.362385 809.28967 852.82898 4294967278
12.47156 810.65173 853.97742 4294967295
-21.622019 796.02533 856.03308 4280290845
-18.919266 796.71411 856.61383 4280488733
-16.216515 797.40283 857.19458 4280489242
-13.173088 799.98804 855.45038 4280883743
-10.777982 800.90356 856.22229 4281408808
-8.9816513 800.90356 856.22229 4281474601
-10.777982 802.27692 857.38013 4281803562
-8.0834866 802.27692 857.38013 4282067248
-4.4770641 804.39587 855.2428 4282791230
-1.7908257 805.76501 856.39722 4283120455
0.89541286 805.08044 855.82001 4283515725
4.4770641 805.08044 855.82001 4282134324
8.9357796 809.22437 856.69794 4294962919
10.722936 808.5412 856.12195 4294967295
-18.977064 795.96631 859.90741 4280555292
-16.216515 798.7804 858.35608 4280752927
-13.814067 799.69873 859.13037 4281343776
-12.612844 801.5354 860.67908 4281804838
-9.9100914 801.5354 860.67908 4282591018
-7.2073393 801.5354 860.67908 4282593848
-4.4908257 803.65021 858.53809 4282923073
1.7963303 803.65021 858.53809 4283450188
3.5926607 803.65021 858.53809 4283315774
-1.7963303 805.0235 859.69604 4283645766
0 805.0235 859.69604 4282857790
5.3889909 805.0235 859.69604 4287256636
7.1853213 805.71014 860.27502 4293509308
-25.508257 788.20935 863.83118 4280159003
-23.686239 788.20935 863.83118 4280290845
-23.638533 791.02057 863.58557 4280489242
-21.754128 793.14801 861.4552 4280555035
-19.941284 794.53394 862.62378 4280621341
-19.941284 795.91986 863.79236 4281080095
-18.073395 798.03888 861.65491 4281212445
-16.266054 798.72974 862.23743 4281475617
-13.555046 800.11145 863.40247 4282132007
-10.844037 800.80237 863.98499 4282985262
-7.2293577 800.80237 863.98499 4283447612
-4.5045872 802.9129 861.84058 4283711299
1.8018348 802.9129 861.84058 4279962897
3.6036696 802.9129 861.84058 4282124800
-1.8018348 804.29047 863.00208 4282988858
0.90091741 804.29047 863.00208 4282717211
4.5045872 804.29047 863.00208 4290348328
-27.495413 782.54474 866.90308 4279832602
-25.508257 789.60229 865.00574 4280423448
-25.456881 792.41071 864.75769 4280555035
-22.729359 793.10583 865.34375 4280818205
-19.034863 797.30579 864.96094 4281212961
-16.315596 798.69177 866.12964 4282133547
-14.502752 798.69177 866.12964 4282591018
-9.0642204 798.69177 866.12964 4283116849
-3.6146789 802.18408 865.15002 4283975753
-1.8073394 803.5658 866.31506 4281079552
0.90091741 805.66797 864.16357 4289555755
4.5045872 805.66797 864.16357 4294895327
0.90091741 807.04547 865.32495 4293181075
-33.192661 776.15839 869.36658 4281475645
-31.348623 776.86328 869.96094 4281146685
-29.504587 776.15839 869.36658 4281081638
-27.577982 779.0033 867.84119 4280094997
-27.495413 783.94611 868.08472 4280096030
-27.412844 788.17346 867.72504 4280423196
-25.508257 793.08466 867.94196 4281147162
-23.686239 793.78113 868.52917 4281475353
-21.842201 795.18256 868.40283 4281410597
-19.092661 797.27625 868.86011 4282330924
-16.365137 797.97131 869.44617 4282594098
-13.637615 797.97131 869.44617 4283184690
-10.000917 797.97131 869.44617 4283513918
-7.2513762 800.0777 867.29822 4283517502
-5.4385319 800.0777 867.29822 4283714882
-3.6256881 801.46362 868.4668 4282329600
-35.141285 774.72321 872.08057 4281803566
-33.192661 779.68286 872.33826 4280490286
-31.348623 778.97797 871.7439 4280359213
-29.504587 778.97797 871.7439 4280227360
-27.495413 788.15021 871.62952 4280686364
-27.495413 789.55157 872.81104 4280884761
-25.585321 793.06348 871.84814 4281344287
-23.757797 793.06348 871.84814 4281672996
-22.47156 797.03131 871.26971 4282330921
-19.131193 797.95996 872.05273 4282858297
-10.93211 797.95996 872.05273 4283451205
-16.365137 799.36145 870.61829 4283122495
-13.637615 799.36145 870.61829 4283384643
-9.0917435 799.36145 870.61829 4283516998
-7.2733946 799.36145 870.61829 4283385412
-5.4550457 799.36145 870.61829 4282530103
-34.268806 775.06934 874.33441 4281213745
-31.442202 778.96521 875.65723 4280291356
-29.592661 778.96521 875.65723 4280422942
-31.348623 783.91217 875.9043 4280096794
-29.416513 786.03119 873.76685 4280489242
-27.495413 792.35425 875.17432 4281475366
-25.585321 794.46063 873.02625 4281805088
-25.585321 795.85779 874.20435 4281936167
-22.844036 796.5564 874.79333 4282594611
-19.131193 799.35291 873.22717 4283055673
-16.398165 800.04938 873.81445 4283580991
-13.968808 799.8172 873.61865 4283843902
-9.7174311 799.8172 873.61865 4282859321
-7.2880735 799.35291 873.22717 4283776321
-4.5550461 799.35291 873.22717 4283507734
-1.8220184 800.04938 873.81445 4291267956
-37.21101 771.86554 877.51917 4281410605
-33.291744 781.08618 877.44562 4280292893
-31.442202 780.37921 876.84949 4280488992
-29.592661 780.37921 876.84949 4280489242
-29.504587 785.32196 877.09302 4280687638
-27.577982 788.84235 876.13721 4281016099
-27.577982 791.65344 878.50745 4281804588
-25.662386 795.15698 877.53748 4282133547
-22.912844 795.85767 878.1283 4282659637
-19.188992 798.6521 876.56042 4283317055
-16.447706 800.04926 877.7384 4284040013
-13.401835 799.5835 877.3457 4283647811
-10.355964 799.58356 877.3457 4283314470
-7.310092 799.35071 877.14941 4285086976
-4.5688076 799.35071 877.14941 4291073900
-7.310092 801.44641 878.9165 4294494660
-35.245872 779.67419 880.17908 4280294173
-33.390827 781.09235 881.37488 4280228380
-31.442202 783.20715 879.23401 4280228380
-29.592661 784.62115 880.42627 4280752927
-27.660551 790.96106 881.84778 4281738539
-25.73945 794.4646 880.87769 4282265389
-23.900917 794.4646 880.87769 4282725940
-19.246788 797.95972 879.90063 4283513411
-18.330275 799.36108 881.08228 4283643971
-16.497248 799.36108 881.08228 4283183420
-13.747706 799.36108 881.08228 4280358402
-10.081652 799.36108 881.08228 4288040750
-35.35046 778.9776 883.51587 4280294177
-33.48991 780.39996 884.71521 4280360222
-31.53578 782.51056 882.57068 4280491551
-29.680735 785.34698 884.96228 4281475366
-23.972477 793.78064 884.22522 4282594098
-22.062386 795.87018 882.06287 4283249725
-20.223854 797.27576 883.24805 4283512122
-18.385321 798.68134 884.43323 4283379781
-16.546789 798.68134 884.43323 4282063922
-13.747706 800.76245 882.26379 4284485397
-10.081652 800.76245 882.26379 4292389763
-12.831193 802.8645 884.03625 4294960346
-10.081652 802.16382 883.44543 4294966012
-37.431194 774.74792 887.79773 4280359970
-35.455048 778.28931 886.85962 4280294177
-33.48991 781.82239 885.91455 4280884261
-31.629358 781.82239 885.91455 4280950054
-29.768806 781.82239 885.91455 4281277988
-34.420185 783.24481 887.11389 4280883490
-31.629358 783.24481 887.11389 4281408554
-31.53578 786.76514 886.15808 4281277988
-29.680735 787.47424 886.75598 4281410340
-27.74312 790.2771 885.19519 4281805865
-25.893578 791.6911 886.38745 4282462512
-24.044037 793.1051 887.57959 4282854960
-22.128441 795.89532 886.00818 4283184956
-20.284403 796.60022 886.60254 4283186498
-19.362385 798.01001 887.79126 4281145871
-16.596331 798.01001 887.79126 4284234775
-14.708257 800.08691 885.61829 4290279268
-37.431194 776.17871 889.00415 4280294177
-37.431194 777.60956 890.21057 4280491299
-35.455048 779.71594 888.0625 4280491299
-37.321102 781.85583 889.86688 4280687134
-35.455048 782.56915 890.46838 4280752927
-33.48991 784.66718 888.31323 4281212195
-58.607338 787.51202 890.71191 4281411107
-33.48991 786.0896 889.51257 4281277988
-31.629358 786.80078 890.11224 4281541156
-28.838531 787.51202 890.71191 4281804332
-25.970642 791.01978 889.74548 4282920753
-24.115597 792.43793 890.94116 4283054399
-22.194496 795.93304 889.96411 4282991423
-16.596331 800.12463 889.57428 4292984727
-14.752294 800.12463 889.57428 4294370275
-39.41835 775.50317 892.35864 4280359970
-39.302753 779.04041 891.41699 4280621845
-39.302753 781.18665 893.22668 4280819213
-37.321102 784.70911 892.27271 4280949280
-34.833027 784.94684 892.47314 4281212449
-57.677063 788.93439 891.91125 4281672996
-55.816513 788.93439 891.91125 4281542191
-28.838531 788.93439 891.91125 4282656811
-26.047707 790.35681 893.1106 4282857019
-22.26055 795.27435 893.33276 4283115567
-19.420183 797.34705 891.15637 4283704847
-18.495413 799.46802 892.94476 4294500061
-41.416515 775.55566 896.32697 4280621837
-37.431194 784.76367 896.2428 4281212445
-35.559631 784.76367 896.2428 4281344287
-33.588989 787.56232 894.67847 4282065960
-31.722937 787.56232 894.67847 4282197803
-28.923853 788.27563 895.27991 4282919733
-31.722937 789.70227 896.48279 4282199090
-28.923853 789.70227 896.48279 4283314491
-25.117432 791.77924 894.30981 4283318598
-24.807341 793.67578 895.90894 4281347116
-22.326605 794.62402 896.7085 4283568640
-20.466055 794.62402 896.7085 4291397731
-45.313763 774.17731 899.08887 4280688931
-43.42569 774.17731 899.08887 4280491551
-41.416515 778.43414 898.75403 4280622098
-39.41835 781.96082 897.80359 4280950555
-39.41835 784.1134 899.61853 4281475616
-37.431194 786.19452 897.44922 4281541410
-34.93578 787.14838 898.25348 4281870634
-33.688072 789.05615 899.86206 4282920503
-31.816513 789.05615 899.86206 4282920503
-28.923853 791.12885 897.68567 4283578696
-27.990826 792.55548 898.88855 4283581006
-26.124771 792.55548 898.88855 4281809447
-20.466055 796.04645 897.90784 4294955426
-43.42569 775.62079 900.30603 4280491551
-55.698166 777.06421 901.52307 4281672244
-43.42569 777.78595 902.13159 4280622368
-41.416515 781.31262 901.18109 4281147421
-37.541283 785.5484 900.82849 4281542693
-37.541283 786.98346 902.03845 4282134053
-35.664219 786.98346 902.03845 4282396968
-31.816513 790.487 901.06848 4283381317
-29.944954 790.487 901.06848 4283054662
-27.990826 793.98212 900.09143 4282199355
-25.191742 793.98212 900.09143 4283700247
-25.191742 795.40869 901.29431 4291726165
-22.39266 795.40869 901.29431 4294962930
-47.477066 772.88513 905.84753 4280228384
-45.445873 775.69849 904.29559 4280490525
-43.42569 779.95111 903.95728 4281016349
-43.42569 781.39459 905.17432 4281147685
-40.161465 783.95123 903.40582 4281476132
-39.533943 786.34998 905.42847 4282001961
-37.651375 786.34998 905.42847 4282789166
-34.725685 788.41846 903.24841 4283118139
-30.033028 789.85352 904.4585 4283054664
-53.482571 764.3252 906.47815 4281476650
-49.662384 764.3252 906.47815 4281083689
-55.392662 767.24579 908.94067 4281410605
-52.527523 767.24579 908.94067 4281147433
-49.662384 766.51562 908.32507 4280754475
-49.519264 770.79559 908.00977 4280622886
-46.662384 769.33954 906.78198 4280162333
-47.477066 775.06293 907.68378 4280622111
-45.445873 778.59381 906.73688 4280884510
-45.445873 780.76532 908.56775 4281079845
-43.42569 782.83801 906.39136 4281408554
-41.537613 782.83801 906.39136 4281474853
-40.908253 785.24371 908.41992 4282067753
-37.761467 785.72491 908.82556 4282920503
-35.873394 785.72491 908.82556 4283117625
-33.886238 787.78918 906.64197 4283447110
-32.00367 787.78918 906.64197 4283447110
-31.062386 789.22845 907.85547 4281803288
-28.238533 789.22845 907.85547 4282198528
-52.729355 762.98822 910.58301 4281410857
-51.572475 769.43616 910.78766 4281016099
-49.519264 772.97974 909.85132 4280688161
-49.519264 775.16382 911.69299 4280687134
-47.477066 777.96667 910.13214 4280818464
-46.461472 781.17871 910.87842 4281213478
-43.552292 782.21295 909.78845 4281147685
-45.445873 783.66064 911.00903 4281606953
-43.552292 783.66064 911.00903 4281475366
-40.593575 787.16833 910.0426 4282660147
-37.761467 787.89008 910.65112 4283382332
-34.929359 787.89008 910.65112 4283447615
-31.062386 790.66766 909.06897 4282981135
-28.238533 790.66766 909.06897 4289358386
-31.376146 792.58667 910.68707 4290941794
-55.605503 767.38593 914.29102 4281607984
-53.688072 766.65295 913.67297 4281345064
-57.302753 772.35675 913.25018 4281279017
-55.392662 772.35675 913.25018 4281081894
-52.527523 772.35669 913.25018 4280949280
-53.328442 776.61987 912.92065 4280554785
-49.519264 776.61987 912.92065 4280686364
-49.519264 778.07593 914.14844 4280884513
-47.477066 781.59631 913.19263 4281410857
-46.527523 783.04822 914.41675 4281672743
-43.552292 785.10828 912.22974 4282265139
-40.396328 787.03851 913.85718 4283514426
-37.871559 788.0036 914.6709 4283055664
-34.614681 790.53638 912.88251 4282984706
-57.302753 775.27734 915.71271 4280162849
-55.392662 775.27734 915.71271 4280097313
-52.209171 775.52069 915.91797 4280490530
-57.302753 777.46771 917.55957 4280294177
-55.392662 777.46771 917.55957 4280622886
-52.527523 777.46771 917.55957 4281016349
-49.519264 779.53204 915.3761 4281081892
-52.376148 780.9881 916.60388 4281016099
-49.519264 781.71613 917.21771 4281475108
-46.21101 784.98407 916.04901 4282132785
-43.678898 785.22595 916.25305 4282922556
-41.779816 785.9519 916.86511 4283055162
-37.871559 789.45123 915.8916 4283179793
-57.302753 778.92804 918.79089 4280884513
-55.392662 778.92804 918.79089 4281016099
-52.527523 780.38831 920.02222 4281211175
-49.519264 784.6283 919.67316 4282330673
-46.979816 784.87091 919.87775 4282462517
-43.805504 785.35632 920.28699 4283120196
-40.948624 785.35632 920.28699 4283057217
-52.527523 781.84857 921.25342 4281804332
-51.572475 783.30884 922.48474 4282722604
-49.662384 784.76917 923.71594 4282854960
-46.797249 784.76917 923.71594 4283514687
-42.977066 784.76917 923.71594 4282661672
-40.266056 782.0448 926.651 4279833600
-37.389908 782.0448 926.651 4287848754
-46.797249 786.22943 924.94727 4283450687
-42.977066 786.22943 924.94727 4282853140
-40.111927 786.22943 924.94727 4284754953
-38.348625 783.51074 927.88696 4290415383
