# .PCD v0.7 - Point Cloud Data file format
VERSION 0.7
FIELDS x y z rgb
SIZE 4 4 4 4
TYPE F F F U
COUNT 1 1 1 1
WIDTH 1165
HEIGHT 1
VIEWPOINT 0 0 0 1 0 0 0
POINTS 1165
DATA ascii
103.01835 753.82361 824.37378 4293121255
106.63303 753.82361 824.37378 4293187302
111.71376 758.83234 824.67297 4294175231
52.692356 763.36646 824.57196 4280360746
55.686237 763.82422 824.95789 4280623919
58.380737 763.82422 824.95789 4280623919
61.973396 763.82422 824.95789 4281411900
-25.833946 775.23749 824.11707 4279700239
-22.270641 775.23749 824.11707 4279634190
-19.598166 775.23749 824.11707 4280093713
-16.925688 775.23749 824.11707 4280093713
-13.362385 775.23749 824.11707 4279702026
-10.689908 775.23749 824.11707 4279833356
-42.539448 781.64758 822.98169 4284565575
-39.921101 780.9104 823.66815 4284894540
-37.299084 780.17322 824.35461 4285289299
-34.634861 780.17322 824.35461 4285420882
-40.766972 783.00269 824.12427 4285488460
-38.994495 783.00269 824.12427 4285488208
88.189911 747.92615 827.24939 4292792546
91.826607 747.92615 827.24939 4292727012
94.554131 747.92615 827.24939 4292858853
97.281647 747.92615 827.24939 4292989926
100.91835 747.92615 827.24939 4293055206
103.64587 747.92615 827.24939 4293121255
105.46422 747.92615 827.24939 4293187302
110.01009 747.92615 827.24939 4293122024
112.73762 747.92615 827.24939 4293450990
82.484406 752.95593 827.56628 4292727273
85.203667 752.95593 827.56628 4292858601
88.225075 752.49396 827.17676 4292924389
91.54863 752.26294 826.98206 4292924648
94.267891 752.26294 826.98199 4293055974
96.98716 752.26294 826.98206 4292989925
100.61284 751.56995 826.39771 4292989670
106.05138 750.87695 825.81342 4293187302
109.67706 751.56995 826.39771 4293056231
112.39633 751.56995 826.39771 4293517298
115.1156 751.56995 826.39771 4292596460
100.30734 755.20538 825.53882 4293055719
103.92202 755.20538 825.53882 4292924901
106.63303 755.20538 825.53882 4293056486
109.34404 755.20538 825.53882 4293319404
112.95872 755.20538 825.53882 4293977850
115.66972 755.20538 825.53882 4290755005
117.47707 755.20538 825.53882 4278190080
70.486237 757.96881 827.8689 4280825169
72.293579 757.96881 827.8689 4279186522
92.174309 757.27795 827.28638 4293122024
93.981651 757.27795 827.28638 4293056486
97.596329 757.27795 827.28638 4292924898
100.30734 756.5871 826.70386 4292990949
103.92202 756.5871 826.70386 4292595937
106.63303 756.5871 826.70386 4293187817
109.04282 757.04767 827.09222 4293451500
113.86239 757.27795 827.28638 4292595941
115.66972 757.27795 827.28638 4288190897
118.38074 757.27795 827.28638 4278190084
121.09174 757.96881 827.8689 4279835171
27.92844 761.5874 826.99597 4280425513
31.532112 761.5874 826.99597 4280622636
49.250153 761.12823 826.60883 4280229160
64.866058 761.5874 826.99597 4281545021
67.56881 761.5874 826.99597 4283124821
70.271561 761.5874 826.99597 4282072644
72.073395 761.5874 826.99597 4281744474
93.695412 761.5874 826.99597 4292990952
97.29908 761.5874 826.99597 4293056486
100.00183 760.89862 826.41528 4292924643
103.6055 760.89862 826.41528 4292924388
106.30826 760.89862 826.41522 4293451244
109.91193 760.89862 826.41522 4294174710
112.31437 761.12823 826.60883 4292925163
115.31743 761.5874 826.99597 4286938789
21.555964 765.88416 826.69482 4279834660
32.333946 766.57086 827.2738 4279768862
52.991745 766.57086 827.2738 4279835684
55.686237 766.57086 827.2738 4279768611
58.380737 765.88416 826.69482 4280227879
61.973396 765.88416 826.69482 4280950842
64.667892 766.57086 827.2738 4280757306
71.85321 766.57086 827.2738 4283188829
103.28899 765.19751 826.11584 4293186792
113.16881 766.57086 827.2738 4287924895
114.96514 766.57086 827.2738 4282658650
121.25229 766.57086 827.2738 4279505445
64.469727 770.16833 826.38306 4280952130
112.82202 770.16833 826.38306 4287595931
114.61285 770.16833 826.38306 4278190150
119.98532 770.16833 826.38306 4278453018
121.77615 770.16833 826.38306 4278321164
-7.1633029 771.53748 827.53735 4279635727
-4.176147 771.57538 826.69727 4279964182
-1.787156 772.33435 825.59326 4280160792
0.89449543 771.5943 826.27722 4279963159
4.176147 771.57538 826.69727 4280030235
8.3461771 772.06866 826.24127 4279767064
39.398167 771.53748 827.53735 4278190089
58.201836 771.53748 827.53735 4279307807
61.783485 771.53748 827.53735 4279899946
64.469727 771.53748 827.53735 4280426288
66.260551 771.53748 827.53735 4280557874
71.633026 771.53748 827.53735 4278978090
82.377983 771.53748 827.53735 4293845750
112.82202 771.53748 827.53735 4284635245
115.50826 771.53748 827.53735 4278190080
119.0899 771.53748 827.53735 4278190091
121.77615 771.53748 827.53735 4278190084
-25.872478 775.4917 826.2934 4281014552
-22.339451 774.38379 827.32129 4280488463
-19.658716 774.38379 827.32129 4280882964
-16.925688 776.59955 825.2655 4280948759
-13.362385 776.59955 825.2655 4280751628
-10.722936 774.38379 827.32129 4280489740
-8.042202 774.38379 827.32129 4280359440
-1.787156 774.38379 827.32129 4280884007
7.1486239 774.38379 827.32129 4280098077
-31.178898 778.6427 826.98822 4285225556
-28.506422 779.32373 827.5625 4285094990
-17.22263 778.86969 827.17969 4284569424
-13.362385 778.6427 826.98828 4284503117
-10.689908 778.6427 826.98822 4284109646
-8.0174313 778.6427 826.98828 4284109392
-4.75107 778.86969 827.17969 4283451977
-1.7816514 778.6427 826.98822 4282860355
-43.515594 782.21008 826.07202 4284372554
-40.851376 782.88904 826.64441 4283453254
-37.299084 782.21008 826.07196 4284108098
-34.634861 782.21008 826.07202 4283909952
-43.515594 784.24689 827.78943 4280494625
-39.963303 784.24689 827.78943 4280427036
-38.14679 784.30231 826.52814 4281807146
-34.598167 784.97986 827.09943 4279767066
-31.970642 784.24689 827.78943 4280159507
-7.9926605 784.24689 827.78943 4278190080
-4.4403667 784.24689 827.78943 4278190080
-1.7761468 784.24689 827.78943 4278190080
69.844032 748.74249 830.55377 4284636040
73.791748 748.51031 830.35803 4288783302
79.257797 748.51031 830.35803 4292925172
82.734863 749.31628 828.42151 4292793320
85.462387 749.31628 828.42151 4292792807
87.280731 749.31628 828.42151 4292726753
72.733948 750.70642 829.59375 4283982740
79.401222 751.63312 830.37518 4292794867
67.981651 755.72778 829.90344 4279308843
70.70092 754.34186 828.73486 4279378715
73.420181 755.03479 829.31915 4282344583
77.952293 755.72778 829.90344 4293256191
79.765137 755.72778 829.90344 4293122542
82.484406 755.03479 829.31915 4292727786
85.203667 755.03479 829.31915 4292990445
87.922935 755.03479 829.31915 4292990184
90.642204 755.03479 829.31915 4293056232
96.080734 755.03479 829.31915 4292990693
34.339451 759.35059 829.03394 4280688429
37.050461 760.04144 829.61646 4280426027
40.665138 759.35059 829.03394 4280820271
43.376148 760.04144 829.61646 4280754475
46.087158 760.04144 829.61646 4280689452
74.100914 760.04144 829.61646 4288718273
76.811928 760.0415 829.61646 4292399080
79.522934 760.04144 829.61646 4293056748
82.233948 760.0415 829.61646 4292990698
85.848625 760.04144 829.61646 4292990184
88.559631 760.04144 829.61646 4293121255
91.270645 760.0415 829.61646 4292991207
95.788994 760.04144 829.61646 4293056489
108.44037 759.35059 829.03394 4293648366
118.38074 759.35059 829.03394 4278190089
121.99541 760.7323 830.19897 4279505700
16.216515 764.34241 829.31885 4278979090
18.919266 763.65369 828.7381 4279636250
23.423853 763.65369 828.7381 4279768610
25.225689 763.65369 828.7381 4279572515
27.92844 763.65369 828.73804 4279572515
31.231806 763.42407 828.54449 4279835174
34.234863 763.65369 828.7381 4280163366
36.937614 764.34241 829.31885 4279573793
40.541283 763.65363 828.73804 4280359977
43.244038 764.34241 829.31885 4279571483
45.946789 764.34241 829.31885 4279967014
49.550461 763.65369 828.73804 4279967013
52.253212 762.9649 828.15735 4280623919
54.955963 762.9649 828.15735 4280558126
64.866058 762.9649 828.15735 4281349688
67.56881 763.65369 828.7381 4282862425
70.271561 763.65369 828.7381 4281941328
72.073395 762.9649 828.15735 4281348685
75.677063 764.34241 829.31885 4293055480
81.98349 764.34241 829.31885 4293056238
91.893578 764.34241 829.31885 4293254381
93.695412 763.65369 828.7381 4293319148
97.29908 763.65369 828.7381 4293121254
100.00184 763.65363 828.73804 4293318121
103.60551 764.34241 829.31885 4293318380
106.30826 763.65369 828.7381 4293581809
109.01101 763.65363 828.73804 4293780463
112.31437 763.42407 828.54449 4292398564
115.31743 762.9649 828.15735 4283911829
118.02019 763.65369 828.7381 4278190102
14.414679 765.71997 830.48035 4278650381
17.065138 767.94415 828.43164 4278781967
19.759632 767.94415 828.43164 4279045139
22.489908 766.83203 829.45599 4279437844
26.046789 767.94415 828.43164 4279045139
28.829357 765.71997 830.48035 4278979090
31.43578 767.94415 828.43164 4279373078
34.130276 767.94415 828.43164 4279701273
36.937614 765.71997 830.48035 4279767066
40.417431 767.94415 828.43164 4279898395
43.244038 765.71997 830.48035 4279832852
45.946789 765.71997 830.48035 4279702299
49.550461 765.71997 830.48035 4279439644
52.991745 767.94415 828.43164 4279637023
55.686237 767.94415 828.43164 4279110682
58.380737 767.94415 828.43164 4279634212
61.973396 767.94415 828.43164 4279636018
67.466972 766.83203 829.45599 4282663251
70.955048 767.94415 828.43164 4283386715
73.875229 765.71997 830.48035 4290623440
76.57798 765.71997 830.48035 4293582328
79.280731 765.71997 830.48035 4293713909
81.98349 765.71997 830.48035 4293582579
85.587158 765.71997 830.48035 4293253612
88.289909 765.71997 830.48035 4293187817
90.992661 765.71997 830.48035 4293385196
94.453209 766.83203 829.45599 4293582573
97.29908 765.71997 830.48035 4293582058
100.00183 765.71997 830.48035 4293647343
103.44588 766.83203 829.45599 4293252589
105.98349 767.94415 828.43164 4293581810
108.84312 766.83203 829.45599 4293911795
111.37247 767.94415 828.43164 4294306559
116.76147 767.94415 828.43164 4278190147
118.5578 767.94415 828.43164 4278190099
10.777982 770.00415 830.16858 4279174928
12.574312 770.00415 830.16858 4278321155
17.065138 770.00409 830.16858 4278190083
19.759632 770.6908 830.74756 4278190089
22.454128 770.6908 830.74756 4278648833
26.046789 770.6908 830.74756 4278190080
28.741285 770.00415 830.16858 4278190080
31.435781 770.00415 830.16858 4278190081
35.028442 770.00415 830.16858 4278190080
37.722935 770.00415 830.16858 4278190080
41.315598 769.31744 829.5896 4278190090
44.309479 769.77521 829.97559 4278452224
46.704586 770.00415 830.16858 4278190089
49.399082 770.00409 830.16858 4278190084
52.991741 770.00415 830.16858 4278715409
55.686237 769.31744 829.5896 4279240218
68.260551 770.00415 830.16858 4280097321
70.056877 770.00415 830.16858 4279307805
73.649544 770.00415 830.16858 4280097336
76.34404 769.31744 829.5896 4284437117
79.637306 769.77521 829.97559 4289696420
85.625069 769.77521 829.97559 4293977080
88.618958 770.23297 830.36157 4293384942
91.612846 770.6908 830.74756 4293187304
94.606728 769.77521 829.97559 4293319149
97.600609 770.23309 830.36157 4293385449
100.5945 770.00415 830.16858 4293252329
102.9896 769.77521 829.97559 4293187050
107.18104 769.77521 829.97559 4293517042
109.57615 770.00415 830.16858 4294636031
111.37247 769.31744 829.5896 4294438399
-4.4770641 772.90656 828.69177 4280424988
0.89541286 772.90656 828.69177 4280884261
4.4770641 772.90656 828.69177 4280294177
8.9541283 772.90656 828.69177 4279308561
40.293579 772.90656 828.69177 4278190091
42.979816 772.90656 828.69177 4278190080
55.515594 772.90656 828.69177 4279832354
58.201836 772.90656 828.69177 4279898402
61.783485 772.90656 828.69177 4280163368
64.469727 772.90656 828.69177 4280492333
66.260551 772.90656 828.69177 4280163368
71.633026 772.90656 828.69177 4278190112
76.110092 772.90656 828.69177 4280030743
80.587158 772.90656 828.69177 4289964964
82.377983 772.90656 828.69177 4292662993
84.168808 772.90656 828.69177 4294176233
93.122932 772.90656 828.69177 4293187563
103.86789 772.90656 828.69177 4293516015
105.65871 772.90656 828.69177 4293647601
111.92661 772.90656 828.69177 4288649134
115.50826 772.90656 828.69177 4278190080
119.0899 772.90656 828.69177 4282393649
121.77615 772.90656 828.69177 4285751408
123.56697 772.90656 828.69177 4286014836
-28.594496 775.75006 828.47327 4285290579
-25.913761 775.75006 828.47327 4285356372
-22.363302 775.01282 829.15973 4284830800
-19.658716 775.75006 828.47327 4284633935
-16.084404 775.75006 828.47327 4284502349
-3.574312 775.75006 828.47327 4283254344
0.89357799 775.75006 828.47327 4283253313
4.4678898 775.75006 828.47327 4282464063
8.042202 775.75006 828.47327 4281085992
10.744954 774.27563 829.84619 4279701273
12.53578 774.27563 829.84619 4279372051
35.816513 774.27563 829.84619 4279045139
37.607338 774.27563 829.84619 4279308312
40.293579 774.27563 829.84619 4279702818
43.875229 774.27563 829.84619 4280424739
46.561466 774.27563 829.84619 4280556843
49.247707 774.27563 829.84619 4279899681
52.829357 774.27563 829.84619 4280097056
55.515594 774.27563 829.84619 4280294177
58.141285 775.01282 829.15973 4280488992
61.656879 775.75006 828.47327 4280097575
64.337616 775.75006 828.47327 4280229162
66.260551 774.27563 829.84619 4280229162
70.73761 774.27563 829.84619 4280031012
80.587158 774.27563 829.84619 4278190080
82.377983 774.27563 829.84619 4278190889
84.168808 774.27563 829.84619 4288193223
94.018349 774.27563 829.84619 4293254124
100.28624 774.27563 829.84619 4293713646
102.97247 774.27563 829.84619 4293647599
106.55412 774.27563 829.84619 4293647857
111.92661 774.27563 829.84619 4286938264
115.50826 774.27563 829.84619 4278190080
119.0899 774.27563 829.84619 4286863192
121.77615 774.27563 829.84619 4292796671
123.56697 774.27563 829.84619 4291546870
-25.913761 777.79956 830.20142 4283319353
-22.339451 777.79956 830.20142 4282662710
-19.658716 777.79956 830.20135 4282531125
0.89357799 777.79956 830.20135 4280623644
4.4678898 777.79956 830.20142 4280688933
7.7443428 778.02728 830.39337 4280754714
10.722936 778.48267 830.77734 4280359970
12.510092 778.48267 830.77734 4280030748
32.168808 778.48267 830.77734 4279769112
34.849541 778.48267 830.77734 4279966491
37.530273 778.48267 830.77734 4279505940
40.21101 777.79956 830.20135 4279637526
43.78532 777.79956 830.20142 4279899934
46.466057 777.79956 830.20135 4279572769
49.14679 777.79956 830.20135 4279506719
52.7211 777.7995 830.20135 4279703070
55.401836 777.79956 830.20135 4279899165
58.082569 777.79956 830.20142 4279898650
61.656879 777.79956 830.20135 4279767065
64.337616 777.79956 830.20135 4279832861
66.72049 778.02728 830.39337 4280029982
70.890518 778.02728 830.39337 4280096295
83.99633 778.48267 830.77734 4278190080
-46.322937 781.36688 829.28516 4282665023
-30.881956 781.13989 829.09375 4281934627
-28.506422 781.36688 829.28516 4280817433
-25.833946 782.04791 829.85938 4279764239
-21.379816 782.04791 829.85938 4279304704
-19.598166 782.04791 829.85938 4279107584
-16.925688 781.36688 829.28516 4279503365
-13.362385 781.36688 829.28516 4279110664
-10.689908 781.36688 829.28516 4278914312
-8.0174313 780.68585 828.71094 4279177484
-4.4541283 780.68585 828.71094 4278585348
-1.7816514 780.68585 828.71094 4278388480
0 782.04791 829.85938 4278190080
40.977982 782.04791 829.85938 4280816154
43.650459 782.04791 829.85938 4279900192
46.322937 782.04791 829.85938 4279768611
48.995415 782.04791 829.85938 4279965989
52.558716 782.04791 829.85938 4280162079
55.231194 782.04791 829.85938 4281147685
57.903671 782.04791 829.85938 4280950556
61.466972 782.04791 829.85938 4281281072
65.030273 782.04791 829.85938 4282530090
-43.515594 785.60474 828.93433 4278190080
-39.963303 785.60474 828.93433 4278190080
-37.299084 785.60474 828.93433 4278190080
-34.634861 785.60474 828.93433 4278190080
-31.082569 785.60474 828.93433 4278714368
-28.418348 785.60474 828.93433 4279828480
-16.873394 785.60474 828.93433 4280291084
-13.3211 785.60474 828.93433 4280026372
-10.65688 785.60474 828.93433 4279043592
-7.9926605 785.60474 828.93433 4278846213
-4.4403667 785.60474 828.93433 4279109637
-1.7761468 785.60474 828.93433 4279833356
-43.515594 786.96265 830.07922 4280556298
-39.963303 786.96265 830.07922 4281608984
-37.222019 788.42297 828.69458 4281937953
-34.563301 788.42297 828.69458 4282529308
-31.082569 786.96265 830.07922 4282858523
-28.418348 786.96265 830.07922 4282858292
-25.754128 786.96265 830.07922 4282134824
-21.313761 786.96265 830.07922 4281147685
-19.537615 786.96265 830.07922 4280555548
-16.873394 786.96265 830.07922 4280489755
-13.3211 786.96265 830.07922 4280357399
-10.65688 786.96265 830.07922 4280030487
-7.9926605 786.96265 830.07922 4279898900
-4.436697 787.69281 829.3869 4280096279
-1.7761468 786.96265 830.07922 4280359452
53.284405 786.96265 830.07922 4283649380
-38.403671 790.22974 830.21802 4284171576
-34.267887 790.22974 830.21802 4283777859
-31.018349 790.45557 830.40845 4282989620
-28.359632 790.45557 830.40845 4282266933
-25.700916 791.13312 830.97974 4280622113
-22.155964 791.13312 830.97974 4280426275
-19.497248 791.13312 830.97974 4280163870
-16.838531 791.13312 830.97974 4280491299
-13.293577 791.13312 830.97974 4280294955
-10.634862 791.13312 830.97974 4280229667
-7.9761467 790.45557 830.40845 4280359715
-4.4311924 789.77802 829.83716 4280293663
-1.772477 790.45557 830.40845 4280097310
12.407339 791.13312 830.97974 4280095779
-30.922018 794.66614 830.03455 4279503894
-28.271559 794.66614 830.03455 4280029985
-25.621101 794.66614 830.03455 4280293414
-21.203671 794.66614 830.03455 4280097825
-19.436697 794.66614 830.03455 4280097825
-15.902752 794.66614 830.03455 4280097825
-7.951376 794.66614 830.03455 4280097825
-4.4174314 793.99066 829.46503 4280163108
-1.7669724 794.66614 830.03455 4280031782
-24.660551 799.53735 830.21777 4279965989
-22.899082 799.53735 830.21777 4280031782
-19.376146 799.53735 830.21777 4279768611
-15.853211 799.53735 830.21777 4280490536
-13.21101 799.53735 830.21777 4280293153
-7.9266057 799.53735 830.21777 4279965986
-4.1100917 799.08844 829.83929 4280032034
-1.7614679 799.53735 830.21777 4280031782
69.236694 750.59973 832.11975 4278190336
74.702751 750.59973 832.11975 4286099665
76.524773 750.59973 832.11975 4289967833
76.370644 753.48676 831.93799 4290624471
121.46055 757.11371 831.07202 4279638310
123.27339 757.11371 831.07202 4279310625
74.100914 762.11401 831.36401 4290426058
77.715599 762.11401 831.36401 4293910783
79.522934 762.11401 831.36401 4293516533
85.848625 762.11401 831.36401 4292990697
88.559631 762.11401 831.36401 4293056486
90.366974 762.11401 831.36401 4293056745
95.788994 762.11401 831.36401 4293319404
14.414679 767.09747 831.64185 4278190081
19.820183 767.09747 831.64185 4278190083
22.522936 767.09747 831.64185 4278190080
25.225689 767.09747 831.64185 4278190080
27.027523 767.09747 831.64185 4278190080
90.992661 767.09747 831.64185 4293253097
99.100914 767.09747 831.64185 4293319402
14.414679 768.47498 832.80334 4278190085
14.370643 772.75073 832.4845 4279635475
17.065138 772.06409 831.90552 4279435537
19.759632 772.06409 831.90552 4279828501
22.154739 772.52179 832.2915 4279699724
26.046789 772.06409 831.90552 4278845707
28.741285 772.06409 831.90552 4278912004
31.43578 772.06409 831.90552 4279045392
34.130276 772.06409 831.90552 4278586901
68.260551 772.06409 831.90552 4280097575
73.649544 772.06409 831.90552 4279371799
76.34404 772.06409 831.90552 4278386688
79.038528 772.06409 831.90552 4278190080
86.223854 772.06409 831.90552 4293052911
89.217735 772.52179 832.2915 4294041847
91.612846 772.75073 832.4845 4293450734
97.899994 772.06409 831.90552 4293385708
109.57615 772.06409 831.90552 4294635007
116.76147 773.43738 833.06348 4278190084
118.5578 773.43738 833.06348 4278190080
8.9541283 775.64478 831.00061 4281282578
10.744954 775.64478 831.00061 4280095779
12.53578 775.64478 831.00061 4279371799
17.012844 775.64478 831.00061 4280556062
19.699083 775.64478 831.00061 4280884261
23.280733 775.64478 831.00061 4279636997
25.966972 775.64478 831.00061 4279635480
28.653212 775.64478 831.00061 4279308561
31.339451 775.64478 831.00061 4279440147
34.921101 775.64478 831.00061 4279637526
37.607338 775.64478 831.00061 4279966491
68.051376 775.64478 831.00061 4280095779
69.842201 775.64478 831.00061 4280292901
73.423851 775.64478 831.00061 4280161322
76.110092 775.64478 831.00061 4279503644
79.691742 775.64478 831.00061 4278190101
82.377983 775.64478 831.00061 4278190080
85.064224 775.64478 831.00061 4287465391
87.750458 775.64478 831.00061 4294042367
94.018349 775.64478 831.00061 4293385964
97.600006 775.64478 831.00061 4293385197
100.28624 775.64478 831.00061 4293582060
102.97247 775.64478 831.00061 4293450477
106.55412 775.64478 831.00061 4293581808
109.24036 775.64478 831.00061 4294502910
111.92661 775.64478 831.00061 4285162880
114.61285 775.64478 831.00061 4278190084
119.98532 775.64478 831.00061 4291281354
121.77615 775.64478 831.00061 4292460031
123.56697 775.64478 831.00061 4291210239
-23.233028 779.84894 831.92944 4279369991
1.787156 779.84894 831.92944 4278190080
4.4678898 779.84894 831.92944 4278650634
8.042202 779.84894 831.92944 4279964444
10.722936 779.84894 831.92944 4280161824
13.711315 778.90387 832.00458 4280161821
16.995413 778.4314 832.04211 4280425248
19.6789 778.4314 832.04218 4280294175
22.362385 778.4314 832.04211 4280163103
25.940369 778.4314 832.04211 4280096807
28.623854 778.4314 832.04218 4279900447
30.998167 778.90387 832.00458 4279900702
34.849541 779.84894 831.92944 4280227867
37.530273 779.84894 831.92944 4280555035
39.317432 779.84894 831.92944 4280750360
67.911926 779.84894 831.92944 4282596385
70.592659 779.84894 831.92944 4279899412
73.423851 777.69836 832.73212 4279965739
76.110092 777.69843 832.73206 4280227613
79.691742 777.69843 832.73206 4280292388
82.861168 778.90387 832.00458 4278190354
85.959633 777.69836 832.73212 4280227669
88.645874 777.69843 832.73206 4292465663
91.332108 777.69836 832.73212 4293517053
93.969719 778.06494 832.38708 4293319660
97.600006 777.69843 832.73206 4293319918
100.18349 778.4314 832.04218 4293451245
102.97248 777.69836 832.73212 4293648112
106.55412 777.69843 832.73206 4293779700
109.24036 777.01385 832.15491 4294437117
111.92661 777.01385 832.15491 4284504954
114.61285 777.01385 832.15491 4278190084
119.98532 777.01385 832.15491 4288651446
121.77615 777.01385 832.15491 4289637869
123.56697 777.01385 832.15491 4289703662
19.658716 781.21527 833.08142 4279571483
22.339451 781.21527 833.08142 4280359202
25.913761 781.21527 833.08142 4280228134
28.594496 781.21527 833.08142 4280358946
31.27523 781.21527 833.08142 4280228386
67.911926 781.21527 833.08142 4283321171
69.699081 781.21527 833.08142 4279505177
73.273392 781.21527 833.08142 4280097577
75.060547 781.21527 833.08142 4280032284
83.102753 781.21527 833.08142 4279044886
-48.995415 784.09106 831.58215 4279372288
-46.322937 784.09106 831.58215 4279438599
-25.833946 783.41003 831.00793 4281011471
-22.567583 783.86407 831.39081 4281210904
-19.598166 783.41003 831.00793 4280487445
0.89082569 784.09106 831.58215 4279965973
4.4541283 784.09106 831.58215 4279900698
8.0174313 784.09106 831.58215 4279834657
10.689908 784.09106 831.58215 4280031010
13.362385 784.09106 831.58215 4280030752
16.925688 784.09106 831.58215 4280031008
19.598166 784.77209 832.15637 4279900192
22.270641 784.77209 832.15637 4280097825
25.833946 784.77209 832.15637 4280228128
28.506422 784.77209 832.15637 4280293153
31.178898 784.77209 832.15637 4280228389
34.742203 784.09106 831.58215 4280357147
37.41468 784.09106 831.58215 4285748320
40.087158 784.09106 831.58215 4284634458
43.650455 784.09106 831.58215 4284044641
46.322937 784.09106 831.58215 4283453275
48.995415 784.09106 831.58215 4283914081
52.261776 783.86407 831.39081 4283979103
55.231194 784.09106 831.58215 4283780703
57.903671 784.09106 831.58215 4283714387
61.466972 784.09106 831.58215 4283846234
65.030273 784.09106 831.58215 4284306518
67.702751 784.77209 832.15637 4283124041
70.672173 784.31805 831.77362 4279307801
-52.558716 786.13416 833.30481 4284431132
-48.995415 786.13416 833.30481 4285226072
-46.322937 786.13416 833.30481 4285420884
-43.515594 788.3205 831.22412 4284763206
-40.851376 788.3205 831.22412 4284631870
-25.754128 788.3205 831.22412 4281544493
-22.201836 788.3205 831.22412 4280690216
-19.537615 788.3205 831.22412 4280163618
-16.873394 788.3205 831.22412 4280228380
-13.3211 788.3205 831.22412 4280358946
-10.65688 788.3205 831.22412 4280294173
0.88807338 788.3205 831.22412 4280032284
4.4403667 788.3205 831.22412 4279966239
8.0174313 786.13416 833.30481 4279900192
10.689908 786.13416 833.30481 4279965989
13.3211 788.3205 831.22412 4279965986
16.900917 787.22729 832.26447 4280096800
19.598166 786.13416 833.30481 4280096030
22.270641 786.13416 833.30481 4280097825
25.833946 786.13416 833.30481 4280293153
28.506422 786.13416 833.30481 4280293153
31.178898 786.13416 833.30481 4280162596
34.742203 786.13416 833.30481 4279702557
37.41468 786.13416 833.30481 4284570722
40.087158 786.13416 833.30481 4284240469
43.58165 787.22729 832.26447 4283451485
47.13945 787.22729 832.26447 4282667631
49.732109 788.3205 831.22412 4282469219
52.396332 788.3205 831.22412 4282466142
55.060551 788.3205 831.22412 4284568698
57.903671 786.13416 833.30481 4283980643
61.370644 787.22729 832.26447 4283713887
64.931198 787.22729 832.26447 4282793821
67.702751 786.13416 833.30481 4281017927
70.375229 786.13416 833.30481 4279636775
-47.06789 791.03625 833.51404 4280033832
-43.515594 790.3573 832.94165 4281543211
-40.851376 790.3573 832.94159 4281476393
-37.299084 789.67841 832.36914 4283053354
-35.522934 789.67841 832.36914 4282791997
0.88807338 789.67841 832.36914 4279966239
4.4403667 789.67841 832.36914 4279965989
7.9926605 789.67841 832.36914 4279900196
10.65688 789.67841 832.36914 4280161572
14.209174 789.67841 832.36914 4280095779
16.873394 789.67841 832.36914 4280293155
19.537615 789.67841 832.36914 4280161824
22.201836 791.03625 833.51404 4280032032
25.458105 790.58368 833.13239 4280097573
28.418348 791.03625 833.51404 4280097575
31.378593 790.58368 833.13239 4280031782
34.930885 790.58368 833.13239 4280095262
37.299084 790.3573 832.94159 4285094245
40.259327 790.58368 833.13239 4284371800
43.515594 790.3573 832.94165 4284109661
47.067886 790.3573 832.94165 4283780724
49.732109 790.3573 832.94159 4284045171
52.396332 790.35736 832.94159 4283847531
55.948624 790.3573 832.94165 4284175718
58.612843 790.3573 832.94159 4283846494
61.277065 790.35736 832.94159 4284439385
64.533333 790.58368 833.13239 4283846510
-38.108257 793.16571 832.69348 4279767064
-34.858715 792.93988 832.50311 4279636772
-23.042202 792.48816 832.12219 4280227878
-17.724771 792.48816 832.12219 4280097825
-13.293577 792.48816 832.12219 4280163618
-10.634862 792.48816 832.12219 4280097825
0.88623852 793.16577 832.69348 4279900191
4.4311924 793.16571 832.69348 4280162339
7.9761467 793.16571 832.69348 4280227360
10.634862 793.16571 832.69348 4280292899
13.293577 792.48816 832.12219 4280292901
16.838531 793.16577 832.69348 4280227876
19.497248 793.16571 832.69348 4280162339
22.155964 793.84326 833.26477 4279966239
24.814678 793.84326 833.26477 4280031782
43.42569 793.84326 833.26477 4282135877
-33.572475 796.69238 831.74304 4279964966
-30.922016 796.69238 831.74304 4280095781
-28.271559 796.69238 831.74304 4280095779
-25.915596 796.46729 831.55322 4280292901
-21.792662 796.46729 831.55322 4280162598
-19.436697 796.01697 831.17358 4279965989
-17.080734 796.46729 831.55322 4280163107
-13.252294 796.01697 831.17358 4280228380
-10.601835 796.69238 831.74304 4280097572
-7.951376 796.01697 831.17358 4280032032
-5.3009176 796.01697 831.17358 4280097825
-1.7669724 796.01697 831.17358 4280097825
0.88348621 797.36786 832.3125 4280032032
4.4174314 797.36786 832.3125 4280358950
12.957798 796.46729 831.55322 4280227876
-37.106422 798.71869 833.45154 4279768862
-34.455963 798.71869 833.45154 4279900196
-30.922018 798.71869 833.45154 4280227360
-28.271559 798.71869 833.45154 4280292901
-25.541285 800.88397 831.35327 4280031012
-22.051376 799.80133 832.4024 4279965989
-19.376146 800.88397 831.35327 4280031782
-16.733946 800.88397 831.35327 4280358950
-13.21101 800.88397 831.35327 4280358950
-10.568808 800.88397 831.35327 4280490286
-7.9266057 800.88397 831.35327 4280292904
-4.4036698 800.88397 831.35327 4280358950
-1.7614679 800.88397 831.35327 4280358950
0.88348621 798.71869 833.45154 4279965989
4.4174314 798.71869 833.45154 4280293153
7.951376 798.71869 833.45154 4280293153
10.601835 798.71869 833.45154 4279900196
13.252294 798.71869 833.45154 4279900196
16.78624 798.71869 833.45154 4279900196
19.436697 798.71869 833.45154 4279965989
22.087156 798.71869 833.45154 4280032032
24.737616 798.71869 833.45154 4280032032
-36.990826 803.57733 833.62415 4279703069
-34.05505 803.12842 833.24561 4279900193
-31.706423 802.90399 833.0564 4280227360
-29.06422 802.90399 833.0564 4280227360
-25.541285 802.90399 833.0564 4280031010
-22.018349 802.90399 833.0564 4279900196
-19.376146 802.90399 833.0564 4279900196
-16.733946 802.90399 833.0564 4279965992
-13.21101 802.90399 833.0564 4280293153
-10.568808 802.90399 833.0564 4280293922
-8.2201834 802.6795 832.86719 4280293922
-4.4036698 802.23065 832.48865 4280293155
-1.7614679 802.23065 832.48865 4280292901
0.88073397 803.57733 833.62415 4279900196
4.4036698 803.57733 833.62415 4279834403
7.0458717 803.57733 833.62415 4279900192
-7.0238533 805.73419 831.51868 4280097825
-4.3899083 805.73419 831.51868 4280032032
-1.7559633 805.73419 831.51868 4279966239
-34.241287 808.41907 833.78247 4279832602
-31.60734 808.41907 833.78247 4279898145
-28.973394 808.41907 833.78247 4279767585
-24.583487 808.41907 833.78247 4280029985
-22.827522 808.41907 833.78247 4280029985
-15.80367 808.41907 833.78247 4279899942
-12.291743 807.74786 833.21655 4280293153
-10.53578 808.41907 833.78247 4280293153
-7.901835 807.7478 833.21655 4280162848
-4.3899083 807.7478 833.21655 4279769376
-1.7559633 807.74786 833.21655 4279704355
38.377983 748.35449 834.15076 4278255666
65.790825 748.35449 834.15076 4279042838
67.618347 748.35449 834.15076 4279240218
109.57615 776.18402 835.37927 4294108665
112.27065 776.18402 835.37927 4284373859
115.8633 775.49731 834.80035 4278190082
118.5578 774.81067 834.22144 4278190084
120.35413 776.18402 835.37927 4285362326
123.94679 776.18402 835.37927 4287728786
-52.093578 777.55731 836.53723 4278190080
77.005501 779.75208 834.46375 4280098077
79.691742 779.75208 834.46375 4280358950
85.959633 779.75208 834.46375 4278190092
88.645874 779.75208 834.46375 4289837532
91.332108 779.75208 834.46375 4292667647
94.018349 779.75208 834.46375 4293516013
97.600006 779.75208 834.46375 4293450990
100.28624 779.75208 834.46375 4293319404
102.97247 779.75208 834.46375 4293582832
106.55412 779.75208 834.46375 4293846262
109.57615 777.55731 836.53723 4293583091
112.27065 777.55731 836.53723 4283190887
-55.515594 781.12115 835.61816 4280687118
-52.829357 781.12115 835.61816 4280685322
73.273392 782.58154 834.2334 4279965735
76.408562 781.57758 836.00293 4279966239
79.691742 781.80573 836.19531 4280293155
83.102753 782.58154 834.2334 4279110936
85.959633 781.80573 836.19537 4278190080
88.645874 781.80573 836.19537 4286875807
91.332108 781.80573 836.19537 4293519615
93.655037 782.06427 835.54132 4293779954
97.600006 781.80573 836.19531 4293385451
100.28624 781.80573 836.19537 4293516526
102.97247 781.80573 836.19537 4293648112
105.65871 781.12115 835.61816 4293845746
-55.401836 783.94788 835.3855 4280817421
-53.614677 785.31415 836.53748 4282397457
73.273392 784.63098 835.96149 4279834399
75.060547 783.94788 835.3855 4279900192
83.102753 784.63098 835.96149 4279568414
94.719269 783.94788 835.3855 4293450990
-51.667889 787.49628 834.45337 4285621314
-49.292358 787.95026 834.83618 4283846484
-46.322937 787.49628 834.45337 4284372559
22.270641 787.49628 834.45337 4280032032
26.724771 787.49628 834.45337 4280097825
28.506422 787.49628 834.45337 4280097825
30.288073 787.49628 834.45337 4280097825
33.851376 787.49628 834.45337 4279110680
39.196331 787.49628 834.45337 4285291863
65.921104 787.49628 834.45337 4281346123
67.702751 788.17731 835.02759 4282399064
70.375229 788.17731 835.02759 4279636517
-51.667889 790.22046 836.75024 4280820521
-49.886238 790.22046 836.75024 4279504934
58.794495 790.22046 836.75024 4281213478
67.702751 790.22046 836.75024 4282794827
70.375229 790.22046 836.75024 4279505180
-49.732109 793.75208 835.80383 4280096030
-47.06789 793.07312 835.23132 4279570460
-43.515594 793.07312 835.23138 4279898656
-40.851376 792.39417 834.65894 4280160553
26.642202 792.39417 834.65894 4280031782
28.418348 793.07312 835.23138 4280031782
31.082569 793.07312 835.23138 4280097062
34.634861 792.39417 834.65894 4280160543
37.299084 792.39417 834.65894 4283975764
39.963303 792.39417 834.65894 4283121741
47.06789 793.07312 835.23138 4280687663
49.732109 793.07312 835.23138 4280490806
52.396332 793.07312 835.23138 4280424234
55.652599 792.84686 835.04053 4280687138
61.57309 792.84686 835.04053 4280293665
64.533333 792.84686 835.04053 4281084720
-49.732109 795.10992 836.94885 4280292901
-46.740063 796.04279 836.86346 4280096289
-43.7211 797.00513 835.93085 4280096544
-40.766972 795.87585 834.97864 4280292899
-38.403671 795.65009 834.78827 4280096544
-35.449543 795.19836 834.40735 4280161572
7.9761467 795.19836 834.40735 4280358946
10.634862 795.19836 834.40735 4279900196
14.179816 795.19836 834.40735 4279965989
16.838531 795.19836 834.40735 4279900196
19.497248 795.19836 834.40735 4279965989
22.155964 795.19836 834.40735 4280032032
25.99633 795.65009 834.78827 4279966243
28.359632 797.23096 836.12122 4279900194
31.018349 797.23096 836.12122 4280031266
34.563301 796.55341 835.54987 4280096291
38.108257 796.55347 835.54987 4280030244
40.766972 796.55341 835.54999 4279701537
43.42569 796.55341 835.54987 4279701282
47.06789 795.10992 836.94885 4279701295
49.732109 795.10992 836.94885 4279635230
52.396332 795.10992 836.94885 4279832602
63.941284 795.10992 836.94885 4279702567
-42.407341 800.06958 834.59058 4279900192
-40.640366 800.06958 834.59058 4279900192
-37.989906 800.06958 834.59058 4279768862
-35.339451 800.06958 834.59058 4279900196
0.88348621 800.06958 834.59058 4279900196
4.4174314 800.06958 834.59058 4279834403
7.951376 800.06958 834.59058 4279834399
10.601835 800.06958 834.59058 4279768611
13.252294 800.06958 834.59058 4280030756
16.78624 800.06958 834.59058 4280096549
19.436697 800.06958 834.59058 4279965989
22.087156 800.06958 834.59058 4279900196
25.621101 800.06958 834.59058 4279900196
-43.290825 802.09583 836.29907 4279833886
-40.640366 802.09583 836.29913 4280095776
-38.873394 801.42041 835.72961 4279571483
5.3009176 802.7713 836.86865 4279900196
8.8348627 802.09583 836.29913 4279768608
10.601835 802.09583 836.29913 4279899424
13.252294 802.09583 836.29907 4280030497
16.78624 802.09583 836.29913 4280031011
19.436697 802.09583 836.29913 4279900196
22.087156 802.09583 836.29913 4280031010
25.621101 802.09583 836.29907 4280031010
28.271559 801.42041 835.72961 4279900196
-43.155964 806.27063 835.89502 4279571235
-40.51376 806.27063 835.89502 4279702567
-37.871559 805.59729 835.32739 4279964191
-34.348625 804.92395 834.75964 4280096030
-31.706423 804.92395 834.75964 4279768862
-29.06422 804.92395 834.75964 4279768862
-25.834862 805.37286 835.13812 4279833887
-21.724771 805.37286 835.13812 4279964961
-19.376146 805.59729 835.32733 4279899171
-17.027523 805.37286 835.13812 4280030499
-14.091743 805.59729 835.32733 4280293153
-10.568808 804.92395 834.75964 4280294177
0.88073397 805.59729 835.32739 4280031010
3.5229359 805.59729 835.32733 4279899424
7.0458717 804.92395 834.75964 4279900196
-34.241287 809.76154 834.91443 4279832602
-31.60734 809.76154 834.91443 4279963429
-28.973394 809.76154 834.91443 4279897891
-25.461468 809.76154 834.91443 4280030240
-22.827522 809.76154 834.91443 4280096030
-19.315596 809.76154 834.91443 4279439391
-16.681652 809.76154 834.91443 4279702819
-13.169725 809.76154 834.91443 4280359202
-10.53578 809.76154 834.91443 4280228380
-7.901835 809.76154 834.91443 4280031518
-4.3899083 809.76154 834.91443 4279900447
-1.7559633 809.76154 834.91443 4279966239
-40.387157 811.104 836.04639 4279571233
-37.753212 811.104 836.04639 4279505434
-34.241287 811.104 836.04639 4279766559
-31.60734 811.104 836.04639 4279570981
-28.973394 811.104 836.04639 4279505186
-25.461468 811.104 836.04639 4279833885
-21.949541 811.104 836.04639 4280030490
-19.315596 811.104 836.04639 4280030237
-16.681652 811.104 836.04639 4279702820
-13.169725 811.104 836.04639 4280227108
-10.53578 811.104 836.04639 4280162074
-7.901835 811.104 836.04639 4279899675
-4.3899083 811.104 836.04639 4279834399
-1.7559633 811.104 836.04639 4279703069
118.02019 773.98505 837.44934 4278190094
122.52477 773.98505 837.44934 4288386459
109.91193 776.74011 839.77234 4292267232
112.61468 776.74011 839.77234 4283321167
115.31743 776.05133 839.19159 4278190080
118.02019 775.36255 838.61084 4278519320
121.62386 775.36255 838.61084 4278190117
124.32661 775.36255 838.61084 4278190117
107.77982 778.9306 837.69519 4293977849
106.88165 780.30396 838.85315 4293977335
-60.888073 783.85938 837.92688 4279633162
-57.903366 784.31573 838.31171 4280819235
-55.515594 784.54395 838.50409 4281412399
-53.72477 785.22845 839.0813 4283124539
76.408562 784.31573 838.31171 4280097056
79.691742 784.54395 838.50403 4280030493
85.959633 784.54395 838.50409 4280556330
88.645874 784.54395 838.50409 4284834433
91.332108 784.54395 838.50409 4293190911
94.018349 784.54395 838.50403 4293648371
97.600006 784.54395 838.50403 4293385196
100.28624 783.85938 837.92688 4293581808
-55.401836 788.04675 838.84155 4282332740
-52.7211 787.36359 838.26556 4282005298
73.273392 787.36359 838.26556 4279900195
75.060547 787.36359 838.26556 4280293153
83.102753 786.68042 837.68958 4281141764
-57.188992 789.41302 839.99353 4279832352
-55.401836 789.41302 839.99353 4279635230
-52.558716 791.58252 837.8988 4279963938
57.903671 791.58252 837.8988 4279895315
60.576145 791.58252 837.8988 4279372051
65.921104 791.58252 837.8988 4279571483
67.702751 791.58252 837.8988 4279767090
70.375229 791.58252 837.8988 4279504680
73.273392 789.41302 839.99353 4279571233
75.060547 789.41302 839.99353 4280292901
-55.231194 792.94464 839.04724 4279634976
-52.558716 792.94464 839.04724 4280161065
55.231194 792.94464 839.04724 4279701523
57.903671 792.94464 839.04724 4280028965
61.466972 792.94464 839.04724 4279964194
65.921104 792.94464 839.04724 4279570981
67.702751 792.94464 839.04724 4279571483
70.375229 792.94464 839.04724 4279899424
-51.508255 797.82568 839.23865 4280161824
-49.732109 797.14673 838.6662 4279900194
-47.955963 796.46777 838.09375 4279900196
47.363911 796.92041 838.4754 4279834407
49.732109 797.14673 838.6662 4279768609
52.100307 796.92041 838.4754 4279965474
-46.970642 799.94116 838.40637 4279637276
28.359632 800.61865 838.97766 4279900192
31.018349 799.94116 838.40637 4280031009
34.563301 799.9411 838.40637 4280161570
37.812847 799.71527 838.216 4280096292
40.766972 799.9411 838.40637 4280030756
43.42569 799.9411 838.40637 4279900196
46.084404 799.26355 837.83508 4279900196
-46.824768 804.79761 838.57715 4279571233
5.3009176 804.12219 838.00769 4280161824
8.2458715 804.57245 838.38739 4280227617
10.601835 804.79761 838.57715 4280095779
13.252294 804.79761 838.57715 4280095779
16.78624 804.79761 838.57715 4280030497
19.436697 804.79761 838.57715 4279899424
22.087158 804.79761 838.57715 4279702819
25.621101 804.79761 838.57715 4279900196
-45.798164 808.96393 838.16602 4279571233
-43.155968 808.29065 837.59827 4279637026
-40.51376 807.61731 837.03052 4279637026
-37.871559 807.61731 837.03052 4279898395
-21.137615 807.61731 837.03052 4279637026
0.88073397 808.29065 837.59827 4280095779
4.4036698 808.29065 837.59827 4280095779
7.6330276 808.51508 837.78754 4280227617
10.568808 808.96393 838.16602 4280161322
-46.678898 810.31061 839.30151 4279702043
-43.155964 810.31061 839.30151 4279571486
-40.387157 812.44641 837.17822 4279571233
-37.753212 812.44641 837.17822 4279571483
-34.241287 812.44641 837.17822 4279505434
-31.60734 812.44641 837.17822 4279504934
-28.973394 812.44641 837.17822 4279505187
-25.461468 812.44641 837.17822 4279899678
-21.949541 812.44641 837.17822 4280096027
-19.315596 812.44641 837.17822 4280161824
-16.681652 812.44641 837.17822 4280095779
-13.21101 810.31061 839.30151 4279637026
-10.568808 810.31061 839.30151 4279703069
-7.9155965 811.37854 838.23987 4279703069
-4.3899083 812.44641 837.17822 4279834399
-1.7559633 812.44641 837.17822 4279768862
0.88073397 810.31061 839.30151 4279702820
4.4036698 810.31061 839.30151 4279768610
7.0458717 810.31061 839.30151 4279571483
-42.14312 814.46008 838.87616 4279374108
-40.387157 814.46008 838.87616 4279308058
-37.753212 814.46008 838.8761 4279505690
-34.241287 814.46008 838.8761 4279505687
-31.60734 814.46008 838.87616 4279571233
-28.680735 814.23633 838.6875 4279439393
-25.461468 814.46008 838.87616 4279768353
-21.949543 814.46008 838.87616 4279833885
-19.315596 814.46008 838.87616 4279833628
-16.974312 814.23633 838.6875 4279898145
-7.0238533 813.78888 838.31018 4279900192
-4.3899083 814.46008 838.8761 4279900192
-1.7559633 814.46008 838.87616 4279703071
-29.78899 816.54962 838.02185 4279637026
118.38074 774.54956 841.84937 4279308317
121.99541 774.54956 841.84937 4278190096
124.70642 774.54956 841.84937 4278190094
109.31132 779.03595 841.70801 4291741399
112.61468 778.11761 840.93372 4282467158
103.28899 781.67725 840.01111 4293516526
105.98349 781.67725 840.01111 4294108917
-59.2789 783.73718 841.74805 4283121734
97.899994 784.42389 842.32703 4293516013
100.5945 783.05054 841.16907 4293385199
103.28899 783.05054 841.16907 4293517039
-57.306423 786.5976 840.23572 4282727498
77.005501 787.2821 840.81293 4280096033
79.691742 787.2821 840.81299 4280291601
82.377983 787.2821 840.81293 4282793763
84.765755 787.05396 840.62054 4284832596
88.645874 786.5976 840.23572 4284767371
91.332108 786.5976 840.23572 4292401663
94.018349 786.5976 840.23572 4293648884
-57.188992 790.7793 841.14563 4279503389
73.273392 790.7793 841.14563 4280161572
76.110092 789.33575 842.54443 4280227878
79.691742 789.33575 842.54443 4280426036
82.377983 789.33575 842.54443 4283780968
-57.188992 792.14563 842.29761 4280096030
-55.231194 794.3067 840.19568 4280096030
-52.558716 794.3067 840.19568 4280161572
55.231194 794.3067 840.19568 4280096030
57.903671 794.3067 840.19568 4280095779
61.466972 794.3067 840.19568 4279898651
65.030273 794.3067 840.19568 4279570981
67.702751 794.3067 840.19568 4279963938
70.375229 794.3067 840.19568 4280292389
73.273392 792.14563 842.29761 4281015084
-57.012844 796.34985 841.91846 4280161821
-55.231194 796.34985 841.91846 4280161821
-53.449543 795.66882 841.34424 4280161824
52.855656 796.57684 842.10986 4279899167
55.231194 796.34985 841.91846 4280096030
58.200611 796.12286 841.72705 4280161826
61.170029 796.12286 841.72705 4279898906
65.030273 795.66882 841.34424 4280160552
67.702751 795.66882 841.34424 4280358444
70.375229 795.66882 841.34424 4280556591
-55.060551 800.54144 841.52856 4280161824
-52.396332 799.86249 840.95605 4280030237
-49.732109 799.18353 840.38354 4279703069
35.522934 800.54144 841.52856 4280161824
37.299084 800.54144 841.52856 4280161824
39.667278 800.08881 841.14691 4279767837
44.403671 800.54144 841.52856 4279702817
46.771866 799.63617 840.7652 4279439895
49.732109 799.18353 840.38354 4279505184
-55.060551 801.89929 842.67346 4280096030
-52.288074 803.3288 841.2627 4279900192
-49.629356 802.65125 840.69147 4279637026
28.359632 802.65125 840.69147 4279965468
31.018349 802.65125 840.69141 4280096286
34.315594 801.92407 841.82245 4280095777
37.299084 801.89929 842.67346 4279963938
39.963303 801.89929 842.67346 4279373598
43.190216 801.92413 841.82245 4280030499
-49.629356 804.68384 842.40527 4279703069
-47.708256 806.82391 840.28564 4279571483
13.252294 806.82391 840.28564 4280161573
16.78624 806.82391 840.28564 4280096031
19.436697 806.82391 840.28564 4280161824
22.087156 806.82391 840.28564 4279834399
25.700916 804.68384 842.40527 4279834403
28.359632 804.68384 842.40527 4279898145
30.132111 804.68384 842.40527 4280029987
-49.475231 808.85022 841.9942 4279832605
8.8348627 808.85022 841.9942 4279834652
10.601835 808.85022 841.9942 4280096033
13.252294 808.85022 841.9942 4280029985
16.78624 808.17474 841.42468 4280096030
19.436697 808.17474 841.42468 4280293403
21.203671 808.17474 841.42468 4279900192
-46.678898 811.65723 840.43689 4279701793
-44.036697 811.65723 840.43689 4279571233
-13.21101 811.65723 840.43689 4279637026
-10.568808 811.65723 840.43689 4279900192
-8.8073397 811.65723 840.43689 4279900192
0.88073397 811.65723 840.43689 4279834403
4.4036698 811.65723 840.43689 4279900196
7.0458717 811.65723 840.43689 4279571733
-46.385319 813.45282 841.95087 4279570201
-44.036697 813.67725 842.14014 4279570713
-21.137615 814.35059 842.70789 4279898395
-19.376146 814.35059 842.70789 4279898395
-16.440367 813.90167 842.32941 4280029986
-13.21101 813.67725 842.14014 4280095777
-10.568808 813.67725 842.14014 4280031010
-7.9266057 813.67725 842.14014 4280031265
-4.4036698 814.35059 842.70789 4279703322
-1.7614679 814.35059 842.70789 4279769112
0.88073397 813.00391 841.57239 4280096030
3.5229359 813.00391 841.57239 4280096030
-42.14312 816.47375 840.57397 4279898395
-40.387157 816.47375 840.57397 4279898395
-37.753212 817.14496 841.14001 4280094747
-34.241287 817.14496 841.14001 4279832855
-31.60734 817.14502 841.13995 4279702046
-28.973396 817.14496 841.14001 4279767585
-25.754128 816.9212 840.95135 4279702303
-22.827522 816.47375 840.57397 4279769112
-34.241287 819.15869 842.83789 4279635984
-31.60734 819.15869 842.83789 4279701273
-29.851376 819.15869 842.83789 4279701273
126.89909 773.74493 845.09509 4278190090
115.66972 775.93127 843.0144 4278190080
118.38074 775.93127 843.0144 4279768862
121.99541 775.93127 843.0144 4279440677
124.70642 775.93127 843.0144 4278190085
110.2477 778.6947 845.34448 4288386728
112.95872 778.00385 844.76196 4281544015
115.66972 778.00385 844.76196 4278190080
118.38074 778.00391 844.76196 4279637277
121.69419 777.77362 844.56781 4279440417
124.70642 777.31299 844.17944 4278454813
-63.664837 781.33179 843.64386 4285949045
-61.262386 781.5614 843.83746 4282726976
100.90276 782.25012 844.41821 4293318638
103.60551 782.25012 844.41821 4293384685
106.30826 780.87262 843.25671 4294109688
108.11009 780.87262 843.25671 4293584375
-63.06422 783.62769 845.57971 4278255927
-61.07523 785.79718 843.48486 4279240722
-59.2789 785.79718 843.48486 4279832602
86.223854 785.79718 843.48486 4285951101
88.91835 785.79718 843.48486 4285359231
91.612846 785.79718 843.48486 4291872235
94.307343 785.79718 843.48486 4293320948
97.001831 785.79718 843.48486 4293318892
99.100914 783.62769 845.57971 4293384686
-61.07523 787.85718 845.2218 4279635223
-59.2789 787.17047 844.64282 4279503893
82.631195 788.54382 845.80078 4283977840
85.325684 787.17047 844.64282 4286675846
89.217735 787.62823 845.02881 4285623941
-59.097248 790.7049 843.69885 4280096030
76.110092 790.7049 843.69885 4281147433
79.691742 790.7049 843.69885 4280561181
-60.888073 792.07397 844.85327 4280096030
-58.976147 794.19507 844.0257 4280096030
57.188992 794.87823 844.60168 4280294177
62.550457 794.87823 844.60168 4280557345
64.337616 794.87823 844.60168 4280820521
67.018349 794.87823 844.60168 4281281589
70.592659 794.87823 844.60168 4281346875
73.423851 792.07397 844.85327 4281214777
76.110092 792.07397 844.85327 4281937201
78.796333 792.07397 844.85327 4282135834
-58.976147 796.24451 845.75366 4280096030
55.401836 796.24451 845.75366 4280360243
58.082569 796.24451 845.75366 4280754724
61.656879 796.24451 845.75366 4281149482
64.337616 796.24451 845.75366 4281478195
67.018349 796.24451 845.75366 4281412402
70.592659 796.24451 845.75366 4281542710
-57.606731 799.30103 844.4068 4280030237
46.322937 799.75507 844.78967 4280030487
48.995415 799.07404 844.21533 4280031520
52.558716 798.39294 843.64111 4279373601
-60.576145 801.11713 845.93811 4279832602
-57.903671 801.11713 845.93811 4279964444
-55.060551 803.2572 843.81836 4280096030
-52.396332 803.2572 843.81836 4280096030
31.970642 803.2572 843.81836 4280161824
34.634861 803.2572 843.81836 4280095776
37.299084 803.2572 843.81836 4279898399
