# .PCD v0.7 - Point Cloud Data file format
VERSION 0.7
FIELDS x y z rgb
SIZE 4 4 4 4
TYPE F F F U
COUNT 1 1 1 1
WIDTH 750
HEIGHT 1
VIEWPOINT 0 0 0 1 0 0 0
POINTS 750
DATA ascii
-62.066055 784.71198 1263.7555 4284904364
-59.678898 784.71198 1263.7555 4281219956
-62.066055 786.53699 1265.2943 4286219949
-57.291744 786.53699 1265.2943 4283789201
-54.904587 786.53699 1265.2943 4280696931
-58.305504 792.35016 1264.9637 4285165208
-82.651375 806.7851 1264.0547 4281219415
-82.651375 808.59045 1265.5769 4280761944
-64.70092 781.98688 1267.9979 4286219429
-66.84037 788.36194 1266.8331 4285760913
-64.453209 788.36194 1266.8331 4285760913
-62.066055 788.36194 1266.8331 4286153121
-58.485321 788.36194 1266.8331 4286087592
-54.904587 788.36194 1266.8331 4283259014
-52.517429 788.36194 1266.8331 4281089392
-50.130276 788.36194 1266.8331 4279839325
-70.421097 790.18695 1268.3719 4281487984
-66.84037 790.18695 1268.3719 4282472830
-64.453209 790.18695 1268.3719 4282143609
-62.066055 790.18695 1268.3719 4282930551
-54.904587 790.18695 1268.3719 4286215334
-52.517429 790.18695 1268.3719 4285822876
-50.130276 790.18695 1268.3719 4283454328
-47.743118 790.18695 1268.3719 4280763995
-49.976147 794.16956 1266.4978 4284112513
-74.28624 785.65088 1271.0874 4282336893
-70.691742 784.73486 1270.3149 4284770438
-67.097244 783.81885 1269.5426 4286351269
-64.70092 783.81885 1269.5426 4286285476
-59.908257 783.81885 1269.5426 4285956521
-46.728439 785.65088 1271.0874 4280760386
-74.001831 793.83698 1271.4495 4281814131
-70.421097 793.83698 1271.4495 4281946750
-66.84037 792.92444 1270.6802 4282340221
-64.453209 792.92444 1270.6802 4282011513
-62.066055 792.92444 1270.6802 4282011506
-58.485321 792.92444 1270.6802 4283063168
-54.904587 792.92444 1270.6802 4283983244
-52.517429 792.92444 1270.6802 4284310927
-50.130276 793.83698 1271.4495 4282930311
-46.549541 792.92444 1270.6802 4281616761
-61.636696 805.92847 1269.8724 4282012028
-59.266056 805.92847 1269.8724 4282143357
-71.119263 807.74084 1271.4006 4282536307
-67.563309 807.74084 1271.4006 4282470776
-64.007339 807.74084 1271.4006 4282142330
-61.636696 807.74084 1271.4006 4282011776
-59.266056 807.74084 1271.4006 4282011776
-56.895412 807.74084 1271.4006 4281946234
-76.682571 787.48291 1272.6321 4281087327
-74.28624 787.48291 1272.6321 4281811051
-45.530273 787.48291 1272.6321 4279974479
-76.682571 789.31494 1274.1768 4281089644
-74.28624 789.31494 1274.1768 4281878904
-70.691742 789.31494 1274.1768 4281880959
-43.133945 789.31494 1274.1768 4279841104
-40.737614 789.31494 1274.1768 4280038739
-76.388992 796.57446 1273.7577 4280761448
-74.001831 796.57446 1273.7577 4281616500
-70.421097 796.57446 1273.7577 4282077306
-66.84037 796.57446 1273.7577 4282209153
-64.453209 796.57446 1273.7577 4282011774
-62.066055 796.57446 1273.7577 4281946237
-58.485321 796.57446 1273.7577 4282077305
-54.904587 796.57446 1273.7577 4282274424
-52.517429 796.57446 1273.7577 4282471035
-50.130276 796.57446 1273.7577 4282536828
-46.549538 796.57446 1273.7577 4282537086
-80.913765 803.26648 1274.1682 4281350750
-73.774315 803.26648 1274.1682 4281814131
-70.601227 802.65997 1273.6569 4282011765
-66.634865 803.26648 1274.1682 4282274434
-64.255043 802.35681 1273.4011 4282077056
-61.875229 801.44714 1272.6342 4282011776
-57.908871 802.05353 1273.1455 4282142840
-54.735779 802.35681 1273.4011 4282339959
-52.355965 802.35681 1273.4011 4282339709
-49.976147 802.35681 1273.4011 4282339709
-46.406422 803.26648 1274.1682 4282732414
-73.489906 809.55322 1272.9287 4282273916
-71.119263 809.55322 1272.9287 4282732918
-67.563309 809.55322 1272.9287 4282602106
-64.007339 809.55322 1272.9287 4282010744
-61.636696 809.55322 1272.9287 4281945982
-59.266056 809.55322 1272.9287 4282011776
-55.710091 809.55322 1272.9287 4282012028
-49.783485 809.55322 1272.9287 4282339709
-73.489906 811.3656 1274.4569 4282274947
-71.119263 811.3656 1274.4569 4282536820
-67.563309 811.3656 1274.4569 4282536567
-64.007339 811.3656 1274.4569 4282339191
-61.636696 811.3656 1274.4569 4281749373
-59.266056 811.3656 1274.4569 4281749373
-55.710091 811.3656 1274.4569 4282012028
-52.154129 811.3656 1274.4569 4282273916
-49.783485 811.3656 1274.4569 4282339709
-55.494495 817.61731 1273.188 4282012281
-55.494495 819.42261 1274.7102 4281749371
-51.952293 819.42261 1274.7102 4282142330
-49.590824 819.42261 1274.7102 4282142330
-47.229359 819.42261 1274.7102 4282404218
-43.299084 782.93982 1275.3417 4281222997
-43.299084 784.77881 1276.8922 4280364620
-40.893578 784.77881 1276.8922 4280825171
-38.488075 784.77881 1276.8922 4281678681
-79.078896 791.14691 1275.7214 4281024864
-76.682571 791.14691 1275.7214 4281221994
-43.133945 791.14691 1275.7214 4282864754
-40.737614 791.14691 1275.7214 4280825171
-79.078896 792.97894 1277.2662 4280827488
-43.133945 792.97894 1277.2662 4282996094
-40.737614 792.97894 1277.2662 4280693340
-74.001831 799.31195 1276.0659 4281682297
-69.227524 799.31195 1276.0659 4282537855
-66.84037 799.31195 1276.0659 4282471558
-46.549541 799.31195 1276.0659 4282339455
-42.968807 799.31195 1276.0659 4282732936
-78.776146 801.13696 1277.6047 4281350750
-76.388992 801.13696 1277.6047 4281221994
-42.968807 801.13696 1277.6047 4282732418
-78.533943 805.08594 1275.7023 4281156198
-76.154129 805.99561 1276.4692 4281549938
-73.774315 805.08594 1275.7023 4282010746
-54.735779 805.08594 1275.7023 4282143357
-52.355965 805.99561 1276.4692 4282339709
-49.976147 805.08594 1275.7023 4282339709
-46.406425 805.99561 1276.4692 4282536061
-42.836697 806.90527 1277.2363 4282732414
-80.601837 813.17798 1275.9851 4281353832
-73.489906 814.08417 1276.7491 4282209154
-71.119263 814.08417 1276.7491 4282472310
-67.563309 814.08417 1276.7491 4282406266
-64.007339 814.08417 1276.7491 4282142587
-61.636696 814.08417 1276.7491 4282208123
-59.266056 814.08417 1276.7491 4282208123
-55.710091 813.17798 1275.9851 4282273916
-52.154129 814.08417 1276.7491 4282208123
-49.783485 814.08417 1276.7491 4282339709
-46.227524 814.08411 1276.7491 4282535805
-54.313763 821.22803 1276.2325 4282076791
-51.952293 821.22803 1276.2325 4282142330
-47.229359 821.22803 1276.2325 4282142330
-52.546791 754.737 1279.0303 4281552490
-41.049541 780.22882 1279.5958 4281222997
-37.427521 780.22882 1279.5958 4281284958
-79.381653 786.61786 1278.4429 4281416547
-37.285324 787.53741 1279.2183 4280888397
-33.677063 787.53735 1279.2183 4280560716
-31.271559 788.45691 1279.9935 4280560202
-28.866055 788.45691 1279.9935 4280428364
-81.475227 794.81097 1278.8109 4280827486
-79.078896 794.81097 1278.8109 4280893535
-43.133945 794.81097 1278.8109 4282602113
-40.737614 794.81097 1278.8109 4281812597
-81.475227 796.64294 1280.3556 4280827740
-79.078896 796.64294 1280.3556 4280827740
-76.682571 796.64294 1280.3556 4280826988
-40.737614 796.64294 1280.3556 4282601350
-38.341286 796.64294 1280.3556 4282272383
-82.35688 802.96198 1279.1434 4281023327
-42.968807 802.96198 1279.1434 4282798209
-81.1633 804.78699 1280.6823 4281090659
-78.776146 804.78699 1280.6823 4281222245
-79.723854 808.72467 1278.7704 4281353831
-76.154129 808.72467 1278.7704 4281485431
-46.406422 808.72467 1278.7704 4282732414
-78.533943 810.54407 1280.3044 4281617003
-76.154129 810.54407 1280.3044 4281485431
-42.836697 810.54407 1280.3044 4282732668
-78.231194 818.61511 1280.5696 4281550956
-75.86055 818.61511 1280.5696 4282799211
-73.489906 817.70892 1279.8054 4282800502
-71.119263 817.70892 1279.8054 4282801018
-67.563309 817.70898 1279.8054 4282077817
-64.007339 817.70892 1279.8054 4281683839
-61.636696 817.70892 1279.8054 4282011000
-59.266056 817.70892 1279.8054 4282076792
-56.895412 818.61511 1280.5696 4282142584
-49.783485 818.61511 1280.5696 4282142330
-45.042202 817.70892 1279.8054 4282404732
-36.220184 782.07483 1281.1523 4280955214
-31.390825 782.07483 1281.1523 4281610841
-37.285324 790.2959 1281.5442 4280429384
-33.677063 790.2959 1281.5442 4280494161
-37.285324 792.13495 1283.0947 4281679966
-33.677063 792.13495 1283.0947 4280428368
-40.737614 799.39099 1282.6726 4282732417
-38.341286 799.39099 1282.6726 4282798463
-42.968807 806.61194 1282.2211 4282732416
-79.723854 812.36346 1281.8385 4281419625
-76.154129 812.36346 1281.8385 4281485431
-42.836697 812.36346 1281.8385 4282732414
-78.533943 814.18286 1283.3726 4281879660
-76.154129 814.18286 1283.3726 4281485933
-42.836697 814.18286 1283.3726 4282732414
-80.601837 820.42749 1282.0977 4281024614
-75.86055 820.42749 1282.0977 4283586680
-73.489906 820.42749 1282.0977 4285626263
-71.119263 820.42749 1282.0977 4284841360
-67.563309 820.42749 1282.0977 4282145662
-64.007339 820.42749 1282.0977 4281160325
-61.636696 820.42749 1282.0977 4282142330
-59.266056 820.42749 1282.0977 4282339709
-55.710091 820.42749 1282.0977 4282273913
-52.154129 820.42749 1282.0977 4282339709
-49.783485 820.42749 1282.0977 4282273916
-46.227524 820.42749 1282.0977 4282535803
-73.489906 822.23987 1283.6259 4285560470
-71.119263 822.23987 1283.6259 4285100671
-67.563309 822.23987 1283.6259 4283260029
-64.007339 822.23987 1283.6259 4282142596
-61.636696 822.23987 1283.6259 4282339709
-59.266056 822.23987 1283.6259 4282273916
-55.710091 822.23987 1283.6259 4282208377
-52.154129 822.23987 1283.6259 4282798461
-49.783485 822.23987 1283.6259 4282732668
-47.412846 822.23987 1283.6259 4282602100
-31.390825 787.61298 1285.822 4280559955
-28.976147 787.61298 1285.822 4280297811
-26.561468 787.61298 1285.822 4281679464
-36.082569 793.974 1284.6454 4281746039
-33.677063 793.974 1284.6454 4279905636
-36.082569 795.81299 1286.196 4283127174
-40.737614 802.13904 1284.9897 4282732414
-42.836697 816.00226 1284.9066 4282536318
-75.86055 824.05225 1285.1539 4282337376
-73.489906 824.05225 1285.1539 4282797927
-71.119263 824.05225 1285.1539 4282994550
-67.563309 824.05225 1285.1539 4282863483
-64.007339 824.05225 1285.1539 4282535294
-61.636696 824.05225 1285.1539 4282535803
-59.266056 824.05225 1285.1539 4282470009
-55.710091 824.05225 1285.1539 4282535802
-52.154129 824.05225 1285.1539 4282798461
-79.416519 825.86462 1286.6821 4282337127
-75.86055 825.86462 1286.6821 4282140515
-73.489906 825.86462 1286.6821 4282206308
-71.119263 825.86462 1286.6821 4282665326
-61.636696 825.86462 1286.6821 4282928505
-59.266056 825.86462 1286.6821 4282862455
-31.390825 790.38202 1288.1567 4279509072
-36.082569 797.65204 1287.7466 4282995840
-37.285324 799.49109 1289.2972 4282798461
-40.737614 805.80304 1288.0791 4282798461
-40.737614 807.63507 1289.6239 4282732414
-42.968807 815.73694 1289.915 4282536570
-78.533943 821.46045 1289.5088 4282402924
-76.154129 819.64099 1287.9747 4283191922
-49.976147 821.46045 1289.5088 4282864254
-46.406422 820.55072 1288.7417 4282667636
-75.86055 827.677 1288.2102 4282536809
-73.489906 827.677 1288.2102 4282536809
-71.119263 827.677 1288.2102 4282536307
-61.636696 827.677 1288.2102 4282928505
-61.636696 829.48938 1289.7384 4283125627
-29.086239 786.78302 1291.6624 4279181636
-26.662386 786.78302 1291.6624 4281155169
-33.805504 794.0741 1291.2698 4283061895
-40.893578 801.33008 1290.8479 4282732416
-40.737614 809.46704 1291.1686 4282732414
-40.737614 811.29907 1292.7133 4282536318
-45.355965 819.38696 1292.9927 4282798965
-69.014679 823.27979 1291.0428 4282796912
-66.634865 823.27979 1291.0428 4282470012
-64.255043 823.27979 1291.0428 4282535805
-57.115597 823.27979 1291.0428 4282470012
-54.735779 823.27979 1291.0428 4282535805
-52.355965 823.27979 1291.0428 4282994298
-49.976147 823.27979 1291.0428 4282994298
-47.596329 823.27979 1291.0428 4282798711
-69.014679 825.09918 1292.5769 4282536307
-66.634865 825.09918 1292.5769 4282928505
-64.255043 825.09918 1292.5769 4282928505
-58.305504 825.09918 1292.5769 4282928502
-29.086239 788.63611 1293.2249 4278198588
-26.662386 788.63611 1293.2249 4280041049
-31.510092 790.48914 1294.7874 4282404216
-33.805504 796.8432 1293.6047 4282471556
-37.427521 798.68921 1295.1613 4282798461
-37.285324 805.92773 1294.7244 4282405495
-43.133945 814.96313 1295.8027 4282602363
-40.737614 814.04712 1295.0303 4282602363
-45.355965 821.21198 1294.5314 4282798711
-64.255043 826.91858 1294.111 4283125627
-58.305504 826.91858 1294.111 4283125625
-24.348623 784.50256 1297.5878 4281550195
-21.913761 784.50256 1297.5878 4281484146
-31.510092 793.26868 1297.131 4282668166
-37.427521 800.53528 1296.7178 4282798715
-33.805504 802.38135 1298.2743 4282733949
-37.285324 808.68622 1297.0503 4282536318
-33.677063 808.68622 1297.0503 4282733953
-37.285324 810.52527 1298.601 4282668158
-33.677063 810.52527 1298.601 4282864767
-31.271559 810.52527 1298.601 4282864767
-43.133945 817.71118 1298.1198 4282602363
-40.737614 817.71118 1298.1198 4282602363
-38.341286 818.62714 1298.8921 4282668158
-34.746788 818.62714 1298.8921 4282799996
-54.904587 823.94946 1296.8396 4283060343
-52.517429 823.94946 1296.8396 4282797941
-50.130276 823.03699 1296.0702 4282994550
-46.549541 823.94952 1296.8396 4282536307
-33.188992 838.55127 1297.3792 4283127928
-30.818348 838.55127 1297.3792 4283325307
-28.447706 838.55127 1297.3792 4283654272
-26.077065 838.55127 1297.3792 4283456893
-29.218349 787.2948 1299.942 4281551976
-25.566055 787.2948 1299.942 4282930811
-21.913761 787.2948 1299.942 4284967577
-19.478899 787.2948 1299.942 4284378011
-29.218349 789.15625 1301.5116 4282930309
-25.566055 789.15625 1301.5116 4283126660
-21.913761 789.15625 1301.5116 4285493923
-33.933945 796.97485 1300.2559 4282602624
-31.510092 796.97485 1300.2559 4282602624
-33.805504 804.22736 1299.8308 4282668158
-31.390825 806.07336 1301.3873 4282733953
-37.285324 812.36426 1300.1516 4282668156
-33.677063 812.36426 1300.1516 4282733949
-31.271559 812.36426 1300.1516 4282733949
-28.866055 812.36426 1300.1516 4282733949
-37.285324 814.20331 1301.7021 4282472060
-33.677063 814.20331 1301.7021 4282799742
-31.271559 814.20331 1301.7021 4282865792
-28.866055 814.20331 1301.7021 4282733949
-43.133945 820.45917 1300.4368 4282666873
-40.737614 820.45917 1300.4368 4282798459
-38.341286 820.45917 1300.4368 4282864767
-34.746788 820.45917 1300.4368 4282865023
-31.152294 820.45917 1300.4368 4282799742
-28.755962 820.45917 1300.4368 4282799744
-50.322937 822.2912 1301.9814 4282732918
-43.133945 822.2912 1301.9814 4282666621
-40.737614 822.2912 1301.9814 4282732414
-38.341286 822.2912 1301.9814 4282602365
-34.746788 822.2912 1301.9814 4282668157
-31.152294 822.2912 1301.9814 4282733949
-28.755962 822.2912 1301.9814 4282930309
-54.904587 826.68701 1299.1478 4283323512
-52.517429 826.68701 1299.1478 4283389306
-50.130276 826.68701 1299.1478 4283586428
-46.549541 826.68701 1299.1478 4283325307
-52.517429 828.51196 1300.6866 4283390850
-45.355965 828.51196 1300.6866 4283325307
-35.697247 836.0155 1301.7812 4283323508
-17.108257 784.63281 1304.2377 4282141049
-14.66422 784.63281 1304.2377 4279909218
-29.218349 791.0177 1303.0812 4282471810
-25.566055 791.0177 1303.0812 4282602369
-21.913761 791.0177 1303.0812 4283259014
-19.478899 791.0177 1303.0812 4283061399
-29.218349 792.87921 1304.6508 4282471810
-25.566055 792.87921 1304.6508 4282668418
-21.913761 792.87921 1304.6508 4282996356
-31.510092 799.75439 1302.5996 4282668156
-31.510092 801.60742 1304.162 4282733951
-29.086239 801.60742 1304.162 4282930301
-28.976147 807.91943 1302.9438 4282733949
-26.561468 809.7655 1304.5005 4282733949
-31.271559 816.04236 1303.2528 4282800248
-28.866055 816.04236 1303.2528 4282930560
-25.658714 817.26837 1304.2866 4282799231
-43.133945 824.12317 1303.5262 4282996094
-40.737614 824.12317 1303.5262 4282864508
-38.341286 824.12317 1303.5262 4282864508
-34.746788 824.12317 1303.5262 4282799226
-31.152294 824.12317 1303.5262 4282668408
-28.755962 824.12317 1303.5262 4282603135
-45.355965 830.33698 1302.2253 4283654270
-42.968807 830.33698 1302.2253 4283391100
-34.613762 830.33698 1302.2253 4283324536
-45.355965 832.16199 1303.7642 4283195517
-42.968807 832.16199 1303.7642 4283259260
-40.58165 832.16199 1303.7642 4283456895
-38.194496 832.16199 1303.7642 4283654272
-34.613762 832.16199 1303.7642 4283588477
-31.033028 832.16199 1303.7642 4283720317
-24.825687 756.37109 1307.8767 4278723935
-19.552294 786.50128 1305.8131 4284837024
-17.108257 787.43555 1306.6008 4282863499
-13.442202 787.43549 1306.6008 4281485165
-29.218349 794.74066 1306.2202 4282537855
-25.566055 794.74066 1306.2202 4282471808
-29.218349 796.60217 1307.7898 4282734199
-25.566055 796.60217 1307.7898 4282799483
-29.086239 803.46051 1305.7245 4282733949
-25.450459 805.3136 1307.2869 4282733949
-25.35413 811.61151 1306.057 4282471293
-24.14679 813.45758 1307.6135 4282733951
-25.658714 820.33344 1306.871 4282865026
-50.322937 826.87122 1305.8433 4283654788
-47.926605 826.87122 1305.8433 4283654271
-43.133945 825.9552 1305.0709 4283193217
-40.737614 826.87122 1305.8433 4283390848
-38.341286 826.87122 1305.8433 4283390849
-34.746788 825.9552 1305.0709 4282798711
-31.152294 826.87122 1305.8433 4283127156
-28.755962 826.87122 1305.8433 4282930299
-40.58165 833.987 1305.303 4283323260
-38.194496 833.987 1305.303 4283257715
-19.552294 790.23828 1308.9641 4283061897
-17.108257 790.23828 1308.9641 4282996104
-14.66422 790.23828 1308.9641 4282538105
-21.99633 792.10675 1310.5396 4282603397
-19.552294 792.10675 1310.5396 4282930562
-17.108257 792.10675 1310.5396 4282864769
-25.566055 799.39441 1310.144 4282865020
-24.238533 807.16663 1308.8494 4282733949
-21.814678 808.09314 1309.6306 4282668672
-21.732111 815.30359 1309.17 4282996354
-21.732111 817.14966 1310.7266 4282996356
-25.257797 823.39844 1309.4553 4282996354
-12.266055 787.59735 1313.2775 4282209141
-9.8128443 787.59735 1313.2775 4281026681
-21.99633 793.97522 1312.115 4282864767
-19.552294 793.97522 1312.115 4282864767
-17.108257 793.97522 1312.115 4282733438
-14.66422 793.97522 1312.115 4282667904
-21.99633 795.84375 1313.6904 4282930301
-17.108257 795.84375 1313.6904 4282733949
-21.913761 802.18652 1312.4984 4282733949
-21.814678 810.87274 1311.9742 4282799744
-19.390825 812.72583 1313.5366 4282996354
-24.14679 818.99573 1312.2831 4282996354
-25.257797 825.23749 1311.006 4283193215
-13.083793 790.09796 1315.386 4282602365
-9.8128443 791.34833 1316.4402 4282538105
-21.99633 797.71222 1315.2659 4282668406
-19.552294 797.71222 1315.2659 4282734201
-17.108257 797.71222 1315.2659 4282734201
-19.552294 799.58069 1316.8413 4282734201
-17.108257 799.58069 1316.8413 4282668408
-19.478899 804.04803 1314.068 4282733949
-17.044037 804.04803 1314.068 4282668156
-21.814678 816.43188 1316.6616 4283062403
-9.8495417 786.83899 1319.1782 4282472060
-19.625689 793.22382 1318.0216 4282733949
-13.492661 793.22382 1318.0216 4282537088
-13.492661 795.0993 1319.603 4282798976
-9.8128443 795.0993 1319.603 4284244864
-19.552294 803.31769 1319.9923 4282865792
-17.108257 803.31769 1319.9923 4282733949
-14.66422 801.44922 1318.4169 4281946234
-19.478899 807.771 1317.207 4282996354
-17.044037 807.771 1317.207 4282996354
-7.387156 788.7215 1320.7655 4282340727
-9.8495417 790.604 1322.3528 4282404989
-7.387156 790.604 1322.3528 4282339196
-14.719266 796.97485 1321.1843 4282602113
-19.478899 811.4939 1320.3462 4283062403
-19.478899 813.35541 1321.9156 4282996354
-9.930275 777.24847 1325.48 4281811305
-7.4477062 777.24847 1325.48 4281942891
-4.9651375 777.24847 1325.48 4281221994
-7.4146791 784.20508 1323.4974 4282077302
-4.943119 784.20508 1323.4974 4282076519
-4.943119 786.0946 1325.0907 4281421174
-12.311927 794.36902 1325.5273 4282799493
-9.8495417 794.36902 1325.5273 4284835216
-7.387156 792.48651 1323.9401 4284573573
-14.719266 802.60132 1325.9285 4282471810
-17.108257 807.98889 1323.9309 4283062403
-7.4477062 779.14642 1327.0803 4280500081
-4.9651375 779.14642 1327.0803 4280827486
-2.4825687 781.04437 1328.6807 4282142312
-4.943119 787.98413 1326.6838 4282143861
-4.943119 789.87366 1328.2771 4283522952
-12.311927 796.25153 1327.1146 4282275199
-9.8495417 796.25153 1327.1146 4285165964
-13.543119 798.13403 1328.7019 4282209407
-9.8495417 798.13403 1328.7019 4285036452
-12.266055 804.47681 1327.5099 4282734210
-21.99633 812.6601 1327.8696 4282931331
-19.552294 812.6601 1327.8696 4283128196
-17.108257 811.72583 1327.0819 4283062403
-2.4825687 782.94232 1330.2809 4281289587
0 782.94232 1330.2809 4281483898
-2.4825687 784.84027 1331.8812 4282012531
0 784.84027 1331.8812 4283321712
-7.4146791 791.76318 1329.8702 4287730108
-4.943119 791.76318 1329.8702 4286747842
-7.4146791 793.65271 1331.4635 4287929270
-12.311927 800.01654 1330.2892 4283129741
-9.8495417 800.01654 1330.2892 4284575403
-7.387156 800.01654 1330.2892 4288325604
-14.774312 801.89905 1331.8765 4282800260
-9.8495417 801.89905 1331.8765 4282538383
-7.387156 801.89905 1331.8765 4284249001
-14.719266 808.22784 1330.6726 4283127942
-21.99633 814.52856 1329.4451 4283259012
-19.552294 814.52856 1329.4451 4283193219
-21.99633 816.39709 1331.0205 4283324803
-2.4825687 786.73822 1333.4816 4282272885
0 786.73822 1333.4816 4282734451
-7.4146791 795.54224 1333.0566 4287733965
-4.943119 796.487 1333.8533 4287470032
-12.311927 803.78162 1333.4637 4282800006
-9.8495417 803.78162 1333.4637 4282472060
-7.387156 803.78162 1333.4637 4283195784
-17.172478 811.97882 1333.8353 4283259012
-14.719266 811.04108 1333.0447 4283062150
-24.440367 818.26556 1332.5959 4283783811
-7.53578 766.85468 1337.6448 4282537855
-2.4825687 788.63611 1335.0818 4284313501
0 788.63611 1335.0818 4281358985
-4.9651375 790.53406 1336.6821 4287797460
-2.4825687 790.53406 1336.6821 4285889462
0 790.53406 1336.6821 4282867379
-4.943119 799.32129 1336.243 4284972726
-14.829358 801.21082 1337.8363 4282865799
-4.943119 801.21082 1337.8363 4284577189
-2.4715595 801.21082 1337.8363 4286879944
-12.311927 805.66412 1335.051 4283325320
-9.8495417 805.66412 1335.051 4283324803
-7.387156 805.66412 1335.051 4283193217
-12.311927 807.54663 1336.6384 4283193737
-9.8495417 807.54663 1336.6384 4283193991
-7.387156 807.54663 1336.6384 4283127942
2.5009174 778.64447 1339.7375 4283521414
5.0018349 778.64447 1339.7375 4287529109
-2.4825687 793.38098 1339.0825 4286746053
0 794.32996 1339.8827 4286484934
-4.943119 803.10034 1339.4294 4282602379
-2.4715595 803.10034 1339.4294 4283062930
-12.311927 809.42914 1338.2256 4283193991
-9.8495417 809.42914 1338.2256 4283193991
-7.387156 809.42914 1338.2256 4283325320
-19.699083 811.31165 1339.813 4283259012
-17.236698 811.31165 1339.813 4283259012
-13.543119 811.31165 1339.813 4283259014
-9.8495417 811.31165 1339.813 4283325320
-7.387156 811.31165 1339.813 4283325320
-2.53211 757.14215 1343.8438 4282143625
0 757.14215 1343.8438 4282604162
-5.042202 764.19971 1341.9463 4283456909
-2.521101 766.12708 1343.5714 4282340731
2.5009174 781.51245 1342.1556 4285037206
2.5009174 783.42444 1343.7678 4281490571
0 789.84021 1342.6372 4286417857
-2.4825687 796.22791 1341.483 4286617551
0 796.22791 1341.483 4287341526
0 798.12585 1343.0833 4287208404
-4.943119 805.93463 1341.8193 4283127687
-2.4715595 805.93463 1341.8193 4282864772
-19.699083 814.13538 1342.1938 4283456129
-17.236698 813.19415 1341.4003 4283651969
-7.5963302 759.07794 1345.476 4282408080
-5.06422 759.07794 1345.476 4283129491
0 800.0238 1344.6836 4283984034
0 801.92175 1346.2839 4282339977
-4.943119 808.76892 1344.2091 4283193737
-2.4715595 808.76892 1344.2091 4283127944
-13.593578 810.65845 1345.8022 4283651971
-9.8862381 810.65845 1345.8022 4283456395
-7.4146791 810.65845 1345.8022 4283390346
5.0238533 780.29742 1348.9794 4281683328
2.5009174 789.16034 1348.6042 4286616263
2.4917431 797.46002 1349.062 4286747340
0 803.8197 1347.8842 4282800260
0 805.71765 1349.4845 4282931596
-7.4146791 812.54797 1347.3955 4283456909
-10.165137 758.35883 1351.4097 4280893031
7.5633025 773.83673 1350.072 4291999451
5.042202 775.76416 1351.6971 4287925675
7.5633025 775.76416 1351.6971 4290557394
5.0238533 782.21777 1350.5986 4281159033
2.5119267 784.13818 1352.2178 4286286015
2.5009174 791.07227 1350.2163 4286354631
2.5009174 792.98425 1351.8285 4286813647
2.4917431 799.36499 1350.6682 4285760956
2.4917431 801.26996 1352.2744 4283655312
-4.9651375 808.56458 1351.885 4283063177
-2.4825687 807.6156 1351.0848 4282931848
0 807.6156 1351.0848 4283063436
10.12844 770.69287 1355.2694 4291611627
2.521101 779.6189 1354.9474 4281748642
7.5633025 778.65521 1354.1348 4281486973
5.0238533 787.0188 1354.6467 4286550720
5.0018349 794.89624 1353.4406 4286814412
5.0018349 796.80823 1355.0527 4286286285
2.4917431 803.17493 1353.8806 4283194512
22.970642 757.12415 1358.2169 4290561269
25.522936 757.12415 1358.2169 4290429947
10.12844 772.62866 1356.9016 4290822129
10.12844 774.56451 1358.5338 4283129754
5.042202 781.54633 1356.5725 4284053673
7.5633025 783.47375 1358.1978 4283326350
5.0238533 789.89935 1357.0754 4286485940
5.0018349 800.63214 1358.277 4283064199
22.970642 759.07538 1359.8622 4290298359
10.12844 776.50037 1360.166 4280305532
7.5963302 778.43616 1361.7983 4282145676
10.12844 778.43616 1361.7983 4280896889
12.66055 778.43616 1361.7983 4281226111
7.5633025 785.40112 1359.8229 4285564082
10.084404 785.40112 1359.8229 4284380074
12.605505 785.40112 1359.8229 4282669199
7.5633025 787.32855 1361.448 4285761960
10.084404 787.32855 1361.448 4284247486
12.605505 787.32855 1361.448 4282733990
2.5009174 802.54413 1359.889 4283260559
5.0018349 802.54413 1359.889 4283195015
20.491743 756.43451 1364.1755 4290627324
25.614679 756.43451 1364.1755 4290364667
12.761468 764.92914 1364.798 4291480041
10.12844 780.37195 1363.4305 4282406535
12.66055 780.37195 1363.4305 4281682556
15.19266 780.37195 1363.4305 4282012030
7.5633025 790.21967 1363.8857 4284905395
10.084404 790.21967 1363.8857 4282672036
12.605505 790.21967 1363.8857 4281948313
15.126605 791.18335 1364.6982 4282733963
12.80734 760.35107 1367.4779 4290887877
17.930275 760.35107 1367.4779 4290824191
20.491743 760.35107 1367.4779 4290430453
17.78899 777.78717 1367.7913 4286551490
15.19266 782.3078 1365.0627 4281290882
16.458715 784.24365 1366.6949 4282802840
5.042202 793.11072 1366.3234 4284115382
12.605505 793.11072 1366.3234 4282734733
15.126605 793.11072 1366.3234 4283127942
7.5633025 795.03815 1367.9485 4283195786
10.084404 795.03815 1367.9485 4283195536
12.605505 795.03815 1367.9485 4282800778
-2.5119267 801.42169 1366.7908 4283063434
0 801.42169 1366.7908 4282997900
12.80734 764.26758 1370.7802 4291611389
17.930275 763.28845 1369.9546 4290758905
20.491743 762.30933 1369.129 4290167543
23.053211 763.28845 1369.9546 4290364918
25.614679 764.26758 1370.7802 4290627324
17.78899 779.72998 1369.4293 4283461795
16.880735 786.82471 1368.8712 4284181917
20.25688 788.11523 1369.9595 4286875076
12.605505 796.96558 1369.5736 4282998152
15.126605 796.96558 1369.5736 4282734215
15.434862 757.19873 1372.6681 4290232063
12.80734 766.22583 1372.4314 4287011541
17.930275 766.22583 1372.4314 4291087100
23.053211 766.22583 1372.4314 4290824959
25.614679 766.22583 1372.4314 4290825215
28.176147 766.22583 1372.4314 4291022591
15.313762 772.73413 1371.3789 4283522452
20.418348 774.68536 1373.0242 4285759952
22.970642 774.68536 1373.0242 4283720626
25.522936 774.68536 1373.0242 4279122846
20.330275 781.67285 1371.0675 4286286008
20.330275 783.61566 1372.7057 4287072710
22.871559 783.61566 1372.7057 4286677952
7.5963302 790.05109 1371.5917 4283720624
10.12844 790.05109 1371.5917 4283129491
16.880735 791.34161 1372.6797 4284312987
20.25688 790.05109 1371.5917 4285957306
1.680734 800.17792 1372.2822 4283063946
5.042202 798.89294 1371.1987 4282932361
15.434862 760.14874 1375.1555 4290693112
20.579817 761.13208 1375.9846 4290496245
12.80734 768.18408 1374.0825 4284516284
17.076452 768.83685 1374.6328 4289640424
20.491743 770.14233 1375.7336 4289377520
23.053211 769.16321 1374.9081 4289113828
25.614679 769.16321 1374.9081 4288783585
28.176147 768.18408 1374.0825 4290889727
20.418348 776.6366 1374.6694 4283660223
22.970642 776.6366 1374.6694 4282870707
22.970642 778.58789 1376.3147 4286746559
25.522936 778.58789 1376.3147 4284376492
22.871559 785.55847 1374.3438 4285690803
25.412844 785.55847 1374.3438 4285295726
22.871559 787.50134 1375.9819 4284444067
25.412844 787.50134 1375.9819 4285233015
7.5963302 793.92273 1374.8562 4283195015
10.12844 793.92273 1374.8562 4283195788
7.5963302 795.85852 1376.4884 4282800776
10.12844 795.85852 1376.4884 4282998154
12.66055 795.85852 1376.4884 4282998154
7.5633025 802.7478 1374.4491 4283986333
10.084404 802.7478 1374.4491 4283853478
12.605505 802.7478 1374.4491 4282406031
15.434862 763.09875 1377.6429 4289902570
20.579817 763.09875 1377.6429 4290824959
20.579817 765.06543 1379.3011 4291678975
25.614679 774.0589 1379.036 4280503947
28.176147 774.0589 1379.036 4280240518
35.86055 774.0589 1379.036 4281421183
25.522936 780.53912 1377.9598 4286673808
28.07523 781.51477 1378.7825 4289043886
30.627523 781.51477 1378.7825 4290888673
33.179817 780.53912 1377.9598 4290823661
17.78899 791.38696 1379.2582 4282076285
20.330275 790.41553 1378.4392 4283457691
22.871559 789.44415 1377.6201 4284772785
5.06422 797.79437 1378.1206 4282933391
7.5963302 797.79437 1378.1206 4282867598
10.12844 797.79437 1378.1206 4283457942
12.66055 797.79437 1378.1206 4282470791
28.176147 776.01715 1380.6871 4283981734
30.737616 776.01715 1380.6871 4285033904
34.579819 776.01715 1380.6871 4284443301
38.42202 776.01715 1380.6871 4281484150
35.86055 777.9754 1382.3383 4290363125
28.07523 784.44165 1381.2504 4289509560
30.627523 784.44165 1381.2504 4291020272
25.522936 786.39288 1382.8956 4286351510
16.518349 793.32983 1380.8964 4282405250
20.330275 793.32983 1380.8964 4281617787
16.518349 795.27264 1382.5345 4282601082
20.330275 795.27264 1382.5345 4281485433
34.579819 779.93372 1383.9895 4291809527
38.42202 779.93372 1383.9895 4287270616
34.579819 781.89197 1385.6406 4290560242
38.42202 781.89197 1385.6406 4291087359
25.522936 788.34412 1384.5409 4288654808
15.247706 797.21552 1384.1726 4281749625
23.053211 785.80847 1388.9429 4287208656
28.176147 783.85022 1387.2917 4289969869
30.737616 783.85022 1387.2917 4288850663
25.522936 790.29541 1386.186 4289769970
23.053211 787.76672 1390.5941 4287341778
28.297247 782.76556 1394.2255 4289904618
30.869724 782.76556 1394.2255 4285964763
33.442204 781.78223 1393.3962 4283920556
37.300919 781.78223 1393.3964 4285172651
41.159634 781.78223 1393.3962 4286551246
23.053211 789.72498 1392.2452 4282472329
28.297247 784.73224 1395.8837 4291546111
30.869724 784.73224 1395.8837 4290495715
33.442204 784.73224 1395.8837 4283587450
37.300919 784.73224 1395.8837 4280698245
41.159634 784.73224 1395.8837 4283390859
25.724771 786.69891 1397.542 4285494445
28.297247 786.69891 1397.542 4290560506
30.869724 786.69891 1397.542 4291217655
33.442204 786.69891 1397.542 4286875317
37.300919 786.69891 1397.542 4287990189
25.724771 788.66559 1399.2002 4285294974
28.297247 788.66559 1399.2002 4290032071
30.869724 788.66559 1399.2002 4290820832
33.442204 788.66559 1399.2002 4287333547
36.014679 788.66559 1399.2002 4285364393
30.869724 790.63232 1400.8584 4290362358
33.442204 790.63232 1400.8584 4283322507
36.014679 790.63232 1400.8584 4279710579
25.724771 792.599 1402.5167 4287535305
28.297247 792.599 1402.5167 4289772267
30.869724 792.599 1402.5167 4288391355
23.251375 787.62311 1406.1693 4282934135
25.834862 787.62311 1406.1693 4288582585
28.418348 787.62311 1406.1693 4291477733
