# .PCD v0.7 - Point Cloud Data file format
VERSION 0.7
FIELDS x y z rgb
SIZE 4 4 4 4
TYPE F F F U
COUNT 1 1 1 1
WIDTH 906
HEIGHT 1
VIEWPOINT 0 0 0 1 0 0 0
POINTS 906
DATA ascii
25.976147 767.06714 1230.5654 4289636027
34.241287 767.06714 1230.5654 4289833922
25.976147 768.8725 1232.0876 4289374138
28.337614 768.8725 1232.0876 4289570234
35.42202 768.8725 1232.0876 4290228934
37.783485 768.8725 1232.0876 4290163650
18.965137 764.24384 1234.7251 4289964740
22.521101 764.24384 1234.7251 4289899457
28.447706 764.24384 1234.7251 4289569982
30.818348 764.24384 1234.7251 4289701824
37.930275 764.24384 1234.7251 4290163386
40.300919 764.24384 1234.7251 4290229436
28.337614 770.67786 1233.6099 4289965755
28.337614 772.48322 1235.1322 4290032323
34.507339 759.6012 1237.3507 4289833919
38.077065 759.6012 1237.3507 4289966007
14.223853 767.86859 1237.7814 4284768626
16.594496 767.86859 1237.7814 4287597725
18.965137 766.9624 1237.0173 4289175475
22.521101 766.9624 1237.0173 4289833917
26.077065 767.86859 1237.7814 4289570997
30.818348 766.9624 1237.0173 4289965502
33.979206 767.26447 1237.272 4289965761
37.930275 767.86859 1237.7814 4290294979
40.300919 766.9624 1237.0173 4290229186
42.671558 766.9624 1237.0173 4290229188
44.867889 776.09393 1238.1766 4290426056
44.693577 784.27722 1238.5364 4290492099
31.033028 757.33698 1240.6737 4289702076
16.658716 763.23993 1240.4188 4288846777
14.223853 769.68097 1239.3094 4283192424
16.594496 769.68097 1239.3094 4282797666
18.965137 769.68097 1239.3094 4283060073
22.521101 769.68097 1239.3094 4288453046
26.077065 769.68097 1239.3094 4290359246
30.818348 769.68097 1239.3094 4289900480
34.374313 769.68097 1239.3094 4290162625
37.930275 769.68097 1239.3094 4290228932
40.300919 769.68097 1239.3094 4290228932
42.671558 769.68097 1239.3094 4290294725
45.042202 769.68097 1239.3094 4290426054
14.223853 771.49335 1240.8376 4283718005
16.594496 771.49335 1240.8376 4282731110
18.965137 771.49335 1240.8376 4281878100
22.521101 771.49335 1240.8376 4287139503
26.077065 771.49335 1240.8376 4290098409
28.447706 771.49335 1240.8376 4290228932
30.818348 771.49335 1240.8376 4289965503
34.374313 771.49335 1240.8376 4289965505
37.930275 771.49335 1240.8376 4290162373
40.300919 771.49335 1240.8376 4290293703
42.671558 771.49335 1240.8376 4290228934
43.687157 778.802 1240.46 4290491078
47.229359 778.802 1240.46 4290556874
44.693577 787.8739 1241.569 4290623174
47.045872 787.8739 1241.569 4290295240
26.359632 754.50665 1244.8274 4289505724
28.755962 754.50665 1244.8274 4289570234
11.899082 766.87872 1243.4869 4283651176
14.223853 773.30573 1242.3658 4284310907
16.594496 773.30573 1242.3658 4283652977
18.965137 773.30573 1242.3658 4281814364
22.521101 773.30573 1242.3658 4286220447
26.077065 773.30573 1242.3658 4289902038
28.447706 773.30573 1242.3658 4290294727
30.818348 773.30573 1242.3658 4290031298
34.374313 773.30573 1242.3658 4290097091
37.930275 773.30573 1242.3658 4290293955
40.300919 773.30573 1242.3658 4290359748
42.671558 773.30573 1242.3658 4290228934
47.412846 773.30573 1242.3658 4290426056
49.783485 773.30573 1242.3658 4290426056
14.223853 775.1181 1243.8939 4284507517
16.594496 775.1181 1243.8939 4283981172
18.965137 775.1181 1243.8939 4282929257
22.521101 775.1181 1243.8939 4286415512
26.077065 775.1181 1243.8939 4289902281
28.447706 775.1181 1243.8939 4290228934
30.818348 775.1181 1243.8939 4289965505
34.374313 775.1181 1243.8939 4290228677
37.930275 775.1181 1243.8939 4290228930
40.300919 775.1181 1243.8939 4290163137
42.50642 781.51001 1242.7433 4290426306
47.229359 781.51001 1242.7433 4290228682
43.687157 783.31543 1244.2656 4290492099
47.229359 783.31543 1244.2656 4290032073
44.693577 790.57141 1243.8435 4290557130
11.981651 758.17065 1247.9167 4285688447
14.377981 758.17065 1247.9167 4286544022
9.548624 764.63696 1246.8289 4282664281
10.709174 769.60779 1245.7881 4283388008
46.406422 768.69812 1245.021 4290360264
49.976147 768.69812 1245.021 4290294473
14.223853 776.93048 1245.4221 4284573060
16.594496 776.93048 1245.4221 4283520372
18.965137 776.93048 1245.4221 4282533726
22.521101 776.93048 1245.4221 4287072671
26.077065 776.93048 1245.4221 4290229193
28.447706 776.93048 1245.4221 4290096578
30.818348 776.93048 1245.4221 4290030785
34.374313 776.93048 1245.4221 4290162884
37.930275 776.93048 1245.4221 4290163139
40.300919 776.93048 1245.4221 4290294725
11.853211 778.74286 1246.9502 4286151567
14.223853 778.74286 1246.9502 4284966536
16.594496 778.74286 1246.9502 4283519090
18.965137 778.74286 1246.9502 4282599522
22.521101 778.74286 1246.9502 4288125095
26.077065 778.74286 1246.9502 4290624191
28.447706 778.74286 1246.9502 4290425541
30.818348 778.74286 1246.9502 4290162625
34.374313 778.74286 1246.9502 4290162884
37.930275 778.74286 1246.9502 4290032069
40.300919 778.74286 1246.9502 4290295240
42.50642 785.12079 1245.7878 4290491588
42.50642 786.92615 1247.3101 4290096578
13.230275 753.51538 1250.5317 4289373894
16.838531 753.51538 1250.5317 4289833420
10.709174 772.33691 1248.0891 4283454049
10.709174 774.15625 1249.6232 4283520873
11.853211 781.46143 1249.2424 4284572022
14.223853 781.46143 1249.2424 4284178038
16.594496 781.46143 1249.2424 4282336091
18.965137 781.46143 1249.2424 4282138448
22.521101 781.46143 1249.2424 4289507007
26.077065 781.46143 1249.2424 4290033350
28.447706 781.46143 1249.2424 4290228164
30.818348 781.46143 1249.2424 4290162371
34.374313 781.46143 1249.2426 4290096837
37.930275 781.46143 1249.2424 4290031810
40.300919 781.46143 1249.2424 4290426312
40.144955 788.73151 1248.8323 4290623428
42.50642 788.73151 1248.8323 4290293703
40.144955 790.53687 1250.3545 4290162885
42.50642 790.53687 1250.3545 4289833922
9.6220188 755.35437 1252.0823 4282859348
7.1889906 763.66675 1252.5509 4282861913
7.161468 770.11194 1251.4452 4282730074
7.161468 771.93695 1252.984 4282139482
7.1394496 775.97565 1251.1572 4282400864
9.5192661 775.97565 1251.1572 4283124832
7.1394496 777.79504 1252.6913 4282466907
9.5192661 777.79504 1252.6913 4283452770
14.223853 784.17999 1251.5347 4282863713
21.335779 784.17999 1251.5347 4290622893
30.818348 785.08618 1252.2988 4290097095
34.374313 785.08618 1252.2988 4290097351
37.930275 785.08618 1252.2988 4290425795
40.300919 784.17999 1251.5347 4290557383
7.1889906 765.49872 1254.0956 4282927962
4.774312 773.76196 1254.5228 4282137435
4.774312 775.58698 1256.0615 4281808976
4.7596331 779.61444 1254.2253 4282335319
7.1394496 779.61444 1254.2253 4283059041
9.5192661 779.61444 1254.2253 4283190625
7.1394496 781.43384 1255.7594 4282929238
10.709174 781.43384 1255.7594 4283454054
16.658716 781.43384 1255.7594 4281942611
19.038532 781.43384 1255.7594 4286017639
23.798164 781.43384 1255.7594 4290623178
26.177982 781.43384 1255.7594 4290293957
28.557798 781.43384 1255.7594 4290162889
30.818348 787.80475 1254.5909 4290228680
34.374313 787.80475 1254.5909 4290163654
37.930275 787.80475 1254.5909 4290162885
35.559631 789.61713 1256.1191 4290293957
37.930275 789.61713 1256.1191 4290359237
40.300919 789.61713 1256.1191 4290556359
42.671558 789.61713 1256.1191 4290162375
9.6587152 754.38422 1257.8043 4282400082
12.073395 754.38422 1257.8043 4283649893
4.8110094 763.63 1259.0601 4282730072
4.7926607 769.16278 1257.1851 4281744724
4.774312 779.23694 1259.1392 4282929238
7.1394496 785.07263 1258.8275 4282995802
10.709173 784.16296 1258.0605 4282731615
14.278899 784.16296 1258.0605 4282860617
16.658716 784.16296 1258.0605 4286676612
19.038532 784.16296 1258.0605 4289175469
22.608257 784.16296 1258.0605 4290557380
26.177982 784.16296 1258.0605 4290359746
28.557798 784.16296 1258.0605 4290228681
37.930275 791.42944 1257.6473 4290293443
40.300919 791.42944 1257.6473 4290227650
37.930275 793.24188 1259.1754 4290096580
4.8293576 758.07629 1260.9175 4282861913
2.4055047 768.2276 1262.9366 4282138959
2.3963304 772.82678 1260.2744 4281809737
1.1981652 774.65881 1261.8191 4281744196
4.774312 781.97449 1261.4474 4282995287
7.161468 781.06195 1260.678 4282929236
10.709173 787.80176 1261.1285 4283189824
14.278899 787.80176 1261.1287 4287266946
16.658716 787.80176 1261.1287 4290820025
19.038532 787.80176 1261.1287 4290755789
22.608257 787.80176 1261.1287 4290163653
26.177982 787.80176 1261.1287 4290097605
28.557798 787.80176 1261.1287 4290162887
30.937614 787.80176 1261.1287 4290162887
34.110703 788.10498 1261.3843 4290359235
-4.8477063 755.28107 1265.1007 4280228664
-2.4238532 755.28107 1265.1007 4280689215
0 755.28107 1265.1007 4281019722
1.2073394 761.76837 1264.0305 4281809738
1.2073394 763.61444 1265.587 4281875787
0 770.06665 1264.4873 4281546822
1.1981652 776.49084 1263.3638 4281943375
1.1981652 778.32281 1264.9086 4282272339
4.774312 784.71198 1263.7555 4283190877
7.161468 784.71198 1263.7555 4283190877
4.774312 786.53699 1265.2943 4282400080
7.161468 786.53699 1265.2943 4281413185
10.709174 790.53076 1263.4297 4286410321
22.608257 790.53076 1263.4297 4290491590
26.177982 790.53076 1263.4297 4290359498
28.557798 790.53076 1263.4297 4290293705
34.507339 790.53076 1263.4297 4290425539
11.899082 792.35016 1264.9637 4291080867
-4.8477063 758.98718 1268.2257 4279835702
-2.4238532 758.06067 1267.4445 4280887107
1.2119266 757.13409 1266.6632 4281809490
-2.4146788 767.30652 1268.7001 4281414478
0 765.46045 1267.1436 4281612615
-2.4055047 772.8252 1266.8132 4281612116
1.1981652 781.07086 1267.2256 4282469460
7.161468 788.36194 1266.8331 4280689213
14.322936 788.36194 1266.8331 4290423746
16.710093 788.36194 1266.8331 4291344848
19.097248 788.36194 1266.8331 4290754755
31.033028 788.36194 1266.8331 4290162375
7.161468 790.18695 1268.3719 4283781451
9.548624 790.18695 1268.3719 4287396460
14.322936 790.18695 1268.3719 4291016651
16.710093 790.18695 1268.3719 4290556100
19.097248 790.18695 1268.3719 4290227648
22.677982 790.18695 1268.3719 4290358981
26.258715 790.18695 1268.3719 4290293191
28.645872 790.18695 1268.3719 4290293703
-7.3045874 753.78827 1271.6902 4280229162
-4.8697248 753.78827 1271.6902 4280425786
-2.4238532 760.84021 1269.7881 4281217357
-2.4238532 762.6933 1271.3506 4280956750
-4.8293576 770.07556 1271.0349 4279967035
-2.4055047 775.58368 1269.1392 4281809236
-2.4055047 777.42273 1270.6898 4281875029
-2.3963304 783.81885 1269.5426 4281939025
1.1981652 784.73486 1270.3149 4281742922
4.7926607 785.65088 1271.0874 4282005072
7.161468 792.01196 1269.9108 4286216043
10.742201 792.9245 1270.6801 4290620603
14.322936 792.92444 1270.6802 4290622662
16.710093 792.92444 1270.6802 4290227904
19.097248 792.92444 1270.6802 4290097090
22.677982 792.9245 1270.6801 4290162628
26.258715 792.92444 1270.6802 4290096835
28.645872 792.92444 1270.6802 4290293702
31.033028 793.83698 1271.4495 4290425543
-7.3045874 755.64972 1273.2598 4279770913
-7.3045874 757.51123 1274.8293 4279638821
-4.8697248 757.51123 1274.8293 4279703862
-4.8477063 764.54633 1272.913 4279835702
-7.2715597 766.39941 1274.4755 4280163368
-4.8293576 772.8446 1273.3698 4280164667
-4.8293576 774.69067 1274.9263 4280427583
-4.8110094 779.26178 1272.2404 4280559169
-2.4055047 779.26178 1272.2404 4282072664
-4.8110094 781.10083 1273.791 4280820544
0 787.48291 1272.6321 4281610818
4.7926607 787.48291 1272.6321 4281610283
31.152294 787.48291 1272.6321 4290359496
34.746788 787.48291 1272.6321 4290228932
0 789.31494 1274.1768 4281021771
4.7926607 789.31494 1274.1768 4281742375
31.152294 789.31494 1274.1768 4290491338
33.548622 789.31494 1274.1768 4290425541
11.14006 796.27032 1273.5012 4290555340
14.322936 796.57446 1273.7577 4290030784
16.710093 796.57446 1273.7577 4290096577
19.097248 796.57446 1273.7577 4290030529
22.677982 796.57446 1273.7577 4290227651
26.258715 796.57446 1273.7577 4290227907
28.645872 796.57446 1273.7577 4290162628
31.033028 795.66199 1272.9883 4290293957
-7.3045874 760.30341 1277.1836 4279770916
-4.8697248 759.37268 1276.3989 4279575097
-7.2715597 769.17896 1276.8191 4280360744
-7.2440367 776.53674 1276.4828 4280623919
-4.8110094 782.93982 1275.3417 4280820544
-2.4055047 782.93982 1275.3417 4281281095
-4.8110094 784.77881 1276.8922 4281347642
-2.4055047 784.77881 1276.8922 4281347642
2.4055047 784.77881 1276.8922 4281807941
-2.3963304 791.14691 1275.7214 4282005320
0 791.14691 1275.7214 4280234294
4.7926607 791.14691 1275.7214 4283978292
7.1889906 791.14691 1275.7214 4289504904
33.548622 791.14691 1275.7214 4290425030
-2.3963304 792.97894 1277.2662 4281742400
0 792.97894 1277.2662 4280691765
4.7926607 792.97894 1277.2662 4286806385
7.1889906 792.97894 1277.2662 4290753965
10.742202 799.31195 1276.0659 4289964225
14.322936 799.31195 1276.0659 4289964992
22.677982 799.31195 1276.0659 4290030529
26.258715 799.31195 1276.0659 4290358983
11.93578 801.13696 1277.6047 4289702336
14.322936 801.13696 1277.6047 4290030785
-9.7761469 754.737 1279.0303 4280099372
-9.6954126 773.81165 1280.7252 4280360747
-7.2715597 771.95856 1279.1628 4280558376
-7.2440367 778.38275 1278.0393 4280623919
-9.6587152 780.22882 1279.5958 4280623919
-7.2440367 780.22882 1279.5958 4280887091
-4.8110094 787.53735 1279.2183 4281478974
-2.4055047 786.61786 1278.4429 4281939779
2.4055047 787.53735 1279.2183 4280496190
-2.3963304 794.81097 1278.8109 4280691765
0 794.81097 1278.8109 4282135834
4.7926607 794.81097 1278.8109 4289569704
7.1889906 794.81097 1278.8109 4290622393
9.5853214 794.81097 1278.8109 4290358985
-2.3963304 796.64294 1280.3556 4281084720
0 796.64294 1280.3556 4284043595
4.7926607 796.64294 1280.3556 4290488767
7.1889906 796.64294 1280.3556 4291015111
16.774311 796.64294 1280.3556 4290491336
19.170643 796.64294 1280.3556 4290030785
9.548624 802.96198 1279.1434 4289832892
14.322936 802.96198 1279.1434 4289964990
-9.7394495 766.8186 1282.6771 4280097825
-9.6954126 775.66467 1282.2877 4280623919
-4.8110094 790.2959 1281.5442 4281873986
2.4055047 790.2959 1281.5442 4282862678
-4.8110094 792.13495 1283.0947 4281349438
2.4055047 792.13495 1283.0947 4287267688
-2.3963304 799.39099 1282.6726 4285689945
0 799.39099 1282.6726 4288580753
4.7926607 799.39099 1282.6726 4290227130
7.1889906 799.39099 1282.6726 4290095288
10.783486 799.39099 1282.6726 4289636028
16.774311 799.39099 1282.6726 4290030784
19.170643 799.39099 1282.6726 4289964992
22.765137 799.39099 1282.6726 4289964992
-9.8128443 754.77606 1285.6035 4280165674
-9.7761469 762.21094 1285.3322 4280426540
-9.7394495 768.68005 1284.2466 4280360997
-9.6954126 779.37079 1285.4126 4280493878
-7.2715597 779.37079 1285.4126 4280757306
-9.6954126 781.22388 1286.9751 4280559923
-7.2715597 781.22388 1286.9751 4280691765
-7.2440367 785.76697 1284.2655 4281281849
-7.2440367 787.61298 1285.822 4281545021
-4.8110094 793.974 1284.6454 4281545271
2.4055047 793.974 1284.6454 4289307035
-4.8110094 795.81299 1286.196 4281546275
2.4055047 795.81299 1286.196 4290686121
-2.3963304 803.05505 1285.7621 4290489247
0 803.05505 1285.7621 4290358973
7.1889906 802.13904 1284.9897 4289636794
10.783486 802.13904 1284.9897 4289833406
14.377981 802.13904 1284.9897 4290227648
16.774311 802.13904 1284.9897 4290293441
19.170643 802.13904 1284.9897 4290096578
-9.8128443 757.58936 1287.9755 4280426540
-12.174312 772.40302 1287.3857 4280360747
-12.174312 774.26447 1288.9552 4280033579
-9.6954126 783.0769 1288.5375 4281150263
-7.2440367 790.38202 1288.1567 4281742148
-7.2165136 797.65204 1287.7466 4281086267
-4.8110094 797.65204 1287.7466 4282793763
2.4055047 797.65204 1287.7466 4290686137
-7.2165136 799.49109 1289.2972 4281020976
-4.8110094 799.49109 1289.2972 4285290307
2.4055047 799.49109 1289.2972 4289963958
4.8110094 799.49109 1289.2972 4289176243
0 805.80304 1288.0791 4289834176
14.377981 805.80304 1288.0791 4289898686
-2.3963304 807.63507 1289.6239 4290292410
0 807.63507 1289.6239 4289833406
14.377981 807.63507 1289.6239 4289832638
14.322936 815.73694 1289.915 4289899197
-12.311927 754.83624 1292.1943 4280558126
-12.266055 761.34033 1291.1383 4279836456
-12.266055 763.21582 1292.7196 4279770663
-12.220183 767.81641 1290.0586 4279967786
-12.174312 776.12592 1290.5248 4280297007
-12.119267 784.92993 1290.1 4281150263
-12.119267 786.78302 1291.6624 4281347642
-9.6954126 786.78302 1291.6624 4281544769
-12.073395 793.15112 1290.4916 4281609531
-9.6587152 793.15112 1290.4916 4281610814
-7.2440367 793.15112 1290.4916 4281808193
-9.6220188 803.16913 1292.3984 4282397711
-7.2165136 802.24963 1291.6232 4285424980
-4.8110094 802.24963 1291.6232 4287924875
-2.4055047 803.16913 1292.3984 4290227635
2.4055047 802.24963 1291.6232 4289767352
4.8110094 802.24963 1291.6232 4289570488
7.2165136 802.24963 1291.6232 4289767611
9.6220188 802.24963 1291.6232 4289833148
12.829358 801.94312 1291.3647 4290030527
16.838531 802.24963 1291.6232 4290161856
19.244038 802.24963 1291.6232 4290030788
14.377981 809.46704 1291.1686 4289898686
14.377981 811.29907 1292.7133 4289833406
16.774311 811.29907 1292.7133 4290030785
14.322936 817.56201 1291.4539 4289702588
-12.311927 756.71875 1293.7816 4280099372
-14.719266 766.9668 1295.8823 4280426540
-14.66422 772.48767 1293.9972 4279968042
-12.174312 779.84888 1293.6639 4280691765
-21.913761 781.71033 1295.2334 4280229667
-19.478899 781.71033 1295.2334 4280623919
-17.044037 781.71033 1295.2334 4280887091
-9.7394495 781.71033 1295.2334 4281413435
-12.119267 788.63611 1293.2249 4281281597
-9.6954126 788.63611 1293.2249 4281544769
-12.073395 796.8432 1293.6047 4282793804
-9.6587152 796.8432 1293.6047 4281349940
-13.280734 798.68921 1295.1613 4282333253
-9.6587152 798.68921 1295.1613 4281281324
-12.027523 805.00818 1293.9491 4281609781
-9.6220188 805.92767 1294.7244 4285751899
-7.2165136 805.92767 1294.7244 4290094237
-4.8110094 805.92767 1294.7244 4290226876
-2.4055047 806.84717 1295.4998 4290029500
1.2027524 805.92767 1294.7244 4289767615
4.8110094 805.92767 1294.7244 4289964990
7.2165136 805.00818 1293.9491 4290096062
9.6220188 805.92767 1294.7244 4289963963
12.027523 805.92767 1294.7244 4289964220
16.838531 805.92767 1294.7244 4290030016
19.244038 805.00818 1293.9491 4289899199
-14.774312 762.36627 1298.5435 4280099372
-12.220183 775.29034 1296.3604 4280821548
-14.66422 777.15887 1297.9358 4280494130
-17.044037 784.50256 1297.5878 4281084470
-14.609175 784.50256 1297.5878 4281084472
-16.966972 794.19525 1297.9122 4281347642
-13.331193 793.26868 1297.131 4282135875
-9.6954126 792.34216 1296.3497 4281809989
-16.902752 800.53528 1296.7178 4282135875
-13.280734 800.53528 1296.7178 4281808443
-16.902752 802.38135 1298.2743 4281807941
-14.488073 802.38135 1298.2743 4282004539
-9.6220188 808.68622 1297.0503 4289107092
-7.2165136 808.68622 1297.0503 4291080625
-4.8110094 808.68622 1297.0503 4290489537
-2.4055047 808.68622 1297.0503 4290226365
0 808.68622 1297.0503 4289964490
9.6220188 808.68622 1297.0503 4289898686
12.027523 808.68622 1297.0503 4289898686
-9.6220188 810.52527 1298.601 4290293180
-7.2165136 810.52527 1298.601 4290293180
-2.4055047 810.52527 1298.601 4290161342
9.6220188 810.52527 1298.601 4289768381
12.027523 810.52527 1298.601 4289768381
-14.829358 755.86212 1299.5995 4280297007
-14.829358 757.75165 1301.1926 4280099372
-17.236698 766.13135 1301.718 4280033579
-17.172478 770.71783 1299.0452 4280492333
-17.172478 772.59332 1300.6265 4280492333
-14.719266 772.59332 1300.6265 4280690218
-14.66422 779.02734 1299.5114 4280952884
-21.99633 780.89581 1301.0868 4280688935
-19.552294 780.89581 1301.0868 4280821298
-17.044037 787.2948 1299.942 4281281849
-14.609175 787.2948 1299.942 4281543738
-17.044037 789.15625 1301.5116 4281150263
-14.609175 789.15625 1301.5116 4281741373
-16.966972 796.04828 1299.4746 4281741623
-16.902752 805.15039 1300.6091 4281808192
-13.280735 805.15033 1300.6091 4283714381
2.4146788 805.15039 1300.6091 4289964743
4.8293576 806.07336 1301.3873 4289964990
7.2440367 805.15039 1300.6091 4290030783
-9.6220188 812.36426 1300.1516 4290751944
9.6220188 812.36426 1300.1516 4289833406
12.027523 812.36426 1300.1516 4289899199
-17.300917 761.5307 1304.379 4279772208
-19.625689 774.46881 1302.2079 4280099372
-17.172478 774.46881 1302.2079 4280494130
-25.662384 782.76428 1302.6622 4280360747
-21.99633 782.76428 1302.6622 4280623919
-19.552294 782.76428 1302.6622 4280821298
-21.99633 784.63281 1304.2377 4280821548
-19.552294 784.63281 1304.2377 4281018677
-21.913761 791.0177 1303.0812 4280954931
-19.478899 791.0177 1303.0812 4281347642
-25.566055 792.87921 1304.6508 4280952881
-21.913761 792.87921 1304.6508 4281281849
-19.478899 792.87921 1304.6508 4281741623
-16.902752 809.7655 1304.5005 4283057483
-13.280735 808.84247 1303.7222 4287594354
-7.2440367 809.7655 1304.5005 4290488771
-4.8293576 808.84247 1303.7222 4290029755
-2.4146788 809.7655 1304.5005 4290490305
1.2073394 807.91943 1302.9438 4289768129
4.8293576 807.91943 1302.9438 4289768381
7.2440367 807.91943 1302.9438 4289834174
-17.377981 756.37109 1307.8767 4280099120
-22.244038 765.30975 1307.5654 4280360747
-19.772476 765.30975 1307.5654 4280360747
-25.758717 778.21985 1305.3706 4280557606
-29.32844 788.36975 1307.3887 4280624169
-25.662384 787.43555 1306.6008 4280690731
-21.99633 786.50128 1305.8131 4280887341
-19.552294 786.50128 1305.8131 4281018677
-25.566055 794.74066 1306.2202 4281084210
-21.913761 794.74066 1306.2202 4281609531
-19.478899 794.74066 1306.2202 4281872702
-24.348623 796.60217 1307.7898 4281543738
-21.913761 796.60217 1307.7898 4281741373
-19.478899 796.60217 1307.7898 4281610818
-19.390825 803.46051 1305.7245 4282466377
-19.390825 805.3136 1307.2869 4281941826
-16.966972 805.3136 1307.2869 4280954931
-16.902752 811.61151 1306.057 4286672208
-13.280734 811.61151 1306.057 4289962405
-9.6587152 811.61151 1306.057 4290161603
-7.2440367 811.61151 1306.057 4289964481
-2.4146788 811.61151 1306.057 4290161340
-22.244038 767.19928 1309.1587 4280360747
-19.772476 767.19928 1309.1587 4280229162
-22.244038 769.08881 1310.7518 4279968035
-29.438532 781.97083 1308.5333 4280558376
-25.758717 781.97083 1308.5333 4280624169
-29.438532 783.84631 1310.1147 4280558376
-29.32844 790.23828 1308.9641 4280690218
-29.32844 792.10675 1310.5396 4280821548
-24.348623 799.39435 1310.144 4281545023
-21.913761 799.39435 1310.144 4281939781
-19.478899 798.46362 1309.3594 4281873986
-19.390825 808.09314 1309.6306 4282660651
1.2119266 807.16663 1308.8494 4290030269
4.8477063 808.09314 1309.6306 4289833148
7.2715597 807.16663 1308.8494 4289964990
-22.343119 760.16699 1311.0774 4280229162
-19.86055 760.16699 1311.0774 4279836456
-24.715597 770.97833 1312.3451 4280229667
-32.011009 779.3089 1312.8291 4280492583
-34.344955 785.7218 1311.6962 4280492583
-31.891743 785.7218 1311.6962 4280558376
-34.344955 787.59735 1313.2775 4280558376
-31.891743 787.59735 1313.2775 4280624169
-29.32844 793.97522 1312.115 4281084720
-26.884403 793.97522 1312.115 4281150769
-29.32844 795.84375 1313.6904 4281282099
-26.884403 795.84375 1313.6904 4281479478
-21.913761 802.18652 1312.4984 4282466123
-12.927218 811.49048 1312.495 4290423478
-9.6954126 811.79932 1312.7554 4289899199
-7.2715597 811.79932 1312.7554 4290096578
-4.8477063 811.79932 1312.7554 4289899709
-2.4238532 811.79932 1312.7554 4289833916
-34.473396 781.19141 1314.4164 4280492583
-32.011009 781.19141 1314.4164 4280426790
-36.93578 783.07397 1316.0037 4280623919
-34.344955 790.41058 1315.6495 4280428073
-31.891743 790.41058 1315.6495 4280625195
-31.772476 797.71222 1315.2659 4281150263
-29.32844 797.71222 1315.2659 4281347892
-26.884403 797.71222 1315.2659 4281413685
-29.32844 799.58069 1316.8413 4281413435
-25.662384 799.58069 1316.8413 4281808193
-21.913761 804.97876 1314.8528 4282398792
-37.073395 776.64697 1317.1246 4280492333
-34.601833 776.64697 1317.1246 4280492583
-37.073395 778.5365 1318.7179 4280558126
-36.93578 784.95642 1317.5909 4280623919
-36.93578 786.83899 1319.1782 4280231214
-34.344955 793.22382 1318.0216 4280887341
-31.891743 793.22382 1318.0216 4281084720
-34.344955 795.0993 1319.603 4280887091
-25.662384 802.38342 1319.2046 4282136389
-19.478899 808.70172 1317.9918 4285159487
-17.044037 808.70172 1317.9918 4289567619
-14.609175 809.63245 1318.7766 4290424511
-34.755962 771.55463 1320.6792 4280492583
-32.273396 771.55463 1320.6792 4280426790
-29.790825 771.55463 1320.6792 4280426540
-39.544952 781.37079 1321.1077 4280492333
-36.93578 788.7215 1320.7655 4280623919
-39.398167 790.604 1322.3528 4280558126
-36.93578 790.604 1322.3528 4280689712
-34.344955 796.97485 1321.1843 4281084720
-31.891743 796.97485 1321.1843 4281282099
-31.891743 798.85034 1322.7657 4281347892
-29.438532 798.85034 1322.7657 4281545021
-24.440367 805.18616 1321.5677 4282071118
-21.99633 805.18616 1321.5677 4281610567
-13.391743 811.4939 1320.3462 4290292924
-9.7394495 811.4939 1320.3462 4289833404
-7.3045874 811.4939 1320.3462 4290293955
-4.8697248 811.4939 1320.3462 4289965244
-2.4348624 811.4939 1320.3462 4289899451
-13.391743 813.35541 1321.9156 4289834169
-9.7394495 813.35541 1321.9156 4289964731
-7.3045874 813.35541 1321.9156 4290096060
-4.8697248 813.35541 1321.9156 4290096060
-39.544952 784.20508 1323.4974 4280231214
-39.544952 786.0946 1325.0907 4280558126
-39.398167 792.48651 1323.9401 4280623919
-36.93578 792.48651 1323.9401 4280821298
-29.438532 800.72583 1324.3472 4281873986
-29.438532 802.60132 1325.9285 4281939527
-26.985321 802.60132 1325.9285 4282202699
-24.440367 807.05463 1323.1432 4281611320
-21.99633 807.05463 1323.1432 4282663752
-19.552294 808.9231 1324.7186 4287989892
-17.108257 808.9231 1324.7186 4290621611
-13.391743 815.21686 1323.4852 4289637296
-9.7394495 815.21686 1323.4852 4289570999
-24.348623 817.07837 1325.0548 4287463809
-42.016514 787.98413 1326.6838 4280688935
-43.252296 789.87366 1328.2771 4280688429
-34.473396 796.25153 1327.1146 4281347892
-34.473396 798.13403 1328.7019 4281413435
-32.011009 798.13403 1328.7019 4281742400
-29.438532 804.47681 1327.5099 4282071367
-26.985321 804.47681 1327.5099 4282202697
-29.32844 812.6601 1327.8696 4282007875
-25.662384 812.6601 1327.8696 4283189837
-21.99633 811.72583 1327.0819 4288714378
-19.552294 811.72583 1327.0819 4290030261
-17.108257 811.72583 1327.0819 4290293433
-7.3321099 812.6601 1327.8696 4289636792
-4.8880734 812.6601 1327.8696 4289702072
-42.359634 775.55298 1330.5906 4280492333
-42.203671 782.94232 1330.2809 4280558376
-39.544952 791.76318 1329.8702 4280887341
-37.073395 791.76318 1329.8702 4281018927
-39.544952 793.65271 1331.4635 4281018927
-37.073395 793.65271 1331.4635 4281150769
-36.93578 800.01654 1330.2892 4281347642
-34.473396 800.01654 1330.2892 4281545021
-32.011009 800.01654 1330.2892 4281742400
-34.473396 801.89905 1331.8765 4281808193
-32.011009 801.89905 1331.8765 4282071365
-31.891743 806.35229 1329.0912 4282202951
-29.438532 806.35229 1329.0912 4281941578
-25.758717 806.35229 1329.0912 4281347651
-22.078899 806.35229 1329.0912 4284701048
-31.891743 808.22784 1330.6726 4282663502
-29.438532 808.22784 1330.6726 4281614662
-25.758717 808.22784 1330.6726 4281940784
-34.216515 814.52856 1329.4451 4282073164
-31.772476 814.52856 1329.4451 4282007371
-29.32844 814.52856 1329.4451 4281810741
-26.884403 814.52856 1329.4451 4283982167
-21.99633 814.52856 1329.4451 4290424750
-19.552294 814.52856 1329.4451 4289965244
-17.108257 814.52856 1329.4451 4289702072
-13.442202 814.52856 1329.4451 4289506228
-9.7761469 814.52856 1329.4451 4289243831
-7.3321099 814.52856 1329.4451 4289178038
-4.8880734 814.52856 1329.4451 4289439929
-34.216515 816.39709 1331.0205 4282137937
-29.32844 816.39709 1331.0205 4281872702
-25.662384 816.39709 1331.0205 4287793043
-21.99633 816.39709 1331.0205 4290752700
-19.552294 816.39709 1331.0205 4289898934
-17.108257 816.39709 1331.0205 4289504432
-13.442202 816.39709 1331.0205 4289703089
-9.7761469 816.39709 1331.0205 4289570999
-7.3321099 816.39709 1331.0205 4289570999
-4.8880734 816.39709 1331.0205 4289570488
-42.359634 778.41046 1332.9999 4280558376
-39.544952 797.43176 1334.6499 4281281849
-37.073395 795.54224 1333.0566 4281086773
-34.473396 803.78162 1333.4637 4281939779
-36.798164 811.97882 1333.8353 4282202951
-34.344955 810.10333 1332.2539 4282268490
-31.891743 810.10333 1332.2539 4282531918
-29.32844 818.26556 1332.5959 4284369477
-25.662384 818.26556 1332.5959 4289766057
-21.99633 818.26556 1332.5959 4289636279
-19.552294 818.26556 1332.5959 4289373875
-17.108257 818.26556 1332.5959 4289373875
-13.442202 818.26556 1332.5959 4289439413
-9.7761469 818.26556 1332.5959 4289438900
-7.3321099 818.26556 1332.5959 4289504693
-25.662384 820.13403 1334.1714 4290096062
-21.99633 820.13403 1334.1714 4289504691
-19.552294 820.13403 1334.1714 4289307828
-17.108257 820.13403 1334.1714 4289373877
-13.442202 820.13403 1334.1714 4289242039
-9.7761469 820.13403 1334.1714 4289438646
-7.3321099 820.13403 1334.1714 4289504439
-45.016514 775.77649 1337.3193 4280558376
-44.851376 782.22034 1336.2123 4280688935
-43.444954 788.63611 1335.0818 4280623919
-43.444954 790.53406 1336.6821 4280689712
-42.016514 799.32129 1336.243 4281347642
-39.544952 799.32129 1336.243 4281347642
-37.073395 799.32129 1336.243 4281610814
-42.016514 801.21082 1337.8363 4281281849
-39.544952 801.21082 1337.8363 4281347642
-37.073395 801.21082 1337.8363 4281545021
-34.473396 805.66412 1335.051 4282005572
-36.93578 807.54663 1336.6384 4282071365
-39.251377 813.85437 1335.4167 4282005572
-36.798164 813.85437 1335.4167 4282334537
-31.891743 813.85437 1335.4167 4281480264
-25.662384 822.00256 1335.7468 4289767350
-19.552294 822.00256 1335.7468 4289307828
-17.108257 822.00256 1335.7468 4289307828
-14.66422 822.00256 1335.7468 4289373371
-45.21468 770.69543 1340.8833 4280492333
-45.016514 777.68848 1338.9314 4280558376
-47.168808 794.32996 1339.8827 4280887341
-43.444954 793.38098 1339.0826 4280953137
-39.7211 792.43201 1338.2825 4280757808
-39.544952 803.10034 1339.4294 4281609531
-37.073395 803.10034 1339.4294 4282070082
-41.86055 811.31165 1339.813 4281873986
-29.438532 817.60535 1338.5795 4285423994
-31.891743 819.48083 1340.1609 4286148694
-29.438532 819.48083 1340.1609 4288253080
-22.078899 819.48083 1340.1609 4289373625
-12.266055 819.48083 1340.1609 4289307578
-9.8128443 819.48083 1340.1609 4289176495
-7.359633 819.48083 1340.1609 4289308082
-43.992661 827.60797 1340.4733 4282992719
-40.326607 826.67371 1339.6855 4282334791
-47.343121 789.84021 1342.6372 4280887341
-49.651375 796.22791 1341.483 4280821548
-47.168808 796.22791 1341.483 4280887341
-44.686237 796.22791 1341.483 4281018677
-47.168808 798.12585 1343.0833 4281018677
-44.686237 798.12585 1343.0833 4281018677
-46.959633 806.87939 1342.6158 4281413435
-43.664227 806.24951 1342.0848 4281545019
-39.544952 805.93463 1341.8193 4281808193
-36.93578 813.19415 1341.4003 4282334535
-34.473396 814.13538 1342.1938 4282137668
-32.011009 814.13538 1342.1938 4282006081
-39.251377 821.35632 1341.7422 4282203732
-29.438532 821.35632 1341.7422 4289306033
-25.758717 821.35632 1341.7422 4289569974
-19.625689 821.35632 1341.7422 4289242037
-17.172478 821.35632 1341.7422 4289307830
-13.492661 821.35632 1341.7422 4289307580
-9.8128443 821.35632 1341.7422 4289175982
-44.157799 823.23181 1343.3236 4282400330
-29.438532 823.23181 1343.3236 4289702072
-25.758717 823.23181 1343.3236 4289110193
-19.625689 823.23181 1343.3236 4289242035
-41.548622 831.34497 1343.6241 4283255880
-47.900917 769.98193 1346.8218 4280754728
-47.726604 774.53625 1344.1217 4280624169
-47.168808 800.0238 1344.6836 4281281849
-43.444954 800.0238 1344.6836 4281543738
-47.168808 801.92175 1346.2839 4281347892
-42.203671 801.92175 1346.2839 4281545271
-46.959633 808.76892 1344.2091 4281545271
-44.488075 808.76892 1344.2091 4281742400
-46.959633 810.65845 1345.8022 4281742400
-43.252296 810.65845 1345.8022 4282137158
-39.544952 810.65845 1345.8022 4282334535
-44.322937 818.84167 1346.1621 4282071367
-41.86055 817.90045 1345.3684 4282268744
-36.93578 818.84167 1346.1621 4282071890
-34.473396 817.90045 1345.3684 4283253552
-32.011009 818.84167 1346.1621 4288056704
-22.161469 818.84167 1346.1621 4289176241
-40.477982 826.98285 1346.4863 4283122498
-36.798164 825.10736 1344.905 4284965230
-29.438532 825.10736 1344.905 4289766834
-26.985321 825.10736 1344.905 4289306283
-45.57798 762.94958 1348.7405 4280492333
-50.42202 771.9093 1348.4469 4280558376
-49.834862 796.50757 1348.2589 4281018677
-49.651375 805.71765 1349.4845 4281545271
-49.431194 812.54797 1347.3955 4281545021
-46.959633 812.54797 1347.3955 4281808193
-43.252296 812.54797 1347.3955 4282136906
-39.544952 812.54797 1347.3955 4282530635
-37.073395 812.54797 1347.3955 4282464842
-46.959633 814.4375 1348.9886 4282071365
-44.488075 814.4375 1348.9886 4282202949
-39.544952 814.4375 1348.9886 4282334539
-37.073395 814.4375 1348.9886 4282334539
-46.78532 820.72424 1347.7494 4282334537
-36.93578 820.72424 1347.7494 4282599760
-34.473396 820.72424 1347.7494 4286080602
-32.011009 820.72424 1347.7494 4290093718
-22.161469 820.72424 1347.7494 4289242037
-17.236698 820.72424 1347.7494 4289307828
-14.774312 820.72424 1347.7494 4289307832
-34.473396 822.60675 1349.3367 4287595149
-32.011009 822.60675 1349.3367 4290029490
-24.623854 822.60675 1349.3367 4289109683
-19.699083 822.60675 1349.3367 4289308082
-44.157799 829.79608 1348.8584 4283255346
-40.069111 830.10864 1349.1219 4286740075
-36.798164 830.73383 1349.649 4289897389
-45.743118 758.35883 1351.4097 4280426790
-43.201836 758.35883 1351.4097 4280426790
-40.660549 758.35883 1351.4097 4280492333
-48.110092 764.88544 1350.3727 4280622886
-50.6422 766.82123 1352.0049 4280754728
-52.519264 792.98425 1351.8285 4280887091
-52.326607 799.36499 1350.6682 4281084720
-49.834862 799.36499 1350.6682 4281282099
-49.834862 801.26996 1352.2744 4281347642
-46.959633 816.32703 1350.5819 4282005320
-12.357799 818.21655 1352.175 4289242039
-9.8862381 818.21655 1352.175 4289176495
-36.93578 824.48926 1350.924 4288252548
-34.473396 824.48926 1350.924 4289306535
-32.011009 824.48926 1350.924 4289701293
-28.317432 824.48926 1350.924 4289175726
-36.93578 826.37177 1352.5112 4289633953
-34.473396 826.37177 1352.5112 4289700789
-32.011009 826.37177 1352.5112 4289634996
-28.317432 826.37177 1352.5112 4288978349
-40.477982 832.60938 1351.2305 4288778635
-39.251377 834.48486 1352.8118 4289568171
-48.284405 760.30164 1353.0479 4280623138
-50.825687 762.24451 1354.686 4280754728
-57.774311 787.97894 1355.4563 4281083437
-55.262386 787.97894 1355.4563 4280887341
-52.519264 794.89624 1353.4406 4281018677
-55.020184 796.80823 1355.0527 4280953134
-49.651375 811.4115 1354.2854 4281742400
-24.715597 821.99561 1355.3615 4289175730
-22.244038 821.05084 1354.5649 4289241524
-19.772476 821.99561 1355.3615 4289372593
-17.300917 820.10608 1353.7683 4289308082
-13.593578 820.10608 1353.7683 4289438387
-36.93578 830.13678 1355.6858 4289765058
-34.473396 829.19556 1354.8921 4289045162
-32.011009 829.19556 1354.8921 4288847783
-28.727829 828.88184 1354.6276 4288913324
-52.322018 757.12415 1358.2169 4280754980
-60.28624 791.8197 1358.6947 4281148980
-57.774311 791.8197 1358.6947 4281148980
-55.262386 790.8595 1357.885 4280887091
-55.020184 799.67615 1357.4709 4281018677
-52.519264 799.67615 1357.4709 4281281849
-24.715597 823.88513 1356.9547 4289109937
-22.244038 823.88513 1356.9547 4289241523
-19.772476 823.88513 1356.9547 4289438646
-24.715597 825.77466 1358.5479 4289109683
-22.244038 825.77466 1358.5479 4289372855
-19.772476 825.77466 1358.5479 4289175989
-17.300917 825.77466 1358.5479 4287465628
-36.93578 832.01929 1357.2731 4289568171
-34.473396 832.01929 1357.2731 4288979630
-32.011009 832.01929 1357.2731 4289045423
-27.907034 832.64679 1357.8021 4288912304
-53.598164 760.05103 1360.6848 4280689448
-57.985321 787.32855 1361.448 4281083187
-60.28624 793.74011 1360.314 4281148980
-57.774311 793.74011 1360.314 4281214773
-60.28624 795.66052 1361.9331 4280887341
-57.774311 795.66052 1361.9331 4280953134
-17.377981 819.0033 1360.6866 4289438387
-13.654128 819.0033 1360.6866 4289568949
-27.187157 827.66418 1360.1411 4289505204
-24.715597 827.66418 1360.1411 4289175991
-61.475231 756.43451 1364.1755 4280492583
-58.913761 756.43451 1364.1755 4280492583
-56.352295 756.43451 1364.1755 4280688935
-60.28624 797.58093 1363.5524 4280821548
-57.774311 797.58093 1363.5524 4280953134
-17.377981 820.90125 1362.2869 4289504439
-14.895412 820.90125 1362.2869 4289438648
-47.168808 822.79913 1363.8872 4282334276
-42.016514 831.44324 1363.3275 4290028205
-39.544952 831.44324 1363.3275 4289307300
-37.073395 831.44324 1363.3275 4289175458
-34.601833 831.44324 1363.3275 4289176243
-32.130276 831.44324 1363.3275 4289373623
-29.658716 832.388 1364.124 4287072926
-58.913761 758.39276 1365.8267 4280558376
-56.352295 758.39276 1365.8267 4280492583
-58.913761 760.35107 1367.4779 4280754728
-56.352295 760.35107 1367.4779 4280558376
-22.343119 824.69708 1365.4874 4289044405
-39.7211 830.39093 1370.2883 4289242790
-37.238533 830.39093 1370.2883 4289308584
-34.755962 830.39093 1370.2883 4289175741
-32.273396 830.39093 1370.2883 4287662502
-37.238533 832.28888 1371.8887 4289110948
-34.755962 832.28888 1371.8887 4287599287
-39.7211 834.18683 1373.489 4288454572
-37.238533 834.18683 1373.489 4286151817
-34.755962 834.18683 1373.489 4282866555
-47.517429 819.75189 1374.3982 4282860366
-39.867889 829.84436 1376.3677 4289045155
-45.21468 816.78479 1379.7446 4285291822
-46.266972 823.57581 1377.6224 4288778379
-42.515594 825.48779 1379.2346 4289307039
-50.238533 818.7052 1381.3638 4283517491
-46.470642 818.7052 1381.3638 4286936418
-42.702751 818.7052 1381.3638 4289631623
-50.238533 820.62555 1382.983 4285949265
-46.470642 822.54596 1384.6023 4289372058
-47.726604 824.46631 1386.2214 4289438116
-50.42202 820.09442 1389.0753 4288976268
-45.379818 822.02179 1390.7004 4289044633
-46.640366 823.94922 1392.3256 4288979109
-50.6422 819.08838 1396.0752 4289503909
-50.825687 818.58667 1402.1923 4288847781
