# .PCD v0.7 - Point Cloud Data file format
VERSION 0.7
FIELDS x y z rgb
SIZE 4 4 4 4
TYPE F F F U
COUNT 1 1 1 1
WIDTH 1170
HEIGHT 1
VIEWPOINT 0 0 0 1 0 0 0
POINTS 1170
DATA ascii
-40.381653 775.96423 754.09613 4281349199
-37.857796 775.96423 754.09607 4284770954
-30.286238 776.60742 754.63843 4294374143
-28.60367 775.96423 754.09613 4293847805
-25.799387 776.17865 754.27686 4293518837
-22.714678 775.96423 754.09613 4293452535
-19.349541 775.96423 754.09607 4293255668
-16.275841 775.65723 754.70929 4293453048
-13.489908 775.04327 755.93567 4293584377
-37.857796 777.8938 755.72314 4281744229
-34.492661 777.8938 755.72314 4286943168
-31.127522 777.8938 755.72314 4293914623
-28.60367 777.8938 755.72314 4293979391
-26.079817 777.8938 755.72314 4293584888
-22.71468 777.8938 755.72314 4293584118
-19.349541 777.8938 755.72314 4293387511
-15.984404 777.8938 755.72314 4293452534
-20.124771 781.51794 754.85486 4293320948
-10.205504 766.18585 758.93164 4293452537
-11.020184 769.1886 757.53937 4293190133
-45.677063 772.69702 757.88153 4284768889
-11.278287 772.69702 757.88153 4293387254
-42.999084 776.3324 757.02271 4285031550
-40.469727 776.3324 757.02271 4284504438
-13.489908 776.3324 757.02271 4293452791
-11.80367 776.3324 757.02271 4293584377
-42.155964 777.62152 758.10962 4285294722
-40.469727 777.62152 758.10962 4285753729
-37.940369 777.62152 758.10962 4283386973
-34.492661 779.18011 756.80774 4283323762
-31.127522 779.18011 756.80774 4290560746
-28.60367 779.18011 756.80774 4294374911
-26.079817 779.18011 756.80774 4294110462
-22.71468 779.18011 756.80774 4293453304
-18.508257 779.18011 756.80774 4293386741
-15.984404 779.18011 756.80774 4293386230
-13.46055 779.18011 756.80774 4293190132
-11.80367 777.62152 758.10962 4293255925
-33.651375 780.46643 757.89233 4282734464
-30.847094 780.8952 758.25391 4286352052
-28.60367 781.10962 758.43463 4292206841
-26.079817 781.10962 758.43463 4294045438
-22.714678 781.10962 758.43469 4294043901
-19.349541 781.10962 758.43463 4293781240
-15.984404 781.10962 758.43463 4293650424
-6.8403668 760.95398 761.06042 4294967295
-10.227523 763.31287 759.12524 4293518332
-8.5229359 764.61603 760.22412 4294768383
-7.6614676 766.7027 760.67548 4294308607
-4.2614679 765.91919 761.32288 4294769151
-8.5045872 768.78656 761.12451 4294044926
-45.776146 773.72516 761.36438 4284573566
-10.172477 771.13281 759.17871 4293584375
-43.13945 775.93042 760.60779 4285032064
-10.714374 776.146 760.78955 4293584629
-40.469727 778.91071 759.19666 4285294722
-37.940369 778.91071 759.19666 4283913831
-35.411011 778.91071 759.19666 4283783521
-13.489908 778.91071 759.19666 4293453300
-37.940369 780.19983 760.28357 4284966269
-34.56789 780.84442 760.82709 4284112511
-31.476454 781.05927 761.0083 4284377996
-28.666056 781.48895 761.37061 4287998395
-26.979816 781.48895 761.37061 4291149811
-21.921101 781.48895 761.37061 4294043903
-18.548624 781.48895 761.37061 4294044156
-16.019266 781.48895 761.37061 4293650681
-13.489908 780.84436 760.82709 4293519095
-11.80367 780.19983 760.28357 4293519095
-25.238533 783.03912 760.06152 4294242047
-23.555964 783.03912 760.06152 4294373119
-20.190826 783.03912 760.06152 4293978362
-6.8770642 755.70819 763.17737 4294967295
-5.1577983 755.70819 763.17737 4294900479
-4.2844038 760.03656 762.90283 4294900991
-6.8403668 763.56873 763.26508 4294243070
-5.1302752 762.26135 762.16272 4294835199
-7.3804283 769.48041 763.45361 4293782523
-8.5045872 771.38733 763.31738 4293913340
-45.776146 775.66937 763.00372 4284639104
-44.080734 775.66937 763.00372 4284835198
-8.4770641 775.66937 763.00372 4293782009
-42.889297 778.21588 763.40692 4284835197
-40.601833 778.51709 762.78882 4284966533
-38.06422 779.16376 763.33411 4285098120
-10.714374 778.73267 762.97052 4293519095
-40.601833 780.45715 764.42456 4284703615
-37.218349 780.45715 764.42456 4284968070
-34.680733 780.45715 764.42456 4284835716
-31.195412 782.77814 762.45752 4286152605
-28.666056 782.77814 762.45752 4284641419
-26.136696 782.77814 762.45752 4288916945
-22.764221 782.77814 762.45752 4293783295
-19.391743 782.77814 762.45752 4293913342
-16.019266 782.77814 762.45752 4293781499
-13.489908 782.77814 762.45752 4293650683
-10.99633 780.45715 764.42456 4293584890
-30.352293 784.06726 763.54456 4286742943
-28.666056 784.06726 763.54456 4285361290
-25.855658 784.49689 763.90692 4286942359
-22.764221 784.71179 764.08801 4292334573
-19.391743 784.71179 764.08801 4294046462
-16.019266 784.06726 763.54456 4294045439
-1.7192661 760.96576 767.61047 4294966783
0 760.96576 767.61047 4294835199
-5.1412845 763.9671 766.21698 4294242814
-5.1412845 765.93237 767.87402 4293519093
-6.8183484 772.43506 766.81689 4293585141
-44.223854 776.58875 767.70312 4284966784
-8.5045872 775.28839 766.60669 4293519095
-42.385323 778.90979 765.73596 4284769662
-38.994495 778.90979 765.73596 4285164166
-8.4770641 778.90979 765.73596 4293584890
-42.385323 780.854 767.37531 4285031298
-40.689907 780.854 767.37531 4284900224
-37.864223 780.638 767.19318 4285164675
-34.718346 781.62622 766.71851 4284967297
-32.177982 781.62628 766.71844 4285427339
-13.533945 781.75049 765.51514 4293650683
-11.008257 781.62628 766.71844 4293584634
-30.451376 783.69049 767.15094 4285030531
-27.913761 783.69055 767.15094 4285295238
-25.376146 784.33716 767.69617 4284836483
-22.838531 784.33716 767.69617 4288128212
-19.455046 784.33716 767.69617 4294374399
-16.07156 783.69055 767.15094 4294045181
-13.533945 783.04382 766.60571 4293781499
-3.4458716 759.40155 768.90759 4294637823
-3.4385321 762.93738 769.27289 4293716472
-1.7192661 763.59454 769.82697 4294637823
0 762.93738 769.27289 4294901247
-4.2844038 767.24255 768.97876 4293519092
-5.1412845 768.55273 770.0835 4293585142
-4.2752295 772.7204 770.98157 4293715960
-6.8183484 775.69299 769.5639 4293649911
-5.1137614 776.3446 770.11328 4293584375
-39.121101 779.18951 769.896 4285294724
-8.5045872 778.53931 769.34778 4293387512
-40.689907 782.79822 769.01465 4284769410
-38.20734 781.64404 770.00354 4284966783
-34.755962 782.79822 769.01465 4285098623
-32.212845 782.79822 769.01465 4284900991
-13.563303 782.79822 769.01465 4293847292
-11.020184 782.79822 769.01465 4293650171
-8.5045872 780.48987 770.99243 4293255927
-38.14679 784.09442 770.10754 4284967553
-34.755962 784.09442 770.10754 4285098881
-31.365139 784.09442 770.10754 4285164675
-27.974312 784.09442 770.10754 4283586416
-25.376146 785.63055 768.78674 4283586932
-22.838531 785.63055 768.78674 4285234070
-19.475229 784.86249 769.44714 4292004586
-16.106422 784.09442 770.10754 4294440191
-13.563303 784.09442 770.10754 4293716730
-21.992661 786.92389 769.8772 4284710042
0.8614679 764.01172 772.7948 4294637567
-3.4385321 766.22333 772.04346 4293453300
-1.7192661 766.88049 772.5976 4293190385
0 766.88049 772.5976 4293321459
-4.2844038 769.86292 771.18823 4293716215
-1.7137614 771.82819 772.84521 4293518839
-3.4201834 774.68146 772.63507 4293519097
-6.8183484 778.29932 771.76147 4293321719
-4.5455661 778.51654 771.94464 4293453049
-11.055964 781.79022 772.08887 4293518840
-7.6614676 781.02216 772.74927 4293584634
-4.2614679 780.25409 773.40967 4294373631
-37.299084 785.39056 771.20044 4285032577
-34.755962 785.39056 771.20044 4285098626
-31.365139 785.39056 771.20044 4285098881
-27.974312 785.39056 771.20044 4284112755
-25.431192 785.39056 771.20044 4283389803
-23.735781 785.39056 771.20044 4282736252
-19.497248 785.39056 771.20044 4289442275
-16.131193 784.2406 772.19287 4294637823
-13.60734 783.09058 773.1853 4294044926
-11.055964 783.09058 773.1853 4293584633
-8.5045872 783.09058 773.1853 4294045439
-5.1027522 783.09058 773.1853 4294375679
-25.431192 786.68671 772.29333 4283258460
-22.888073 786.68671 772.29333 4281423972
-20.344954 786.68671 772.29333 4284117403
1.7284404 761.01953 774.19592 4294967295
1.7284404 763.66235 776.42432 4294111231
3.4568808 763.00165 775.86725 4294834431
6.9137616 762.34094 775.31018 4294966271
1.7229358 767.30475 775.57141 4292795890
5.1688075 766.64612 775.01611 4294967039
0 769.50928 774.81415 4293124598
-1.7137614 773.79352 774.50232 4293519097
0 771.4809 776.47656 4293650683
-1.7100917 776.64258 774.28857 4293715708
0 775.1037 775.60706 4293650683
-1.7100917 777.94995 775.39099 4294767871
0 778.60364 775.94214 4292730868
-6.8183484 781.55725 774.50842 4293980927
-3.4091742 781.55725 774.50842 4293783551
-1.7045871 782.20886 775.05786 4285560994
0 782.86041 775.6073 4278190116
-37.420185 785.04114 774.82996 4285031809
-34.868805 785.04114 774.82996 4285163137
-31.466972 785.0412 774.82996 4285361026
-28.065136 785.04114 774.82996 4285428096
-25.513762 785.69135 775.37817 4283718759
-22.962385 785.69135 775.37817 4282408286
-19.277063 785.25787 775.0127 4286024629
-16.158716 785.04114 774.82996 4293124337
-13.60734 785.04114 774.82996 4294967039
-11.055964 785.04114 774.82996 4294703615
-7.6577978 784.6593 775.16193 4291351020
-4.2541285 784.6593 775.16193 4283524519
-1.7045871 784.16364 776.70605 4278190197
0 784.16364 776.70605 4278190080
-34.868805 786.9917 776.47461 4285228673
-31.466972 786.9917 776.47461 4285163648
-28.065138 786.9917 776.47461 4285296771
-25.513762 786.9917 776.47461 4285363077
-22.962385 786.9917 776.47461 4283129184
-19.560551 786.9917 776.47461 4282928498
-16.158716 786.9917 776.47461 4288912329
-13.60734 786.9917 776.47461 4290102527
-11.055964 786.9917 776.47461 4283788722
-32.212845 791.87134 776.66479 4284770434
3.4568808 764.98376 777.53845 4293781749
1.7284404 766.96588 779.20972 4292926961
4.3211012 766.96588 779.20972 4294176503
7.7779818 766.30518 778.65259 4294967295
1.7229358 771.25635 778.90332 4293255925
1.7192661 775.42407 779.80139 4290494679
-7.6706419 785.4668 777.80493 4278190155
-4.2614679 785.4668 777.80493 4278190140
-1.7045871 785.4668 777.80493 4278190124
0 785.4668 777.80493 4278190085
-31.466972 788.29205 777.57104 4285032830
-28.065138 788.29205 777.57104 4285230977
-25.513762 788.29205 777.57104 4285494664
-22.962385 788.29205 777.57104 4283652723
-19.580734 787.53101 778.23737 4281749861
-16.193579 786.76996 778.90369 4287270545
-13.636697 786.76996 778.90369 4284111328
-11.079817 786.76996 778.90369 4278782334
-7.6706419 786.76996 778.90369 4278190131
-4.2614679 786.76996 778.90369 4278190097
-1.7045871 786.76996 778.90369 4278191143
0 786.76996 778.90369 4278388270
-30.616514 790.24261 779.2157 4284836734
-28.915596 790.24261 779.2157 4284902271
7.7944956 766.08484 781.08301 4294769663
10.39266 766.74695 781.64124 4294967295
12.124771 766.74695 781.64124 4294967039
4.3211012 768.948 780.88098 4293716475
7.7779818 769.60876 781.43805 4294505726
1.7229358 772.57355 780.01392 4293322234
4.3073397 773.23218 780.56921 4293058551
1.7192661 776.73846 780.90967 4278190120
4.3036699 775.97321 781.57245 4287470267
1.7192661 778.05286 782.01782 4278190080
3.4385321 778.05286 782.01782 4278193990
0 785.79419 782.005 4279506483
-27.273394 788.07312 780.00244 4284968068
-25.568808 788.07312 780.00244 4285099910
-23.011927 788.07312 780.00244 4285229960
-19.602753 788.07312 780.00244 4282339162
-16.193579 788.07312 780.00244 4282138982
-13.636697 788.07312 780.00244 4280630168
-11.079817 788.07312 780.00244 4278190137
-7.6706419 788.07312 780.00244 4278190096
-4.2614679 788.07312 780.00244 4278390554
-1.7045871 788.07312 780.00244 4278786342
-27.273394 790.02783 781.6507 4284835458
-25.568808 790.02783 781.6507 4284901251
-23.296026 789.81073 781.46759 4285098638
-19.602753 789.37628 781.10132 4282535791
-16.193579 789.37628 781.10132 4281351769
-13.636697 789.37628 781.10132 4281025114
-11.079817 789.37628 781.10132 4278196005
-7.6706419 789.37628 781.10132 4279905844
-4.2614679 789.37628 781.10132 4278191890
-30.616514 792.19318 780.86035 4284900993
-28.348623 793.06006 781.59131 4284834946
8.6605501 770.0575 784.43262 4294702591
10.39266 768.73328 783.31604 4294966783
12.124771 768.73328 783.31604 4294967295
7.4960246 771.96161 784.29401 4294636287
5.1688075 776.52515 783.34583 4290633215
7.7779818 774.23358 785.33765 4294637055
1.7192661 779.36725 783.1261 4278190082
4.5944958 778.28143 784.82666 4281151565
6.8917432 779.15955 785.56702 4282533047
1.7192661 780.68164 784.23438 4278190109
3.4385321 781.33887 784.78851 4278190083
1.7137614 784.93005 783.8924 4278980904
-22.231194 788.40894 784.20972 4284967818
-19.666054 788.40894 784.20972 4283455094
-16.245872 788.40894 784.20972 4282271579
-13.680734 788.40894 784.20972 4282665315
-11.115597 788.40894 784.20972 4284507000
-7.6954126 788.40894 784.20972 4287861665
-4.2752295 788.40894 784.20972 4279111186
-1.7100917 787.75525 783.65857 4278786589
0 787.75525 783.65857 4279178028
-25.568808 791.98267 783.29883 4284769664
-23.011927 791.98267 783.29883 4284441728
-19.666054 789.71637 785.31213 4283718003
-16.245872 789.71637 785.31213 4282269775
-10.26055 789.71637 785.31213 4285030531
-8.5504589 789.71637 785.31213 4286806941
-28.065138 794.79388 783.05322 4284703869
-25.568808 794.58899 785.49646 4284703867
-23.86422 794.58899 785.49646 4284507519
10.425688 767.75751 786.41736 4294900223
12.163302 767.75751 786.41736 4294967295
10.425688 769.08594 787.53748 4294504447
12.163302 769.08594 787.53748 4294965759
10.39266 772.70587 786.66565 4294505471
8.0660553 775.99542 786.82324 4292336884
10.381651 775.45325 787.67413 4294966783
12.124771 774.6922 788.34052 4294834431
5.1688075 781.13538 787.23303 4278190082
7.753211 781.13538 787.23303 4283322730
10.337615 781.13538 787.23303 4291151612
12.060551 780.47675 786.67773 4294639615
1.7192661 785.28198 788.11334 4278980398
4.0177369 783.17755 788.08295 4278652191
7.753211 783.11115 788.89893 4278190085
10.337615 783.11115 788.89893 4281019511
12.894495 785.28198 788.11334 4293191671
15.473394 785.93921 788.66748 4294900223
-13.710092 788.20551 786.65417 4281479260
-11.99633 788.20551 786.65417 4283716222
-6.8550458 788.20551 786.65417 4289898391
-4.2844038 788.20551 786.65417 4280688924
-1.7137614 788.20551 786.65417 4278780184
0 788.20551 786.65417 4278914862
-23.086239 791.02374 786.41443 4284310656
-19.697247 790.54779 787.97522 4283849844
-16.280735 790.17078 788.31128 4282861917
-13.710092 789.51569 787.75891 4281212749
-10.853824 789.95239 788.12714 4282659430
-7.7119265 789.51569 787.75891 4288316595
-1.7137614 789.51569 787.75891 4279042053
0 790.17078 788.31128 4278190096
-22.231194 792.33112 787.51672 4284441725
-25.568808 795.89215 786.59521 4284769664
1.7229358 785.74554 791.12024 4278190104
4.3073397 785.08691 790.56488 4278584854
7.753211 785.08691 790.56488 4278190097
10.337615 785.08691 790.56488 4278190092
12.922018 785.74554 791.12024 4284703370
15.506422 785.74554 791.12024 4294966015
-12.894495 788.56799 790.88403 4281940313
-7.7366972 788.56799 790.88403 4286014372
-4.2981653 787.91077 790.3299 4285093243
-1.7192661 788.56799 790.88403 4278190089
-18.911926 789.88245 791.99219 4283981174
-16.333027 789.88245 791.99219 4283914350
-12.894495 789.88245 791.99219 4284307825
-10.315597 789.88245 791.99219 4286085770
-7.7366972 789.88245 791.99219 4283259528
-4.2981653 789.88245 791.99219 4278590549
-1.7192661 789.88245 791.99219 4278190110
0 789.88245 791.99219 4278910976
-23.13578 792.13611 789.96838 4284507521
-20.565138 792.13611 789.96838 4284375932
13.827523 784.80487 794.2511 4278190238
16.420183 784.80487 794.2511 4294046207
1.7229358 787.72131 792.78613 4282594355
4.3073397 787.72131 792.78613 4285288534
7.753211 787.72137 792.78613 4281412663
10.337615 787.72131 792.78613 4278190082
12.060551 787.72131 792.78613 4278190084
-22.350458 791.19678 793.10046 4284637569
-19.771561 791.19678 793.10046 4284309887
-16.333027 791.19678 793.10046 4284045937
-12.922018 789.69714 794.45203 4284570997
-10.315597 791.19678 793.10046 4284967536
-7.7366972 791.19678 793.10046 4284113801
-4.2981653 791.19678 793.10046 4278722383
-1.7192661 791.19678 793.10046 4278192677
0.8614679 790.44696 793.77625 4288774490
4.3073397 789.69714 794.45203 4294964167
7.753211 789.69714 794.45203 4287990407
10.337615 789.69714 794.45203 4278190093
-24.929358 792.51123 794.20874 4284899716
-22.350458 792.51123 794.20874 4284899715
-20.631193 792.51123 794.20874 4284703615
-17.192661 792.51123 794.20874 4284572026
-4.2981653 792.51123 794.20874 4283982449
-1.7192661 792.51123 794.20874 4282336852
0 792.51123 794.20874 4289559434
16.455046 785.948 797.83105 4284901031
10.370643 788.7691 797.59363 4286474352
13.136147 787.71198 796.70227 4278190090
15.555964 786.12628 795.36523 4288586199
-18.952293 791.01434 795.56274 4284703615
-15.506422 791.01434 795.56274 4284177524
-12.922018 791.01434 795.56274 4283782764
-10.337615 791.01434 795.56274 4282929003
-7.753211 791.01434 795.56274 4286548383
1.7229358 791.01434 795.56274 4294961399
4.3073397 791.01434 795.56274 4294967295
7.753211 791.01434 795.56274 4292926178
-24.121101 792.99011 797.22864 4284966533
-22.398165 792.99011 797.22864 4284900740
-19.813763 792.99011 797.22864 4284835200
-16.367889 792.99011 797.22864 4284703613
-12.922018 792.99011 797.22864 4283849590
-10.337615 792.99011 797.22864 4283980407
-7.753211 792.99011 797.22864 4284902016
-4.3055048 793.36365 796.88959 4286417043
-1.7211009 793.73718 796.55048 4283983981
0.8614679 793.07855 795.99518 4290816973
0 795.14001 796.42529 4282998643
17.376146 785.02698 800.97864 4278190166
13.856881 788.59644 800.06421 4278190080
15.588991 787.27222 798.94763 4278190080
1.7284404 791.41193 799.82202 4287209395
4.3211012 790.75122 799.26489 4293782777
7.7779818 790.75122 799.26489 4294571771
10.370643 790.75122 799.26489 4293057238
12.099083 790.75122 799.26489 4280228387
-22.398165 794.96594 798.89453 4284835970
-19.813763 794.96594 798.89453 4284966786
-16.367889 794.96594 798.89453 4284703612
-12.922018 794.96594 798.89453 4284310139
-10.337615 794.96594 798.89453 4284111479
-7.753211 794.96594 798.89453 4283650927
-4.3073397 794.96594 798.89453 4287270306
-1.7229358 794.96594 798.89453 4287402142
0.8642202 793.84961 799.91534 4284644468
4.3211012 792.73328 800.93616 4290952931
7.7779818 792.73328 800.93616 4294966783
10.370643 792.73328 800.93616 4294967039
-22.398165 796.28314 800.00525 4284706447
-19.813763 796.28314 800.00525 4284704893
-17.229359 796.28314 800.00525 4285031296
-12.922018 796.28314 800.00525 4284637821
-10.337615 796.28314 800.00525 4284703615
-7.753211 796.28314 800.00525 4284112505
-4.3073397 796.28314 800.00525 4284308864
-1.7229358 796.28314 800.00525 4288188861
0 796.28314 800.00525 4287339959
17.559633 772.17297 803.2207 4294966783
19.315596 772.17297 803.2207 4294307327
17.46789 778.61401 802.11145 4291350518
19.21468 779.28174 802.67444 4294704127
19.174313 782.78174 803.00952 4292994815
16.507339 787.01965 802.65869 4278714380
13.27951 790.80347 801.92511 4285814616
-15.555964 794.05469 802.05029 4284834173
1.7284404 794.05469 802.05029 4285103253
4.3211012 794.05469 802.05029 4283792785
7.7871561 793.31189 802.73206 4292991221
10.39266 792.56909 803.41382 4294967295
12.990826 792.56909 803.41382 4293978610
-22.398165 797.60034 801.11584 4286348185
-19.813763 797.60034 801.11584 4285033081
-16.392662 796.48822 802.1402 4284769160
-12.963303 795.3761 803.16455 4285031296
-10.337615 797.60034 801.11584 4284769664
-7.753211 797.60034 801.11584 4284309372
-4.3073397 797.60034 801.11584 4283586416
-1.7229358 797.60034 801.11584 4286876319
0.8642202 796.48822 802.1402 4287863238
-18.952293 799.57617 802.78174 4284902790
-17.229359 799.57617 802.78174 4284703619
-7.753211 799.57611 802.78174 4284769408
-4.5944953 799.35663 802.59668 4284179067
-1.7229358 799.57617 802.78174 4283916925
0 798.91754 802.22644 4285427369
17.669725 764.94708 804.9762 4294176255
19.436697 764.94708 804.9762 4294505471
21.269724 762.67657 806.98584 4294900991
21.203671 766.29791 806.11523 4294505727
17.614679 768.56421 804.10205 4294373887
19.376146 768.56421 804.10205 4294044927
21.137615 769.91089 805.23743 4294307582
19.315596 773.51544 804.35266 4294702591
21.137615 771.25757 806.37292 4294504959
21.027523 776.36035 804.13525 4294966271
21.027523 777.69995 805.26489 4294967295
20.961468 781.95258 804.92651 4293586943
22.708258 781.95258 804.92651 4294836223
19.755352 785.00275 804.88232 4284571535
22.708258 783.95575 806.61548 4294964735
20.045872 786.7796 806.38049 4278194990
8.6880732 791.66907 806.57898 4293916415
13.03211 791.66907 806.57898 4294967295
16.507339 790.34064 805.45898 4279242263
19.113762 791.00488 806.01898 4278190101
4.3302751 793.89331 804.5304 4283923284
6.9284406 793.89331 804.5304 4286876612
10.39266 793.89331 804.5304 4294967039
-15.555964 796.69751 804.27869 4284703619
-12.963303 796.69751 804.27869 4284965505
-10.370643 796.69751 804.27869 4285031296
1.7321101 795.87964 806.20514 4287532991
3.4642203 795.21753 805.64685 4287473587
-15.555964 798.67963 805.94995 4284769923
-12.963303 798.01892 805.39282 4284703617
-10.370643 798.01892 805.39282 4284900993
-4.0330276 798.8999 806.13568 4284507521
-1.7284404 799.34033 806.50708 4284638337
0 798.67963 805.94995 4284046463
-12.922018 802.21057 805.00305 4284638339
-10.337615 802.21057 805.00305 4284507519
-8.0403671 801.99103 804.81793 4284573568
-12.922018 804.18634 806.66895 4285886094
-10.337615 804.18634 806.66895 4284703617
-8.6146793 804.18634 806.66895 4284769410
23.042202 764.03162 808.12842 4294900223
23.042202 765.38672 809.271 4294702335
22.970642 768.99963 808.39319 4294768383
24.737616 770.35052 809.53223 4294505983
22.899082 773.27753 808.07617 4294900479
26.422018 775.29749 809.7793 4294967295
24.583487 777.54279 807.74841 4294967295
24.53211 781.04907 808.08875 4294967295
22.708258 785.2912 807.74146 4291688191
24.53211 783.05853 809.78308 4294967295
20.917431 788.11224 807.50403 4278190117
22.660551 788.11224 807.50403 4286218675
24.455046 787.96204 809.99353 4283520192
15.688073 790.77753 809.75134 4293386214
20.336391 790.33331 809.37677 4278190083
22.660551 790.11121 809.18951 4278980380
4.3440366 793.66174 808.25916 4286484908
7.8192658 792.9975 807.6991 4283463053
10.425688 792.9975 807.6991 4291604211
13.03211 792.9975 807.6991 4294966015
17.376146 792.9975 807.6991 4289503405
1.7376146 795.65436 809.93933 4284441476
3.4752293 795.65436 809.93933 4284641449
-6.9137616 800.66174 807.62122 4284770434
-4.3302751 799.19012 808.99646 4284835713
-1.7321101 799.19012 808.99646 4284966786
0 799.19012 808.99646 4284703367
-10.337615 805.50354 807.77966 4284966532
22.385321 752.37006 811.37598 4294900991
25.966972 752.37006 811.37598 4294308863
17.871559 755.25562 811.19299 4294440191
22.339451 755.25562 811.19299 4294835199
25.966972 753.73914 812.53027 4294374399
23.233028 756.62195 812.34497 4294835199
25.913761 756.62195 812.34497 4294703615
28.594496 756.62195 812.34497 4294834431
26.130888 761.1626 812.24951 4294768383
28.506422 760.93555 812.05804 4294965503
32.069725 761.61658 812.63232 4294965759
25.728439 765.9892 811.08698 4294834687
28.418348 766.59448 812.90527 4294966271
30.194496 766.59448 812.90527 4294967039
26.587156 768.09686 811.55615 4294900735
28.359632 769.4519 812.69873 4294967295
31.018349 769.4519 812.69873 4294967295
33.677063 769.4519 812.69873 4294967295
25.621101 771.70142 810.67126 4294901247
28.271559 773.05225 811.8103 4294966783
30.922018 773.05225 811.8103 4294967295
26.422018 776.64417 810.91479 4294967295
28.183487 776.64417 810.91479 4294967295
30.922018 774.40314 812.94934 4294967295
33.572475 774.40314 812.94934 4294967295
26.422018 777.99084 812.05029 4294967295
29.06422 777.99084 812.05029 4294900735
26.339449 782.91254 812.27612 4294967295
36.875229 782.91254 812.27612 4294967295
24.53211 784.39819 810.9126 4290232307
25.03731 790.18781 811.87012 4281151295
5.2293577 792.77643 811.43683 4287273161
7.8440366 792.77649 811.43677 4285238393
10.458715 792.77643 811.43683 4284114588
13.073395 792.77643 811.43683 4291677419
16.559633 792.77649 811.43677 4294769141
20.045872 792.77649 811.43677 4283385942
22.660551 792.77643 811.43683 4278190093
19.113762 796.98279 811.05945 4293386214
-6.9284406 800.51434 810.11304 4284966786
-4.3440366 798.31122 812.17944 4285032066
-1.7376146 798.31122 812.17944 4285294724
0 798.31122 812.17944 4285294472
25.020184 757.98822 813.49695 4294834431
28.506422 762.9787 813.78076 4294967295
30.288073 762.9787 813.78076 4294967295
31.805504 775.75397 814.08838 4294967039
34.455963 775.75397 814.08838 4294967295
26.422018 779.33746 813.18579 4294967295
29.06422 779.33746 813.18579 4294900735
31.805504 777.10486 815.22729 4294966271
34.455963 777.10486 815.22729 4294967295
36.990826 779.33746 813.18579 4294967295
29.357798 781.13306 814.69971 4294967039
31.706423 781.35748 814.88892 4294900991
34.6422 781.13306 814.69971 4294967295
36.990826 782.03082 815.45667 4294967295
26.339449 784.255 813.40796 4294704895
28.680735 785.14996 814.1626 4294507263
31.60734 785.59747 814.53992 4294967295
33.363304 784.92627 813.97394 4294967039
26.284403 787.07751 813.17175 4291415551
28.912844 788.41711 814.30127 4292729599
31.60734 786.93988 815.67188 4294967295
33.363304 786.93988 815.67188 4294967295
25.328442 791.96838 813.37146 4278190086
28.036697 789.75677 815.43079 4282067334
1.7431192 794.77539 813.12231 4284308609
4.6519876 794.72998 813.95605 4285361808
7.8440366 794.77539 813.12231 4286748562
10.458715 794.77539 813.12231 4283921278
13.073395 794.77539 813.12231 4286087834
16.559633 794.77539 813.12231 4294967039
20.917431 794.77539 813.12231 4286081476
22.660551 794.77539 813.12231 4278190152
25.302753 794.03955 813.80994 4278190085
27.948624 794.63922 815.62354 4278196736
1.7431192 796.10803 814.24597 4285096837
3.4862385 796.10803 814.24597 4284637823
7.8440366 796.77429 814.80774 4283983229
10.458715 796.77435 814.80774 4285628286
13.073395 796.77435 814.80774 4285231751
16.559633 796.77429 814.80774 4286217407
20.045872 796.77429 814.80774 4280432500
22.660551 796.77435 814.80774 4278191393
25.27523 796.77429 814.80774 4278190080
-8.1088686 800.08234 813.67291 4284966531
-4.3440366 799.63959 813.29956 4284900996
-1.7376146 799.63959 813.29956 4285032581
0 799.63959 813.29956 4285098374
-10.425688 802.29645 815.53979 4285757070
38.873394 781.15747 818.64441 4294967295
35.229359 784.05078 817.15991 4294967039
36.990826 784.05078 817.15991 4294967295
29.851376 788.28235 816.80371 4294370815
31.60734 788.28235 816.80371 4294967295
34.296333 787.17657 817.83337 4294967295
28.944036 790.3606 817.24805 4284705164
31.60734 789.62482 817.93567 4293784063
33.363304 789.62482 817.93567 4294967295
29.78899 793.10583 818.2547 4285104530
31.541285 793.10583 818.2547 4288259040
33.293579 793.7757 818.81946 4294833407
1.746789 796.64233 817.3125 4284967047
4.3669724 796.64233 817.3125 4284770434
7.8605504 797.31006 817.87549 4284836733
28.530886 796.86493 817.50018 4288847282
-6.972477 798.77325 816.49316 4284900739
-4.0672784 799.21747 816.86768 4284900993
-1.7431192 799.43958 817.05499 4285032834
0 799.43958 817.05499 4284967306
10.458715 799.43958 817.05499 4284507779
13.363914 799.21747 816.86768 4285100425
16.559633 799.43958 817.05493 4284048013
19.755352 799.21747 816.86768 4278717752
22.660551 798.77325 816.49316 4286937716
25.27523 798.77325 816.49316 4290620608
15.688073 801.43854 818.74048 4285098372
38.994495 780.29254 821.83923 4294967295
37.989906 783.85919 820.92236 4294967295
35.229359 788.09076 820.56628 4294967295
36.990826 788.7641 821.13403 4294967295
33.363304 790.96729 819.06763 4293787647
35.119267 792.98096 820.76544 4294966527
31.541285 795.78516 820.51385 4294967295
33.877674 796.00848 820.70215 4294901247
-7.8605504 798.64551 819.00146 4284770435
-4.6581039 799.53583 819.7522 4284704130
-1.746789 799.98096 820.12756 4285164166
0.87339449 799.31323 819.56451 4285098635
4.6581039 799.09064 819.37677 4284902531
7.8605504 799.31323 819.56451 4284770692
10.480734 799.98096 820.12756 4284967306
12.809787 799.53583 819.7522 4284769924
17.46789 799.98096 820.12756 4285360266
20.379206 799.53583 819.7522 4283779403
22.708258 799.31323 819.56451 4290818467
25.328442 799.31323 819.56445 4294636271
28.530886 799.09064 819.37677 4294967295
-3.4862385 802.77118 819.86414 4284769923
-1.746789 801.31641 821.25354 4284835716
0 801.31641 821.25354 4284770438
5.2403669 801.31641 821.25354 4284902274
7.8605504 801.31641 821.25354 4285164168
10.480734 801.31641 821.25354 4285229972
13.086239 802.04382 820.55884 4284901258
16.577982 802.04382 820.55884 4284704376
20.088074 801.31641 821.25354 4284505468
22.708258 801.31641 821.25354 4288977874
25.328442 801.31641 821.25354 4293781997
27.948624 801.31641 821.25354 4294967295
38.050461 784.10638 823.09283 4294967295
38.873394 787.9118 824.33948 4294967295
36.990826 790.78406 822.83722 4294967295
37.813759 793.89935 823.50189 4294966783
1.7522936 797.79462 822.20813 4284967304
3.5045872 797.79462 822.20813 4284771458
29.78899 797.79462 822.20813 4294571775
31.541285 797.79462 822.20813 4294571775
34.169724 797.79462 822.20813 4294900991
37.753212 797.0083 824.16119 4294900991
1.7522936 799.13428 823.33765 4284836231
4.088685 800.02734 824.09076 4285098883
25.408257 800.47394 824.46729 4287667659
29.204893 800.02734 824.09076 4294243583
31.541285 799.80408 823.90247 4294834175
34.169724 799.80408 823.90247 4294966527
37.382259 800.02734 824.09076 4294967039
-1.746789 802.65186 822.37952 4284770438
0 802.65186 822.37952 4284966534
8.1516819 803.09698 822.75488 4285361284
10.480734 803.31958 822.9425 4285296010
13.100918 803.31958 822.9425 4285296521
16.594496 803.31958 822.9425 4285164934
20.088074 803.31958 822.9425 4283718512
22.708258 803.31958 822.9425 4283653744
10.480734 805.32269 824.63159 4285557638
13.100918 805.32269 824.63159 4285690251
16.594496 805.32269 824.63159 4286020246
20.088074 805.32269 824.63159 4283260525
40.851376 782.21008 826.07196 4294967295
38.994495 784.35773 825.26685 4294967295
40.851376 784.24689 827.78943 4294967295
40.766972 787.06787 827.552 4294967295
38.873394 789.26263 825.47852 4294967295
40.640366 791.96436 827.75647 4294967295
42.407341 791.96436 827.75647 4294967295
38.752293 794.1507 825.6759 4294966271
40.51376 796.17065 827.37909 4294967295
42.27523 796.17065 827.37909 4294703615
1.7559633 799.69318 826.42505 4284966533
3.5119267 800.36438 826.99097 4285163136
40.387157 800.36438 826.99097 4294967295
-1.7522936 802.4834 826.16156 4284966023
0 802.4834 826.16156 4284966019
5.2568808 801.81354 825.5968 4285360516
7.5932717 802.70673 826.34979 4285360260
22.779816 803.1532 826.72632 4280106297
25.408257 802.4834 826.1615 4282148243
28.620794 802.26007 825.97333 4290558691
31.541285 802.4834 826.16156 4294703871
34.169724 802.4834 826.16156 4294966271
37.674309 801.81354 825.5968 4294967295
8.7614679 804.49286 827.85596 4285294470
10.513762 804.49286 827.85596 4285491845
13.100918 806.65814 825.75757 4285558664
16.594496 806.65814 825.75757 4286019221
19.275229 804.49286 827.85596 4285229711
21.903669 804.49286 827.85596 4282603867
42.891743 777.79956 830.20135 4294967295
42.759632 782.04791 829.85938 4294967295
42.627522 785.60474 828.93433 4294967295
40.766972 788.42297 828.69458 4294967295
42.539448 788.42297 828.69458 4294967295
44.311928 791.13312 830.97974 4294967295
46.084404 791.13312 830.97974 4294967295
44.174313 794.66614 830.03455 4294637823
40.51376 799.53735 830.21777 4294967295
42.862385 799.08844 829.83929 4294966271
0.87798166 802.37805 828.6889 4285097091
4.682569 802.1543 828.50024 4285031291
7.0238533 803.04932 829.25488 4285031298
25.461468 803.04932 829.25488 4280703345
29.266054 802.60181 828.87762 4289311710
31.60734 803.04932 829.25488 4293650175
34.241287 803.04932 829.25488 4294967039
37.753212 802.37805 828.6889 4294967295
7.901835 804.39172 830.38672 4285097093
10.513762 805.83246 828.98547 4285098374
13.142202 805.83246 828.98547 4285361288
16.64679 805.83246 828.98547 4285951886
19.275229 805.83246 828.98547 4286410900
21.949541 804.39172 830.38672 4284244596
25.461468 804.39172 830.38672 4281817962
28.973394 804.39172 830.38672 4284841628
31.60734 804.39172 830.38672 4289310953
34.241287 804.39172 830.38672 4294507519
37.753212 804.39172 830.38672 4294966783
8.7614679 807.17212 830.11499 4284769160
10.513762 807.17212 830.11499 4285098626
13.142202 807.17212 830.11499 4285295749
16.64679 807.17212 830.11499 4285821322
19.275229 807.17212 830.11499 4286939032
44.72477 778.4314 832.04218 4294967295
44.678898 781.21527 833.08142 4294967295
46.466057 781.21527 833.08142 4294967295
44.541283 784.77209 832.15637 4294967295
44.403671 788.3205 831.22412 4294967295
46.179817 791.03625 833.51404 4294965503
46.084404 793.84326 833.26477 4294965503
44.174313 796.01697 831.17358 4294966783
45.941284 797.36786 832.3125 4294768127
1.7614679 800.88397 831.35327 4284899713
3.5229359 800.88397 831.35327 4284702581
40.51376 800.88397 831.35327 4294967295
43.155964 800.88397 831.35327 4294966527
45.941284 798.71869 833.45154 4294965247
1.174312 802.6795 832.86719 4285491853
4.4036698 802.90399 833.0564 4284833922
25.541285 803.57733 833.62415 4283786607
29.06422 803.57733 833.62415 4283854188
31.706423 803.57733 833.62415 4286416844
34.348625 803.57733 833.62415 4293981695
37.871559 803.57733 833.62415 4294967295
40.51376 802.90399 833.0564 4294966527
43.155968 802.90399 833.0564 4294900479
7.0238533 805.73419 831.51868 4284571524
21.949541 805.73419 831.51868 4284966802
8.7798166 807.07666 832.65063 4284703367
10.513762 808.51178 831.24451 4284769410
13.155964 808.46545 832.51349 4284703617
16.681652 807.7478 833.21655 4285163655
19.315596 807.74786 833.21655 4285689743
21.656881 807.52411 833.02789 4285886873
46.561466 781.12115 835.61816 4294967295
48.352295 782.4903 836.77258 4294967295
46.466057 783.94788 835.3855 4294967295
48.104588 788.85834 835.60181 4294967295
48.104588 790.22046 836.75024 4294967295
47.85688 795.87585 834.97864 4294966783
46.824768 800.06958 834.59058 4294965759
46.824768 802.09583 836.29913 4294966271
7.9266057 805.59729 835.32733 4284308606
10.568808 806.27063 835.89502 4284703617
22.899082 806.27063 835.89502 4286479010
25.541285 805.59729 835.32733 4285558660
29.06422 805.59729 835.32739 4282467931
31.706423 805.59729 835.32733 4282078305
34.348625 805.59729 835.32739 4288587980
37.871559 805.59729 835.32739 4294900991
40.51376 805.59729 835.32733 4294768127
43.155968 805.59729 835.32733 4294768639
50.040367 788.04675 838.84155 4294967295
51.827522 788.04675 838.84155 4294967295
49.886238 791.58252 837.8988 4294967295
52.7211 789.41302 839.99353 4294967039
49.886238 792.94464 839.04724 4294967295
51.667889 792.94464 839.04724 4294967295
49.732109 797.82568 839.23865 4294966527
49.629356 800.61865 838.97766 4294966783
8.8348627 805.47302 839.14661 4284835716
38.873394 805.47302 839.14661 4293718271
46.824768 804.79761 838.57715 4294900735
49.475231 804.12219 838.00769 4294967295
10.568808 807.61731 837.03052 4284309633
13.504588 808.06616 837.409 4284440704
16.733946 808.29065 837.59827 4284572031
19.376146 808.29065 837.59827 4285361546
22.018349 808.29065 837.59827 4285361803
25.541285 808.29059 837.59827 4285689999
29.06422 808.29065 837.59827 4286150027
31.706423 808.29065 837.59827 4287003524
34.348625 808.29065 837.59827 4283782505
36.990826 807.61731 837.03052 4292338687
40.51376 808.29065 837.59827 4294769919
43.155968 808.29065 837.59827 4294834175
46.678898 808.96393 838.16602 4294965503
14.091743 810.31061 839.30151 4284177021
22.899082 810.31061 839.30151 4285557642
53.614677 790.7793 841.14563 4294967295
55.515594 789.33575 842.54443 4294967295
59.097248 789.33575 842.54443 4294967295
49.886238 794.3067 840.19568 4294967039
52.641281 793.2262 841.24664 4294967295
52.558716 796.34985 841.91846 4294967295
51.508255 799.18353 840.38354 4294967295
49.629356 803.3288 841.2627 4294967039
51.401836 802.65125 840.69147 4294967295
8.8348627 806.82391 840.28564 4285295238
10.601835 806.82391 840.28564 4284769410
12.368808 806.82391 840.28564 4284572030
37.989906 806.82391 840.28564 4291415275
49.475231 806.82391 840.28564 4294967039
51.242203 806.82391 840.28564 4294967295
10.601835 808.17474 841.42468 4286413728
12.957798 809.07538 842.18408 4284768133
16.78624 808.85016 841.9942 4284834177
19.436697 808.85022 841.9942 4284965760
21.792662 809.07538 842.18408 4285162884
25.621101 808.85022 841.99426 4285296779
28.271559 808.85022 841.9942 4286150026
30.922018 808.85022 841.99426 4288385183
34.455963 808.85022 841.99426 4287465607
37.989906 808.85016 841.9942 4286941356
40.640366 808.85022 841.9942 4294966783
43.290825 808.85022 841.99426 4294900735
46.824768 808.85022 841.99426 4294899711
49.475231 808.85022 841.9942 4294966015
51.242203 809.52563 842.56372 4294966527
55.686237 788.54382 845.80078 4294967295
58.380737 788.54382 845.80078 4294967295
61.07523 788.54382 845.80078 4294967295
53.614677 793.5119 843.44971 4294967295
53.614677 796.24451 845.75366 4294967295
53.449543 799.75507 844.78967 4294967295
53.284405 803.2572 843.81836 4294967295
52.288074 806.03894 843.54785 4294966527
38.108257 808.74908 845.83301 4285755790
52.583485 808.29736 845.45215 4294967039
13.252294 810.87646 843.70276 4285886364
16.78624 810.87646 843.70276 4284965507
19.436697 810.87646 843.70276 4285162884
22.381653 811.32672 844.08234 4285164161
25.326607 811.32672 844.08234 4285426052
28.271559 810.87646 843.70276 4285098374
31.216513 811.32672 844.08234 4286150038
34.161469 811.32672 844.08234 4288189613
40.640366 811.55188 844.27222 4294967295
43.585323 811.32672 844.08234 4294901247
46.824768 811.55188 844.27222 4294900991
49.475231 811.55188 844.27222 4294966527
14.135779 813.57825 845.98071 4285360529
15.902752 813.57825 845.98071 4285228687
22.970642 813.57825 845.98071 4285294974
55.686237 789.91711 846.95874 4294967295
58.380737 790.60376 847.53772 4294967295
55.515594 793.44312 846.00769 4294967295
55.515594 796.18127 848.31641 4294967295
55.401836 798.97711 848.05774 4294967295
55.231194 802.47925 847.08655 4294967295
57.012844 803.84131 848.23511 4294967295
10.65688 805.97296 846.10828 4286938789
55.060551 805.97296 846.10828 4294967295
10.65688 808.00977 847.82562 4283913355
55.060551 808.00977 847.82562 4294967295
12.998164 810.55585 847.35645 4285690263
17.133944 810.55585 847.35645 4285162371
19.497248 810.78168 847.54688 4285162372
21.269724 810.78168 847.54688 4285228925
25.99633 811.00751 847.7373 4285295492
28.359632 810.78168 847.54688 4285229962
30.722937 811.00751 847.7373 4285624209
34.858715 811.00751 847.7373 4286938269
38.108257 810.78162 847.54688 4284109676
40.766972 811.45923 848.11816 4294966527
43.130276 811.00751 847.7373 4294967295
46.970642 811.45923 848.11816 4294966271
49.629356 811.45923 848.11816 4294899199
51.992661 810.55585 847.35645 4294967039
65.064217 785.60333 851.16968 4294967295
61.262386 787.76025 849.06421 4294967295
63.06422 787.76025 849.06421 4294967295
59.460552 790.51526 851.38721 4294967295
61.262386 789.82654 850.80646 4294967295
63.06422 789.82654 850.80646 4294967295
66.667892 790.51526 851.38721 4294967295
55.686237 792.6637 849.27466 4294967295
58.081348 793.57928 850.04657 4294967295
58.380737 795.41034 851.59045 4294967295
58.14312 799.63147 849.91754 4294967295
61.783485 800.28857 851.77966 4294967295
58.976147 802.39282 850.93781 4294967295
61.656879 803.07599 851.51379 4294967295
64.337616 803.07599 851.51379 4294967295
57.606731 806.11151 850.14917 4294967295
57.903671 807.92761 851.68054 4294967295
10.65688 812.76233 851.83289 4281019722
13.607339 812.7796 850.97552 4282270052
16.865137 812.43585 850.90363 4285822618
19.517431 812.78833 850.54681 4284572034
22.189909 812.43579 850.90369 4284243827
25.727524 812.78827 850.54681 4285164165
28.38899 812.78833 850.54681 4285361542
31.050459 812.78833 850.54688 4285558156
34.617432 812.43591 850.90369 4286412182
37.299084 812.08337 851.26044 4285226877
39.963303 812.08337 851.2605 4291871428
43.492661 812.43579 850.90369 4294967295
47.044037 812.43579 850.90369 4294901247
49.732109 812.08337 851.26044 4294966271
52.573952 811.67609 850.91699 4294967039
55.060551 811.40448 850.68799 4294967295
65.064217 787.67596 852.91724 4294967295
61.262386 791.89276 852.54858 4294967295
63.965141 791.89276 852.54858 4294967295
67.56881 791.89276 852.54858 4294967295
61.262386 793.27026 853.71008 4294967295
64.26545 793.72949 854.09723 4294967295
67.56881 793.95911 854.29083 4294967295
61.973396 796.78363 852.74841 4294967295
61.656879 805.12543 853.24188 4294967295
64.337616 804.44226 852.66589 4294967295
66.124771 804.44226 852.66589 4294967295
57.903671 809.28967 852.82898 4294967295
61.656879 807.17487 854.96985 4294967295
57.903671 810.65173 853.97742 4294967295
12.433027 814.12024 852.97778 4282071642
22.201836 814.79913 853.55029 4285821068
25.754128 814.79913 853.55029 4284637565
28.418348 814.79919 853.55029 4285360768
31.082569 814.79913 853.55029 4285491335
33.746788 814.12024 852.97778 4285622931
49.732109 814.12024 852.97778 4294967295
64.866058 796.02533 856.03308 4294967295
67.56881 796.71411 856.61389 4294967295
64.469727 805.08044 855.82001 4294967295
66.857491 805.30859 856.01239 4294967295
61.656879 809.2243 856.69794 4294967295
64.403671 808.52075 857.41272 4294967295
67.15596 807.13409 857.55151 4294967295
16.925688 812.01385 855.12598 4286020515
19.598166 812.01385 855.12598 4286938811
35.633026 812.01385 855.12598 4285755273
37.41468 812.01385 855.12598 4286939291
40.087158 812.01385 855.12598 4291938537
43.650459 812.01385 855.12598 4294967295
46.322937 812.01385 855.12598 4294967295
48.104588 812.01385 855.12598 4294967295
52.558716 812.01385 855.12598 4294967295
55.231194 812.01385 855.12598 4294967295
57.903671 812.01385 855.12598 4294967295
16.925688 814.05701 856.84863 4284243330
19.598166 814.05701 856.84863 4290030814
28.506422 814.73804 857.42285 4284572280
31.178898 814.73804 857.42285 4285097346
34.742203 814.05701 856.84863 4285755277
37.41468 814.05701 856.84863 4284901504
40.087158 814.05701 856.84863 4289244368
43.650459 814.05701 856.84863 4294900991
46.322937 814.05701 856.84863 4294967295
48.995415 814.05695 856.84863 4294967295
52.558716 814.05695 856.84863 4294967295
55.231194 814.05701 856.84863 4294967295
57.606731 813.83002 856.65723 4294966783
23.089909 816.836 855.2677 4287394736
25.754128 816.836 855.2677 4284700021
67.15596 809.18774 859.28314 4294967295
69.842201 809.18774 859.28314 4294967295
21.445871 812.64008 859.578 4291078887
58.976147 812.64008 859.578 4294967295
61.656879 811.95691 859.00208 4294967295
64.337616 811.95691 859.00201 4294967295
22.339451 814.00635 860.72998 4290025186
58.976147 814.00635 860.72998 4294967295
61.656879 814.00635 860.72998 4294967295
64.337616 814.00635 860.72998 4294967295
26.130888 816.55414 858.9541 4286868898
28.506422 816.78113 859.14557 4283978345
30.881956 816.55414 858.9541 4284899451
34.742203 816.1001 858.57129 4285820813
37.41468 816.1001 858.57129 4285163136
40.087158 816.1001 858.57129 4288257220
43.650459 816.1001 858.57129 4294045183
46.322937 816.1001 858.57129 4294967039
49.440826 817.1217 859.43268 4294967039
52.558716 817.46216 859.71973 4294966783
55.231194 816.78113 859.14557 4294967295
57.012844 816.78113 859.14557 4294965503
70.056877 809.14343 863.16992 4294967295
67.15596 811.9259 861.59198 4294967295
23.233028 815.37268 861.88208 4291280089
32.168808 815.37268 861.88208 4284637574
34.849541 815.37268 861.88208 4285558927
37.530273 815.37268 861.88208 4285032577
40.21101 815.37268 861.88208 4287338176
43.78532 815.37268 861.88208 4293847804
46.466057 815.37268 861.88208 4294967295
48.253212 815.37268 861.88208 4294967295
58.976147 815.37268 861.88208 4294966527
61.656879 815.37268 861.88208 4294967295
64.469727 813.97961 863.32349 4294967295
25.913761 816.73895 863.03406 4290485984
28.594496 816.73895 863.03406 4289763265
31.27523 816.73895 863.03406 4284043122
34.849541 816.73895 863.03406 4284770179
37.530273 816.73895 863.03406 4285361290
40.21101 816.73895 863.03406 4286876859
43.78532 816.73895 863.03406 4293650681
46.466057 816.73895 863.03406 4294967295
48.253212 816.73895 863.03406 4294966783
55.401836 816.73895 863.03406 4294966527
58.082569 816.73895 863.03406 4294834175
61.656879 816.73895 863.03406 4294967039
72.293579 803.5658 866.31506 4294967295
67.362381 811.89008 865.48572 4294967295
70.056877 810.51672 864.32776 4294967295
64.469727 815.34869 864.47791 4294967295
67.362381 813.26337 866.64368 4294967295
31.339451 816.71783 865.63232 4284832128
34.921101 817.40234 866.20953 4284374649
37.607338 817.40234 866.20953 4285099658
40.252293 818.09607 865.48645 4286022064
43.78532 818.10522 864.18616 4293584630
46.466057 818.10522 864.18616 4294967295
49.14679 818.10522 864.18616 4294966527
52.7211 818.10522 864.18616 4294965759
55.401836 818.10522 864.18616 4294966271
58.082569 818.10522 864.18616 4294966527
62.040363 817.63666 865.5351 4294966783
64.469727 817.40234 866.20953 4294966783
44.083179 819.92694 865.72217 4294045175
46.466057 820.15466 865.91412 4294967295
49.14679 820.15466 865.91418 4294966527
53.018963 819.92694 865.72217 4294965503
55.401836 820.15466 865.91412 4294966015
57.78471 819.92694 865.72217 4294965247
60.763302 819.47156 865.33813 4294899199
72.513763 802.84955 869.63538 4294967295
72.293579 806.32922 868.64514 4294967295
70.271561 809.80054 867.64795 4294967295
68.469727 812.55554 869.97095 4294967295
70.271561 811.17804 868.80945 4294967295
28.741285 814.63666 867.80164 4290751203
66.464218 814.63666 867.80164 4294967295
31.43578 816.01001 868.95959 4289766863
66.464218 816.01001 868.95959 4294967039
37.607338 819.45599 867.94104 4285229961
40.592052 819.91235 868.32587 4286677677
43.576756 820.36871 868.71063 4292925415
46.561466 820.82513 869.09546 4294967295
49.247707 820.82513 869.09546 4294966271
52.530884 820.36871 868.71063 4294966271
55.515594 820.82513 869.09546 4294966271
58.201836 820.14056 868.51825 4294899199
61.783485 819.45599 867.94104 4294966015
70.486237 810.47443 872.14026 4294967295
32.433029 815.31061 872.29395 4290161624
68.469727 814.62183 871.7132 4294967039
35.327831 817.84106 870.50348 4285557134
37.722935 818.75659 871.27539 4285687693
39.519264 818.75659 871.27539 4284965773
59.2789 818.75659 871.27539 4294964991
61.973396 818.75659 871.27539 4294899199
64.667892 817.3833 870.11755 4294966271
66.464218 817.3833 870.11755 4294967295
37.722935 820.12994 872.43335 4285292698
40.417431 820.12994 872.43335 4286150810
44.010094 820.12994 872.43335 4293320685
46.704586 820.12994 872.43335 4294967295
49.399082 820.12994 872.43335 4294966527
52.991745 820.12994 872.43335 4294966015
55.686237 820.12994 872.43335 4294966271
57.482571 820.12994 872.43335 4294964991
72.513763 809.77924 875.47827 4294967295
28.917431 811.85614 873.3053 4290096092
70.486237 811.85614 873.3053 4294967295
27.110092 813.23785 874.47034 4285885086
30.724771 813.92871 875.05286 4289441985
68.678902 814.61963 875.63538 4294967295
70.486237 813.92871 875.05286 4294967295
32.433029 816.68811 873.45544 4289635277
34.234863 817.37683 874.03619 4290358726
36.036697 818.06561 874.61694 4289042899
59.460552 818.06561 874.61694 4294966015
61.262386 818.06561 874.61694 4294966271
64.26545 817.60645 874.2298 4294834687
66.667892 817.37683 874.03619 4294967295
36.937614 819.44312 875.77844 4286740658
40.541283 819.44312 875.77844 4286151315
43.244038 819.44312 875.77844 4291608797
45.946789 819.44312 875.77844 4294967295
49.550461 819.44312 875.77844 4294965503
52.253212 819.44312 875.77844 4294965759
54.955963 819.44312 875.77844 4294967039
58.559631 819.44312 875.77844 4294966783
61.262386 819.44312 875.77844 4294967295
63.965141 819.44312 875.77844 4294967295
66.667892 819.44312 875.77844 4294242302
72.513763 811.85815 877.23114 4294967295
29.005505 813.93701 878.98401 4283056727
30.818348 813.93701 878.98401 4285425275
32.532108 816.6922 877.38293 4286345871
34.339451 817.38306 877.96545 4286741167
68.678902 816.6922 877.38293 4292732665
70.486237 816.6922 877.38293 4290561752
36.937614 820.82068 876.93982 4286217355
43.244038 820.82068 876.93982 4291280348
64.866058 820.82068 876.93982 4293585894
66.667892 820.82068 876.93982 4289506728
27.881346 810.94598 880.38605 4282599015
29.005505 815.32294 880.15259 4281940311
30.818348 815.32294 880.15259 4282071640
