# .PCD v0.7 - Point Cloud Data file format
VERSION 0.7
FIELDS x y z rgb
SIZE 4 4 4 4
TYPE F F F U
COUNT 1 1 1 1
WIDTH 1160
HEIGHT 1
VIEWPOINT 0 0 0 1 0 0 0
POINTS 1160
DATA ascii
21.649542 784.77881 1276.8922 4287736545
23.963303 791.14691 1275.7214 4294967295
26.359632 791.14691 1275.7214 4294967295
23.963303 792.97894 1277.2662 4294967295
21.732111 780.22882 1279.5958 4288194770
24.14679 780.22882 1279.5958 4286749648
14.433027 787.53735 1279.2183 4289702120
16.838531 788.45691 1279.9935 4292988671
19.244038 788.45691 1279.9935 4294834431
21.649542 787.53735 1279.2183 4293848827
28.866055 788.45691 1279.9935 4294967295
14.488073 782.07483 1281.1523 4289180909
19.31743 782.07483 1281.1523 4287275994
12.073395 783.9209 1282.709 4290495487
16.902752 783.9209 1282.709 4291415807
19.31743 783.9209 1282.709 4292927737
14.433027 790.2959 1281.5442 4285824440
16.838531 790.2959 1281.5442 4290298363
19.244038 790.2959 1281.5442 4293652471
21.649542 790.2959 1281.5442 4294967295
26.46055 790.2959 1281.5442 4294967295
28.866055 790.2959 1281.5442 4294967295
14.433027 792.13495 1283.0947 4281356185
16.838531 792.13495 1283.0947 4281816736
19.244038 792.13495 1283.0947 4280506286
21.649542 792.13495 1283.0947 4283730143
25.257797 792.13495 1283.0947 4292468222
28.866055 792.13495 1283.0947 4294967295
52.355965 814.18286 1283.3726 4294836223
54.735779 814.18286 1283.3726 4294967295
9.6954126 779.37079 1285.4126 4290428666
12.119267 779.37079 1285.4126 4289902322
16.966972 779.37079 1285.4126 4288720358
9.6954126 781.22388 1286.9751 4289771515
12.073395 785.76697 1284.2655 4283722421
31.390825 785.76697 1284.2655 4294967295
12.073395 787.61298 1285.822 4282473632
31.390825 787.61298 1285.822 4294836223
33.805504 787.61298 1285.822 4294770687
13.230275 793.974 1284.6454 4282801053
16.838531 793.974 1284.6454 4282407326
19.244038 793.974 1284.6454 4280834215
21.649542 793.974 1284.6454 4282610883
25.257797 793.974 1284.6454 4287282168
13.230275 795.81299 1286.196 4283392671
16.838531 795.81299 1286.196 4284379826
19.244038 795.81299 1286.196 4283922366
21.649542 795.81299 1286.196 4282935471
25.257797 795.81299 1286.196 4282621911
50.130276 812.08698 1286.8374 4294901759
14.609175 774.26447 1288.9552 4289049050
9.6954126 783.0769 1288.5375 4282669733
9.6587152 790.38202 1288.1567 4283326104
12.073395 789.45898 1287.3785 4282997391
28.976147 791.30505 1288.9351 4294967295
31.390825 790.38202 1288.1567 4294836223
13.230275 797.65204 1287.7466 4283392671
16.838531 797.65204 1287.7466 4284576946
19.244038 797.65204 1287.7466 4284119742
21.649542 797.65204 1287.7466 4283198640
25.257797 797.65204 1287.7466 4281765587
28.866055 797.65204 1287.7466 4290106367
0 799.49109 1289.2972 4282800006
14.433027 799.49109 1289.2972 4283524510
16.838531 799.49109 1289.2972 4284577198
19.244038 799.49109 1289.2972 4284381120
21.649542 799.49109 1289.2972 4283722934
25.257797 799.49109 1289.2972 4282878678
28.866055 799.49109 1289.2972 4290434303
-4.7926607 807.63507 1289.6239 4282208391
0 807.63507 1289.6239 4282931594
22.677982 813.91199 1288.3762 4283462064
26.258715 813.91199 1288.3762 4290767615
28.645872 813.91199 1288.3762 4294967295
7.3321099 769.68494 1291.634 4286947545
9.7761469 769.68494 1291.634 4288062937
7.3045874 776.12592 1290.5248 4290884056
-2.4348624 777.98743 1292.0944 4285233067
0 777.98743 1292.0944 4287006635
7.3045874 777.98743 1292.0944 4289900732
9.6954126 784.92993 1290.1 4280829064
37.569725 784.92993 1290.1 4294967295
41.205505 784.92993 1290.1 4294967295
43.629356 784.92993 1290.1 4294967295
48.477066 784.92993 1290.1 4294967295
0 786.78302 1291.6624 4282866053
4.8477063 786.78302 1291.6624 4282931596
7.2715597 786.78302 1291.6624 4283392147
33.933945 786.78302 1291.6624 4294639615
37.569725 786.78302 1291.6624 4294705151
41.205505 786.78302 1291.6624 4294901759
43.629356 786.78302 1291.6624 4294967295
49.688992 786.78302 1291.6624 4294967295
0 794.0741 1291.2698 4282734214
4.8293576 794.0741 1291.2698 4283063440
7.2440367 794.0741 1291.2698 4283392405
9.6587152 794.0741 1291.2698 4283523741
28.976147 793.15112 1290.4916 4291815679
31.390825 794.0741 1291.2698 4294049791
-12.027523 803.16913 1292.3984 4282339455
-9.6220188 803.16913 1292.3984 4282339455
-7.2165136 803.16913 1292.3984 4282339455
-4.8110094 803.16913 1292.3984 4282273412
-2.4055047 803.16913 1292.3984 4282865549
0.80183488 802.55615 1291.8816 4282931337
9.6220188 803.16913 1292.3984 4283260829
13.631192 802.55615 1291.8816 4283590300
16.838531 802.24963 1291.6232 4284774826
19.244038 802.24963 1291.6232 4284251329
21.649542 802.24963 1291.6232 4283659192
25.257797 802.24963 1291.6232 4284781531
50.515594 803.16913 1292.3984 4294967295
52.921101 803.16913 1292.3984 4294967295
0 809.46704 1291.1686 4283063436
22.765137 809.46704 1291.1686 4283067568
47.926605 809.46704 1291.1686 4294770687
-7.1889906 811.29907 1292.7133 4282667654
-4.7926607 811.29907 1292.7133 4282536840
-2.3963304 811.29907 1292.7133 4282997391
0 811.29907 1292.7133 4283063436
47.926605 811.29907 1292.7133 4294967295
50.322937 811.29907 1292.7133 4294967295
52.719265 811.29907 1292.7133 4294967295
50.130276 817.56201 1291.4539 4294967295
52.517429 817.56201 1291.4539 4294967295
23.871559 819.38696 1292.9927 4288785903
28.557798 825.09918 1292.5769 4294836223
-58.877064 766.9668 1295.8823 4280174436
-56.423855 766.9668 1295.8823 4280898160
4.9064221 766.9668 1295.8823 4283592102
13.492661 766.9668 1295.8823 4288983261
17.172478 766.9668 1295.8823 4289245912
19.625689 766.9668 1295.8823 4289049300
22.078899 766.9668 1295.8823 4289444058
-2.4440367 773.42188 1294.7849 4285497007
0 773.42188 1294.7849 4287661748
4.8880734 773.42188 1294.7849 4290752727
7.3321099 771.55341 1293.2095 4289309136
9.7761469 771.55341 1293.2095 4289377511
12.220183 771.55341 1293.2095 4289245925
17.108257 771.55341 1293.2095 4289049050
19.552294 771.55341 1293.2095 4288063185
-2.4348624 779.84888 1293.6639 4281486726
0 779.84888 1293.6639 4281683074
4.8697248 779.84888 1293.6639 4281683587
7.3045874 779.84888 1293.6639 4282078345
-31.653212 781.71033 1295.2334 4282272637
-24.348623 781.71033 1295.2334 4282011005
-21.913761 781.71033 1295.2334 4281813883
-19.478899 781.71033 1295.2334 4281878393
-9.7394495 781.71033 1295.2334 4281355131
-7.3045874 781.71033 1295.2334 4281420924
-4.8697248 781.71033 1295.2334 4281354877
-2.4348624 781.71033 1295.2334 4281618048
0 781.71033 1295.2334 4281749373
4.8697248 781.71033 1295.2334 4281420933
7.3045874 781.71033 1295.2334 4281420933
46.262386 781.71033 1295.2334 4294967295
-2.4238532 788.63611 1293.2249 4282603397
1.2119266 788.63611 1293.2249 4282997639
4.8477063 788.63611 1293.2249 4282997904
7.2715597 788.63611 1293.2249 4283458455
33.933945 788.63611 1293.2249 4294770687
38.781651 788.63611 1293.2249 4294770687
-31.510092 790.48914 1294.7874 4282796664
-4.8477063 790.48914 1294.7874 4282340225
-2.4238532 790.48914 1294.7874 4282471810
2.4238532 790.48914 1294.7874 4282997387
33.933945 790.48914 1294.7874 4294967295
37.569725 790.48914 1294.7874 4294901759
50.900917 790.48914 1294.7874 4294967295
53.324772 790.48914 1294.7874 4294967295
55.748623 790.48914 1294.7874 4294967295
-31.390825 796.8432 1293.6047 4281879926
-7.2440367 796.8432 1293.6047 4282275199
-4.8293576 796.8432 1293.6047 4282471556
-2.4146788 796.8432 1293.6047 4282669192
2.4146788 796.8432 1293.6047 4283063434
4.8293576 796.8432 1293.6047 4283457938
7.2440367 796.8432 1293.6047 4283457938
9.6587152 796.8432 1293.6047 4283457949
12.073395 796.8432 1293.6047 4283721378
31.390825 796.8432 1293.6047 4294115327
33.805504 796.8432 1293.6047 4294901759
-31.390825 798.68921 1295.1613 4282207094
-28.976147 798.68921 1295.1613 4281879676
-26.561468 798.68921 1295.1613 4282011005
-13.280734 798.68921 1295.1613 4282273916
-9.6587152 798.68921 1295.1613 4282339455
-7.2440367 798.68921 1295.1613 4282273662
-4.8293576 798.68921 1295.1613 4282011526
-2.4146788 798.68921 1295.1613 4282669199
2.4146788 798.68921 1295.1613 4283127946
4.8293576 798.68921 1295.1613 4283392399
7.2440367 798.68921 1295.1613 4283326350
9.6587152 798.68921 1295.1613 4283457436
12.073395 798.68921 1295.1613 4284115366
28.976147 798.68921 1295.1613 4290697215
31.390825 798.68921 1295.1613 4294443007
33.805504 798.68921 1295.1613 4294967295
50.708256 798.68921 1295.1613 4294967295
53.122936 798.68921 1295.1613 4294967295
-13.230275 805.92767 1294.7244 4282536322
-9.6220188 805.92767 1294.7244 4282536065
-7.2165136 805.92767 1294.7244 4282602114
-4.8110094 806.84717 1295.4998 4282733961
-2.4055047 805.92767 1294.7244 4282800269
2.4055047 805.92767 1294.7244 4283260559
4.8110094 805.92767 1294.7244 4283260309
7.2165136 806.84717 1295.4998 4283523481
9.6220188 805.92767 1294.7244 4283522466
13.230275 805.92773 1294.7245 4283852453
16.838531 805.92767 1294.7244 4285103542
19.244038 805.92767 1294.7244 4284578493
21.649542 805.00818 1293.9491 4283788979
25.658714 805.62115 1294.4659 4287345897
28.866055 806.84717 1295.4998 4293392383
31.271559 806.84717 1295.4998 4294770687
33.677063 806.84717 1295.4998 4294770687
37.285324 806.84717 1295.4998 4294639615
40.893578 806.84717 1295.4998 4294967295
43.299084 806.84717 1295.4998 4294770687
45.704586 805.92767 1294.7244 4294901759
49.312843 805.00818 1293.9491 4294967295
52.921101 805.00818 1293.9491 4294967295
-10.783486 813.1311 1294.2579 4282601859
-7.1889906 814.04712 1295.0303 4282864775
-4.7926607 814.04712 1295.0303 4282996107
-2.3963304 814.04712 1295.0303 4283325072
0 814.04712 1295.0303 4283195023
23.164526 814.35248 1295.2877 4284974531
26.359632 814.96313 1295.8027 4293132287
47.926605 814.04712 1295.0303 4294967295
50.322937 813.1311 1294.2579 4294967295
52.719265 813.1311 1294.2579 4294967295
7.387156 762.36627 1298.5435 4287209436
9.8495417 762.36627 1298.5435 4288719052
-61.330276 768.84229 1297.4637 4280435834
-58.877064 768.84229 1297.4637 4280960632
-31.891743 768.84229 1297.4637 4286020256
-25.758717 768.84229 1297.4637 4285626005
0 768.84229 1297.4637 4286217623
4.9064221 768.84229 1297.4637 4288059325
-31.772476 775.29034 1296.3604 4281681529
-25.662384 775.29034 1296.3604 4281944958
-21.99633 775.29034 1296.3604 4282668938
-19.552294 775.29034 1296.3604 4283062930
-9.7761469 775.29034 1296.3604 4285102501
-7.3321099 775.29034 1296.3604 4285694639
-4.8880734 775.29034 1296.3604 4285693618
2.4440367 775.29034 1296.3604 4287927737
4.8880734 775.29034 1296.3604 4289703353
-61.100918 777.15887 1297.9358 4281748088
-58.656879 777.15887 1297.9358 4281748086
-34.216515 777.15887 1297.9358 4282404218
-31.772476 777.15887 1297.9358 4282272889
-29.32844 777.15887 1297.9358 4282075515
-25.662384 777.15887 1297.9358 4282142077
-21.99633 777.15887 1297.9358 4281878906
-19.552294 777.15887 1297.9358 4281419388
-17.108257 777.15887 1297.9358 4281945732
-14.66422 777.15887 1297.9358 4281683074
-9.7761469 777.15887 1297.9358 4281354879
-7.3321099 777.15887 1297.9358 4281552001
-4.8880734 777.15887 1297.9358 4281486726
2.4440367 777.15887 1297.9358 4281880452
-60.871559 785.43329 1298.3726 4281681791
-48.697247 785.43329 1298.3726 4282075769
-34.088074 785.43329 1298.3726 4282730617
-31.653212 784.50256 1297.5878 4282730617
-29.218349 785.43329 1298.3726 4282141562
-25.566055 784.50256 1297.5878 4282468987
-21.913761 784.50256 1297.5878 4282534524
-19.478899 784.50256 1297.5878 4282338427
-17.044037 784.50256 1297.5878 4282535807
-14.609175 784.50256 1297.5878 4282339455
-9.7394495 784.50256 1297.5878 4282274430
-7.3045874 784.50256 1297.5878 4282274686
-4.8697248 784.50256 1297.5878 4282471296
-2.4348624 783.57184 1296.803 4282799746
2.4348624 783.57184 1296.803 4282997639
36.522934 785.43329 1298.3726 4294639615
41.392662 785.43329 1298.3726 4294967295
46.262386 783.57184 1296.803 4294967295
48.697247 785.43329 1298.3726 4294967295
52.349541 785.43329 1298.3726 4294967295
-43.629356 794.19525 1297.9122 4282141562
-41.205505 794.19525 1297.9122 4282141562
-37.165752 793.57758 1297.3915 4282075767
-33.933945 793.26868 1297.131 4281944950
-31.510092 792.34216 1296.3497 4282141560
-29.086239 794.19525 1297.9122 4281879676
-25.450459 794.19525 1297.9122 4282076796
-21.814678 794.19525 1297.9122 4282273916
-19.390825 794.19525 1297.9122 4282339457
-16.966972 794.19525 1297.9122 4282339457
-13.331193 794.19525 1297.9122 4282339709
-9.6954126 793.26868 1297.131 4282011513
-7.2715597 792.34216 1296.3497 4282405500
-4.8477063 792.34216 1296.3497 4282340225
-2.4238532 792.34216 1296.3497 4282537603
2.4238532 792.34216 1296.3497 4282997641
33.933945 792.34216 1296.3497 4294967295
37.569725 793.26868 1297.131 4294836223
41.205505 793.26868 1297.131 4294836223
43.629356 794.19525 1297.9122 4294901759
46.053211 793.26868 1297.131 4294967295
49.688992 793.26874 1297.131 4294836223
53.324772 793.26868 1297.131 4294967295
55.748623 793.26868 1297.131 4294967295
-31.390825 800.53528 1296.7178 4282272889
-28.976147 800.53528 1296.7178 4282011005
-25.35413 800.53528 1296.7178 4282076791
-21.732111 800.53528 1296.7178 4282142834
-19.31743 800.53528 1296.7178 4282142330
-16.902752 800.53528 1296.7178 4282142330
-14.488073 800.53528 1296.7178 4282339455
4.8293576 800.53528 1296.7178 4283194514
7.2440367 800.53528 1296.7178 4283326100
28.976147 800.53528 1296.7178 4292011775
31.390825 800.53528 1296.7178 4294705151
33.805504 800.53528 1296.7178 4294967295
37.427521 800.53528 1296.7178 4294901759
41.049541 800.53528 1296.7178 4294901759
43.464222 800.53528 1296.7178 4294639615
45.878899 800.53528 1296.7178 4294967295
48.293579 800.53528 1296.7178 4294967295
-33.805504 802.38135 1298.2743 4282011005
-31.390825 802.38135 1298.2743 4282076798
-28.976147 802.38135 1298.2743 4281879676
-25.35413 802.38135 1298.2743 4282010740
-21.732111 802.38135 1298.2743 4282470511
-19.31743 802.38135 1298.2743 4281747838
-16.902752 802.38135 1298.2743 4282010753
7.2440367 802.38135 1298.2743 4283457688
28.976147 802.38135 1298.2743 4292997375
31.390825 802.38135 1298.2743 4294967295
33.805504 802.38135 1298.2743 4294967295
37.427521 802.38135 1298.2743 4294705151
41.049541 802.38135 1298.2743 4294967295
43.464222 802.38135 1298.2743 4294967295
-16.838531 808.68622 1297.0503 4282536838
-13.230275 808.68622 1297.0503 4282732934
-9.6220188 808.68622 1297.0503 4282601861
2.4055047 808.68622 1297.0503 4283326352
4.8110094 808.68622 1297.0503 4283129237
7.2165136 808.68622 1297.0503 4283392408
9.6220188 808.68622 1297.0503 4283654563
13.230275 808.68622 1297.0503 4284247468
16.838531 808.68622 1297.0503 4284971704
19.244038 808.68622 1297.0503 4284446391
31.271559 808.68622 1297.0503 4294967295
33.677063 808.68622 1297.0503 4294639615
37.285324 808.68622 1297.0503 4294901759
40.893578 808.68622 1297.0503 4294967295
43.299084 808.68622 1297.0503 4294901759
45.704586 808.68622 1297.0503 4294967295
-21.649542 810.52527 1298.601 4282404218
-19.244038 810.52527 1298.601 4282469758
-16.838531 810.52527 1298.601 4282535807
-14.433027 810.52527 1298.601 4282536066
2.4055047 810.52527 1298.601 4283195536
4.8110094 810.52527 1298.601 4283064727
7.2165136 810.52527 1298.601 4283393692
9.6220188 810.52527 1298.601 4283392929
13.230275 810.52527 1298.601 4283919529
16.838531 810.52527 1298.601 4284775095
19.244038 810.52527 1298.601 4284052923
21.649542 810.52527 1298.601 4283065772
26.46055 810.52527 1298.601 4292739071
28.866055 810.52527 1298.601 4294705151
31.271559 810.52527 1298.601 4294705151
33.677063 810.52527 1298.601 4294836223
37.285324 810.52527 1298.601 4294770687
40.893578 810.52527 1298.601 4294770687
43.299084 810.52527 1298.601 4294574079
45.704586 810.52527 1298.601 4294836223
-7.1889906 818.62714 1298.8921 4283325320
-4.7926607 817.71118 1298.1198 4283128458
-2.3963304 817.71118 1298.1198 4283194251
0 817.71118 1298.1198 4283128973
19.170643 816.79517 1297.3474 4283460282
22.365747 818.01654 1298.3772 4286223586
26.359632 817.71118 1298.1198 4294246399
28.755962 817.71118 1298.1198 4294967295
47.926605 817.71118 1298.1198 4294967295
50.322937 817.71118 1298.1198 4294967295
23.871559 823.03699 1296.0702 4291353343
26.258715 823.03699 1296.0702 4294246399
-116.1633 757.75165 1301.1926 4281352562
-112.45596 757.75165 1301.1926 4281484146
-66.484406 764.24878 1300.1307 4280167257
-61.559631 764.24878 1300.1307 4280630888
-32.011009 764.24878 1300.1307 4285429134
-28.317432 764.24878 1300.1307 4285559691
-2.4623854 764.24878 1300.1307 4284246437
1.2311927 764.24878 1300.1307 4283655832
-105.88257 766.13135 1301.718 4282076539
-103.42018 766.13135 1301.718 4282339455
-66.484406 766.13135 1301.718 4279641694
-64.022018 766.13135 1301.718 4278988388
-56.634861 766.13135 1301.718 4282539920
-29.548624 766.13135 1301.718 4285560720
2.4623854 766.13135 1301.718 4286612125
-31.891743 770.71783 1299.0452 4281681529
-29.438532 770.71783 1299.0452 4281813365
-25.758717 770.71783 1299.0452 4282011258
-22.078899 770.71783 1299.0452 4282669703
-4.9064221 770.71783 1299.0452 4285825716
2.4532111 770.71783 1299.0452 4288648643
-66.236694 772.59332 1300.6265 4281682297
-63.783485 772.59332 1300.6265 4281485431
-61.330276 772.59332 1300.6265 4281551225
-58.877064 772.59332 1300.6265 4281551479
-56.423855 772.59332 1300.6265 4281551479
-36.798164 772.59332 1300.6265 4281485431
-34.344955 772.59332 1300.6265 4281681529
-29.438532 772.59332 1300.6265 4281681529
-17.172478 772.59332 1300.6265 4283457688
-14.719266 772.59332 1300.6265 4284049055
-63.544952 779.02734 1299.5114 4281748090
-61.100918 779.02734 1299.5114 4281748090
-58.656879 779.02734 1299.5114 4281813365
-36.660549 779.02734 1299.5114 4282208637
-34.216515 779.02734 1299.5114 4282272637
-29.32844 779.02734 1299.5114 4282206844
-26.884403 779.02734 1299.5114 4282272637
-17.108257 779.02734 1299.5114 4282141308
-13.442202 779.02734 1299.5114 4281682295
2.4440367 779.02734 1299.5114 4281749373
-64.766968 780.89581 1301.0868 4281944444
-61.100918 780.89581 1301.0868 4281682043
-58.656879 780.89581 1301.0868 4281682285
-56.212845 780.89581 1301.0868 4281813614
-48.880733 780.89581 1301.0868 4282141814
-36.660549 780.89581 1301.0868 4282207607
-34.216515 780.89581 1301.0868 4282730617
-29.32844 780.89581 1301.0868 4282730619
-12.220183 780.89581 1301.0868 4282405248
-48.697247 787.2948 1299.942 4281944184
-46.262386 787.2948 1299.942 4281944184
-43.827522 787.2948 1299.942 4281879674
-41.392662 787.2948 1299.942 4281879674
-37.740364 787.2948 1299.942 4282141814
-34.088074 787.2948 1299.942 4282796664
-29.218349 787.2948 1299.942 4282862460
-25.566055 787.2948 1299.942 4282468731
-21.913761 787.2948 1299.942 4282272637
-19.478899 787.2948 1299.942 4282403968
-17.044037 787.2948 1299.942 4282469762
-13.391743 787.2948 1299.942 4282273916
-9.7394495 787.2948 1299.942 4282142584
-7.3045874 787.2948 1299.942 4282339707
41.392662 787.2948 1299.942 4294967295
43.827522 787.2948 1299.942 4294770687
46.262386 787.2948 1299.942 4294967295
48.697247 787.2948 1299.942 4294901759
-90.089905 789.15625 1301.5116 4282732418
-87.655045 789.15625 1301.5116 4282339455
-85.220184 789.15625 1301.5116 4282273662
-48.697247 789.15625 1301.5116 4281944186
-46.262386 789.15625 1301.5116 4281944186
-43.827522 789.15625 1301.5116 4281879674
-41.392662 789.15625 1301.5116 4281813881
-38.957798 789.15625 1301.5116 4281944438
-29.218349 789.15625 1301.5116 4282206842
-25.566055 789.15625 1301.5116 4282338171
-21.913761 789.15625 1301.5116 4282403964
-19.478899 789.15625 1301.5116 4282273412
-17.044037 789.15625 1301.5116 4282273412
-13.391743 789.15625 1301.5116 4282142334
43.827522 789.15625 1301.5116 4294967295
-87.258713 796.04828 1299.4746 4282536066
-84.834862 796.04828 1299.4746 4282338944
-43.629356 796.97485 1300.2559 4282207351
-41.205505 796.97485 1300.2559 4282338938
-37.569725 796.97485 1300.2559 4282272887
-33.933945 796.97485 1300.2559 4282338424
-24.238533 796.04828 1299.4746 4282076537
-21.814678 796.04828 1299.4746 4282076537
-19.390825 796.04828 1299.4746 4282142330
-16.966972 796.04828 1299.4746 4282273916
37.569725 796.04828 1299.4746 4294770687
41.205505 796.04828 1299.4746 4294639615
43.629356 796.04828 1299.4746 4294836223
46.053211 796.04828 1299.4746 4294967295
48.477066 796.04828 1299.4746 4294967295
-33.805504 804.22736 1299.8308 4282011005
-31.390825 804.22736 1299.8308 4282011005
-28.976147 805.15039 1300.6091 4282011011
-25.35413 805.15033 1300.6091 4281879677
-21.732111 805.15039 1300.6091 4281879674
-19.31743 805.15039 1300.6091 4281813628
-16.902752 804.22736 1299.8308 4282011776
-19.244038 812.36426 1300.1516 4282272889
-16.838531 812.36426 1300.1516 4282535805
-13.230275 812.36426 1300.1516 4282339457
-9.6220188 812.36426 1300.1516 4282601859
2.4055047 812.36426 1300.1516 4283194766
4.8110094 812.36426 1300.1516 4283195034
9.6220188 812.36426 1300.1516 4283721891
13.230275 812.36426 1300.1516 4283985320
16.838531 812.36426 1300.1516 4284512177
19.244038 812.36426 1300.1516 4283854526
28.866055 812.36426 1300.1516 4294967295
31.271559 812.36426 1300.1516 4294967295
33.677063 812.36426 1300.1516 4294967295
37.285324 812.36426 1300.1516 4294967295
40.893578 812.36426 1300.1516 4294967295
43.299084 812.36426 1300.1516 4294574079
45.704586 812.36426 1300.1516 4294967295
-13.230275 814.20331 1301.7021 4282864002
-9.6220188 814.20331 1301.7021 4282733188
-7.2165136 814.20331 1301.7021 4283127946
2.4055047 814.20331 1301.7021 4283326352
4.8110094 814.20331 1301.7021 4283129241
7.2165136 814.20331 1301.7021 4283721378
13.230275 814.20331 1301.7021 4284446642
16.838531 814.20331 1301.7021 4284053425
31.271559 814.20331 1301.7021 4294836223
33.677063 814.20331 1301.7021 4294508543
37.285324 814.20331 1301.7021 4294639615
40.893578 814.20331 1301.7021 4294705151
43.299084 814.20331 1301.7021 4294508543
45.704586 814.20331 1301.7021 4294836223
21.566973 820.45917 1300.4368 4288199167
31.152294 820.45917 1300.4368 4294443007
35.944954 820.45917 1300.4368 4294508543
26.359632 822.2912 1301.9814 4294639615
28.755962 822.2912 1301.9814 4294639615
-116.1633 760.58594 1303.5825 4281549944
-112.45596 760.58594 1303.5825 4281353841
-108.74863 760.58594 1303.5825 4281615993
-106.27706 760.58594 1303.5825 4281550200
-103.8055 761.5307 1304.379 4281682045
-74.14679 761.5307 1304.379 4283652475
-70.439453 761.5307 1304.379 4282995323
-64.260551 761.5307 1304.379 4279249235
-54.374313 761.5307 1304.379 4281093991
-32.130276 759.64117 1302.7859 4283127924
14.829358 759.64117 1302.7859 4289704134
17.300917 759.64117 1302.7859 4289769927
19.772476 759.64117 1302.7859 4289835986
22.244038 759.64117 1302.7859 4290691039
24.715597 760.58594 1303.5825 4288588761
-108.34496 769.89636 1304.8926 4282339455
-105.88257 768.95508 1304.0989 4282142591
-103.42018 768.95508 1304.0989 4282142847
-100.9578 768.95508 1304.0989 4282142847
-71.409172 769.89636 1304.8926 4282402670
-67.715599 768.95508 1304.0989 4281747576
-64.022018 768.01379 1303.3053 4281813610
-61.559631 768.01379 1303.3053 4281879660
-59.097248 768.01379 1303.3053 4281748088
-54.993275 768.6413 1303.8344 4282011003
-49.247707 769.89636 1304.8926 4281485431
-39.398167 768.95508 1304.0989 4281617015
-36.93578 768.01379 1303.3053 4281682293
-34.473396 768.01379 1303.3053 4281484150
-19.699083 768.01379 1303.3053 4283063434
-17.236698 768.01379 1303.3053 4283392399
-12.311927 769.89636 1304.8926 4284904364
-9.8495417 768.01379 1303.3053 4285234601
-7.387156 768.01379 1303.3053 4285431980
-66.236694 775.40662 1302.9985 4281813883
-63.783485 774.46881 1302.2079 4281879674
-56.423855 775.40662 1302.9985 4281682036
-53.970642 775.40662 1302.9985 4281748087
-49.06422 775.40662 1302.9985 4281683065
-39.251377 776.34436 1303.7893 4281748086
-36.798164 774.46881 1302.2079 4282142844
-12.266055 774.46881 1302.2079 4281551488
-64.766968 782.76428 1302.6622 4281944442
-58.656879 782.76428 1302.6622 4281550443
-56.212845 782.76428 1302.6622 4281682285
-52.546791 782.76428 1302.6622 4282075767
-46.436699 782.76428 1302.6622 4282075769
-43.992661 782.76428 1302.6622 4281879676
-39.104588 782.76428 1302.6622 4282206842
-36.660549 782.76428 1302.6622 4282272635
-12.220183 782.76428 1302.6622 4282339455
43.992661 782.76428 1302.6622 4294967295
46.436699 782.76428 1302.6622 4294967295
-90.429359 784.63281 1304.2377 4282339455
-87.985321 784.63281 1304.2377 4282536318
-85.541283 784.63281 1304.2377 4282339196
-64.766968 784.63281 1304.2377 4281682295
-61.100918 784.63281 1304.2377 4281813883
-58.656879 784.63281 1304.2377 4282205547
-56.212845 784.63281 1304.2377 4282205547
-52.546791 784.63281 1304.2377 4281813113
-90.089905 791.0177 1303.0812 4282732418
-87.655045 791.0177 1303.0812 4282404737
-85.220184 791.0177 1303.0812 4282338944
-51.132111 791.0177 1303.0812 4281748592
-48.697247 791.0177 1303.0812 4281944438
-46.262386 791.0177 1303.0812 4282075767
-91.307343 792.87921 1304.6508 4282732418
-77.915596 792.87921 1304.6508 4282469758
-51.132111 792.87921 1304.6508 4281945701
-48.697247 792.87921 1304.6508 4282142064
-46.262386 792.87921 1304.6508 4282076271
-37.569725 799.75439 1302.5996 4282207096
-37.569725 801.60742 1304.162 4282272889
-28.976147 807.91943 1302.9438 4281354879
-25.35413 808.84247 1303.7222 4282011006
-21.732111 809.7655 1304.5005 4282142334
7.2440367 809.7655 1304.5005 4283721378
-13.230276 816.96185 1304.0281 4282996610
-9.6220188 816.96185 1304.0281 4283127943
-7.2165136 817.88135 1304.8035 4283325066
-4.8110094 817.88135 1304.8035 4283390859
-2.4055047 817.88135 1304.8035 4283588495
1.2027524 816.96185 1304.0281 4283589522
4.8110094 816.04236 1303.2528 4283392156
7.2165136 816.04236 1303.2528 4283523999
13.230275 816.04236 1303.2528 4285234870
16.838531 816.04236 1303.2528 4284709038
19.244038 816.96185 1304.0281 4282935734
31.271559 816.04236 1303.2528 4294705151
33.677063 816.96185 1304.0281 4294049279
37.686241 816.65533 1303.7697 4294770687
40.893578 816.96185 1304.0281 4294770687
43.299084 816.96185 1304.0281 4294574079
45.704586 816.96185 1304.0281 4294836223
-104.26789 756.37109 1307.8767 4281090424
-74.477066 756.37109 1307.8767 4283718518
-70.753212 756.37109 1307.8767 4285626777
-67.029358 756.37109 1307.8767 4285100951
-62.06422 756.37109 1307.8767 4285560720
-59.58165 756.37109 1307.8767 4285494916
-29.790825 756.37109 1307.8767 4283455097
0 756.37109 1307.8767 4284050341
4.9651375 756.37109 1307.8767 4283788200
12.412844 756.37109 1307.8767 4288850381
-118.63486 763.42023 1305.9723 4282733459
-112.45596 763.42023 1305.9723 4282142332
-108.74863 763.42023 1305.9723 4282142332
-101.33395 763.42023 1305.9723 4282339455
-97.626602 763.42023 1305.9723 4282339455
-74.14679 763.42023 1305.9723 4283191672
-70.439453 763.42023 1305.9723 4282337657
-54.374313 763.42023 1305.9723 4283064188
-39.544952 763.42023 1305.9723 4285101970
-37.073395 763.42023 1305.9723 4285365142
-34.601833 763.42023 1305.9723 4285888670
-22.244038 763.42023 1305.9723 4285888670
-4.943119 763.42023 1305.9723 4284575653
-2.4715595 763.42023 1305.9723 4284707240
-112.45596 765.30975 1307.5654 4282207869
-108.74863 765.30975 1307.5654 4281945982
-97.626602 765.30975 1307.5654 4282273662
-93.919266 765.30975 1307.5654 4282469508
-91.447708 765.30975 1307.5654 4282403714
-88.976151 765.30975 1307.5654 4282142330
-86.504585 765.30975 1307.5654 4282142330
-76.618347 765.30975 1307.5654 4282075769
-74.14679 765.30975 1307.5654 4282336876
-70.439453 765.30975 1307.5654 4282272117
-49.431194 765.30975 1307.5654 4282732416
-43.252296 765.30975 1307.5654 4282535037
-13.593578 765.30975 1307.5654 4284313763
-105.88257 771.77887 1306.4799 4282339455
-103.42018 771.77887 1306.4799 4282273916
-100.9578 771.77887 1306.4799 4282339709
-71.409172 771.77887 1306.4799 4281879926
-68.946793 771.77887 1306.4799 4281879676
-51.710091 771.77887 1306.4799 4281748088
-46.78532 771.77887 1306.4799 4281486199
-44.322937 771.77887 1306.4799 4281683580
-40.629356 771.77887 1306.4799 4281748858
-90.768806 778.21985 1305.3706 4282143357
-68.689911 778.21985 1305.3706 4282272637
-52.744034 778.21985 1305.3706 4282207607
-46.611008 778.21985 1305.3706 4281944436
-44.157799 778.21985 1305.3706 4281879676
-39.251377 778.21985 1305.3706 4282141814
-103.03486 780.09534 1306.952 4282339455
-93.222015 780.09534 1306.952 4282274163
-90.768806 780.09534 1306.952 4282274163
-88.315598 780.09534 1306.952 4282339707
-85.862389 780.09534 1306.952 4282142584
-71.14312 780.09534 1306.952 4282404216
-68.689911 780.09534 1306.952 4282272887
-41.704586 780.09534 1306.952 4281879676
-92.873398 787.43555 1306.6008 4282732418
-83.097244 788.36975 1307.3887 4282142332
-79.023857 787.74689 1306.8634 4282272893
-75.765137 788.36975 1307.3887 4282272637
-73.321098 788.36975 1307.3887 4282796412
-64.766968 787.43555 1306.6008 4282141554
-61.100918 787.43555 1306.6008 4282010486
-58.656879 787.43555 1306.6008 4282010483
-56.212845 787.43555 1306.6008 4282076019
-52.954132 787.12408 1306.3383 4282075768
-94.959633 794.74066 1306.2202 4282798711
-91.307343 794.74066 1306.2202 4282666369
-87.655045 794.74066 1306.2202 4282535814
-85.220184 794.74066 1306.2202 4282535814
-77.915596 794.74066 1306.2202 4282666623
-51.132111 794.74066 1306.2202 4282011759
-48.697247 794.74066 1306.2202 4282272887
-46.262386 794.74066 1306.2202 4282207094
-91.307343 796.60217 1307.7898 4282732418
-87.655045 796.60217 1307.7898 4282863754
-85.220184 796.60217 1307.7898 4282731912
-46.262386 796.60217 1307.7898 4282272635
-43.827522 796.60217 1307.7898 4282141308
-41.392662 796.60217 1307.7898 4282207357
-36.3578 803.46051 1305.7245 4282142584
-33.933945 803.46051 1305.7245 4282011005
-31.510092 803.46051 1305.7245 4282011005
-33.933945 805.3136 1307.2869 4281683578
-31.510092 805.3136 1307.2869 4281617785
-24.14679 811.61151 1306.057 4282732414
-21.732111 811.61151 1306.057 4282732414
-19.31743 811.61151 1306.057 4282470259
-16.902752 811.61151 1306.057 4282602102
9.6587152 811.61151 1306.057 4283721891
-24.14679 813.45758 1307.6135 4282536318
-21.732111 813.45758 1307.6135 4282404989
-19.31743 813.45758 1307.6135 4282536559
-16.902752 813.45758 1307.6135 4282733938
9.6587152 813.45758 1307.6135 4283852961
-24.055046 819.7204 1306.354 4282996356
-21.649542 820.63989 1307.1294 4282930563
-19.244038 820.63989 1307.1294 4282931079
-16.838531 820.63989 1307.1294 4283194507
-12.829358 820.94647 1307.3878 4283194766
-9.6220188 820.63989 1307.1294 4283260561
-7.2165136 821.55945 1307.9047 4283523987
-4.8110094 821.55945 1307.9047 4283721110
-2.4055047 820.63989 1307.1294 4283852181
0 820.63989 1307.1294 4283721110
21.649542 819.7204 1306.354 4289517055
25.257797 820.63989 1307.1294 4293917183
28.866055 821.55945 1307.9047 4294639615
31.271559 820.63989 1307.1294 4294705151
33.677063 820.63989 1307.1294 4294246399
37.285324 820.63995 1307.1294 4294443007
40.893578 820.63989 1307.1294 4294639615
43.299084 820.63989 1307.1294 4294639615
45.704586 820.63989 1307.1294 4294770687
-100.54404 758.26904 1309.4771 4281747834
-96.820183 758.26904 1309.4771 4282011257
-89.372475 758.26904 1309.4771 4281813629
-86.889908 758.26904 1309.4771 4282340229
-42.203671 758.26904 1309.4771 4284116115
-39.7211 758.26904 1309.4771 4284641165
-37.238533 758.26904 1309.4771 4285101716
-34.755962 758.26904 1309.4771 4285560720
-24.825687 758.26904 1309.4771 4285625480
-118.63486 767.19928 1309.1587 4282601861
-116.1633 767.19928 1309.1587 4282404739
-112.45596 767.19928 1309.1587 4282207617
-97.626602 767.19928 1309.1587 4282273662
-93.919266 767.19928 1309.1587 4282142080
-91.447708 767.19928 1309.1587 4282142080
-88.976151 767.19928 1309.1587 4281879674
-86.504585 767.19928 1309.1587 4282011259
-76.618347 767.19928 1309.1587 4281944186
-74.14679 767.19928 1309.1587 4282336876
-51.902752 767.19928 1309.1587 4281748090
-46.959633 767.19928 1309.1587 4281551225
-43.252296 767.19928 1309.1587 4281551479
-118.63486 769.08881 1310.7518 4282536068
-116.1633 769.08881 1310.7518 4282536068
-112.45596 769.08881 1310.7518 4282404737
-108.74863 769.08881 1310.7518 4282339455
-97.626602 769.08881 1310.7518 4282142332
-93.919266 769.08881 1310.7518 4282339455
-91.447708 769.08881 1310.7518 4282273662
-88.976151 769.08881 1310.7518 4282142330
-86.504585 769.08881 1310.7518 4282142330
-79.089905 769.08881 1310.7518 4282142334
-76.618347 769.08881 1310.7518 4282076285
-74.14679 769.08881 1310.7518 4281879926
-123.11926 773.66138 1308.0671 4282536066
-120.65688 773.66138 1308.0671 4282404737
-115.73211 773.66138 1308.0671 4282404739
-113.26972 773.66138 1308.0671 4282536066
-108.34496 773.66138 1308.0671 4282536320
-105.88257 773.66138 1308.0671 4282404735
-103.42018 773.66138 1308.0671 4282470259
-100.9578 773.66138 1308.0671 4282536309
-98.495415 773.66138 1308.0671 4282404989
-93.570641 773.66138 1308.0671 4282339455
-91.108253 773.66138 1308.0671 4282273662
-88.645874 773.66138 1308.0671 4282142334
-86.183487 773.66138 1308.0671 4282142334
-76.333946 773.66138 1308.0671 4282076285
-73.871559 773.66138 1308.0671 4282142334
-71.409172 773.66138 1308.0671 4282076285
-68.946793 773.66138 1308.0671 4281879676
-51.710091 773.66138 1308.0671 4281879928
-46.78532 773.66138 1308.0671 4281682295
-44.322937 773.66138 1308.0671 4281617787
-41.86055 773.66138 1308.0671 4281683580
-123.11926 775.54388 1309.6545 4282471556
-108.34496 775.54388 1309.6545 4282536066
-105.88257 775.54388 1309.6545 4282536066
-103.42018 775.54388 1309.6545 4282732666
-100.9578 775.54388 1309.6545 4282798459
-97.264221 775.54388 1309.6545 4282470780
-93.570641 775.54388 1309.6545 4282143357
-88.645874 775.54388 1309.6545 4282012028
-86.183487 775.54388 1309.6545 4281946234
-78.796333 775.54388 1309.6545 4281749373
-76.333946 775.54388 1309.6545 4281880702
-73.871559 775.54388 1309.6545 4282403964
-71.409172 775.54388 1309.6545 4282469758
-41.86055 775.54388 1309.6545 4281879676
-94.448624 781.97083 1308.5333 4282339454
-117.75413 783.84631 1310.1147 4282798211
-105.48808 783.84631 1310.1147 4282667906
-103.03486 783.84631 1310.1147 4282668158
-100.58165 783.84631 1310.1147 4282602365
-98.128441 783.84631 1310.1147 4282732414
-95.675232 783.84631 1310.1147 4282732414
-83.409172 783.84631 1310.1147 4282011005
-80.955963 783.84631 1310.1147 4282076798
-76.049538 783.84631 1310.1147 4282206844
-73.596329 783.84631 1310.1147 4282730619
-71.14312 783.84631 1310.1147 4282664826
-68.689911 783.84631 1310.1147 4281813610
-95.317429 790.23828 1308.9641 4282798461
-83.097244 790.23828 1308.9641 4282666623
-80.653214 790.23828 1308.9641 4282798209
-75.765137 790.23828 1308.9641 4282272635
-73.321098 790.23828 1308.9641 4282272637
-70.877068 790.23828 1308.9641 4282403966
-68.433029 790.23828 1308.9641 4282404216
-64.766968 790.23828 1308.9641 4282272884
-61.100918 790.23828 1308.9641 4282207344
-58.656879 790.23828 1308.9641 4282142064
-56.212845 790.23828 1308.9641 4282076271
-53.768806 790.23828 1308.9641 4281879908
-100.20551 792.10675 1310.5396 4282471810
-97.761467 792.10675 1310.5396 4282798711
-83.097244 792.10675 1310.5396 4282339457
-80.653214 792.10675 1310.5396 4282339457
-75.765137 792.10675 1310.5396 4282469500
-73.321098 792.10675 1310.5396 4282403964
-70.877068 792.10675 1310.5396 4282403964
-68.433029 792.10675 1310.5396 4282403964
-64.766968 792.10675 1310.5396 4282338425
-61.100918 792.10675 1310.5396 4282272887
-58.656879 792.10675 1310.5396 4281879926
-56.212845 792.10675 1310.5396 4281879926
-53.768806 792.10675 1310.5396 4282011759
-92.524773 798.46362 1309.3594 4282798211
-43.827522 799.39435 1310.144 4282141313
-41.392662 799.39435 1310.144 4282075521
-38.957798 800.32507 1310.9288 4282076791
-33.933945 807.16663 1308.8494 4282272887
-31.510092 807.16663 1308.8494 4282207094
-29.086239 808.09314 1309.6306 4282207613
-26.662386 809.01965 1310.4117 4282469758
-24.14679 815.30359 1309.17 4282667904
-21.732111 815.30359 1309.17 4282667904
-19.31743 815.30359 1309.17 4282668156
-16.902752 815.30359 1309.17 4282799742
2.4146788 815.30359 1309.17 4283721108
4.8293576 815.30359 1309.17 4283785886
7.2440367 815.30359 1309.17 4283785886
9.6587152 815.30359 1309.17 4284115104
13.280734 815.30359 1309.17 4285299895
16.902752 815.30359 1309.17 4284773809
-14.488073 817.14966 1310.7266 4282997387
-7.2440367 817.14966 1310.7266 4283260307
-4.8293576 817.14966 1310.7266 4283785871
2.4146788 817.14966 1310.7266 4283655316
4.8293576 817.14966 1310.7266 4283785888
7.2440367 817.14966 1310.7266 4284180646
9.6587152 817.14966 1310.7266 4283852709
13.280734 817.14966 1310.7266 4284380082
16.902752 817.14966 1310.7266 4284315829
19.31743 817.14966 1310.7266 4283003572
-13.230275 823.39844 1309.4553 4283523728
-9.6220188 823.39844 1309.4553 4283458451
-7.2165136 823.39844 1309.4553 4283458451
-4.8110094 823.39844 1309.4553 4283655835
28.866055 823.39844 1309.4553 4294967295
33.677063 823.39844 1309.4553 4294574079
37.285324 823.39844 1309.4553 4294508543
40.893578 823.39844 1309.4553 4294443007
43.299084 823.39844 1309.4553 4294705151
45.704586 823.39844 1309.4553 4294967295
-94.686241 755.5509 1313.7253 4282142082
-92.194496 755.5509 1313.7253 4282010240
-82.227524 755.5509 1313.7253 4282471556
-52.326607 755.5509 1313.7253 4281817715
-22.425688 755.5509 1313.7253 4285559687
-9.9669724 755.5509 1313.7253 4285296519
-7.4752293 755.5509 1313.7253 4285099140
-94.337616 760.16699 1311.0774 4282535814
-91.855049 760.16699 1311.0774 4282338692
-89.372475 760.16699 1311.0774 4282142334
-85.648621 760.16699 1311.0774 4282799241
-79.4422 760.16699 1311.0774 4282732414
-76.959633 760.16699 1311.0774 4282732414
-52.133945 760.16699 1311.0774 4283853448
-49.651375 760.16699 1311.0774 4283721360
-47.168808 760.16699 1311.0774 4283984788
-43.444954 760.16699 1311.0774 4284313753
-17.377981 760.16699 1311.0774 4285824921
-14.895412 760.16699 1311.0774 4285825175
-9.930275 760.16699 1311.0774 4285561504
-7.4477062 760.16699 1311.0774 4284706195
-116.68073 762.06494 1312.6776 4282208391
-84.407341 762.06494 1312.6776 4282010240
-81.924774 762.06494 1312.6776 4282010240
-79.4422 762.06494 1312.6776 4281944184
-52.133945 762.06494 1312.6776 4282536318
-47.168808 762.06494 1312.6776 4282732416
-126.04954 770.97833 1312.3451 4282340229
-118.63486 770.97833 1312.3451 4282404739
-111.22018 770.97833 1312.3451 4282536066
-96.390823 770.97833 1312.3451 4282404989
-81.56147 770.97833 1312.3451 4282142334
-79.089905 770.97833 1312.3451 4282076285
-130.99266 772.86786 1313.9382 4282209670
-127.28532 772.86786 1313.9382 4282143877
-121.10642 772.86786 1313.9382 4282340227
-118.63486 772.86786 1313.9382 4282143361
-116.1633 772.86786 1313.9382 4282209154
-112.45596 772.86786 1313.9382 4282536066
-84.033028 772.86786 1313.9382 4281749371
-81.56147 772.86786 1313.9382 4281749371
-123.11926 778.36768 1312.0354 4282732931
-120.65688 778.36768 1312.0354 4282732675
-115.73211 779.3089 1312.8291 4282798211
-108.34496 778.36768 1312.0354 4282601089
-105.88257 778.36768 1312.0354 4282535553
-103.42018 779.3089 1312.8291 4282732414
-100.9578 778.36768 1312.0354 4282536063
-97.674622 778.05389 1311.7709 4282470525
-82.079506 778.6814 1312.2999 4282338935
-78.796333 778.36768 1312.0354 4282273403
-76.333946 778.36768 1312.0354 4282273146
-73.871559 778.36768 1312.0354 4282338424
-71.409172 779.3089 1312.8291 4282272889
-68.946793 779.3089 1312.8291 4281748086
-117.75413 785.7218 1311.6962 4282864004
-100.58165 785.7218 1311.6962 4282471808
-98.128441 785.7218 1311.6962 4282732414
-95.675232 785.7218 1311.6962 4282798463
-71.14312 785.7218 1311.6962 4282796412
-68.689911 785.7218 1311.6962 4282796914
-100.58165 787.59735 1313.2775 4282471810
-98.128441 787.59735 1313.2775 4282798461
-100.20551 793.97522 1312.115 4282536320
-97.761467 793.97522 1312.115 4282536559
-95.317429 793.97522 1312.115 4282536559
-83.097244 793.97522 1312.115 4282273412
-79.431198 793.97522 1312.115 4282339202
-75.765137 793.97522 1312.115 4282273662
-73.321098 793.97522 1312.115 4282273662
-70.877068 793.97522 1312.115 4282405248
-68.433029 793.97522 1312.115 4282732416
-64.766968 793.97522 1312.115 4282403962
-61.100918 793.97522 1312.115 4282272887
-58.656879 793.97522 1312.115 4281813883
-56.212845 793.97522 1312.115 4281879676
-52.546791 793.97522 1312.115 4282142064
-48.880733 793.97522 1312.115 4282206842
-97.761467 795.84375 1313.6904 4282798459
-95.317429 795.84375 1313.6904 4282798459
-90.429359 795.84375 1313.6904 4282798211
-87.985321 795.84375 1313.6904 4282667143
-85.541283 795.84375 1313.6904 4282601350
-79.431198 795.84375 1313.6904 4282207869
-75.765137 795.84375 1313.6904 4282076537
-73.321098 795.84375 1313.6904 4282142332
-63.544952 795.84375 1313.6904 4282273139
-61.100918 795.84375 1313.6904 4282273139
-51.324772 795.84375 1313.6904 4282141810
-48.880733 795.84375 1313.6904 4282272889
-46.436699 795.84375 1313.6904 4282272889
-37.740364 802.18652 1312.4984 4281880430
-29.086239 811.79932 1312.7554 4282732670
-26.662386 811.79932 1312.7554 4282732670
2.4146788 818.99573 1312.2831 4283918489
4.8293576 818.99573 1312.2831 4283918493
7.2440367 818.99573 1312.2831 4283984286
13.280734 818.99573 1312.2831 4283985063
19.31743 818.99573 1312.2831 4281955490
21.732111 818.99573 1312.2831 4291100415
24.14679 818.99573 1312.2831 4294246399
-2.4146788 820.84174 1313.8396 4283590042
0 820.84174 1313.8396 4283918752
21.732111 820.84174 1313.8396 4292279039
25.35413 820.84174 1313.8396 4294967295
31.390825 820.84174 1313.8396 4294967295
28.866055 826.15698 1311.7812 4294377471
31.271559 826.15698 1311.7812 4294705151
33.677063 826.15698 1311.7812 4294311935
37.285324 826.15698 1311.7812 4294639615
40.893578 826.15698 1311.7812 4294770687
43.299084 825.23749 1311.006 4294770687
-82.227524 757.45593 1315.3315 4282732936
-12.458715 757.45593 1315.3315 4286351519
-84.407341 763.96289 1314.278 4282403968
-81.924774 763.96289 1314.278 4282272383
-79.4422 763.96289 1314.278 4282141308
-84.407341 765.86084 1315.8783 4282273662
-81.924774 765.86084 1315.8783 4282142332
-127.28532 774.75739 1315.5315 4282340229
-118.63486 774.75739 1315.5315 4282339457
-116.1633 774.75739 1315.5315 4282405250
-112.45596 774.75739 1315.5315 4282536066
-84.033028 774.75739 1315.5315 4282011507
-123.11926 781.19141 1314.4164 4282930049
-120.65688 781.19141 1314.4164 4282995842
-108.34496 781.19141 1314.4164 4282667906
-123.11926 783.07397 1316.0037 4283191172
-120.65688 783.07397 1316.0037 4283191172
-105.88257 783.07397 1316.0037 4282537603
-103.42018 783.07397 1316.0037 4282340479
-105.48808 791.34833 1316.4402 4282208889
-91.651382 797.71222 1315.2659 4282470275
-85.541283 797.71222 1315.2659 4282404739
-75.765137 797.71222 1315.2659 4282142584
-51.324772 797.71222 1315.2659 4282141810
-46.436699 797.71222 1315.2659 4282272635
-91.651382 799.58069 1316.8413 4283128196
-85.541283 799.58069 1316.8413 4282800260
-52.546791 799.58069 1316.8413 4282141810
-46.436699 799.58069 1316.8413 4282207094
-43.992661 799.58069 1316.8413 4281813629
-41.548622 799.58069 1316.8413 4281682043
-36.522934 804.04803 1314.068 4281945703
-34.088074 805.90955 1315.6376 4282535803
-31.653212 805.90955 1315.6376 4282535803
-26.662386 814.57886 1315.0991 4283127424
-26.662386 816.43188 1316.6616 4283193219
9.6954126 816.43188 1316.6616 4284246437
16.966972 816.43188 1316.6616 4283197346
-4.8293576 824.53381 1316.9528 4284182944
-2.4146788 823.61078 1316.1746 4284182687
1.2073394 823.61078 1316.1746 4284051867
21.732111 823.61078 1316.1746 4294901759
25.35413 823.61072 1316.1746 4294770431
31.271559 828.91553 1314.1072 4294770687
-130.33487 767.75873 1317.4785 4282274435
-84.407341 767.75873 1317.4785 4282142334
-127.28532 776.64697 1317.1246 4282667654
-118.63486 776.64697 1317.1246 4282798211
-112.45596 776.64697 1317.1246 4282798211
-127.28532 778.5365 1318.7179 4282864006
-116.1633 778.5365 1318.7179 4282798211
-112.45596 778.5365 1318.7179 4282864006
-123.11926 784.95642 1317.5909 4282864006
-120.65688 784.95642 1317.5909 4282864006
-118.1945 784.95642 1317.5909 4282733188
-103.42018 784.95642 1317.5909 4282340225
-120.65688 786.83899 1319.1782 4282471558
-118.1945 786.83899 1319.1782 4282667654
-105.88257 786.83899 1319.1782 4282078334
-103.42018 786.83899 1319.1782 4282340225
-105.48808 793.22382 1318.0216 4282667391
-103.03486 793.22382 1318.0216 4282864517
-100.58165 793.22382 1318.0216 4282733188
-83.409172 793.22382 1318.0216 4282273664
-71.14312 793.22382 1318.0216 4282273662
-67.463303 793.22382 1318.0216 4282404219
-58.877064 793.22382 1318.0216 4281944438
-56.423855 793.22382 1318.0216 4282075767
-53.970642 793.22382 1318.0216 4282076017
-98.128441 795.0993 1319.603 4282930049
-95.675232 795.0993 1319.603 4282995842
-88.315598 795.0993 1319.603 4282667654
-83.409172 795.0993 1319.603 4282142080
-79.729355 795.0993 1319.603 4282207869
-73.596329 795.0993 1319.603 4282273916
-71.14312 795.0993 1319.603 4282273916
-67.463303 795.0993 1319.603 4282272887
-63.783485 795.0993 1319.603 4282076269
-61.330276 795.0993 1319.603 4282076269
-58.877064 795.0993 1319.603 4282075767
-56.423855 795.0993 1319.603 4281944438
-53.970642 795.0993 1319.603 4281944688
-49.06422 795.0993 1319.603 4282206842
-61.100918 803.31769 1319.9923 4282798461
-58.656879 803.31769 1319.9923 4282798461
-56.212845 803.31769 1319.9923 4282864254
-52.546791 802.38342 1319.2046 4282536054
-48.880733 802.38342 1319.2046 4282207861
-46.436699 802.38342 1319.2046 4282207861
-43.992661 802.38342 1319.2046 4282142069
-40.326607 802.38342 1319.2046 4282010734
-36.660549 803.31769 1319.9923 4282536307
-31.653212 808.70172 1317.9918 4282732414
2.4238532 818.28497 1318.224 4284445097
4.8477063 818.28497 1318.224 4284313762
14.543119 818.28497 1318.224 4283197612
19.390825 818.28497 1318.224 4282936525
13.331193 820.13806 1319.7865 4283065481
19.390825 820.13806 1319.7865 4290361061
25.35413 826.37988 1318.5093 4294574079
28.976147 826.37988 1318.5093 4294574079
33.805504 826.37988 1318.5093 4294311935
-131.57614 772.5036 1321.4792 4282536840
-130.99266 780.42603 1320.311 4282733961
-127.28532 780.42603 1320.311 4282798213
-116.1633 781.37079 1321.1077 4282798468
-112.45596 781.37073 1321.1077 4282733705
-108.74863 781.37079 1321.1077 4282537601
-106.27706 782.31555 1321.9043 4282471293
-95.675232 796.97485 1321.1843 4283193217
-83.409172 796.97485 1321.1843 4282536320
-79.729355 796.97485 1321.1843 4282601597
-76.049538 796.97485 1321.1843 4282732666
-73.596329 796.97485 1321.1843 4282732668
-71.14312 796.97485 1321.1843 4282732668
-67.463303 796.97485 1321.1843 4282535291
-63.783485 796.97485 1321.1843 4282273139
-61.330276 796.97485 1321.1843 4282404468
-58.877064 796.97485 1321.1843 4282142584
-56.423855 796.97485 1321.1843 4281944949
-49.06422 796.97485 1321.1843 4282272887
-73.596329 798.85034 1322.7657 4282864254
-71.14312 798.85034 1322.7657 4282798461
-67.463303 798.85034 1322.7657 4282666623
-63.783485 798.85034 1322.7657 4282666621
-61.330276 798.85034 1322.7657 4282666621
-58.877064 798.85034 1322.7657 4282732918
-56.423855 798.85034 1322.7657 4282864504
-63.544952 805.18616 1321.5677 4282339455
-61.100918 805.18616 1321.5677 4282471297
-58.656879 805.18616 1321.5677 4282864004
-56.212845 805.18616 1321.5677 4282798211
-52.546791 805.18616 1321.5677 4282798209
-48.880733 805.18616 1321.5677 4282536320
-46.436699 805.18616 1321.5677 4282338942
-43.992661 805.18616 1321.5677 4282339709
-40.326607 805.18616 1321.5677 4282470269
-36.660549 805.18616 1321.5677 4282666621
-34.216515 805.18616 1321.5677 4282666621
-52.349541 811.4939 1320.3462 4282273932
-29.218349 811.4939 1320.3462 4283127424
-29.218349 813.35541 1321.9156 4283127426
13.331193 821.99109 1321.3489 4283130520
19.390825 821.99109 1321.3489 4291152895
21.814678 823.84412 1322.9114 4294901759
26.561468 828.22589 1320.0658 4294836223
-131.57614 775.35052 1323.8798 4282930311
-123.57798 784.20508 1323.4974 4282274180
-116.1633 784.20508 1323.4974 4282667654
-112.45596 784.20508 1323.4974 4282078084
-108.74863 784.20508 1323.4974 4282210176
-108.74863 786.0946 1325.0907 4282340731
-103.8055 786.0946 1325.0907 4282602113
-100.9578 793.42773 1324.7336 4282996357
-67.463303 800.72583 1324.3472 4282798211
-63.783485 800.72583 1324.3472 4282732668
-56.212845 807.05463 1323.1432 4283191172
-52.546791 807.05463 1323.1432 4283125377
-48.880733 807.98889 1323.9309 4282536323
-46.436699 807.98889 1323.9309 4282404737
