# .PCD v0.7 - Point Cloud Data file format
VERSION 0.7
FIELDS x y z rgb
SIZE 4 4 4 4
TYPE F F F U
COUNT 1 1 1 1
WIDTH 1170
HEIGHT 1
VIEWPOINT 0 0 0 1 0 0 0
POINTS 1170
DATA ascii
40.161469 838.0874 799.93677 4294967295
46.018349 838.0874 799.93677 4294967295
50.201836 838.0874 799.93677 4294967295
51.875229 838.0874 799.93677 4294967295
11.675229 841.51941 798.90637 4282199846
13.34312 841.51941 798.90637 4282920001
15.844954 842.15698 799.44397 4284170580
19.180733 842.79456 799.98157 4284764256
22.516514 842.79456 799.98157 4283713630
25.852295 841.51941 798.90637 4294503423
28.354128 841.51941 798.90637 4294967295
10.689908 749.35785 802.29602 4294967295
19.598166 749.35785 802.29602 4294966271
21.379816 749.35785 802.29602 4294965247
28.506422 749.35785 802.29602 4294964735
31.178898 748.67676 801.72174 4294965759
34.445263 748.44971 801.53027 4294967295
8.9082565 750.71991 803.44446 4294967295
13.362385 750.71991 803.44446 4294967295
16.925688 750.71991 803.44446 4294967295
19.598166 750.71991 803.44446 4294966527
23.161469 750.71991 803.44446 4294965503
25.833946 750.71991 803.44446 4294964734
35.633026 750.71991 803.44446 4294967295
7.9926605 755.05249 803.1734 4292463314
10.65688 754.37354 802.60089 4294967295
13.025075 755.27881 803.36426 4294966783
16.873394 755.73145 803.74585 4294965247
19.537615 755.05249 803.1734 4294966783
21.313761 754.37354 802.60089 4294965247
26.642202 754.37354 802.60095 4294833147
28.418348 753.69458 802.0285 4294964735
30.891743 754.40747 802.10638 4294966271
33.746788 753.01569 801.45605 4294967295
13.293577 758.61133 803.55823 4294967295
15.952293 758.61133 803.55823 4294966527
5.3009176 760.89447 801.5592 4283695146
7.951376 760.89447 801.5592 4289694043
10.601835 760.89447 801.5592 4294966271
0.88348621 763.59619 803.83716 4289351701
4.4036698 766.54425 802.3988 4290470771
7.0458717 767.21759 802.96655 4293154436
10.568808 765.87091 801.83105 4293443772
38.752293 767.21759 802.96655 4294967295
40.51376 767.21759 802.96655 4294967295
42.27523 767.21759 802.96655 4294967295
7.0238533 770.83051 802.08887 4288031560
43.899082 770.83051 802.08887 4294967295
45.655045 770.83051 802.08887 4294967295
4.3899083 772.17297 803.2207 4282400330
7.0091743 773.68103 801.87622 4282659641
38.550457 773.68103 801.87622 4294967295
40.302753 773.68103 801.87622 4294967295
42.975227 772.927 802.54846 4294967295
45.559631 773.68103 801.87622 4294967295
4.380734 775.02069 803.00574 4283188301
7.0091743 775.02069 803.00574 4283188045
43.807339 775.02069 803.00574 4294967295
46.43578 775.02069 803.00574 4294967295
5.2403669 779.94946 803.23743 4283248709
7.8605499 779.28174 802.67444 4284236626
10.480734 778.61401 802.11145 4282921807
41.340672 779.05914 802.48682 4294967295
43.669724 779.28174 802.67444 4294967295
45.998779 779.50433 802.86212 4294967295
8.7155962 782.78174 803.00952 4294951901
10.458715 782.11542 802.44769 4289697452
13.073395 782.11542 802.44769 4286998395
15.688073 781.4491 801.88586 4293894337
31.376146 781.4491 801.88586 4294967295
34.862385 781.4491 801.88586 4294967295
38.348625 781.4491 801.88586 4294967295
40.963303 782.11542 802.44769 4294967295
43.57798 782.78174 803.00952 4294967295
45.321102 782.78174 803.00952 4294967295
10.425688 787.68384 803.21875 4290290904
13.03211 787.01965 802.65869 4293120230
15.638532 787.01965 802.65869 4286015597
31.277063 786.35541 802.09863 4294967295
38.227524 786.35541 802.09863 4294967295
41.702751 786.35541 802.09863 4294967295
43.440369 787.68384 803.21875 4294967295
13.856881 791.24487 802.29724 4293581304
16.455046 790.58276 801.73901 4285688711
31.177982 789.92065 801.18079 4294967295
37.529053 790.36206 801.55292 4294967295
40.704586 790.58276 801.73901 4294967295
43.302753 791.24487 802.29724 4294967295
10.39266 792.56909 803.41382 4288249497
12.990826 792.56909 803.41382 4294699263
16.420183 794.05469 802.05029 4285619329
32.840366 794.05469 802.05029 4294967295
37.201836 793.31189 802.73206 4294967295
40.704586 792.56909 803.41382 4294967295
43.302753 792.56909 803.41382 4294967295
45.900917 792.56909 803.41382 4294967295
8.6422014 795.3761 803.16455 4281018384
10.370643 795.3761 803.16455 4286931334
12.963303 795.3761 803.16455 4294896895
16.367889 797.60034 801.11584 4286473856
31.874311 797.60034 801.11584 4294967295
34.458717 797.60034 801.11584 4294967295
37.103668 796.48822 802.1402 4294967295
39.754128 795.3761 803.16455 4294967295
43.21101 795.3761 803.16455 4294967295
8.6146793 800.23474 803.33704 4281868555
10.337615 799.57617 802.78174 4280952640
12.922018 798.91754 802.22644 4286543030
40.488991 799.57617 802.78174 4294967295
43.93486 799.57617 802.78174 4294967295
46.519264 800.23474 803.33704 4294967295
48.242203 799.57617 802.78174 4294967295
8.5963306 803.02637 803.07483 4281604906
10.315597 803.02637 803.07483 4281667882
12.894495 801.71198 801.96655 4284700517
15.473394 801.71198 801.96655 4285685615
32.666054 801.71198 801.96655 4294967295
40.402752 802.36914 802.52069 4294967295
42.981651 803.02637 803.07483 4294967295
8.5688076 806.5481 802.12024 4281405222
11.425076 806.11133 801.75195 4283578456
13.710092 805.89301 801.56787 4284500576
35.132111 805.23792 801.0155 4294967295
37.702751 805.23792 801.0155 4294967295
40.273396 805.89301 801.56787 4294967295
43.700916 806.5481 802.12024 4294967295
7.7027521 808.59265 802.53607 4286472832
10.26055 809.32703 801.84729 4282786875
41.042202 809.32703 801.84729 4294967295
43.607338 809.32703 801.84729 4294967295
46.172478 809.32703 801.84729 4294967295
6.8403668 810.6344 802.94971 4292193468
47.027523 810.6344 802.94971 4294967295
5.1137614 814.13654 801.97852 4293956256
6.8183484 814.13654 801.97852 4289691815
46.876144 814.78809 802.52789 4294967295
49.433029 814.78809 802.52789 4294967295
51.137615 815.4397 803.07727 4294967295
5.1027522 816.90009 801.69263 4294939589
6.8036699 816.90009 801.69263 4292312954
51.877983 818.20044 802.78906 4294967295
44.080734 821.68298 801.80127 4294967295
45.92477 819.50085 803.8855 4294967295
51.877983 819.50085 803.8855 4294967295
44.033028 824.35315 802.74469 4294967295
45.776146 822.97913 802.89417 4294967295
50.862385 822.97913 802.89417 4294967295
52.557796 822.97913 802.89417 4294967295
43.985321 827.01782 803.68335 4294967295
-4.4697247 838.8374 802.31305 4284437351
-1.6733944 839.36676 801.01538 4282729531
0.83669722 839.36676 801.01538 4286735434
4.183486 839.36676 801.01538 4285621621
7.5302753 839.36676 801.01538 4281936949
10.040367 839.36676 801.01538 4282199846
30.957798 839.36676 801.01538 4294967295
34.304588 839.36676 801.01538 4294967295
37.651375 839.36676 801.01538 4294967295
40.998165 839.36676 801.01538 4294967295
43.508255 839.36676 801.01538 4294967295
46.018349 839.36676 801.01538 4294967039
49.420181 839.29028 802.25891 4294967295
-3.3467889 840.64606 802.09412 4285944133
-1.6733944 841.28577 802.63348 4288178522
1.1155963 841.07251 802.45367 4291079300
4.183486 840.64606 802.09412 4286147463
7.5302753 841.28577 802.63348 4281607472
10.598165 841.07251 802.45367 4282725942
13.387156 841.28577 802.63348 4282856267
15.897248 841.28577 802.63348 4284172381
19.244038 841.92542 803.17285 4284370787
25.658716 841.07251 802.45367 4292334830
28.447706 840.64606 802.09412 4294967295
30.957798 840.64606 802.09412 4294967295
34.304588 840.64606 802.09412 4294967295
37.651375 841.28577 802.63348 4294967295
40.998165 841.28571 802.63354 4294967295
43.508255 841.28577 802.63348 4294967295
46.018349 841.28571 802.63354 4294967295
48.528439 841.28577 802.63348 4294967295
5.3614678 749.1073 806.00885 4292661473
35.743118 748.42419 805.4328 4294967295
37.530273 748.42413 805.4328 4294967295
40.21101 748.42419 805.4328 4294967295
42.891743 749.79047 806.58484 4294967295
14.253211 752.08203 804.5929 4294967039
16.925688 752.08203 804.5929 4294966783
17.761467 757.76819 805.46332 4294966783
19.537615 757.08929 804.89087 4294967295
-1.7669724 764.94708 804.9762 4287463840
0.88348621 764.94708 804.9762 4283715175
-1.7669724 766.29791 806.11523 4289173975
0.88348621 766.29791 806.11523 4285424283
-3.5229359 769.91089 805.23743 4282463866
-1.7614679 769.91089 805.23743 4283845519
0.88073397 769.91089 805.23743 4283646860
4.4036698 768.56421 804.10205 4283970134
40.51376 768.56421 804.10205 4294967295
42.27523 768.56421 804.10205 4294967295
-4.4036698 771.25757 806.37292 4281544534
-1.7559633 773.51544 804.35266 4283122284
0.88073397 771.25757 806.37292 4283384424
40.387157 773.51544 804.35266 4294967295
42.14312 773.51544 804.35266 4294967295
-3.5119267 776.20032 806.61646 4279703319
-1.7559633 775.52905 806.05054 4281017910
1.1706423 775.75287 806.2392 4282199356
4.380734 776.36035 804.13525 4283313988
47.311928 776.36035 804.13525 4294967295
49.06422 776.36035 804.13525 4294967295
-1.7522936 779.03961 806.39441 4278194970
1.7522936 779.03961 806.39441 4282593068
3.5045872 777.69995 805.26489 4282920001
-1.746789 782.6203 805.4895 4283511148
1.746789 782.6203 805.4895 4282521618
4.3669724 781.28485 804.36353 4282723135
6.9871559 781.28485 804.36353 4285869897
47.163303 781.28485 804.36353 4294967295
-3.493578 783.95575 806.61548 4292718790
-1.746789 783.95575 806.61548 4293837528
0.87155962 784.70142 805.93616 4287195778
4.3577981 784.78064 804.69507 4282063138
7.8440361 784.78064 804.69507 4286671232
10.458715 784.11438 804.13318 4294499839
43.57798 784.11438 804.13318 4294967295
46.192661 784.7807 804.69501 4294967295
-1.7431192 786.7796 806.38049 4294962175
0.87155962 786.7796 806.38049 4290747326
3.4862385 786.7796 806.38049 4284561185
47.06422 786.7796 806.38049 4294967295
48.807339 786.7796 806.38049 4294967295
-1.7376146 791.66907 806.57898 4290748862
1.7376146 791.00488 806.01898 4294696688
4.3440366 790.3407 805.45898 4287918717
7.8192658 789.67651 804.89893 4281281853
10.425688 789.01227 804.33887 4288646050
12.163302 789.01227 804.33887 4294962431
45.177982 789.01227 804.33887 4294967295
5.1963301 793.89331 804.5304 4285024359
6.9284406 793.89331 804.5304 4280163075
41.570641 793.89331 804.5304 4294967295
45.900917 793.89331 804.5304 4294967295
48.499084 793.89331 804.5304 4294967295
-1.7321101 796.54175 806.76343 4289103512
0.86605507 795.87964 806.20514 4292196039
4.3247709 795.95752 804.96277 4292719573
7.7779818 796.69751 804.27869 4285485117
41.482571 796.69751 804.27869 4294967295
46.667889 796.69751 804.27869 4294967295
1.7284404 799.34033 806.50708 4290749102
4.0330276 798.45941 805.76422 4293117409
6.9137616 798.01892 805.39282 4292263592
50.124771 798.01892 805.39282 4294967295
5.1688075 802.21057 805.00305 4294169058
6.8917432 801.55194 804.44775 4292657874
44.796329 801.55194 804.44775 4294967295
46.519264 801.55194 804.44775 4294967295
49.103668 801.55194 804.44775 4294967295
4.3018351 804.92078 805.98016 4292380805
6.8770642 804.34076 804.18311 4292327116
46.420185 804.34076 804.18311 4294967295
48.999084 804.34076 804.18311 4294967295
5.1412845 809.16846 804.32959 4294949039
47.160244 817.17731 804.5423 4294967295
49.433029 817.39453 804.72546 4294967295
47.625687 820.80121 804.98193 4294967295
49.326607 820.80121 804.98193 4294967295
46.77523 822.10156 806.07837 4294967295
49.326607 822.10156 806.07837 4294967295
51.027523 822.10156 806.07837 4294967295
45.776146 825.57141 805.07983 4294967295
50.477066 835.77899 804.5304 4294967295
53.059631 835.0614 805.2334 4294967295
53.000916 837.7085 806.15735 4294967295
55.524769 838.35168 806.69958 4294967295
-10.062386 841.77808 805.66455 4285282094
-7.2672782 841.35065 805.3042 4287916164
-4.4721713 840.92328 804.94385 4287192181
0.55902141 841.35065 805.3042 4291145906
4.1926603 841.13702 805.12402 4285820301
7.5467887 841.77808 805.66455 4281673777
11.180428 841.35065 805.3042 4282855484
13.416513 841.77808 805.66455 4283117375
15.652599 841.35065 805.3042 4284303446
19.28624 841.77808 805.66455 4284370783
22.640366 840.49591 804.5835 4282729309
25.994495 841.13696 805.12402 4291085021
28.510092 840.49591 804.5835 4294967295
31.025688 840.49591 804.5835 4294967295
34.379814 840.49591 804.5835 4294967295
37.733944 841.77808 805.66455 4294967295
41.088074 841.77808 805.66455 4294967295
43.603668 841.77808 805.66455 4294967295
49.752911 841.35065 805.3042 4294967039
-10.062386 843.06018 806.74561 4279960576
-7.5467887 843.06018 806.74561 4282000175
-3.9107029 843.1084 805.91425 4281803813
-1.6752293 843.13245 805.49854 4284237621
5.0311928 843.06018 806.74561 4278845511
7.5467887 843.06018 806.74561 4279697925
10.062386 843.06018 806.74561 4281141021
16.770641 843.06018 806.74561 4285157974
18.447706 843.06018 806.74561 4285157974
46.018349 843.20471 804.25146 4294967295
39.398167 748.26276 807.91272 4294967295
43.875229 749.63184 809.06714 4294967295
37.530273 751.15674 807.73682 4294967295
40.21101 751.8399 808.31287 4294967295
43.78532 752.52307 808.88892 4294967295
40.087158 757.53033 809.18689 4294967295
42.759632 757.53033 809.18689 4294967295
19.537615 759.80505 807.18066 4294967295
-4.436697 763.27625 808.7995 4287858613
-5.3009176 767.6488 807.25427 4281020254
-10.568808 773.95087 808.64392 4282854501
-7.6330276 773.50195 808.26544 4280423987
-4.697248 773.05304 807.8869 4279833383
0 772.60419 807.50842 4282526286
-12.330276 775.29749 809.7793 4289498267
-10.568808 775.29749 809.7793 4288713360
-7.9266057 775.29749 809.7793 4290687671
-5.2844038 775.29749 809.7793 4289569455
-4.3899083 778.21399 808.31439 4287139229
0 777.54279 807.74841 4280421900
-4.380734 781.04907 808.08875 4288183463
0 780.37927 807.52393 4282784789
-4.3752294 784.17487 808.76227 4290223523
-4.6556573 787.56689 808.78833 4288380797
-1.7431192 788.11224 807.50403 4292261585
0 788.11224 807.50403 4293641187
48.807339 788.11224 807.50403 4294967295
-4.3577981 790.11121 809.18951 4288117389
0 789.44489 808.62769 4293181892
-3.4752293 793.66174 808.25916 4287525512
-1.7376146 792.9975 807.6991 4289105319
-4.3440366 795.65436 809.93933 4288639864
-1.7321101 797.86597 807.88 4289559165
0 797.86597 807.88 4287590781
-3.4642203 799.19012 808.99646 4288570462
-1.7284404 800.66174 807.62122 4290149495
0.8642202 800.66174 807.62122 4290544001
3.4568808 800.66174 807.62122 4292389298
-3.4568808 802.64386 809.29248 4287776061
-1.7284404 801.98315 808.73535 4289883236
0.8642202 802.64386 809.29248 4290270799
-1.7229358 806.16211 808.33496 4290008655
3.4458716 805.50354 807.77966 4290728778
47.625687 824.05212 807.72302 4294967295
49.326607 823.40192 807.1748 4294967295
51.594494 823.83539 807.54028 4294967295
55.827522 832.19122 808.04541 4294967295
57.519264 832.19122 808.04541 4294967295
55.64587 835.633 807.02344 4294967295
57.894192 836.49243 807.74805 4294967295
22.71468 839.638 807.78418 4283320161
26.921101 839.638 807.78418 4291278833
28.60367 839.638 807.78418 4294967295
31.127522 839.638 807.78418 4294967295
34.492661 839.638 807.78418 4294967295
53.000916 839.638 807.78418 4294967295
55.524769 839.638 807.78418 4294967295
58.175232 838.2113 809.19739 4294967295
60.704586 838.2113 809.19739 4294967295
-11.217125 841.78192 809.59198 4283367425
-7.5715594 842.21069 809.95349 4284419083
-5.0477066 842.21069 809.95349 4283829004
0.84128439 841.56757 809.41113 4281598743
3.9259937 841.78192 809.59198 4282646557
7.5715594 842.21069 809.95349 4285006865
11.217125 841.78192 809.59198 4284024353
13.46055 841.5675 809.41113 4284027947
15.984404 841.5675 809.41113 4285218892
19.349541 841.5675 809.41113 4285813597
22.71468 840.92438 808.86877 4283845469
25.238533 840.92438 808.86877 4288649647
40.381653 840.92438 808.86877 4294967295
42.905502 840.92438 808.86877 4294967295
46.270645 840.92438 808.86877 4294967295
49.63578 840.92438 808.86877 4294967295
53.842201 840.92438 808.86877 4294967295
62.255047 841.5675 809.41113 4294967295
-3.3541284 844.34229 807.82666 4283630337
-1.6770642 844.34229 807.82666 4283696386
37.607338 751.00092 810.22156 4294967295
40.21101 753.88934 810.04089 4294967295
44.083179 754.34473 810.42499 4294967295
-13.21101 776.64417 810.91479 4287458696
-10.568808 776.64417 810.91479 4288778365
-7.9266057 776.64417 810.91479 4291212728
-14.091743 777.99084 812.05029 4285550683
-12.877065 781.12262 810.76685 4287522145
-10.53578 781.57013 811.14423 4289760901
-8.0774317 781.30164 810.91779 4288314746
-7.0091743 785.06799 811.47736 4286407507
-6.9871559 789.96521 811.6825 4287262083
-6.972477 793.44275 811.99866 4286667620
-5.2293577 792.11011 810.875 4289104554
-5.2128439 796.98279 811.05945 4286601797
-6.9504585 798.31122 812.17944 4285746481
-5.1963301 800.51434 810.11304 4284956708
-5.1963301 802.50067 811.7879 4286397220
-4.3211012 805.28668 811.52081 4288825143
26.979816 839.50043 810.2843 4290752977
28.666056 839.50043 810.2843 4294967295
31.195412 839.50043 810.2843 4294967295
34.56789 839.50043 810.2843 4294967295
37.940369 839.50043 810.2843 4294967295
52.273396 839.50043 810.2843 4294967295
55.64587 839.50043 810.2843 4294967295
58.175232 839.50043 810.2843 4294967295
60.704586 839.50043 810.2843 4294967295
-13.489908 841.4342 811.91479 4288629323
-11.80367 842.07874 812.45825 4293962922
0.84311926 842.07874 812.45825 4294165709
4.2155962 842.07874 812.45825 4294822358
7.5880733 842.07874 812.45825 4294622922
10.96055 842.07874 812.45825 4292973996
13.489908 842.07874 812.45825 4289809252
15.738227 841.64899 812.09595 4287838539
19.672783 841.64899 812.09595 4285419091
22.764221 841.43414 811.91479 4284636002
26.136698 841.4342 811.91479 4287333526
28.666056 841.4342 811.91479 4294966271
30.914373 841.2193 811.73364 4294967295
34.56789 840.78961 811.37134 4294967295
37.940369 840.78961 811.37134 4294967295
40.469727 840.78961 811.37134 4294967295
42.155964 840.78961 811.37134 4294967295
46.371559 840.78961 811.37134 4294967295
49.744034 840.78961 811.37134 4294967295
53.116516 840.78961 811.37134 4294967295
55.64587 840.78961 811.37134 4294967295
58.175232 840.78961 811.37134 4294967295
61.266666 841.64899 812.09595 4294967295
-10.095413 843.49701 811.03809 4293374908
-7.5715594 843.49701 811.03809 4293771206
-4.2064219 843.49701 811.03809 4294036181
-1.6825688 843.49701 811.03809 4293839576
63.937614 843.49701 811.03809 4294967295
-15.853211 782.03082 815.45667 4289500032
-13.21101 781.35748 814.88892 4290019970
-12.291743 785.59747 814.53992 4291077031
-10.53578 784.92627 813.97394 4290421407
-8.7798166 784.255 813.40796 4288051562
-13.169725 786.93988 815.67188 4289565591
-10.53578 786.93988 815.67188 4289237912
-8.7614679 787.74731 813.73651 4287461761
-10.513762 789.75677 815.43079 4284960853
-8.7339449 791.96838 813.37146 4285223769
-8.1467886 794.23944 814.41449 4286270780
-8.7155962 797.44067 815.36951 4287188805
-6.9504585 800.30383 813.85962 4287450164
-15.225688 839.95129 814.58862 4292247927
32.14312 839.95129 814.58862 4294967295
34.680733 839.95129 814.58862 4294967295
38.06422 839.95129 814.58862 4294967295
40.601833 839.95129 814.58862 4294967295
43.421406 839.5202 814.2251 4294967039
46.522934 839.95129 814.58862 4294967295
49.906422 839.95129 814.58862 4294967295
52.444038 839.95129 814.58862 4294967295
54.981651 839.95129 814.58862 4294967039
58.365135 839.95129 814.58862 4294967295
-15.225688 841.24463 815.67908 4293573041
-13.533945 841.24463 815.67908 4294429113
1.6917431 841.24463 815.67908 4294962671
13.533945 841.24463 815.67908 4290408119
16.07156 841.24463 815.67908 4288108418
19.455046 841.24463 815.67908 4285090642
22.838531 841.24463 815.67908 4284768877
25.376146 841.24463 815.67908 4284441975
27.913761 841.24463 815.67908 4290819791
31.297249 841.24463 815.67908 4294967295
34.680733 841.24463 815.67908 4294967295
37.218349 841.24463 815.67908 4294967295
54.981651 841.24463 815.67908 4294967295
58.365135 841.24463 815.67908 4294967295
61.748623 841.24463 815.67908 4294967295
-10.679511 843.79761 813.90753 4294235348
-7.5880728 844.01245 814.08875 4293644764
-4.2155962 844.01245 814.08875 4293842146
-1.6862385 844.01245 814.08875 4294040299
0 843.36786 813.54529 4294962414
4.2155962 843.36786 813.54529 4294960368
7.8691125 843.79761 813.90753 4294233821
10.96055 844.01245 814.08875 4294562269
64.077065 843.36786 813.54529 4294967295
-15.853211 784.05078 817.15991 4289829015
-14.091743 783.37744 816.59216 4291011238
-15.80367 788.28235 816.80371 4286209380
-13.169725 788.28235 816.80371 4286008656
-13.156881 790.3606 817.24805 4285611322
-10.513762 791.09644 816.56042 4285941302
-12.266055 792.43604 817.68994 4287319362
-10.513762 792.43604 817.68994 4287058243
-10.480734 795.97467 816.74951 4287188805
-8.7155962 798.77325 816.49316 4287318849
38.994495 839.82916 817.10168 4294967295
40.689907 839.82916 817.10168 4294967295
43.233028 839.82916 817.10168 4294967295
46.623856 839.82916 817.10168 4294967295
50.014679 839.82916 817.10168 4294967295
52.557796 839.82916 817.10168 4294967295
-16.089909 841.83167 817.48212 4293908697
-13.533945 842.53802 816.76965 4293512390
-11.842202 842.53802 816.76965 4293841612
0.84587157 842.53802 816.76965 4292857560
4.2293577 842.53802 816.76965 4292133585
6.7669725 842.53802 816.76965 4292787915
13.533945 842.53802 816.76965 4294967039
16.07156 842.53802 816.76965 4294965241
19.455046 842.53802 816.76965 4292532962
22.838531 842.53802 816.76965 4282403149
25.376146 842.53802 816.76965 4283389774
27.913761 842.53802 816.76965 4290159016
31.297249 842.53802 816.76965 4294966271
34.755962 841.12531 818.19458 4294967295
38.14679 841.12531 818.19458 4294967295
40.689907 841.12531 818.19458 4294967295
43.233028 841.12531 818.19458 4294967039
46.623856 841.12531 818.19458 4294967295
50.014679 841.12531 818.19458 4294967295
52.557796 841.12531 818.19458 4294967295
55.100918 841.12531 818.19458 4294967295
58.429359 841.83167 817.48212 4294967295
61.882568 841.12531 818.19458 4294967295
64.28624 842.53802 816.76965 4294967295
-10.150458 843.83136 817.86011 4293842920
-7.612844 843.83136 817.86011 4292855767
-4.2293577 843.83136 817.86011 4292394698
-1.6917431 843.83136 817.86011 4293052368
0.84587157 843.83136 817.86011 4293053654
4.2293577 843.83136 817.86011 4292394704
7.8948007 844.26245 818.22363 4292723665
10.714374 844.26245 818.22363 4293315543
13.533945 843.83136 817.86011 4294964210
16.07156 843.83136 817.86011 4294965239
22.838531 843.83136 817.86011 4287265666
25.376146 843.83136 817.86011 4283910709
27.06789 843.83136 817.86011 4284832356
-19.560551 840.3067 821.42847 4294567147
-16.106422 842.42151 819.28735 4293645788
-13.563303 842.42151 819.28735 4293513675
-11.86789 842.42151 819.28735 4294040019
19.497248 842.42151 819.28735 4294241020
28.822018 842.42151 819.28735 4292398552
31.365139 842.42151 819.28735 4294833919
34.755962 842.42151 819.28735 4294967295
37.420185 840.3067 821.42847 4294967295
39.971558 840.3067 821.42847 4294967295
43.373394 840.3067 821.42847 4294967295
46.77523 840.3067 821.42847 4294967295
49.326607 840.3067 821.42847 4294967295
51.79266 841.36414 820.35791 4294967295
55.279816 840.3067 821.42847 4294967295
58.588074 841.36414 820.35791 4294967295
62.083488 840.3067 821.42847 4294967295
64.634865 840.3067 821.42847 4294967295
-10.172477 843.71765 820.38025 4294568692
-7.6293578 843.71765 820.38025 4294173163
-4.2385321 843.71765 820.38025 4293777376
-1.6954129 843.71765 820.38025 4293908448
1.6954129 843.71765 820.38025 4293843168
4.2385321 843.71765 820.38025 4293711584
7.6293578 844.36572 820.9267 4292658893
11.302752 844.58173 821.10889 4292393927
13.563303 843.71765 820.38025 4292722635
15.823853 844.14972 820.74457 4293513429
19.214678 844.14972 820.74457 4293975526
22.888073 844.36572 820.9267 4294898936
25.431192 844.36572 820.9267 4293582302
27.691742 844.14972 820.74457 4289638074
-19.602753 840.19995 823.95447 4293976550
-16.158716 841.60706 822.5249 4293579746
-13.60734 842.2572 823.07312 4293513695
-11.33945 842.47394 823.25586 4294830325
-7.6541286 842.90741 823.62134 4294371057
-4.2522936 842.90741 823.62134 4293843942
-1.7009175 842.90741 823.62134 4293909476
0 841.60706 822.5249 4294040803
4.2522936 842.90741 823.62134 4293777377
6.8036699 842.90741 823.62134 4293711579
13.60734 842.90741 823.62134 4292459709
17.009174 842.90741 823.62134 4293119701
20.411009 842.90741 823.62134 4293910248
28.915596 842.90741 823.62134 4290946508
31.183487 842.04053 822.89038 4293846511
34.58532 842.04053 822.89038 4294967295
37.420185 841.60706 822.5249 4294967295
39.971558 841.60706 822.5249 4294967039
43.373394 841.60706 822.5249 4294967295
46.826607 840.9035 823.23969 4294967295
49.433029 840.19995 823.95447 4294967295
51.877983 841.60706 822.5249 4294967295
55.399082 840.19995 823.95447 4294967295
58.681648 841.60706 822.5249 4294967295
62.083488 841.60706 822.5249 4294967295
64.634865 841.60706 822.5249 4294967295
66.335777 841.60706 822.5249 4294967295
-8.5045872 844.20776 824.71777 4294436856
11.055964 844.20776 824.71777 4292918986
13.60734 844.20776 824.71777 4291864498
16.158716 844.20776 824.71777 4292063675
19.560551 844.20776 824.71777 4291473595
22.962385 844.20776 824.71777 4293908449
25.513762 844.20776 824.71777 4294303205
27.21468 844.20776 824.71777 4294966008
-22.231194 838.7431 826.65015 4294370538
-19.318655 841.93756 825.41949 4293318110
-16.193579 842.15479 825.60266 4292397013
-13.636697 842.80634 826.1521 4291935952
-11.079817 842.80634 826.1521 4293844462
-6.8183484 842.80634 826.1521 4294240242
-4.2614679 842.80634 826.1521 4294174191
-1.7045871 842.80634 826.1521 4294239470
0.85229355 841.50317 825.05322 4293843170
4.2614679 842.80634 826.1521 4293909730
7.6706419 842.80634 826.1521 4293383902
28.977982 842.80634 826.1521 4294966008
31.818962 842.37201 825.78583 4294966014
35.228134 842.37189 825.78583 4294967295
37.500916 842.15479 825.60266 4294967295
40.0578 842.15479 825.60266 4294967295
43.466972 842.15472 825.60266 4294967295
46.876148 842.15479 825.60266 4294967039
49.433029 842.15479 825.60266 4294967295
51.989906 842.15479 825.60266 4294967295
55.399082 842.15472 825.60266 4294967295
58.808258 842.15479 825.60266 4294967039
61.365139 842.15479 825.60266 4294967295
63.92202 842.15472 825.60266 4294967039
66.478897 842.15479 825.60266 4294967295
-18.750458 844.1095 827.25085 4291739593
-16.193579 844.1095 827.25085 4290818241
-13.636697 844.1095 827.25085 4290883014
-11.079817 844.1095 827.25085 4292791272
-7.6706419 844.1095 827.25085 4294371321
-4.2614679 844.1095 827.25085 4294306035
-1.7045871 844.1095 827.25085 4294437365
11.079817 844.1095 827.25085 4293117132
13.636697 844.1095 827.25085 4292324797
16.193579 844.1095 827.25085 4292457405
19.602753 844.1095 827.25085 4292064440
23.011927 844.1095 827.25085 4293776600
25.568808 844.1095 827.25085 4293580250
27.273394 844.1095 827.25085 4294897643
51.989906 844.1095 827.25085 4294967039
54.546787 844.1095 827.25085 4294967295
64.774315 844.1095 827.25085 4294967039
66.478897 844.1095 827.25085 4294967039
-23.992661 839.30273 829.73804 4294829803
-22.81835 841.10956 829.51752 4294831085
-20.521101 841.35785 828.85486 4293713126
0.85504586 841.35785 828.85486 4294041835
4.2752295 842.01154 829.40601 4293910757
7.6954126 842.01154 829.40601 4293383904
29.07156 842.01154 829.40601 4294967295
31.636698 842.01154 829.40601 4294967295
35.056881 842.01154 829.40601 4294967295
37.622017 842.01154 829.40601 4294967295
40.187157 842.01154 829.40601 4294967295
43.607338 842.01154 829.40601 4294967295
47.027523 842.01154 829.40601 4294967295
49.592659 842.01154 829.40601 4294967295
56.433029 842.01154 829.40601 4294967295
58.998165 842.01154 829.40601 4294966783
61.563301 842.01154 829.40601 4294967039
63.273396 842.01154 829.40601 4294967295
68.403671 841.35785 828.85486 4294967295
-19.666054 843.31891 830.50842 4292989153
-16.245872 843.31891 830.50842 4291870677
-13.680734 843.31891 830.50842 4290884545
-11.115597 843.31891 830.50842 4291541706
-7.6954126 843.31891 830.50842 4294568697
-4.2752295 843.31891 830.50842 4294240501
-1.7100917 843.31891 830.50842 4294437365
3.4201834 843.31891 830.50842 4293778919
8.5504589 843.31891 830.50842 4293977068
11.115597 843.31891 830.50842 4293381849
13.680734 843.31891 830.50842 4292520886
16.245872 843.31891 830.50842 4292191147
19.666054 843.31891 830.50842 4292192173
23.086239 843.31891 830.50842 4292393665
25.651377 843.31891 830.50842 4291738561
28.216515 843.31891 830.50842 4291673797
31.636698 843.31891 830.50842 4294504953
35.056881 843.31891 830.50842 4294967295
37.622017 843.31891 830.50842 4294967295
40.187157 843.31891 830.50842 4294967295
43.607338 843.31891 830.50842 4294967295
47.027523 843.31891 830.50842 4294967295
49.592659 843.31891 830.50842 4294967295
52.157799 843.31891 830.50842 4294967295
55.57798 843.31891 830.50842 4294966271
58.998165 843.31891 830.50842 4294966527
61.563301 843.31891 830.50842 4294966527
64.128441 843.31891 830.50842 4294965759
66.693581 843.31891 830.50842 4294966271
-25.706423 841.9231 831.94751 4294238696
-23.13578 841.9231 831.94751 4294700016
0.85688072 841.9231 831.94751 4294239473
5.1412845 841.9231 831.94751 4294108141
6.8550458 841.9231 831.94751 4294437619
68.550461 841.9231 831.94751 4294966783
-19.708256 843.23328 833.05212 4292793564
-16.280735 843.23328 833.05212 4292135395
-13.710092 843.23328 833.05212 4291083205
-11.13945 843.23328 833.05212 4291016640
-7.7119265 843.23328 833.05212 4294897915
-4.2844038 843.23328 833.05212 4294371830
-1.7137614 843.23328 833.05212 4294372342
3.4275229 843.23328 833.05212 4294240242
8.5688076 843.23328 833.05212 4294238957
11.126606 843.92981 832.33142 4293183178
13.710092 843.23328 833.05212 4293306807
16.280735 843.23328 833.05212 4291990431
19.708256 843.23328 833.05212 4291728803
23.13578 843.23328 833.05212 4292457156
25.706423 843.23328 833.05212 4293051605
28.277065 843.23328 833.05212 4292264905
31.704586 843.23328 833.05212 4293649647
35.132111 843.23328 833.05212 4294967295
37.702751 843.23328 833.05212 4294967295
40.273396 843.23328 833.05212 4294967295
43.700916 843.23328 833.05212 4294967295
47.128441 843.23328 833.05212 4294967295
49.699081 843.23328 833.05212 4294967295
52.212845 843.92981 832.33142 4294967295
55.57798 844.62628 831.61072 4294966527
58.998165 844.62628 831.61072 4294967295
61.563301 844.62628 831.61072 4294967039
64.41346 845.06207 831.97821 4294966271
67.312538 844.59772 832.45868 4294967039
-24.642813 841.58185 835.58392 4292397264
-22.350458 841.8009 835.76862 4292199887
-19.771561 842.45813 836.32275 4288451767
-15.473394 842.45813 836.32275 4286209912
-12.894495 842.45813 836.32275 4283190348
-10.315597 842.45813 836.32275 4290023067
-7.7366972 842.45813 836.32275 4294964990
-4.2981653 842.45813 836.32275 4294832891
-1.7192661 842.45813 836.32275 4294833147
0.85963303 841.14374 835.21448 4294502646
4.2981653 841.8009 835.76862 4294568952
7.7366972 841.8009 835.76862 4292988638
10.315597 842.45813 836.32275 4291989413
16.333027 842.45813 836.32275 4292974756
19.771561 842.45813 836.32275 4291858328
22.350458 842.45813 836.32275 4292519340
25.78899 842.45813 836.32275 4293643215
28.367889 842.45813 836.32275 4293186523
31.806421 842.45813 836.32275 4292921811
34.385323 842.45813 836.32275 4294833660
36.964218 842.45813 836.32275 4294967295
40.402752 842.45813 836.32275 4294967295
43.841286 842.45813 836.32275 4294967295
68.770645 842.45813 836.32275 4294967295
-17.137615 844.54346 834.15686 4287657358
11.99633 844.54346 834.15686 4293831361
13.710092 844.54346 834.15686 4294094008
23.992661 844.54346 834.15686 4292195769
47.128441 844.54346 834.15686 4294967295
49.699081 844.54346 834.15686 4294967295
52.555355 844.98016 834.52509 4294967295
55.697247 845.19849 834.70923 4294966527
58.839142 844.98016 834.52509 4294967039
61.695412 845.19855 834.70923 4294966015
63.980427 845.41693 834.89337 4294967039
66.8367 845.85364 835.2616 4294967295
-25.269724 841.94598 838.50702 4290094257
-22.398165 842.38507 838.8772 4287922552
-20.67523 842.38507 838.8772 4287464872
0.8614679 841.72644 838.3219 4294897916
4.5944958 841.94598 838.50702 4294964479
7.4660554 841.94598 838.50702 4293183451
10.337615 842.38507 838.8772 4292515757
16.367889 842.38507 838.8772 4293306549
20.67523 842.38507 838.8772 4291994540
22.398165 842.38507 838.8772 4291468196
25.844036 842.38507 838.8772 4293639851
28.42844 842.38507 838.8772 4293511638
31.874311 842.38507 838.8772 4292198595
34.458717 842.38507 838.8772 4292989937
37.043121 842.38507 838.8772 4294967295
40.488991 842.38507 838.8772 4294967295
43.073395 842.38507 838.8772 4294967295
68.917435 842.38507 838.8772 4294967295
70.640366 842.38507 838.8772 4294967295
-24.982569 843.70227 839.98779 4290553016
-22.398165 843.70227 839.98779 4290487461
-19.513151 843.72565 839.13556 4284964729
-16.333027 844.42969 837.98523 4279047730
-12.908257 843.73743 838.70947 4279704864
-10.326606 843.73743 838.70941 4287922310
-7.7449541 843.73743 838.70941 4294766838
-4.3027525 843.73737 838.70947 4294898170
-1.7211009 843.73743 838.70941 4294965759
10.337615 843.70227 839.98779 4294030775
12.908257 843.73743 838.70941 4293766330
16.367889 843.70227 839.98779 4294761451
18.93211 843.73743 838.70941 4293510095
22.398165 843.70227 839.98779 4291079348
24.095413 843.73743 838.70941 4291795085
41.35046 843.70227 839.98779 4294967295
44.190212 843.72577 839.13556 4294967295
46.469727 843.73743 838.70941 4294967295
49.024769 844.0835 838.34729 4294967039
52.151073 844.64874 838.16992 4294966783
55.876144 845.08691 838.53931 4294966783
58.455048 845.08691 838.53931 4294967039
60.747402 844.64874 838.16992 4294967039
64.472473 845.08691 838.53931 4294900991
67.984406 844.39459 839.26355 4291019738
0.8642202 841.62537 842.16064 4294963965
4.3211012 841.62537 842.16064 4294897149
7.7779818 841.62537 842.16064 4293508823
20.741285 841.62537 842.16064 4294763756
25.926605 841.62537 842.16064 4291924109
28.519266 841.62537 842.16064 4291860140
31.976147 841.62537 842.16064 4291669671
34.568806 841.62537 842.16064 4292266452
37.161469 841.62537 842.16064 4294967295
39.754128 841.62537 842.16064 4294967295
70.866058 841.62537 842.16064 4284770184
-24.121101 845.01947 841.09851 4290421670
-18.952293 845.01947 841.09851 4283581260
-16.367889 845.01947 841.09851 4282069314
-12.922018 845.01947 841.09851 4284430109
-10.337615 845.01947 841.09851 4288577445
-8.6146793 845.01947 841.09851 4294367228
44.796329 845.01947 841.09851 4294967295
46.519264 845.01947 841.09851 4294967295
49.103668 845.01947 841.09851 4294967295
52.549541 845.01947 841.09851 4294967295
55.995415 845.01947 841.09851 4294967295
58.579815 845.01947 841.09851 4294967295
61.164223 845.01947 841.09851 4294967295
64.610092 845.01947 841.09851 4292794848
67.194496 845.01947 841.09851 4288584354
58.579815 846.33667 842.20911 4291546088
-27.655046 842.94678 843.2749 4290619326
-25.926605 842.94678 843.2749 4290027190
-22.469725 842.94678 843.2749 4290619049
-20.741285 842.94678 843.2749 4289568167
-6.9211011 842.91797 844.55865 4293449186
-4.612844 842.92755 844.13068 4294699510
-1.7302753 842.91797 844.55865 4294503162
0.86605507 841.56494 844.72583 4294964991
4.3302751 841.56494 844.72583 4293906921
7.7862387 842.91797 844.55865 4293964994
10.381651 842.91797 844.55865 4294824145
12.977064 842.91797 844.55865 4294296523
16.437614 842.91797 844.55865 4294828527
20.179815 842.92755 844.13068 4294896888
22.493578 842.91797 844.55865 4292594134
25.088991 842.91797 844.55859 4291735479
28.250765 842.92755 844.13068 4290748584
32.026604 842.57251 844.92139 4291145395
34.6422 842.22705 845.28412 4291410366
37.20092 842.91797 844.55865 4294371570
40.35841 842.92755 844.13068 4294967295
43.256882 842.91797 844.55865 4294967295
70.076141 842.91797 844.55865 4279834464
72.748627 841.56494 844.72583 4278190091
-27.655046 844.26819 844.38904 4290290613
-25.062386 844.26819 844.38904 4289500835
-22.469725 844.26819 844.38904 4289961380
-19.877064 844.26819 844.38904 4290290348
-16.420183 844.26819 844.38904 4290553770
-12.963303 844.26819 844.38904 4291406234
-10.370643 844.26819 844.38904 4293249735
-8.6422014 844.26819 844.38904 4293447115
-3.4568808 844.26819 844.38904 4294436090
19.012844 844.26819 844.38904 4294960886
29.383486 844.26819 844.38904 4290490039
41.482571 844.26819 844.38904 4294967295
44.939449 844.26819 844.38904 4294967295
46.667889 844.26819 844.38904 4294967295
49.260551 844.26819 844.38904 4294967295
52.71743 844.26819 844.38904 4294967295
55.310093 844.26819 844.38904 4294967295
57.902752 844.92889 844.94611 4290754780
61.359634 844.26819 844.38904 4286940843
64.816513 844.26819 844.38904 4278780987
67.409172 844.26819 844.38904 4278452283
0.86880732 840.82068 848.02234 4293644769
4.3440366 840.82068 848.02234 4293504711
72.97982 840.82068 848.02234 4279763995
-27.713762 844.21338 846.95898 4291276221
-25.115597 844.21338 846.95898 4290749870
-22.517431 844.21338 846.95898 4290815913
-20.207951 844.65479 847.33112 4291932853
-16.455046 844.21338 846.95898 4292655536
-12.990826 844.21338 846.95898 4293577165
-10.39266 844.21338 846.95898 4293777113
-3.4642203 844.21338 846.95898 4293708281
-1.7321101 844.21338 846.95898 4292984558
19.053211 844.21338 846.95898 4294960370
22.517431 844.21338 846.95898 4293910257
29.445871 844.21338 846.95898 4291736772
41.570641 844.21338 846.95898 4294967295
45.900917 844.21338 846.95898 4294967295
49.365139 844.21338 846.95898 4294967295
52.829357 844.21338 846.95898 4294967295
55.427525 844.21338 846.95898 4294966015
57.159634 844.21338 846.95898 4290492092
61.489906 844.21338 846.95898 4280163166
64.954132 844.21338 846.95898 4278190115
67.552292 844.21338 846.95898 4278190093
-7.8192658 842.14911 849.14246 4293316311
-5.2128439 842.14911 849.14246 4294171369
0.86880732 842.14911 849.14246 4292654533
4.3440366 842.14911 849.14246 4292784295
7.8192658 842.14911 849.14246 4294365377
10.425688 842.14911 849.14246 4294959605
13.03211 842.14911 849.14246 4293179841
16.507339 842.14911 849.14246 4294234068
20.851376 842.14911 849.14246 4294699773
25.195412 842.14911 849.14246 4293317857
27.801834 842.14911 849.14246 4292460751
31.277063 842.14911 849.14246 4291538877
33.883484 842.14911 849.14246 4290552492
37.358719 842.14911 849.14246 4293318110
39.965137 842.14911 849.14246 4294967295
43.440369 842.14911 849.14246 4294967295
70.373398 842.14911 849.14246 4279439143
-27.801834 843.47754 850.26257 4293579482
-25.195412 844.14172 850.82263 4293316561
-22.588991 844.14172 850.82263 4292592321
-19.692966 844.3631 851.00928 4292785862
-16.507339 844.14172 850.82263 4293244352
-12.742508 843.92035 850.63593 4293837500
-10.425688 844.14172 850.82263 4293775836
-7.8192658 843.47754 850.26257 4293710814
-4.3440366 843.47754 850.26257 4292391876
-1.7376146 843.47754 850.26257 4293441484
22.588991 843.47754 850.26257 4293252845
29.53945 843.47754 850.26257 4293383904
38.227524 843.47754 850.26257 4293187304
40.833946 843.47754 850.26257 4294967295
43.440369 843.47754 850.26257 4294967295
46.046791 843.47754 850.26257 4294967295
49.522018 843.47754 850.26257 4293848047
52.997246 843.47754 850.26257 4285495970
55.603668 843.47754 850.26257 4280747351
58.210091 843.47754 850.26257 4278321209
61.685318 843.47754 850.26257 4278190112
64.29174 843.47754 850.26257 4279045670
67.187767 843.92035 850.63593 4280622132
73.365135 838.70856 852.78162 4280556591
-13.944954 842.75006 853.57324 4293178015
-7.8440366 842.75006 853.57324 4293775325
-4.3577981 842.75006 853.57324 4292064437
-1.7431192 842.75006 853.57324 4293642429
0.58103973 841.86163 852.82416 4293903829
4.3577981 842.08374 853.01147 4294367460
7.8440366 842.08374 853.01141 4294765554
10.458715 842.08374 853.01141 4294961145
12.782875 841.86163 852.82416 4293050313
16.559633 842.08374 853.01141 4293906646
19.755352 841.86163 852.82416 4294106607
22.660551 842.75006 853.57324 4292989923
25.56575 841.86163 852.82416 4294239468
28.470947 842.30585 853.19873 4294108657
31.376146 842.08374 853.01141 4291343812
33.990826 842.08374 853.01141 4290750651
37.186543 842.30585 853.19873 4293448167
40.963303 842.75006 853.57324 4294967295
43.57798 842.75006 853.57324 4294967295
46.192661 842.75006 853.57324 4294704123
49.678898 842.75006 853.57324 4290360765
52.293579 842.75006 853.57324 4281543568
54.908257 842.75006 853.57324 4278255653
58.394493 842.75006 853.57324 4279828480
61.880733 842.75006 853.57324 4281729546
64.495415 842.75006 853.57324 4280025088
66.238533 842.75006 853.57324 4280292149
70.744949 840.04401 853.90759 4279242016
73.365135 840.04401 853.90759 4278190080
-17.431192 844.0827 854.6969 4291989402
-6.972477 844.0827 854.6969 4293775326
-4.3577981 844.0827 854.6969 4293381330
-1.7431192 844.0827 854.6969 4292592319
34.862385 844.0827 854.6969 4290289832
37.477066 844.0827 854.6969 4292855763
40.963303 844.0827 854.6969 4294767615
58.394493 844.0827 854.6969 4294498028
61.880733 844.0827 854.6969 4291739599
64.495415 844.0827 854.6969 4278190080
67.110092 844.0827 854.6969 4278321925
-24.905809 846.57715 852.87604 4293183700
-22.588991 846.79858 853.06274 4292261572
-20.272171 846.57715 852.87604 4292191149
-15.638532 846.13434 852.50269 4292252318
-13.03211 846.13434 852.50269 4292384405
-10.425688 846.13434 852.50269 4292848565
-8.6880732 846.13434 852.50269 4294361805
1.164526 842.26978 855.78436 4293640139
4.3669724 842.7149 856.15967 4293508299
7.8605504 842.7149 856.15967 4294302183
10.480734 842.7149 856.15967 4294105576
13.392049 842.26978 855.78436 4292855242
16.594496 842.7149 856.15967 4292988114
20.088074 842.04718 855.59668 4293318372
22.708258 842.7149 856.15967 4293647855
25.037308 842.26978 855.78436 4294109679
28.822018 842.7149 856.15967 4291413467
31.442202 842.7149 856.15967 4289107357
33.188992 842.7149 856.15967 4289502115
43.669724 842.7149 856.15967 4290887377
46.289909 842.7149 856.15967 4282536052
49.783485 842.7149 856.15967 4278321220
52.403671 842.7149 856.15967 4278779952
55.023853 842.7149 856.15967 4286141570
69.871559 841.37946 855.03369 4281797924
-19.174313 845.41528 855.82056 4291662747
-16.559633 845.41528 855.82056 4291659917
-13.073395 845.41528 855.82056 4292318113
-10.458715 845.41528 855.82056 4291859620
-7.8440366 845.41528 855.82056 4294100948
-4.3669724 844.05029 857.28564 4293776351
-1.746789 844.05029 857.28564 4292197577
28.822018 844.05029 857.28564 4291674590
31.442202 844.05029 857.28564 4289172116
34.062386 844.05029 857.28564 4290486173
37.555962 844.05029 857.28564 4292328883
41.049541 844.05029 857.28564 4291476452
46.289909 844.05029 857.28564 4278190174
49.783485 844.05029 857.28564 4278190086
52.403671 844.05029 857.28564 4278255623
55.023853 844.05029 857.28564 4285422203
58.456879 844.73279 856.5531 4294966015
61.944954 844.73279 856.5531 4294963947
64.495415 845.41528 855.82056 4281210630
67.110092 845.41528 855.82056 4278190080
-22.660551 846.74792 856.94421 4291467433
-15.688073 846.74792 856.94421 4292184726
66.238533 846.74792 856.94421 4287788928
0.87614679 842.00287 859.4834 4291930278
4.380734 842.00287 859.4834 4292981935
7.8853211 842.00287 859.4834 4293514207
10.513762 842.00287 859.4834 4293382617
13.169725 840.63788 860.94861 4292856272
16.665138 841.32037 860.216 4292593357
19.315596 840.63788 860.94861 4293119447
21.642202 840.6463 860.08368 4293713390
25.408257 842.00287 859.4834 4294702331
43.807339 842.00287 859.4834 4284898233
70.091743 840.66321 858.35388 4282974501
-20.088074 845.38574 858.41162 4291988632
-17.46789 845.38574 858.41162 4291658382
-13.100918 845.38574 858.41162 4292911011
-10.480734 845.38574 858.41162 4291860892
-7.8605504 845.38574 858.41162 4293246402
-4.380734 843.34247 860.61292 4294039778
-1.746789 845.38574 858.41162 4293118425
0 843.34247 860.61292 4293114302
26.284403 843.34247 860.61292 4293908450
28.912844 843.34247 860.61292 4293844205
31.541285 843.34247 860.61292 4294435822
34.114677 844.36414 859.51227 4293448411
37.555962 845.38574 858.41162 4291935685
40.302753 843.34247 860.61292 4289238945
42.93119 843.34247 860.61292 4280557924
46.43578 843.34247 860.61292 4278979115
49.940369 843.34247 860.61292 4279375649
52.403671 845.38574 858.41162 4278190080
55.023853 845.38574 858.41162 4280489216
58.517433 845.38574 858.41162 4294964180
62.011009 845.38574 858.41162 4294967295
64.631195 845.38574 858.41162 4291344835
-19.796942 847.16632 859.91309 4292977074
-16.594496 847.38892 860.10071 4292720068
55.897247 846.72119 859.53772 4285077760
58.226299 847.16632 859.91309 4294961889
62.011009 847.38892 860.10071 4294967295
64.631195 846.72119 859.53772 4294436852
66.377983 846.72119 859.53772 4289959624
1.7559633 841.98029 862.08044 4291864235
4.3899083 841.98029 862.08044 4292324257
7.901835 841.98029 862.08044 4291934407
10.53578 841.98029 862.08044 4292000966
14.047707 841.98029 862.08044 4292461253
16.681652 841.98029 862.08044 4292658378
19.315596 841.98029 862.08044 4293447126
22.827522 841.98029 862.08044 4293317344
24.583487 841.98029 862.08044 4293382105
-13.155046 844.00244 862.47742 4292257959
-10.513762 844.68213 861.74243 4291928736
-7.8853211 844.68213 861.74243 4291930277
-4.380734 844.68213 861.74243 4294499038
-1.7522936 844.68213 861.74243 4293908452
0.87798166 843.32275 863.2124 4292262854
4.3899083 843.32275 863.2124 4292131003
7.0238533 843.32275 863.2124 4291934155
26.339449 843.32275 863.2124 4292198847
28.973394 843.32275 863.2124 4293777615
31.60734 843.32275 863.2124 4294964223
34.20459 844.00244 862.47742 4293909741
37.712845 844.00244 862.47742 4292198866
40.302753 844.68213 861.74243 4288448668
43.021103 843.32275 863.2124 4278190161
46.533028 843.32275 863.2124 4279312938
49.991745 844.00244 862.47742 4279768610
52.568806 844.68213 861.74243 4280877060
54.321102 844.68213 861.74243 4280156160
56.073395 846.02179 862.87207 4294764519
59.57798 846.02179 862.87207 4294967295
-20.379206 849.83716 862.16504 4293771716
-16.594496 849.39203 861.78967 4294233833
12.330276 839.93707 864.28174 4292395723
21.137615 839.93707 864.28174 4293777895
0.88073397 842.63037 866.55261 4293054937
4.4036698 842.63037 866.55261 4292462532
8.2201834 842.18146 866.17413 4292395217
10.568808 841.95703 865.98492 4292986835
13.21101 841.95703 865.98492 4293579740
16.733946 841.95703 865.98492 4293186520
19.376146 841.95703 865.98492 4292858071
22.018349 841.95703 865.98499 4292003024
25.247705 842.18146 866.17413 4290224794
29.06422 842.63037 866.55261 4292325528
31.706423 842.63037 866.55261 4294898431
33.467892 842.63037 866.55261 4293450738
40.51376 842.63037 866.55261 4284240233
43.155964 842.63037 866.55261 4279959564
46.678898 842.63037 866.55261 4279571483
49.321102 842.63037 866.55261 4280427042
-13.169725 844.66522 864.34436 4292527044
-10.53578 844.66522 864.34436 4291142563
-7.901835 844.66522 864.34436 4290285451
-4.3899083 844.66522 864.34436 4293181123
-1.7559633 844.66522 864.34436 4293973222
35.119267 844.66522 864.34436 4292794078
37.753212 844.66522 864.34436 4293648881
50.922935 844.66522 864.34436 4279111182
52.678898 844.66522 864.34436 4287717493
54.434864 844.66522 864.34436 4294888930
-19.275229 848.70105 865.1311 4292848552
-16.663303 848.02557 865.86963 4293964215
-13.462386 846.45508 865.85352 4293183696
-10.53578 846.67883 866.04218 4291933380
-7.9018345 846.67883 866.04218 4290618537
-4.682569 846.45508 865.85352 4290750887
-1.7559633 846.00763 865.4762 4293448151
55.56636 846.90643 865.362 4294045438
58.409786 847.80792 864.37811 4293388277
-19.275229 850.04071 866.26074 4292852384
-17.522936 850.04071 866.26074 4293180317
10.601835 841.94641 869.90002 4293976555
12.368808 841.94641 869.90002 4293910761
17.669725 841.94641 869.90002 4293711850
22.087156 841.94641 869.90002 4292330708
25.621101 841.94641 869.90002 4291805360
30.038532 841.94641 869.90002 4294964966
-12.330276 845.32367 868.82361 4293183188
-3.5229359 845.32367 868.82361 4289368730
-1.7614679 845.32367 868.82361 4291342520
0.88073397 843.97705 867.68811 4293383134
4.4036698 843.97705 867.68811 4293250517
7.9266057 843.97705 867.68811 4294106088
14.091743 843.97705 867.68811 4293778919
15.853211 843.97705 867.68811 4293976555
19.376146 843.97705 867.68811 4293448421
28.183487 843.97705 867.68811 4292198833
31.706423 843.97705 867.68811 4294107641
34.348625 843.97705 867.68811 4292463319
37.871559 843.97705 867.68811 4293911785
40.51376 843.97705 867.68811 4281477681
43.155964 843.97705 867.68811 4278715138
