# .PCD v0.7 - Point Cloud Data file format
VERSION 0.7
FIELDS x y z rgb
SIZE 4 4 4 4
TYPE F F F U
COUNT 1 1 1 1
WIDTH 1151
HEIGHT 1
VIEWPOINT 0 0 0 1 0 0 0
POINTS 1151
DATA ascii
-25.257797 799.49109 1289.2972 4288320954
-21.649542 799.49109 1289.2972 4290490593
-19.244038 799.49109 1289.2972 4292265185
-16.838531 799.49109 1289.2972 4292922858
-14.433027 799.49109 1289.2972 4292334053
-33.548622 805.80304 1288.0791 4282726992
-31.152294 805.80304 1288.0791 4283450972
-28.755962 805.80304 1288.0791 4284106839
-26.359632 805.80304 1288.0791 4285883250
-40.737614 807.63507 1289.6239 4290074750
-38.341286 807.63507 1289.6239 4286659411
-34.746788 807.63507 1289.6239 4283903820
-28.755962 807.63507 1289.6239 4284106337
-26.359632 807.63507 1289.6239 4285553783
-22.765137 807.63507 1289.6239 4286407807
-19.170643 807.63507 1289.6239 4286673825
-40.58165 814.82446 1289.1456 4289808982
-38.194496 813.91199 1288.3762 4288825939
-34.613762 813.91199 1288.3762 4286066240
-31.033028 813.91199 1288.3762 4285741139
-28.645872 814.82446 1289.1456 4285680212
-26.258715 815.73694 1289.915 4288112753
-38.077065 820.55072 1288.7417 4287578457
-34.903976 820.854 1288.9974 4288104284
-30.937614 820.55072 1288.7417 4288827485
-28.557798 820.55072 1288.7417 4287123541
-40.300919 827.677 1288.2102 4281740629
-37.930275 827.677 1288.2102 4282005072
-35.559631 827.677 1288.2102 4283123297
-40.300919 829.48938 1289.7384 4282854969
-37.930275 829.48938 1289.7384 4282331984
-34.374313 829.48938 1289.7384 4283517025
-42.50642 837.47626 1289.9326 4280951882
-40.144955 837.47626 1289.9326 4281017675
-30.699083 837.47626 1289.9326 4283451233
-28.337614 837.47626 1289.9326 4283714141
-21.25321 837.47626 1289.9326 4287790743
-18.891743 837.47626 1289.9326 4286741650
-11.80734 837.47626 1289.9326 4292004075
-34.473396 754.83624 1292.1943 4286855257
-32.011009 754.83624 1292.1943 4294953449
-29.548624 754.83624 1292.1943 4294955007
-31.891743 761.34033 1291.1383 4288510118
-29.438532 761.34033 1291.1383 4292918431
-25.758717 761.34033 1291.1383 4293773788
-22.078899 761.34033 1291.1383 4282654818
-31.891743 763.21582 1292.7196 4288847277
-29.438532 763.21582 1292.7196 4288779196
-25.758717 763.21582 1292.7196 4290096086
-22.078899 763.21582 1292.7196 4285689242
-29.32844 767.81641 1290.0586 4292067052
-25.662384 767.81641 1290.0586 4290751947
-21.99633 767.81641 1290.0586 4288318104
-31.772476 769.68494 1291.634 4288722396
-29.32844 769.68494 1291.634 4292463595
-25.662384 769.68494 1291.634 4294241279
-21.99633 769.68494 1291.634 4291676639
-19.552294 769.68494 1291.634 4292004575
-17.108257 769.68494 1291.634 4293188849
-31.653212 776.12592 1290.5248 4286356900
-29.218349 776.12592 1290.5248 4289112011
-25.566055 776.12592 1290.5248 4293650431
-21.913761 776.12592 1290.5248 4291609583
-19.478899 776.12592 1290.5248 4290952919
-17.044037 776.12592 1290.5248 4292466157
-31.653212 777.98743 1292.0944 4287141803
-29.218349 777.98743 1292.0944 4290228182
-25.566055 777.98743 1292.0944 4293846783
-21.913761 777.98743 1292.0944 4291741673
-19.478899 777.98743 1292.0944 4290625234
-17.044037 777.98743 1292.0944 4292138473
-14.609175 777.98743 1292.0944 4292728300
-25.450459 784.92993 1290.1 4293518591
-19.390825 784.92993 1290.1 4290755026
-16.966972 784.92993 1290.1 4292136679
-29.086239 786.78302 1291.6624 4288323804
-26.662386 786.78302 1291.6624 4292140031
-16.966972 786.78302 1291.6624 4291741401
-13.331193 786.78302 1291.6624 4292266466
-31.390825 794.99713 1292.0481 4282534760
-28.976147 794.99713 1292.0481 4285229963
-24.951683 793.76642 1291.0104 4293780991
-21.732111 793.15112 1290.4916 4291874545
-16.902752 794.0741 1291.2698 4291940067
-13.683181 794.38177 1291.5292 4292136931
-45.704586 803.16913 1292.3984 4293029764
-43.299084 803.16913 1292.3984 4291195814
-40.893578 802.24963 1291.6232 4289816471
-37.285324 802.24963 1291.6232 4284037699
-33.677063 801.33008 1290.8479 4281678933
-31.271559 801.33008 1290.8479 4282665828
-28.866055 801.33008 1290.8479 4282991949
-24.85688 801.94312 1291.3647 4285491070
-21.649542 802.24963 1291.6232 4287464610
-19.244038 802.24963 1291.6232 4288451526
-16.838531 802.24963 1291.6232 4292069881
-14.433027 802.24963 1291.6232 4292398049
-4.8110094 803.16913 1292.3984 4292333801
-2.4055047 803.16913 1292.3984 4292399594
4.8110094 803.16913 1292.3984 4292136679
-43.133945 809.46704 1291.1686 4292968097
-40.737614 809.46704 1291.1686 4290994307
-38.341286 809.46704 1291.1686 4288629337
-26.359632 809.46704 1291.1686 4286341750
-22.765137 809.46704 1291.1686 4286602626
-19.170643 809.46704 1291.1686 4286275205
4.7926607 809.46704 1291.1686 4292464356
-43.133945 811.29907 1292.7133 4290992466
-26.359632 811.29907 1292.7133 4286998129
-22.765137 811.29907 1292.7133 4286602119
-19.170643 811.29907 1292.7133 4285684086
-42.968807 817.56201 1291.4539 4287773277
-40.58165 817.56201 1291.4539 4288760428
-33.420185 817.56201 1291.4539 4288235347
-26.258715 817.56201 1291.4539 4288373610
-23.871559 817.56201 1291.4539 4287461012
-42.968807 819.38696 1292.9927 4286657625
-40.58165 819.38696 1292.9927 4286855261
-26.258715 819.38696 1292.9927 4288373349
-23.871559 819.38696 1292.9927 4286674579
-40.456882 823.27979 1291.0428 4284559711
-34.507339 823.27979 1291.0428 4286467943
-30.937614 823.27979 1291.0428 4287256931
-28.557798 823.27979 1291.0428 4286404697
-42.836697 825.09918 1292.5769 4282333022
-33.317432 825.09918 1292.5769 4283189331
-30.937614 825.09918 1292.5769 4283189331
-28.557798 825.09918 1292.5769 4283189581
-26.177982 825.09918 1292.5769 4285821300
-42.671558 832.20795 1292.0306 4286078323
-40.300919 832.20795 1292.0306 4282920258
-37.930275 832.20795 1292.0306 4282791516
-34.374313 833.11414 1292.7947 4283516775
-30.818348 833.11414 1292.7947 4283517539
-28.447706 832.20795 1292.0306 4283845728
-26.077065 833.11414 1292.7947 4285095794
-22.521101 833.11414 1292.7947 4286805901
-18.965137 833.11414 1292.7947 4286742421
-14.223853 832.20795 1292.0306 4288453307
-11.062997 832.51001 1292.2853 4291676390
-43.687157 839.28162 1291.4548 4283900743
-40.144955 839.28162 1291.4548 4284030798
-37.783485 839.28162 1291.4548 4284884299
-33.060551 839.28162 1291.4548 4284695894
-30.699083 839.28162 1291.4548 4284630101
-28.337614 839.28162 1291.4548 4284695656
-25.976147 839.28162 1291.4548 4285485171
-22.433945 839.28162 1291.4548 4287786900
-18.891743 839.28162 1291.4548 4287658907
-16.530275 839.28162 1291.4548 4287198356
-14.168807 839.28162 1291.4548 4288648630
-10.626606 839.28162 1291.4548 4292266984
-7.0844035 839.28162 1291.4548 4291608536
-4.7229357 839.28162 1291.4548 4291608538
-43.687157 841.08698 1292.9771 4288568691
-40.144955 841.08698 1292.9771 4288829301
-37.783485 841.08698 1292.9771 4288630134
-34.241287 841.08698 1292.9771 4287580520
-30.699083 841.08698 1292.9771 4285346887
-28.337614 841.08698 1292.9771 4285151571
-25.976147 841.08698 1292.9771 4285546328
-22.433945 841.08698 1292.9771 4289491576
-18.891743 841.08698 1292.9771 4288577949
-16.530275 841.08698 1292.9771 4287459212
-14.168807 841.08698 1292.9771 4288516531
-10.626606 841.08698 1292.9771 4292200680
-7.0844035 841.08698 1292.9771 4291805662
-4.7229357 841.08698 1292.9771 4291608538
-39.398167 758.60126 1295.3689 4282132543
-36.93578 757.66003 1294.5752 4282725447
-34.473396 757.66003 1294.5752 4284430415
-32.011009 756.71875 1293.7816 4293246140
-28.317432 756.71875 1293.7816 4294759414
-24.623854 756.71875 1293.7816 4294097643
-22.161469 756.71875 1293.7816 4283768141
-19.699083 758.60126 1295.3689 4279897344
-17.236698 758.60126 1295.3689 4285029179
-39.251377 766.9668 1295.8823 4281412683
-36.798164 766.9668 1295.8823 4281939027
-19.625689 765.09131 1294.301 4290161088
-17.172478 765.09131 1294.301 4293779703
-14.719266 766.9668 1295.8823 4293057262
-43.992661 773.42188 1294.7849 4285953931
-39.919266 772.79907 1294.2598 4281545551
-36.660549 773.42188 1294.7849 4281480012
-34.216515 773.42188 1294.7849 4279053877
-31.772476 771.55341 1293.2095 4287144102
-29.32844 771.55341 1293.2095 4290622424
-26.884403 771.55341 1293.2095 4294306815
-19.552294 771.55341 1293.2095 4291872752
-17.108257 771.55341 1293.2095 4293057023
-14.66422 773.42188 1294.7849 4292859632
-31.653212 779.84888 1293.6639 4287468717
-29.218349 779.84888 1293.6639 4290885855
-26.783485 779.84888 1293.6639 4293912319
-13.391743 779.84888 1293.6639 4292267495
-37.740364 781.71033 1295.2334 4283056448
-34.088074 781.71033 1295.2334 4281217880
-31.653212 781.71033 1295.2334 4286941871
-29.218349 781.71033 1295.2334 4289570779
-13.391743 781.71033 1295.2334 4292201702
-33.933945 788.63611 1293.2249 4279315282
-31.510092 788.63611 1293.2249 4285894582
-29.086239 788.63611 1293.2249 4288584675
-9.6954126 788.63611 1293.2249 4292267749
-36.3578 790.48914 1294.7874 4282853452
-33.933945 790.48914 1294.7874 4282133547
-31.510092 790.48914 1294.7874 4285423197
-29.086239 790.48914 1294.7874 4288318143
-12.119267 790.48914 1294.7874 4292071138
-9.6954126 790.48914 1294.7874 4291741923
-36.220184 796.8432 1293.6047 4282002501
-33.805504 796.8432 1293.6047 4280825148
-31.390825 796.8432 1293.6047 4281680457
-28.976147 796.8432 1293.6047 4282071892
-12.073395 796.8432 1293.6047 4292334053
-9.6587152 796.8432 1293.6047 4292267749
-48.293579 798.68921 1295.1613 4287774021
-45.878899 798.68921 1295.1613 4290997878
-43.464222 798.68921 1295.1613 4290674346
-12.073395 798.68921 1295.1613 4292530403
-9.6587152 798.68921 1295.1613 4292333029
-4.8293576 798.68921 1295.1613 4292596709
2.4146788 798.68921 1295.1613 4293122540
-52.921101 806.84717 1295.4998 4288304724
-49.312843 805.92773 1294.7244 4288168777
-45.704586 805.92767 1294.7244 4293296526
-43.299084 805.00818 1293.9491 4292509091
-16.838531 805.92767 1294.7244 4291803620
-13.631192 805.62115 1294.4659 4292069094
-9.6220188 805.92767 1294.7244 4291871967
-7.2165136 805.92767 1294.7244 4292200675
-4.8110094 805.92767 1294.7244 4292200937
-2.4055047 805.92767 1294.7244 4292529646
2.4055047 805.92767 1294.7244 4292792308
4.8110094 805.00818 1293.9491 4292661991
-50.322937 814.96313 1295.8027 4286466883
-45.530273 814.96313 1295.8027 4287183456
-43.133945 813.1311 1294.2579 4288098898
-22.365747 813.74176 1294.7728 4287262607
-19.170643 814.04712 1295.0303 4286212980
-16.774311 814.04712 1295.0303 4289897644
-14.377981 814.04712 1295.0303 4291148509
-9.5853214 814.96313 1295.8027 4291938266
-7.1889906 814.96313 1295.8027 4292004059
-4.7926607 814.96313 1295.8027 4291805660
-42.968807 821.21198 1294.5314 4284691040
-26.258715 821.21198 1294.5314 4287655021
-22.677982 821.21198 1294.5314 4287200153
-45.216515 826.91858 1294.111 4286800503
-42.836697 826.91858 1294.111 4286210412
-30.937614 826.91858 1294.111 4283254622
-28.557798 826.91858 1294.111 4283451996
-26.177982 826.91858 1294.111 4285426042
-14.278899 826.91858 1294.111 4289241537
-11.899082 826.91858 1294.111 4291675878
-45.216515 828.73798 1295.645 4288574083
-34.507339 828.73798 1295.645 4283779174
-30.937614 828.73798 1295.645 4283583586
-26.177982 828.73798 1295.645 4285424759
-22.608257 828.73798 1295.645 4286542990
-16.658716 828.73798 1295.645 4287269789
-9.5192661 828.73798 1295.645 4291807198
-54.524769 836.73889 1295.851 4285022029
-52.154129 835.8327 1295.0869 4284037184
-49.783485 836.73889 1295.851 4284230966
-46.227524 835.8327 1295.0869 4283906887
-37.930275 834.92651 1294.3229 4282331984
-34.769421 835.53058 1294.8322 4283643477
-26.077065 834.92651 1294.3229 4284503657
-23.706423 834.92651 1294.3229 4285948539
-16.594496 834.92651 1294.3229 4286807443
-14.223853 834.92651 1294.3229 4288911548
-9.4825687 834.92651 1294.3229 4292134880
-7.1119266 834.92651 1294.3229 4291608536
-4.7412844 834.92651 1294.3229 4291608536
-43.687157 842.89233 1294.4993 4290417562
-40.144955 842.89233 1294.4993 4290679975
-37.783485 842.89233 1294.4993 4289756075
-34.241287 842.89233 1294.4993 4287782271
-30.699083 842.89233 1294.4993 4286532190
-28.337614 842.89233 1294.4993 4286990942
-25.976147 842.89233 1294.4993 4286990942
-22.433945 842.89233 1294.4993 4289424511
-18.891743 842.89233 1294.4993 4289101211
-16.530275 842.89233 1294.4993 4288443280
-14.168807 842.89233 1294.4993 4288842411
-10.626606 842.89233 1294.4993 4292330980
-7.0844035 842.89233 1294.4993 4292332007
-4.7229357 842.89233 1294.4993 4292003294
-39.398167 760.48376 1296.9562 4283445323
-36.93578 760.48376 1296.9562 4289629865
-34.473396 760.48376 1296.9562 4289768379
-19.699083 760.48376 1296.9562 4287592289
-17.236698 760.48376 1296.9562 4292263592
-14.774312 760.48376 1296.9562 4293580761
-4.9247708 760.48376 1296.9562 4292136931
-39.398167 762.36627 1298.5435 4282659152
-36.93578 762.36627 1298.5435 4289370039
-34.473396 762.36627 1298.5435 4290293453
-32.011009 762.36627 1298.5435 4291872741
-14.774312 762.36627 1298.5435 4293845235
-7.387156 762.36627 1298.5435 4292464358
-4.9247708 762.36627 1298.5435 4292399335
-2.4623854 762.36627 1298.5435 4293057008
-44.157799 768.84229 1297.4637 4281149486
-41.704586 768.84229 1297.4637 4281478195
-36.798164 768.84229 1297.4637 4280492363
-34.344955 768.84229 1297.4637 4278591011
-14.719266 768.84229 1297.4637 4293056757
-48.880733 775.29034 1296.3604 4290554833
-46.436699 775.29034 1296.3604 4290686162
-43.992661 775.29034 1296.3604 4289637285
-40.326607 775.29034 1296.3604 4281413941
-36.660549 775.29034 1296.3604 4281217857
-34.216515 775.29034 1296.3604 4280825675
-12.220183 775.29034 1296.3604 4292596457
-56.212845 777.15887 1297.9358 4286409090
-52.546791 777.15887 1297.9358 4286209647
-48.880733 777.15887 1297.9358 4285752984
-46.436699 777.15887 1297.9358 4290095578
-43.992661 777.15887 1297.9358 4290688731
-40.326607 777.15887 1297.9358 4283513681
-36.660549 777.15887 1297.9358 4283115567
-34.216515 777.15887 1297.9358 4281876312
-9.7761469 777.15887 1297.9358 4292267495
-56.001835 785.43329 1298.3726 4287393391
-52.349541 785.43329 1298.3726 4287656315
-48.697247 784.50256 1297.5878 4286081650
-46.262386 785.43329 1298.3726 4290090405
-43.827522 784.50256 1297.5878 4290751204
-41.392662 784.50256 1297.5878 4290553824
-37.740364 784.50256 1297.5878 4284305517
-34.088074 783.57184 1296.803 4279772238
-31.653212 783.57184 1296.803 4286285745
-9.7394495 783.57184 1296.803 4292530151
-7.3045874 785.43329 1298.3726 4292201700
-4.8697248 785.43329 1298.3726 4292201704
-48.477066 794.19525 1297.9122 4287187792
-46.053211 794.19525 1297.9122 4289293168
-43.629356 794.19525 1297.9122 4288773763
-41.205505 794.19525 1297.9122 4288707970
-37.569725 793.26868 1297.131 4283186531
-33.933945 792.34216 1296.3497 4280495176
-9.6954126 792.34216 1296.3497 4292136931
-4.8477063 794.19525 1297.9122 4292201187
-49.500916 800.53528 1296.7178 4287443518
-12.073395 800.53528 1296.7178 4292068317
-9.6587152 800.53528 1296.7178 4291674331
-7.2440367 800.53528 1296.7178 4292463847
1.2073394 800.53528 1296.7178 4292136173
-62.781651 802.38135 1298.2743 4285613900
-53.122936 802.38135 1298.2743 4287711819
0 802.38135 1298.2743 4292463604
-52.921101 808.68622 1297.0503 4287713616
-49.312843 808.68622 1297.0503 4288236620
-45.704586 808.68622 1297.0503 4290404705
-16.838531 808.68622 1297.0503 4290750147
-13.230275 808.68622 1297.0503 4292070620
-9.6220188 808.68622 1297.0503 4292069600
-7.2165136 808.68622 1297.0503 4291806685
-4.8110094 808.68622 1297.0503 4291937247
-2.4055047 808.68622 1297.0503 4292463847
2.4055047 808.68622 1297.0503 4292463845
4.8110094 808.68622 1297.0503 4292267747
-55.326607 810.52527 1298.601 4287649871
-52.921101 810.52527 1298.601 4287385420
-49.312843 810.52527 1298.601 4287117896
-45.704586 810.52527 1298.601 4287705937
-12.027523 810.52527 1298.601 4291872489
-9.6220188 810.52527 1298.601 4291871708
-7.2165136 810.52527 1298.601 4291871708
-4.8110094 810.52527 1298.601 4291805658
-57.511925 818.62714 1298.8921 4284432207
-55.115597 817.71118 1298.1198 4284891723
-52.719265 817.71118 1298.1198 4285350215
-50.322937 817.71118 1298.1198 4285218886
-46.728439 817.71118 1298.1198 4285675602
-21.566973 816.79517 1297.3474 4287003287
-19.170643 817.71118 1298.1198 4287464611
-16.774311 817.71118 1298.1198 4289503938
-14.377981 817.71118 1298.1198 4290095820
-10.783486 817.71118 1298.1198 4291938788
-7.1889906 817.71118 1298.1198 4291610075
-4.7926607 817.71118 1298.1198 4291805402
-52.517429 823.94946 1296.8396 4284236881
-50.130276 823.94946 1296.8396 4283973708
-47.743118 823.94946 1296.8396 4284237399
-22.677982 823.94952 1296.8396 4286411920
-14.322936 823.03699 1296.0702 4289832388
-9.548624 824.862 1297.609 4291610335
-7.161468 824.862 1297.609 4291544542
-4.774312 824.862 1297.609 4291740890
-46.406422 830.55737 1297.1791 4288251001
-16.658716 830.55737 1297.1791 4287334301
-7.1394496 830.55737 1297.1791 4291477463
-4.7596331 830.55737 1297.1791 4291542741
-57.115597 832.37677 1298.7131 4284829022
-54.735779 832.37677 1298.7131 4284631900
-49.976147 832.37677 1298.7131 4283843401
-47.596329 832.37677 1298.7131 4284832858
-54.524769 838.55127 1297.3792 4287781739
-52.154129 838.55127 1297.3792 4288307565
-49.783485 838.55127 1297.3792 4288504945
-47.412846 838.55127 1297.3792 4288834682
-2.3706422 838.55127 1297.3792 4292069089
-64.007339 840.36365 1298.9072 4287522438
-61.636696 840.36365 1298.9072 4287588987
-54.524769 840.36365 1298.9072 4288840062
-52.154129 840.36365 1298.9072 4289300109
-49.783485 840.36365 1298.9072 4289300109
-47.412846 840.36365 1298.9072 4290023821
-2.3706422 840.36365 1298.9072 4292332259
-63.759632 844.69769 1296.0215 4289501096
-43.687157 844.69769 1296.0215 4290487985
-40.144955 844.69769 1296.0215 4290750901
-37.783485 844.69769 1296.0215 4291078847
-34.241287 844.69769 1296.0215 4291669432
-30.699083 844.69769 1296.0215 4292194481
-28.337614 844.69769 1296.0215 4292717245
-25.976147 844.69769 1296.0215 4292388281
-22.433945 844.69769 1296.0215 4289494940
-18.891743 844.69769 1296.0215 4288571001
-16.530275 844.69769 1296.0215 4289163394
-14.168807 844.69769 1296.0215 4289233314
-10.626606 844.69769 1296.0215 4292658146
-7.0844035 844.69769 1296.0215 4291740640
-4.7229357 844.69769 1296.0215 4291478235
-2.3614678 844.69769 1296.0215 4291806944
-43.687157 846.50305 1297.5438 4289765545
-40.144955 846.50305 1297.5438 4289436065
-37.783485 846.50305 1297.5438 4290619299
-34.241287 846.50305 1297.5438 4291341993
-30.699083 846.50305 1297.5438 4292657081
-28.337614 846.50305 1297.5438 4292590021
-25.976147 846.50305 1297.5438 4292524228
-22.433945 846.50305 1297.5438 4290085062
-18.891743 846.50305 1297.5438 4288903025
-16.530275 846.50305 1297.5438 4288771183
-14.168807 846.50305 1297.5438 4288053401
-10.626606 846.50305 1297.5438 4292002779
-7.0844035 846.50305 1297.5438 4291544540
-46.959633 755.86212 1299.5995 4282201672
-43.252296 755.86212 1299.5995 4282069065
-13.593578 755.86212 1299.5995 4291669923
-9.8862381 755.86212 1299.5995 4293184754
-7.4146791 755.86212 1299.5995 4293316340
-4.943119 755.86212 1299.5995 4292464356
-46.959633 757.75165 1301.1926 4282006871
-43.252296 757.75165 1301.1926 4282003778
-12.357799 757.75165 1301.1926 4293449175
-9.8862381 757.75165 1301.1926 4292858087
-7.4146791 757.75165 1301.1926 4292660708
-2.4715595 757.75165 1301.1926 4292399846
-44.322937 764.24878 1300.1307 4280492583
-41.86055 764.24878 1300.1307 4281940029
-34.473396 764.24878 1300.1307 4281156200
-7.387156 764.24878 1300.1307 4292465128
-4.9247708 764.24878 1300.1307 4292595946
-2.4623854 764.24878 1300.1307 4292530153
-51.710091 766.13135 1301.718 4289960643
-49.247707 766.13135 1301.718 4288910757
-46.78532 766.13135 1301.718 4283384145
-7.387156 766.13135 1301.718 4292859884
-51.517429 770.71783 1299.0452 4289766084
-49.06422 770.71783 1299.0452 4291081942
-46.611008 770.71783 1299.0452 4289634496
-12.266055 770.71783 1299.0452 4292728046
-61.330276 772.59332 1300.6265 4285488492
-58.877064 772.59332 1300.6265 4285948539
-56.423855 772.59332 1300.6265 4286803848
-52.744034 772.59332 1300.6265 4288382353
-9.8128443 772.59332 1300.6265 4292465130
-7.359633 772.59332 1300.6265 4293057010
-4.9064221 772.59332 1300.6265 4292729581
-2.4532111 772.59332 1300.6265 4292597995
-56.212845 779.02734 1299.5114 4286670465
-52.546791 779.02734 1299.5114 4285749611
-48.880733 779.02734 1299.5114 4284439897
-46.436699 779.02734 1299.5114 4289769387
-43.992661 779.02734 1299.5114 4290622182
-41.548622 779.02734 1299.5114 4287266739
-9.7761469 779.02734 1299.5114 4292333288
-63.544952 780.89581 1301.0868 4286737775
-61.100918 780.89581 1301.0868 4287264119
-58.656879 780.89581 1301.0868 4287327373
-56.212845 780.89581 1301.0868 4287064458
-52.546791 780.89581 1301.0868 4287132284
-46.436699 780.89581 1301.0868 4288455073
-7.3321099 780.89581 1301.0868 4292333029
-4.8880734 780.89581 1301.0868 4292135141
-2.4440367 780.89581 1301.0868 4292529899
-56.001835 787.2948 1299.942 4285481798
-52.349541 787.2948 1299.942 4286533203
-48.697247 787.2948 1299.942 4287452510
-46.262386 787.2948 1299.942 4288768114
-43.827522 787.2948 1299.942 4289493152
-41.392662 787.2948 1299.942 4290019496
-38.957798 787.2948 1299.942 4288577699
-7.3045874 787.2948 1299.942 4292202474
-4.8697248 787.2948 1299.942 4292334055
-2.4348624 787.2948 1299.942 4292136677
-63.306423 789.15625 1301.5116 4284493888
-60.871559 789.15625 1301.5116 4285283148
-56.001835 789.15625 1301.5116 4285939787
-52.349541 789.15625 1301.5116 4286662716
-48.697247 789.15625 1301.5116 4287255382
-46.262386 789.15625 1301.5116 4287715933
-43.827522 789.15625 1301.5116 4288312644
-41.392662 789.15625 1301.5116 4289365332
-38.957798 789.15625 1301.5116 4286278045
-7.3045874 789.15625 1301.5116 4292597482
-4.8697248 789.15625 1301.5116 4292465126
-2.4348624 789.15625 1301.5116 4292662505
-64.232109 797.90137 1301.0371 4285744974
-53.324772 797.90137 1301.0371 4287252554
-50.900917 796.04828 1299.4746 4286265670
-7.2715597 796.04828 1299.4746 4292595944
-2.4238532 796.04828 1299.4746 4292728296
0 796.04828 1299.4746 4292596196
-65.196327 806.07336 1301.3873 4284825929
-61.976757 805.45801 1300.8685 4285811278
-57.952293 805.15039 1300.6091 4287188294
-55.537613 805.15039 1300.6091 4287846224
-12.073395 804.22736 1299.8308 4291938532
0 805.15039 1300.6091 4292068577
-57.732109 812.36426 1300.1516 4287059790
-55.326607 812.36426 1300.1516 4287322705
-52.921101 812.36426 1300.1516 4286927434
-48.110092 812.36426 1300.1516 4286986077
-12.027523 812.36426 1300.1516 4291938280
-2.4055047 812.36426 1300.1516 4292069089
4.8110094 812.36426 1300.1516 4291741403
-61.340366 814.20331 1301.7021 4285677383
-57.732109 814.20331 1301.7021 4285022531
-2.4055047 814.20331 1301.7021 4292265696
2.4055047 814.20331 1301.7021 4292332007
4.8110094 814.20331 1301.7021 4291742173
-58.710091 820.45917 1300.4368 4283843150
-55.115597 820.45917 1300.4368 4283908945
-45.530273 820.45917 1300.4368 4283187536
-19.170643 820.45917 1300.4368 4286673556
-16.774311 820.45917 1300.4368 4289107898
-10.783486 820.45917 1300.4368 4291412191
-7.1889906 820.45917 1300.4368 4291544290
-4.7926607 820.45917 1300.4368 4291675610
-2.3963304 820.45917 1300.4368 4291741403
-62.304588 822.2912 1301.9814 4284893523
-58.710091 822.2912 1301.9814 4285091156
-55.115597 822.2912 1301.9814 4285485912
-19.170643 822.2912 1301.9814 4285952133
-16.774311 822.2912 1301.9814 4287926179
-2.3963304 822.2912 1301.9814 4291806683
-54.904587 826.68701 1299.1478 4286867065
-52.517429 826.68701 1299.1478 4286802551
-50.130276 826.68701 1299.1478 4286736758
-47.743118 826.68701 1299.1478 4287784824
-19.097248 826.68701 1299.1478 4286019978
-7.161468 826.68701 1299.1478 4291412440
-4.774312 826.68701 1299.1478 4291542995
-58.485321 828.51196 1300.6866 4285879146
-54.904587 828.51196 1300.6866 4287656593
-52.517429 828.51196 1300.6866 4287395958
-50.130276 828.51196 1300.6866 4287527544
-2.387156 828.51196 1300.6866 4291937499
-64.255043 835.10583 1301.0142 4284693063
-61.875229 835.10583 1301.0142 4285348426
-58.305504 835.10583 1301.0142 4286072662
-2.3798165 834.19617 1300.2472 4291937247
1.1899083 836.0155 1301.7812 4291872478
-61.636696 842.17603 1300.4354 4289434273
-59.266056 842.17603 1300.4354 4289171101
-55.710091 842.17603 1300.4354 4289566111
-52.154129 842.17603 1300.4354 4290094511
-49.783485 842.17603 1300.4354 4290028718
-47.412846 842.17603 1300.4354 4289962152
-64.007339 843.9884 1301.9636 4289699507
-61.636696 843.9884 1301.9636 4289499564
-59.266056 843.9884 1301.9636 4288973220
-55.710091 843.9884 1301.9636 4289633185
-52.154129 843.9884 1301.9636 4289897139
-49.783485 843.9884 1301.9636 4289897139
-47.412846 843.9884 1301.9636 4289897389
-4.7412844 843.9884 1301.9636 4291544028
-2.3706422 843.9884 1301.9636 4291872737
-42.50642 848.30841 1299.066 4288976289
-40.144955 848.30841 1299.066 4289107618
-37.783485 848.30841 1299.066 4289105056
-34.241287 848.30841 1299.066 4288776083
-30.699083 848.30841 1299.066 4288776075
-51.902752 761.5307 1304.379 4289106351
-49.431194 761.5307 1304.379 4286216076
-46.959633 760.58594 1303.5825 4281083456
-43.252296 759.64117 1302.7859 4281610814
-12.357799 760.58594 1303.5825 4292990697
-9.8862381 760.58594 1303.5825 4292464871
0 759.64117 1302.7859 4292662503
-55.403671 768.01379 1303.3053 4285820033
-9.8495417 768.01379 1303.3053 4292465128
-7.387156 768.01379 1303.3053 4292794093
-4.9247708 768.01379 1303.3053 4292006889
-2.4623854 768.01379 1303.3053 4291941096
0 769.89636 1304.8926 4292531689
4.9247708 769.89636 1304.8926 4292595944
7.387156 769.89636 1304.8926 4292530151
-61.330276 775.40662 1302.9985 4288644745
-58.877064 775.40662 1302.9985 4288447646
-7.359633 775.40662 1302.9985 4292464874
-4.9064221 775.40662 1302.9985 4292399595
-2.4532111 775.40662 1302.9985 4292268266
1.2266055 776.34436 1303.7893 4292399594
4.9064221 776.34436 1303.7893 4292530153
7.359633 775.40662 1302.9985 4292464617
-63.544952 782.76428 1302.6622 4287129969
-61.100918 782.76428 1302.6622 4287524727
-58.656879 782.76428 1302.6622 4287393391
-2.4440367 782.76428 1302.6622 4292399083
-63.544952 784.63281 1304.2377 4284625988
-61.100918 784.63281 1304.2377 4285218125
-58.656879 784.63281 1304.2377 4285284676
1.2220184 784.63281 1304.2377 4292004321
-63.306423 791.0177 1303.0812 4284823619
-60.871559 791.0177 1303.0812 4285810514
-56.001835 791.0177 1303.0812 4286204231
-52.349541 791.0177 1303.0812 4286399039
-7.3045874 791.0177 1303.0812 4292465128
-2.4348624 791.0177 1303.0812 4292595944
2.4348624 791.0177 1303.0812 4292596198
-64.523857 792.87921 1304.6508 4285088071
-60.871559 792.87921 1304.6508 4285810768
-58.436699 792.87921 1304.6508 4286531654
-56.001835 792.87921 1304.6508 4286531654
-53.566971 792.87921 1304.6508 4286726221
4.8697248 792.87921 1304.6508 4292333288
7.3045874 792.87921 1304.6508 4292267495
-65.444038 799.75439 1302.5996 4285219660
-55.748623 799.75439 1302.5996 4287122510
-65.444038 801.60742 1304.162 4284826181
-60.596329 801.60742 1304.162 4285547593
-65.196327 808.84247 1303.7222 4286075743
-61.57431 808.84247 1303.7222 4286798676
-57.952293 807.91943 1302.9438 4287518542
-2.4146788 807.91943 1302.9438 4292069087
1.6097859 809.15015 1303.9816 4292200673
4.8293576 807.91943 1302.9438 4291675356
-64.948624 816.96185 1304.0281 4283710795
-61.741283 816.65533 1303.7697 4284301647
-2.4055047 816.04236 1303.2528 4292003294
2.4055047 817.88135 1304.8035 4291873250
4.8110094 816.96185 1304.0281 4291807966
7.2165136 816.96185 1304.0281 4291807966
-62.304588 824.12317 1303.5262 4285811027
-58.710091 824.12317 1303.5262 4286141795
-2.3963304 824.12317 1303.5262 4291674581
-62.066055 830.33698 1302.2253 4283707455
-59.678898 830.33698 1302.2253 4284299335
-2.387156 830.33698 1302.2253 4291937501
2.387156 832.16199 1303.7642 4291609049
-58.305504 837.8349 1303.3153 4288510593
1.1899083 838.74463 1304.0824 4291938014
4.7596331 838.74463 1304.0823 4291938526
7.1394496 838.74463 1304.0823 4292004319
10.709173 838.74463 1304.0823 4291872989
14.278899 839.6543 1304.8494 4291872737
-71.119263 845.80078 1303.4917 4289702840
-67.563309 845.80078 1303.4917 4288845997
-64.007339 845.80078 1303.4917 4288844208
-61.636696 845.80078 1303.4917 4289367461
-54.524769 845.80078 1303.4917 4289764517
-52.154129 845.80078 1303.4917 4289306033
-49.783485 845.80078 1303.4917 4289503155
-46.227524 845.80078 1303.4917 4289241775
-28.447706 845.80078 1303.4917 4288578962
-26.077065 845.80078 1303.4917 4289368478
-22.521101 845.80078 1303.4917 4291601860
-18.965137 845.80078 1303.4917 4291998915
-16.594496 845.80078 1303.4917 4290222760
-14.223853 845.80078 1303.4917 4287070868
-10.667891 845.80078 1303.4917 4290755793
-7.1119266 845.80078 1303.4917 4291348192
-4.7412844 845.80078 1303.4917 4291412699
-2.3706422 845.80078 1303.4917 4291610335
0 754.47314 1306.2765 4292531689
-52.133945 756.37109 1307.8767 4281933428
-49.651375 756.37109 1307.8767 4281148482
2.4825687 756.37109 1307.8767 4292465380
-54.374313 763.42023 1305.9723 4288645039
-12.357799 763.42023 1305.9723 4292859634
-9.8862381 763.42023 1305.9723 4292662505
-4.943119 763.42023 1305.9723 4292399594
-2.4715595 763.42023 1305.9723 4292202472
0 765.30975 1307.5654 4292399848
1.2311927 771.77887 1306.4799 4292465642
4.9247708 771.77887 1306.4799 4292004579
1.2266055 778.21985 1305.3706 4292596457
4.9064221 778.21985 1305.3706 4292661991
7.359633 778.21985 1305.3706 4292661991
9.8128443 778.21985 1305.3706 4292595431
1.2266055 780.09534 1306.952 4292465126
4.9064221 780.09534 1306.952 4292465126
7.359633 780.09534 1306.952 4292662505
9.8128443 780.09534 1306.952 4292596711
-58.656879 787.43555 1306.6008 4286071625
0.81467891 787.12408 1306.3383 4292267234
4.8880734 788.36975 1307.3887 4292069602
7.3321099 788.36975 1307.3887 4292464360
-60.871559 794.74066 1306.2202 4286138445
-56.001835 794.74066 1306.2202 4286990924
-60.871559 796.60217 1307.7898 4285613900
-58.436699 796.60217 1307.7898 4286727752
-67.867889 803.46051 1305.7245 4285089357
0 805.3136 1307.2869 4292003807
-70.025688 811.61151 1306.057 4284499808
-65.196327 811.61151 1306.057 4285481042
0 811.61151 1306.057 4292134628
-70.025688 813.45758 1307.6135 4283710800
-67.611008 813.45758 1307.6135 4283906374
1.2073394 813.45758 1307.6135 4292069353
-69.759636 820.63989 1307.1294 4283844696
-67.354126 820.63989 1307.1294 4285089884
-64.948624 820.63989 1307.1294 4285353056
1.2027524 820.63995 1307.1294 4292003292
4.8110094 820.63989 1307.1294 4291937755
7.2165136 820.63989 1307.1294 4291937498
9.6220188 821.55945 1307.9047 4291609051
-67.097244 827.78723 1306.6156 4284895069
-64.70092 827.78723 1306.6156 4283645003
-62.304588 825.9552 1305.0709 4285089108
1.5975536 827.17657 1306.1007 4291806425
4.7926607 826.87122 1305.8433 4291345880
4.774312 833.987 1305.303 4291937501
7.161468 833.987 1305.303 4291937501
10.742202 833.987 1305.303 4291805658
1.1899083 841.47369 1306.3834 4291938014
4.7596331 841.47369 1306.3834 4291938014
7.1394496 841.47369 1306.3834 4292267236
14.278899 841.47369 1306.3834 4291806946
16.658716 841.47369 1306.3834 4291675104
-58.305504 843.29309 1307.9175 4289566117
1.1899083 843.29309 1307.9175 4291741403
4.7596331 843.29309 1307.9175 4291674842
7.1394496 843.29309 1307.9175 4291740636
10.709174 843.29309 1307.9175 4291674842
14.278899 843.29309 1307.9175 4292003807
16.658716 843.29309 1307.9175 4291740636
-73.489906 847.61316 1305.0199 4289898165
-71.119263 847.61316 1305.0199 4289766834
-67.563309 847.61316 1305.0199 4289107629
-64.007339 847.61316 1305.0199 4288975283
-49.783485 847.61316 1305.0199 4288845482
-46.227524 847.61316 1305.0199 4289437104
-42.671558 847.61316 1305.0199 4289633703
-40.300919 847.61316 1305.0199 4289567654
-37.930275 847.61316 1305.0199 4288906662
-34.374313 847.61316 1305.0199 4288643739
-30.818348 847.61316 1305.0199 4287854471
-28.447706 847.61316 1305.0199 4288053118
-26.077065 847.61316 1305.0199 4288974220
-22.521101 847.61316 1305.0199 4290685104
-18.965137 847.61316 1305.0199 4291671510
-16.594496 847.61316 1305.0199 4290816201
-14.223853 847.61316 1305.0199 4289438888
-10.667891 847.61316 1305.0199 4291281099
-7.1119266 847.61316 1305.0199 4291544278
-4.7412844 847.61316 1305.0199 4291412186
-2.3706422 847.61316 1305.0199 4291741151
-73.489906 849.42554 1306.5481 4288514982
-71.119263 849.42554 1306.5481 4288315020
-68.748627 849.42554 1306.5481 4288315020
-46.227524 849.42554 1306.5481 4288711078
-42.671558 849.42554 1306.5481 4289698222
-40.300919 849.42554 1306.5481 4289040549
-37.930275 849.42554 1306.5481 4288117146
-34.374313 849.42554 1306.5481 4288775324
-30.818348 849.42554 1306.5481 4288709778
-26.077065 849.42554 1306.5481 4289434519
-54.616512 758.26904 1309.4771 4289303986
0 758.26904 1309.4771 4292464358
2.4715595 767.19928 1309.1587 4292597482
4.9064221 781.97083 1308.5333 4292202724
7.359633 781.97083 1308.5333 4292202724
4.9064221 783.84631 1310.1147 4292267747
7.359633 783.84631 1310.1147 4292267747
-58.656879 792.10675 1310.5396 4286661959
-68.176147 798.46362 1309.3594 4285089609
-70.29174 807.16663 1308.8494 4286799984
-67.867889 808.09314 1309.6306 4285811035
-67.611008 815.30359 1309.17 4283252044
0 815.30359 1309.17 4291544542
9.6587152 817.14966 1310.7266 4291807196
-67.354126 823.39844 1309.4553 4285682021
-64.948624 823.39844 1309.4553 4285353057
0 823.39844 1309.4553 4291806681
7.2165136 823.39844 1309.4553 4291805660
9.6220188 823.39844 1309.4553 4291938014
0 829.61926 1308.1604 4291740636
4.7926607 829.61926 1308.1604 4291674842
7.1889906 829.61926 1308.1604 4291740636
10.742202 839.46198 1309.9193 4291675610
-61.875229 845.11249 1309.4515 4289435554
-58.305504 845.11249 1309.4515 4289435810
-54.735779 845.11249 1309.4515 4289436065
-52.355965 845.11249 1309.4515 4289174447
1.1899083 845.11249 1309.4515 4291740887
4.7596331 845.11249 1309.4515 4291805658
7.1394496 845.11249 1309.4515 4291805658
10.709174 845.11249 1309.4515 4291674843
14.278899 845.11249 1309.4515 4291675094
-66.634865 846.93188 1310.9856 4288448157
-64.255043 846.93188 1310.9856 4290027190
-61.875229 846.93188 1310.9856 4289963447
-59.495415 846.93188 1310.9856 4289765812
-49.976147 846.93188 1310.9856 4288909488
-28.557798 846.93188 1310.9856 4288645259
-22.608257 846.93188 1310.9856 4289437354
-19.038532 846.93188 1310.9856 4289503937
-16.658716 846.93188 1310.9856 4289043386
-14.278899 846.93188 1310.9856 4290225068
-10.709174 846.93188 1310.9856 4292529370
-7.1394496 846.93188 1310.9856 4291806681
-4.7596331 846.93188 1310.9856 4291279837
-2.3798165 846.93188 1310.9856 4291608801
2.3798165 846.93188 1310.9856 4291608790
4.7596331 846.93188 1310.9856 4291476948
7.1394496 846.93188 1310.9856 4291805912
10.709174 846.93188 1310.9856 4291741149
14.278899 846.93188 1310.9856 4291280087
2.4917431 755.5509 1313.7253 4292464358
-57.099083 760.16699 1311.0774 4287595408
1.2412844 760.16699 1311.0774 4292530921
-59.58165 762.06494 1312.6776 4284242273
2.4825687 762.06494 1312.6776 4292794606
4.9651375 762.06494 1312.6776 4292793832
-70.611008 802.18652 1312.4984 4286337889
-68.176147 802.18652 1312.4984 4285944666
7.2165136 825.23749 1311.006 4291675104
9.6220188 826.15698 1311.7812 4291741149
-42.836697 848.75128 1312.5198 4289298854
-40.456882 848.75128 1312.5198 4289101474
-38.077065 848.75128 1312.5198 4288708000
-34.507339 848.75128 1312.5198 4289038750
-30.937614 848.75128 1312.5198 4289500829
-28.557798 848.75128 1312.5198 4289173152
-26.177982 848.75128 1312.5198 4289041310
-22.608257 848.75128 1312.5198 4289568172
-19.038532 848.75128 1312.5198 4289372591
-16.658716 848.75128 1312.5198 4288977834
-14.278899 848.75128 1312.5198 4289831094
-10.709174 848.75128 1312.5198 4292529376
-7.1394496 848.75128 1312.5198 4292069337
-4.7596331 848.75128 1312.5198 4292133608
-2.3798165 848.75128 1312.5198 4292397037
4.7596331 848.75128 1312.5198 4291675610
9.5192661 848.75128 1312.5198 4291741403
14.278899 848.75128 1312.5198 4291478235
16.658716 848.75128 1312.5198 4291544028
4.9834862 757.45593 1315.3315 4292661991
-57.291744 844.93701 1314.5358 4289436084
-54.904587 844.93701 1314.5358 4289567669
-52.517429 844.93701 1314.5358 4289567417
0 844.93701 1314.5358 4291345361
-74.001831 846.76196 1316.0745 4288252578
-70.421097 846.76196 1316.0745 4287594377
-66.84037 846.76196 1316.0745 4287923612
-64.453209 846.76196 1316.0745 4289831609
-62.066055 846.76196 1316.0745 4289963195
-58.485321 846.76196 1316.0745 4290225089
-54.904587 846.76196 1316.0745 4290684617
-52.517429 846.76196 1316.0745 4290157758
-50.130276 846.76196 1316.0745 4289368242
-46.549541 846.76196 1316.0745 4289433767
1.193578 846.76196 1316.0745 4292003798
7.161468 846.76196 1316.0745 4291544024
11.93578 846.76196 1316.0745 4291872989
16.658716 850.57068 1314.0537 4291478746
-69.227524 848.58698 1317.6133 4288978347
-64.453209 848.58698 1317.6133 4289372591
-59.678898 848.58698 1317.6133 4289568951
-42.968807 848.58698 1317.6133 4289624988
-40.58165 848.58698 1317.6133 4289624988
-38.194496 848.58698 1317.6133 4289035931
-34.613762 848.58698 1317.6133 4290157490
-31.033028 848.58698 1317.6133 4289897652
-28.645872 848.58698 1317.6133 4289634481
-26.258715 848.58698 1317.6133 4289437101
-22.677982 848.58698 1317.6133 4289043374
-19.097248 848.58698 1317.6133 4289174447
-16.710093 848.58698 1317.6133 4288121502
-14.322936 848.58698 1317.6133 4288316054
-10.742202 848.58698 1317.6133 4290685894
-7.161468 848.58698 1317.6133 4290226635
-4.774312 848.58698 1317.6133 4290816705
-2.387156 848.58698 1317.6133 4292593116
4.774312 848.58698 1317.6133 4291875028
7.161468 848.58698 1317.6133 4291743186
10.742202 848.58698 1317.6133 4291216844
14.322936 848.58698 1317.6133 4291544540
16.710093 850.41199 1319.1521 4291871706
-74.28624 846.10736 1322.0627 4289699503
-71.889908 846.10736 1322.0627 4289241775
-67.097244 846.10736 1322.0627 4289174956
-62.304588 846.10736 1322.0627 4289503157
-57.511925 846.10736 1322.0627 4289827510
-55.115597 846.10736 1322.0627 4289432752
-52.719265 846.10736 1322.0627 4289562275
-50.322937 846.10736 1322.0627 4290483377
-46.728439 846.10736 1322.0627 4289893289
1.1981652 846.10736 1322.0627 4292071134
-76.682571 847.93939 1323.6074 4287924360
-74.28624 847.93939 1323.6074 4289635234
-70.691742 847.93939 1323.6074 4289241269
-67.097244 847.93939 1323.6074 4289306294
-64.70092 847.93939 1323.6074 4289240501
-62.304588 847.93939 1323.6074 4289633710
-58.710091 847.93939 1323.6074 4289566383
-55.115597 847.93939 1323.6074 4288511904
-52.719265 847.93939 1323.6074 4289039254
-50.322937 847.93939 1323.6074 4290157478
-46.728439 847.93939 1323.6074 4289301917
-43.133945 847.93939 1323.6074 4289034382
-40.737614 847.93939 1323.6074 4289363347
-38.341286 847.93939 1323.6074 4289169566
-34.746788 847.93939 1323.6074 4290487739
-31.152294 847.93939 1323.6074 4290028988
-28.755962 847.93939 1323.6074 4289634996
-26.359632 847.93939 1323.6074 4289569203
-22.765137 847.93939 1323.6074 4289043379
-19.170643 847.93939 1323.6074 4289305781
-16.774311 847.93939 1323.6074 4288121506
-14.377981 847.93939 1323.6074 4287399049
-10.783486 847.93939 1323.6074 4289044147
-7.1889906 847.93939 1323.6074 4288452282
-4.7926607 847.93939 1323.6074 4288981134
-2.3963304 847.93939 1323.6074 4289770650
4.7926607 847.93939 1323.6074 4292070593
7.1889906 847.93939 1323.6074 4292399557
10.783486 847.93939 1323.6074 4291741625
14.377981 847.93939 1323.6074 4292069341
-55.115597 849.77142 1325.1521 4289696175
-52.719265 849.77142 1325.1521 4289830310
-46.728439 849.77142 1325.1521 4288841382
-43.133945 849.77142 1325.1521 4289362832
-40.737614 849.77142 1325.1521 4290218141
-38.341286 849.77142 1325.1521 4290157226
-34.746788 849.77142 1325.1521 4290160056
-31.152294 849.77142 1325.1521 4289241785
-28.755962 849.77142 1325.1521 4288518827
-26.359632 849.77142 1325.1521 4288847792
-22.765137 849.77142 1325.1521 4288846511
-19.170643 849.77142 1325.1521 4289568699
-16.774311 849.77142 1325.1521 4288516010
-14.377981 849.77142 1325.1521 4287465861
-10.783486 849.77142 1325.1521 4288520107
-7.1889906 849.77142 1325.1521 4288127163
-4.7926607 849.77142 1325.1521 4285434783
-2.3963304 849.77142 1325.1521 4284382095
14.377981 849.77142 1325.1521 4292396251
16.774311 849.77142 1325.1521 4292659422
1.2027524 845.4668 1328.0627 4291412942
-16.774311 851.60339 1326.6968 4288779437
-10.783486 851.60339 1326.6968 4288716463
-7.1889906 851.60339 1326.6968 4289309374
16.774311 851.60339 1326.6968 4292528866
19.170643 851.60339 1326.6968 4292331743
-76.976151 847.30579 1329.6134 4288384915
-73.367889 847.30579 1329.6134 4288978345
-69.759636 847.30579 1329.6134 4288124587
-67.354126 847.30579 1329.6134 4288450985
-64.948624 847.30579 1329.6134 4288450985
-61.340366 847.30579 1329.6134 4289105572
-57.732109 847.30579 1329.6134 4289169831
-50.515594 847.30579 1329.6134 4289764517
1.2027524 847.30579 1329.6134 4285229452
4.8110094 847.30579 1329.6134 4288775814
7.2165136 847.30579 1329.6134 4289762709
9.6220188 847.30579 1329.6134 4291473063
12.027523 847.30579 1329.6134 4292722874
-76.976151 849.14484 1331.1641 4288912554
-74.570641 849.14484 1331.1641 4289570484
-69.759636 849.14484 1331.1641 4288715179
-67.354126 849.14484 1331.1641 4288582574
-64.948624 849.14484 1331.1641 4288253352
-62.543118 849.14484 1331.1641 4288579996
-57.732109 849.14484 1331.1641 4288908206
-55.326607 849.14484 1331.1641 4290421446
-52.921101 849.14484 1331.1641 4289829812
-49.312843 849.14484 1331.1641 4289434287
-45.704586 849.14484 1331.1641 4289236141
-43.299084 849.14484 1331.1641 4289303205
-40.893578 849.14484 1331.1641 4289763756
-37.285324 849.14484 1331.1641 4289567917
-33.677063 849.14484 1331.1641 4289437110
-31.271559 849.14484 1331.1641 4289042608
-28.866055 849.14484 1331.1641 4288845993
-25.257797 849.14484 1331.1641 4289109165
-21.649542 849.14484 1331.1641 4289240751
-19.244038 849.14484 1331.1641 4289634746
-14.433027 849.14484 1331.1641 4287465878
-4.8110094 849.14484 1331.1641 4287403206
-2.4055047 849.14484 1331.1641 4286284724
4.8110094 849.14484 1331.1641 4285951101
7.2165136 849.14484 1331.1641 4288385442
9.6220188 849.14484 1331.1641 4290358942
13.230275 849.14484 1331.1641 4291345342
-52.921101 850.98389 1332.7146 4289500848
-49.312843 850.98389 1332.7146 4289369774
-45.704586 850.98389 1332.7146 4289501359
-43.299084 850.98389 1332.7146 4288978349
-40.893578 850.98389 1332.7146 4287530903
-37.285324 850.98389 1332.7146 4287660440
-33.677063 850.98389 1332.7146 4287724437
-31.271559 850.98389 1332.7146 4287987608
-28.866055 850.98389 1332.7146 4287530387
-25.257797 850.98389 1332.7146 4289043370
-21.649542 850.98389 1332.7146 4290096058
-19.244038 850.98389 1332.7146 4290226894
-16.838531 850.98389 1332.7146 4288845241
-13.230275 850.98389 1332.7146 4288320151
-9.6220188 850.98389 1332.7146 4289504702
-7.2165136 850.98389 1332.7146 4289373373
-4.8110094 850.98389 1332.7146 4288189374
-2.4055047 850.98389 1332.7146 4286873770
14.433027 850.98389 1332.7146 4284963452
16.838531 850.98389 1332.7146 4285950347
19.244038 850.98389 1332.7146 4289300132
-9.6220188 852.82288 1334.2653 4287861940
-2.4055047 852.82288 1334.2653 4284967053
-61.171864 847.91699 1336.6688 4288646056
-57.952293 848.53235 1337.1876 4289566122
-55.537613 848.53235 1337.1876 4289697709
1.2073394 847.60931 1336.4094 4283653242
4.8293576 848.53235 1337.1876 4282337380
7.2440367 848.53235 1337.1876 4283455862
9.6587152 848.53235 1337.1876 4283915377
12.073395 848.53235 1337.1876 4283652462
-72.715599 844.22778 1340.0984 4288715179
-53.122936 850.37842 1338.7441 4289370795
-48.293579 850.37842 1338.7441 4289305511
-45.878899 850.37842 1338.7441 4289371560
-43.464222 850.37842 1338.7441 4288781484
-41.049541 850.37842 1338.7441 4286807693
-37.427521 850.37842 1338.7441 4285622931
-33.805504 850.37842 1338.7441 4287329924
-31.390825 850.37842 1338.7441 4287527559
-28.976147 850.37842 1338.7441 4287661194
-25.35413 850.37842 1338.7441 4289437863
-21.732111 850.37842 1338.7441 4290424759
-19.31743 850.37842 1338.7441 4290292426
-16.902752 850.37842 1338.7441 4288976309
-13.280734 850.37842 1338.7441 4288714912
-7.2440367 850.37842 1338.7441 4286546336
-4.8293576 850.37842 1338.7441 4286151326
1.2073394 850.37842 1338.7441 4284898919
4.8293576 850.37842 1338.7441 4284438143
7.2440367 850.37842 1338.7441 4284043386
9.6587152 850.37842 1338.7441 4283780979
13.280734 850.37842 1338.7441 4283517807
16.902752 850.37842 1338.7441 4284701568
19.31743 850.37842 1338.7441 4284570511
-12.073395 852.22449 1340.3008 4289174436
-9.6587152 852.22449 1340.3008 4286483108
-7.2440367 852.22449 1340.3008 4283193458
-4.8293576 852.22449 1340.3008 4283588978
-2.4146788 852.22449 1340.3008 4284444544
0 852.22449 1340.3008 4288710030
4.8293576 852.22449 1340.3008 4290159543
7.2440367 852.22449 1340.3008 4285290861
14.488073 852.22449 1340.3008 4284636277
16.902752 852.22449 1340.3008 4283517539
19.31743 852.22449 1340.3008 4280634694
-75.13945 846.08081 1341.6608 4288846760
-70.29174 846.08081 1341.6608 4288846510
-67.867889 846.08081 1341.6608 4288977582
-65.444038 846.08081 1341.6608 4288845995
-60.596329 847.93384 1343.2231 4289368507
-58.172478 847.93384 1343.2231 4289237921
-55.748623 847.93384 1343.2231 4289435556
-50.900917 847.93384 1343.2231 4289567917
-2.4146788 854.0705 1341.8573 4283330404
13.280734 854.0705 1341.8573 4283980143
-2.4146788 855.91656 1343.4138 4286419098
14.488073 855.91656 1343.4138 4282995800
16.902752 855.91656 1343.4138 4286482828
-58.172478 849.78693 1344.7856 4288645789
-53.324772 849.78693 1344.7856 4289174445
-49.688992 849.78693 1344.7856 4289306543
-36.3578 849.78693 1344.7856 4286148483
-33.933945 849.78693 1344.7856 4287593352
-31.510092 849.78693 1344.7856 4288053903
-29.086239 849.78693 1344.7856 4288580248
-25.450459 849.78693 1344.7856 4289896880
-21.814678 849.78693 1344.7856 4289766836
-19.390825 849.78693 1344.7856 4289109183
-16.966972 849.78693 1344.7856 4288714425
-13.735168 851.02228 1345.8273 4288978339
-9.6954126 851.64001 1346.3481 4287007405
-7.2715597 851.64001 1346.3481 4282204516
-4.8477063 851.64001 1346.3481 4282212180
1.6159021 851.02228 1345.8273 4289831858
4.8477063 851.64001 1346.3481 4290620859
7.2715597 851.64001 1346.3481 4285554799
9.6954126 850.7135 1345.5669 4283649638
12.119267 849.78693 1344.7856 4284899192
16.966972 851.64001 1346.3481 4282665567
-73.045868 844.0697 1347.8132 4288779943
-70.611008 845.00043 1348.598 4289174184
-68.176147 845.00043 1348.598 4289370795
-64.523857 845.00043 1348.598 4289895867
-4.8477063 853.49304 1347.9105 4287603371
1.2119266 853.49304 1347.9105 4288654260
4.8477063 853.49304 1347.9105 4291214825
9.6954126 853.49304 1347.9105 4285163132
12.119267 853.49304 1347.9105 4283386977
-4.8477063 855.34607 1349.473 4290098638
0 855.34607 1349.473 4290032824
-73.045868 846.86194 1350.1675 4289437092
-70.611008 846.86194 1350.1675 4289437092
-68.176147 846.86194 1350.1675 4289040808
-64.523857 846.86194 1350.1675 4289040042
-60.871559 846.86194 1350.1675 4288907945
-58.436699 848.72339 1351.7371 4288645791
-56.001835 847.79266 1350.9523 4289566892
-52.349541 848.72339 1351.7371 4289305261
-48.697247 848.72339 1351.7371 4289503407
-46.262386 847.79266 1350.9523 4289569714
-43.827522 847.79266 1350.9523 4288715702
-41.392662 847.79266 1350.9523 4287268000
-38.146175 848.10284 1351.2139 4286807433
-34.088074 848.72339 1351.7371 4287924895
-31.653212 848.72339 1351.7371 4288056482
-29.218349 848.72339 1351.7371 4288515749
-25.566055 848.72339 1351.7371 4289371310
-21.913761 848.72339 1351.7371 4289108390
-19.478899 848.72339 1351.7371 4288714925
-17.044037 848.72339 1351.7371 4288978097
-52.349541 850.58484 1353.3066 4289174445
-48.697247 850.58484 1353.3066 4289371056
-46.262386 850.58484 1353.3066 4289502642
-36.522934 850.58484 1353.3066 4288846245
-34.088074 850.58484 1353.3066 4288583339
-29.218349 850.58484 1353.3066 4288254374
-25.566055 850.58484 1353.3066 4288647849
-17.044037 850.58484 1353.3066 4289308345
-13.391743 850.58484 1353.3066 4290229963
-9.7394495 850.58484 1353.3066 4290624971
-7.3045874 850.58484 1353.3066 4289440696
7.3045874 850.58484 1353.3066 4287004073
-48.697247 852.44635 1354.8762 4288977584
-13.391743 852.44635 1354.8762 4291673059
-9.7394495 852.44635 1354.8762 4291543506
-7.3045874 852.44635 1354.8762 4291280590
