# .PCD v0.7 - Point Cloud Data file format
VERSION 0.7
FIELDS x y z rgb
SIZE 4 4 4 4
TYPE F F F U
COUNT 1 1 1 1
WIDTH 1172
HEIGHT 1
VIEWPOINT 0 0 0 1 0 0 0
POINTS 1172
DATA ascii
16.38899 826.43555 805.80841 4293496958
19.497248 825.57141 805.07983 4294492098
22.888073 825.57141 805.07983 4294967295
32.212845 825.57141 805.07983 4294967295
34.755962 825.57141 805.07983 4294967295
37.864223 826.43555 805.80841 4294967295
7.8948007 830.46674 806.59149 4294427595
10.714374 828.74225 805.13739 4292773762
13.533945 828.31116 804.77393 4294219641
19.455046 828.31116 804.77393 4293370029
22.838531 828.31116 804.77393 4294966527
25.376146 828.31116 804.77393 4294967295
27.913761 828.31116 804.77393 4294967295
31.297249 828.31116 804.77393 4294967295
34.680733 828.31116 804.77393 4294967295
38.06422 829.60449 805.86438 4294967295
40.601833 830.89783 806.95496 4294967295
43.13945 830.89783 806.95496 4294967295
10.117432 833.05475 804.84949 4294948022
35.411011 833.05475 804.84949 4294967295
37.940369 833.05475 804.84949 4294967295
10.947706 835.0614 805.2334 4294958313
13.46055 835.77899 804.5304 4294954973
15.984404 835.77899 804.5304 4294287518
18.508257 835.77899 804.5304 4294348926
35.333946 835.77899 804.5304 4294967295
37.900002 835.0614 805.2334 4294967295
40.469727 834.34387 805.9364 4294967295
42.155964 834.34387 805.9364 4294967295
8.4128437 838.35168 806.69958 4285150287
10.656269 837.49414 805.97656 4290875558
15.143119 837.06531 805.61499 4294094814
37.857796 837.7085 806.15735 4294967295
40.381653 837.7085 806.15729 4294967295
42.06422 837.7085 806.15729 4294967295
11.73945 841.13696 805.12402 4283505728
13.416513 841.13696 805.12402 4290282628
15.652599 840.92334 804.94385 4294495952
18.447706 840.49591 804.5835 4294167503
26.833027 841.13696 805.12402 4294967295
28.510092 841.13696 805.12402 4294967295
31.025688 841.13696 805.12402 4294967295
34.379814 841.13696 805.12402 4294967295
36.895412 841.77808 805.66455 4294967295
16.199389 843.1084 805.91425 4287982734
19.265139 843.13245 805.49854 4294167266
22.615597 843.13245 805.49854 4294169045
25.696634 843.1084 805.91425 4294967039
28.510092 843.06018 806.74561 4294967295
31.025688 843.06018 806.74561 4294967295
34.379814 843.06018 806.74561 4294967295
8.9541283 749.63184 809.06714 4294967295
14.326606 748.26276 807.91272 4294967295
17.908257 748.26276 807.91272 4294967295
19.699083 749.63184 809.06714 4294967295
22.086851 749.17548 808.68231 4294967295
25.07156 749.63184 809.06714 4294967295
10.722936 751.15674 807.73682 4294967295
13.403669 751.8399 808.31287 4294967295
16.977982 751.83984 808.31287 4294967295
19.658716 752.52307 808.88892 4294967295
22.339451 752.52307 808.88892 4294967295
10.689908 757.53033 809.18689 4294967295
13.659328 757.07635 808.80402 4294967295
16.925688 756.8493 808.61261 4294967295
19.598166 757.53033 809.18689 4294967295
22.270641 756.16827 808.03833 4294967295
10.65688 761.16296 808.32556 4294964991
13.3211 761.16296 808.32556 4294967295
22.201836 759.80505 807.18066 4294967295
24.866055 759.80505 807.18066 4294967295
7.9926605 762.52081 809.47058 4291661725
10.634862 764.03162 808.12842 4294307293
7.9623852 766.51776 808.26263 4294958562
10.601835 767.6488 807.25427 4288653007
12.368808 767.6488 807.25427 4282994809
19.436697 767.6488 807.25427 4294967295
21.203671 767.6488 807.25427 4294967295
5.3009176 770.35052 809.53223 4292925663
7.0678897 768.99963 808.39319 4294958807
34.455963 768.99963 808.39319 4294967295
7.6330276 773.05304 807.8869 4292584951
21.137615 772.60419 807.50842 4288118424
34.348625 772.60419 807.50842 4294967295
5.2844038 775.29749 809.7793 4291604954
5.26789 778.88519 808.88037 4287991009
7.901835 777.54279 807.74841 4293250292
10.53578 777.54279 807.74841 4294433269
13.169725 777.54279 807.74841 4293575905
21.07156 778.21399 808.31439 4278651675
36.875229 778.88519 808.88037 4294967295
7.8853207 781.04907 808.08875 4285366701
10.513762 781.04907 808.08875 4291404762
13.142202 781.04907 808.08875 4294431217
16.64679 781.04907 808.08875 4288770699
19.275229 781.04907 808.08875 4281533981
22.779816 781.04907 808.08875 4279110681
24.53211 780.37927 807.52393 4278190093
35.045872 781.04907 808.08875 4294967295
36.798164 781.71893 808.65356 4294967295
5.2568808 783.05853 809.78308 4289503680
7.8605504 785.2912 807.74146 4287465610
10.513762 783.05853 809.78308 4288712097
13.142202 783.05853 809.78308 4294964223
16.64679 783.05853 809.78308 4289235603
19.275229 783.05853 809.78308 4280484352
22.779816 783.05853 809.78308 4278976545
25.328442 785.2912 807.74146 4286857510
29.695414 785.2912 807.74146 4294967295
31.442202 785.2912 807.74146 4294967295
34.062386 785.2912 807.74146 4294967295
36.798164 783.05853 809.78308 4294967295
0 787.96204 809.99353 4293054949
4.6581039 787.51691 809.61816 4294506229
7.8605504 786.62659 808.86743 4294967295
10.480734 786.62659 808.86743 4291481824
13.100918 787.29431 809.43048 4290557897
16.303364 787.51691 809.61816 4289701593
19.21468 787.29431 809.43048 4278648856
22.708258 787.29431 809.43048 4284628027
25.03731 787.07178 809.24286 4292780928
28.761467 788.11224 807.50403 4294967295
31.376146 788.11224 807.50403 4294967295
34.062386 786.62659 808.86743 4294967295
37.264832 787.51691 809.61816 4294967295
7.8440361 790.11121 809.18951 4294967039
10.458715 789.44489 808.62769 4292264444
12.782875 790.33331 809.37677 4293450484
15.688073 790.77753 809.75134 4289966525
25.56575 790.33331 809.37677 4294967291
28.761467 790.11121 809.18951 4294967295
31.376146 789.44489 808.62769 4294967295
34.281345 789.8891 809.00226 4294967295
37.477066 790.77753 809.75134 4294967295
8.6880732 794.32593 808.81921 4294440447
10.425688 793.66174 808.25916 4289764266
13.900917 794.32593 808.81921 4294967295
15.638532 794.32593 808.81921 4290688447
28.670643 794.32593 808.81921 4294967295
31.277063 793.66174 808.25916 4294967295
33.593884 793.88312 808.4458 4294967295
7.8192658 795.65436 809.93933 4293322217
10.39266 797.86597 807.88 4290285312
12.990826 797.86597 807.88 4294967225
20.851376 795.65436 809.93933 4294967295
22.588991 795.65436 809.93933 4294967295
25.156881 796.76013 808.90967 4294967295
28.579817 797.86597 807.88 4294967295
32.044037 797.86597 807.88 4294967295
34.752293 795.65436 809.93933 4294967295
36.48991 795.65436 809.93933 4294967295
7.7944956 799.19012 808.99646 4292992994
10.370643 800.66174 807.62122 4291411336
12.963303 800.66174 807.62122 4294967281
16.420183 800.66174 807.62122 4294967295
19.919266 799.19012 808.99646 4294967039
22.517431 799.19012 808.99646 4294967295
25.089909 799.9259 808.30884 4294967295
28.579817 799.19012 808.99646 4294967295
32.044037 799.19012 808.99646 4294967295
-3.4568808 803.30457 809.84961 4288962138
0 803.30457 809.84961 4290411871
3.4568808 803.30457 809.84961 4293439408
7.7779818 801.98315 808.73535 4294704123
10.370643 801.98315 808.73535 4291547077
12.963303 801.98315 808.73535 4294244081
17.284403 801.98315 808.73535 4293713396
19.877064 801.98315 808.73535 4294967295
22.469725 801.98315 808.73535 4294967295
25.062386 801.98315 808.73535 4294967295
28.231194 802.86407 809.47821 4294967295
31.976147 803.30457 809.84961 4294967295
-3.4458716 806.82074 808.89026 4289097054
-1.7229358 806.82074 808.89026 4290544500
0.8614679 806.82074 808.89026 4291661432
4.3073397 806.16211 808.33496 4293571510
10.337615 805.50354 807.77966 4293384703
12.922018 805.50354 807.77966 4293252854
19.813763 805.50354 807.77966 4294967295
22.398165 805.50354 807.77966 4294967295
24.982569 805.50354 807.77966 4294967295
28.42844 806.82074 808.89026 4294967295
31.874311 806.82074 808.89026 4294967295
0 809.59833 808.61621 4291659637
4.2981653 808.94116 808.06207 4291854712
10.315597 808.28394 807.50793 4294963702
12.894495 808.28394 807.50793 4294967295
20.631193 808.28394 807.50793 4294967295
22.350458 808.28394 807.50793 4294967295
24.929358 808.28394 807.50793 4294967295
29.227524 809.59833 808.61621 4294967295
31.806421 809.59833 808.61621 4294967295
-1.7192661 810.91272 809.72449 4290010447
34.385323 810.91272 809.72449 4294967295
-1.7137614 815.06433 809.30078 4289423720
0.85596329 814.48151 807.5014 4290338636
3.4238532 814.48151 807.5014 4291524963
20.521101 815.86395 807.35901 4294967295
23.086239 815.86395 807.35901 4294967295
32.561466 813.09906 807.6438 4294967295
35.911926 815.86395 807.35901 4294967295
39.416515 815.71942 809.85315 4294967295
-1.7100917 818.4787 809.56372 4290805933
0.85504586 817.17133 808.46143 4289878084
3.4201834 817.17133 808.46143 4289747530
37.622017 817.17133 808.46143 4294967295
41.042202 818.4787 809.56372 4294967295
-1.7045871 821.95557 808.57129 4291130532
1.1363914 821.08673 807.83881 4290276200
4.2614679 820.6524 807.47253 4290141020
40.0578 821.30396 808.02191 4294967295
42.614677 821.95557 808.57129 4294967295
-3.4091742 823.25873 809.67004 4287381073
-1.7045871 823.25873 809.67004 4290802310
0.5681957 823.78766 808.37207 4292713887
4.2522936 824.05212 807.72302 4291458967
7.3706422 823.83539 807.54028 4291651928
10.205504 823.40192 807.1748 4292047454
13.60734 823.40192 807.1748 4294420111
15.308257 823.40192 807.1748 4293630595
39.971558 824.05212 807.72302 4294967295
43.466972 823.25873 809.67004 4294967295
-1.7009175 826.00269 809.36768 4287579466
0.85045874 826.00269 809.36768 4291651960
3.401835 826.00269 809.36768 4293897920
0.56513762 830.32397 809.0871 4284030249
4.521101 829.02783 807.9942 4294294444
6.7816515 828.16376 807.26562 4294363592
40.689907 828.16376 807.26562 4294967295
43.233028 828.16376 807.26562 4294967295
45.776146 830.10797 808.90497 4294967295
0.84587157 833.48456 809.13599 4282851655
4.2293577 832.19122 808.04541 4286919739
7.612844 832.19122 808.04541 4292773287
43.985321 832.19122 808.04541 4294967295
46.80489 833.05347 808.77246 4294967295
0 836.92218 808.11035 4281867551
4.2155962 836.27759 807.56689 4283970373
7.3070335 836.06274 807.38574 4288168041
43.842201 836.27759 807.56689 4294967295
46.371559 836.92218 808.11035 4294967295
-1.6862385 838.2113 809.19739 4286467678
0.84311926 838.92468 808.49078 4286010175
4.2155962 838.2113 809.19739 4285226381
7.5788989 838.92468 808.49078 4284036710
10.095413 839.638 807.78418 4284032052
38.699081 839.638 807.78418 4294967295
40.381653 839.638 807.78418 4294967295
42.953209 838.92468 808.49078 4294967295
46.371559 838.2113 809.19739 4294967295
48.794495 839.638 807.78418 4294967295
0 841.5675 809.41113 4290684086
8.4128437 840.92438 808.86877 4287067769
11.217125 841.35321 809.23029 4289232505
13.46055 841.5675 809.41113 4287520386
15.984404 842.21069 809.95349 4285743192
19.349541 842.21069 809.95349 4292980910
22.71468 842.21069 809.95349 4294966783
26.079817 842.21069 809.95349 4294967295
28.60367 842.21069 809.95349 4294967295
31.127522 842.21069 809.95349 4294967295
35.333946 842.21069 809.95349 4294967295
37.857796 841.5675 809.41113 4294967295
40.381653 840.92438 808.86877 4294967295
42.06422 840.92438 808.86877 4294967295
33.541283 844.34229 807.82666 4294967295
-1.7963303 748.71783 812.22058 4294967295
0 748.71783 812.22058 4294967295
31.43578 748.71783 812.22058 4294967295
-1.7908257 752.37006 811.37598 4280888417
0 752.37006 811.37598 4286012258
4.7755351 751.91364 810.99121 4294964726
8.0587158 751.68549 810.79883 4294967295
10.744954 751.00092 810.22156 4294967295
25.966972 751.68549 810.79877 4294967295
28.653212 752.37006 811.37598 4294967295
30.444036 752.37006 811.37598 4294967295
-3.5816514 753.73914 812.53027 4287378300
-1.7908257 753.73914 812.53027 4283957320
0.89541286 754.49738 811.86163 4289291832
4.4678898 755.25562 811.19299 4294569170
8.042202 755.25562 811.19299 4294967295
10.722936 753.88934 810.04089 4294967295
12.510092 753.88934 810.04089 4294967295
19.658716 753.88934 810.04089 4294967295
26.862385 753.73914 812.53027 4294967295
28.594496 755.25562 811.19299 4294967295
31.27523 755.25562 811.19299 4294967295
-4.4678898 756.62195 812.34497 4294747305
-1.787156 756.62195 812.34497 4294949056
0.89357799 757.7572 811.34015 4294756549
4.4596329 757.7572 811.34015 4292786900
8.0174313 758.89246 810.33533 4290415272
-12.47156 761.61658 812.63232 4279702538
-10.689908 761.61658 812.63232 4281205267
-8.0174313 761.61658 812.63232 4286797670
-4.75107 761.1626 812.24951 4288964198
-1.7816514 760.25452 811.48376 4294884263
1.1877676 760.7085 811.86664 4293898703
4.1571865 760.7085 811.86664 4293959645
39.196331 761.61658 812.63232 4294967295
-1.7761468 763.87872 810.61548 4287850617
0 763.87872 810.61548 4290337154
5.3284402 763.87872 810.61548 4294941150
-3.5522935 766.59448 812.90527 4289898184
-1.7761468 765.91553 812.33282 4291014860
0.59204894 766.14185 812.52362 4293052895
4.1406727 766.19092 811.69305 4292719038
-1.772477 769.4519 812.69873 4291871706
0 769.4519 812.69873 4293714430
3.5449541 769.4519 812.69873 4294504443
4.4174314 772.37683 811.24078 4292396769
37.989906 773.05225 811.8103 4294967295
-3.5339448 774.40314 812.94934 4280884011
-1.7669724 774.40314 812.94934 4280949804
0 774.40314 812.94934 4280091193
3.5229359 776.64417 810.91479 4284109222
38.752293 776.64417 810.91479 4294967295
40.640366 774.40314 812.94934 4294967295
42.407341 774.40314 812.94934 4294967295
46.824768 774.40314 812.94934 4294967295
-3.5229359 777.99084 812.05029 4280880896
-1.7614679 777.99084 812.05029 4282394116
0.88073397 777.99084 812.05029 4284233751
3.5229359 777.99084 812.05029 4281418105
40.51376 777.99084 812.05029 4294967295
42.27523 777.99084 812.05029 4294967295
47.559631 777.99084 812.05029 4294967295
-4.3899083 782.91254 812.27612 4293771968
-1.7559633 782.24133 811.71014 4291732124
0.87798166 782.24133 811.71014 4292529084
4.3899083 780.89893 810.57819 4286020005
21.07156 780.89893 810.57819 4280293426
38.631191 780.22766 810.01221 4294967295
40.387157 782.91254 812.27612 4294967295
43.021103 782.91254 812.27612 4294967295
45.655045 782.91254 812.27612 4294967295
-3.5045872 785.73785 812.04211 4292788222
-1.7522936 785.73785 812.04211 4291275239
0.87614679 785.06799 811.47736 4293516007
3.5045872 784.39819 810.9126 4294967295
14.018349 784.39819 810.9126 4288914673
17.522936 784.39819 810.9126 4289367722
21.027523 785.06799 811.47736 4279500800
38.550457 784.39819 810.9126 4294967295
40.302753 785.73785 812.04211 4294967295
-4.075841 790.18781 811.87012 4290027706
-1.746789 789.96521 811.6825 4289371837
1.164526 789.74268 811.49481 4291741146
4.075841 789.74268 811.49481 4292400095
17.46789 789.29749 811.11951 4284904868
20.379206 789.74268 811.49481 4287723358
22.708258 789.29749 811.11951 4294956903
40.758411 790.18781 811.87012 4294967295
-6.972477 793.44275 811.99866 4291404979
-4.3577981 793.44275 811.99866 4292920529
-1.7431192 793.44275 811.99866 4293909478
0 792.77643 811.43683 4291872985
4.6483178 792.99854 811.62408 4294110970
6.972477 792.11011 810.875 4294967295
17.431192 792.11011 810.875 4287918259
19.174313 792.77643 811.43683 4291210966
22.660551 792.11011 810.875 4294967279
25.27523 792.11011 810.875 4294967295
37.767586 792.55438 811.24951 4294967295
40.091743 793.44275 811.99866 4294967295
0 796.98279 811.05945 4293777124
4.3440366 796.98279 811.05945 4294241278
34.752293 796.98279 811.05945 4294967295
37.358719 796.98279 811.05945 4294967295
-6.9504585 798.31122 812.17944 4288435515
-4.338532 799.41278 811.14624 4290211694
-1.7321101 800.51434 810.11304 4290803856
0.86880732 798.31122 812.17944 4291005067
4.3357797 799.41278 811.14624 4293843691
29.445871 800.51434 810.11304 4294967295
32.044037 800.51434 810.11304 4294967295
34.6422 800.51434 810.11304 4294967295
37.358719 798.31122 812.17944 4294967295
40.833946 798.31122 812.17944 4294967295
-7.5058103 802.72137 811.97394 4286733391
-5.1963301 801.83856 811.22961 4288177469
-1.7321101 801.83856 811.22961 4289883240
1.7321101 801.83856 811.22961 4291727731
34.6422 801.83856 811.22961 4294967295
37.240368 802.50067 811.7879 4294967295
41.570641 803.16278 812.34619 4294967295
-6.9137616 805.94739 812.07788 4288509283
-5.1853213 805.28668 811.52081 4287192129
34.568806 804.62598 810.96375 4294967295
36.297249 805.94739 812.07788 4294967295
-4.0201836 809.01605 810.74121 4288371543
-1.7229358 808.13794 810.00085 4291200631
1.7229358 808.13794 810.00085 4291725431
34.458717 808.13794 810.00085 4294967295
37.043121 809.45514 811.11145 4294967295
-13.783486 810.77234 812.22217 4283179836
-6.8917432 810.77234 812.22217 4291270329
-4.3036699 811.49976 811.5274 4288503655
37.823853 812.22711 810.83264 4294967295
40.488991 810.77234 812.22217 4294967295
43.93486 810.77234 812.22217 4294967295
-4.2981653 813.5415 811.94092 4291792560
41.262386 813.5415 811.94092 4294967295
43.841286 813.5415 811.94092 4294967295
-4.2844038 817.68469 811.51025 4289950088
42.844036 817.0296 810.95789 4294967295
-3.4201834 819.78607 810.66614 4289222535
44.462387 819.78607 810.66614 4294967295
47.027523 821.09344 811.76843 4294967295
-4.2697248 823.48132 811.81989 4283771438
47.027523 822.40082 812.87085 4294967295
-4.2614679 826.51666 812.41699 4282526518
-1.7009175 827.30304 810.46411 4284692035
1.7009175 827.30304 810.46411 4290602339
-4.2522936 829.90375 812.65698 4281936696
-1.7009175 828.60339 811.56055 4281474601
-6.7816515 833.34839 811.63721 4282068535
-4.2385321 833.34839 811.63721 4281805110
-1.6954129 832.05225 810.54431 4281805113
-7.6220183 835.35791 812.02356 4281936698
-4.2293577 836.07123 811.31702 4282392878
-1.6917431 834.77789 810.22644 4281081390
1.6917431 834.77789 810.22644 4283709755
-7.6018348 838.4325 811.34595 4281608506
-4.2238531 838.4325 811.34595 4282322966
-1.6862385 839.50043 810.2843 4293564821
1.6862385 839.50043 810.2843 4284436054
4.2155962 839.50043 810.2843 4284569223
6.7449541 839.50043 810.2843 4286870647
43.842201 839.50043 810.2843 4294967295
46.371559 839.50043 810.2843 4294967295
49.744034 839.50043 810.2843 4294967295
-6.7449541 840.78961 811.37134 4282001209
-3.9345567 841.2193 811.73364 4283443240
-1.6862385 841.4342 811.91479 4292717473
0.84311926 841.4342 811.91479 4288445340
4.2155962 841.4342 811.91479 4289233316
7.5880733 841.43414 811.91479 4292585889
10.679511 841.64911 812.09595 4293505447
13.489908 842.07874 812.45825 4293444067
16.019266 842.07874 812.45825 4291340981
19.391743 842.07874 812.45825 4288175464
22.764221 842.07874 812.45825 4294815683
26.136696 842.07874 812.45825 4294964985
28.666056 842.07874 812.45825 4294967295
30.352293 842.07874 812.45825 4294967295
35.411011 842.07874 812.45825 4294967295
37.940369 842.07874 812.45825 4294967295
40.469727 841.4342 811.91479 4294967295
42.718044 841.2193 811.73364 4294967295
46.371559 840.78961 811.37134 4294967295
48.900917 840.78961 811.37134 4294967295
31.968807 843.49701 811.03809 4294967295
33.651375 843.49701 811.03809 4294967039
-4.4908257 750.77777 813.95746 4284432478
1.7963303 750.09113 813.37854 4290485926
-7.1633029 755.10828 813.68469 4293953931
-10.722936 757.98822 813.49695 4285665310
-8.042202 757.98822 813.49695 4288428851
-3.574312 757.98822 813.49695 4292712837
41.188992 757.84644 815.99353 4294966783
42.979816 757.84644 815.99353 4294965759
41.104588 760.72083 815.80103 4294967295
42.891743 760.72083 815.80103 4294967295
-12.47156 763.65979 814.35498 4281477406
-10.689908 763.65979 814.35498 4282658381
-8.0174313 763.65979 814.35498 4288844207
-4.75107 763.4328 814.16357 4290423493
1.7816514 762.9787 813.78076 4291074220
37.41468 763.65979 814.35498 4294967295
39.196331 763.65979 814.35498 4294967295
-12.433027 767.95233 814.05029 4283120455
-10.65688 767.95233 814.05029 4282925141
-8.8807335 767.95233 814.05029 4286543756
-4.4403667 767.95233 814.05029 4288385703
1.7761468 767.95233 814.05029 4294898431
37.299084 767.95233 814.05029 4294967295
39.07523 767.95233 814.05029 4294967295
-12.407339 770.80701 813.84119 4283517502
-10.634862 770.80701 813.84119 4282270790
-7.9926605 769.31024 815.19519 4281283397
-4.436697 770.05859 814.51819 4280886351
-1.772477 770.80701 813.84119 4283450746
0.88623852 770.80701 813.84119 4285096599
40.766972 770.80701 813.84119 4294967295
43.515594 769.31024 815.19519 4294967295
47.06789 769.31024 815.19519 4294967295
-10.634862 772.16211 814.98376 4283978040
-5.317431 772.16211 814.98376 4280689717
1.772477 772.16211 814.98376 4284433531
44.311928 772.16211 814.98376 4294967295
-5.3009176 775.75397 814.08838 4279701784
44.174313 775.75397 814.08838 4294967295
45.941284 775.75397 814.08838 4294967295
-7.0678897 777.10486 815.22729 4282189836
-4.4036698 779.33746 813.18579 4284558111
1.7614679 779.33746 813.18579 4292594340
38.752293 779.33746 813.18579 4294967295
40.51376 779.33746 813.18579 4294967295
43.155964 779.33746 813.18579 4294967295
46.678898 779.33746 813.18579 4294967295
47.559631 780.68414 814.32117 4294967295
43.021103 784.255 813.40796 4294967295
46.533028 784.92627 813.97394 4294967295
50.044956 784.92621 813.974 4294967295
-5.2568808 787.07751 813.17175 4290883252
43.22324 787.52411 813.54828 4294967295
46.483486 787.67847 814.98657 4294967295
50.044952 786.93988 815.67188 4294967295
1.746789 791.96838 813.37146 4292333531
41.922935 791.96838 813.37146 4294967295
43.669724 791.96838 813.37146 4294967295
46.361465 790.86255 814.40112 4294967295
49.06422 789.75677 815.43079 4294967295
-6.972477 794.77539 813.12231 4291076227
-4.3577981 794.77539 813.12231 4293248952
-1.7431192 794.77539 813.12231 4294566112
1.7431192 794.77539 813.12231 4293513953
40.963303 794.77539 813.12231 4294967295
43.669724 793.30377 814.49756 4294967295
46.289909 793.30377 814.49756 4294967295
49.492355 794.19409 815.24823 4294967295
-8.7155962 796.10803 814.24597 4286999424
43.57798 796.10803 814.24597 4294967295
46.192661 796.77429 814.80774 4294967295
49.678898 797.44067 815.36951 4294967295
-8.6880732 799.63959 813.29956 4286605188
40.544342 800.08234 813.67291 4294967295
43.440369 800.30383 813.85962 4294967295
46.046791 800.96802 814.41968 4294967295
49.522018 800.96802 814.41968 4294967295
48.65321 802.29645 815.53979 4294967295
52.128441 802.29645 815.53979 4294967295
-10.39266 804.487 813.46265 4287392668
-8.6605501 805.14911 814.02094 4289824438
38.106422 804.487 813.46265 4294967295
40.704586 804.487 813.46265 4294967295
43.302753 804.487 813.46265 4294967295
46.189602 804.92841 813.83478 4294967295
49.653824 805.36981 814.20703 4294967295
51.963303 805.81122 814.57922 4294967295
-15.555964 809.91162 815.42041 4281803566
-12.099083 809.25092 814.86334 4284494409
-10.381651 808.52356 815.55811 4286067764
-8.0660553 808.59015 814.30634 4290544262
40.618347 807.2688 813.19214 4294967295
44.07523 807.2688 813.19214 4294967295
46.667889 808.59021 814.30627 4294967295
49.287155 808.88721 815.21069 4294967295
51.963303 807.13544 815.6958 4294967295
-13.783486 812.08954 813.33276 4284163901
-6.8917432 812.08954 813.33276 4289355668
46.519264 812.08954 813.33276 4294967295
-10.337615 814.72394 815.55396 4282133297
-7.753211 814.06531 814.99866 4284561983
-5.1577983 814.8559 813.04919 4291859095
44.700916 814.8559 813.04919 4294967295
46.519264 813.40674 814.44336 4294967295
48.242203 814.06531 814.99866 4294967295
-6.8770642 816.82751 814.71161 4284624429
46.420185 816.17029 814.15747 4294967295
-6.8550458 820.96014 814.27209 4281871408
-5.1412845 819.64996 813.16736 4284890940
-6.8403668 823.70819 813.97314 4282134584
-7.6954126 825.01556 815.07544 4281674804
-10.227523 829.7746 815.16406 4281805363
-7.6706419 828.47144 814.06531 4281674801
-13.60734 833.80487 815.94629 4283975251
-10.205504 832.50452 814.84985 4281607482
-8.5045872 831.2041 813.75342 4281936949
-11.020184 835.94067 813.823 4281410868
-13.563303 837.23688 814.91589 4283973704
-10.730275 838.14166 814.80682 4281737776
-7.8948007 839.5202 814.2251 4281803311
-5.0752292 839.95129 814.58862 4280880404
1.6917431 839.95129 814.58862 4290550978
43.985321 839.95129 814.58862 4294967295
46.522934 839.95129 814.58862 4294967295
50.188381 839.5202 814.2251 4294967295
52.444038 839.30463 814.04333 4294967295
54.981651 839.95129 814.58862 4294967295
-15.225688 841.24463 815.67908 4281541941
-10.150458 841.24463 815.67908 4283437854
-8.4587154 841.24463 815.67908 4283372061
-3.3834863 841.24463 815.67908 4286593867
1.6917431 841.24463 815.67908 4290878133
4.2293577 841.24463 815.67908 4292920521
7.612844 841.24463 815.67908 4294172094
10.99633 841.24463 815.67908 4294496962
13.533945 841.24463 815.67908 4294302705
16.07156 841.24463 815.67908 4290881987
19.455046 841.24463 815.67908 4287324030
22.838531 841.24463 815.67908 4291857313
25.376146 841.24463 815.67908 4294961140
27.06789 841.24463 815.67908 4294967295
38.910091 841.24463 815.67908 4294967295
40.601833 841.24463 815.67908 4294967295
42.293579 841.24463 815.67908 4294967295
46.522934 841.24463 815.67908 4294967295
49.906422 841.24463 815.67908 4294967295
52.444038 841.24463 815.67908 4294967295
54.981651 841.24463 815.67908 4294967295
59.21101 841.24463 815.67908 4294967295
-6.7449541 844.01245 814.08875 4285208862
-5.0587158 844.01245 814.08875 4284879897
-1.6862385 843.36786 813.54529 4291989150
0 844.01245 814.08875 4287910519
28.666056 843.36786 813.54529 4294967295
31.195412 843.36786 813.54529 4294967295
34.56789 843.36786 813.54529 4294967295
37.097248 843.36786 813.54529 4294967295
58.175232 844.01245 814.08875 4294967295
-7.2073393 749.1897 816.54248 4291267489
-9.0091743 750.56726 817.70398 4292640398
44.770641 760.58466 818.30225 4294967295
46.561466 760.58466 818.30225 4294967295
41.104588 762.0871 816.95312 4294967295
43.487461 762.99799 817.72113 4294967295
46.466057 763.45343 818.1051 4294967295
-7.1266055 765.70288 816.07776 4287399835
40.977982 765.70288 816.07776 4294967295
-7.9926605 770.66809 816.34009 4280557595
-7.9761467 773.51715 816.12634 4281081901
50.816513 791.09644 816.56042 4294967295
52.568806 793.7757 818.81946 4294967295
52.293579 798.77325 816.49316 4294967295
-10.425688 803.62488 816.65979 4285413734
-12.124771 809.78381 817.92883 4283904581
-10.39266 809.78381 817.92883 4284758578
51.963303 808.45966 816.81226 4294967295
-15.555964 811.23303 816.53467 4281540658
-13.251376 812.11395 817.2774 4282461494
-8.6422014 811.23303 816.53467 4284626991
50.124771 811.89374 817.09174 4294967295
51.85321 811.89374 817.09174 4294967295
50.124771 813.87585 818.76294 4294967295
-12.060551 818.67554 818.88586 4281803814
-10.337615 816.69971 817.21997 4281413950
-8.605505 817.4201 816.51935 4281347901
-12.894495 821.42786 818.59058 4282396982
-10.315597 820.11346 817.4823 4281413435
-8.5963306 820.11346 817.4823 4281545021
-10.282569 823.58051 816.48145 4281543988
-11.115597 826.97668 816.729 4281608492
-11.93211 831.07776 816.26294 4281868844
-16.954128 839.82916 817.10168 4281410355
-13.563303 839.18109 816.55524 4282262079
-11.86789 839.18109 816.55524 4281933113
44.080734 839.82916 817.10168 4294967295
-15.225688 842.53802 816.76965 4279763456
-13.563303 841.12531 818.19458 4283762692
-10.99633 842.53802 816.76965 4284944144
-8.4587154 842.53802 816.76965 4286388255
-3.3834863 842.53802 816.76965 4284881174
-1.6917431 842.53802 816.76965 4284946967
1.6917431 842.53802 816.76965 4284613683
4.2293577 842.53802 816.76965 4283573022
7.6201835 841.83167 817.48212 4283521098
10.99633 842.53802 816.76965 4291010874
13.533945 842.53802 816.76965 4294237951
16.07156 842.53802 816.76965 4290095314
19.455046 842.53802 816.76965 4290027438
22.838531 842.53802 816.76965 4290811019
25.376146 842.53802 816.76965 4294961889
27.913761 842.53802 816.76965 4294965501
31.297249 842.53802 816.76965 4294967295
34.680733 842.53802 816.76965 4294967039
38.06422 842.53802 816.76965 4294967295
40.601833 842.53802 816.76965 4294967295
43.187157 841.83167 817.48212 4294967295
46.522934 842.53802 816.76965 4294967295
49.906422 842.53802 816.76965 4294967295
52.444038 842.53802 816.76965 4294967295
54.981651 842.53802 816.76965 4294967295
57.519264 842.53802 816.76965 4294967295
-10.150458 843.83136 817.86011 4287517522
-7.612844 843.83136 817.86011 4288308062
-4.2293577 843.83136 817.86011 4288572770
0 843.83136 817.86011 4286466115
31.297249 843.83136 817.86011 4294967295
33.834862 843.83136 817.86011 4294967295
-15.588991 811.10803 819.04541 4282527290
-12.124771 812.43225 820.16199 4282199074
-12.124771 813.75647 821.27844 4282131754
-12.034863 822.74225 819.69885 4281869598
-18.710093 839.00635 820.33203 4281270286
-17.009174 839.00635 820.33203 4280092165
-18.710093 840.3067 821.42847 4283564048
-16.133945 841.36414 820.35791 4284291339
-13.563303 842.42151 819.28735 4285280517
-11.86789 842.42151 819.28735 4286793757
-1.6954129 842.42151 819.28735 4287915097
1.6954129 842.42151 819.28735 4284229153
4.2385321 842.42151 819.28735 4284355874
7.6293578 842.42151 819.28735 4282261009
11.020184 842.42151 819.28735 4290545212
13.563303 842.42151 819.28735 4290152703
16.133945 841.36414 820.35791 4288180960
19.527523 841.36414 820.35791 4293447911
22.888073 842.42151 819.28735 4291143597
25.431192 842.42151 819.28735 4293969879
27.974312 842.42151 819.28735 4294238712
35.603668 842.42151 819.28735 4294967295
38.14679 842.42151 819.28735 4294967295
40.689907 842.42151 819.28735 4294967295
43.233028 842.42151 819.28735 4294967295
46.623856 842.42151 819.28735 4294967295
50.014679 842.42151 819.28735 4294967295
52.557796 842.42151 819.28735 4294967295
55.100918 842.42151 819.28735 4294967295
58.491745 842.42151 819.28735 4294967295
61.034863 842.42151 819.28735 4294967295
-10.172477 843.71765 820.38025 4293448151
-7.6293578 843.71765 820.38025 4293843166
-4.2385321 843.71765 820.38025 4294238436
-1.6954129 843.71765 820.38025 4294961901
0 843.71765 820.38025 4294962420
22.888073 843.71765 820.38025 4290358184
27.974312 843.71765 820.38025 4293450981
31.365139 843.71765 820.38025 4294967295
34.755962 843.71765 820.38025 4294967295
38.14679 843.71765 820.38025 4294967295
40.689907 843.71765 820.38025 4294967295
-15.638532 810.26697 822.26025 4284304452
-13.900917 811.5954 823.38037 4283711551
-22.159634 838.89679 822.85571 4284420886
-20.455046 838.89679 822.85571 4284024343
-23.011927 840.19995 823.95447 4289619805
-19.602753 840.19995 823.95447 4291861405
-15.87523 842.04053 822.89038 4293182403
-13.60734 842.2572 823.07312 4293710041
-11.33945 842.47394 823.25586 4294105827
-7.6541286 842.90741 823.62134 4294502387
-4.2522936 842.90741 823.62134 4293778921
1.7045871 840.19995 823.95447 4294961649
4.2522936 841.60706 822.5249 4294895088
7.6541286 841.60706 822.5249 4294563565
11.055964 841.60706 822.5249 4294104777
13.60734 841.60706 822.5249 4288049356
15.87523 842.04053 822.89038 4287519418
19.560551 842.25726 823.07312 4294497278
22.962385 842.90741 823.62134 4292852417
25.513762 842.2572 823.07312 4292261541
28.065138 842.90741 823.62134 4293973217
31.466972 842.90741 823.62134 4294967295
34.868805 842.90741 823.62134 4294967295
37.420185 842.90741 823.62134 4294967295
39.971558 842.90741 823.62134 4294967295
43.373394 841.60706 822.5249 4294967295
46.491741 842.04053 822.89038 4294967295
49.326607 841.60706 822.5249 4294967295
51.877983 842.2572 823.07312 4294967295
55.279816 841.60706 822.5249 4294967295
58.398163 842.04053 822.89038 4294967295
61.365139 840.19995 823.95447 4294967295
63.069725 840.19995 823.95447 4294967295
28.065138 844.20776 824.71777 4294229199
31.466972 844.20776 824.71777 4294967295
34.018349 844.20776 824.71777 4294967295
-15.688073 809.43433 825.4823 4285026906
1.7100917 839.39679 827.20129 4294965247
-25.568808 842.15479 825.60266 4292321968
-22.727829 841.93756 825.41949 4292194223
-19.602753 842.15472 825.60266 4293579471
-16.477676 842.37201 825.78583 4293514457
-13.636697 842.80634 826.1521 4292726490
-11.079817 842.80634 826.1521 4293055196
-7.6706419 842.80634 826.1521 4293450724
-4.2614679 842.80634 826.1521 4291410633
-1.7045871 841.50317 825.05322 4294700021
0 841.50317 825.05322 4294962431
4.2614679 841.50317 825.05322 4294966527
7.6706419 841.50317 825.05322 4294963199
11.079817 841.50317 825.05322 4294828016
13.636697 842.15479 825.60266 4292458482
16.477676 842.37201 825.78583 4293052910
19.602753 842.80634 826.1521 4294305535
23.011927 842.80634 826.1521 4292254631
25.568808 842.80634 826.1521 4294944913
35.796329 842.80634 826.1521 4294967295
37.500916 842.80634 826.1521 4294967295
40.0578 842.80634 826.1521 4294967295
43.466972 842.15479 825.60266 4294967295
47.160244 842.37201 825.78583 4294967295
49.433029 842.15479 825.60266 4294967295
51.989906 842.80634 826.1521 4294967295
55.399082 842.15479 825.60266 4294967295
59.092358 842.37201 825.78583 4294967295
61.365139 842.15479 825.60266 4294967295
63.63792 842.37201 825.78583 4294967295
-25.568808 844.1095 827.25085 4294633967
-23.86422 844.1095 827.25085 4294370799
-6.8183484 844.1095 827.25085 4292463063
-3.4091742 844.1095 827.25085 4292198869
17.045872 844.1095 827.25085 4294967295
19.602753 844.1095 827.25085 4294634239
23.011927 844.1095 827.25085 4291729842
25.568808 844.1095 827.25085 4292316548
28.125687 844.1095 827.25085 4293574346
31.534863 844.1095 827.25085 4294967295
34.944038 844.1095 827.25085 4294967295
58.808258 844.1095 827.25085 4294967295
61.365139 844.1095 827.25085 4294967295
-23.086239 841.35785 828.85486 4294238438
-19.666054 842.01154 829.40601 4294896117
-16.245872 842.01154 829.40601 4293450712
-13.680734 842.01154 829.40601 4292921816
-11.115597 842.01154 829.40601 4293382876
-8.5504589 842.01154 829.40601 4293514972
-5.1302752 842.01154 829.40601 4291805134
-1.7100917 841.35785 828.85486 4292396762
0.85596329 841.00818 829.21405 4292594389
4.2798166 840.65851 829.57324 4291936723
7.7036695 840.65851 829.57324 4292134101
11.121101 841.00818 829.21405 4293974236
13.680734 842.01154 829.40601 4294965497
15.390825 842.01154 829.40601 4294967295
37.622017 842.01154 829.40601 4294967295
40.187157 842.01154 829.40601 4294967295
43.607338 842.01154 829.40601 4294967295
47.027523 842.01154 829.40601 4294967295
49.592659 842.01154 829.40601 4294967295
52.157799 842.01154 829.40601 4294967295
55.57798 842.01154 829.40601 4294967295
64.128441 842.01154 829.40601 4294967295
-27.273394 845.41266 828.34973 4293715184
-25.568808 845.41266 828.34973 4292991204
-23.086239 843.31891 830.50842 4294438642
-19.666054 843.31891 830.50842 4294967295
-16.245872 843.31891 830.50842 4293517033
-5.1302752 843.31891 830.50842 4292330195
13.680734 843.31891 830.50842 4292925159
16.245872 843.31891 830.50842 4291675087
19.666054 843.31891 830.50842 4294107889
23.086239 843.31891 830.50842 4294967295
25.651377 843.31891 830.50842 4292992738
28.216515 843.31891 830.50842 4293381064
31.636698 843.31891 830.50842 4294967295
35.056881 843.31891 830.50842 4294967295
37.622017 843.31891 830.50842 4294967295
40.187157 843.31891 830.50842 4294967295
53.012844 843.31891 830.50842 4294967295
56.433029 843.31891 830.50842 4294967295
58.998165 843.31891 830.50842 4294967295
61.563301 843.31891 830.50842 4294967295
-13.710092 841.9231 831.94751 4293052884
-11.13945 841.9231 831.94751 4294237670
-7.7119265 841.9231 831.94751 4292724691
-3.4275229 841.9231 831.94751 4293579230
-1.7137614 841.9231 831.94751 4294105574
0 841.9231 831.94751 4293384163
11.99633 841.9231 831.94751 4293645273
43.700916 841.9231 831.94751 4294967295
47.128441 841.9231 831.94751 4294967295
49.699081 841.9231 831.94751 4294967295
51.412846 841.9231 831.94751 4294967295
54.840366 841.9231 831.94751 4294967295
64.266052 841.9231 831.94751 4294967295
66.8367 841.9231 831.94751 4294967295
-27.361467 845.27997 832.16187 4293779692
-25.651377 845.27997 832.16187 4293384678
-23.110092 843.92981 832.33142 4294504950
-19.686237 843.92981 832.33142 4294967295
-16.280735 843.23328 833.05212 4293845487
-13.710092 843.23328 833.05212 4292856020
17.137615 843.23328 833.05212 4291806151
19.708256 843.23328 833.05212 4293253853
23.086239 844.62628 831.61072 4294967295
25.651377 844.62628 831.61072 4294967295
28.277065 843.23328 833.05212 4294965232
31.636698 844.62628 831.61072 4294967295
35.056881 844.62628 831.61072 4294967295
37.702751 843.23328 833.05212 4294967295
40.273396 843.23328 833.05212 4294967295
53.126606 843.23328 833.05212 4294967295
55.697247 843.23328 833.05212 4294967295
59.124771 843.23328 833.05212 4294967295
61.695412 843.23328 833.05212 4294967295
63.409176 843.23328 833.05212 4294967295
1.7192661 839.82935 834.1062 4292397268
4.0140672 839.80316 834.95605 4291674572
7.7449541 839.79004 835.38104 4292790993
10.315597 839.82935 834.1062 4292197827
-18.911926 842.45813 836.32275 4294967295
-16.333027 842.45813 836.32275 4293319917
-12.607951 842.02002 835.95331 4292988375
-10.315597 841.8009 835.76862 4293185497
-7.7366972 841.80096 835.76855 4292264398
-4.2981653 841.80096 835.76855 4291738312
-1.7192661 841.8009 835.76862 4292527569
0.57308871 841.58185 835.58392 4292200148
5.1577983 841.14374 835.21448 4292463315
10.315597 841.14374 835.21448 4293580513
13.181039 841.58185 835.58392 4294107120
16.046484 842.02002 835.95331 4293581546
19.771561 842.45813 836.32275 4291609034
36.964218 842.45813 836.32275 4294967295
39.543118 842.45813 836.32275 4294967295
43.841286 841.14374 835.21448 4294967295
46.420185 841.14374 835.21448 4294967295
48.999084 841.8009 835.76862 4294967295
52.151073 842.02002 835.95331 4294967295
55.876144 842.45813 836.32275 4294967295
58.455048 842.45813 836.32275 4294967295
61.033943 842.45813 836.32275 4294967295
65.332108 841.14374 835.21448 4294967295
67.051376 841.14374 835.21448 4294967295
-27.420183 845.85364 835.2616 4294108656
-25.706423 845.85364 835.2616 4294963965
-23.13578 844.54346 834.15686 4294966271
-20.565138 844.54346 834.15686 4294967295
23.13578 844.54346 834.15686 4292331483
25.706423 844.54346 834.15686 4294830591
28.277065 844.54346 834.15686 4294967295
31.704586 844.54346 834.15686 4294967295
34.27523 844.54346 834.15686 4294967295
-12.922018 842.38507 838.8772 4292397522
-10.337615 842.38507 838.8772 4292463315
-7.753211 842.38507 838.8772 4291409860
-5.1688075 842.38507 838.8772 4290882748
-1.7229358 842.38507 838.8772 4290685117
1.7229358 841.72644 838.3219 4291804108
4.3073397 841.72644 838.3219 4293120478
7.753211 841.72644 838.3219 4293976048
10.337615 841.72644 838.3219 4294766329
12.634862 841.94598 838.50702 4294964731
16.367889 842.38507 838.8772 4294372344
18.952293 842.38507 838.8772 4291937753
37.043121 842.38507 838.8772 4294967295
40.77615 841.94598 838.50702 4294967295
43.93486 841.72644 838.3219 4294967295
46.519264 841.72644 838.3219 4294967295
49.103668 842.38507 838.8772 4294967295
52.549541 842.38507 838.8772 4294967295
55.995415 842.38507 838.8772 4294967295
58.579815 842.38507 838.8772 4294967295
61.164223 842.38507 838.8772 4294967295
64.610092 841.72644 838.3219 4294967295
67.194496 841.72644 838.3219 4294967295
-27.508257 845.08691 838.53931 4294569718
-24.642813 844.64874 838.16992 4294966783
-22.374311 843.73743 838.70941 4294967295
-19.781652 844.08356 838.34729 4294440189
-16.350458 843.73737 838.70947 4292201953
-12.922018 843.70227 839.98779 4291871176
-10.337615 843.70227 839.98779 4292134864
-7.753211 843.70227 839.98779 4291411142
-4.0177369 843.72565 839.13556 4289896109
-1.7229358 843.70227 839.98779 4289500064
0 843.73743 838.70941 4290092971
17.229359 843.70227 839.98779 4293056747
20.086239 843.72577 839.13556 4291937489
22.374311 843.73743 838.70941 4291410885
24.955963 843.73743 838.70947 4291738558
28.398165 843.73737 838.70947 4294044916
31.840366 843.73737 838.70947 4294967295
34.42202 843.73743 838.70941 4294967295
49.965137 843.70227 839.98779 4294967295
52.549541 843.70227 839.98779 4294966783
55.995415 843.70227 839.98779 4294967295
58.579815 843.70227 839.98779 4294967295
62.025688 843.70227 839.98779 4294967295
65.471558 843.70227 839.98779 4294967295
67.194496 843.70227 839.98779 4294967295
-27.508257 846.40131 839.64758 4294963964
-25.78899 846.40131 839.64758 4294967295
1.7284404 841.62537 842.16064 4291276473
4.3211012 841.62537 842.16064 4289437365
7.7779818 841.62537 842.16064 4290753995
10.370643 841.62537 842.16064 4293846513
12.963303 841.62537 842.16064 4294503930
15.555964 841.62537 842.16064 4294306551
37.161469 841.62537 842.16064 4294967295
40.618347 841.62537 842.16064 4294967295
44.07523 841.62537 842.16064 4294967295
46.667889 841.62537 842.16064 4294967295
48.396332 841.62537 842.16064 4294967295
60.495415 841.62537 842.16064 4294967295
63.952293 841.62537 842.16064 4294967295
69.137611 840.96466 841.60358 4294769663
-24.121101 845.01947 841.09851 4294967295
-22.398165 845.01947 841.09851 4294965759
-19.813763 845.01947 841.09851 4293912558
-16.367889 845.01947 841.09851 4291937751
22.398165 845.01947 841.09851 4291607239
24.121101 845.01947 841.09851 4290749869
28.42844 845.01947 841.09851 4292066268
67.194496 845.01947 841.09851 4294967039
-27.508257 847.7157 840.75574 4293575121
-24.955046 847.02618 841.48242 4294103520
-22.398165 846.33667 842.20911 4294171369
-19.813763 846.33667 842.20911 4293318636
-12.977064 842.91797 844.55865 4292001734
-10.381651 842.91797 844.55865 4292001993
-7.7862387 842.91797 844.55865 4292067531
-4.3256884 842.91797 844.55859 4289368990
-1.7321101 842.22705 845.28412 4289630620
0.57737005 842.46698 844.61444 4290356918
4.3302751 841.56494 844.72583 4287332774
7.7944956 841.56494 844.72583 4289833390
10.39266 841.56494 844.72583 4293977318
12.977064 842.91797 844.55859 4293515753
16.437614 842.91797 844.55865 4292266200
19.877064 842.94678 843.2749 4292529111
25.926605 842.94678 843.2749 4290420905
31.976147 842.94678 843.2749 4294967295
34.568806 842.94678 843.2749 4294967295
36.899082 842.92755 844.13068 4294967295
40.661469 842.91797 844.55859 4294967295
43.817738 842.92755 844.13068 4294967295
46.156574 842.90839 844.98657 4294967295
49.312847 842.91797 844.55865 4294967295
52.773392 842.91797 844.55859 4294967295
55.368809 842.91797 844.55865 4294967295
57.964222 842.91797 844.55859 4294967295
61.424774 842.91797 844.55859 4294967295
64.5737 842.92755 844.13068 4294967295
69.762688 842.92755 844.13068 4282600355
-24.198166 845.5896 845.50317 4293379788
-22.469725 845.5896 845.50317 4293840339
-19.877064 845.5896 845.50317 4293117916
-16.420183 844.26819 844.38904 4291675601
19.877064 844.26819 844.38904 4293713132
22.469725 844.26819 844.38904 4292726238
25.062386 844.26819 844.38904 4291935423
28.807341 844.70868 844.76044 4290157740
31.976147 844.26819 844.38904 4293714926
34.568806 844.26819 844.38904 4294967295
38.025688 844.26819 844.38904 4294967295
65.680733 844.26819 844.38904 4293718777
67.409172 844.26819 844.38904 4283520862
70.866058 844.26819 844.38904 4278190160
-27.566973 847.65387 843.3197 4293510862
-25.844036 847.65387 843.3197 4292721089
1.7376146 840.82068 848.02234 4288186768
4.3440366 840.82068 848.02234 4286079355
7.8192658 840.82068 848.02234 4286806898
10.425688 840.82068 848.02234 4291341764
-24.249542 845.5376 848.07544 4291925935
-22.517431 845.5376 848.07544 4291925935
-20.78532 845.5376 848.07544 4291925161
-16.455046 844.21338 846.95898 4292524732
17.3211 844.21338 846.95898 4293318620
19.919266 844.21338 846.95898 4294963451
22.517431 844.21338 846.95898 4293055203
25.115597 844.21338 846.95898 4292528337
27.713762 844.21338 846.95898 4290881206
31.177982 844.21338 846.95898 4290155720
38.106422 844.21338 846.95898 4294967295
41.570641 844.21338 846.95898 4294967295
64.954132 844.21338 846.95898 4294967294
67.552292 844.21338 846.95898 4278848264
69.284401 844.21338 846.95898 4278190592
-25.926605 846.91101 846.61743 4292000200
-13.03211 842.14911 849.14246 4292787915
-10.425688 842.14911 849.14246 4292723158
-7.8192658 842.14911 849.14246 4292525770
-4.3440366 842.14911 849.14246 4291077554
-1.7376146 842.14911 849.14246 4290945464
0.87155962 841.11694 850.23419 4288384404
4.3440366 842.14911 849.14246 4282662233
7.8192658 842.14911 849.14246 4282863716
10.425688 842.14911 849.14246 4285948591
13.03211 842.14911 849.14246 4292397035
15.638532 842.14911 849.14246 4291674063
33.883484 842.14911 849.14246 4294966271
36.48991 842.14911 849.14246 4294967295
39.965137 842.14911 849.14246 4294967295
43.440369 842.14911 849.14246 4294967295
46.046791 842.14911 849.14246 4294967295
49.522018 842.14911 849.14246 4294967039
52.997246 842.14911 849.14246 4294967295
55.603668 842.14911 849.14246 4294967295
58.210091 842.14911 849.14246 4294967295
61.685318 842.14911 849.14246 4294967295
-25.195412 844.80591 851.38269 4292193224
-22.588991 844.80591 851.38269 4291137207
-19.692966 844.3631 851.00928 4291136904
-16.507339 843.47754 850.26257 4291068809
-13.03211 843.47754 850.26257 4291398810
-10.425688 843.47754 850.26257 4292717245
-8.6880732 843.47754 850.26257 4292454074
-3.4752293 843.47754 850.26257 4291931827
-1.7376146 843.47754 850.26257 4292392378
0 843.47754 850.26257 4290885060
12.163302 843.47754 850.26257 4290434726
17.376146 843.47754 850.26257 4294964219
19.982569 843.47754 850.26257 4294832637
22.588991 843.47754 850.26257 4294239994
24.326605 843.47754 850.26257 4293384682
28.670643 843.47754 850.26257 4291274664
31.277063 843.47754 850.26257 4290549674
33.883484 843.47754 850.26257 4294567412
37.358719 843.47754 850.26257 4294967295
40.833946 843.47754 850.26257 4294967295
64.29174 843.47754 850.26257 4294967295
67.187767 843.92035 850.63593 4294243572
69.504585 843.47754 850.26257 4292068305
-16.559633 842.75006 853.57324 4290542465
-13.073395 842.75006 853.57324 4291133323
-10.458715 842.75006 853.57324 4292255398
-7.5535164 842.30585 853.19873 4292322744
-4.6483178 842.30585 853.19873 4292390847
-1.7431192 842.75006 853.57324 4292919487
0.87155962 842.08374 853.01141 4288318106
4.3577981 842.08374 853.01141 4278783771
7.8440361 842.08374 853.01147 4280553001
10.458715 842.08374 853.01141 4282595643
13.363914 842.30585 853.19873 4293776879
16.269114 842.30585 853.19873 4294372854
20.045872 842.75006 853.57324 4294898941
22.660551 842.75006 853.57324 4294306549
25.56575 842.30585 853.19873 4292068821
28.761467 842.75006 853.57324 4290750122
31.376146 842.75006 853.57324 4290091431
33.990826 842.75006 853.57324 4293251300
37.477066 842.75006 853.57324 4294967295
40.963303 842.75006 853.57324 4294967295
43.57798 841.41742 852.44958 4294967295
46.192661 841.41742 852.44958 4294967295
49.678898 841.41742 852.44958 4294967295
52.293579 841.41742 852.44958 4294967295
54.908257 842.08374 853.01147 4294967295
58.394493 842.08374 853.01147 4294967295
61.880733 842.08374 853.01147 4294967295
64.495415 842.75006 853.57324 4294967295
66.238533 842.75006 853.57324 4294967295
-25.27523 844.0827 854.6969 4293707474
-22.660551 844.0827 854.6969 4293971674
-20.045872 844.0827 854.6969 4291800759
-16.559633 844.0827 854.6969 4290674569
-13.944954 844.0827 854.6969 4290934395
0 844.0827 854.6969 4293318370
29.633028 844.0827 854.6969 4291210932
33.119267 844.0827 854.6969 4291407018
64.495415 844.0827 854.6969 4294967295
67.110092 844.0827 854.6969 4294967295
-12.227523 842.7149 856.15967 4291263361
-10.480734 842.7149 856.15967 4291394181
-7.8605504 842.7149 856.15967 4291923605
-4.3669724 842.7149 856.15967 4292850362
-1.746789 842.7149 856.15967 4293971674
1.746789 842.04718 855.59668 4288514712
4.3669724 842.7149 856.15967 4291012522
7.8605504 842.7149 856.15967 4293511895
10.480734 842.7149 856.15967 4294964983
13.100918 842.7149 856.15967 4294967295
16.594496 842.7149 856.15967 4294966783
20.088074 842.7149 856.15967 4294702591
22.708258 842.7149 856.15967 4293978612
25.328442 842.7149 856.15967 4292464093
27.948624 842.7149 856.15967 4292395206
31.442202 842.7149 856.15967 4290420123
34.93578 842.7149 856.15967 4292332247
37.555962 842.7149 856.15967 4294967295
41.049541 842.7149 856.15967 4294967295
43.669724 841.37946 855.03369 4294967295
46.289909 841.37946 855.03369 4294967295
49.783485 841.37946 855.03369 4294967295
52.403671 842.04718 855.59668 4294967295
55.023853 842.7149 856.15967 4294967295
58.517433 842.7149 856.15967 4294967295
62.011009 842.7149 856.15967 4294967295
-24.455046 844.05029 857.28564 4293775828
-22.708258 844.05029 857.28564 4294170585
-20.961468 844.05029 857.28564 4292985564
-16.594496 844.05029 857.28564 4290413473
-6.9871559 844.05029 857.28564 4291137937
-1.746789 844.05029 857.28564 4293644512
0 844.05029 857.28564 4293514466
6.9871559 844.05029 857.28564 4294964977
