# .PCD v0.7 - Point Cloud Data file format
VERSION 0.7
FIELDS x y z rgb
SIZE 4 4 4 4
TYPE F F F U
COUNT 1 1 1 1
WIDTH 1166
HEIGHT 1
VIEWPOINT 0 0 0 1 0 0 0
POINTS 1166
DATA ascii
43.508255 836.80811 798.85803 4294967295
46.018349 836.80811 798.85803 4294967295
-15.897248 838.0874 799.93677 4284302137
40.998165 838.0874 799.93677 4294967295
43.508255 838.0874 799.93677 4294967295
46.018349 838.0874 799.93677 4294967295
-13.34312 842.15698 799.44397 4285951628
-11.119266 842.36945 799.62323 4282200400
-7.2275233 842.36945 799.62323 4285948529
-4.4477067 842.36945 799.62323 4282264630
1.66789 842.15698 799.44397 4281735458
4.1697249 842.15698 799.44397 4282196240
7.5055046 842.79456 799.98157 4283055432
10.841284 842.79456 799.98157 4287189584
13.34312 842.79456 799.98157 4291727800
15.844954 842.79456 799.98157 4294963450
19.180733 842.79456 799.98157 4294967038
22.516514 842.79456 799.98157 4294967295
25.852295 842.79456 799.98157 4294967295
28.354128 842.79456 799.98157 4294967295
30.577982 841.94452 799.26483 4294967295
34.191742 841.51941 798.90637 4294967295
37.527523 841.51941 798.90637 4294967295
-1.6642202 844.22687 798.57312 4281804861
0 844.22687 798.57312 4282849827
-10.689908 749.35785 802.29602 4287070088
-7.7204895 748.90381 801.91315 4294111219
-10.689908 750.71991 803.44446 4278190108
-8.9082565 750.71991 803.44446 4278782521
-10.65688 755.73145 803.74585 4294946481
-7.548624 754.71301 802.88721 4288571252
-4.7339444 754.43011 801.77667 4289103498
-1.772477 755.90118 801.27307 4294701002
1.772477 755.90118 801.27307 4294967295
3.5449541 755.90118 801.27307 4294967295
-7.0899081 758.61133 803.55823 4294949336
-4.7266049 757.70801 802.79657 4293972700
-3.5339448 760.89447 801.5592 4294957813
3.5339448 760.89447 801.5592 4294305754
-7.0678897 763.59619 803.83716 4285268010
-5.3009176 762.24536 802.69812 4292103042
26.504587 762.24536 802.69812 4294967295
-7.0458717 767.21759 802.96655 4280556037
-5.2844038 765.87091 801.83105 4287504460
25.834862 766.31982 802.20953 4294967295
-7.0238533 770.83051 802.08887 4281672244
-5.26789 770.83051 802.08887 4286277754
-7.8944955 772.927 802.54846 4285357666
29.78899 773.68103 801.87622 4294967295
31.541285 773.68103 801.87622 4294967295
33.363304 772.17297 803.2207 4294967295
-7.0091743 775.02069 803.00574 4286605440
31.541285 775.02069 803.00574 4294967295
33.293579 775.02069 803.00574 4294967295
-8.7339449 778.61401 802.11145 4289698222
26.201836 778.61401 802.11145 4287932102
28.822018 778.61401 802.11145 4294373871
31.442202 779.94946 803.23743 4294967295
33.188992 779.94946 803.23743 4294967295
-8.1345568 781.89331 802.26044 4292657116
29.051987 781.89331 802.26044 4294703608
-10.425688 787.68384 803.21875 4282530648
-8.6880732 787.01965 802.65869 4289568197
29.53945 787.01965 802.65869 4294967295
-7.7944956 790.58276 801.73901 4286215823
25.981651 789.92065 801.18079 4294967295
28.291132 790.80347 801.92511 4294967295
-10.39266 792.56909 803.41382 4281542443
-8.6422014 794.05469 802.05029 4282002994
25.926605 794.05469 802.05029 4294967295
28.519266 794.05469 802.05029 4294967295
32.044037 792.56909 803.41382 4294967295
34.6422 792.56909 803.41382 4294967295
-10.370643 795.3761 803.16455 4281214773
-8.6146793 797.60034 801.11584 4280951600
24.982569 797.60034 801.11584 4294967295
28.475229 796.48822 802.1402 4294967295
31.976147 795.3761 803.16455 4294967295
-10.337615 799.57617 802.78174 4282002998
-8.6146793 798.91754 802.22644 4281147433
24.982569 798.91754 802.22644 4294967295
28.42844 798.91754 802.22644 4294967295
31.874311 798.91754 802.22644 4294967295
-10.315597 803.02637 803.07483 4282397500
-8.5963306 802.36914 802.52069 4281410861
32.666054 801.71198 801.96655 4294967295
-8.5688076 806.5481 802.12024 4281609781
-10.282569 807.85828 803.22485 4282859848
-8.5504589 809.32703 801.84729 4281872952
-11.079817 814.13654 801.97852 4281741629
-15.308257 816.90009 801.69263 4286344051
-13.60734 816.90009 801.69263 4285227114
-10.205504 816.90009 801.69263 4281478195
-16.377981 823.8952 802.79449 4285489525
-13.533945 824.43109 801.50232 4284505190
-15.789603 826.58667 803.31982 4285618531
-13.533945 825.72443 802.5929 4284505190
-19.391743 830.47644 802.67554 4283976800
-16.019266 830.47644 802.67554 4284763704
-13.489908 829.18732 801.5885 4284505188
-19.349541 833.2063 802.36121 4284107882
-19.28624 836.64954 801.34033 4283977048
-19.28624 838.57275 802.96191 4283319381
-16.200611 838.8374 802.31305 4282726944
40.998165 839.36676 801.01538 4294967295
43.508255 839.36676 801.01538 4294967295
46.018349 839.36676 801.01538 4294967295
48.528439 839.36676 801.01538 4294967295
-15.060551 840.64606 802.09412 4285753445
-13.387156 841.92542 803.17285 4283713891
-10.877064 841.92542 803.17285 4279569956
-7.5302753 841.92542 803.17285 4280820281
-5.0201836 841.92542 803.17285 4280029745
1.6733944 841.92542 803.17285 4291599251
4.183486 841.92542 803.17285 4293184460
7.5302753 841.92542 803.17285 4291282646
10.877064 841.92542 803.17285 4286080098
13.387156 841.92542 803.17285 4287588985
15.897248 841.92542 803.17285 4292918731
21.754128 841.92542 803.17285 4294967295
28.447706 841.92542 803.17285 4294967295
31.236696 841.49902 802.81329 4294967295
34.304588 841.28577 802.63354 4294967295
37.651375 841.28571 802.63354 4294967295
40.998165 841.28571 802.63354 4294967295
43.508255 841.28577 802.63348 4294967295
46.018349 841.28577 802.63348 4294967295
48.528439 841.92542 803.17285 4294967295
-3.3357799 844.06964 801.05664 4279832320
-1.66789 844.70715 801.59424 4285417791
0 844.70715 801.59424 4289430126
19.180733 844.06964 801.05664 4294967295
23.350458 844.06964 801.05664 4294967295
25.852295 844.06964 801.05664 4294967295
-10.689908 752.08203 804.5929 4287843197
-8.9082565 752.08203 804.5929 4285079891
-12.47156 754.12512 806.31567 4291525468
-12.433027 758.44714 806.03577 4280483840
-10.65688 757.76819 805.46332 4288697396
-8.8807335 757.08929 804.89087 4294622078
-10.634862 761.32147 805.84326 4283374901
-8.2715597 760.41815 805.08154 4286588221
31.904587 761.32147 805.84326 4294967295
34.563301 761.32147 805.84326 4294967295
-10.634862 762.67657 806.98584 4281609531
-8.8348627 764.94708 804.9762 4280951600
31.805504 764.94708 804.9762 4294967295
34.511009 763.81183 805.98102 4294967295
-10.601835 766.29791 806.11523 4282593346
35.339451 766.29791 806.11523 4294967295
-10.568808 769.91089 805.23743 4285227110
-8.8073397 768.56421 804.10205 4281804086
31.706423 768.56421 804.10205 4294967295
34.348625 769.23755 804.66974 4294967295
-12.330276 771.25757 806.37292 4285221972
-10.53578 773.51544 804.35266 4286539375
-8.7798166 773.51544 804.35266 4286802803
35.119267 773.51544 804.35266 4294967295
37.871559 771.25757 806.37292 4294967295
40.51376 771.25757 806.37292 4294967295
42.27523 771.25757 806.37292 4294967295
-13.169725 775.52905 806.05054 4286804802
-10.513762 776.36035 804.13525 4290224566
31.541285 776.36035 804.13525 4294967295
34.5107 775.80615 805.41211 4294967295
-12.850154 778.59302 806.01788 4286350186
-10.513762 777.69995 805.26489 4290290109
35.045872 779.03961 806.39441 4294967295
-13.100918 782.6203 805.4895 4284637796
-10.480734 781.28485 804.36353 4288906923
31.442202 781.28485 804.36353 4294967295
34.062386 781.95258 804.92651 4294967295
-15.721101 783.95575 806.61548 4286082930
-13.073395 785.44702 805.25684 4283978067
-10.458715 784.11438 804.13318 4285683850
31.376146 784.7807 804.69501 4294967295
33.700306 785.00275 804.88232 4294967295
37.555962 783.95575 806.61548 4294967295
-13.944954 786.7796 806.38049 4284505940
36.605503 786.7796 806.38049 4294967295
-15.638532 791.66907 806.57898 4285227616
-13.03211 790.3407 805.45898 4283781470
-10.425688 789.01227 804.33887 4282267988
31.277063 789.01227 804.33887 4294967295
33.883484 789.01227 804.33887 4294967295
36.48991 791.00488 806.01898 4294967295
-12.124771 793.89331 804.5304 4283122784
34.6422 793.89331 804.5304 4294967295
-22.517431 796.54175 806.76343 4284503644
-16.455046 796.54175 806.76343 4285029736
-12.977982 795.95752 804.96277 4284898167
34.568806 796.69751 804.27869 4294967295
37.240368 795.87964 806.2052 4294967295
-15.555964 799.34033 806.50708 4284963945
-12.963303 798.01892 805.39282 4284964206
34.568806 798.01892 805.39282 4294967295
36.297249 799.34033 806.50708 4294967295
-12.922018 802.21057 805.00305 4284635512
34.458717 801.55194 804.44775 4294967295
36.181652 802.86914 805.55835 4294967295
-15.506422 804.18634 806.66895 4281741121
-12.901834 805.94513 806.18994 4284043099
-10.315597 804.34076 804.18311 4282465090
-10.282569 809.16846 804.32959 4282268742
-18.649542 825.57141 805.07983 4282990423
-21.873394 835.77899 804.5304 4284372057
-22.43425 837.92285 806.33807 4284107088
-20.190826 838.35168 806.69958 4283186250
-18.447706 840.49591 804.5835 4280028187
-15.652599 840.92328 804.94385 4280359946
-13.416513 841.77808 805.66455 4282787616
-10.900917 841.77808 805.66455 4281405465
-7.5467887 841.77808 805.66455 4281534999
11.73945 841.77808 805.66455 4286475902
13.416513 841.77808 805.66455 4286277495
15.93211 841.77808 805.66455 4288907699
31.025688 841.77808 805.66455 4294967295
33.541283 841.77808 805.66455 4294967295
41.926605 841.77808 805.66455 4294967295
-4.1880732 843.13245 805.49854 4285679428
-1.6733944 844.48401 805.3302 4294496184
1.1168195 843.58301 805.44238 4294898408
4.1880732 843.13245 805.49854 4294899702
7.5385318 843.13245 805.49854 4293978869
10.051376 843.13245 805.49854 4291872977
16.770641 843.06018 806.74561 4286675842
19.265139 843.13245 805.49854 4294703611
22.615595 843.13245 805.49854 4294967295
25.966053 843.13245 805.49854 4294967295
28.478899 843.13245 805.49854 4294967295
35.141285 843.20471 804.25146 4294967295
37.692661 843.13245 805.49854 4294967295
40.205505 843.13245 805.49854 4294967295
43.555962 843.13245 805.49854 4294967295
46.331497 843.15656 805.08282 4294967295
49.419266 843.13245 805.49854 4294967295
-14.297248 751.8399 808.31287 4290538317
-14.253211 756.8493 808.61261 4281275163
-12.433027 760.48401 807.75311 4281344815
-13.308256 763.27625 808.7995 4282857537
37.222019 764.03162 808.12842 4294967295
39.963303 762.52081 809.47058 4294967295
42.627522 762.52081 809.47058 4294967295
-13.274312 766.51776 808.26263 4284238411
38.050461 766.51776 808.26263 4294967295
40.766972 765.38672 809.271 4294967295
42.539448 765.38672 809.271 4294967295
-19.436697 770.35052 809.53223 4282268492
-16.78624 770.35052 809.53223 4283776577
-14.135779 768.99963 808.39319 4283840319
-21.137615 773.95087 808.64392 4284242019
-19.376146 773.95087 808.64392 4283978846
-16.733946 773.95087 808.64392 4286345300
-14.091743 772.60419 807.50842 4283511297
37.871559 773.27753 808.07617 4294967295
40.51376 773.27753 808.07617 4294967295
42.27523 773.27753 808.07617 4294967295
-22.899082 775.29749 809.7793 4284503394
40.51376 775.29749 809.7793 4294967295
42.27523 775.29749 809.7793 4294967295
-21.656881 778.43774 808.50311 4284831594
-19.315596 778.21399 808.31439 4284766062
-16.974312 777.99023 808.12573 4286608749
37.753212 777.54279 807.74841 4294967295
-19.275229 781.71893 808.65356 4282861917
-16.64679 781.04907 808.08875 4286214511
37.674309 780.37927 807.52393 4294967295
40.302753 781.04907 808.08875 4294967295
42.055046 781.04907 808.08875 4294967295
-21.903669 783.05853 809.78308 4283846238
-19.21468 785.2912 807.74146 4282728278
-16.594496 785.2912 807.74146 4284241239
38.429359 785.2912 807.74146 4294967295
41.049541 785.2912 807.74146 4294967295
-24.455046 786.62659 808.86743 4284042841
-22.660551 788.11224 807.50403 4284306012
-20.088074 787.29431 809.43048 4284832102
-16.559633 788.11224 807.50403 4283913553
38.348625 788.11224 807.50403 4294967295
41.049541 786.62659 808.86743 4294967295
43.623852 788.03711 808.74878 4294967295
45.416515 787.96204 809.99353 4294967295
-25.27523 790.11121 809.18958 4284437601
-22.660551 789.44489 808.62769 4284108886
-19.755352 790.33331 809.37677 4285817199
-17.431192 789.44489 808.62769 4284832858
38.348625 789.44489 808.62769 4294967295
40.963303 790.11121 809.18958 4294967295
43.57798 790.77753 809.75134 4294967295
47.06422 790.77753 809.75134 4294967295
-22.588991 792.9975 807.6991 4284109140
-19.982569 794.32593 808.81921 4285490789
-16.507339 792.9975 807.6991 4284833376
40.833946 794.32593 808.81921 4294967295
43.440369 794.32593 808.81921 4294967295
-22.517431 797.86597 807.88 4283845713
-19.919266 797.86597 807.88 4283911507
-17.3211 797.86597 807.88 4284503394
38.106422 797.86597 807.88 4294967295
40.833946 795.65436 809.93933 4294967295
43.440369 795.65436 809.93933 4294967295
46.046791 795.65436 809.93933 4294967295
-22.469725 800.66174 807.62122 4283648598
-19.899082 799.9259 808.30884 4283254094
-16.420183 800.66174 807.62122 4283912552
38.025688 800.66174 807.62122 4294967295
39.838531 799.19012 808.99646 4294967295
43.302753 799.19012 808.99646 4294967295
45.034863 799.19012 808.99646 4294967295
-22.469725 801.98315 808.73535 4283319887
-19.877064 802.64386 809.29248 4281740342
-17.284403 802.64386 809.29248 4281016107
38.025688 802.64386 809.29248 4294967295
-16.367889 806.16211 808.33496 4283185728
-16.333027 808.94116 808.06207 4285225056
-13.754128 808.28394 807.50793 4284108899
-25.293577 838.2113 809.19739 4284301652
-22.740368 838.92468 808.49078 4284168767
-19.349541 839.638 807.78418 4282063393
-16.825687 839.638 807.78418 4280615168
-19.069113 841.35321 809.23029 4288114804
-15.984404 841.5675 809.41113 4289039250
-13.46055 841.5675 809.41113 4290223768
-10.936697 841.56757 809.41113 4291145392
-7.5715594 841.5675 809.41113 4290816175
-5.0477066 842.21069 809.95349 4292197827
7.5715594 842.21069 809.95349 4294967295
11.217125 841.78192 809.59198 4293650924
13.46055 840.92438 808.86877 4288849859
15.703975 841.78192 809.59198 4287728816
19.349541 842.21069 809.95349 4292202468
22.71468 842.21069 809.95349 4294967295
26.079817 842.21069 809.95349 4294967295
28.60367 842.21069 809.95349 4294967295
31.127522 841.5675 809.41113 4294967295
34.492661 841.5675 809.41113 4294967295
37.857796 842.21069 809.95349 4294967295
42.06422 840.92438 808.86877 4294967295
45.429359 840.92438 808.86877 4294967295
49.63578 842.21069 809.95349 4294967295
-3.3541284 844.34229 807.82666 4293184711
-1.6770642 844.34229 807.82666 4294963692
0.83853209 844.34229 807.82666 4294966527
4.1926603 844.34229 807.82666 4294967295
-16.117432 751.00092 810.22156 4285739844
34.921101 752.37006 811.37598 4294967295
37.607338 752.37006 811.37598 4294967295
-16.977982 754.57251 810.61694 4281474616
37.530273 755.25562 811.19299 4294967295
39.317432 755.25562 811.19299 4294967295
-16.953211 757.7572 811.34015 4283648083
-14.253211 758.89246 810.33533 4282794054
37.41468 758.89246 810.33533 4294967295
40.150459 757.7572 811.34015 4294967295
42.891743 756.62195 812.34497 4294967295
-21.379816 761.61658 812.63232 4284635243
-19.598166 761.61658 812.63232 4282727246
-16.925688 760.25452 811.48376 4283780690
-16.873394 763.87872 810.61548 4283778901
-21.313761 765.23657 811.76038 4284044639
-19.497248 766.74182 810.41357 4282202435
-16.838531 766.74182 810.41357 4283844181
-21.269724 768.09686 811.55615 4284176489
-21.949541 780.22766 810.01221 4283978595
-21.027523 784.39819 810.9126 4285292653
45.416515 789.29749 811.11951 4294967295
-24.984711 792.55438 811.24951 4284569437
46.192661 792.11011 810.875 4294967295
41.702751 796.98279 811.05945 4294967295
-24.326605 798.31122 812.17944 4283648596
40.704586 800.51434 810.11304 4294967295
43.302753 800.51434 810.11304 4294967295
45.034863 800.51434 810.11304 4294967295
40.704586 802.50067 811.7879 4294967295
43.302753 802.50067 811.7879 4294967295
45.900917 801.83856 811.22961 4294967295
-18.952293 808.13794 810.00085 4284371551
-27.06789 836.07123 811.31702 4283709514
-26.136696 839.50043 810.2843 4283640617
-22.764221 839.50043 810.2843 4286992208
-25.293577 840.78961 811.37134 4288377724
-22.764219 841.4342 811.91479 4291144873
-19.672783 841.64911 812.09595 4291739328
-16.019266 842.07874 812.45825 4293318620
-13.489908 842.07874 812.45825 4293122009
-10.96055 842.07874 812.45825 4293253083
-7.5880733 842.07874 812.45825 4293515483
8.4311924 842.07874 812.45825 4294967295
10.96055 842.07874 812.45825 4294967295
13.489908 841.4342 811.91479 4293320191
16.019266 842.07874 812.45825 4291744456
19.391743 842.07874 812.45825 4290625216
22.764221 842.07874 812.45825 4294967295
26.136696 842.07874 812.45825 4294967295
28.666056 842.07874 812.45825 4294967295
31.195412 842.07874 812.45825 4294967295
34.56789 842.07874 812.45825 4294967295
37.940369 842.07874 812.45825 4294967295
40.469727 841.4342 811.91479 4294967295
42.999081 841.4342 811.91479 4294967295
46.371559 841.43414 811.91479 4294967295
49.744034 842.07874 812.45825 4294967295
52.835476 841.64911 812.09595 4294967295
-3.9259937 843.92578 811.3996 4293646812
-1.6825688 844.1402 811.58038 4293909986
0.56085628 843.92578 811.3996 4294042863
4.2064219 843.49701 811.03809 4294768378
6.7302752 843.49701 811.03809 4294967295
-21.555964 752.83777 815.69434 4283452000
-19.759632 751.46442 814.53638 4281276720
-19.699083 755.10828 813.68469 4282399569
-21.489908 756.47736 814.83911 4283452000
-19.658716 757.98822 813.49695 4282070347
-25.27523 794.77539 813.12231 4284305764
-27.631805 839.08905 813.86157 4288181876
-25.376146 839.95129 814.58862 4293316308
-25.376146 841.24463 815.67908 4294170602
-22.838531 841.24463 815.67908 4293778658
-19.455046 841.24463 815.67908 4293318624
-16.917431 841.24463 815.67908 4293252314
22.838531 841.24463 815.67908 4294967295
25.376146 841.24463 815.67908 4294967295
27.913761 841.24463 815.67908 4294967295
31.297249 841.24463 815.67908 4294967295
34.680733 841.24463 815.67908 4294967295
38.06422 841.24463 815.67908 4294967295
40.601833 841.24463 815.67908 4294967295
43.13945 841.24463 815.67908 4294967295
46.522934 841.24463 815.67908 4294967295
49.906422 841.24463 815.67908 4294967295
52.444038 841.24463 815.67908 4294967295
54.13578 841.24463 815.67908 4294967295
-15.176147 843.36786 813.54529 4293252314
-13.489908 843.36786 813.54529 4293056218
-10.96055 843.36786 813.54529 4293187806
-7.5880733 844.01245 814.08875 4292595924
-4.4966359 844.22729 814.26984 4292463566
-1.6862385 844.65704 814.6322 4294107109
0.56207949 844.65698 814.63226 4294175218
3.9345562 843.79761 813.90753 4293780456
7.5880733 843.36786 813.54529 4294967295
10.96055 843.36786 813.54529 4294967295
13.489908 843.36786 813.54529 4294967295
16.019266 843.36786 813.54529 4294177260
19.391743 843.36786 813.54529 4290490038
-30.517431 838.53302 816.00879 4291933094
-28.256882 839.39716 816.73737 4293314242
-25.431192 841.12531 818.19458 4294235625
-22.888073 841.12531 818.19458 4294634228
-19.477064 841.83167 817.48212 4294370799
-16.07156 842.53802 816.76965 4294304750
-13.533945 842.53802 816.76965 4292332243
-10.99633 842.53802 816.76965 4292266965
1.6917431 842.53802 816.76965 4292464858
5.0752292 842.53802 816.76965 4292790998
7.612844 842.53802 816.76965 4293647338
10.99633 842.53802 816.76965 4294966015
13.533945 842.53802 816.76965 4294967295
16.07156 842.53802 816.76965 4294967295
19.455046 842.53802 816.76965 4290947752
22.838531 842.53802 816.76965 4294967294
25.376146 842.53802 816.76965 4294967295
27.974312 841.12531 818.19458 4294967295
31.365139 841.12531 818.19458 4294967295
34.755962 841.12531 818.19458 4294967295
38.104588 841.83167 817.48212 4294967295
40.689907 841.12531 818.19458 4294967295
43.233028 841.12531 818.19458 4294967295
46.572479 841.83167 817.48212 4294967295
49.906422 842.53802 816.76965 4294967295
52.444038 842.53802 816.76965 4294967295
54.981651 842.53802 816.76965 4294967295
-7.612844 843.83136 817.86011 4292069078
-4.2293577 843.83136 817.86011 4292332496
-1.6917431 843.83136 817.86011 4294503403
4.2293577 843.83136 817.86011 4291740106
7.612844 843.83136 817.86011 4292858333
10.99633 843.83136 817.86011 4294900475
13.533945 843.83136 817.86011 4294967295
16.07156 843.83136 817.86011 4294967295
-31.466972 838.35614 819.78381 4291010982
-28.065138 839.00635 820.33203 4293312966
-31.466972 840.3067 821.42847 4289960099
-28.065138 840.3067 821.42847 4292393674
-25.513762 840.3067 821.42847 4294105322
-22.962385 840.3067 821.42847 4294635259
-19.497248 842.42151 819.28735 4294635514
-16.106422 842.42151 819.28735 4294831612
-13.563303 842.42151 819.28735 4293252314
-11.020184 842.42151 819.28735 4291476168
1.6954129 842.42151 819.28735 4292595935
19.497248 842.42151 819.28735 4291874502
22.888073 842.42151 819.28735 4294703345
25.431192 842.42151 819.28735 4294967295
27.974312 842.42151 819.28735 4294967295
31.41468 841.36414 820.35791 4294967295
34.813759 841.36414 820.35791 4294967295
38.20734 841.36414 820.35791 4294967295
40.822018 840.3067 821.42847 4294967295
43.304588 841.36414 820.35791 4294967295
46.623856 842.42151 819.28735 4294967295
50.014679 842.42151 819.28735 4294967295
52.557796 842.42151 819.28735 4294967295
55.100918 842.42151 819.28735 4294967295
-6.7816515 843.71765 820.38025 4292004048
-4.2385321 843.71765 820.38025 4292793050
-1.6954129 843.71765 820.38025 4294966527
0 844.36572 820.9267 4294967295
5.0862384 843.71765 820.38025 4291742155
7.9119263 844.14972 820.74457 4291477701
11.020184 844.36572 820.9267 4291936717
13.563303 844.36572 820.9267 4292792275
16.106422 844.36572 820.92676 4294967039
19.497248 843.71765 820.38025 4294967295
22.888073 843.71765 820.38025 4294770168
57.644035 843.71765 820.38025 4294967295
-34.091743 838.89679 822.85571 4292527821
-34.091743 840.19995 823.95447 4292528341
-31.534863 840.19995 823.95447 4288843402
-28.096331 840.9035 823.23969 4291145902
-25.513762 841.60706 822.5249 4294172399
-22.962385 841.60706 822.5249 4292990943
-19.560551 841.60706 822.5249 4292660195
-16.158716 841.60706 822.5249 4294237675
-13.60734 841.60706 822.5249 4293384417
-10.772477 842.04053 822.89038 4291343297
-7.9376144 842.47394 823.25586 4292133326
-4.2522936 842.90741 823.62134 4293187294
-1.7009175 842.90741 823.62134 4294967295
1.7009175 841.60706 822.5249 4294767359
3.9688072 842.47394 823.25586 4293057758
6.8036699 842.90741 823.62134 4291675335
19.560551 842.90741 823.62134 4294967295
22.962385 842.90741 823.62134 4294901502
25.513762 842.2572 823.07312 4294967295
28.065138 841.60706 822.5249 4294967295
31.466972 841.60706 822.5249 4294967295
34.944038 840.19995 823.95447 4294967295
37.500916 840.19995 823.95447 4294967295
39.971558 841.60706 822.5249 4294967295
43.373394 841.60706 822.5249 4294967295
46.77523 841.60706 822.5249 4294967295
49.326607 841.60706 822.5249 4294967295
51.877983 842.2572 823.07312 4294967295
55.279816 842.25726 823.07312 4294967295
58.681648 842.90741 823.62134 4294967295
-3.401835 844.20776 824.71777 4291738296
-1.7009175 844.20776 824.71777 4294964722
0 844.20776 824.71777 4294967295
8.5045872 844.20776 824.71777 4291871946
11.055964 844.20776 824.71777 4290753463
13.60734 844.20776 824.71777 4290883504
15.308257 844.20776 824.71777 4292330951
-34.201836 839.39679 827.20129 4292266189
-32.491745 839.39679 827.20129 4288976539
-30.68257 841.50317 825.05322 4288777613
-28.125687 841.50317 825.05322 4290816695
-25.568808 841.50317 825.05322 4294895615
-23.011927 841.50317 825.05322 4292200907
-19.602753 841.50317 825.05322 4291278049
-16.193579 841.50317 825.05322 4293779171
-13.636697 841.50317 825.05322 4293318368
-11.363914 842.37201 825.78583 4291804360
-7.6706419 842.80634 826.1521 4290156965
-5.1137614 842.80634 826.1521 4289630104
1.7045871 842.15479 825.60266 4294702591
4.2614679 842.80634 826.1521 4293714925
6.8183484 842.80634 826.1521 4292990171
17.045872 842.80634 826.1521 4292659672
19.602753 842.80634 826.1521 4294899197
23.011927 842.80634 826.1521 4294967295
25.568808 842.80634 826.1521 4294967295
27.841589 841.93756 825.41949 4294967295
31.534863 841.50317 825.05322 4294967295
34.944038 841.50317 825.05322 4294967295
37.500916 841.50317 825.05322 4294967295
40.0578 841.50317 825.05322 4294967295
43.182873 841.93756 825.41949 4294967295
46.876144 842.15472 825.60266 4294967295
49.433029 842.15479 825.60266 4294967295
51.989906 842.80634 826.1521 4294967295
55.399082 842.80634 826.1521 4294967295
58.808258 842.80634 826.1521 4294967295
-6.8183484 844.1095 827.25085 4288575089
-4.2614679 844.1095 827.25085 4289169015
-1.7045871 844.1095 827.25085 4294962387
0.85229355 844.80884 826.53253 4294900735
4.2614679 844.1095 827.25085 4294241272
7.6706419 844.1095 827.25085 4292530644
11.079817 844.1095 827.25085 4290818486
13.636697 844.1095 827.25085 4291081147
16.193579 844.1095 827.25085 4291935691
19.602753 844.1095 827.25085 4294635513
22.159634 844.1095 827.25085 4294967295
51.989906 844.1095 827.25085 4294967295
55.399082 844.1095 827.25085 4294967295
58.808258 844.1095 827.25085 4294967295
-34.27523 839.30273 829.73804 4291277508
-32.561466 839.30273 829.73804 4289566891
-31.396942 840.64331 829.9964 4289369498
-28.232109 841.00818 829.21405 4291144625
-25.6789 840.65857 829.57324 4294963454
-23.11101 840.65857 829.57324 4293583084
-19.687157 840.65857 829.57324 4292793311
-16.263304 840.65857 829.57324 4293647844
-13.695413 840.65857 829.57324 4293056479
-11.115597 842.01154 829.40601 4290356423
-8.5504589 842.01154 829.40601 4288182197
23.941284 842.01154 829.40601 4294967295
25.651377 842.01154 829.40601 4294967295
28.501528 841.57574 829.03857 4294967295
31.636698 841.35785 828.85486 4294967295
35.056881 841.35785 828.85486 4294967295
37.622017 841.35785 828.85486 4294967295
40.187157 841.35785 828.85486 4294967295
43.892353 841.57574 829.03857 4294967295
47.027523 842.01154 829.40601 4294967295
49.592659 842.01154 829.40601 4294967295
-10.26055 843.31891 830.50842 4288182921
-7.6954126 843.31891 830.50842 4288969597
-4.2697248 844.36578 829.42908 4291073158
-1.7045871 845.41266 828.34973 4294963163
0.85504586 844.36578 829.42908 4294900223
4.2752295 843.31891 830.50842 4293781227
7.6954126 843.31891 830.50842 4292793310
11.115597 843.31891 830.50842 4292067009
13.680734 843.31891 830.50842 4292001729
16.245872 843.31891 830.50842 4291146167
19.666054 843.31891 830.50842 4292395984
23.086239 843.31891 830.50842 4294966783
47.027523 843.31891 830.50842 4294967295
49.592659 843.31891 830.50842 4294967295
52.157799 843.31891 830.50842 4294967295
55.57798 843.31891 830.50842 4294967295
58.808258 845.41266 828.34973 4294967295
0 846.71582 829.44849 4294569471
-36.677673 838.07684 832.62848 4291411406
-34.385323 838.51495 832.99792 4290094265
-30.847706 841.9231 831.94751 4288909960
-28.277065 841.9231 831.94751 4289896609
-25.706423 841.9231 831.94751 4294896373
-23.13578 841.9231 831.94751 4294702847
-19.708256 841.9231 831.94751 4294505463
-16.280735 841.9231 831.94751 4293649134
-13.710092 841.9231 831.94751 4291939286
-11.99633 841.9231 831.94751 4288583843
25.706423 841.9231 831.94751 4294967295
28.277065 841.9231 831.94751 4294967295
31.704586 841.9231 831.94751 4294967295
35.132111 841.9231 831.94751 4294967295
37.702751 841.9231 831.94751 4294967295
40.273396 841.9231 831.94751 4294967295
43.700916 841.9231 831.94751 4294967295
-10.282569 843.23328 833.05212 4288645761
-7.7119265 843.23328 833.05212 4290552212
-3.9938838 844.59772 832.45868 4294437090
-1.7100917 845.27997 832.16187 4293058783
0.85504586 845.27997 832.16187 4291278039
4.2807341 843.92981 832.33142 4292857292
7.7027521 843.92981 832.33142 4293121759
11.126606 843.92981 832.33142 4292001477
13.710092 843.23328 833.05212 4291870148
16.264221 843.92981 832.33142 4291212475
19.708256 843.23328 833.05212 4291344066
23.13578 843.23328 833.05212 4294766331
47.128441 843.23328 833.05212 4294967295
49.699081 843.23328 833.05212 4294967295
52.157799 844.62628 831.61072 4294967295
55.862995 845.06207 831.97821 4294967295
58.14312 845.27997 832.16187 4294967295
-39.627522 838.43347 835.54529 4292854978
-37.304585 839.33789 835.43579 4291147975
-34.385323 839.82935 834.1062 4288975005
-32.666054 839.82935 834.1062 4289040799
-39.543118 841.14374 835.21448 4292723641
-36.104588 841.14374 835.21448 4289634214
-34.385323 841.8009 835.76862 4290027431
-31.806421 841.80096 835.76855 4289829279
-28.367889 841.80096 835.76855 4290092707
-24.929356 841.8009 835.76862 4293055708
-22.350458 841.8009 835.76862 4294636540
-19.771561 841.80096 835.76855 4294570488
-16.333027 841.14374 835.21448 4293911539
-12.894495 841.80096 835.76855 4291411398
-10.315597 842.45813 836.32275 4291804352
-8.5963306 842.45813 836.32275 4292659661
5.1577983 842.45813 836.32275 4293119667
6.8770642 842.45813 836.32275 4292989405
13.754128 842.45813 836.32275 4292068042
16.333027 842.45813 836.32275 4291673541
20.631193 842.45813 836.32275 4290620596
22.350458 842.45813 836.32275 4292002249
24.929358 841.8009 835.76862 4293978351
28.654434 841.58185 835.58392 4294967295
31.519876 841.58185 835.58392 4294967295
34.385323 841.14374 835.21448 4294967295
36.964218 841.14374 835.21448 4294967295
40.402752 841.14374 835.21448 4294967295
44.127827 841.58185 835.58392 4294967295
46.420185 842.45813 836.32275 4294967295
48.13945 842.45813 836.32275 4294967295
-6.8550458 845.19855 834.70923 4293384407
-4.2844038 845.19855 834.70923 4294965497
-1.7137614 845.85364 835.2616 4289174947
0.85688072 845.19855 834.70923 4289829023
3.4275229 844.54346 834.15686 4290224775
8.5688076 844.54346 834.15686 4292594648
11.13945 844.54346 834.15686 4292134089
18.851376 844.54346 834.15686 4290621109
49.699081 844.54346 834.15686 4294967295
52.555355 844.98016 834.52509 4294967295
55.411621 845.41693 834.89337 4294967295
55.697247 847.16382 836.36633 4294967295
-39.627522 841.06787 837.7666 4292461517
-36.755966 841.5069 838.13678 4291145930
-34.458717 842.38507 838.8772 4289695912
-32.735779 842.38507 838.8772 4288709017
-28.42844 842.38507 838.8772 4291010991
-24.982569 842.38507 838.8772 4292132810
-22.398165 842.38507 838.8772 4294306036
-19.813763 842.38507 838.8772 4293913076
-16.367889 841.72644 838.3219 4293122024
-12.922018 842.38507 838.8772 4292529876
17.229359 842.38507 838.8772 4291411143
20.67523 842.38507 838.8772 4290620596
22.398165 842.38507 838.8772 4291804614
25.269724 841.94598 838.50702 4293979375
28.141283 841.94598 838.50702 4294967295
32.161469 841.94598 838.50702 4294967295
34.458717 841.72644 838.3219 4294967295
37.043121 841.06787 837.7666 4294967295
40.488991 841.72644 838.3219 4294967295
43.647705 841.94598 838.50702 4294967295
46.519264 842.38507 838.8772 4294967295
48.242203 842.38507 838.8772 4294967295
-36.181652 843.70227 839.98779 4291733432
-34.458717 843.70227 839.98779 4289431709
-31.565138 843.72577 839.13556 4289101189
-28.42844 843.70227 839.98779 4292458162
-24.982569 843.70227 839.98779 4292527312
-22.398165 843.70227 839.98779 4294568440
-19.813763 843.70227 839.98779 4293715958
-15.506422 843.70227 839.98779 4291216342
-12.922018 843.70227 839.98779 4291476423
-10.326606 843.73743 838.70941 4292593873
-8.023242 844.64874 838.16992 4293778918
-4.5847096 844.64874 838.16992 4294966014
-1.7192661 845.08691 838.53931 4289767349
1.1474006 844.18719 838.65265 4291011474
4.3027525 843.73743 838.70947 4292657853
7.7449541 843.73743 838.70947 4291937998
10.326606 843.73743 838.70941 4290884282
12.908257 843.73743 838.70941 4290028715
16.069725 843.72577 839.13556 4290883255
18.93211 843.73743 838.70941 4290817724
44.796329 843.70227 839.98779 4294967295
46.519264 843.70227 839.98779 4294967295
49.319881 844.18726 838.65265 4294967295
52.151073 844.64874 838.16992 4294967295
-3.4385321 846.40131 839.64758 4294966271
-1.7192661 846.40131 839.64758 4292530653
0 846.40131 839.64758 4292858058
56.735779 846.40131 839.64758 4294967295
-38.025688 840.96466 841.60358 4292524235
-17.284403 841.62537 842.16064 4291808479
20.741285 841.62537 842.16064 4290817457
22.469725 841.62537 842.16064 4290620078
25.062386 841.62537 842.16064 4292004562
28.519266 841.62537 842.16064 4294704125
31.976147 841.62537 842.16064 4294967295
34.568806 841.62537 842.16064 4294967295
37.161469 840.96466 841.60352 4294967295
40.618347 841.62537 842.16064 4294967295
43.21101 841.62537 842.16064 4294967295
-31.874311 845.01947 841.09851 4289230977
-28.42844 845.01947 841.09851 4292457655
-24.982569 845.01947 841.09851 4293513699
-22.398165 845.01947 841.09851 4294963199
-12.060551 845.01947 841.09851 4291607745
-10.337615 845.01947 841.09851 4292396240
-7.753211 845.01947 841.09851 4294436598
-5.1688075 845.01947 841.09851 4294967295
1.7229358 845.01947 841.09851 4293779160
3.4458716 845.01947 841.09851 4293186791
7.753211 845.01947 841.09851 4291740358
12.060551 845.01947 841.09851 4287987847
49.103668 845.01947 841.09851 4294967295
52.549541 845.01947 841.09851 4294967295
55.133945 845.01947 841.09851 4294967295
-4.3073397 846.33667 842.20911 4294964735
-1.7229358 846.33667 842.20911 4294307064
0 846.33667 842.20911 4294306799
55.995415 846.33667 842.20911 4294967295
58.579815 846.33667 842.20911 4294967295
-36.925995 842.46698 844.61444 4291466902
-34.568806 842.94678 843.2749 4290414502
-19.877064 842.94678 843.2749 4294306035
-16.437614 842.91797 844.55859 4292723669
-13.842202 842.91797 844.55865 4292199370
5.1853213 842.94678 843.2749 4292923362
10.370643 842.94678 843.2749 4290027173
13.842202 842.91797 844.55865 4287727203
16.437614 842.91797 844.55859 4289568406
19.898165 842.91797 844.55859 4291212994
22.493578 842.91797 844.55865 4290489777
25.088991 842.91797 844.55859 4291871430
28.549541 842.91797 844.55865 4294045431
32.027523 842.57251 844.92139 4294967295
34.6422 842.22705 845.28412 4294967295
37.240368 842.22705 845.28412 4294967295
40.682568 842.57251 844.92139 4294967295
43.817738 842.92755 844.13068 4294967295
45.851376 842.91797 844.55865 4294967295
-34.568806 844.26819 844.38904 4290739858
-31.976147 844.26819 844.38904 4291137943
-28.519266 844.26819 844.38904 4292393149
-25.062386 844.26819 844.38904 4293974247
-22.469725 844.26819 844.38904 4294237160
-19.877064 844.26819 844.38904 4293380055
-12.099083 844.26819 844.38904 4292593616
-10.370643 844.26819 844.38904 4292989659
-7.7779818 844.26819 844.38904 4293845485
-3.4568808 845.5896 845.50317 4294964990
-1.7284404 845.5896 845.50317 4294635511
1.7284404 844.26819 844.38904 4293254110
4.3211012 844.26819 844.38904 4292660958
7.4899082 844.70868 844.76044 4292857815
10.370643 844.26819 844.38904 4290617262
12.099083 844.26819 844.38904 4288577679
46.667889 844.26819 844.38904 4294967295
49.260551 844.26819 844.38904 4294967295
53.005505 844.70868 844.76044 4294967295
55.310093 845.5896 845.50317 4294967295
57.038532 845.5896 845.50317 4294967295
0 847.65387 843.3197 4294240756
-34.6422 844.21338 846.95898 4290018688
-32.044037 844.87549 847.51721 4290676881
-28.579817 844.87549 847.51721 4292389821
-24.826912 844.65479 847.33112 4294171114
-22.517431 844.21338 846.95898 4293316058
-19.919266 844.21338 846.95898 4293115826
-7.7944956 844.21338 846.95898 4293973993
-4.6189599 845.09619 847.70331 4294964734
-1.7321101 845.5376 848.07544 4294767613
1.7321101 844.21338 846.95898 4292793309
4.0415902 844.65479 847.33112 4292528855
7.7944956 844.87549 847.51721 4291673543
10.39266 844.21338 846.95898 4290552504
12.124771 844.21338 846.95898 4288446872
29.445871 844.21338 846.95898 4294966527
31.177982 844.21338 846.95898 4294967295
46.766972 844.21338 846.95898 4294967295
49.365139 844.21338 846.95898 4294967295
52.829357 844.87549 847.51721 4294967295
55.427525 845.5376 848.07544 4294967295
57.159634 845.5376 848.07544 4294967295
0 846.91101 846.61743 4293912308
-16.507339 842.14911 849.14246 4293774520
-13.03211 842.14911 849.14246 4293778144
-10.425688 842.14911 849.14246 4293710564
13.900917 842.14911 849.14246 4288514171
16.507339 842.14911 849.14246 4290290598
19.982569 842.14911 849.14246 4291343296
22.588991 842.14911 849.14246 4290816946
25.195412 842.14911 849.14246 4291868864
27.801834 842.14911 849.14246 4292134628
33.883484 842.14911 849.14246 4294967295
37.358719 842.14911 849.14246 4294967295
40.833946 842.14911 849.14246 4294967295
43.440369 842.14911 849.14246 4294967295
45.177982 842.14911 849.14246 4294967295
-33.014679 844.80591 851.38269 4290482332
-31.277063 844.80591 851.38269 4290481801
-28.670643 844.80591 851.38269 4291205788
-25.485016 844.3631 851.00928 4294760681
-22.588991 844.14172 850.82263 4293973481
-19.982569 843.47754 850.26257 4293905603
-16.507339 843.47754 850.26257 4294499285
-12.163302 843.47754 850.26257 4292989146
-10.425688 843.47754 850.26257 4293903580
-7.8192658 844.14172 850.82263 4293312981
-4.3440366 844.80591 851.38269 4294967295
-1.7376146 844.80591 851.38269 4294833660
1.7376146 844.14172 850.82263 4291542735
4.3440366 844.14172 850.82263 4291738056
7.8192658 844.14172 850.82263 4291344065
10.425688 843.47754 850.26257 4290159541
12.163302 843.47754 850.26257 4290093748
22.588991 843.47754 850.26257 4289959068
31.277063 843.47754 850.26257 4294967295
41.702751 843.47754 850.26257 4294967295
43.440369 843.47754 850.26257 4294967295
46.046791 843.47754 850.26257 4294967295
49.522018 843.47754 850.26257 4294967295
52.997246 844.14172 850.82263 4294967295
55.603668 844.80591 851.38269 4294967295
57.341286 844.80591 851.38269 4294967295
0 846.86182 849.19202 4293318890
-20.045872 842.75006 853.57324 4294567390
-16.559633 842.75006 853.57324 4294700273
-13.363914 842.30585 853.19873 4293909992
-10.458715 842.75006 853.57324 4293246422
5.2293577 842.75006 853.57324 4291606471
8.7155962 842.75006 853.57324 4290751412
10.458715 842.75006 853.57324 4290421166
13.363914 842.30585 853.19873 4290618022
16.559633 842.08374 853.01141 4290814888
20.045872 842.08374 853.01147 4290156704
22.660551 842.75006 853.57324 4289103241
25.27523 842.08374 853.01141 4290155673
28.761467 842.08374 853.01147 4293121761
31.376146 842.75006 853.57324 4294967295
33.990826 842.08374 853.01141 4294967295
37.477066 842.08374 853.01147 4294967295
40.672783 842.30585 853.19873 4294967295
43.57798 842.75006 853.57324 4294967295
46.192661 842.75006 853.57324 4294967295
49.678898 842.75006 853.57324 4294967295
52.293579 842.75006 853.57324 4294967295
-33.119267 844.0827 854.6969 4291802037
-31.376146 844.0827 854.6969 4292063919
-28.761467 844.0827 854.6969 4291930538
-25.27523 844.0827 854.6969 4292719294
-22.660551 844.0827 854.6969 4294957035
-20.045872 844.0827 854.6969 4294898422
-16.559633 844.0827 854.6969 4294569721
-7.8440366 844.0827 854.6969 4294302702
-4.3577981 844.0827 854.6969 4294967295
-1.7431192 844.0827 854.6969 4293385962
41.834862 844.0827 854.6969 4294967295
50.550457 844.0827 854.6969 4294967295
52.293579 844.0827 854.6969 4294967295
54.908257 844.0827 854.6969 4294967295
57.522934 844.0827 854.6969 4294967295
0 846.13434 852.50269 4292527573
-13.100918 842.7149 856.15967 4294765814
-10.480734 842.7149 856.15967 4294631155
1.746789 842.7149 856.15967 4291080127
4.3669724 842.7149 856.15967 4291339704
7.8605504 842.7149 856.15967 4291672266
10.480734 842.7149 856.15967 4290551721
13.100918 842.7149 856.15967 4290946736
16.594496 842.7149 856.15967 4291143602
20.088074 842.7149 856.15967 4292592325
22.708258 842.7149 856.15967 4292067261
25.328442 842.7149 856.15967 4290619817
28.822018 842.7149 856.15967 4294043625
31.442202 842.7149 856.15967 4294967295
34.062386 842.7149 856.15967 4294967295
37.555962 842.7149 856.15967 4294967295
40.176147 842.7149 856.15967 4294967295
43.669724 842.7149 856.15967 4294967295
46.289909 842.7149 856.15967 4294967295
48.910091 842.7149 856.15967 4294967295
-27.948624 844.05029 857.28564 4291997368
-25.328442 844.05029 857.28564 4291800509
-22.708258 844.05029 857.28564 4294958580
-10.480734 844.05029 857.28564 4294961407
-7.8605504 844.05029 857.28564 4294960381
-4.3577981 845.41528 855.82056 4294967295
-1.7431192 845.41528 855.82056 4292398804
0.87339449 844.73279 856.5531 4291144124
27.948624 844.05029 857.28564 4292989657
34.062386 844.05029 857.28564 4294967295
37.555962 844.05029 857.28564 4294967295
41.049541 844.05029 857.28564 4294967295
43.669724 844.05029 857.28564 4294967295
46.289909 844.05029 857.28564 4294967295
49.783485 844.05029 857.28564 4294967295
52.403671 844.05029 857.28564 4294967295
55.023853 844.05029 857.28564 4294967295
-29.78899 842.00287 859.4834 4292263870
-21.027523 842.00287 859.4834 4294963450
-19.275229 842.00287 859.4834 4294963707
-16.64679 842.00287 859.4834 4293580014
-13.142202 842.00287 859.4834 4294895345
4.380734 842.00287 859.4834 4291536067
7.8853211 842.00287 859.4834 4292196823
10.513762 842.00287 859.4834 4291144877
13.142202 842.00287 859.4834 4290750124
16.64679 842.00287 859.4834 4291078840
19.275229 842.00287 859.4834 4293644512
21.903669 842.00287 859.4834 4292922049
25.408257 842.00287 859.4834 4291868614
29.78899 842.00287 859.4834 4294966783
31.541285 842.00287 859.4834 4294967295
-28.912844 843.34247 860.61292 4292463054
-25.408257 843.34247 860.61292 4293582051
-22.779816 843.34247 860.61292 4294306803
-16.64679 843.34247 860.61292 4293510618
-13.142202 843.34247 860.61292 4294291645
-10.513762 843.34247 860.61292 4294955497
-7.8605504 845.38574 858.41162 4294957554
-4.3669724 845.38574 858.41162 4294763001
-1.746789 845.38574 858.41162 4292790496
0.87614679 844.36414 859.51227 4291077561
28.912844 843.34247 860.61292 4294043888
31.541285 843.34247 860.61292 4294967295
34.169724 843.34247 860.61292 4294967295
37.674309 843.34247 860.61292 4294967295
41.049541 845.38574 858.41162 4294967295
43.669724 845.38574 858.41162 4294967295
46.289909 845.38574 858.41162 4294967295
49.783485 845.38574 858.41162 4294967295
52.403671 845.38574 858.41162 4294967295
55.023853 845.38574 858.41162 4294967295
45.416515 846.72119 859.53772 4294967295
50.656879 846.72119 859.53772 4294967295
52.403671 846.72119 859.53772 4294967295
-21.07156 841.98029 862.08044 4294765818
-19.315596 841.98029 862.08044 4293910509
4.3899083 841.98029 862.08044 4292652975
7.901835 841.98029 862.08044 4293318634
10.53578 841.98029 862.08044 4291475655
13.169725 841.98029 862.08044 4289961640
16.681652 841.98029 862.08044 4290749618
19.315596 841.98029 862.08044 4292064458
21.949541 841.98029 862.08044 4291277493
25.461468 841.98029 862.08044 4291932847
-25.461468 843.32275 863.2124 4294107632
-21.949541 843.32275 863.2124 4294962941
-19.315596 843.32275 863.2124 4293449445
-16.681652 843.32275 863.2124 4293310929
-13.169725 843.32275 863.2124 4293767088
-10.513762 844.68213 861.74243 4294952400
-7.8853211 844.68213 861.74243 4294757341
-4.380734 844.68213 861.74243 4293772500
-1.7522936 844.68213 861.74243 4293247435
0.87798166 844.00244 862.47742 4292060349
3.5119267 843.32275 863.2124 4291734446
7.0238533 843.32275 863.2124 4294238957
29.851376 843.32275 863.2124 4294966271
31.60734 843.32275 863.2124 4294967295
34.241287 843.32275 863.2124 4294967295
37.712845 844.00244 862.47742 4294967295
40.302753 844.68213 861.74243 4294967295
42.93119 844.68213 861.74243 4294967295
47.311928 844.68213 861.74243 4294967295
49.06422 844.68213 861.74243 4294967295
-1.7522936 846.02179 862.87207 4292581032
46.43578 846.02179 862.87207 4294967295
-26.422018 842.63037 866.55261 4294696416
-19.376146 842.63037 866.55261 4293776361
1.7614679 842.63037 866.55261 4293897920
4.697248 842.18146 866.17413 4293841882
8.2201834 842.18146 866.17413 4292726238
10.568808 841.95703 865.98492 4291210691
12.917432 841.7326 865.79572 4289960614
16.733946 841.28369 865.41724 4290223529
19.376146 841.28369 865.41724 4291670481
22.311926 841.7326 865.79572 4290554545
25.541285 841.95703 865.98499 4291673011
28.770643 842.18146 866.17413 4294108656
31.706423 842.63037 866.55261 4294967295
33.467892 842.63037 866.55261 4294967295
-24.583487 844.66522 864.34436 4294041844
-21.949541 844.66522 864.34436 4294501367
-16.681652 844.66522 864.34436 4293574342
-13.169725 844.66522 864.34436 4293964219
-10.53578 844.66522 864.34436 4294421172
-7.901835 844.66522 864.34436 4294554563
-4.3899083 844.66522 864.34436 4292779184
0 844.66522 864.34436 4293371575
35.119267 844.66522 864.34436 4294967295
37.753212 844.66522 864.34436 4294967295
40.387157 844.66522 864.34436 4294967295
43.021103 844.66522 864.34436 4294967295
49.166973 844.66522 864.34436 4294967295
-13.169725 846.00763 865.4762 4293378256
-10.53578 846.00763 865.4762 4292980904
-7.901835 846.00763 865.4762 4292784305
-4.3899083 846.00763 865.4762 4291993265
-1.7559633 846.00763 865.4762 4291398567
0 846.00763 865.4762 4292125093
40.387157 846.67883 866.04218 4294967295
43.021103 846.67883 866.04218 4294967295
46.240368 846.45508 865.85352 4294967295
8.8348627 841.94641 869.90002 4292265167
10.601835 841.94641 869.90002 4291473829
13.546788 841.49609 869.52032 4289432715
16.786238 841.271 869.33044 4290025123
19.436697 841.271 869.33051 4291407300
21.792662 841.49609 869.52032 4290883254
25.621101 841.94641 869.90002 4291804341
-28.183487 843.97705 867.68811 4287791256
-25.541285 844.65039 868.25586 4292793557
-22.018349 844.65039 868.25586 4293909224
-19.376146 844.65039 868.25586 4294105317
-16.733946 844.65039 868.25586 4294105054
-13.21101 845.32367 868.82361 4294966527
-10.568808 845.32367 868.82361 4294963702
-7.9266057 845.32367 868.82361 4294305775
-4.4036698 845.32367 868.82361 4293448670
-1.7614679 845.32367 868.82361 4291539129
0.88073397 844.65039 868.25586 4292914866
4.4036698 843.97705 867.68811 4293578726
7.0458717 843.97705 867.68811 4293778406
29.06422 843.97705 867.68811 4294306804
31.706423 844.65039 868.25586 4294967295
34.348625 844.65039 868.25586 4294967295
37.871559 844.65039 868.25586 4294967295
-24.660551 846.67035 869.95911 4292529608
-22.018349 846.67035 869.95911 4292199367
-19.376146 846.67035 869.95911 4294764018
-16.733946 846.67035 869.95911 4294898939
-13.21101 846.67035 869.95911 4294967295
-10.568808 846.67035 869.95911 4294967295
-7.0458717 846.67035 869.95911 4294108665
-3.5229359 846.67035 869.95911 4293185507
-1.7614679 846.67035 869.95911 4291672012
35.229359 846.67035 869.95911 4294967295
37.871559 846.67035 869.95911 4294967295
40.387157 848.69257 867.74011 4294967295
43.021103 848.69257 867.74011 4294967295
-8.8348627 844.64813 872.1781 4294967039
-5.3009176 844.64813 872.1781 4293516785
1.1779816 844.19781 871.7984 4291272104
4.4174314 843.29724 871.03906 4293115851
7.951376 843.97272 871.60864 4294172136
10.601835 843.97266 871.60858 4293119193
13.252294 843.97272 871.60864 4290946482
17.080734 843.74756 871.41876 4291274672
19.436697 843.97266 871.60858 4290881197
22.087156 843.97272 871.60864 4291473577
25.621101 843.97272 871.60864 4293711319
28.271559 843.97266 871.60858 4294965756
30.627523 844.19781 871.7984 4294967295
33.572475 844.64813 872.1781 4294967295
-24.660551 848.01697 871.09448 4292199373
-22.018349 848.01697 871.09448 4290884280
-19.376146 848.01697 871.09448 4293714146
-16.733946 848.01697 871.09448 4294636283
-13.21101 848.01697 871.09448 4294899710
-10.568808 848.01697 871.09448 4294966527
-7.9266057 848.01697 871.09448 4293979385
-1.7614679 848.01697 871.09448 4291542993
35.229359 848.01697 871.09448 4294967295
37.871559 848.01697 871.09448 4294967295
40.51376 848.01697 871.09448 4294967295
-16.706423 850.37054 871.11694 4294570488
-13.21101 849.36365 872.22998 4294899453
-10.568808 849.36365 872.22998 4294768383
-7.0458717 849.36365 872.22998 4292465641
-15.80367 852.71991 871.13586 4294833407
-13.462386 853.61481 871.89044 4294702074
4.4311924 842.62592 874.39709 4292654508
15.952293 842.62592 874.39709 4291275962
-4.4174314 845.99896 873.31714 4292070364
0.88623852 844.98999 874.42841 4292327618
4.4311924 843.98096 875.53967 4292457658
7.9761467 843.98096 875.53967 4293637580
10.634862 843.98096 875.53967 4292258239
13.293577 843.98096 875.53967 4291274165
16.811008 844.98999 874.42841 4290290083
19.436697 845.99896 873.31714 4290750881
22.087156 845.99896 873.31714 4292592571
25.621101 845.99896 873.31714 4294700782
28.271559 845.99896 873.31714 4294967295
30.922018 845.99896 873.31714 4294967295
33.572475 845.99896 873.31714 4294967295
-8.8348627 848.02527 875.02557 4293124075
-4.4174314 848.02533 875.02557 4291280333
-1.7669724 847.34985 874.45605 4292200405
17.669725 848.02527 875.02557 4291408026
19.436697 848.02527 875.02557 4292723886
22.087158 848.02527 875.02563 4294502372
