# .PCD v0.7 - Point Cloud Data file format
VERSION 0.7
FIELDS x y z rgb
SIZE 4 4 4 4
TYPE F F F U
COUNT 1 1 1 1
WIDTH 1152
HEIGHT 1
VIEWPOINT 0 0 0 1 0 0 0
POINTS 1152
DATA ascii
-16.401834 838.99304 1278.1312 4289629837
-14.058716 838.99304 1278.1312 4289697970
-11.715596 838.99304 1278.1312 4291540174
-21.088074 840.78436 1279.6416 4287976554
-18.744955 840.78436 1279.6416 4286342254
-14.058716 840.78436 1279.6416 4289304238
-7.0293579 840.78436 1279.6416 4290554560
-10.121713 846.99652 1279.6473 4290817992
-7.0073395 847.29413 1279.8983 4291015372
-36.522934 764.95709 1281.1075 4282728598
-34.088074 764.95709 1281.1075 4287457960
-31.653212 764.95709 1281.1075 4288773820
-38.957798 766.8186 1282.6771 4282599031
-34.088074 766.8186 1282.6771 4283981143
-31.653212 766.8186 1282.6771 4285099880
-24.348623 766.8186 1282.6771 4289504732
-21.913761 766.8186 1282.6771 4281807207
-38.781651 775.66467 1282.2877 4287723653
-33.933945 775.66467 1282.2877 4291873002
-31.510092 775.66467 1282.2877 4292136175
-38.781651 777.5177 1283.8501 4287660661
-33.933945 777.5177 1283.8501 4291742171
-16.966972 777.5177 1283.8501 4292136942
-36.220184 782.07483 1281.1523 4292068975
-33.805504 782.07483 1281.1523 4291020776
-31.390825 782.07483 1281.1523 4287467954
-28.976147 782.07483 1281.1523 4286938291
-25.35413 782.07483 1281.1523 4290491362
-21.732111 782.07483 1281.1523 4286083736
-19.31743 782.07483 1281.1523 4287401890
-36.220184 783.9209 1282.709 4289899941
-33.805504 783.9209 1282.709 4288585445
-31.390825 783.9209 1282.709 4285032622
-28.976147 783.9209 1282.709 4289109181
-25.35413 783.9209 1282.709 4292858875
-21.732111 783.9209 1282.709 4287134378
-19.31743 783.9209 1282.709 4287859895
-16.902752 783.9209 1282.709 4292136440
7.2440367 783.9209 1282.709 4291937501
-28.866055 790.2959 1281.5442 4292395249
-19.244038 790.2959 1281.5442 4290951096
-33.677063 792.13495 1283.0947 4292322488
-31.271559 792.13495 1283.0947 4294427863
-28.866055 792.13495 1283.0947 4293576177
-25.257797 792.13495 1283.0947 4292525284
-21.649542 792.13495 1283.0947 4292000477
-19.244038 792.13495 1283.0947 4291476166
-16.838531 792.13495 1283.0947 4291476166
-31.033028 806.61194 1282.2211 4289619537
-33.420185 808.43701 1283.7599 4289751134
-28.645872 808.43701 1283.7599 4290275682
-26.258715 808.43701 1283.7599 4291328626
-21.484404 808.43701 1283.7599 4291066985
-19.097248 808.43701 1283.7599 4290284967
-30.937614 812.36346 1281.8385 4289553762
-28.557798 812.36346 1281.8385 4290014563
-26.177982 812.36346 1281.8385 4291132787
-21.418348 812.36346 1281.8385 4290409321
-19.038532 812.36346 1281.8385 4289693584
-33.317432 814.18286 1283.3726 4289223764
-30.937614 814.18286 1283.3726 4289421142
-28.557798 814.18286 1283.3726 4289422685
-26.177982 814.18286 1283.3726 4289291356
-21.418348 814.18286 1283.3726 4290935131
-19.038532 814.18286 1283.3726 4289954957
-33.188992 820.42749 1282.0977 4291530907
-30.818348 820.42749 1282.0977 4291925665
-28.447706 820.42749 1282.0977 4292907683
-26.077065 820.42749 1282.0977 4292578718
-18.965137 820.42749 1282.0977 4291397794
-33.188992 822.23987 1283.6259 4291004842
-30.818348 822.23987 1283.6259 4292057787
-28.447706 822.23987 1283.6259 4292908215
-26.077065 822.23987 1283.6259 4293368766
-21.335779 822.23987 1283.6259 4292316046
-18.965137 822.23987 1283.6259 4291463858
-16.594496 822.23987 1283.6259 4293437904
-14.223853 822.23987 1283.6259 4291736524
-33.060551 830.25482 1283.8436 4284960363
-30.699083 830.25482 1283.8436 4285091949
-28.337614 830.25482 1283.8436 4286799473
-25.976147 830.25482 1283.8436 4286470508
-22.040367 829.65302 1283.3363 4289355108
-18.891743 829.35217 1283.0825 4290078057
-16.530275 828.44946 1282.3214 4293106328
-14.168807 829.35217 1283.0825 4290946754
-21.170643 836.42932 1282.5096 4286074980
-18.818348 836.42932 1282.5096 4286537567
-9.409174 836.42932 1282.5096 4291082190
-7.056881 836.42932 1282.5096 4290884810
-22.259632 842.57568 1281.1521 4290537337
-18.744955 842.57568 1281.1521 4288386476
-16.401834 842.57568 1281.1521 4287202201
-7.0293579 842.57568 1281.1521 4290882247
-4.6862388 842.57568 1281.1521 4290684867
-16.401834 844.36707 1282.6625 4288644798
-14.058716 844.36707 1282.6625 4289435568
-4.6862388 844.36707 1282.6625 4290884297
-10.121713 850.56793 1282.6588 4291015375
-7.0073395 850.8656 1282.9097 4290751942
-40.326607 763.1452 1286.1199 4282398072
-29.32844 762.21094 1285.3322 4290813153
-25.662384 762.21094 1285.3322 4290289371
-41.392662 770.5415 1285.8162 4290948798
-38.146175 769.30054 1284.7698 4290162383
-34.088074 769.61078 1285.0314 4287797707
-31.653212 769.61078 1285.0314 4286679226
-24.348623 769.61078 1285.0314 4285228456
-43.629356 779.37079 1285.4126 4288979158
-41.205505 779.37079 1285.4126 4285886886
-38.781651 779.37079 1285.4126 4285884433
-16.966972 779.37079 1285.4126 4291678436
-43.629356 781.22388 1286.9751 4289897680
-41.205505 781.22388 1286.9751 4286213272
-38.781651 781.22388 1286.9751 4285031003
-13.331193 781.22388 1286.9751 4292201177
-36.220184 785.76697 1284.2655 4291017904
-31.390825 785.76697 1284.2655 4287928018
-28.976147 785.76697 1284.2655 4291410903
-25.35413 785.76697 1284.2655 4292200690
-21.732111 785.76697 1284.2655 4289569241
-19.31743 785.76697 1284.2655 4289962150
-16.902752 785.76697 1284.2655 4292199112
-14.488073 785.76697 1284.2655 4291936988
7.2440367 785.76697 1284.2655 4291935452
-36.220184 787.61298 1285.822 4293117160
-33.805504 787.61298 1285.822 4292067022
-31.390825 787.61298 1285.822 4292198608
-25.35413 787.61298 1285.822 4292725235
-21.732111 787.61298 1285.822 4291739104
-16.902752 787.61298 1285.822 4291608770
-13.280734 787.61298 1285.822 4291740122
-33.677063 793.974 1284.6454 4290875532
-31.271559 793.974 1284.6454 4294099389
-28.866055 793.974 1284.6454 4293379051
-25.257797 793.974 1284.6454 4292328413
-21.649542 793.974 1284.6454 4291409360
-19.244038 793.974 1284.6454 4291147215
-16.838531 793.974 1284.6454 4291410643
-13.230275 793.974 1284.6454 4291608533
-9.6220188 793.974 1284.6454 4291477715
-40.893578 795.81299 1286.196 4288829271
-37.285324 795.81299 1286.196 4287253821
-33.677063 795.81299 1286.196 4287054405
-31.271559 795.81299 1286.196 4289093987
-28.866055 795.81299 1286.196 4288637830
-25.257797 795.81299 1286.196 4291009207
-21.649542 795.81299 1286.196 4291669966
-19.244038 795.81299 1286.196 4290556627
-16.838531 795.81299 1286.196 4291214557
-13.230275 795.81299 1286.196 4291411155
-9.6220188 795.81299 1286.196 4291148752
-34.746788 803.97107 1286.5344 4289948254
-31.152294 802.13904 1284.9897 4289290070
-28.755962 803.97107 1286.5344 4289619037
-26.359632 803.97107 1286.5344 4290671725
-22.765137 803.97107 1286.5344 4290412917
-19.170643 803.05505 1285.7621 4291078867
-16.774311 803.97107 1286.5344 4292327907
-14.377981 803.97107 1286.5344 4291477202
-34.613762 811.17444 1286.0681 4289553778
-23.871559 811.17444 1286.0681 4289685331
-16.710093 811.17444 1286.0681 4292456119
-14.322936 811.17444 1286.0681 4291738834
-40.456882 817.82166 1286.4407 4286660707
-34.507339 816.91199 1285.6736 4289753466
-28.557798 816.00226 1284.9066 4290077526
-22.608257 816.91193 1285.6737 4291984246
-19.038532 816.00226 1284.9066 4290610059
-16.658716 816.91199 1285.6736 4292977332
-14.278899 817.82166 1286.4407 4291539663
-33.188992 824.05225 1285.1539 4285998928
-30.818348 824.05225 1285.1539 4288433269
-28.447706 824.05225 1285.1539 4289875827
-26.077065 824.05225 1285.1539 4291454602
-22.521101 824.05225 1285.1539 4290801778
-18.965137 824.05225 1285.1539 4290345100
-16.594496 824.05225 1285.1539 4293042613
-14.223853 824.05225 1285.1539 4291668680
-10.667891 824.05225 1285.1539 4291605454
-7.1119266 824.05225 1285.1539 4291015884
-4.7412844 824.05225 1285.1539 4290948555
-42.671558 825.86462 1286.6821 4284895097
-40.300919 825.86462 1286.6821 4286145164
-37.930275 825.86462 1286.6821 4285095042
-34.374313 825.86462 1286.6821 4283774295
-30.818348 825.86462 1286.6821 4285611870
-28.447706 825.86462 1286.6821 4288172633
-26.077065 825.86462 1286.6821 4289488750
-23.706423 825.86462 1286.6821 4290013541
-10.667891 825.86462 1286.6821 4291671246
-7.1119266 825.86462 1286.6821 4291081160
-4.7412844 825.86462 1286.6821 4290884045
-2.3706422 825.86462 1286.6821 4291147217
-42.50642 833.86554 1286.8882 4287005340
-40.144955 832.96289 1286.1271 4287793830
-37.783485 832.96289 1286.1271 4287395714
-34.241287 832.96289 1286.1271 4287657356
-30.699083 832.96289 1286.1271 4288050841
-28.337614 832.96289 1286.1271 4288638872
-25.976147 832.96289 1286.1271 4287718027
-23.614679 832.96289 1286.1271 4287585398
-10.626606 832.06018 1285.366 4291277263
-4.7229357 833.86554 1286.8882 4290753740
-2.3614678 833.86554 1286.8882 4290687947
0 833.86554 1286.8882 4290687949
-32.93211 838.22766 1284.026 4289498279
-25.875229 838.22766 1284.026 4288108163
-23.522936 838.22766 1284.026 4287976554
-4.704587 838.22766 1284.026 4290619855
-2.3522935 838.22766 1284.026 4290817235
-39.988991 840.026 1285.5424 4286474899
-37.636696 840.026 1285.5424 4284102944
-35.284405 840.026 1285.5424 4285221681
-31.755962 840.026 1285.5424 4286205553
-28.227524 840.026 1285.5424 4290009475
-25.875229 840.026 1285.5424 4289877889
-2.3522935 840.026 1285.5424 4291079625
-16.401834 847.05408 1284.9281 4289105309
-14.058716 847.05408 1284.9281 4289764797
-11.715596 846.15839 1284.1729 4291276745
-4.6862388 847.05408 1284.9281 4290687431
-14.719266 757.58936 1287.9755 4292661195
-41.704586 759.46484 1289.5569 4278197069
-46.436699 765.94794 1288.4832 4293114820
-43.992661 765.94794 1288.4832 4292265950
-41.548622 765.94794 1288.4832 4291344848
-21.99633 765.94794 1288.4832 4283384716
-43.827522 772.40302 1287.3857 4289370052
-41.392662 772.40302 1287.3857 4289304259
-19.478899 772.40302 1287.3857 4287594647
-17.044037 772.40302 1287.3857 4292989417
-14.609175 772.40302 1287.3857 4292793326
-46.262386 774.26447 1288.9552 4286873500
-43.827522 774.26447 1288.9552 4289503702
-41.392662 774.26447 1288.9552 4289635289
-13.391743 774.26447 1288.9552 4292464361
-9.7394495 774.26447 1288.9552 4292069087
-7.3045874 774.26447 1288.9552 4292069087
-43.629356 783.0769 1288.5375 4290686932
-41.205505 783.0769 1288.5375 4290752725
-38.781651 783.0769 1288.5375 4291083698
-33.933945 783.0769 1288.5375 4288125398
-12.119267 783.0769 1288.5375 4291936988
-9.6954126 783.0769 1288.5375 4291542745
-7.2715597 783.0769 1288.5375 4291542745
-45.878899 791.30505 1288.9351 4287122251
-43.464222 790.38202 1288.1567 4287579994
-41.049541 790.38202 1288.1567 4288830317
-37.427521 790.38202 1288.1567 4288966256
-13.280734 789.45898 1287.3785 4291476180
-9.6587152 789.45898 1287.3785 4291609049
-7.2440367 790.38202 1288.1567 4291214289
-4.8293576 790.38202 1288.1567 4291345110
-2.4146788 790.38202 1288.1567 4291542745
-45.704586 797.65204 1287.7466 4288373851
-43.299084 797.65204 1287.7466 4288502866
-40.893578 797.65204 1287.7466 4288502866
-36.082569 797.65204 1287.7466 4287910481
-33.677063 797.65204 1287.7466 4287973712
-31.271559 797.65204 1287.7466 4288170835
-28.866055 797.65204 1287.7466 4287252552
-25.257797 797.65204 1287.7466 4290612894
-21.649542 797.65204 1287.7466 4291999447
-19.244038 797.65204 1287.7466 4291542241
-16.838531 797.65204 1287.7466 4291476448
-13.230275 797.65204 1287.7466 4291279568
-9.6220188 797.65204 1287.7466 4291148752
-48.110092 799.49109 1289.2972 4286202944
-45.704586 799.49109 1289.2972 4287518803
-43.299084 799.49109 1289.2972 4288109907
-36.082569 799.49109 1289.2972 4289423207
-33.677063 799.49109 1289.2972 4289619035
-28.866055 799.49109 1289.2972 4288567369
-25.257797 799.49109 1289.2972 4289426288
-21.649542 799.49109 1289.2972 4291469995
-16.838531 799.49109 1289.2972 4291869409
-13.230275 799.49109 1289.2972 4290884813
-9.6220188 799.49109 1289.2972 4291082955
-7.2165136 799.49109 1289.2972 4291346384
-4.8110094 799.49109 1289.2972 4291477715
-2.4055047 799.49109 1289.2972 4291346130
-43.133945 805.80304 1288.0791 4288432194
-40.737614 805.80304 1288.0791 4289156174
-38.341286 805.80304 1288.0791 4289024576
-35.944954 805.80304 1288.0791 4290208594
-23.963303 805.80304 1288.0791 4290211676
-16.774311 805.80304 1288.0791 4292653515
-14.377981 805.80304 1288.0791 4291674581
-10.783486 805.80304 1288.0791 4290950859
-7.1889906 805.80304 1288.0791 4291148239
-4.7926607 805.80304 1288.0791 4291278803
-2.3963304 805.80304 1288.0791 4291607768
-43.133945 807.63507 1289.6239 4288235083
-40.737614 807.63507 1289.6239 4289485150
-38.341286 807.63507 1289.6239 4289353800
-35.944954 807.63507 1289.6239 4289814351
-10.783486 807.63507 1289.6239 4291212751
-7.1889906 807.63507 1289.6239 4291278040
-4.7926607 807.63507 1289.6239 4291475414
-2.3963304 807.63507 1289.6239 4292001758
-45.355965 815.73694 1289.915 4287249753
-42.968807 814.82446 1289.1456 4288306307
-40.58165 813.91199 1288.3762 4290544043
-38.194496 814.82446 1289.1456 4289689767
-35.807339 813.91199 1288.3762 4289360044
-14.322936 813.91199 1288.3762 4291737296
-10.742202 814.82446 1289.1456 4291343565
-7.161468 815.73694 1289.915 4291476435
-4.774312 814.82446 1289.1456 4291214034
-2.387156 815.73694 1289.915 4290951635
-45.216515 821.46045 1289.5088 4284368725
-42.836697 821.46045 1289.5088 4283846232
-40.456882 820.55072 1288.7417 4283579716
-38.077065 820.55072 1288.7417 4284041537
-35.697247 820.55072 1288.7417 4285291605
-23.798164 819.64099 1287.9747 4292381839
-10.709174 819.64099 1287.9747 4291474636
-7.1394496 819.64099 1287.9747 4291673300
-4.7596331 819.64099 1287.9747 4291278805
-2.3798165 821.46045 1289.5088 4291080141
-45.042202 827.677 1288.2102 4286741396
-42.671558 827.677 1288.2102 4287724437
-40.300919 827.677 1288.2102 4288316317
-37.930275 827.677 1288.2102 4287923360
-35.559631 827.677 1288.2102 4285554812
-10.667891 827.677 1288.2102 4291343308
-7.1119266 827.677 1288.2102 4291080906
-4.7412844 827.677 1288.2102 4290884556
-2.3706422 827.677 1288.2102 4291082192
-52.154129 829.48938 1289.7384 4287330916
-49.783485 829.48938 1289.7384 4287725674
-46.227524 829.48938 1289.7384 4287990185
-42.671558 829.48938 1289.7384 4288122025
-7.1119266 829.48938 1289.7384 4290950088
-4.7412844 829.48938 1289.7384 4290884556
-2.3706422 829.48938 1289.7384 4291147985
-51.952293 835.6709 1288.4104 4287921028
-49.590824 835.6709 1288.4104 4291868864
-47.229359 835.6709 1288.4104 4290226394
-43.687157 835.6709 1288.4104 4285424015
-40.144955 835.6709 1288.4104 4286411420
-37.783485 835.6709 1288.4104 4286539354
-35.42202 835.6709 1288.4104 4288710523
-30.699083 835.6709 1288.4104 4290616760
-28.337614 835.6709 1288.4104 4290542760
-55.494495 837.47626 1289.9326 4286475649
-51.952293 837.47626 1289.9326 4289105308
-49.590824 837.47626 1289.9326 4291802821
-47.229359 837.47626 1289.9326 4289964503
-43.687157 837.47626 1289.9326 4287528875
-39.988991 841.82434 1287.0586 4286867615
-37.636696 841.82434 1287.0586 4286272345
-35.284405 841.82434 1287.0586 4285811794
-32.93211 841.82434 1287.0586 4286530653
-25.875229 841.82434 1287.0586 4287842635
-22.34679 841.82434 1287.0586 4289556101
-18.818348 841.82434 1287.0586 4289960658
-2.3522935 841.82434 1287.0586 4290818504
-32.93211 843.62268 1288.575 4291732669
-25.875229 843.62268 1288.575 4287061875
-22.34679 843.62268 1288.575 4286139488
-18.818348 843.62268 1288.575 4288314009
-2.3522935 843.62268 1288.575 4290622152
-16.401834 849.74103 1287.1937 4285820285
-14.058716 849.74103 1287.1937 4285821818
-10.934556 850.93524 1288.2007 4290621892
-7.0293579 851.53235 1288.7041 4291014861
-4.6862388 850.63672 1287.949 4290685895
-2.3431194 849.74103 1287.1937 4290817737
-40.629356 754.83624 1292.1943 4286875294
-36.93578 754.83624 1292.1943 4290360545
-24.623854 754.83624 1292.1943 4287986323
-22.161469 754.83624 1292.1943 4281670195
-19.699083 754.83624 1292.1943 4285427337
-17.236698 754.83624 1292.1943 4292006637
-12.311927 754.83624 1292.1943 4291740093
-9.8495417 754.83624 1292.1943 4291676055
-46.611008 761.34033 1291.1383 4285347680
-44.157799 761.34033 1291.1383 4284567681
-14.719266 761.34033 1291.1383 4293188067
-4.9064221 761.34033 1291.1383 4292266211
-2.4532111 761.34033 1291.1383 4292134882
-49.06422 763.21582 1292.7196 4289495948
-19.625689 763.21582 1292.7196 4286609547
-17.172478 763.21582 1292.7196 4293254640
-13.492661 763.21582 1292.7196 4292661989
-9.8128443 763.21582 1292.7196 4292136156
-7.359633 763.21582 1292.7196 4292136156
-4.9064221 763.21582 1292.7196 4292201187
-2.4532111 763.21582 1292.7196 4292135393
-48.880733 767.81641 1290.0586 4289171363
-46.436699 767.81641 1290.0586 4292000462
-43.992661 767.81641 1290.0586 4291869900
-21.99633 767.81641 1290.0586 4283387531
-19.552294 767.81641 1290.0586 4286741398
-7.3321099 767.81641 1290.0586 4292398304
-4.8880734 767.81641 1290.0586 4292266463
-2.4440367 767.81641 1290.0586 4292135134
-51.324772 769.68494 1291.634 4288710784
-48.880733 769.68494 1291.634 4286546071
-46.436699 769.68494 1291.634 4286875035
-12.220183 769.68494 1291.634 4292201189
-9.7761469 769.68494 1291.634 4291937501
-7.3321099 769.68494 1291.634 4292069087
-4.8880734 769.68494 1291.634 4292003294
-2.4440367 769.68494 1291.634 4292134880
-48.697247 776.12592 1290.5248 4285951369
-46.262386 776.12592 1290.5248 4288385454
-13.391743 776.12592 1290.5248 4292003044
-9.7394495 776.12592 1290.5248 4291937501
-7.3045874 776.12592 1290.5248 4291805658
-51.132111 777.98743 1292.0944 4288515236
-48.697247 777.98743 1292.0944 4287923862
-46.262386 777.98743 1292.0944 4290095032
-9.7394495 777.98743 1292.0944 4291937499
-7.3045874 777.98743 1292.0944 4291674583
-4.8697248 777.98743 1292.0944 4291674331
-2.4348624 777.98743 1292.0944 4292332005
-46.053211 784.92993 1290.1 4290351746
-43.629356 784.92993 1290.1 4291537571
-41.205505 784.92993 1290.1 4292458673
-38.781651 784.92993 1290.1 4292459229
-9.6954126 784.92993 1290.1 4291608536
-7.2715597 784.92993 1290.1 4291542743
-4.8477063 784.92993 1290.1 4291608536
-2.4238532 784.92993 1290.1 4291937501
-48.477066 786.78302 1291.6624 4287187274
-46.053211 786.78302 1291.6624 4287318860
1.2119266 786.78302 1291.6624 4291674331
4.8477063 786.78302 1291.6624 4291608538
7.2715597 786.78302 1291.6624 4291542745
-53.122936 794.99713 1292.0481 4286136914
-49.098469 794.38177 1291.5292 4287452246
-45.878899 793.15112 1290.4916 4287978071
-43.464222 793.15112 1290.4916 4288368720
-38.634861 794.99713 1292.0481 4288371032
-7.2440367 794.0741 1291.2698 4291148496
-4.8293576 794.0741 1291.2698 4291214289
-2.4146788 794.0741 1291.2698 4291477718
-48.911926 801.94312 1291.3647 4286595660
-45.704586 802.24963 1291.6232 4286989909
-43.299084 801.33008 1290.8479 4288106064
-40.893578 801.33008 1290.8479 4288500822
-38.488075 801.33008 1290.8479 4288895062
-12.027523 801.33008 1290.8479 4291082444
-9.6220188 801.33008 1290.8479 4291016649
-7.2165136 801.33008 1290.8479 4291477200
-4.8110094 801.33008 1290.8479 4291477200
-2.4055047 801.33008 1290.8479 4291411406
1.2027524 803.16913 1292.3984 4291082192
4.8110094 803.16913 1292.3984 4291410903
7.2165136 803.16913 1292.3984 4291213780
9.6220188 803.16913 1292.3984 4291344594
-46.728439 809.46704 1291.1686 4289691019
-43.133945 809.46704 1291.1686 4290410895
-40.737614 809.46704 1291.1686 4290476688
-38.341286 809.46704 1291.1686 4290540432
-10.783486 809.46704 1291.1686 4291211726
-7.1889906 809.46704 1291.1686 4291343313
-4.7926607 809.46704 1291.1686 4291343315
-2.3963304 809.46704 1291.1686 4291606487
9.5853214 809.46704 1291.1686 4290950606
-46.728439 811.29907 1292.7133 4290149488
-7.1889906 811.29907 1292.7133 4291673300
-2.3963304 811.29907 1292.7133 4291673811
-46.549541 817.56201 1291.4539 4284820568
-42.968807 817.56201 1291.4539 4284299839
-2.387156 817.56201 1291.4539 4291278805
-57.291744 819.38696 1292.9927 4281349186
-54.904587 819.38696 1292.9927 4282073166
-52.517429 819.38696 1292.9927 4283451474
-50.130276 819.38696 1292.9927 4284043354
-47.743118 819.38696 1292.9927 4284697691
1.193578 819.38696 1292.9927 4291145934
-57.115597 823.27979 1291.0428 4282201670
-49.976147 823.27979 1291.0428 4283846484
-46.406422 823.27979 1291.0428 4284239965
-57.115597 825.09918 1292.5769 4284829793
-54.735779 825.09918 1292.5769 4285685101
-52.355965 825.09918 1292.5769 4284964445
-49.976147 825.09918 1292.5769 4285359202
-47.596329 825.09918 1292.5769 4286083723
7.1394496 825.09918 1292.5769 4290884810
9.5192661 825.09918 1292.5769 4290818250
-55.710091 833.11414 1292.7947 4286803078
-52.154129 831.30176 1291.2666 4287526260
-49.783485 831.30176 1291.2666 4290421153
-46.227524 831.30176 1291.2666 4287794870
11.853211 833.11414 1292.7947 4291148237
-55.494495 839.28162 1291.4548 4287659421
-51.952293 839.28162 1291.4548 4289565870
-49.590824 839.28162 1291.4548 4291473868
-47.229359 839.28162 1291.4548 4290488508
-43.687157 839.28162 1291.4548 4289237430
-30.699083 839.28162 1291.4548 4286333530
-28.337614 839.28162 1291.4548 4288040271
-55.494495 841.08698 1292.9771 4288975519
-51.952293 841.08698 1292.9771 4289303466
-49.590824 841.08698 1292.9771 4289500846
-47.229359 841.08698 1292.9771 4289566643
-43.687157 841.08698 1292.9771 4289960888
-40.144955 841.08698 1292.9771 4290289596
-37.783485 841.08698 1292.9771 4291076270
-35.42202 841.08698 1292.9771 4291404979
-30.699083 841.08698 1292.9771 4291600827
-28.337614 841.08698 1292.9771 4289956768
-25.875229 845.42102 1290.0913 4289430689
-22.34679 845.42102 1290.0913 4287388040
-18.818348 845.42102 1290.0913 4286935922
-2.3522935 845.42102 1290.0913 4290818504
-21.170643 847.21942 1291.6075 4292060846
-18.818348 847.21942 1291.6075 4288057247
-51.710091 758.60126 1295.3689 4280948003
-49.247707 757.66003 1294.5752 4279828499
-46.78532 756.71875 1293.7816 4278852121
-44.322937 756.71875 1293.7816 4278194498
-22.161469 756.71875 1293.7816 4282133601
-19.699083 757.66003 1294.5752 4286344840
-17.236698 757.66003 1294.5752 4293253360
-13.132722 757.34625 1294.3107 4292333012
-9.8495417 758.60126 1295.3689 4292136410
-7.387156 758.60126 1295.3689 4292005081
-51.517429 765.09131 1294.301 4289763472
-17.172478 765.09131 1294.301 4293254905
-13.492661 765.09131 1294.301 4292924648
-9.8128443 765.09131 1294.301 4292332254
0.81773704 766.34161 1295.3552 4292069599
-51.324772 772.48767 1293.9972 4287793280
-48.880733 771.55341 1293.2095 4286676377
-4.8880734 772.48767 1293.9972 4291674330
-2.4440367 772.48767 1293.9972 4292003295
-51.132111 779.84888 1293.6639 4287722111
-48.697247 779.84888 1293.6639 4288118922
-46.262386 779.84888 1293.6639 4290487726
-4.8697248 779.84888 1293.6639 4291608536
-2.4348624 779.84888 1293.6639 4291937501
-56.001835 781.71033 1295.2334 4286534729
-52.349541 781.71033 1295.2334 4287389518
-48.697247 781.71033 1295.2334 4288904300
1.2174312 781.71033 1295.2334 4291870938
4.8697248 781.71033 1295.2334 4291739102
7.3045874 781.71033 1295.2334 4291739102
-55.748623 788.63611 1293.2249 4287320396
-53.324772 788.63611 1293.2249 4287453260
-49.688992 788.63611 1293.2249 4287781203
1.2119266 788.63611 1293.2249 4291542489
4.8477063 788.63611 1293.2249 4291280089
7.2715597 788.63611 1293.2249 4291280089
-63.020184 790.48914 1294.7874 4285682803
-60.596329 790.48914 1294.7874 4285485423
-58.172478 790.48914 1294.7874 4286201147
-55.748623 790.48914 1294.7874 4286398269
-53.324772 790.48914 1294.7874 4286529356
-50.900917 790.48914 1294.7874 4287648093
1.2119266 790.48914 1294.7874 4291411155
4.8477063 790.48914 1294.7874 4291148246
-41.049541 796.8432 1293.6047 4287781199
-38.634861 796.8432 1293.6047 4288896863
1.2073394 796.8432 1293.6047 4291410385
4.8293576 796.8432 1293.6047 4291476435
7.2440367 796.8432 1293.6047 4291410641
1.2073394 798.68921 1295.1613 4291410135
4.8293576 798.68921 1295.1613 4291477200
7.2440367 798.68921 1295.1613 4291674579
-64.948624 806.84717 1295.4998 4281545021
-61.340366 806.84717 1295.4998 4281610312
-55.326607 806.84717 1295.4998 4285282888
-52.921101 806.84717 1295.4998 4286657110
-49.71376 805.62115 1294.4659 4289291907
-45.704586 805.00818 1293.9491 4287253097
1.2027524 805.92773 1294.7245 4291016149
4.8110094 805.92767 1294.7244 4291345370
7.2165136 805.92767 1294.7244 4291147990
9.6220188 805.00818 1293.9491 4291147987
-64.70092 814.96313 1295.8027 4282266693
-62.304588 814.96313 1295.8027 4282005070
-58.710091 814.96313 1295.8027 4282005070
-55.115597 814.96313 1295.8027 4281807691
-52.719265 814.96313 1295.8027 4283248210
-50.322937 814.04712 1295.0303 4283181134
-47.926605 813.1311 1294.2579 4285275963
1.1981652 814.96313 1295.8027 4291015635
4.7926607 814.96313 1295.8027 4291212497
7.1889906 814.96313 1295.8027 4291212497
9.5853214 814.96313 1295.8027 4290885331
-64.453209 821.21198 1294.5314 4282331984
-62.066055 821.21198 1294.5314 4281873484
-59.678898 821.21198 1294.5314 4281478726
-54.904587 821.21198 1294.5314 4283517530
-52.517429 821.21198 1294.5314 4283583055
1.193578 821.21198 1294.5314 4291213260
4.774312 821.21198 1294.5314 4291147213
7.161468 821.21198 1294.5314 4291213262
-58.305504 826.91858 1294.111 4285948768
-54.735779 826.91858 1294.111 4287197824
0 826.91858 1294.111 4291148752
9.5192661 826.91858 1294.111 4291147213
-57.115597 828.73798 1295.645 4287459977
-54.735779 828.73798 1295.645 4287262854
7.1394496 828.73798 1295.645 4290753994
9.5192661 828.73798 1295.645 4290884299
-59.266056 834.92651 1294.3229 4286934907
11.853211 835.8327 1295.0869 4291279311
-55.494495 842.89233 1294.4993 4289502892
-51.952293 842.89233 1294.4993 4289304998
-49.590824 842.89233 1294.4993 4289107618
-47.229359 842.89233 1294.4993 4289369259
-43.687157 842.89233 1294.4993 4289501100
-40.144955 842.89233 1294.4993 4290027442
-37.783485 842.89233 1294.4993 4290618296
-34.241287 842.89233 1294.4993 4291340997
-30.699083 842.89233 1294.4993 4291471819
-28.337614 842.89233 1294.4993 4290614963
-16.466055 849.01776 1293.1239 4287460260
-14.113762 849.01776 1293.1239 4287264910
-9.409174 850.8161 1294.6403 4290882510
-7.056881 850.8161 1294.6403 4290882510
-2.3522935 849.01776 1293.1239 4290882762
-9.8862381 753.9726 1298.0062 4291807938
-7.4146791 753.9726 1298.0062 4292136647
-4.943119 753.9726 1298.0062 4292266213
-2.4715595 753.9726 1298.0062 4292068835
-51.710091 760.48376 1296.9562 4287790212
0 760.48376 1296.9562 4291937249
-54.172478 762.36627 1298.5435 4288447612
2.4623854 762.36627 1298.5435 4292069598
1.2266055 768.84229 1297.4637 4292003807
-53.768806 775.29034 1296.3604 4289172909
1.2220184 775.29034 1296.3604 4292003294
4.8880734 775.29034 1296.3604 4291937501
-56.212845 777.15887 1297.9358 4287455591
-53.768806 777.15887 1297.9358 4287722111
1.2220184 777.15887 1297.9358 4292133597
4.8880734 777.15887 1297.9358 4291869659
-63.306423 784.50256 1297.5878 4285945714
-60.871559 784.50256 1297.5878 4285024611
-58.436699 784.50256 1297.5878 4285939509
-56.001835 783.57184 1296.803 4287256136
-52.349541 783.57184 1296.803 4287387467
-63.020184 794.19525 1297.9122 4283574610
-60.596329 793.26868 1297.131 4286668164
-58.172478 793.26868 1297.131 4286995555
-55.748623 793.26868 1297.131 4285679439
-53.324772 794.19525 1297.9122 4285413943
-50.900917 794.19525 1297.9122 4285545530
1.2119266 792.34216 1296.3497 4291542997
4.8477063 792.34216 1296.3497 4291345109
7.2715597 792.34216 1296.3497 4291147987
-65.196327 800.53528 1296.7178 4282460994
-62.781651 800.53528 1296.7178 4283902793
-53.122936 800.53528 1296.7178 4288176749
-50.708256 800.53528 1296.7178 4287781991
-65.196327 802.38135 1298.2743 4282003274
-61.57431 802.38135 1298.2743 4283511885
-57.952293 802.38135 1298.2743 4285940269
-55.537613 802.38135 1298.2743 4287519557
-53.122936 802.38135 1298.2743 4288307061
-64.948624 808.68622 1297.0503 4281938496
-61.340366 808.68622 1297.0503 4282200652
-57.732109 808.68622 1297.0503 4283444560
-55.326607 808.68622 1297.0503 4283576146
-52.921101 808.68622 1297.0503 4285014601
-50.515594 808.68622 1297.0503 4287448943
1.2027524 808.68622 1297.0503 4291278801
4.8110094 808.68622 1297.0503 4291214028
7.2165136 808.68622 1297.0503 4291411406
-64.948624 810.52527 1298.601 4282201922
-61.340366 810.52527 1298.601 4282398030
-57.732109 810.52527 1298.601 4282134603
-55.326607 810.52527 1298.601 4281674052
-52.921101 810.52527 1298.601 4282982473
1.2027524 810.52527 1298.601 4290950354
4.8110094 810.52527 1298.601 4291212749
7.2165136 810.52527 1298.601 4291278542
-64.70092 816.79517 1297.3474 4281873482
-62.304588 816.79517 1297.3474 4282005070
-59.908257 816.79517 1297.3474 4282070864
4.7926607 816.79517 1297.3474 4291147213
7.1889906 816.79517 1297.3474 4291279055
-64.453209 823.03699 1296.0702 4282266445
-62.066055 823.94946 1296.8396 4282925112
-59.678898 823.03699 1296.0702 4282400580
1.5914373 823.64532 1296.5831 4291016910
4.774312 823.94946 1296.8396 4290884812
7.161468 824.862 1297.609 4291082192
0 830.55737 1297.1791 4290753229
7.1394496 830.55737 1297.1791 4291148489
9.5192661 830.55737 1297.1791 4291082444
0 832.37677 1298.7131 4291014350
7.1394496 832.37677 1298.7131 4290950602
9.5192661 832.37677 1298.7131 4291148239
-59.266056 838.55127 1297.3792 4288714407
11.853211 838.55127 1297.3792 4291080141
-59.266056 840.36365 1298.9072 4289897400
0 840.36365 1298.9072 4290817737
4.7412844 840.36365 1298.9072 4290949322
7.1119266 840.36365 1298.9072 4291146702
10.667891 840.36365 1298.9072 4290818506
14.223853 840.36365 1298.9072 4290884045
-55.494495 844.69769 1296.0215 4289438898
-51.952293 844.69769 1296.0215 4289371308
-43.687157 844.69769 1296.0215 4289041311
-40.144955 844.69769 1296.0215 4288647067
-37.783485 844.69769 1296.0215 4288646815
-34.241287 844.69769 1296.0215 4288515232
-30.699083 844.69769 1296.0215 4288844199
-28.337614 844.69769 1296.0215 4290417836
-25.976147 844.69769 1296.0215 4290878387
-23.614679 844.69769 1296.0215 4292258482
-44.867889 846.50305 1297.5438 4289567141
-33.060551 846.50305 1297.5438 4287856268
-28.337614 846.50305 1297.5438 4289367963
-25.976147 846.50305 1297.5438 4289762720
-22.433945 846.50305 1297.5438 4291275428
-18.891743 846.50305 1297.5438 4289368257
-54.374313 755.86212 1299.5995 4280816417
0 755.86212 1299.5995 4291936997
-54.374313 757.75165 1301.1926 4284829526
-54.172478 764.24878 1300.1307 4289302921
-54.172478 766.13135 1301.718 4288383607
-53.970642 770.71783 1299.0452 4287992726
1.2266055 770.71783 1299.0452 4292003294
4.9064221 770.71783 1299.0452 4292003807
-58.877064 772.59332 1300.6265 4287723907
-56.423855 772.59332 1300.6265 4289434269
-61.100918 779.02734 1299.5114 4285947748
-58.656879 779.02734 1299.5114 4286534729
-63.020184 796.04828 1299.4746 4283770190
-60.596329 796.97485 1300.2559 4286468212
-58.172478 796.97485 1300.2559 4286928241
-55.748623 796.97485 1300.2559 4286928242
-53.324772 796.04828 1299.4746 4286005310
-57.952293 804.22736 1299.8308 4284295993
-64.70092 822.2912 1301.9814 4283185998
-62.066055 826.68701 1299.1478 4286670956
-59.678898 826.68701 1299.1478 4287328629
2.387156 826.68701 1299.1478 4290885329
4.774312 826.68701 1299.1478 4290556359
-62.066055 828.51196 1300.6866 4287921028
-59.678898 828.51196 1300.6866 4287658112
2.387156 828.51196 1300.6866 4291147987
4.774312 828.51196 1300.6866 4290950853
-59.495415 834.19617 1300.2472 4287133053
0.7932722 835.409 1301.2699 4290883023
4.7596331 835.10583 1301.0142 4290884299
7.1394496 835.10583 1301.0142 4290884299
9.5192661 835.10583 1301.0142 4290949323
14.278899 836.0155 1301.7812 4291080908
-59.266056 842.17603 1300.4354 4289437351
-49.783485 842.17603 1300.4354 4289042343
-47.412846 842.17603 1300.4354 4289369761
1.1853211 842.17603 1300.4354 4290752711
4.7412844 842.17603 1300.4354 4290621641
7.1119266 842.17603 1300.4354 4290753227
10.667891 842.17603 1300.4354 4290687947
14.223853 842.17603 1300.4354 4290753227
-59.266056 843.9884 1301.9636 4288583830
-55.710091 843.9884 1301.9636 4289503914
-52.154129 843.9884 1301.9636 4288975017
-49.783485 843.9884 1301.9636 4288580259
-47.412846 843.9884 1301.9636 4288580246
-42.671558 843.9884 1301.9636 4289108638
-40.300919 843.9884 1301.9636 4288516501
-37.930275 843.9884 1301.9636 4288448409
-35.559631 843.9884 1301.9636 4287856016
-30.818348 843.9884 1301.9636 4288777370
1.1853211 843.9884 1301.9636 4291014852
4.7412844 843.9884 1301.9636 4290752711
7.1119266 843.9884 1301.9636 4290884297
10.667891 843.9884 1301.9636 4290687434
14.223853 843.9884 1301.9636 4290753227
-33.060551 848.30841 1299.066 4287789446
-22.433945 848.30841 1299.066 4288120989
-18.891743 848.30841 1299.066 4289631150
-16.530275 848.30841 1299.066 4290552252
-14.168807 848.30841 1299.066 4290948012
-11.80734 848.30841 1299.066 4291342770
-4.7229357 848.30841 1299.066 4290619846
-2.3614678 848.30841 1299.066 4291014348
-56.845871 760.58594 1303.5825 4287722838
-61.559631 769.89636 1304.8926 4288182669
-56.634861 768.01379 1303.3053 4288056482
-61.330276 774.46881 1302.2079 4286669416
-58.877064 774.46881 1302.2079 4286929246
-64.70092 824.12317 1303.5262 4285748820
-62.066055 830.33698 1302.2253 4287197822
2.387156 830.33698 1302.2253 4291277266
4.774312 830.33698 1302.2253 4290753479
-62.066055 832.16199 1303.7642 4287198847
2.387156 832.16199 1303.7642 4291146200
2.3798165 837.8349 1303.3153 4290817737
-55.710091 845.80078 1303.4917 4289436338
-52.154129 845.80078 1303.4917 4288451239
-49.783485 845.80078 1303.4917 4288122275
-46.227524 845.80078 1303.4917 4289106340
-42.671558 845.80078 1303.4917 4289437612
-40.300919 845.80078 1303.4917 4288714146
-37.930275 845.80078 1303.4917 4288580248
-35.559631 845.80078 1303.4917 4287856268
-30.818348 845.80078 1303.4917 4287921032
-28.447706 845.80078 1303.4917 4287920778
-26.077065 845.80078 1303.4917 4288184206
2.3706422 845.80078 1303.4917 4291146438
4.7412844 845.80078 1303.4917 4291014854
7.1119266 845.80078 1303.4917 4290948805
2.4825687 754.47314 1306.2765 4292068835
-59.58165 756.37109 1307.8767 4283118592
-56.845871 763.42023 1305.9723 4289104302
-59.317432 765.30975 1307.5654 4286937744
-64.70092 826.87122 1305.8433 4287262568
-62.066055 833.987 1305.303 4288780200
-62.066055 835.81201 1306.8418 4289502642
-59.495415 843.29309 1307.9175 4288189837
0 843.29309 1307.9175 4291080645
10.709174 843.29309 1307.9175 4290752961
14.278899 843.29309 1307.9175 4290688201
-45.042202 847.61316 1305.0199 4289829560
-42.671558 847.61316 1305.0199 4289765299
-37.930275 847.61316 1305.0199 4288645018
-34.374313 847.61316 1305.0199 4287921300
-30.818348 847.61316 1305.0199 4288315806
-28.447706 847.61316 1305.0199 4288382616
-26.077065 847.61316 1305.0199 4288316567
-22.521101 847.61316 1305.0199 4288777370
-18.965137 847.61316 1305.0199 4289436058
-16.594496 847.61316 1305.0199 4290357160
-14.223853 847.61316 1305.0199 4290816696
-10.667891 847.61316 1305.0199 4291803343
-7.1119266 847.61316 1305.0199 4291211213
-4.7412844 847.61316 1305.0199 4290948044
-2.3706422 847.61316 1305.0199 4291210959
4.7412844 847.61316 1305.0199 4290883012
7.1119266 847.61316 1305.0199 4290685889
-35.559631 849.42554 1306.5481 4288314772
-26.077065 849.42554 1306.5481 4288318106
-22.521101 849.42554 1306.5481 4288513939
-18.965137 849.42554 1306.5481 4288251012
-9.4825687 849.42554 1306.5481 4291145936
-7.1119266 849.42554 1306.5481 4291277266
-59.58165 758.26904 1309.4771 4286142544
-64.70092 829.61926 1308.1604 4287526544
-62.066055 839.46198 1309.9193 4287925899
-58.305504 845.11249 1309.4515 4288582811
-54.735779 845.11249 1309.4515 4290488256
-52.355965 845.11249 1309.4515 4289565870
-49.976147 845.11249 1309.4515 4288842148
-47.596329 845.11249 1309.4515 4288974251
-40.456882 845.11249 1309.4515 4289107368
1.1899083 845.11249 1309.4515 4291015102
10.709174 845.11249 1309.4515 4290818493
-49.976147 846.93188 1310.9856 4289500594
-46.406422 846.93188 1310.9856 4289895604
-42.836697 846.93188 1310.9856 4290095043
-40.456882 846.93188 1310.9856 4288779439
-38.077065 846.93188 1310.9856 4288775323
-33.317432 846.93188 1310.9856 4288381077
-30.937614 846.93188 1310.9856 4289039263
-28.557798 846.93188 1310.9856 4288712608
-16.658716 846.93188 1310.9856 4288579977
-14.278899 846.93188 1310.9856 4288842902
-11.899082 846.93188 1310.9856 4291211450
-4.7596331 846.93188 1310.9856 4290816969
-2.3798165 846.93188 1310.9856 4290948555
2.3798165 846.93188 1310.9856 4290948805
4.7596331 846.93188 1310.9856 4290488769
7.1394496 846.93188 1310.9856 4290686149
10.709174 846.93188 1310.9856 4290949311
-9.4825687 851.23792 1308.0762 4290883012
-7.1119266 851.23792 1308.0762 4291277770
-59.58165 760.16699 1311.0774 4286735754
-62.06422 762.06494 1312.6776 4287590507
-64.453209 841.28699 1311.4581 4286742419
-62.066055 841.28699 1311.4581 4287334528
-64.453209 843.112 1312.9969 4286806932
-62.066055 843.112 1312.9969 4287072126
-42.836697 848.75128 1312.5198 4290881217
-38.077065 848.75128 1312.5198 4288511129
-34.507339 848.75128 1312.5198 4288117134
-30.937614 848.75128 1312.5198 4289960102
-28.557798 848.75128 1312.5198 4289106340
-26.177982 848.75128 1312.5198 4288514202
-22.608257 848.75128 1312.5198 4288119179
-19.038532 848.75128 1312.5198 4287725439
-16.658716 848.75128 1312.5198 4288054403
-14.278899 848.75128 1312.5198 4288186244
-11.899082 848.75128 1312.5198 4290357156
-4.7596331 848.75128 1312.5198 4290882247
-2.3798165 848.75128 1312.5198 4290816453
4.7596331 848.75128 1312.5198 4290620105
14.278899 848.75128 1312.5198 4290949322
-62.293579 757.45593 1315.3315 4284109642
-64.785324 759.36084 1316.9377 4283577133
-64.948624 828.91553 1314.1072 4289237673
-64.70092 836.94727 1314.3391 4287858065
-58.485321 844.93701 1314.5358 4288581791
-54.904587 844.93701 1314.5358 4289961658
-52.517429 844.93701 1314.5358 4289763765
0 844.93701 1314.5358 4291014854
-50.130276 846.76196 1316.0745 4289565618
-46.549541 846.76196 1316.0745 4290420664
-40.58165 846.76196 1316.0745 4289236393
2.387156 846.76196 1316.0745 4291014600
7.161468 846.76196 1316.0745 4290949070
10.742202 846.76196 1316.0745 4290948807
-35.697247 850.57068 1314.0537 4288707220
-30.937614 850.57068 1314.0537 4289366677
-26.177982 850.57068 1314.0537 4288645791
-22.608257 850.57068 1314.0537 4288578962
-19.038532 850.57068 1314.0537 4288054405
14.278899 850.57068 1314.0537 4291080393
16.658716 850.57068 1314.0537 4291080393
14.278899 852.39001 1315.5879 4290949320
16.658716 852.39001 1315.5879 4290817991
-69.493576 841.52734 1318.2009 4289436336
-67.097244 841.52734 1318.2009 4288450728
-64.70092 842.44336 1318.9733 4288120991
-62.304588 842.44336 1318.9733 4287925647
-42.968807 848.58698 1317.6133 4290681024
-33.420185 848.58698 1317.6133 4288445575
-28.645872 848.58698 1317.6133 4289106342
-16.710093 848.58698 1317.6133 4287856770
-14.322936 848.58698 1317.6133 4287070338
-10.742202 848.58698 1317.6133 4288911270
-7.161468 848.58698 1317.6133 4290686666
-4.774312 848.58698 1317.6133 4290554051
-2.387156 848.58698 1317.6133 4290816967
4.774312 848.58698 1317.6133 4290554564
7.161468 848.58698 1317.6133 4291015115
10.742202 848.58698 1317.6133 4290751946
-31.033028 850.41199 1319.1521 4288577681
-28.645872 850.41199 1319.1521 4288645018
-26.258715 850.41199 1319.1521 4288645018
-22.677982 850.41199 1319.1521 4288448661
-19.097248 850.41199 1319.1521 4288317073
-16.710093 850.41199 1319.1521 4287988108
-14.322936 850.41199 1319.1521 4287463559
16.658716 854.20941 1317.1219 4291146188
19.038532 854.20941 1317.1219 4290557129
-64.70092 844.27539 1320.5181 4288449439
-62.304588 844.27539 1320.5181 4288317600
-58.710091 844.27539 1320.5181 4288777639
-55.115597 844.27539 1320.5181 4289895351
-52.719265 844.27539 1320.5181 4289960376
0 844.27539 1320.5181 4290883014
-64.70092 846.10736 1322.0627 4288646815
-62.304588 846.10736 1322.0627 4288645791
-58.710091 846.10736 1322.0627 4288843172
-55.115597 846.10736 1322.0627 4289435568
-52.719265 846.10736 1322.0627 4289763763
-50.322937 846.10736 1322.0627 4288974503
-46.728439 846.10736 1322.0627 4290482094
-40.737614 846.10736 1322.0627 4289693873
-38.341286 846.10736 1322.0627 4288838807
1.1981652 846.10736 1322.0627 4290554564
-73.367889 839.94971 1323.4109 4289436074
-73.367889 841.78876 1324.9615 4289172900
-69.759636 841.78876 1324.9615 4289501359
-67.354126 841.78876 1324.9615 4288976039
-52.719265 847.93939 1323.6074 4289368746
-50.322937 847.93939 1323.6074 4289105317
-46.728439 847.93939 1323.6074 4289890470
-43.133945 847.93939 1323.6074 4290153392
-40.737614 847.93939 1323.6074 4289429926
-38.341286 847.93939 1323.6074 4288970136
-34.746788 847.93939 1323.6074 4288773780
-10.783486 847.93939 1323.6074 4288647843
-7.1889906 847.93939 1323.6074 4290687436
-4.7926607 847.93939 1323.6074 4291014852
-2.3963304 847.93939 1323.6074 4291146438
4.7926607 847.93939 1323.6074 4290685639
10.783486 847.93939 1323.6074 4290816204
-47.926605 849.77142 1325.1521 4289232027
-40.737614 849.77142 1325.1521 4289692582
-38.341286 849.77142 1325.1521 4289431189
-34.746788 849.77142 1325.1521 4289366941
-31.152294 849.77142 1325.1521 4288578714
-28.755962 849.77142 1325.1521 4287594393
-26.359632 849.77142 1325.1521 4287528600
-22.765137 849.77142 1325.1521 4287791511
-19.170643 849.77142 1325.1521 4288579477
-16.774311 849.77142 1325.1521 4288448148
-14.377981 849.77142 1325.1521 4287857805
-10.783486 849.77142 1325.1521 4288844966
-7.1889906 849.77142 1325.1521 4290621643
-4.7926607 849.77142 1325.1521 4290816707
-2.3963304 849.77142 1325.1521 4290948294
14.377981 849.77142 1325.1521 4291014602
-79.684402 837.45612 1327.8484 4288446620
-77.269722 837.45612 1327.8484 4289106592
-73.367889 844.54724 1327.2875 4287856017
-69.759636 844.54724 1327.2875 4289171885
-67.354126 844.54724 1327.2875 4289172643
-64.948624 845.4668 1328.0627 4288975003
-61.340366 845.4668 1328.0627 4288711079
-57.732109 845.4668 1328.0627 4289172648
-55.326607 845.4668 1328.0627 4289435564
1.2027524 845.4668 1328.0627 4290619846
7.2165136 845.4668 1328.0627 4291277520
-35.944954 851.60339 1326.6968 4290092453
-26.359632 851.60339 1326.6968 4288120991
-22.765137 851.60339 1326.6968 4288186014
-19.170643 851.60339 1326.6968 4288645789
-16.774311 851.60339 1326.6968 4288974753
-14.377981 851.60339 1326.6968 4288646817
-77.269722 839.30219 1329.405 4288909721
-77.269722 841.14819 1330.9615 4287461510
-64.948624 847.30579 1329.6134 4288709276
-61.340366 847.30579 1329.6134 4288644767
-57.732109 847.30579 1329.6134 4289174445
-55.326607 847.30579 1329.6134 4289306031
-52.921101 847.30579 1329.6134 4289303214
-50.515594 847.30579 1329.6134 4288579492
-45.704586 847.30579 1329.6134 4289626785
-43.299084 847.30579 1329.6134 4289692582
1.2027524 847.30579 1329.6134 4291013067
4.8110094 847.30579 1329.6134 4290816455
7.2165136 847.30579 1329.6134 4290882249
9.6220188 847.30579 1329.6134 4290947019
12.027523 847.30579 1329.6134 4291012813
-64.948624 849.14484 1331.1641 4288842150
-62.543118 849.14484 1331.1641 4288712347
-48.110092 849.14484 1331.1641 4289104025
-45.704586 849.14484 1331.1641 4289498783
-43.299084 849.14484 1331.1641 4290092455
-40.893578 849.14484 1331.1641 4290026662
-38.488075 849.14484 1331.1641 4289960867
-33.677063 849.14484 1331.1641 4289303464
-31.271559 849.14484 1331.1641 4288382362
-28.866055 849.14484 1331.1641 4287989405
-12.027523 849.14484 1331.1641 4288909990
-9.6220188 849.14484 1331.1641 4289896898
-7.2165136 849.14484 1331.1641 4291015636
-4.8110094 849.14484 1331.1641 4290554560
-2.4055047 849.14484 1331.1641 4290554560
9.6220188 849.14484 1331.1641 4290751442
13.230275 849.14484 1331.1641 4290686671
-79.98716 836.81555 1333.8485 4288119697
-77.269722 842.99426 1332.5181 4287461249
-77.269722 844.84027 1334.0746 4287919231
-73.647705 844.84027 1334.0746 4288380048
-70.025688 844.84027 1334.0746 4288446107
-67.611008 844.84027 1334.0746 4288380567
-48.110092 850.98389 1332.7146 4289105569
-45.704586 850.98389 1332.7146 4289566120
-43.299084 850.98389 1332.7146 4289634481
-40.893578 850.98389 1332.7146 4289568687
-37.285324 850.98389 1332.7146 4289765553
-33.677063 850.98389 1332.7146 4288975535
-31.271559 850.98389 1332.7146 4288317605
-28.866055 850.98389 1332.7146 4287988890
-25.257797 850.98389 1332.7146 4288185500
-21.649542 850.98389 1332.7146 4288776868
-19.244038 850.98389 1332.7146 4288712097
-16.838531 850.98389 1332.7146 4289172648
-13.230275 850.98389 1332.7146 4289304738
-9.6220188 850.98389 1332.7146 4290817221
-7.2165136 850.98389 1332.7146 4290817221
-4.8110094 850.98389 1332.7146 4289963197
-2.4055047 850.98389 1332.7146 4290291906
14.433027 850.98389 1332.7146 4290489801
-31.271559 852.82288 1334.2653 4288712106
-28.866055 852.82288 1334.2653 4288317593
-16.838531 852.82288 1334.2653 4289106088
-82.411011 838.66858 1335.411 4288251796
-79.98716 838.66858 1335.411 4287659659
-79.98716 840.52161 1336.9734 4287921800
-79.684402 847.60938 1336.4094 4288186526
-77.269722 847.60938 1336.4094 4288252057
-73.647705 847.60931 1336.4094 4288120217
-70.025688 847.60938 1336.4094 4288054170
-67.611008 846.68634 1335.6311 4288184220
-61.57431 847.60938 1336.4094 4288778144
-57.952293 846.68634 1335.6311 4289501609
-55.537613 846.68634 1335.6311 4290028209
-53.122936 847.60938 1336.4094 4289236387
-50.708256 847.60938 1336.4094 4288775836
1.2073394 847.60938 1336.4093 4290555084
4.8293576 847.60938 1336.4094 4290094786
7.2440367 847.60938 1336.4094 4290357958
9.6587152 848.53235 1337.1876 4290555596
12.073395 848.53235 1337.1876 4290555596
-79.98716 842.37469 1338.5359 4287854469
-79.684402 850.37842 1338.7441 4289106603
-77.269722 850.37842 1338.7441 4289040810
-41.049541 850.37842 1338.7441 4289437605
-37.427521 850.37842 1338.7441 4289568699
-33.805504 850.37842 1338.7441 4289172657
-25.35413 850.37842 1338.7441 4287987864
-21.732111 850.37842 1338.7441 4288908458
-19.31743 850.37842 1338.7441 4288908708
-13.280734 850.37842 1338.7441 4289698726
-9.6587152 850.37842 1338.7441 4290554560
-7.2440367 850.37842 1338.7441 4290554560
-4.8293576 850.37842 1338.7441 4290488769
-2.4146788 850.37842 1338.7441 4290554562
14.488073 850.37842 1338.7441 4290555594
-77.269722 852.22449 1340.3008 4289040045
-26.561468 852.22449 1340.3008 4287724437
-13.280734 852.22449 1340.3008 4290093484
-7.2440367 852.22449 1340.3008 4290488767
-2.4146788 852.22449 1340.3008 4290883014
-82.785324 838.48529 1343.1046 4288052617
-65.444038 846.08081 1341.6608 4287924895
-60.596329 846.08081 1341.6608 4287857301
-58.172478 846.08081 1341.6608 4288511883
-55.748623 846.08081 1341.6608 4289104277
-53.324772 847.93384 1343.2231 4288186014
-50.900917 847.93384 1343.2231 4288449443
-46.053211 847.93384 1343.2231 4289238945
-43.629356 847.93384 1343.2231 4289371556
1.2119266 847.93384 1343.2231 4290620610
4.8477063 847.93384 1343.2231 4290161340
7.2715597 847.93384 1343.2231 4290227133
9.6954126 847.93384 1343.2231 4290489801
12.119267 847.93384 1343.2231 4290489801
-85.541283 835.08191 1346.7751 4288710048
-41.205505 849.78693 1344.7856 4289173163
-37.165752 850.4046 1345.3065 4289174448
-33.933945 849.78693 1344.7856 4289107634
-31.510092 850.7135 1345.5669 4288581031
-29.086239 850.7135 1345.5669 4288316325
-25.450459 850.7135 1345.5669 4287263894
-21.814678 849.78693 1344.7856 4288317087
-19.390825 849.78693 1344.7856 4288645789
-16.966972 849.78693 1344.7856 4289566891
-13.331193 851.64001 1346.3481 4290817727
-9.6954126 850.7135 1345.5669 4290292156
-7.2715597 851.64001 1346.3481 4290358203
-4.8477063 850.7135 1345.5669 4290554305
-2.4238532 851.64001 1346.3481 4290620609
0 849.78693 1344.7856 4290816707
9.6954126 849.78693 1344.7856 4290490053
12.119267 849.78693 1344.7856 4290555846
-75.480736 845.00043 1348.598 4288711845
-73.045868 845.00043 1348.598 4288383646
-70.611008 845.00043 1348.598 4288317852
-68.176147 844.0697 1347.8132 4287858586
-64.523857 845.00043 1348.598 4287463067
-60.871559 845.00043 1348.598 4285949584
-58.436699 845.00043 1348.598 4286409342
-56.001835 845.00043 1348.598 4287988117
-48.697247 845.00043 1348.598 4288778394
-36.3578 853.49304 1347.9105 4288448418
-12.119267 853.49304 1347.9105 4290620609
-7.2715597 853.49304 1347.9105 4290227648
-2.4238532 853.49304 1347.9105 4290490055
-75.480736 846.86194 1350.1675 4288842665
-73.045868 847.79266 1350.9523 4288843683
-70.611008 847.79266 1350.9523 4288975269
-68.176147 847.79266 1350.9523 4287859101
-64.929665 847.48242 1350.6907 4286411655
