# .PCD v0.7 - Point Cloud Data file format
VERSION 0.7
FIELDS x y z rgb
SIZE 4 4 4 4
TYPE F F F U
COUNT 1 1 1 1
WIDTH 1167
HEIGHT 1
VIEWPOINT 0 0 0 1 0 0 0
POINTS 1167
DATA ascii
-5.0477066 828.06097 798.02271 4289424974
18.508257 829.99048 799.64972 4294967295
-10.062386 832.80316 798.09717 4289751918
16.770641 832.80316 798.09717 4294967295
-10.062386 834.72632 799.71875 4292450718
-7.5302753 836.80811 798.85803 4294093999
22.590824 836.80811 798.85803 4294967295
25.155964 835.36743 800.25928 4294967295
-10.040367 838.0874 799.93677 4288041054
-8.3669729 838.0874 799.93677 4289817209
25.937614 838.0874 799.93677 4294967295
-7.5055051 842.15698 799.44397 4287122256
-4.1697249 842.15698 799.44397 4289550649
-1.66789 842.15698 799.44397 4292705106
0.55596334 841.94452 799.26483 4293888371
4.1697249 841.51941 798.90637 4294335055
13.34312 841.51941 798.90637 4286011506
15.844954 841.51941 798.90637 4294963711
19.180733 842.15698 799.44397 4294967295
22.516514 842.15698 799.44397 4294967295
25.852295 842.15698 799.44397 4294967295
28.354128 842.79456 799.98157 4294967295
30.022018 842.79456 799.98157 4294967295
0 749.35785 802.29602 4290357492
5.344954 749.35785 802.29602 4294967295
-1.7816514 750.71991 803.44446 4278190080
0.89082569 750.71991 803.44446 4290094021
4.4541283 750.71991 803.44446 4294967295
7.1266055 750.71991 803.44446 4294967295
0.88807338 755.05249 803.17346 4284637574
5.3284402 754.37354 802.60095 4294967295
7.1045871 754.37354 802.60095 4294967295
4.4311924 757.25629 802.41565 4293057265
7.9761467 757.25629 802.41565 4294967295
10.634862 758.61133 803.55823 4294967295
12.407339 758.61133 803.55823 4294967295
1.7669724 760.89447 801.5592 4282796369
4.4174314 760.89447 801.5592 4290159329
7.951376 760.89447 801.5592 4294967295
10.601835 762.24536 802.69812 4294967295
12.368808 762.24536 802.69812 4294967295
-4.4036698 767.21759 802.96655 4294934215
1.7614679 766.54425 802.3988 4285089357
4.4036698 766.54425 802.3988 4281151294
-1.7559633 770.83051 802.08887 4294958979
0 770.83051 802.08887 4294961407
4.3899083 770.83051 802.08887 4285216357
-3.5119267 772.17297 803.2207 4290549924
-1.7522936 773.68103 801.87622 4290023580
0.87798166 772.927 802.54846 4294151112
4.380734 773.68103 801.87622 4290621622
7.0091743 773.68103 801.87622 4284874793
-3.5045872 775.02069 803.00574 4292721400
-1.7522936 775.02069 803.00574 4291142368
1.7522936 775.02069 803.00574 4294949552
4.380734 775.02069 803.00574 4294948841
-4.3669724 779.28174 802.67444 4288580535
1.746789 778.61401 802.11145 4292460749
4.3669724 779.28174 802.67444 4293897666
7.8605504 778.61401 802.11145 4290615203
10.480734 778.61401 802.11145 4283115343
20.961468 778.61401 802.11145 4294967295
22.708258 779.28174 802.67444 4294967295
25.328442 779.94946 803.23743 4294967295
34.93578 779.94946 803.23743 4294967295
-4.0672784 782.33759 802.63495 4282335076
-1.7431192 781.4491 801.88586 4290886846
1.7431192 782.11542 802.44769 4290620127
4.3577981 782.78174 803.00952 4288585903
7.8440366 782.11542 802.44769 4290149822
10.458715 782.11542 802.44769 4286735133
13.073395 782.11548 802.44763 4292001958
16.559633 782.11548 802.44763 4294967295
20.045872 782.11542 802.44769 4294967295
22.660551 782.78174 803.00952 4294967295
34.862385 782.78174 803.00952 4294967295
36.605503 781.4491 801.88586 4294967295
-6.9504585 787.68384 803.21875 4294037980
-4.3440366 787.01965 802.65869 4287527067
0.86880732 786.35541 802.09863 4285360288
4.0544343 787.24103 802.8454 4286278056
7.8192658 787.68384 803.21875 4289100934
10.425688 787.68384 803.21875 4286937746
13.900917 787.68384 803.21875 4278190128
19.113762 787.68384 803.21875 4294967295
22.588991 787.68384 803.21875 4294967295
36.48991 786.35541 802.09863 4294967295
-4.0415902 790.80347 801.92511 4294176761
-1.7321101 789.92065 801.18079 4283187293
1.1547401 790.36206 801.55292 4282854449
4.3302751 791.24487 802.29724 4284897664
7.7944956 791.24487 802.29724 4289166736
13.856881 791.24487 802.29724 4278190084
38.106422 789.92065 801.18079 4294967295
-6.9284406 792.56909 803.41382 4289633410
-4.3211012 794.05469 802.05029 4294967282
1.7284404 794.05469 802.05029 4284307296
4.3211012 794.05469 802.05029 4282794055
7.7779818 794.05469 802.05029 4288644242
10.370643 794.05469 802.05029 4286868860
12.963303 794.05469 802.05029 4278321152
16.420183 794.05469 802.05029 4283317587
19.899082 793.31189 802.73206 4294967295
22.517431 792.56909 803.41382 4294967295
24.249542 792.56909 803.41382 4294967295
38.106422 792.56909 803.41382 4294967295
39.754128 794.05469 802.05029 4294967295
-6.9137616 795.3761 803.16455 4292257950
-4.3155966 796.48822 802.1402 4294965234
-1.7229358 797.60034 801.11584 4294967295
0.8642202 796.48822 802.1402 4291610829
4.3211012 795.3761 803.16455 4286270772
7.753211 797.60034 801.11584 4289561494
10.337615 797.60034 801.11584 4289631873
12.922018 797.60034 801.11584 4278714383
16.420183 795.3761 803.16455 4280492848
19.877064 795.3761 803.16455 4294967295
22.469725 795.3761 803.16455 4294967295
-7.4660554 799.79572 802.9668 4294832631
-4.5944958 799.35663 802.59668 4294900478
1.7229358 799.57617 802.78174 4294833919
4.3073397 799.57611 802.78174 4289829291
7.4660554 799.35663 802.59668 4287918206
13.783486 798.91754 802.22644 4278648840
16.655046 799.35663 802.59668 4278255618
19.526606 799.79565 802.9668 4286021027
22.398165 800.23474 803.33704 4294967295
-4.011621 802.5882 802.70538 4293846268
-1.7192661 802.36914 802.52069 4289700041
0 802.36914 802.52069 4292193244
4.2981653 803.02637 803.07483 4292269270
7.7366972 802.36914 802.52069 4290877596
10.315597 801.71198 801.96655 4290684884
12.894495 802.36914 802.52069 4280358709
16.046484 802.5882 802.70538 4278978578
-1.7137614 806.5481 802.12024 4289040799
0 806.5481 802.12024 4290682278
4.2844038 806.5481 802.12024 4294963967
7.7119265 805.89301 801.56787 4291340700
10.853824 806.11133 801.75195 4286674586
13.710092 806.5481 802.12024 4279698956
16.280735 806.5481 802.12024 4279697408
-4.2844038 807.85828 803.22485 4292848580
-1.7137614 807.85828 803.22485 4294955747
0.85688072 808.59265 802.53607 4292597964
4.2752295 809.32703 801.84729 4294571263
7.6954126 809.32703 801.84729 4290756286
11.128441 808.59265 802.53607 4283843940
13.710092 807.85828 803.22485 4280418304
16.280735 807.85828 803.22485 4284556582
-3.4201834 810.6344 802.94971 4293245093
11.115597 810.6344 802.94971 4286534520
13.680734 810.6344 802.94971 4287323448
16.245872 810.6344 802.94971 4291403154
-4.2614679 814.13654 801.97852 4291198832
1.7045871 814.13654 801.97852 4294948280
4.5455656 814.57086 802.34473 4294899187
11.079816 814.78809 802.52789 4292454044
13.636697 814.78809 802.52789 4294966783
16.193579 814.78809 802.52789 4294967295
18.750458 815.4397 803.07727 4294967295
-6.8036699 816.90009 801.69263 4290801248
-4.2522936 816.90009 801.69263 4292182901
-1.7009175 816.90009 801.69263 4290603870
1.133945 817.33356 802.05811 4293496440
3.9688072 817.76703 802.42358 4294689452
7.6541281 817.55029 802.24084 4293517800
13.60734 818.20044 802.78906 4294966783
16.158716 818.20044 802.78906 4294967295
18.710093 818.20044 802.78906 4294967295
-1.6954129 821.68298 801.80127 4292508769
1.7009175 819.50085 803.8855 4292573026
3.401835 819.50085 803.8855 4293294959
19.497248 821.68298 801.80127 4294967295
22.888073 821.68298 801.80127 4294967295
25.431192 821.68298 801.80127 4294967295
28.065138 819.50085 803.8855 4294967295
31.466972 819.50085 803.8855 4294967295
34.018349 819.50085 803.8855 4294967295
19.455046 824.43109 801.50232 4294967295
22.862385 823.70508 802.19824 4294967295
25.431192 822.97913 802.89417 4294967295
27.691742 823.84326 803.62274 4294967295
31.082571 823.84326 803.62274 4294967295
23.120489 826.15558 802.95636 4294967295
25.376146 826.37109 803.13812 4294967295
27.06789 827.01782 803.68335 4294967295
-15.176147 830.47644 802.67554 4291470497
-13.489908 829.83191 802.13202 4290940056
20.234863 829.18732 801.5885 4294967295
22.483179 830.04669 802.31317 4294967295
25.293577 830.47644 802.67554 4294967295
-15.176147 831.76556 803.76245 4284236624
-13.46055 833.2063 802.36121 4288569720
-11.777982 832.56311 801.81891 4291335076
26.979816 831.76556 803.76245 4294967295
28.666056 831.76556 803.76245 4294967295
30.352293 831.76556 803.76245 4294967295
-15.143119 834.49268 803.4458 4282852407
-13.46055 834.49268 803.4458 4284097595
-11.73945 836.64954 801.34033 4286597729
28.510092 836.64954 801.34033 4294967295
30.187157 836.64954 801.34033 4294967295
-15.93211 839.21381 803.50244 4283249231
-13.416513 838.57275 802.96191 4282853693
-10.877064 839.36676 801.01538 4283902265
7.5302753 839.36676 801.01538 4294932412
10.877064 839.36676 801.01538 4291585913
28.447706 839.36676 801.01538 4294967295
30.121101 839.36676 801.01538 4294967295
-10.877064 841.28577 802.63354 4286472312
-7.5302753 841.92542 803.17285 4286011478
-4.183486 841.92542 803.17285 4287327321
1.6733944 841.28577 802.63348 4288177225
4.183486 841.28577 802.63348 4290532691
7.5302753 841.28577 802.63354 4294668146
10.598165 841.07251 802.45367 4292634757
13.387156 841.28577 802.63348 4287716707
15.897249 841.28577 802.63354 4294828008
19.244038 841.92542 803.17285 4294967295
31.794495 841.28577 802.63348 4294967295
34.025692 841.49902 802.81329 4294967295
-1.66789 844.06964 801.05664 4287394141
0 844.06964 801.05664 4284828729
22.794495 844.49463 801.41504 4294967295
26.130278 844.49463 801.41504 4294967295
28.354128 844.06964 801.05664 4294967295
30.022018 844.06964 801.05664 4294967295
10.722936 748.42413 805.4328 4294967295
-1.7816514 752.08203 804.5929 4278190104
3.5633028 752.08203 804.5929 4294967295
8.9082565 752.08203 804.5929 4294967295
-1.7816514 753.44409 805.74146 4278190080
10.689908 753.44409 805.74146 4294967295
-7.9651375 763.81183 805.98102 4290257522
-7.0678897 766.29791 806.11523 4288747047
-7.0458717 769.91089 805.23743 4292788949
-4.697248 769.01312 804.48047 4291590246
1.7614679 768.56421 804.10205 4294824434
-7.9266057 771.25757 806.37292 4292198886
-5.26789 773.51544 804.35266 4294765567
22.827522 773.51544 804.35266 4294967295
25.502752 772.38647 805.36279 4294967295
28.183487 771.25757 806.37292 4294967295
34.348625 771.25757 806.37292 4294967295
-10.53578 776.20032 806.61646 4282917924
-8.1896029 775.80615 805.41211 4282331475
-5.2568808 776.36035 804.13525 4287992265
25.408257 776.36035 804.13525 4294967295
28.095413 774.85785 805.48462 4294967295
35.119267 774.85785 805.48462 4294967295
-10.513762 779.03961 806.39441 4290816946
-7.8853211 778.36975 805.82965 4286607498
28.036697 777.69995 805.26489 4294967295
-7.8605504 781.95258 804.92651 4289768376
25.619574 781.72998 804.73883 4294967295
28.822018 781.95258 804.92651 4294967295
31.442202 781.95258 804.92651 4294967295
33.188992 781.95258 804.92651 4294967295
-10.480734 783.95575 806.61548 4290026158
-7.8440366 784.7807 804.69501 4291407828
-5.2293577 784.11438 804.13318 4282525534
5.2293577 784.11438 804.13318 4285424287
7.8440366 784.11438 804.13318 4289756043
10.458715 784.11438 804.13318 4287392163
12.782875 784.55859 804.50775 4279635792
16.559633 784.7807 804.69501 4294835711
20.336391 784.55859 804.50775 4294967295
22.660551 784.11438 804.13318 4294967295
24.984711 785.00275 804.88232 4294967295
28.822018 783.95575 806.61548 4294967295
31.442202 783.95575 806.61548 4294967295
34.304585 784.50568 805.33514 4294967295
36.605503 785.44702 805.25684 4294967295
-8.7155962 786.7796 806.38049 4290158008
26.14679 786.7796 806.38049 4294967295
28.761467 786.7796 806.38049 4294967295
31.376146 786.7796 806.38049 4294967295
33.990826 786.7796 806.38049 4294967295
36.605503 786.7796 806.38049 4294967295
-10.425688 791.66907 806.57898 4289105558
-7.8192658 789.67651 804.89893 4289697702
10.425688 789.01227 804.33887 4287263869
12.163302 789.01227 804.33887 4278321152
16.507339 789.01227 804.33887 4291479266
19.982569 789.01227 804.33887 4294967295
22.588991 789.01227 804.33887 4294967295
25.195412 789.67651 804.89893 4294967295
28.381041 791.22626 806.20563 4294967295
37.648319 790.34064 805.45898 4294967295
-8.6605501 793.89331 804.5304 4288973972
25.115597 793.89331 804.5304 4294967295
39.838531 793.89331 804.5304 4294967295
-12.124771 796.54175 806.76343 4291999126
-10.39266 795.21753 805.64685 4293250254
-8.6422014 796.69751 804.27869 4294566114
20.741285 796.69751 804.27869 4291876586
22.469725 796.69751 804.27869 4294967295
25.062386 796.69751 804.27869 4294967295
28.579817 795.21753 805.64685 4294967295
31.177982 796.54175 806.76343 4294967295
39.796329 796.61963 805.52106 4294967295
-12.099083 799.34033 806.50708 4292394163
-10.370643 798.67963 805.94995 4293643483
25.062386 798.01892 805.39282 4294967295
28.519266 798.67963 805.94995 4294967295
41.482571 798.01892 805.39282 4294967295
-10.337615 802.86914 805.55835 4293906123
-8.0403671 801.99103 804.81793 4294963957
1.7229358 801.55194 804.44775 4294966527
19.813763 801.55194 804.44775 4278190080
22.398165 802.21057 805.00305 4294236371
24.982571 802.21057 805.00305 4294967295
27.566973 802.86914 805.55835 4294967295
-13.199389 805.11407 806.57916 4287777099
-10.326606 805.57794 806.5343 4288302921
-7.7366972 805.65515 805.29138 4290545551
-4.2981653 804.34076 804.18311 4294174960
1.7192661 804.34076 804.18311 4294564065
19.771561 804.99799 804.73724 4286466113
22.350458 806.31238 805.84552 4294962911
24.955963 805.57794 806.5343 4294967295
28.398165 805.57794 806.5343 4294967295
-6.8550458 809.16846 804.32959 4288501081
-5.1412845 809.16846 804.32959 4291462022
19.708256 809.16846 804.32959 4294962167
-13.710092 811.78882 806.53906 4288761679
-7.7119265 810.47864 805.43433 4289487179
19.666054 811.94177 804.052 4294967295
23.13578 810.47864 805.43433 4294967295
25.706423 810.47864 805.43433 4294967295
30.847706 811.78882 806.53906 4294967295
-13.680734 814.55658 806.25671 4288433984
-11.970642 814.55658 806.25671 4289289293
20.521101 813.24915 805.1543 4294967295
23.086239 813.24915 805.1543 4294967295
25.651377 813.24915 805.1543 4294967295
28.216515 813.24915 805.1543 4294967295
32.491745 814.55658 806.25671 4294967295
11.079817 816.74292 804.17603 4291999292
20.455046 816.74292 804.17603 4294967295
23.011927 816.74292 804.17603 4294967295
25.568808 816.74292 804.17603 4294967295
28.125687 816.74292 804.17603 4294967295
30.68257 816.74292 804.17603 4294967295
6.8036699 820.80121 804.98193 4294948553
28.915596 820.80121 804.98193 4294967295
32.317432 820.80121 804.98193 4294967295
34.018349 820.80121 804.98193 4294967295
34.018349 822.10156 806.07837 4294967295
28.822018 825.57141 805.07983 4294967295
31.647707 826.00342 805.44415 4294967295
-18.609175 830.89783 806.95496 4282328102
-16.917431 828.95782 805.31915 4286932330
27.913761 828.31116 804.77393 4294967295
31.579206 829.60449 805.86444 4294967295
-16.862385 833.05475 804.84949 4282852407
-19.391743 834.34387 805.9364 4283641925
-15.984404 835.77899 804.5304 4282788410
-22.71468 838.35168 806.69958 4285683295
-19.349541 837.7085 806.15735 4285684579
-15.652599 840.92334 804.94385 4285815145
-13.416513 841.13696 805.12402 4288184723
-11.73945 841.77808 805.66455 4288250009
1.6770642 841.77808 805.66455 4285818207
4.1926603 841.77808 805.66455 4287061094
7.5467887 841.77808 805.66455 4291978096
11.180428 841.35065 805.3042 4292700800
13.416513 841.77808 805.66455 4291195002
15.93211 841.77808 805.66455 4294626010
34.379814 841.77808 805.66455 4294967295
37.733944 841.13702 805.12402 4294967295
40.249542 841.77808 805.66455 4294967295
-13.416513 843.06018 806.74561 4289237671
-10.614067 843.1084 805.91425 4288897904
-7.5302753 843.84436 804.79083 4291322215
-4.1880732 843.13245 805.49854 4291453289
-1.6752293 843.13245 805.49854 4292181385
0 843.84436 804.79083 4288583069
16.770641 843.06018 806.74561 4294236912
19.265139 843.13245 805.49854 4294967295
22.311926 844.05762 804.97064 4294967295
25.658716 844.05762 804.97064 4294967295
28.447706 843.84436 804.79083 4294967295
30.975229 843.4884 805.14465 4294967295
34.379814 843.06018 806.74561 4294967295
-10.744954 749.63184 809.06714 4292190647
-8.9541283 749.63184 809.06714 4294957037
13.431192 748.94727 808.48993 4294967295
16.714373 749.17548 808.68231 4294967295
-12.510092 752.52307 808.88892 4294952101
-10.722936 752.52307 808.88892 4294961650
-8.9357796 752.52307 808.88892 4294967295
-16.034863 757.53033 809.18689 4289092439
-13.362385 757.53033 809.18689 4292319085
-10.689908 756.8493 808.61261 4294959585
-8.314373 757.07635 808.80402 4294964213
-16.873394 761.16296 808.32556 4282858303
-13.3211 761.16296 808.32556 4284492853
-10.65688 761.16296 808.32556 4287699024
-16.873394 762.52081 809.47058 4286538366
-13.306421 763.27625 808.7995 4287717243
-10.65688 762.52081 809.47058 4288171116
-8.8623857 764.03162 808.12842 4285999948
-19.497248 765.38672 809.271 4286275966
-16.838531 765.38672 809.271 4288378771
-13.293577 765.38672 809.271 4292654287
-10.634862 765.38672 809.271 4293646056
-8.8348627 767.6488 807.25427 4292527319
-19.436697 770.35052 809.53223 4280232007
-16.78624 770.35052 809.53223 4279900991
-14.135779 768.99963 808.39319 4290749377
-10.601835 768.99963 808.39319 4292790509
-21.137615 773.95087 808.64392 4282986027
-19.376146 773.95087 808.64392 4283512372
-16.733946 773.95087 808.64392 4282525488
-13.21101 773.27753 808.07617 4280948033
-10.568808 772.60419 807.50842 4281939811
33.467892 772.60419 807.50842 4294967295
-21.137615 775.29749 809.7793 4288578953
-19.376146 775.29749 809.7793 4288776075
-15.853211 775.29749 809.7793 4289172118
-16.974312 778.43774 808.50311 4290026415
-13.169725 778.21399 808.31439 4290751666
-13.142202 781.71893 808.65356 4290688438
-10.513762 780.37927 807.52393 4292330949
-13.142202 783.05853 809.78308 4289832097
-10.480734 785.2912 807.74146 4288447646
-13.088074 787.36938 808.18573 4290554044
-10.458715 788.11224 807.50403 4287134850
29.633028 788.11224 807.50403 4294967295
31.376146 788.11224 807.50403 4294967295
33.990826 788.11224 807.50403 4294967295
-13.363914 789.8891 809.00226 4290421164
31.376146 789.44489 808.62769 4294967295
33.990826 789.44489 808.62769 4294967295
36.605503 789.44489 808.62769 4294967295
-13.03211 793.66174 808.25916 4291078052
31.277063 792.9975 807.6991 4294967295
33.883484 793.66174 808.25916 4294967295
37.358719 793.66174 808.25916 4294967295
32.044037 797.86597 807.88 4294967295
34.6422 797.86597 807.88 4294967295
37.358719 795.65436 809.93933 4294967295
40.704586 797.86597 807.88 4294967295
-12.963303 800.66174 807.62122 4292655770
29.383486 800.66174 807.62122 4294967295
32.011009 799.9259 808.30884 4294967295
34.6422 799.19012 808.99646 4294967295
36.374313 799.19012 808.99646 4294967295
40.704586 799.19012 808.99646 4294967295
31.976147 801.98315 808.73535 4294967295
34.568806 802.64386 809.29248 4294967295
36.873394 802.86407 809.47821 4294967295
40.618347 803.30457 809.84961 4294967295
-15.506422 806.16211 808.33496 4287647569
-12.060551 806.16211 808.33496 4289156692
31.874313 806.16211 808.33496 4294967295
34.458717 806.82074 808.89026 4294967295
36.181652 806.82074 808.89026 4294967295
-12.894495 808.94116 808.06207 4289485400
-10.315597 808.94116 808.06207 4289616972
-8.5963306 809.59833 808.61621 4289682252
28.367889 808.28394 807.50793 4294967295
32.666054 809.59833 808.61621 4294967295
34.385323 809.59833 808.61621 4294967295
36.104588 809.59833 808.61621 4294967295
-15.473394 810.91272 809.72449 4287976013
-10.315597 810.91272 809.72449 4290405455
-8.5963306 810.91272 809.72449 4291852901
37.823853 810.91272 809.72449 4294967295
-15.423853 815.06433 809.30078 4288961353
-13.710092 815.06433 809.30078 4289286461
-11.983486 815.79169 808.60608 4289483840
35.392048 814.02069 807.54883 4294967295
37.622017 815.86395 807.35901 4294967295
39.332111 815.86395 807.35901 4294967295
35.911926 817.17133 808.46143 4294967295
37.622017 817.82501 809.01257 4294967295
39.332111 817.17133 808.46143 4294967295
35.796329 820.6524 807.47253 4294967295
-18.750458 823.25873 809.67004 4289565076
34.018349 823.40192 807.1748 4294967295
-19.560551 826.00269 809.36768 4282919220
-21.921101 835.633 807.02344 4285090413
-25.238533 839.638 807.78418 4286805102
-22.71468 839.638 807.78418 4286015056
-19.349541 839.638 807.78418 4286604129
-16.825687 839.638 807.78418 4286997879
-21.873394 840.92438 808.86877 4282992199
-19.349541 841.56757 809.41113 4286796385
-15.984404 841.5675 809.41113 4289434006
-13.46055 842.21069 809.95349 4288843417
-10.936697 842.21069 809.95349 4288244341
-5.0477066 842.21069 809.95349 4291714910
1.1217126 841.78192 809.59198 4289763521
4.2064219 841.56757 809.41113 4284965473
7.571559 841.56757 809.41113 4284624950
10.656269 841.35309 809.23029 4291255914
13.46055 841.5675 809.41113 4292507785
15.703976 841.78192 809.59198 4294620618
19.349541 842.21069 809.95349 4294967295
21.873394 842.21069 809.95349 4294967295
37.857796 841.5675 809.41113 4294967295
40.381653 841.5675 809.41113 4294967295
-7.5467887 844.34229 807.82666 4290206560
-3.3541284 844.34229 807.82666 4289742905
-1.6770642 844.34229 807.82666 4294808966
23.478899 844.34229 807.82666 4294967295
25.994495 844.34229 807.82666 4294967295
28.510092 844.34229 807.82666 4294967295
31.025688 844.34229 807.82666 4294967295
34.379814 844.34229 807.82666 4294967295
-12.510092 753.88934 810.04089 4294950846
-19.497248 766.74182 810.41357 4285095294
-16.838531 766.74182 810.41357 4287395219
-12.407339 766.74182 810.41357 4293183718
-21.137615 776.64417 810.91479 4288185490
-19.376146 776.64417 810.91479 4287724939
-21.137615 777.99084 812.05029 4286806914
-19.376146 777.99084 812.05029 4286214778
-17.614679 777.99084 812.05029 4287657358
-16.242661 781.9057 811.42712 4291341255
-15.770642 785.73785 812.04211 4293116126
38.227524 796.98279 811.05945 4294967295
-16.455046 800.51434 810.11304 4285741613
38.106422 800.51434 810.11304 4294967295
40.704586 800.51434 810.11304 4294967295
-19.053211 802.50067 811.7879 4287187268
-17.3211 801.83856 811.22961 4286857544
43.302753 803.16278 812.34619 4294967295
-19.012844 805.94739 812.07788 4288831329
-17.284403 805.28668 811.52081 4289160804
38.025688 804.62598 810.96375 4294967295
40.618347 804.62598 810.96375 4294967295
44.939449 805.94739 812.07788 4294967295
-16.367889 808.79651 810.55615 4288304724
37.904587 808.13794 810.00085 4294967295
40.488991 808.79651 810.55615 4294967295
-22.398165 810.77234 812.22217 4286990147
-19.813763 810.77234 812.22217 4287515721
-17.192661 812.22711 810.83264 4288830536
-10.315597 812.22711 810.83264 4290275152
-18.911926 813.5415 811.94092 4287974964
-17.192661 813.5415 811.94092 4289289291
-18.851376 818.33978 812.06262 4290020989
-16.280735 817.0296 810.95789 4289027402
-13.710092 817.0296 810.95789 4288959296
39.416515 817.0296 810.95789 4294967295
-20.521101 821.09344 811.76843 4289104525
-16.245872 819.78607 810.66614 4290214779
-26.136696 839.50043 810.2843 4286873207
-23.60734 839.50043 810.2843 4288255895
42.999084 839.50043 810.2843 4294967295
45.528439 839.50043 810.2843 4294967295
-28.666056 840.78961 811.37134 4283776593
-26.136696 841.4342 811.91479 4285558886
-22.764221 841.4342 811.91479 4282002234
-20.234863 842.07874 812.45825 4281008128
1.6862385 842.07874 812.45825 4291072977
4.2155962 842.07874 812.45825 4292327602
7.5880733 842.07874 812.45825 4293780193
11.24159 841.64911 812.09595 4285752687
13.489908 842.07874 812.45825 4287778922
16.019266 842.07874 812.45825 4293702863
19.391743 842.07874 812.45825 4294967295
21.921101 842.07874 812.45825 4294967295
38.783485 842.07874 812.45825 4294967295
40.469727 842.07874 812.45825 4294967295
42.155964 841.4342 811.91479 4294967295
47.21468 840.78961 811.37134 4294967295
-18.508257 843.49701 811.03809 4282783752
-15.984404 843.49701 811.03809 4283373856
-13.46055 843.49701 811.03809 4281997615
-10.936697 843.49701 811.03809 4281797142
-7.5715594 843.49701 811.03809 4284944667
-4.2064219 843.49701 811.03809 4287635213
-1.6825688 843.49701 811.03809 4294944355
0 843.49701 811.03809 4293441525
23.555964 843.49701 811.03809 4294967295
26.079817 843.49701 811.03809 4294967295
28.60367 843.49701 811.03809 4294967295
31.127522 843.49701 811.03809 4294967295
34.492661 843.49701 811.03809 4294967295
37.016514 843.49701 811.03809 4294967295
-19.376146 779.33746 813.18579 4286608250
-17.614679 779.33746 813.18579 4287591567
-24.249542 805.81122 814.57922 4286397495
43.302753 804.487 813.46265 4294967295
-25.062386 808.59021 814.30627 4286859327
-22.469725 807.2688 813.19214 4286792253
-19.877064 807.2688 813.19214 4287844172
41.482571 809.25092 814.86334 4294967295
44.07523 808.59027 814.30621 4294967295
-24.121101 812.08954 813.33276 4287646013
-22.398165 812.08954 813.33276 4286922289
-20.67523 812.08954 813.33276 4286790690
-24.121101 813.40674 814.44336 4287385911
-22.398165 813.40674 814.44336 4286398760
-19.793579 814.13135 813.74628 4287449140
41.35046 813.40674 814.44336 4294967295
43.93486 813.40674 814.44336 4294967295
-22.350458 816.17029 814.15747 4289693825
-20.631193 816.17029 814.15747 4290020989
-28.759632 839.95129 814.58862 4286605690
43.985321 839.30463 814.04333 4294967295
46.240978 839.5202 814.2251 4294967295
-30.451376 841.24463 815.67908 4287591033
-27.913761 841.24463 815.67908 4287526013
1.6917431 841.24463 815.67908 4291073742
4.2293577 841.24463 815.67908 4292526266
7.612844 841.24463 815.67908 4294569968
10.99633 841.24463 815.67908 4284829808
13.533945 841.24463 815.67908 4286403443
16.07156 841.24463 815.67908 4291404481
19.455046 841.24463 815.67908 4294967295
21.992661 841.24463 815.67908 4294967295
43.985321 841.24463 815.67908 4294967295
46.522934 841.24463 815.67908 4294967295
-25.293577 843.36786 813.54529 4284039499
-22.764221 843.36786 813.54529 4284368936
-19.391743 843.36786 813.54529 4284433485
-15.738225 843.79761 813.90753 4287391328
-13.489908 844.01245 814.08875 4289429123
-10.96055 843.36786 813.54529 4284685092
-7.3070335 843.79761 813.90753 4288498516
-4.4966359 843.79761 813.90753 4288695118
-1.6862385 843.36786 813.54529 4294947239
0 843.36786 813.54529 4292718824
23.60734 843.36786 813.54529 4294967295
26.136696 843.36786 813.54529 4294967295
28.666056 843.36786 813.54529 4294967295
31.195412 843.36786 813.54529 4294967295
34.56789 843.36786 813.54529 4294967295
37.940369 843.36786 813.54529 4294967295
40.469727 843.36786 813.54529 4294967295
42.155964 843.36786 813.54529 4294967295
16.216515 749.1897 816.54248 4294967295
18.018349 749.1897 816.54248 4294967295
-23.089909 773.38385 818.63 4287593862
-21.269724 774.87225 817.26892 4286937215
-31.365139 841.12531 818.19458 4289433232
-27.974312 841.12531 818.19458 4291539122
-25.376146 842.53802 816.76965 4292000966
-22.838531 842.53802 816.76965 4292329919
-19.455046 842.53802 816.76965 4292199110
-16.917431 842.53802 816.76965 4292592321
-10.99633 842.53802 816.76965 4293510086
-8.4587154 842.53802 816.76965 4293968582
-3.3834863 842.53802 816.76965 4291276182
-1.6917431 842.53802 816.76965 4291144596
0.84770644 841.83167 817.48212 4286597770
4.2293577 842.53802 816.76965 4290541882
7.612844 842.53802 816.76965 4292272113
10.99633 842.53802 816.76965 4280375147
13.533945 842.53802 816.76965 4284830306
16.07156 842.53802 816.76965 4288316059
19.455046 842.53802 816.76965 4294967295
22.838531 842.53802 816.76965 4294967295
25.376146 842.53802 816.76965 4294967295
27.913761 842.53802 816.76965 4294967295
31.297249 842.53802 816.76965 4294967295
34.680733 842.53802 816.76965 4294967295
38.06422 842.53802 816.76965 4294967295
40.601833 842.53802 816.76965 4294967295
43.13945 842.53802 816.76965 4294967295
46.522934 842.53802 816.76965 4294967295
49.166973 841.12531 818.19458 4294967295
-23.684404 843.83136 817.86011 4292987859
-18.609175 843.83136 817.86011 4293186005
-16.07156 843.83136 817.86011 4293975003
-13.533945 843.83136 817.86011 4294237662
-7.612844 843.83136 817.86011 4294630374
-4.2293577 843.83136 817.86011 4293510355
-1.6917431 843.83136 817.86011 4292851396
0 843.83136 817.86011 4291336108
-31.466972 840.3067 821.42847 4291209124
-28.021101 841.36414 820.35791 4292591806
-25.431192 842.42151 819.28735 4293053385
-22.040367 842.42151 819.28735 4292922066
-20.344954 842.42151 819.28735 4293186005
-11.020184 842.42151 819.28735 4294303199
1.7009175 840.3067 821.42847 4290612385
4.2385321 842.42151 819.28735 4290286218
7.6293578 842.42151 819.28735 4289044685
11.020184 842.42151 819.28735 4281944405
13.563303 842.42151 819.28735 4284503907
16.106422 842.42151 819.28735 4287200145
19.497248 842.42151 819.28735 4294967295
22.888073 842.42151 819.28735 4294967295
25.431192 842.42151 819.28735 4294967295
27.974312 842.42151 819.28735 4294967295
31.365139 842.42151 819.28735 4294967295
34.755962 842.42151 819.28735 4294967295
38.14679 842.42151 819.28735 4294967295
40.689907 842.42151 819.28735 4294967295
43.233028 842.42151 819.28735 4294967295
46.623856 842.42151 819.28735 4294967295
50.094498 841.36414 820.35791 4294967295
-18.649542 843.71765 820.38025 4293120727
-7.6293578 843.71765 820.38025 4293119191
-3.3908257 843.71765 820.38025 4293244341
-1.6954129 843.71765 820.38025 4294428615
15.258716 843.71765 820.38025 4285096544
42.385323 843.71765 820.38025 4294967295
-34.018349 841.60706 822.5249 4293382866
-31.466972 841.60706 822.5249 4293251024
-27.781652 842.04053 822.89038 4293975526
-25.513762 842.2572 823.07312 4293580772
-22.962385 842.25726 823.07312 4293186267
-19.844038 842.47394 823.25586 4293186521
-16.158716 842.25726 823.07312 4293317074
-13.60734 842.2572 823.07312 4292988373
-11.055964 842.2572 823.07312 4292856788
-7.6541286 842.90741 823.62134 4291934660
-4.53578 842.47394 823.25586 4291077546
-1.7009175 842.90741 823.62134 4293312437
0.5681957 841.57147 823.36688 4294764267
4.2522936 841.60706 822.5249 4294107357
7.6541286 841.60706 822.5249 4288190922
11.055964 841.60706 822.5249 4279511366
13.60734 842.2572 823.07312 4283911488
16.442202 842.47394 823.25586 4285884531
19.277063 842.04053 822.89038 4294900479
22.962385 842.2572 823.07312 4294967295
25.513762 841.60706 822.5249 4294967295
28.094494 840.9035 823.23969 4294967295
31.466972 841.60706 822.5249 4294967295
34.868805 841.60706 822.5249 4294967295
37.420185 841.60706 822.5249 4294967295
40.255047 842.04053 822.89038 4294967295
43.656879 842.47394 823.25586 4294967295
46.77523 841.60706 822.5249 4294967295
49.326607 841.60706 822.5249 4294967295
51.594498 842.04053 822.89038 4294967295
-37.622017 839.39679 827.20129 4294040283
-35.911926 839.39679 827.20129 4294237662
1.7100917 839.39679 827.20129 4294963184
-34.091743 841.50317 825.05322 4293975773
-31.534863 841.50317 825.05322 4293119701
-28.409784 842.37189 825.78583 4293843685
-25.568808 842.80634 826.1521 4293187039
-23.011927 842.80634 826.1521 4293054167
-19.602753 842.80634 826.1521 4293185757
-16.193579 842.80634 826.1521 4292199889
-13.636697 842.80634 826.1521 4291146420
-11.079817 842.80634 826.1521 4292067272
-7.6706419 842.80634 826.1521 4291014585
-4.2614679 842.80634 826.1521 4290158234
-1.7045871 842.80634 826.1521 4290288783
0 842.80634 826.1521 4290617777
4.2614679 841.50317 825.05322 4294502887
7.6706419 841.50317 825.05322 4290818772
11.079816 842.15479 825.60266 4289042116
13.636697 842.80634 826.1521 4290166221
16.193579 842.80634 826.1521 4282795828
19.602753 842.15479 825.60266 4294506203
23.011927 842.80634 826.1521 4294967295
25.568808 841.50317 825.05322 4294967295
28.125687 841.50317 825.05322 4294967295
31.534863 841.50317 825.05322 4294967295
34.944038 841.50317 825.05322 4294967295
37.500916 841.50317 825.05322 4294967295
40.0578 842.15479 825.60266 4294967295
43.466972 842.80634 826.1521 4294967295
46.876144 842.15479 825.60266 4294967295
49.433029 842.15479 825.60266 4294967295
52.274006 842.37201 825.78583 4294967295
54.546787 842.80634 826.1521 4294967295
-27.273394 844.1095 827.25085 4293909726
-25.568808 844.1095 827.25085 4293580761
-23.011927 844.1095 827.25085 4293383900
-19.602753 844.1095 827.25085 4292594652
-16.193579 844.1095 827.25085 4289633980
-13.636697 844.1095 827.25085 4288841103
-11.079817 844.1095 827.25085 4291144636
-7.6706419 844.1095 827.25085 4290948282
-3.4091742 844.1095 827.25085 4290551710
46.876144 844.1095 827.25085 4294967295
49.433029 844.1095 827.25085 4294967295
51.989906 844.1095 827.25085 4294967295
54.546787 844.1095 827.25085 4294967295
-37.702751 839.30273 829.73804 4294370025
-35.988991 839.30273 829.73804 4294238696
-34.797554 841.10956 829.51752 4294107627
-31.636698 841.35785 828.85486 4293712353
-29.07156 842.01154 829.40601 4293909980
-5.1302752 842.01154 829.40601 4290027171
-1.7100917 842.01154 829.40601 4290683039
1.1412843 841.10956 829.51752 4292524239
4.2752295 841.35785 828.85486 4292659925
7.6954126 841.35785 828.85486 4294107883
11.115597 842.01154 829.40601 4294967295
13.680734 842.01154 829.40601 4294435583
16.245872 842.01154 829.40601 4285486703
19.951071 841.57574 829.03857 4294240498
23.086239 842.01154 829.40601 4294967295
25.651377 841.35785 828.85486 4294967295
28.246788 840.65851 829.57324 4294967295
31.65321 841.00818 829.21405 4294967295
35.076149 841.00818 829.21405 4294967295
37.662384 840.65857 829.57324 4294967295
39.902142 841.57574 829.03857 4294967295
43.607338 842.01154 829.40601 4294967295
-30.781651 843.31891 830.50842 4294502897
-28.216515 843.31891 830.50842 4294239209
-25.568808 845.41266 828.34973 4293975521
-23.011927 845.41266 828.34973 4293712867
-19.602753 845.41266 828.34973 4291477970
-16.218349 844.36578 829.42908 4289173423
-13.636697 845.41266 828.34973 4289167740
-11.115597 843.31891 830.50842 4289563534
-7.6954126 843.31891 830.50842 4291145142
-4.2752295 843.31891 830.50842 4290551972
-1.7100917 843.31891 830.50842 4292721081
0 843.31891 830.50842 4293709269
43.607338 843.31891 830.50842 4294967295
47.027523 843.31891 830.50842 4294967295
49.592659 843.31891 830.50842 4294967295
52.157799 843.31891 830.50842 4294967295
54.722935 843.31891 830.50842 4294967295
-37.823853 838.51495 832.99792 4294305517
-34.27523 841.9231 831.94751 4293976814
-32.561466 841.9231 831.94751 4294174449
1.7137614 841.9231 831.94751 4294169820
4.2844038 841.9231 831.94751 4292134868
6.8550458 841.9231 831.94751 4291539129
11.99633 841.9231 831.94751 4294895608
13.710092 841.9231 831.94751 4294966527
16.280735 841.9231 831.94751 4294306799
19.708256 841.9231 831.94751 4292399574
23.13578 841.9231 831.94751 4294967295
25.706423 841.9231 831.94751 4294967295
29.133945 841.9231 831.94751 4294967295
31.704586 841.9231 831.94751 4294967295
35.132111 841.9231 831.94751 4294967295
37.702751 841.9231 831.94751 4294967295
40.273396 841.9231 831.94751 4294967295
-34.27523 843.23328 833.05212 4294306290
-31.704586 843.23328 833.05212 4294700536
-28.277065 843.23328 833.05212 4294041064
-25.651377 844.62628 831.61072 4293514459
-23.086239 844.62628 831.61072 4293581796
-19.666054 844.62628 831.61072 4291805400
-16.245872 844.62628 831.61072 4289831355
-13.680734 844.62628 831.61072 4289631119
-11.13945 843.23328 833.05212 4289893271
-7.7119265 843.23328 833.05212 4291604666
-4.2844038 843.23328 833.05212 4291078322
-1.7137614 843.23328 833.05212 4293314512
0 843.23328 833.05212 4293316312
44.557796 843.23328 833.05212 4294967295
47.128441 843.23328 833.05212 4294967295
49.592659 844.62628 831.61072 4294967295
52.157799 844.62628 831.61072 4294967295
54.722935 845.27997 832.16187 4294966271
54.722935 847.24103 833.81543 4294967295
-39.543118 839.82935 834.1062 4294501615
-36.964218 839.82935 834.1062 4294108141
8.605505 839.79004 835.38104 4292000190
10.326606 839.79004 835.38104 4292198087
27.508257 839.82935 834.1062 4294967295
-39.543118 841.14374 835.21448 4294897143
-36.964218 841.14374 835.21448 4294437619
-34.385323 842.45813 836.32275 4294108141
-31.806421 842.45813 836.32275 4294964989
-28.367889 842.45813 836.32275 4291338917
-10.315597 842.45813 836.32275 4292922318
-7.7366972 842.45813 836.32275 4292000191
-1.7192661 842.45813 836.32275 4292920773
0.85963303 841.8009 835.76862 4292987606
4.011621 841.58185 835.58392 4291935436
6.8770642 841.14374 835.21448 4291671735
12.894495 841.14374 835.21448 4293975770
16.333027 841.14374 835.21448 4294964478
19.771561 841.14374 835.21448 4293976308
22.350458 841.14374 835.21448 4294967295
24.642813 841.58185 835.58392 4294967295
28.367889 841.14374 835.21448 4294967295
31.806421 841.14374 835.21448 4294967295
34.385323 841.14374 835.21448 4294967295
36.964218 841.14374 835.21448 4294967295
40.402752 841.14374 835.21448 4294967295
43.554737 842.02002 835.95331 4294967295
46.420185 842.45813 836.32275 4294967295
-25.706423 844.54346 834.15686 4291399561
-22.850153 844.98016 834.52509 4292592831
-19.708256 844.54346 834.15686 4293844717
-16.280735 844.54346 834.15686 4293253345
-13.710092 844.54346 834.15686 4293580511
-11.99633 844.54346 834.15686 4293119960
-4.2844038 844.54346 834.15686 4292130748
47.985321 844.54346 834.15686 4294967295
49.699081 845.19855 834.70923 4294967295
52.269726 845.19855 834.70923 4294967295
54.840366 847.16382 836.36633 4294967295
-40.201832 841.94598 838.50702 4293516006
-37.043121 841.72644 838.3219 4292530141
-34.458717 842.38507 838.8772 4291606489
-32.735779 842.38507 838.8772 4294963455
1.7229358 841.72644 838.3219 4291737794
4.5944953 841.94598 838.50702 4291540162
7.7532115 841.72644 838.3219 4292064944
10.337615 841.72644 838.3219 4291736764
12.922018 841.72644 838.3219 4290684074
16.367889 841.72644 838.3219 4293316057
19.813763 841.72644 838.3219 4294965502
22.398165 841.72644 838.3219 4294967295
25.269724 841.94598 838.50702 4294967295
28.42844 841.72644 838.3219 4294967295
31.874313 841.72644 838.3219 4294967295
34.458717 841.72644 838.3219 4294967295
37.043121 841.06787 837.7666 4294967295
40.488991 841.72644 838.3219 4294967295
43.073395 842.38507 838.8772 4294967295
-34.458717 843.70227 839.98779 4291606989
-31.565138 843.72577 839.13556 4294963967
-28.398165 843.73737 838.70947 4292066751
-24.929358 844.42969 837.98523 4289237636
-22.350458 845.08691 838.53931 4292661699
-19.771561 844.42969 837.98517 4293976817
-16.35046 843.73743 838.70941 4293976042
-12.908257 843.73743 838.70941 4293318114
-10.326606 843.73743 838.70941 4292461518
-7.7449541 843.73743 838.70941 4291605436
-4.3027525 843.73743 838.70941 4292591811
-1.7211009 843.73743 838.70941 4293316044
0 843.73743 838.70941 4292855762
12.060551 843.70227 839.98779 4291666093
44.190212 843.72565 839.13556 4294967295
46.469727 843.73743 838.70941 4294967295
48.746792 844.18726 838.65265 4294967295
52.437614 845.08691 838.53931 4294967039
55.016514 846.40131 839.64758 4294967295
-37.161469 841.62537 842.16064 4287859110
1.7284404 841.62537 842.16064 4292921816
4.3211012 841.62537 842.16064 4290949043
7.7779818 841.62537 842.16064 4289951598
10.370643 841.62537 842.16064 4289955475
13.827523 841.62537 842.16064 4291537832
16.420183 841.62537 842.16064 4291077802
19.877064 841.62537 842.16064 4293580001
22.469725 841.62537 842.16064 4294967295
25.062386 841.62537 842.16064 4294967295
28.519266 841.62537 842.16064 4294967295
31.976147 841.62537 842.16064 4294967295
34.568806 841.62537 842.16064 4294967295
37.161469 840.96466 841.60352 4294967295
40.618347 841.62537 842.16064 4294967295
-27.566973 845.01947 841.09851 4293383159
-24.982569 845.01947 841.09851 4289896639
-22.398165 845.01947 841.09851 4292792296
-19.813763 845.01947 841.09851 4294437619
-16.367889 845.01947 841.09851 4294371308
-12.922018 845.01947 841.09851 4293120732
-10.337615 845.01947 841.09851 4292463302
-7.753211 845.01947 841.09851 4291277233
-4.3073397 845.01947 841.09851 4292196546
44.796329 845.01947 841.09851 4294967295
46.519264 845.01947 841.09851 4294967295
49.103668 845.01947 841.09851 4294967295
52.549541 845.01947 841.09851 4294967295
49.965137 846.33667 842.20911 4294967295
52.549541 846.33667 842.20911 4294967295
55.995415 846.33667 842.20911 4292928240
58.579815 846.33667 842.20911 4290820801
-40.993271 841.12354 844.3537 4291082434
-37.240368 842.22705 845.28412 4288252325
-34.6422 842.22705 845.28412 4290816453
-32.027523 842.57251 844.92139 4294107121
-29.414679 842.91797 844.55865 4294963198
-4.3302751 842.88916 845.84241 4289626746
-1.7302753 842.91797 844.55865 4294233300
0.57737005 842.46698 844.61444 4293711338
4.0415902 842.00635 845.09796 4291606713
7.7862387 842.91797 844.55865 4290880414
10.381651 842.91797 844.55865 4291339700
12.977064 842.91797 844.55859 4291537074
16.437614 842.91797 844.55865 4290221467
19.898165 842.91797 844.55865 4291736257
22.493578 842.91797 844.55865 4294898683
25.088991 842.91797 844.55865 4294966783
28.56422 842.57251 844.92139 4294967295
32.044037 842.22705 845.28412 4294967295
34.6422 842.22705 845.28412 4294967295
37.220184 842.57251 844.92139 4294967295
40.682571 842.57251 844.92139 4294967295
43.256882 842.91797 844.55865 4294967295
-27.655046 844.26819 844.38904 4294767100
-25.062386 844.26819 844.38904 4294701557
-22.469725 844.26819 844.38904 4294636015
-19.877064 844.26819 844.38904 4294635511
-16.420183 844.26819 844.38904 4294897916
-12.963303 844.26819 844.38904 4294174962
-10.370643 844.26819 844.38904 4293055964
-7.7779818 844.26819 844.38904 4290289306
44.939449 844.26819 844.38904 4294967295
46.667889 844.26819 844.38904 4294967295
49.260551 844.92889 844.94611 4294967295
52.71743 845.5896 845.50317 4293322470
55.310093 845.5896 845.50317 4290492622
57.038532 845.5896 845.50317 4286873750
-43.440369 839.49225 846.90234 4292790227
-40.833946 839.49225 846.90234 4290687418
-43.440369 840.82068 848.02234 4292923612
-39.965137 840.82068 848.02234 4289568421
1.7376146 840.82068 848.02234 4293185765
5.2128439 840.82068 848.02234 4292067272
-43.302753 845.5376 848.07544 4292659420
-41.570641 845.5376 848.07544 4292595415
-31.177982 844.21338 846.95898 4293186267
-28.579817 844.21338 846.95898 4294305516
-25.115597 844.21338 846.95898 4294899452
-22.517431 844.21338 846.95898 4294240754
-19.919266 844.21338 846.95898 4294765817
-16.455046 844.21338 846.95898 4294965247
-12.124771 844.21338 846.95898 4294765051
-3.4642203 844.21338 846.95898 4291470485
-1.7321101 844.21338 846.95898 4293904827
0 844.21338 846.95898 4294235377
7.7944956 844.21338 846.95898 4292722622
10.39266 844.21338 846.95898 4292590527
12.702141 844.65479 847.33112 4290680475
16.455046 844.87549 847.51721 4291075999
19.630581 844.65479 847.33112 4290683565
22.517431 844.21338 846.95898 4293514470
45.900917 844.21338 846.95898 4294967295
48.499084 844.21338 846.95898 4294967295
53.695412 845.5376 848.07544 4279238718
55.427525 845.5376 848.07544 4278190136
57.159634 845.5376 848.07544 4278190129
-43.440369 842.14911 849.14246 4292857567
-40.833946 842.14911 849.14246 4291279037
-37.358719 842.14911 849.14246 4289502365
-33.883484 842.14911 849.14246 4291605967
-13.900917 842.14911 849.14246 4294964223
-10.425688 842.14911 849.14246 4294239724
-7.8192658 842.14911 849.14246 4291144616
-5.2128439 842.14911 849.14246 4291207829
1.7376146 842.14911 849.14246 4294103534
4.3440366 842.14911 849.14246 4292986328
25.195412 842.14911 849.14246 4294307581
28.670643 842.14911 849.14246 4294967295
31.277063 842.14911 849.14246 4294967295
33.883484 842.14911 849.14246 4294967295
37.358719 842.14911 849.14246 4294967295
40.833946 842.14911 849.14246 4294967295
43.440369 842.14911 849.14246 4294967295
-43.440369 844.80591 851.38269 4293053415
-40.544342 844.3631 851.00928 4293055455
-37.358719 843.47754 850.26257 4292924378
-33.883484 843.47754 850.26257 4292397775
-31.277063 843.47754 850.26257 4292132815
-28.670643 843.47754 850.26257 4292198607
-25.195412 843.47754 850.26257 4293778665
-22.588991 843.47754 850.26257 4293187554
-19.982569 843.47754 850.26257 4293841637
-16.507339 843.47754 850.26257 4294562791
-13.03211 843.47754 850.26257 4294896887
-10.425688 843.47754 850.26257 4294966783
-7.8192658 843.47754 850.26257 4293844712
-4.3440366 843.47754 850.26257 4292525762
-1.7376146 843.47754 850.26257 4292326322
0 844.14172 850.82263 4292386483
7.8192658 843.47754 850.26257 4290809487
10.425688 844.14172 850.82263 4290087067
13.321712 844.3631 851.00928 4290351256
16.507339 844.80591 851.38269 4292525513
20.272171 844.3631 851.00928 4291473852
22.588991 844.14172 850.82263 4292460746
46.046791 843.47754 850.26257 4291809761
49.522018 843.47754 850.26257 4285888154
52.997246 844.14172 850.82263 4280556097
55.603668 844.80591 851.38269 4278190085
57.341286 844.80591 851.38269 4278190080
-37.477066 842.75006 853.57324 4293187556
-33.990826 842.75006 853.57324 4292068560
-31.376146 842.75006 853.57324 4291541196
-28.761467 842.75006 853.57324 4292001999
-25.27523 842.75006 853.57324 4293384419
-22.660551 842.75006 853.57324 4293319140
-20.045872 842.75006 853.57324 4293580511
-16.559633 842.75006 853.57324 4293508824
-13.073395 842.75006 853.57324 4294567403
-10.458715 842.75006 853.57324 4294967295
-7.8440366 842.75006 853.57324 4294566138
-4.3577981 842.75006 853.57324 4292982739
-1.7431192 842.75006 853.57324 4292586429
1.7431192 842.08374 853.01141 4291596967
4.3577981 842.08374 853.01147 4291006097
7.8440366 842.75006 853.57324 4289956742
25.27523 842.08374 853.01141 4293715437
28.761467 842.08374 853.01141 4294967295
31.376146 842.08374 853.01141 4294967295
33.990826 842.08374 853.01147 4294967295
37.477066 842.08374 853.01141 4294967295
40.963303 842.08374 853.01141 4294967295
43.57798 841.41742 852.44958 4294967295
46.192661 842.75006 853.57324 4288188842
49.678898 842.75006 853.57324 4278191480
52.293579 842.75006 853.57324 4278190092
-37.477066 844.0827 854.6969 4293121505
-33.119267 844.0827 854.6969 4291082692
-31.376146 844.0827 854.6969 4291343553
-27.889908 844.0827 854.6969 4292265165
-26.14679 844.0827 854.6969 4293120473
-20.917431 844.0827 854.6969 4293844453
-16.559633 844.0827 854.6969 4293968582
-13.073395 844.0827 854.6969 4294958065
-10.458715 844.0827 854.6969 4294960892
-7.8440366 844.0827 854.6969 4293708002
-1.7431192 844.0827 854.6969 4292844720
0 844.0827 854.6969 4292648863
7.8440366 844.0827 854.6969 4291078832
10.458715 844.0827 854.6969 4291078065
13.073395 844.0827 854.6969 4290486441
16.559633 844.0827 854.6969 4292262854
20.045872 844.0827 854.6969 4292723661
52.293579 844.0827 854.6969 4279768611
54.908257 844.0827 854.6969 4280557866
57.522934 844.0827 854.6969 4280622886
-43.440369 846.13434 852.50269 4294306038
-40.833946 846.13434 852.50269 4293648618
-34.93578 842.7149 856.15967 4292332758
-29.695414 842.7149 856.15967 4292198862
-24.455046 842.7149 856.15967 4292990693
-22.708258 842.7149 856.15967 4293451244
-19.21468 842.7149 856.15967 4292265165
-4.3669724 842.7149 856.15967 4291992757
1.746789 842.7149 856.15967 4292911778
4.3669724 842.7149 856.15967 4291995567
22.708258 842.7149 856.15967 4292789964
25.328442 842.7149 856.15967 4294044399
28.822018 842.7149 856.15967 4294967295
31.442202 842.7149 856.15967 4294967295
34.062386 842.7149 856.15967 4294638847
37.555962 842.7149 856.15967 4289575375
41.049541 842.7149 856.15967 4281545068
43.669724 842.04718 855.59668 4285360012
46.289909 842.7149 856.15967 4278190145
49.783485 842.7149 856.15967 4278190901
-40.963303 845.41528 855.82056 4293516517
-37.555962 844.05029 857.28564 4292990175
-34.062386 844.05029 857.28564 4292266200
-31.442202 844.05029 857.28564 4292527821
-28.822018 844.05029 857.28564 4292658123
-25.328442 844.05029 857.28564 4292986070
-22.708258 844.05029 857.28564 4294039025
-20.088074 844.05029 857.28564 4292660947
-16.594496 844.05029 857.28564 4293840593
-1.746789 844.05029 857.28564 4293436074
0.87339449 844.05029 857.28564 4293967785
4.3669724 844.05029 857.28564 4292394174
7.8605504 844.05029 857.28564 4291408059
10.480734 844.05029 857.28564 4290749104
13.100918 844.05029 857.28564 4290616747
16.594496 844.05029 857.28564 4292854220
20.088074 844.05029 857.28564 4292526542
22.708258 844.05029 857.28564 4293514207
24.455046 844.05029 857.28564 4293187806
28.822018 844.05029 857.28564 4294967295
31.442202 844.05029 857.28564 4294967295
33.188992 844.05029 857.28564 4292400598
37.555962 844.05029 857.28564 4282270349
49.783485 844.05029 857.28564 4279178535
52.403671 844.05029 857.28564 4280230962
54.908257 845.41528 855.82056 4280426796
