# .PCD v0.7 - Point Cloud Data file format
VERSION 0.7
FIELDS x y z rgb
SIZE 4 4 4 4
TYPE F F F U
COUNT 1 1 1 1
WIDTH 1157
HEIGHT 1
VIEWPOINT 0 0 0 1 0 0 0
POINTS 1157
DATA ascii
-16.466055 793.26898 1246.1179 4289566893
-18.818348 795.06732 1247.6343 4289369257
-16.466055 795.06732 1247.6343 4289501100
-14.113762 795.06732 1247.6343 4289763250
-21.088074 802.27069 1247.168 4289303979
-18.744955 802.27069 1247.168 4289434530
-14.058716 801.375 1246.4127 4289830312
-11.715596 802.27069 1247.168 4290093232
-18.686239 808.00818 1246.7734 4289106084
-16.350458 808.00818 1246.7734 4289500585
-14.014679 807.11536 1246.0206 4289435052
-21.566973 760.00269 1249.4614 4291542745
-26.177982 772.33691 1248.0891 4288579996
-23.798164 772.33691 1248.0891 4288842148
-26.177982 774.15625 1249.6232 4288907673
-23.798164 774.15625 1249.6232 4288973470
-23.706423 781.46143 1249.2424 4289040030
-21.25321 788.73151 1248.8323 4289369257
-18.891743 788.73151 1248.8323 4289369257
-11.80734 788.73151 1248.8323 4290225070
-22.433945 790.53687 1250.3545 4288908709
-18.891743 790.53687 1250.3545 4289369257
-14.168807 790.53687 1250.3545 4289894322
-11.80734 790.53687 1250.3545 4289960115
-21.170643 796.86566 1249.1506 4289304236
-23.522936 798.664 1250.667 4288777892
-22.259632 805.85339 1250.1887 4288974500
-14.058716 806.74902 1250.944 4289435050
-23.963303 761.83472 1251.0061 4289765051
-26.359632 763.66675 1252.5509 4289368998
-26.177982 775.97565 1251.1572 4288776605
-26.177982 777.79504 1252.6913 4288842650
-23.706423 785.08618 1252.2988 4288711326
-9.4825687 785.99237 1253.0629 4288909990
-7.1119266 784.17999 1251.5347 4289831598
-22.827522 792.94403 1252.3842 4288974757
-11.80734 792.34222 1251.8767 4290223801
-23.522936 800.46234 1252.1832 4288777122
-25.875229 802.26068 1253.6996 4288711064
-21.088074 808.54034 1252.4543 4288975005
-18.744955 808.54034 1252.4543 4289040808
-16.401834 808.54034 1252.4543 4289501359
-14.058716 808.54034 1252.4543 4289566891
-18.744955 810.33167 1253.9647 4288975013
-16.401834 810.33167 1253.9647 4289567406
-14.058716 810.33167 1253.9647 4289567143
-26.359632 765.49872 1254.0956 4288384150
-26.177982 779.61444 1254.2253 4288908699
-26.177982 781.43384 1255.7594 4288711062
-26.077065 787.80475 1254.5909 4288644755
-9.4825687 787.80475 1254.5909 4289106590
-26.077065 789.61713 1256.1191 4288317073
-9.4825687 789.61713 1256.1191 4289567658
-25.976147 796.85559 1255.6824 4288711832
-23.522936 805.85742 1256.7322 4288514454
-11.761468 805.85742 1256.7322 4289895855
-16.401834 812.12305 1255.4751 4289501611
-14.058716 812.12305 1255.4751 4289567143
-24.14679 754.38422 1257.8043 4291937247
-19.31743 754.38422 1257.8043 4291412190
-16.902752 754.38422 1257.8043 4291806692
-26.561468 756.23022 1259.361 4290288311
-26.177982 783.25323 1257.2935 4288711064
-7.1394496 783.25323 1257.2935 4289831092
-26.077065 791.42944 1257.6473 4288449943
-9.4825687 791.42944 1257.6473 4289698726
-25.976147 801.36902 1259.4879 4288645270
-21.954742 808.25519 1258.754 4288646298
-18.818348 809.4541 1259.7649 4288909473
-11.761468 808.55493 1259.0067 4290225073
-28.557798 788.71143 1261.8956 4287792012
-28.447706 795.96045 1261.4677 4287856011
-11.853211 796.86664 1262.2317 4290158775
-25.976147 803.17438 1261.0101 4288710812
-25.976147 804.97974 1262.5323 4288579477
-18.818348 811.25244 1261.2811 4288843167
-16.466055 811.25244 1261.2811 4289369511
-29.086239 755.28107 1265.1007 4288118674
-28.755962 778.32281 1264.9086 4288118926
-28.645872 784.71198 1263.7555 4287724937
-28.557798 790.53076 1263.4297 4287922315
-9.5192661 790.53076 1263.4297 4289962666
-9.5192661 792.35016 1264.9637 4290028459
-28.447706 798.67896 1263.7599 4287789962
-10.272783 799.28302 1264.2692 4289436075
-23.614679 806.7851 1264.0547 4288382616
-22.433945 808.59045 1265.5769 4288776091
-14.168807 808.59045 1265.5769 4289567143
-29.086239 757.13409 1266.6632 4288055185
-28.976147 766.38348 1267.9219 4288118929
-28.866055 773.74469 1267.5885 4288250511
-28.755962 780.15485 1266.4532 4287986825
-7.1889906 780.15485 1266.4532 4290225070
-9.5192661 794.16956 1266.4978 4289831594
-9.4825687 802.30371 1266.8162 4289437101
-26.077065 804.11609 1268.3444 4288382353
-9.4825687 804.11609 1268.3444 4289765301
-21.25321 811.29846 1267.8602 4289236898
-18.891743 811.29846 1267.8602 4289040804
-16.530275 811.29846 1267.8602 4289304233
-14.168807 810.39581 1267.0991 4289501609
-31.653212 753.78827 1271.6902 4287988106
-7.2715597 760.84021 1269.7881 4292266730
-31.510092 762.6933 1271.3506 4288185488
-28.976147 769.15259 1270.2567 4288118926
-7.1889906 784.73486 1270.3149 4290685877
-7.161468 792.92444 1270.6802 4290555065
-28.557798 797.80835 1269.5659 4288316054
-28.557798 799.62775 1271.1001 4288184719
-26.077065 805.92847 1269.8724 4288579216
-11.853211 805.92847 1269.8724 4290159023
-23.706423 807.74084 1271.4006 4288579225
-11.853211 807.74084 1271.4006 4289962160
-31.653212 755.64972 1273.2598 4288185740
-29.218349 755.64972 1273.2598 4288316567
-7.3045874 755.64972 1273.2598 4292266993
-31.653212 757.51123 1274.8293 4288185742
-29.218349 757.51123 1274.8293 4288447122
-31.510092 764.54633 1272.913 4287855755
-7.2165136 779.26178 1272.2404 4290356918
-4.8110094 781.10083 1273.791 4291277518
-7.1889906 787.48291 1272.6321 4291015354
-4.7926607 789.31494 1274.1768 4290753744
-7.161468 796.57446 1273.7577 4290029238
-28.557798 801.44714 1272.6342 4288250511
-9.5192661 803.26648 1274.1682 4289698990
-23.706423 809.55322 1272.9287 4288710298
-14.223853 809.55322 1272.9287 4289501609
-11.853211 809.55322 1272.9287 4289567658
-21.335779 811.3656 1274.4569 4289237669
-18.965137 811.3656 1274.4569 4289303718
-16.594496 811.3656 1274.4569 4289764269
-14.223853 811.3656 1274.4569 4289567656
-34.088074 760.30341 1277.1836 4288053389
-31.510092 769.17896 1276.8191 4288053132
-4.8477063 770.10547 1277.6003 4290555598
-31.390825 776.53674 1276.4828 4287659648
-4.8293576 776.53674 1276.4828 4291146963
-4.8110094 782.93982 1275.3417 4291015886
-4.8110094 784.77881 1276.8922 4291147215
-4.7926607 791.14691 1275.7214 4290424780
-4.7926607 792.97894 1277.2662 4290424778
-7.161468 799.31195 1276.0659 4289896887
-28.645872 801.13696 1277.6047 4288513167
-7.161468 801.13696 1277.6047 4290027955
-26.177982 805.99561 1276.4692 4288645009
-9.5192661 805.99561 1276.4692 4289435819
-21.335779 814.08417 1276.7491 4289106851
-18.965137 814.08417 1276.7491 4289172385
-16.594496 814.08417 1276.7491 4289238178
-14.223853 814.08417 1276.7491 4289303967
-11.853211 813.17798 1275.9851 4289764519
-34.216515 754.737 1279.0303 4287922313
-4.8880734 754.737 1279.0303 4292135647
-2.4440367 754.737 1279.0303 4292267234
-36.660549 756.60547 1280.6058 4288580246
-4.8880734 756.60547 1280.6058 4292333279
-2.4440367 756.60547 1280.6058 4292333279
-34.088074 763.09564 1279.538 4288118674
-31.653212 763.09564 1279.538 4287855503
-31.510092 771.95856 1279.1628 4287856005
-4.8477063 771.95856 1279.1628 4291213008
-2.4238532 772.88513 1279.9441 4292594663
-31.390825 778.38275 1278.0393 4287856520
-2.4146788 780.22882 1279.5958 4292792296
-31.271559 787.53735 1279.2183 4287659398
-2.4055047 787.53735 1279.2183 4292201191
-31.152294 794.81097 1278.8109 4287922313
-4.7926607 794.81097 1278.8109 4290817739
-31.152294 796.64294 1280.3556 4287725452
-4.7926607 796.64294 1280.3556 4290555081
-31.033028 802.96198 1279.1434 4288119697
-28.645872 802.96198 1279.1434 4288447374
-7.161468 802.96198 1279.1434 4289962162
-31.033028 804.78699 1280.6823 4288381581
-28.645872 804.78699 1280.6823 4288250251
-7.161468 804.78699 1280.6823 4289962164
-23.798164 808.72467 1278.7704 4288777118
-10.709174 808.72467 1278.7704 4289436330
-23.798164 810.54407 1280.3044 4288646302
-9.5192661 810.54407 1280.3044 4289567917
-7.1394496 810.54407 1280.3044 4290291897
-18.965137 817.70892 1279.8054 4289237930
-16.594496 817.70892 1279.8054 4289106344
-14.223853 817.70892 1279.8054 4289303716
-10.667891 818.61511 1280.5696 4289106598
-7.1119266 817.70892 1279.8054 4290094263
-4.7412844 818.61511 1280.5696 4290424007
-7.0844035 826.6441 1280.7992 4289435564
-4.7229357 826.6441 1280.7992 4289766334
-32.93211 834.63098 1280.9934 4287594354
-4.704587 834.63098 1280.9934 4289897148
-2.3522935 834.63098 1280.9934 4292134110
-36.660549 758.474 1282.1813 4288842913
-4.8880734 758.474 1282.1813 4292201187
-2.4440367 758.474 1282.1813 4292201187
-36.660549 760.34247 1283.7567 4289106342
-4.8880734 760.34247 1283.7567 4291542239
-2.4440367 760.34247 1283.7567 4292397548
-34.088074 764.95709 1281.1075 4287724939
-4.8697248 764.95709 1281.1075 4290751694
-2.4348624 764.95709 1281.1075 4292528105
-34.088074 766.8186 1282.6771 4287789446
-2.4348624 766.8186 1282.6771 4292397802
-2.4238532 775.66467 1282.2877 4292856806
-31.510092 777.5177 1283.8501 4287922061
-31.390825 782.07483 1281.1523 4287987593
-2.4146788 782.07483 1281.1523 4292397539
-33.805504 783.9209 1282.709 4287461764
-33.677063 790.2959 1281.5442 4287330174
-31.271559 790.2959 1281.5442 4288119947
-2.4055047 790.2959 1281.5442 4292201189
-33.677063 792.13495 1283.0947 4287461762
-2.4055047 792.13495 1283.0947 4292594150
-33.548622 799.39099 1282.6726 4287330180
-31.152294 798.47498 1281.9003 4287922315
-4.7926607 799.39099 1282.6726 4290555081
-31.033028 806.61194 1282.2211 4287987595
-28.645872 806.61194 1282.2211 4287987595
-26.258715 806.61194 1282.2211 4288777111
-7.161468 806.61194 1282.2211 4290225850
-31.033028 808.43701 1283.7599 4288118674
-28.645872 808.43701 1283.7599 4287528072
-26.258715 808.43701 1283.7599 4288514968
-4.774312 808.43701 1283.7599 4290621643
-23.798164 812.36346 1281.8385 4288646554
-10.709174 812.36346 1281.8385 4289699241
-7.1394496 812.36346 1281.8385 4290160308
-22.608257 814.18286 1283.3726 4288908704
-10.709174 814.18286 1283.3726 4289172901
-22.521101 820.42749 1282.0977 4289170849
-18.965137 820.42749 1282.0977 4289500075
-16.594496 820.42749 1282.0977 4289302953
-14.223853 820.42749 1282.0977 4289303205
-10.667891 820.42749 1282.0977 4289040805
-7.1119266 820.42749 1282.0977 4289567919
-4.7412844 820.42749 1282.0977 4290226885
-2.3706422 820.42749 1282.0977 4292069089
-30.818348 822.23987 1283.6259 4288317841
-28.447706 822.23987 1283.6259 4288514704
-22.521101 822.23987 1283.6259 4288973983
-18.965137 822.23987 1283.6259 4289369259
-16.594496 822.23987 1283.6259 4289303466
-14.223853 822.23987 1283.6259 4289368744
-10.667891 822.23987 1283.6259 4289171879
-7.1119266 822.23987 1283.6259 4289501359
-4.7412844 822.23987 1283.6259 4290095043
-2.3706422 822.23987 1283.6259 4292134882
-34.241287 830.25482 1283.8436 4288183939
-30.699083 830.25482 1283.8436 4288711565
-28.337614 830.25482 1283.8436 4288449170
-4.7229357 829.35217 1283.0825 4289963454
-2.3614678 829.35217 1283.0825 4292002781
-40.477982 754.77606 1285.6035 4288514455
1.2266055 755.71381 1286.3942 4292069341
7.359633 755.71381 1286.3942 4292003294
-39.104588 762.21094 1285.3322 4289107116
-36.660549 763.1452 1286.1199 4288054428
1.2220184 764.07947 1286.9076 4292200668
-36.522934 770.5415 1285.8162 4288251294
-34.088074 769.61078 1285.0314 4287395965
0 770.5415 1285.8162 4292398052
-36.3578 779.37079 1285.4126 4287987345
-33.933945 779.37079 1285.4126 4287527042
1.2119266 779.37079 1285.4126 4292069598
-36.3578 781.22388 1286.9751 4287987595
1.2119266 781.22388 1286.9751 4292464095
-33.805504 785.76697 1284.2655 4287395967
0 785.76697 1284.2655 4292134880
-36.220184 787.61298 1285.822 4287790214
0 787.61298 1285.822 4292397798
-36.082569 793.974 1284.6454 4287462016
-33.677063 793.974 1284.6454 4287199108
-2.4055047 793.974 1284.6454 4292397285
-36.082569 795.81299 1286.196 4287330192
-2.4055047 795.81299 1286.196 4292396514
-34.347401 803.36035 1286.0195 4288382097
-4.7926607 803.05505 1285.7621 4290555336
-2.3963304 803.05505 1285.7621 4292134625
-33.420185 812.08698 1286.8374 4287724435
-31.033028 811.17444 1286.0681 4288119191
-28.645872 811.17444 1286.0681 4288119185
-26.258715 811.17444 1286.0681 4288579736
-4.774312 811.17444 1286.0681 4290555594
-2.387156 812.08698 1286.8374 4292069089
-34.507339 817.82166 1286.4407 4287659148
-30.937614 816.91199 1285.6736 4288185744
-28.557798 816.91199 1285.6736 4288251280
-26.177982 817.82166 1286.4407 4288382864
-22.608257 816.00226 1284.9066 4289039778
-2.3798165 816.00226 1284.9066 4292069089
0 817.82166 1286.4407 4292003798
-33.188992 824.05225 1285.1539 4287330946
-30.818348 824.05225 1285.1539 4288120462
-28.447706 824.05225 1285.1539 4288252048
-26.077065 824.05225 1285.1539 4288252048
-21.335779 824.05225 1285.1539 4288976287
-18.965137 824.05225 1285.1539 4289238702
-16.594496 824.05225 1285.1539 4289172909
-14.223853 824.05225 1285.1539 4289369257
-10.667891 824.05225 1285.1539 4289172135
-2.3706422 824.05225 1285.1539 4291937247
-37.930275 825.86462 1286.6821 4287592571
-34.374313 825.86462 1286.6821 4287921537
-30.818348 825.86462 1286.6821 4288448394
-28.447706 825.86462 1286.6821 4288317071
-26.077065 825.86462 1286.6821 4288777622
-22.521101 825.86462 1286.6821 4289304218
-18.965137 825.86462 1286.6821 4289764015
-16.594496 825.86462 1286.6821 4289303464
-14.223853 825.86462 1286.6821 4289368746
-10.667891 825.86462 1286.6821 4289632174
-7.1119266 825.86462 1286.6821 4289566893
0 825.86462 1286.6821 4291871957
-40.144955 832.06018 1285.366 4286474354
-37.783485 832.06018 1285.366 4286474352
-35.42202 832.06018 1285.366 4286869110
-7.0844035 832.06018 1285.366 4289633451
0 832.06018 1285.366 4292003546
-40.477982 757.58936 1287.9755 4288711835
1.2266055 757.58936 1287.9755 4292069337
4.9064221 757.58936 1287.9755 4291806683
7.359633 757.58936 1287.9755 4292069598
9.8128443 757.58936 1287.9755 4292003546
-44.157799 759.46484 1289.5569 4286474352
-41.704586 759.46484 1289.5569 4288579727
1.2266055 759.46484 1289.5569 4292003546
4.9064221 759.46484 1289.5569 4291675094
7.359633 759.46484 1289.5569 4291938266
9.8128443 759.46484 1289.5569 4291871708
12.266055 759.46484 1289.5569 4292134880
-40.326607 765.94794 1288.4832 4288776861
-36.660549 765.94794 1288.4832 4288184736
1.2220184 765.94794 1288.4832 4292200927
4.8880734 765.94794 1288.4832 4291673811
7.3321099 765.94794 1288.4832 4292068569
-36.522934 772.40302 1287.3857 4287987606
-34.088074 772.40302 1287.3857 4287593348
1.2174312 772.40302 1287.3857 4292266464
-36.522934 774.26447 1288.9552 4287593348
-34.088074 774.26447 1288.9552 4287527559
1.2174312 774.26447 1288.9552 4292135134
4.8697248 774.26447 1288.9552 4292069341
-36.3578 783.0769 1288.5375 4287659657
2.4238532 783.0769 1288.5375 4292069087
4.8477063 783.0769 1288.5375 4292003292
-37.427521 790.38202 1288.1567 4288579733
1.2073394 790.38202 1288.1567 4292332256
4.8293576 791.30505 1288.9351 4292069339
-36.082569 797.65204 1287.7466 4287658894
-2.4055047 797.65204 1287.7466 4292726762
-37.285324 799.49109 1289.2972 4288053399
0 799.49109 1289.2972 4291805658
-34.746788 805.80304 1288.0791 4288645275
-2.3963304 805.80304 1288.0791 4292069089
-34.746788 807.63507 1289.6239 4288645789
-2.3963304 807.63507 1289.6239 4292266211
-40.58165 815.73694 1289.915 4287329149
-38.194496 814.82446 1289.1456 4287790225
-34.613762 813.91199 1288.3762 4287790477
-26.258715 813.91199 1288.3762 4288514452
1.5914373 814.52032 1288.8892 4291872210
4.774312 815.73694 1289.915 4291542741
-40.456882 821.46045 1289.5088 4287329147
-38.077065 820.55072 1288.7417 4287329921
-34.903976 820.2475 1288.4861 4287659398
-26.177982 819.64099 1287.9747 4288383118
-23.798164 821.46045 1289.5088 4287923599
1.1899083 820.55078 1288.7417 4291740371
4.7596331 821.46045 1289.5088 4291608788
7.1394496 821.46045 1289.5088 4291937753
9.5192661 821.46045 1289.5088 4291871708
-40.300919 827.677 1288.2102 4286933619
-37.930275 827.677 1288.2102 4287129969
-26.077065 827.677 1288.2102 4288909721
-23.706423 827.677 1288.2102 4289435552
-16.594496 827.677 1288.2102 4289500327
-14.223853 827.677 1288.2102 4289434021
-10.667891 827.677 1288.2102 4289698219
-7.1119266 827.677 1288.2102 4289501609
1.1853211 827.677 1288.2102 4291806165
-42.671558 829.48938 1289.7384 4286079596
2.3706422 829.48938 1289.7384 4291805910
4.7412844 829.48938 1289.7384 4292068055
7.1119266 829.48938 1289.7384 4292725986
9.4825687 829.48938 1289.7384 4292133599
-46.78532 754.83624 1292.1943 4286343017
-44.322937 754.83624 1292.1943 4286277745
13.543119 754.83624 1292.1943 4292397531
-44.157799 761.34033 1291.1383 4286474604
-40.477982 761.34033 1291.1383 4288711577
4.9064221 761.34033 1291.1383 4291674581
7.359633 761.34033 1291.1383 4292069339
9.8128443 761.34033 1291.1383 4292068065
13.492661 761.34033 1291.1383 4292331232
-46.611008 763.21582 1292.7196 4286145643
-44.157799 763.21582 1292.7196 4286802803
9.8128443 763.21582 1292.7196 4291936988
13.492661 763.21582 1292.7196 4292200156
-43.992661 767.81641 1290.0586 4286868600
-40.326607 767.81641 1290.0586 4288842654
2.4440367 767.81641 1290.0586 4292134880
4.8880734 767.81641 1290.0586 4292135132
7.3321099 767.81641 1290.0586 4292398304
9.7761469 767.81641 1290.0586 4292069341
-43.992661 769.68494 1291.634 4286999412
-40.326607 769.68494 1291.634 4288710808
4.8880734 769.68494 1291.634 4292004059
7.3321099 769.68494 1291.634 4292135645
9.7761469 769.68494 1291.634 4291806683
12.220183 769.68494 1291.634 4292135647
-43.827522 776.12592 1290.5248 4287263354
-41.392662 776.12592 1290.5248 4289105558
-38.957798 776.12592 1290.5248 4289303205
4.8697248 776.12592 1290.5248 4292069339
-43.827522 777.98743 1292.0944 4287065460
-41.392662 777.98743 1292.0944 4289499801
-38.957798 777.98743 1292.0944 4289369248
4.8697248 777.98743 1292.0944 4292069341
7.3045874 777.98743 1292.0944 4292003292
-38.781651 784.92993 1290.1 4289698211
2.4238532 784.92993 1290.1 4292069089
4.8477063 784.92993 1290.1 4292199903
-43.629356 786.78302 1291.6624 4286669683
-41.205505 786.78302 1291.6624 4290222506
-38.781651 786.78302 1291.6624 4289960878
4.8477063 786.78302 1291.6624 4292265950
7.2715597 786.78302 1291.6624 4292200157
-41.049541 794.0741 1291.2698 4288514449
-38.634861 794.0741 1291.2698 4288382620
1.2073394 794.0741 1291.2698 4292069085
4.8293576 794.0741 1291.2698 4292004058
7.2440367 794.0741 1291.2698 4291938265
-43.299084 803.16913 1292.3984 4285683555
-40.893578 802.24963 1291.6232 4288447630
-38.488075 802.24963 1291.6232 4288514200
0.80183488 802.55615 1291.8816 4291938011
4.8110094 803.16913 1292.3984 4291871192
7.2165136 803.16913 1292.3984 4291871192
-38.341286 809.46704 1291.1686 4288645791
-35.944954 809.46704 1291.1686 4288316569
1.1981652 809.46704 1291.1686 4291937753
-45.530273 811.29907 1292.7133 4286013801
-43.133945 811.29907 1292.7133 4286079596
-40.737614 811.29907 1292.7133 4287921800
4.7926607 811.29907 1292.7133 4291542743
7.1889906 811.29907 1292.7133 4291542743
-42.968807 817.56201 1291.4539 4286210666
-40.58165 817.56201 1291.4539 4287263354
4.774312 817.56201 1291.4539 4291608790
7.161468 817.56201 1291.4539 4291871706
9.548624 817.56201 1291.4539 4291871708
-42.968807 819.38696 1292.9927 4286342252
14.322936 819.38696 1292.9927 4291871706
-40.456882 823.27979 1291.0428 4287527544
2.3798165 823.27979 1291.0428 4291608786
4.7596331 823.27979 1291.0428 4291805397
7.1394496 823.27979 1291.0428 4292200155
9.5192661 823.27979 1291.0428 4292067802
-42.836697 825.09918 1292.5769 4286538861
-21.418348 825.09918 1292.5769 4290159275
-19.038532 825.09918 1292.5769 4289960878
4.7596331 825.09918 1292.5769 4291805397
7.1394496 825.09918 1292.5769 4292265948
9.5192661 825.09918 1292.5769 4292199390
4.7412844 831.30176 1291.2666 4291805910
-49.247707 758.60126 1295.3689 4285487459
-46.78532 757.66003 1294.5752 4286605938
14.774312 756.71875 1293.7816 4292397018
-49.06422 766.02905 1295.0917 4285355098
-46.611008 766.02905 1295.0917 4286276200
13.901528 765.71649 1294.8281 4292200668
-48.880733 773.42188 1294.7849 4285158744
-46.436699 772.48767 1293.9972 4286474347
-43.992661 771.55341 1293.2095 4287131255
-40.326607 771.55341 1293.2095 4288776851
7.3321099 772.48767 1293.9972 4292200926
9.7761469 772.48767 1293.9972 4292266462
13.034863 772.79907 1294.2598 4292200669
-46.262386 779.84888 1293.6639 4286277224
-43.827522 779.84888 1293.6639 4286670965
-41.392662 779.84888 1293.6639 4289565857
-38.957798 779.84888 1293.6639 4289765289
7.3045874 779.84888 1293.6639 4292003292
-46.262386 781.71033 1295.2334 4285948260
-43.827522 781.71033 1295.2334 4286735225
-41.392662 781.71033 1295.2334 4290024875
7.3045874 781.71033 1295.2334 4292134110
-43.629356 788.63611 1293.2249 4286604918
-41.205505 788.63611 1293.2249 4289828775
7.2715597 788.63611 1293.2249 4292069339
9.6954126 788.63611 1293.2249 4292069339
-46.053211 790.48914 1294.7874 4286342252
-43.629356 790.48914 1294.7874 4286409074
9.6954126 790.48914 1294.7874 4291938266
-43.464222 796.8432 1293.6047 4286211949
-41.049541 796.8432 1293.6047 4288383118
2.4146788 796.8432 1293.6047 4292069087
4.8293576 796.8432 1293.6047 4292004057
7.2440367 796.8432 1293.6047 4291938264
9.6587152 796.8432 1293.6047 4292068567
-45.878899 798.68921 1295.1613 4286145643
-43.464222 798.68921 1295.1613 4286145902
2.4146788 798.68921 1295.1613 4292135130
4.8293576 798.68921 1295.1613 4292003546
7.2440367 798.68921 1295.1613 4292003546
9.6587152 798.68921 1295.1613 4291937499
-48.110092 806.84717 1295.4998 4284697943
-45.704586 805.92767 1294.7244 4285092701
-43.299084 805.92767 1294.7244 4285553252
-40.893578 805.92767 1294.7244 4288250764
-38.488075 805.00818 1293.9491 4288514202
1.2027524 805.00818 1293.9491 4292003040
4.8110094 805.92767 1294.7244 4291739608
7.2165136 805.92767 1294.7244 4291805145
9.6220188 806.84717 1295.4998 4291673559
19.244038 805.92767 1294.7244 4291872219
21.649542 805.92767 1294.7244 4292003548
24.055046 806.84717 1295.4998 4291674331
-46.329052 814.35248 1295.2877 4285815912
-43.133945 813.1311 1294.2579 4286342254
7.1889906 813.1311 1294.2579 4291674583
11.981651 814.96313 1295.8027 4291674329
14.377981 814.96313 1295.8027 4291674329
16.774311 814.96313 1295.8027 4292069087
21.566973 814.96313 1295.8027 4291871706
-45.355965 821.21198 1294.5314 4287198076
-42.968807 821.21198 1294.5314 4287066993
11.93578 821.21198 1294.5314 4291936215
14.322936 821.21198 1294.5314 4291871190
21.484404 821.21198 1294.5314 4291806164
11.899082 826.91858 1294.111 4291935963
7.1394496 828.73798 1295.645 4291871703
10.709174 828.73798 1295.645 4291936217
-49.247707 760.48376 1296.9562 4285290077
17.236698 760.48376 1296.9562 4292200153
-51.710091 762.36627 1298.5435 4284830560
17.236698 762.36627 1298.5435 4291871442
-51.517429 768.84229 1297.4637 4284437599
-49.06422 768.84229 1297.4637 4285421402
14.719266 768.84229 1297.4637 4292397800
17.172478 768.84229 1297.4637 4292858351
-51.324772 775.29034 1296.3604 4284503642
-48.880733 775.29034 1296.3604 4285290329
-46.436699 775.29034 1296.3604 4286540397
9.7761469 775.29034 1296.3604 4292135132
12.220183 775.29034 1296.3604 4292332254
-52.546791 777.15887 1297.9358 4284699728
-48.880733 777.15887 1297.9358 4285027158
9.7761469 777.15887 1297.9358 4292200157
12.220183 777.15887 1297.9358 4292265950
-51.132111 785.43329 1298.3726 4285288797
-48.697247 784.50256 1297.5878 4285092184
-46.262386 784.50256 1297.5878 4286079079
9.7394495 783.57184 1296.803 4292069339
13.391743 785.43329 1298.3726 4292069339
17.044037 785.43329 1298.3726 4292332254
19.478899 785.43329 1298.3726 4292068317
-46.053211 793.26868 1297.131 4286276207
-43.629356 792.34216 1296.3497 4286211949
9.6954126 792.34216 1296.3497 4292003798
13.331193 794.19525 1297.9122 4292200668
-48.293579 800.53528 1296.7178 4285223004
-45.878899 800.53528 1296.7178 4285617761
9.6587152 800.53528 1296.7178 4291936986
13.280734 800.53528 1296.7178 4291936986
16.902752 800.53528 1296.7178 4291871708
19.31743 800.53528 1296.7178 4291871706
21.732111 800.53528 1296.7178 4292003292
-49.500916 802.38135 1298.2743 4284632914
9.6587152 802.38135 1298.2743 4291805658
13.280734 802.38135 1298.2743 4292003294
16.902752 802.38135 1298.2743 4291871708
-49.312843 808.68622 1297.0503 4285026906
9.6220188 808.68622 1297.0503 4291673813
13.230275 808.68622 1297.0503 4291805656
16.838531 808.68622 1297.0503 4291871706
21.649542 808.68622 1297.0503 4292003544
-49.312843 810.52527 1298.601 4285224286
9.6220188 810.52527 1298.601 4291805912
13.230275 810.52527 1298.601 4291608535
16.838531 810.52527 1298.601 4291674329
19.244038 810.52527 1298.601 4291739604
21.649542 810.52527 1298.601 4291871190
-57.511925 818.62714 1298.8921 4284896353
-52.719265 818.62714 1298.8921 4285225318
-50.322937 817.71118 1298.1198 4285685353
-47.127827 817.40582 1297.8623 4285816424
11.981651 816.79517 1297.3474 4291805658
16.774311 817.71118 1298.1198 4292068827
19.170643 817.71118 1298.1198 4291608787
21.566973 816.79517 1297.3474 4291871703
-45.355965 823.94946 1296.8396 4286079598
11.93578 823.03699 1296.0702 4291936217
14.322936 823.94946 1296.8396 4291805654
7.1394496 830.55737 1297.1791 4291805912
9.5192661 830.55737 1297.1791 4291871192
9.5192661 832.37677 1298.7131 4292266461
-51.902752 755.86212 1299.5995 4285093732
17.300917 755.86212 1299.5995 4292265435
-54.374313 757.75165 1301.1926 4284304216
-51.902752 757.75165 1301.1926 4284896353
-51.710091 764.24878 1300.1307 4284764249
17.236698 764.24878 1300.1307 4292003292
-54.172478 766.13135 1301.718 4283977048
-52.744034 770.71783 1299.0452 4284108883
17.172478 770.71783 1299.0452 4292398050
-56.423855 772.59332 1300.6265 4284043093
-53.970642 772.59332 1300.6265 4284109140
14.719266 772.59332 1300.6265 4292266202
17.172478 772.59332 1300.6265 4292594911
-52.546791 779.02734 1299.5114 4284764238
-48.880733 779.02734 1299.5114 4285027158
9.7761469 779.02734 1299.5114 4292200157
13.442202 779.02734 1299.5114 4292397023
17.108257 779.02734 1299.5114 4292396766
-56.212845 780.89581 1301.0868 4284370261
-52.546791 780.89581 1301.0868 4284829265
13.442202 780.89581 1301.0868 4292266206
17.108257 780.89581 1301.0868 4292331743
19.552294 780.89581 1301.0868 4292067804
-51.132111 787.2948 1299.942 4285289564
-48.697247 787.2948 1299.942 4285881701
13.391743 787.2948 1299.942 4292003548
17.044037 787.2948 1299.942 4292134880
19.478899 787.2948 1299.942 4292135132
-51.132111 789.15625 1301.5116 4285026908
-48.697247 789.15625 1301.5116 4285420130
13.391743 789.15625 1301.5116 4292069594
17.044037 789.15625 1301.5116 4292069341
19.478899 789.15625 1301.5116 4292003544
21.913761 789.15625 1301.5116 4292003544
-49.688992 796.97485 1300.2559 4284698454
13.331193 796.04828 1299.4746 4292069340
16.966972 796.04828 1299.4746 4292069339
19.390825 796.04828 1299.4746 4291938266
21.814678 796.04828 1299.4746 4291806681
-57.952293 806.07336 1301.3873 4284633433
-55.537613 806.07336 1301.3873 4284567640
-53.122936 806.07336 1301.3873 4285026906
-50.708256 804.22736 1299.8308 4284698193
13.280734 804.22736 1299.8308 4291871708
16.902752 804.22736 1299.8308 4291740636
19.31743 806.07336 1301.3873 4291871957
-62.543118 812.36426 1300.1516 4284437850
-57.732109 812.36426 1300.1516 4284437850
-55.326607 812.36426 1300.1516 4284569437
-52.921101 812.36426 1300.1516 4285289823
-50.515594 812.36426 1300.1516 4285355872
19.244038 812.36426 1300.1516 4291805912
-61.340366 814.20331 1301.7021 4284633433
-57.732109 814.20331 1301.7021 4284896092
-55.326607 814.20331 1301.7021 4285159007
-52.921101 814.20331 1301.7021 4285289823
-57.511925 820.45917 1300.4368 4285487207
-52.719265 820.45917 1300.4368 4285487207
-50.322937 820.45917 1300.4368 4285881964
-47.926605 820.45917 1300.4368 4285947758
16.774311 820.45917 1300.4368 4291936986
21.566973 820.45917 1300.4368 4291609047
-57.511925 822.2912 1301.9814 4285291111
-52.719265 822.2912 1301.9814 4285291111
-50.322937 822.2912 1301.9814 4285422697
-47.926605 822.2912 1301.9814 4285948010
16.774311 822.2912 1301.9814 4292200155
19.170643 822.2912 1301.9814 4291609049
21.566973 822.2912 1301.9814 4291740636
14.322936 826.68701 1299.1478 4291871957
16.710093 826.68701 1299.1478 4291871957
11.93578 828.51196 1300.6866 4292068315
-55.198166 760.90088 1303.848 4284435285
19.772476 761.5307 1304.379 4291674329
-59.097248 769.89636 1304.8926 4283845713
-56.634861 768.01379 1303.3053 4283911504
19.699083 768.95508 1304.0989 4292266717
22.161469 768.95508 1304.0989 4292266717
-61.330276 775.40662 1302.9985 4284304213
-58.877064 775.40662 1302.9985 4284238674
-56.423855 775.40662 1302.9985 4284436053
14.719266 774.46881 1302.2079 4292265435
17.172478 774.46881 1302.2079 4292594400
19.625689 776.34436 1303.7893 4292134110
-58.656879 782.76428 1302.6622 4284436054
-56.212845 782.76428 1302.6622 4284370261
-53.768806 782.76428 1302.6622 4284828246
-58.656879 784.63281 1304.2377 4284370261
-56.212845 784.63281 1304.2377 4284501847
-53.768806 784.63281 1304.2377 4285026392
-51.132111 791.0177 1303.0812 4284633433
-48.697247 791.0177 1303.0812 4285026908
17.044037 791.0177 1303.0812 4292069341
19.478899 791.0177 1303.0812 4292004059
21.913761 791.0177 1303.0812 4291806681
-52.349541 792.87921 1304.6508 4284436054
-53.324772 799.75439 1302.5996 4284304713
-58.172478 801.60742 1304.162 4284894806
-55.748623 801.60742 1304.162 4284829013
-53.324772 801.60742 1304.162 4284698193
-60.366974 809.7655 1304.5005 4284437850
-57.952293 807.91943 1302.9438 4284240985
-55.537613 807.91943 1302.9438 4284372828
-53.122936 807.91943 1302.9438 4284896605
-61.340366 816.96185 1304.0281 4284961376
-55.326607 816.96185 1304.0281 4285290341
19.244038 817.88135 1304.8035 4291280339
-50.322937 824.12317 1303.5262 4284766559
-46.728439 824.12317 1303.5262 4285159525
19.170643 824.12317 1303.5262 4291608536
21.566973 824.12317 1303.5262 4291805658
-57.099083 754.47314 1306.2765 4284500561
-57.099083 756.37109 1307.8767 4284500561
19.86055 756.37109 1307.8767 4291937501
-56.845871 763.42023 1305.9723 4284304465
19.772476 763.42023 1305.9723 4292266463
22.244038 763.42023 1305.9723 4292135134
-59.317432 765.30975 1307.5654 4283977297
19.699083 771.77887 1306.4799 4292529120
22.161469 771.77887 1306.4799 4292331741
-63.783485 778.21985 1305.3706 4284107089
-61.330276 778.21985 1305.3706 4284304212
-58.877064 778.21985 1305.3706 4284436054
-63.783485 780.09534 1306.952 4284370261
-61.330276 780.09534 1306.952 4284370261
-61.100918 787.43555 1306.6008 4284501333
-58.656879 787.43555 1306.6008 4284370260
-56.212845 787.43555 1306.6008 4284238674
-53.768806 787.43555 1306.6008 4284369748
-56.001835 794.74066 1306.2202 4284436054
-53.566971 794.74066 1306.2202 4284370259
-58.436699 796.60217 1307.7898 4284501845
-56.001835 796.60217 1307.7898 4284436052
-63.020184 803.46051 1305.7245 4284633683
-60.596329 803.46051 1305.7245 4284765268
-63.020184 805.3136 1307.2869 4284240985
-60.596329 805.3136 1307.2869 4284175192
-65.196327 813.45758 1307.6135 4284764249
-64.948624 819.7204 1306.354 4284964195
-61.340366 820.63989 1307.1294 4285292135
-57.732109 821.55945 1307.9047 4284766309
-55.326607 820.63989 1307.1294 4284897381
-52.921101 821.55945 1307.9047 4284372057
14.377981 825.9552 1305.0709 4291871442
16.774311 825.9552 1305.0709 4291937235
-59.58165 758.26904 1309.4771 4284632404
22.343119 758.26904 1309.4771 4292069087
-64.260551 767.19928 1309.1587 4284238418
-61.78899 767.19928 1309.1587 4284238418
-64.260551 769.08881 1310.7518 4284436054
-63.783485 781.97083 1308.5333 4284436054
-61.330276 781.97083 1308.5333 4284436054
-63.783485 783.84631 1310.1147 4284436054
-61.100918 790.23828 1308.9641 4284895319
-58.656879 790.23828 1308.9641 4284501845
-56.212845 790.23828 1308.9641 4284238672
-61.100918 792.10675 1310.5396 4284698197
-58.656879 792.10675 1310.5396 4284501847
-63.306423 798.46362 1309.3594 4284895571
-60.871559 798.46362 1309.3594 4284895571
-65.444038 809.01965 1310.4117 4284764762
-65.196327 815.30359 1309.17 4284896605
-61.340366 823.39844 1309.4553 4284832870
-57.732109 823.39844 1309.4553 4284634991
-55.326607 823.39844 1309.4553 4284963956
-52.921101 823.39844 1309.4553 4284569687
-49.312843 823.39844 1309.4553 4285028960
19.244038 823.39844 1309.4553 4291674329
21.649542 823.39844 1309.4553 4291805658
24.055046 823.39844 1309.4553 4291871706
-59.58165 760.16699 1311.0774 4284370259
-63.544952 793.97522 1312.115 4284697943
-61.100918 793.97522 1312.115 4284697943
-65.196327 818.99573 1312.2831 4285688186
-64.948624 825.23749 1311.006 4287202983
-61.340366 826.15698 1311.7812 4285953148
-57.732109 826.15698 1311.7812 4285293417
16.838531 825.23749 1311.006 4291937751
19.244038 825.23749 1311.006 4291674581
26.46055 826.15698 1311.7812 4292069591
-62.293579 757.45593 1315.3315 4284370261
-62.293579 759.36084 1316.9377 4284304212
-65.196327 824.53381 1316.9528 4287990950
-55.537613 822.68774 1315.3962 4285358700
13.280734 822.68774 1315.3962 4292069338
19.31743 824.53381 1316.9528 4291937753
21.732111 823.61078 1316.1746 4292003546
24.14679 823.61078 1316.1746 4292069335
-60.137615 828.91553 1314.1072 4287594386
26.46055 828.91553 1314.1072 4292068567
-64.022018 784.95642 1317.5909 4284632404
24.14679 826.37988 1318.5093 4291871444
-64.260551 780.42603 1320.311 4284434768
16.966972 821.99109 1321.3489 4291871703
19.390825 823.84412 1322.9114 4292003546
21.814678 823.84412 1322.9114 4291937753
24.14679 828.22589 1320.0658 4291871706
-64.260551 784.20508 1323.4974 4284632404
-65.741287 815.21686 1323.4852 4285425781
-53.566971 817.07837 1325.0548 4284832858
21.814678 825.6972 1324.4739 4291871706
14.609175 818.93982 1326.6244 4292069339
-64.523857 820.80127 1328.1938 4288253094
17.044037 820.80127 1328.1938 4292068317
21.814678 827.55023 1326.0363 4291806685
24.238533 827.55023 1326.0363 4291937753
24.238533 829.40332 1327.5988 4292003546
-56.212845 816.39709 1331.0205 4285358950
12.220183 816.39709 1331.0205 4292135130
19.478899 823.59351 1330.5482 4291674584
-58.656879 818.26556 1332.5959 4286938250
14.66422 818.26556 1332.5959 4291805145
-64.766968 820.13403 1334.1714 4288385454
-61.100918 820.13403 1334.1714 4287661726
14.66422 820.13403 1334.1714 4291805658
17.108257 820.13403 1334.1714 4292003294
12.266055 815.72986 1336.998 4291871957
-63.544952 822.93677 1336.5345 4289635520
-61.100918 822.00256 1335.7468 4288517548
17.108257 822.93677 1336.5345 4291871708
19.552294 823.87103 1337.3223 4291674329
21.99633 823.87103 1337.3223 4292003294
-51.710091 809.42914 1338.2256 4284964445
-54.172478 811.31165 1339.813 4285227364
12.266055 817.60535 1338.5795 4291806162
14.719266 819.48083 1340.1609 4291805658
19.552294 825.7395 1338.8978 4291674583
21.99633 826.67371 1339.6855 4291937754
24.440367 825.7395 1338.8978 4291937753
-49.431194 806.87939 1342.6158 4285422697
-59.097248 815.07666 1342.9875 4287398299
-56.634861 814.13538 1342.1938 4285424760
14.719266 821.35632 1341.7422 4292003294
14.719266 823.23181 1343.3236 4292200153
17.172478 823.23181 1343.3236 4292134360
-51.902752 808.76892 1344.2091 4285096035
9.8862381 808.76892 1344.2091 4292069337
-54.374313 810.65845 1345.8022 4285226860
-51.902752 810.65845 1345.8022 4285292653
9.8862381 810.65845 1345.8022 4292003544
-61.559631 818.84167 1346.1621 4288779700
-59.097248 817.90045 1345.3684 4288450988
-55.814068 818.21417 1345.6329 4287463830
-51.710091 818.84167 1346.1621 4287003010
9.8495417 817.90045 1345.3684 4292003802
12.311927 817.90045 1345.3684 4291806424
14.719266 825.10736 1344.905 4292003796
17.172478 825.10736 1344.905 4292069589
19.625689 826.0451 1345.6957 4292069339
22.078899 826.98285 1346.4863 4292135132
-49.651375 805.71765 1349.4845 4285488742
-54.374313 812.54797 1347.3955 4285621627
-51.902752 812.54797 1347.3955 4285555834
-49.431194 812.54797 1347.3955 4285750895
9.8862381 812.54797 1347.3955 4292135384
-54.374313 814.4375 1348.9886 4287200139
-51.902752 814.4375 1348.9886 4286542209
-49.431194 814.4375 1348.9886 4286406773
-61.559631 820.72424 1347.7494 4290161605
-59.097248 820.72424 1347.7494 4289897661
-55.403671 820.72424 1347.7494 4288581542
9.8495417 820.72424 1347.7494 4292199642
12.311927 820.72424 1347.7494 4292462813
-55.403671 822.60675 1349.3367 4288713650
-51.710091 822.60675 1349.3367 4287858348
9.8495417 822.60675 1349.3367 4292068569
12.311927 822.60675 1349.3367 4292397790
-49.06422 830.73383 1349.649 4289043901
14.719266 828.85834 1348.0677 4291542745
17.172478 828.85834 1348.0677 4291674331
-22.508257 792.98425 1351.8285 4290422701
-44.851376 799.36499 1350.6682 4285028441
-47.343121 801.26996 1352.2744 4285356904
-44.851376 801.26996 1352.2744 4285291361
-49.651375 807.6156 1351.0848 4285358700
-47.168808 808.56458 1351.885 4285620590
-44.686237 809.51355 1352.6851 4285751662
7.4477062 808.56458 1351.885 4292134620
-51.902752 818.21655 1352.175 4287791510
-49.431194 817.27179 1351.3784 4286936972
7.4146791 817.27179 1351.3784 4291806427
-59.097248 824.48926 1350.924 4290886094
-55.403671 824.48926 1350.924 4289701823
-51.710091 824.48926 1350.924 4289109433
-49.247707 824.48926 1350.924 4288452523
13.543119 824.48926 1350.924 4291740119
17.236698 824.48926 1350.924 4291674583
-59.097248 826.37177 1352.5112 4291082703
-51.710091 826.37177 1352.5112 4289175989
-49.247707 826.37177 1352.5112 4289240753
9.8495417 826.37177 1352.5112 4291938266
12.311927 826.37177 1352.5112 4292069852
12.266055 832.60938 1351.2305 4292134880
-22.508257 794.89624 1353.4406 4288973718
-20.007339 794.89624 1353.4406 4289764006
-47.517429 796.80823 1355.0527 4285291111
-22.508257 796.80823 1355.0527 4287527046
-47.343121 803.17493 1353.8806 4285422949
-43.605507 803.17493 1353.8806 4285291111
4.9834862 803.17493 1353.8806 4291674583
7.4752293 803.17493 1353.8806 4292003292
-43.605507 805.07983 1355.4868 4285291111
-39.867889 805.07983 1355.4868 4285685351
-12.458715 805.07983 1355.4868 4286014316
-9.9669724 805.07983 1355.4868 4285490039
-7.4752293 805.07983 1355.4868 4288516260
-4.9834862 805.07983 1355.4868 4290028468
4.9834862 805.07983 1355.4868 4291739604
-47.168808 811.4115 1354.2854 4286472566
-43.444954 811.4115 1354.2854 4286079600
-39.7211 811.4115 1354.2854 4285817455
-12.412844 811.4115 1354.2854 4286344312
-7.4477062 811.4115 1354.2854 4286542727
4.9651375 811.4115 1354.2854 4291280339
7.4477062 811.4115 1354.2854 4292003805
-47.168808 813.30945 1355.8857 4286475651
-43.444954 813.30945 1355.8857 4286343283
-39.7211 813.30945 1355.8857 4285949043
-37.238533 813.30945 1355.8857 4286014836
-19.86055 813.30945 1355.8857 4286476404
-17.377981 813.30945 1355.8857 4286476404
-13.654128 813.30945 1355.8857 4286410105
-9.930275 813.30945 1355.8857 4286211709
-7.4477062 813.30945 1355.8857 4286738053
-4.9651375 813.30945 1355.8857 4288186766
-2.4825687 813.30945 1355.8857 4291805638
2.4825687 813.30945 1355.8857 4292069337
4.9651375 813.30945 1355.8857 4291871708
-61.78899 821.05084 1354.5649 4290885844
-59.317432 820.10608 1353.7683 4290424259
-49.431194 820.10608 1353.7683 4287530137
-46.959633 821.05084 1354.5649 4287333272
-43.664227 821.36572 1354.8304 4287396485
-39.544952 821.99561 1355.3615 4287133315
-19.772476 821.99561 1355.3615 4286804602
-17.300917 821.99561 1355.3615 4286804602
-2.4715595 821.99561 1355.3615 4292198358
7.4146791 821.05084 1354.5649 4291871705
9.8862381 821.99561 1355.3615 4291937753
-54.172478 828.25427 1354.0985 4289966791
-51.710091 828.25427 1354.0985 4289440446
-49.247707 830.13678 1355.6858 4289240770
-46.78532 828.25427 1354.0985 4288649143
7.387156 830.13678 1355.6858 4291805910
9.8495417 829.19556 1354.8921 4291740120
13.543119 828.25427 1354.0985 4291740121
-27.631193 791.8197 1358.6947 4285095785
-25.119267 790.8595 1357.885 4287856262
-20.095413 789.89935 1357.0754 4290355373
-16.746178 791.17963 1358.1549 4290027176
-12.559633 791.8197 1358.6947 4289962150
-10.047707 791.8197 1358.6947 4289765551
-42.515594 798.72021 1356.6648 4285291361
-40.014679 799.67615 1357.4709 4285356904
-37.51376 800.63214 1358.277 4285422697
-25.009174 800.63214 1358.277 4285422449
-22.508257 800.63214 1358.277 4285685365
-20.007339 800.63214 1358.277 4285226860
-16.255962 800.63214 1358.277 4285292653
-12.504587 799.67615 1357.4709 4287266695
-10.00367 799.67615 1357.4709 4288515231
-7.5027523 800.63214 1358.277 4290489541
-5.0018349 800.63214 1358.277 4290620609
-2.5009174 800.63214 1358.277 4292199642
2.5009174 800.63214 1358.277 4292068055
-42.359634 806.98486 1357.093 4285751662
-39.867889 806.98486 1357.093 4285751914
-22.425688 806.98486 1357.093 4285883248
-17.442202 806.98486 1357.093 4285490289
-13.704587 806.98486 1357.093 4285818749
-9.9669724 806.98486 1357.093 4285490039
-7.4752293 806.98486 1357.093 4287463829
-4.9834862 806.98486 1357.093 4288514732
-2.4917431 806.98486 1357.093 4292133347
2.4917431 806.98486 1357.093 4292331741
4.9834862 806.98486 1357.093 4291805912
-37.376148 808.88977 1358.6993 4285883248
-34.884403 808.88977 1358.6993 4285556336
-24.917431 808.88977 1358.6993 4286015086
-22.425688 808.88977 1358.6993 4286146415
-19.933945 808.88977 1358.6993 4286016631
-17.442202 808.88977 1358.6993 4286082680
-14.950459 808.88977 1358.6993 4286475898
-9.9669724 808.88977 1358.6993 4285818748
-4.9834862 808.88977 1358.6993 4288448659
-2.4917431 808.88977 1358.6993 4292133067
1.2458715 808.88977 1358.6993 4291805912
-47.168808 815.2074 1357.486 4286872205
-43.444954 815.2074 1357.486 4285950837
-39.7211 815.2074 1357.486 4286145916
-19.86055 815.2074 1357.486 4286607737
-17.377981 815.2074 1357.486 4286607737
-13.654128 815.2074 1357.486 4286606969
-9.930275 815.2074 1357.486 4285883248
-7.4477062 815.2074 1357.486 4286804350
-4.9651375 815.2074 1357.486 4288777624
-2.4825687 815.2074 1357.486 4292133067
2.4825687 815.2074 1357.486 4291871703
4.9651375 815.2074 1357.486 4291806683
-55.610092 823.88513 1356.9547 4290228164
-46.959633 823.88513 1356.9547 4288253858
-43.252296 823.88513 1356.9547 4288185239
-39.544952 823.88513 1356.9547 4287725441
-37.073395 823.88513 1356.9547 4286935668
-34.601833 823.88513 1356.9547 4286804348
-32.130276 823.88513 1356.9547 4286738555
-29.658716 823.88513 1356.9547 4286673786
-19.772476 823.88513 1356.9547 4286804348
-17.300917 823.88513 1356.9547 4286606968
-2.4715595 823.88513 1356.9547 4292001243
7.4146791 823.88513 1356.9547 4291937751
-56.845871 825.77466 1358.5479 4290623436
-43.252296 825.77466 1358.5479 4288448927
-37.073395 825.77466 1358.5479 4286673545
-34.601833 825.77466 1358.5479 4286738557
-32.130276 825.77466 1358.5479 4286738557
-28.422935 825.77466 1358.5479 4286410103
-19.772476 825.77466 1358.5479 4285619299
-17.300917 825.77466 1358.5479 4286803316
-2.4715595 825.77466 1358.5479 4291344848
4.943119 825.77466 1358.5479 4291871703
7.4146791 825.77466 1358.5479 4291805910
-31.51376 787.32855 1361.448 4287923583
-27.732111 787.32855 1361.448 4288450447
-15.126605 787.32855 1361.448 4289698724
-12.605505 787.32855 1361.448 4289764517
-10.084404 787.32855 1361.448 4289567658
-42.702751 793.74011 1360.314 4285028441
-35.166973 793.74011 1360.314 4284896353
-31.399082 793.74011 1360.314 4285488486
-27.631193 793.74011 1360.314 4284962396
-25.119267 793.74011 1360.314 4285289827
-20.095413 793.74011 1360.314 4289042052
-16.327522 793.74011 1360.314 4289305235
-12.559633 793.74011 1360.314 4289766054
-10.047707 793.74011 1360.314 4289765299
-7.53578 793.74011 1360.314 4289897141
-37.678898 795.66052 1361.9331 4285291111
-35.166973 795.66052 1361.9331 4285291111
-31.399082 795.66052 1361.9331 4285422181
-27.631193 795.66052 1361.9331 4285619045
-25.119267 795.66052 1361.9331 4285225313
-22.60734 795.66052 1361.9331 4285291363
-20.095413 795.66052 1361.9331 4284504157
-16.327522 795.66052 1361.9331 4285688430
-7.53578 795.66052 1361.9331 4290619574
-5.0238533 795.66052 1361.9331 4290554562
-2.5119267 795.66052 1361.9331 4291936215
5.0238533 795.66052 1361.9331 4291805910
7.53578 795.66052 1361.9331 4291937753
-37.51376 802.54413 1359.889 4285685351
-35.012844 802.54413 1359.889 4285554283
-32.511925 802.54413 1359.889 4285422697
-25.009174 802.54413 1359.889 4285095531
-22.508257 802.54413 1359.889 4285490289
-20.007339 802.54413 1359.889 4285490287
-16.255962 802.54413 1359.889 4285620844
-2.5009174 802.54413 1359.889 4292134101
1.2504587 802.54413 1359.889 4292330458
-37.51376 804.45612 1361.5012 4285554535
-35.012844 804.45612 1361.5012 4285424494
-31.261467 804.45612 1361.5012 4285621100
-27.510092 804.45612 1361.5012 4285949291
-25.009174 804.45612 1361.5012 4285949041
-20.007339 804.45612 1361.5012 4285556082
0 804.45612 1361.5012 4292068569
-37.376148 812.69971 1361.9117 4285883000
-34.884403 811.74719 1361.1086 4286014064
-32.392662 811.74719 1361.1086 4286014320
-28.655045 811.74719 1361.1086 4286080879
-24.917431 811.74719 1361.1086 4286146671
-22.425688 811.74719 1361.1086 4286278257
0 811.74719 1361.1086 4292135131
-42.203671 817.10535 1359.0863 4286015340
-39.7211 817.10535 1359.0863 4286408320
-37.238533 817.10535 1359.0863 4286276991
-34.755962 817.10535 1359.0863 4286277495
-32.273396 817.10535 1359.0863 4286671996
-28.549541 817.10535 1359.0863 4286606707
-24.825687 817.10535 1359.0863 4286476150
-22.343119 817.10535 1359.0863 4286541944
-19.86055 817.10535 1359.0863 4286805115
-17.377981 817.10535 1359.0863 4287002495
-13.654128 817.10535 1359.0863 4286344319
-9.930275 817.10535 1359.0863 4286275705
-7.4477062 817.10535 1359.0863 4288578460
-4.9651375 817.10535 1359.0863 4289632697
-2.4825687 817.10535 1359.0863 4292067038
1.2412844 817.10535 1359.0863 4291871958
4.9651375 817.10535 1359.0863 4291871703
-37.238533 819.0033 1360.6866 4286738557
-34.755962 819.0033 1360.6866 4286606457
-32.273396 819.0033 1360.6866 4286738044
-28.549541 819.0033 1360.6866 4286541944
-24.825687 819.0033 1360.6866 4286607737
-22.343119 819.0033 1360.6866 4286805115
-13.654128 819.0033 1360.6866 4285949041
-9.930275 819.0033 1360.6866 4287525227
-7.4477062 819.0033 1360.6866 4290814877
-4.9651375 819.0033 1360.6866 4291803601
1.2412844 819.0033 1360.6866 4291739606
4.9651375 819.0033 1360.6866 4291476948
-55.610092 827.66418 1360.1411 4290294215
-51.902752 827.66418 1360.1411 4289965507
-46.959633 827.66418 1360.1411 4288648632
-44.488075 827.66418 1360.1411 4288252830
-34.601833 827.66418 1360.1411 4286279800
-32.130276 827.66418 1360.1411 4285951092
-28.422935 827.66418 1360.1411 4286212726
-19.772476 827.66418 1360.1411 4285095281
-17.300917 827.66418 1360.1411 4286937485
-4.943119 827.66418 1360.1411 4291016136
-2.4715595 827.66418 1360.1411 4291345100
2.4715595 827.66418 1360.1411 4291542745
4.943119 827.66418 1360.1411 4291608788
-49.431194 829.55371 1361.7343 4287465124
-46.959633 829.55371 1361.7343 4287267744
-44.488075 829.55371 1361.7343 4286609295
-34.601833 829.55371 1361.7343 4286346631
-32.130276 829.55371 1361.7343 4286346631
-29.658716 829.55371 1361.7343 4287856268
-2.4715595 829.55371 1361.7343 4291214028
0 829.55371 1361.7343 4291214545
-34.473396 835.78436 1360.4476 4291081158
-32.011009 835.78436 1360.4476 4290752194
-29.548624 835.78436 1360.4476 4290882753
-40.337616 791.18335 1364.6982 4285092964
-37.816513 790.21967 1363.8857 4284698973
-35.295414 789.25598 1363.0731 4284174679
-31.51376 789.25598 1363.0731 4284898404
-7.5633025 789.25598 1363.0731 4289568171
-5.042202 790.21967 1363.8857 4289962684
-2.521101 790.21967 1363.8857 4292068061
-35.166973 797.58093 1363.5524 4285290857
-31.399082 797.58093 1363.5524 4285290604
-27.631193 797.58093 1363.5524 4285488242
0 797.58093 1363.5524 4292068055
-31.261467 806.36804 1363.1133 4285556336
-27.510092 806.36804 1363.1133 4285753458
-27.308256 820.90125 1362.2869 4286607737
-24.825687 820.90125 1362.2869 4286607739
-22.343119 820.90125 1362.2869 4287068290
-13.654128 820.90125 1362.2869 4286869623
-9.930275 820.90125 1362.2869 4288974220
-7.4477062 820.90125 1362.2869 4291803319
-4.9651375 820.90125 1362.2869 4291803864
1.2412844 820.90125 1362.2869 4291740120
4.9651375 820.90125 1362.2869 4291871957
-39.7211 822.79913 1363.8872 4287594647
-24.825687 822.79913 1363.8872 4286013803
-22.343119 822.79913 1363.8872 4286079596
-13.654128 822.79913 1363.8872 4289762971
-9.930275 822.79913 1363.8872 4291409597
-7.4477062 822.79913 1363.8872 4291606719
-4.9651375 822.79913 1363.8872 4291213262
1.2412844 822.79913 1363.8872 4291542486
-46.959633 831.44324 1363.3275 4287923608
-44.488075 831.44324 1363.3275 4287923612
-39.544952 832.388 1364.124 4289370543
