# .PCD v0.7 - Point Cloud Data file format
VERSION 0.7
FIELDS x y z rgb
SIZE 4 4 4 4
TYPE F F F U
COUNT 1 1 1 1
WIDTH 1160
HEIGHT 1
VIEWPOINT 0 0 0 1 0 0 0
POINTS 1160
DATA ascii
4.2752295 806.05859 799.09143 4290029732
6.8403668 805.40491 798.54028 4290687668
28.216515 805.40491 798.54028 4294967295
31.921713 805.84064 798.90771 4294967039
34.771866 806.27655 799.27515 4294967295
-4.2752295 808.01965 800.745 4288318337
-1.7100917 808.01965 800.745 4289107077
0.85504586 808.01965 800.745 4289501345
35.911926 808.01965 800.745 4294967295
-4.2614679 812.18176 800.33026 4287661696
-1.7045871 811.53021 799.78088 4289041802
0.85229355 812.18176 800.33026 4289371034
4.2587156 811.24585 798.88708 4290029477
6.8110094 811.61304 798.54272 4290554542
23.812843 812.99902 798.40332 4293585390
25.513762 812.99902 798.40332 4294967295
28.095413 811.61304 798.54272 4294967295
31.518349 811.24585 798.88708 4294967039
34.659939 811.09589 799.41461 4294967295
37.500916 812.83337 800.87964 4294967295
39.205505 812.83337 800.87964 4294967295
-3.401835 815.59973 800.59619 4285622631
-1.7009175 814.94958 800.04797 4288450960
1.133945 815.16626 800.23071 4289371033
4.2522936 814.29938 799.49976 4290160293
32.317432 814.29938 799.49976 4294967295
35.152294 814.73285 799.86523 4294967295
4.2385321 817.79449 798.52258 4290094502
7.6293578 817.79449 798.52258 4290752434
27.974312 817.79449 798.52258 4294835455
31.365139 817.79449 798.52258 4294967295
33.908257 817.79449 798.52258 4294967295
-1.6954129 819.73877 800.16193 4287924103
1.1302752 819.95477 800.34406 4289567899
4.2385321 819.73877 800.16199 4290291113
7.6293578 819.73871 800.16193 4290620846
10.99633 821.19769 798.776 4291476410
13.533945 821.19769 798.776 4291870144
15.789601 820.98212 798.59424 4292265673
19.455046 820.55103 798.23071 4292529875
22.838531 820.55103 798.23071 4293518313
25.376146 820.55103 798.23071 4294967295
27.913761 820.55103 798.23071 4294901503
31.31468 820.83252 799.12219 4294769661
34.719265 820.4682 799.46893 4294834941
37.299084 820.38684 800.70837 4294440447
35.526604 823.13776 800.41187 4294702844
28.666056 825.31989 798.32764 4294571002
31.47645 825.74957 798.68994 4294702844
34.56789 826.60901 799.41467 4294702075
30.286238 828.06097 798.02271 4294372855
33.651375 829.34729 799.10742 4294504697
40.087158 748.67676 801.72174 4293783029
42.759632 749.35785 802.29602 4294045428
-12.47156 750.71991 803.44446 4283516499
-10.689908 750.71991 803.44446 4283321925
42.759632 750.71991 803.44446 4293980148
-10.65688 755.05249 803.1734 4284240709
-8.2837915 754.43011 801.77667 4284373064
38.994495 755.90118 801.27307 4293717232
40.23119 753.97754 801.39502 4293651441
42.627522 755.05249 803.1734 4294242549
-10.634862 758.61133 803.55823 4284307284
-8.8623857 757.25629 802.41565 4285489242
38.994495 757.25629 802.41565 4294440186
40.766972 757.25629 802.41565 4294374392
42.539448 758.61133 803.55823 4294768635
-8.8348627 760.89447 801.5592 4285162593
37.989906 760.89447 801.5592 4294636796
40.640366 760.89447 801.5592 4294768383
-10.601835 763.59619 803.83716 4283845711
-8.8348627 762.92078 803.26764 4284570969
40.640366 762.24536 802.69812 4294768637
42.407341 762.92078 803.26764 4294703100
-7.9266057 766.54425 802.3988 4286015079
37.871559 765.87091 801.83105 4294571002
40.51376 766.54425 802.3988 4294768637
42.27523 767.21759 802.96655 4294242806
-8.7798166 770.83051 802.08887 4287726465
38.631191 770.83051 802.08887 4294834941
40.387157 770.83051 802.08887 4294703355
-10.53578 772.17297 803.2207 4285294180
-8.7614679 773.68103 801.87622 4287136384
38.550457 773.68103 801.87622 4294638078
40.387157 772.17297 803.2207 4294572285
42.14312 772.17297 803.2207 4294505979
40.302753 775.02069 803.00574 4294834943
42.055046 775.02069 803.00574 4294704127
-8.7339449 778.61401 802.11145 4286874242
38.429359 778.61401 802.11145 4294901247
40.758411 779.50433 802.86212 4294637819
-8.1345568 781.89331 802.26044 4287070335
37.477066 781.4491 801.88586 4294967295
40.963303 782.78174 803.00952 4294966271
-10.425688 787.68384 803.21875 4283055414
-8.6880732 786.35541 802.09863 4286545028
40.833946 787.01965 802.65869 4294834942
-10.39266 791.24487 802.29724 4282793782
-8.6605501 790.58276 801.73901 4286806128
38.106422 789.92065 801.18079 4294704127
39.838531 790.58276 801.73901 4294901503
-10.39266 792.56909 803.41382 4283316736
-8.6422014 794.05469 802.05029 4286935349
38.025688 794.05469 802.05029 4294967295
40.662384 793.31189 802.73206 4294966783
-10.370643 795.3761 803.16455 4284699964
-7.753211 797.60034 801.11584 4286607458
37.904587 797.60034 801.11584 4294967295
40.618347 795.3761 803.16455 4294966783
-10.337615 799.57617 802.78174 4286475098
-8.6146793 798.91754 802.22644 4286409299
37.904587 799.57617 802.78174 4294967295
40.201832 799.79572 802.9668 4294966783
-7.7366972 802.36914 802.52069 4287134319
-5.1577983 801.71198 801.96655 4287989371
37.823853 803.02637 803.07483 4294967295
39.543118 803.02637 803.07483 4294967039
-6.8550458 806.5481 802.12024 4287266938
-4.2844038 805.23792 801.0155 4288121218
0 805.23792 801.0155 4289173915
37.702751 806.5481 802.12024 4294967295
39.416515 806.5481 802.12024 4294967295
-7.704587 808.59265 802.53607 4287003765
0 809.32703 801.84729 4288975766
37.622017 809.32703 801.84729 4294967295
40.231194 808.59265 802.53607 4294967295
-7.6954126 810.6344 802.94971 4285556583
41.042202 810.6344 802.94971 4294967295
-7.3865438 815.00531 802.711 4285294947
-5.1137614 814.13654 801.97852 4285163877
37.500916 814.13654 801.97852 4294967295
40.0578 814.78809 802.52789 4294967039
-6.8036699 818.20044 802.78906 4285097832
-4.2522936 817.55029 802.24084 4285622634
0 816.90009 801.69263 4288778896
37.420185 816.90009 801.69263 4294967295
39.688072 817.76703 802.42358 4294704127
-7.6541286 819.50085 803.8855 4285425250
-4.2522936 819.50085 803.8855 4286871665
-1.6954129 821.68298 801.80127 4288383616
0.85045874 819.50085 803.8855 4289501079
4.2385321 821.68298 801.80127 4290291368
7.6293578 821.68298 801.80127 4290882739
10.172477 821.68298 801.80127 4291015602
38.14679 821.68298 801.80127 4294834942
40.822018 819.50085 803.8855 4294505727
-4.2385321 822.97913 802.89417 4287132777
-1.6954129 822.97913 802.89417 4288514423
38.106422 823.70508 802.19824 4294899966
40.689907 823.6272 803.44061 4294768637
37.218349 825.72443 802.5929 4294767867
46.466057 749.1073 806.00885 4294176500
49.14679 749.79047 806.58484 4294308086
51.827522 749.79047 806.58484 4294308086
-12.47156 752.08203 804.5929 4282727235
44.541283 752.08203 804.5929 4294045428
-13.362385 754.12512 806.31567 4283452241
44.541283 753.44409 805.74146 4294308084
49.886238 754.80615 806.88989 4294505979
51.667889 754.80615 806.88989 4294308599
-12.433027 757.76819 805.46332 4283584594
44.403671 757.08929 804.89087 4294702842
52.396332 758.44714 806.03577 4294572028
-12.407339 761.32147 805.84326 4283714630
-10.634862 759.96643 804.70068 4283190596
44.311928 760.64392 805.27197 4294769149
-13.293577 762.67657 806.98584 4286210135
-10.601835 764.94708 804.9762 4286475367
44.174313 764.94708 804.9762 4294834943
46.084404 762.67657 806.98584 4294638332
-12.368808 766.29791 806.11523 4286738795
45.941284 766.29791 806.11523 4294704125
-12.330276 769.91089 805.23743 4285227612
-10.568808 768.56421 804.10205 4286410861
43.449543 769.01312 804.48047 4294834942
-15.853211 771.25757 806.37292 4286412656
-13.191744 772.38647 805.36279 4284570456
-10.53578 773.51544 804.35266 4284703326
43.899082 773.51544 804.35266 4294967295
45.798164 771.25757 806.37292 4294704125
-15.80367 776.20032 806.61646 4286215030
-13.462386 775.30536 805.86188 4284703061
-10.513762 776.36035 804.13525 4284637281
42.977066 775.60913 804.80994 4294835455
45.655045 776.20032 806.61646 4294835195
-12.266055 778.36975 805.82965 4283320637
-10.513762 777.69995 805.26489 4283715675
43.807339 777.69995 805.26489 4294966783
45.559631 779.03961 806.39441 4294769148
-12.227523 782.6203 805.4895 4282201902
-10.480734 781.28485 804.36353 4283714641
43.669724 781.28485 804.36353 4294966783
45.416515 782.6203 805.4895 4294966783
-13.088074 784.70142 805.93616 4284570466
-10.458715 784.11438 804.13318 4283189585
41.834862 784.11438 804.13318 4294834687
43.57798 784.7807 804.69501 4294967295
46.289909 783.95575 806.61548 4294901502
-13.944954 786.7796 806.38049 4285688181
43.57798 786.7796 806.38049 4294967295
45.321102 786.7796 806.38049 4294967039
-12.742508 790.34064 805.45898 4284108628
41.702751 789.01227 804.33887 4294967295
43.440369 790.3407 805.45898 4294966527
46.046791 791.66907 806.57898 4294966527
-12.124771 793.89331 804.5304 4284962898
43.302753 793.89331 804.5304 4294966527
-12.977982 796.61963 805.52106 4286145891
41.482571 796.69751 804.27869 4294967039
43.21101 796.69751 804.27869 4294966783
46.189602 795.65894 806.01904 4294901247
48.499084 796.54175 806.76343 4294835455
-12.963303 798.67963 805.94995 4286211424
44.3633 798.45941 805.76422 4294901247
46.667889 799.34033 806.50708 4294704127
-12.060551 802.21057 805.00305 4286343268
-10.337615 801.55194 804.44775 4286411107
41.35046 801.55194 804.44775 4294966527
43.647705 802.43011 805.18817 4294966783
-12.047707 805.57794 806.5343 4285224536
-10.315597 805.65509 805.29132 4285818721
-8.5963306 804.34076 804.18311 4287331948
41.262386 804.34076 804.18311 4294967295
44.159634 805.6037 806.11993 4294967039
46.519264 804.18634 806.66895 4294967295
42.844036 809.16846 804.32959 4294967039
-11.13945 811.13373 805.98669 4285490012
-8.5504589 811.94177 804.052 4285489244
41.042202 811.94177 804.052 4294966527
43.655045 811.8653 805.29553 4294900991
-10.26055 813.90283 805.70551 4284768598
43.607338 813.90283 805.70551 4294835710
-10.227523 818.04608 805.2749 4284438352
-8.5229359 816.74292 804.17603 4285032034
42.614677 817.39453 804.72546 4294506238
-11.079817 819.34924 806.37366 4285027405
-7.6541286 820.80121 804.98193 4285816664
43.466972 819.34924 806.37366 4294966271
-7.6541286 822.10156 806.07837 4285684820
-5.1027522 822.10156 806.07837 4285685844
39.121101 822.10156 806.07837 4294966527
-16.084404 751.8399 808.31287 4283188040
-14.297248 751.15674 807.73682 4283320139
46.466057 751.8399 808.31287 4294505207
48.848927 751.61212 808.12085 4294439671
51.827522 751.15674 807.73682 4294308086
-16.628746 757.07635 808.80402 4283582263
-14.253211 756.16827 808.03833 4283124550
46.322937 756.16827 808.03833 4294506746
48.698471 756.62231 808.4212 4294506490
-15.985321 761.16296 808.32556 4285749583
-14.209174 759.80505 807.18066 4283583044
47.06789 760.48401 807.75311 4294572539
49.732109 760.48401 807.75311 4294440699
52.396332 760.48401 807.75311 4294506235
-16.873394 762.52081 809.47058 4286013789
-14.179816 764.03162 808.12842 4286409574
47.85688 764.03162 808.12842 4294572539
49.629356 764.03162 808.12842 4294572285
52.396332 762.52081 809.47058 4294835197
-16.813763 766.51776 808.26263 4285816672
-14.135779 767.6488 807.25427 4285622627
46.824768 767.6488 807.25427 4294638334
49.629356 765.38672 809.271 4294572285
51.401836 765.38672 809.271 4294835455
-19.436697 770.35052 809.53223 4282597441
-17.669725 768.99963 808.39319 4284504659
47.708256 768.99963 808.39319 4294572539
49.475231 770.35052 809.53223 4294637308
-19.376146 773.95087 808.64392 4281940020
-17.027525 773.05304 807.8869 4284504408
46.972473 773.05304 807.8869 4294703868
-19.376146 775.29749 809.7793 4282071349
-19.315596 778.88519 808.88037 4281675560
-16.681652 778.21399 808.31445 4284702044
-14.047707 777.54279 807.74841 4285886312
47.411011 777.54279 807.74841 4294900735
-16.64679 781.71893 808.65356 4284570200
-14.018349 780.37927 807.52393 4285754981
47.311928 780.37927 807.52393 4294769148
-19.275229 783.05853 809.78308 4281806385
-16.622019 784.17487 808.76227 4284570456
47.163303 785.2912 807.74146 4294967039
49.940369 783.05853 809.78308 4294769148
-16.885628 787.07178 809.24286 4284371792
-13.944954 788.11224 807.50403 4285556593
46.192661 788.11224 807.50403 4294834942
49.783485 787.29431 809.43048 4294900991
52.403671 787.96204 809.99353 4294835455
54.150459 787.96204 809.99353 4294638078
-15.688073 790.11121 809.18951 4285817701
49.678898 790.11121 809.18951 4294901247
52.293579 790.77753 809.75134 4294704127
-15.638532 794.32593 808.81921 4285357406
-13.900917 792.9975 807.6991 4286212199
49.522018 793.66174 808.25916 4294835711
52.128441 794.32593 808.81921 4294835455
-16.482569 796.76013 808.90967 4285487958
49.444954 796.76013 808.90967 4294901503
52.128441 795.65436 809.93933 4294901247
-15.588991 799.19012 808.99646 4285752414
-13.827523 800.66174 807.62122 4285882716
46.667889 800.66174 807.62122 4294967295
49.365139 799.19012 808.99646 4294967295
51.963303 799.19012 808.99646 4294900735
-13.827523 801.98315 808.73535 4285158998
49.548626 802.42365 809.10675 4294967295
52.429356 802.86407 809.47821 4294901247
-13.783486 806.16211 808.33496 4284698962
46.519264 805.50354 807.77966 4294967295
48.816513 806.38165 808.52002 4294967039
-12.894495 808.94116 808.06207 4284897879
44.700916 808.28394 807.50793 4294704127
46.420185 808.94116 808.06207 4294967295
48.13945 809.59833 808.61621 4294967295
48.13945 810.91272 809.72449 4294901247
-15.423853 815.71942 809.85315 4284633935
-13.695413 814.48151 807.5014 4283713868
-11.983486 814.48151 807.5014 4284305748
44.462387 815.86395 807.35901 4294769146
46.842815 814.40924 808.74847 4294835198
-13.680734 817.82501 809.01257 4284763211
46.172478 817.82501 809.01257 4294834685
-11.079817 821.30396 808.02197 4285420621
-8.5229359 821.95557 808.57129 4286671708
39.205505 821.95557 808.57129 4294833660
43.182873 821.08673 807.83881 4294835453
-10.227523 823.25873 809.67004 4287199330
40.822018 823.40192 807.1748 4294637562
-19.699083 752.37006 811.37598 4283649102
-17.908257 751.00092 810.22156 4283121993
-21.489908 753.73914 812.53027 4283516747
-19.658716 755.25562 811.19299 4283188038
-17.871559 753.88934 810.04089 4283255880
-21.445871 756.62195 812.34497 4284172101
-19.598166 758.89246 810.33533 4284369223
-17.816513 758.89246 810.33533 4285157703
-21.379816 761.61658 812.63232 4284372559
-19.598166 760.93555 812.05804 4284832336
53.284405 763.87872 810.61548 4294374906
-19.537615 765.23657 811.76038 4284174933
49.629356 766.74182 810.41357 4294572285
52.288074 766.74182 810.41357 4294703869
-21.269724 768.09686 811.55615 4283189835
52.288074 768.77435 812.12744 4294769149
-21.203671 772.37683 811.24078 4283518795
49.475231 772.37683 811.24078 4294901247
52.125687 773.05225 811.8103 4294966527
-22.054129 775.52368 811.93207 4284701787
49.321102 776.64417 810.91479 4294900735
52.125687 774.40314 812.94934 4294900735
54.776146 774.40314 812.94934 4294834943
-21.137615 777.99084 812.05029 4283913553
51.963303 777.99084 812.05029 4294769150
54.605503 777.99084 812.05029 4294834943
-21.07156 782.24133 811.71014 4283648843
-19.315596 780.22766 810.01221 4281479469
49.166973 780.22766 810.01221 4294900735
52.678898 782.91254 812.27612 4294900735
54.434864 781.57013 811.14417 4294900735
-19.275229 785.06799 811.47736 4282727223
50.816513 784.39819 810.9126 4294900735
54.321102 784.39819 810.9126 4294966527
-19.21468 790.63293 812.24548 4285027658
-17.46789 789.29749 811.11951 4284831314
-19.174313 793.44275 811.99866 4284962898
-17.431192 792.11011 810.875 4284831062
-17.376146 796.98279 811.05945 4285094740
53.866055 796.98279 811.05945 4294966527
-16.482569 799.41278 811.14624 4285028691
53.695412 800.51434 810.11304 4294900735
-16.455046 802.50067 811.7879 4284172870
-15.555964 804.62598 810.96375 4284634189
52.71743 804.62598 810.96375 4294900991
-15.506422 808.79651 810.55615 4284568910
49.965137 808.79651 810.55615 4294901247
52.549541 808.79651 810.55615 4294835198
-16.351376 811.49976 811.5274 4283975487
48.999084 812.22711 810.83264 4294901246
52.494495 811.49976 811.5274 4294900735
49.858715 813.5415 811.94092 4294966271
51.57798 813.5415 811.94092 4294768637
-15.423853 817.0296 810.95789 4284302917
47.985321 817.68469 811.51025 4294768637
49.699081 817.68469 811.51025 4294834685
51.9841 817.90308 811.69434 4294768637
54.840366 818.33978 812.06262 4294900735
-15.390825 819.78607 810.66614 4284434755
-13.680734 820.43976 811.21729 4285749324
-11.970642 821.09344 811.76843 4287131488
41.042202 821.09344 811.76843 4294506746
43.892353 820.65765 811.40106 4294572027
46.172478 819.78607 810.66614 4294703357
-15.390825 822.40082 812.87085 4286078805
-13.680734 822.40082 812.87085 4286013269
-21.555964 750.09113 813.37854 4284043604
-23.280733 755.10828 813.68469 4283582540
-22.669113 757.43732 814.77655 4284700243
-23.233028 760.72083 815.80103 4284436556
-22.270641 763.65979 814.35498 4284239698
-23.089909 767.95233 814.05029 4284767061
-23.042202 770.80701 813.84119 4284898651
-22.899082 779.33746 813.18579 4285490789
52.844036 779.33746 813.18579 4294834941
-22.899082 780.68414 814.32117 4285096796
-26.339449 784.255 813.40796 4282399035
-21.949541 784.92621 813.974 4284701261
-24.583487 786.93988 815.67188 4284897355
-21.903669 788.41711 814.30127 4285160013
-19.275229 787.07751 813.17175 4284109388
-25.408257 789.75677 815.43079 4284634961
-22.708258 791.96838 813.37146 4285094740
-20.961468 791.96838 813.37146 4285028691
-25.328442 794.63922 815.62354 4284438098
-22.708258 793.30377 814.49756 4284569939
-20.045872 794.77539 813.12231 4284897105
-22.660551 796.77435 814.80774 4284438351
-20.045872 796.77435 814.80774 4284108367
-19.113762 800.96802 814.41968 4283845963
-17.376146 799.63959 813.29956 4283777856
-19.113762 802.29645 815.53979 4284372055
-19.053211 805.81122 814.57922 4283319106
-17.3211 804.487 813.46265 4284765518
-19.033028 808.52356 815.55811 4284369486
-17.284403 807.2688 813.19214 4283385149
55.310093 809.91162 815.42041 4294768637
-17.229359 812.08954 813.33276 4284831314
53.411011 812.08954 813.33276 4294768637
-17.192661 814.8559 813.04919 4284368710
53.297249 814.8559 813.04919 4294966015
55.133945 813.40674 814.44336 4294966271
-17.192661 816.82751 814.71161 4284960581
-15.423853 819.64996 813.16736 4285815628
44.557796 820.96014 814.27209 4294177783
47.128441 819.64996 813.16736 4294637308
49.699081 820.30505 813.71973 4294637051
52.269726 820.30505 813.71973 4294637049
54.840366 820.30505 813.71973 4294702845
-15.423853 822.27032 815.37671 4286210655
-13.680734 823.70819 813.97314 4285947996
49.699081 822.27032 815.37671 4294637308
52.269726 822.27032 815.37671 4294374392
54.840366 822.27032 815.37671 4294374392
-15.390825 825.01556 815.07544 4285948512
-15.909481 829.34027 814.79785 4284964181
57.955963 829.7746 815.16406 4294636795
-27.027523 751.25598 818.28473 4283385931
-25.225689 750.56726 817.70398 4283516747
-25.148624 754.89771 817.43127 4284568919
-24.943119 768.42706 818.37463 4283780434
-23.042202 773.51715 816.12634 4285424744
-24.660551 783.37744 816.59216 4284044097
-25.43578 790.3606 817.24805 4284438355
-26.284403 793.7757 818.81946 4284372307
-24.455046 796.64233 817.3125 4284043850
-22.660551 799.43958 817.05499 4283912011
-20.917431 799.43958 817.05499 4283648586
-22.660551 801.43854 818.74048 4283647040
-20.851376 803.62488 816.65979 4283187263
-22.588991 805.61755 818.33997 4284238155
-20.851376 805.61755 818.33997 4284632914
-20.78532 809.78381 817.92883 4284304713
-19.588991 812.11395 817.2774 4283843906
-20.741285 813.87585 818.76294 4284566093
-18.952293 817.35834 817.77521 4285618257
-17.192661 818.79907 816.37402 4285815376
46.420185 818.79907 816.37402 4294440699
48.13945 818.79907 816.37402 4294703357
-17.192661 820.11346 817.4823 4285618261
46.420185 820.11346 817.4823 4294506492
48.13945 820.77063 818.03644 4294505723
-17.137615 823.58051 816.48145 4285356374
49.699081 823.58051 816.48145 4294703103
51.9841 824.01727 816.84967 4294374647
54.840366 823.58051 816.48145 4294308599
-18.851376 826.20087 818.69092 4285291609
-17.100918 826.323 816.17786 4285555291
55.57798 827.63037 817.28015 4294571002
-17.100918 828.93774 818.38257 4283319356
-15.341285 831.07776 816.26294 4283319356
-27.027523 754.01099 820.60773 4284964442
-25.148624 757.64429 819.74719 4284765267
-26.008257 760.82898 820.47034 4283583300
-25.020184 764.8197 819.25708 4284438100
-28.036697 795.78516 820.51385 4283582795
-26.284403 795.78516 820.51385 4283582538
-27.948624 799.98096 820.12756 4284304465
-25.03731 799.53583 819.7522 4283976266
-28.761467 802.77118 819.86414 4284173132
-25.27523 802.77118 819.86414 4283317053
-25.27523 804.10382 820.98779 4284305488
-24.326605 808.93854 821.14026 4283057992
-22.588991 807.61011 820.02014 4284306262
-22.517431 811.77014 819.6037 4283516998
-24.249542 813.75647 821.27844 4285750104
-22.469725 815.19727 819.8772 4285684311
-20.741285 815.19727 819.8772 4285815376
-20.741285 816.51862 820.99133 4285815628
-20.10092 820.43182 820.3667 4285619026
-19.771561 823.39941 820.25293 4285554522
49.858715 823.39941 820.25293 4294899966
52.724163 823.61847 820.43768 4294439415
-19.741283 826.44104 820.85547 4284043594
-18.851376 828.82129 820.90027 4281939248
-17.100918 830.24512 819.48486 4282071340
-28.917431 752.44189 823.20874 4284635986
-28.917431 753.82361 824.37378 4283714884
-63.06422 758.83234 824.67297 4285948498
-61.262386 758.83234 824.67297 4285881933
-27.92844 757.45483 823.51147 4283978827
-26.944954 761.07764 822.64197 4283124289
-26.944954 762.45093 823.79993 4282992201
-64.829361 780.17322 824.35461 4283118364
-62.165138 780.17322 824.35461 4283315231
-28.822018 803.31958 822.9425 4284042317
-28.822018 805.32269 824.63159 4283845450
-25.56575 805.88062 822.48584 4284043604
-26.14679 808.10168 824.35864 4284041294
-25.195414 811.92749 823.6604 4285158736
-22.517431 815.08069 822.39502 4285750354
-25.115597 817.06702 824.06982 4285552724
-22.469725 817.84003 822.10547 4285487445
-24.198166 819.82214 823.77679 4285881690
-22.469725 819.16144 823.21973 4285224273
-24.121101 823.94434 823.32837 4285094486
-22.398165 823.28577 822.77307 4285356374
49.965137 823.94434 823.32837 4294966783
52.549541 823.94434 823.32837 4294768637
56.85688 823.94434 823.32837 4294702844
-24.121101 825.26154 824.43909 4282726190
-22.398165 825.26154 824.43909 4282660397
-20.631193 826.68542 823.02356 4282136883
-36.256882 752.95593 827.56628 4285028441
-34.444038 752.26294 826.98199 4285028187
-31.543484 751.84717 826.63147 4284766039
-28.917431 755.20538 825.53882 4283780936
-58.738533 757.96881 827.8689 4285750349
-56.027523 757.96881 827.8689 4285158212
-34.339451 757.96881 827.8689 4285356120
-30.724771 757.27795 827.28638 4285093983
-63.965141 760.20984 825.83447 4286277209
-61.262386 760.89862 826.41522 4286079056
-28.829357 760.89862 826.41522 4283649358
-70.056877 766.57086 827.2738 4286673250
-68.260551 766.57086 827.2738 4287132257
-69.842201 771.53748 827.53735 4283189553
-67.15596 771.53748 827.53735 4283254314
-64.469727 771.53748 827.53735 4283385899
-60.888073 771.53748 827.53735 4284175685
-70.592659 774.38379 827.32129 4283713317
-67.018349 774.38379 827.32129 4283515172
-64.337616 774.38379 827.32129 4283647524
-62.550457 774.38379 827.32129 4283844903
-67.702751 778.6427 826.98822 4282922781
-64.13945 779.32373 827.5625 4282725420
-65.125381 782.43634 826.26276 4282134813
-62.165138 781.53113 825.49951 4282594091
-31.541285 804.49286 827.85596 4285027408
-28.822018 806.65814 825.75757 4284238410
-31.442202 807.99359 826.88354 4285094740
-28.761467 809.43433 825.4823 4284764749
-28.761467 811.43323 827.16772 4285421653
-28.670643 815.58069 826.74072 4285486675
-26.06422 814.25226 825.62061 4285421654
-29.53945 816.90906 827.86072 4285946713
-28.291132 820.37762 826.86115 4285093978
-25.954128 820.42883 825.59631 4285816677
-27.655046 823.78638 827.11932 4282663234
-25.926605 823.78638 827.11932 4282136634
52.71743 823.12567 826.56226 4294505722
57.902752 823.12567 826.56226 4294702587
-60.91468 750.70642 829.59375 4285619783
-56.368809 752.09656 830.76587 4285093703
-40.912842 751.40149 830.17981 4284764748
-38.185322 750.70642 829.59375 4285093707
-58.917431 754.34186 828.73486 4285685068
-36.861164 754.80389 829.12433 4285290582
-34.444038 754.34186 828.73486 4285487961
-32.631191 755.03479 829.31915 4285094239
-66.871559 759.35059 829.03394 4286540117
-64.160553 759.35059 829.03394 4286342741
-59.039753 759.81122 829.4223 4285948239
-55.425079 760.27173 829.81061 4284435775
-30.724771 759.35059 829.03394 4285027158
-67.268501 763.42407 828.54449 4286934876
-63.965141 763.65369 828.7381 4286869081
-61.262386 763.65369 828.7381 4286475099
-58.259327 763.88324 828.93164 4286146645
-70.056877 767.94415 828.43164 4286212965
-67.362381 767.94415 828.43164 4286146908
-63.866058 766.83203 829.45599 4286474590
-61.07523 767.94415 828.43164 4286475367
-62.871559 769.31744 829.5896 4283846450
-70.592659 775.75006 828.47327 4283314977
-70.592659 777.7995 830.20135 4283054127
-67.702751 781.36688 829.28516 4283450664
-65.030273 782.04791 829.85938 4282922016
-65.71743 785.60474 828.93433 4287066979
-62.165138 785.60474 828.93433 4285093201
-69.269722 786.96265 830.07922 4287789930
-67.493576 786.96265 830.07922 4287658866
-64.829361 786.96265 830.07922 4287329652
-62.165138 786.96265 830.07922 4286079848
-55.486237 798.86401 829.65002 4288118382
-52.844036 799.53735 830.21777 4286211670
-34.348625 799.53735 830.21777 4285486932
-33.363304 803.04932 829.25488 4285356109
-31.60734 801.70685 828.12292 4284436556
-36.875229 804.39172 830.38672 4285226319
-34.206421 805.11206 829.6861 4285028693
-33.293579 807.17212 830.11499 4285290329
-31.442202 809.32898 828.00952 4285290579
-33.188992 811.99988 830.2616 4285486675
-31.442202 811.33215 829.69855 4285355859
-31.376146 814.76483 829.97681 4285354576
-29.53945 818.23749 828.98083 4285685594
-31.277063 819.56592 830.10095 4284570193
-29.445871 823.026 829.09424 4282794041
58.891743 823.026 829.09424 4294702590
-54.660549 750.59973 832.11975 4284435272
-52.838531 751.2962 832.70703 4283908161
-46.461468 750.59973 832.11975 4284041782
-43.728439 751.2962 832.70703 4284107590
-54.550457 754.18182 832.52405 4284236614
-52.732109 754.87689 833.11011 4284170819
-40.912846 754.18182 832.52405 4284699725
-38.185322 754.18182 832.52405 4284963151
-36.256882 757.80664 831.65631 4285421911
-70.592659 779.84894 831.92944 4284502069
-71.486237 781.21527 833.08142 4287855725
-69.484406 783.41003 831.00793 4287789932
-67.702751 783.41003 831.00793 4287593323
-64.13945 783.41003 831.00793 4286474854
-69.269722 788.3205 831.22412 4287987827
-67.493576 788.3205 831.22412 4288316276
-64.829361 788.3205 831.22412 4288184692
-62.165138 788.3205 831.22412 4288316024
-69.269722 790.3573 832.94159 4288250480
-67.493576 790.3573 832.94159 4288381549
-64.829361 790.35736 832.94159 4288184427
-61.57309 790.13104 832.75079 4288250479
-63.809174 793.84326 833.26477 4288316276
-61.150459 793.16571 832.69348 4288316275
-58.491745 792.48816 832.12219 4288578932
-60.077065 796.69238 831.74304 4288184688
-58.310093 796.69238 831.74304 4288447603
-37.989906 797.36786 832.3125 4285554001
-63.611008 798.71869 833.45154 4288513139
-60.960548 798.71869 833.45154 4288316016
-58.310093 798.71869 833.45154 4288381808
-55.486237 800.88397 831.35327 4288118633
-51.963303 800.88397 831.35327 4285422402
-43.155964 800.88397 831.35327 4284764485
-40.51376 800.88397 831.35327 4285553754
-37.871559 800.88397 831.35327 4285422415
-35.229359 800.88397 831.35327 4285487695
-55.486237 802.90399 833.0564 4289106822
-51.963303 802.90399 833.0564 4285883213
-49.321102 802.90399 833.0564 4284303923
-46.972473 802.6795 832.86719 4284567352
-43.155964 802.23065 832.48865 4284961863
-40.51376 802.23065 832.48865 4285422165
-38.752293 802.23065 832.48865 4285226319
-45.655045 805.73419 831.51868 4284633406
-43.021103 805.73419 831.51868 4285028167
-40.387157 805.73419 831.51868 4285290829
-37.753212 805.73419 831.51868 4285356622
-35.119267 805.73419 831.51868 4285290329
-52.678898 808.41907 833.78247 4288251266
-50.044956 807.7478 833.21655 4284041531
-46.533028 807.7478 833.21655 4284501822
-43.021103 807.7478 833.21655 4284765257
-40.387157 807.74786 833.21655 4285226320
-37.753212 807.7478 833.21655 4285356372
-34.5107 808.0025 832.55927 4285355862
-33.188992 813.33533 831.38757 4285289553
-48.807339 818.7627 833.34778 4284960581
-33.555046 817.76324 832.505 4285487956
-31.376146 816.09747 831.10046 4285290579
-31.277063 820.89435 831.22107 4283846985
57.341286 820.89435 831.22107 4294966269
59.078899 822.22278 832.34106 4294768383
-51.170643 751.1488 836.50684 4283909163
-49.343121 751.1488 836.50684 4283975212
-46.601833 751.1488 836.50684 4283975989
-43.728439 753.38562 834.46875 4284107591
-38.185322 756.26703 834.28223 4285029197
-70.157791 793.07312 835.23132 4288578675
-67.493576 793.07312 835.23138 4288513138
-65.71743 792.39417 834.65894 4288249968
-70.157791 795.10992 836.94885 4288316276
-67.493576 795.10992 836.94885 4288513908
-65.138535 796.21472 835.26428 4288645494
-62.036697 796.55347 835.54993 4288711033
-63.611008 800.06958 834.59058 4289236867
-60.077065 800.06958 834.59058 4289302658
-58.310093 800.06958 834.59058 4289697416
-63.611008 802.09583 836.29913 4290357666
-60.960548 802.09583 836.29913 4290489252
-58.310093 802.09583 836.29913 4290884522
-55.486237 805.59729 835.32739 4291016884
-52.844036 804.92395 834.75964 4287727489
-52.678898 809.76154 834.91443 4288448144
-50.044952 809.76154 834.91443 4284106302
-46.533028 809.76154 834.91443 4284370237
-43.021103 809.76154 834.91443 4284962637
-40.387157 809.76154 834.91443 4285422415
-37.753212 809.76154 834.91443 4285356372
-35.119267 809.76154 834.91443 4285552468
-52.678898 811.104 836.04639 4286806660
-50.044952 811.104 836.04639 4284107592
-46.533028 811.104 836.04639 4284632901
-43.021103 811.104 836.04639 4285160014
-40.387157 811.104 836.04639 4285356874
-37.674309 812.5307 834.63318 4285355859
-35.119267 811.104 836.04639 4285684812
-49.940369 813.87036 835.76282 4283716689
-46.43578 815.20996 836.89233 4284566845
-37.674309 815.20996 836.89233 4285619544
52.403671 817.34161 834.76562 4294703357
55.023853 817.34161 834.76562 4294834684
57.644035 818.67706 835.8916 4294900735
-48.807339 820.09534 834.47144 4284960581
-47.06422 820.09534 834.47144 4284565823
59.266056 821.42798 835.59509 4294834687
59.266056 822.76062 836.71863 4294703357
-69.861763 796.92041 838.4754 4288975495
-67.493576 796.46777 838.09375 4289040515
-67.354126 799.9411 838.40637 4289897885
-65.58165 799.9411 838.40637 4289963935
-63.611008 804.79761 838.57715 4292333260
-60.960548 804.79761 838.57715 4292333006
-58.310093 804.12219 838.00769 4292332749
-58.128441 808.29065 837.59827 4293780458
-55.486237 808.29065 837.59827 4291873496
-46.533028 812.44641 837.17822 4284763712
-43.021103 812.44641 837.17822 4285225036
-40.387157 812.44641 837.17822 4285356622
-37.753212 812.44641 837.17822 4285552975
-35.119267 812.44641 837.17822 4286473570
-42.728439 814.23633 838.6875 4284895556
-40.387157 814.46008 838.87616 4285750612
-37.674309 816.54962 838.02185 4285160783
55.4893 816.99615 838.39844 4294703356
57.644035 820.68018 837.58057 4294769148
59.390827 822.68335 839.26965 4294702844
-67.354126 801.97369 840.12024 4291017149
-65.58165 801.97369 840.12024 4291411906
54.434864 816.47375 840.57397 4294703357
55.255047 819.19385 841.55945 4294506233
58.701836 821.2384 841.97528 4294768890
53.009174 810.87646 843.70276 4294769150
53.009174 813.57825 845.98071 4294638078
57.946789 821.17236 844.53577 4294835197
59.57798 823.91766 844.23444 4294768893
59.57798 825.92712 845.92871 4294505979
53.284405 808.68872 848.39807 4294769150
53.009174 814.92908 847.11975 4294703355
53.009174 816.27997 848.25879 4294505208
55.486237 818.39056 846.11426 4294768892
55.486237 820.41052 847.8175 4294637565
57.946789 823.85724 846.79962 4294440446
56.190826 825.87091 848.49744 4294637310
57.825687 827.26678 847.05835 4294440188
50.040367 803.07599 851.51379 4294703355
51.827522 801.70972 850.36182 4294374906
51.667889 805.88446 849.95776 4294703356
51.667889 807.92761 851.68054 4294703357
51.508255 812.08337 851.26044 4294703101
53.009174 818.30627 849.96729 4294703357
53.009174 820.33252 851.67578 4294440186
55.192657 822.87939 849.89911 4294505980
55.398163 826.16858 850.71051 4294637308
56.190826 828.55579 850.76135 4294373877
50.451378 794.64783 854.87158 4294177783
52.253212 794.64783 854.87158 4294243576
50.297249 798.15698 853.90637 4294374906
48.352295 803.02679 854.08838 4294242806
50.040367 805.12543 853.24188 4294703357
49.886238 809.28967 852.82898 4294505979
-22.270641 810.65173 853.97742 4283189053
49.886238 810.65173 853.97742 4294571002
-25.458105 815.02545 853.74115 4283779652
-22.201834 814.79919 853.55029 4283516995
49.732109 815.47809 854.1228 4294505979
51.508255 814.12024 852.97778 4294966783
51.401836 817.55707 853.25964 4294571771
-24.814678 819.58966 854.97351 4284436556
-22.155964 819.58966 854.97351 4283976005
49.629356 819.58966 854.97351 4294440186
52.205505 820.63654 853.89417 4294440186
-24.737616 823.0343 853.95386 4284633935
52.125687 823.0343 853.95386 4294834685
54.605503 827.1438 853.49481 4294505209
43.86055 776.29761 857.71167 4294440697
45.688072 776.29761 857.71167 4294374904
46.461468 779.85168 856.78418 4294375160
46.461468 781.24463 857.95874 4294637820
49.194496 781.24463 857.95874 4294440184
47.277065 784.06989 857.72485 4294834428
50.004585 784.06989 857.72485 4294505208
47.133945 788.99023 857.94946 4294702844
49.85321 788.99023 857.94946 4294637051
46.990826 792.51196 856.99487 4294637308
48.798164 792.51196 856.99487 4294505979
-18.919266 797.40283 857.19458 4282793522
-16.216515 797.40283 857.19458 4282727989
46.847706 796.02533 856.03308 4294703355
48.64954 796.02533 856.03308 4294703355
-21.555964 800.90356 856.22229 4282794534
-19.759632 800.90356 856.22229 4282794534
-17.963303 800.90356 856.22229 4283121457
46.704586 800.21692 855.64331 4294572028
48.500916 799.53027 855.06433 4294572285
-19.759632 802.27692 857.38013 4283188008
-17.065138 802.27692 857.38013 4283187506
46.561466 805.08044 855.82001 4294571516
48.352295 805.08044 855.82001 4294440187
-19.699083 807.13409 857.55151 4283123004
-17.889908 808.52075 857.41272 4283319361
46.561466 807.13409 857.55151 4294439934
48.253212 809.22437 856.69794 4294571262
49.886238 812.01385 855.12598 4294702844
48.104588 814.05701 856.84863 4294702077
-24.866055 816.836 855.2677 4283912008
-22.201836 816.836 855.2677 4283714632
49.732109 816.836 855.2677 4294440186
-22.155964 820.94476 856.11609 4284502348
47.955963 819.55176 857.5575 4294966015
49.629356 820.94476 856.11609 4294966011
-26.504587 824.38513 855.0929 4285288532
49.629356 822.2998 857.25867 4294505206
52.125687 824.38513 855.0929 4294571257
53.009174 825.73602 856.23181 4294571002
42.159634 772.73517 858.63196 4294702591
42.159634 774.83722 860.40436 4294374648
43.86055 778.39331 859.4787 4294046195
43.728439 782.63757 859.13318 4294374139
45.550457 782.63757 859.13318 4294834687
43.728439 784.03052 860.30774 4294505208
46.367889 785.46002 858.89697 4294636795
50.004585 785.46002 858.89697 4294702075
45.458717 786.85016 860.06909 4294834175
-16.315596 790.37616 859.11804 4282137133
-14.502752 791.76208 860.28662 4282530592
45.321102 791.06909 859.70233 4294834686
-18.977064 793.89368 858.15991 4282595885
-16.266054 793.89368 858.15991 4282595887
-14.458715 795.27545 859.32495 4282595883
43.376148 796.65717 860.48987 4294505979
45.183487 795.27545 859.32495 4294637308
-16.216515 798.7804 858.35608 4283055664
-14.414679 799.46912 858.93683 4282793782
43.244038 800.1579 859.51758 4294440186
45.045872 799.46912 858.93683 4294703357
-19.759632 803.65021 858.53809 4283056434
-17.065138 803.65021 858.53809 4282990391
-14.414679 801.5354 860.67908 4282924859
44.076149 802.59277 859.60858 4294703613
-16.166973 805.0235 859.69604 4283253057
-14.370643 805.71014 860.27502 4283254077
44.908257 805.71014 860.27502 4294440443
-19.699083 808.50317 858.70593 4283451457
-16.117432 809.18774 859.28314 4283451457
44.770641 809.87231 859.86035 4294703357
46.561466 808.50317 858.70593 4294636799
-19.658716 811.95691 859.00201 4283714377
-17.871559 811.95691 859.00201 4283648837
46.466057 811.95691 859.00201 4294636540
-16.084404 814.00635 860.72998 4284109388
-19.598166 817.46216 859.71979 4284502861
-17.103855 817.73456 859.94952 4284371789
46.322937 817.46222 859.71979 4294439415
48.104588 816.1001 858.57129 4294571002
-24.866055 820.90961 858.70251 4284831314
-22.201836 820.90961 858.70251 4284437581
47.955963 820.90961 858.70251 4294767865
-24.814678 823.65491 858.40125 4284897107
-22.177982 822.96118 859.12433 4284831313
47.955963 822.26752 859.84741 4294571002
49.680733 823.64014 859.69678 4294571001
51.401836 823.65491 858.40125 4294899453
-26.587156 825.00995 859.5437 4285159250
-7.3981652 764.82532 863.73486 4286936422
-5.548624 764.82532 863.73486 4286870629
37.915596 764.82532 863.73486 4294373879
40.568806 766.99481 861.64001 4294373109
-9.2201834 768.4046 862.82874 4287528296
-7.3761468 768.4046 862.82874 4287857011
-5.5321102 768.4046 862.82874 4288317562
40.568806 768.4046 862.82874 4294242041
-12.869725 772.67822 862.508 4286539873
42.159634 776.93927 862.17676 4294440699
-13.747706 778.34064 863.35828 4286673261
-13.706423 781.88623 862.42383 4284239177
42.033028 781.18762 861.83478 4294571516
-13.684404 784.35339 862.54205 4282528811
-10.965137 783.28339 863.60193 4282660397
42.880733 784.35339 862.54205 4294636797
-13.650459 787.52832 861.94904 4282726185
-10.324771 787.74506 863.4397 4282727218
41.906422 787.51288 863.24396 4294439163
43.640366 788.2403 861.24133 4294242293
-12.72844 789.63043 862.41345 4282793763
-10.910091 791.02057 863.58557 4282531385
41.822018 791.02057 863.58557 4294636795
43.640366 789.63043 862.41345 4294440186
-12.689908 793.84094 862.03949 4282727729
41.695412 794.53394 862.62378 4294769148
43.508255 793.14801 861.4552 4294505979
-12.651376 798.72974 862.23743 4282990907
41.568806 799.42065 862.82001 4294506235
-12.612844 802.9129 861.84058 4283451455
43.244038 802.9129 861.84058 4294374906
-12.612844 804.29047 863.00208 4283451457
41.442204 804.29047 863.00208 4294835709
43.244038 804.29047 863.00208 4294505979
-13.472477 808.45679 862.59094 4283779644
43.111927 808.45679 862.59094 4294702843
-16.117432 811.24139 861.01477 4283648837
-14.326606 812.61047 862.16919 4284175435
44.770641 811.9259 861.59198 4294702842
-13.431192 813.97961 863.32349 4284502347
43.829357 814.67615 862.60278 4294571256
-14.297248 816.73895 863.03406 4284568142
44.678898 816.73895 863.03406 4294176244
-21.379816 821.54846 863.16528 4285094486
-19.598166 820.86743 862.591 4284962899
-16.925688 820.86743 862.59094 4284897106
-14.253211 821.54846 863.16528 4285094486
46.322937 820.86743 862.591 4294242292
48.104588 821.54846 863.16528 4294571256
-21.313761 826.34113 863.28223 4286015588
-19.537615 826.34113 863.28223 4285555037
-17.761467 826.34113 863.28223 4285487707
-3.7100918 761.23761 864.63391 4287067476
35.35046 759.0639 866.7251 4294504443
-3.7100918 762.65576 865.82971 4286936672
35.245872 762.65576 865.82971 4294505208
-3.6990826 766.23926 864.92712 4288515708
-1.8495413 767.65326 866.11938 4289304468
37.915596 766.94629 865.52332 4294571513
-10.142202 769.81433 864.01746 4287068260
-7.3761468 769.81433 864.01746 4287790963
-4.6100917 769.81433 864.01746 4288646533
40.568806 769.81433 864.01746 4293979635
-9.8348627 771.69403 865.60229 4287133796
-7.3761468 771.92902 865.80042 4287922036
-4.9174314 772.164 865.99854 4289171850
38.72477 771.92902 865.80042 4294572028
40.568806 771.22412 865.20605 4294506746
-13.788991 774.78662 864.28577 4286606439
-10.418349 775.72363 865.07587 4287265903
40.447708 775.48938 864.8783 4294506235
-10.095413 778.66986 865.59796 4283912007
-7.3541284 777.59772 866.65601 4284436554
-5.5155964 777.59772 866.65601 4284436554
38.609173 777.59772 866.65601 4294636282
40.326607 779.742 864.53992 4294307832
-9.1651373 781.14337 865.72156 4282726190
-7.3321099 782.54474 866.90308 4282136883
-5.4990826 782.54474 866.90308 4282005041
38.49358 782.54474 866.90308 4294637308
40.326607 781.14337 865.72156 4294571004
-9.1376143 784.68054 864.77991 4282660656
40.205505 784.68054 864.77991 4294373625
-7.310092 786.0777 865.95801 4282595131
38.377983 786.0777 865.95801 4294834943
40.205505 786.0777 865.95801 4294636799
-9.1100922 790.29877 865.59296 4282465592
-7.2880735 790.99524 866.18018 4282727737
38.262386 790.99524 866.18018 4294834430
40.084404 789.60229 865.00574 4294571002
-10.303975 793.33759 865.53906 4282859576
40.00367 793.10583 865.34375 4294834941
-10.877064 797.30579 864.96094 4282991675
39.882568 797.30579 864.96094 4294637308
-10.877064 798.69177 866.12964 4283320385
38.069725 798.69177 866.12964 4294769150
39.882568 798.69177 866.12964 4294440699
-9.9403667 802.87494 865.73254 4283649091
37.954128 803.5658 866.31506 4294768637
39.761467 802.87494 865.73254 4294638331
-10.811009 805.66797 864.16357 4283714630
41.442204 805.66797 864.16357 4294835455
-9.9100914 807.73425 865.9057 4283977545
-7.2073393 808.42297 866.48645 4284436554
40.541283 807.73425 865.90564 4294769148
-12.574312 810.51672 864.32776 4284175435
-10.777982 811.20337 864.90674 4284240204
41.315598 811.89008 865.48572 4294636795
43.111927 810.51672 864.32776 4294702842
-12.53578 815.34869 864.47791 4284633935
-10.744954 815.34869 864.47791 4284633935
-8.0834866 813.26337 866.64368 4284765007
40.354126 814.30603 865.56079 4294439415
42.979816 815.34869 864.47791 4294044658
-13.403669 818.10522 864.18616 4284831314
-10.744954 817.40234 866.20953 4284831314
41.188992 817.40234 866.20953 4294571514
43.829357 817.4115 864.90924 4294374392
-13.105809 820.38239 866.10614 4285422679
43.78532 820.15472 865.91418 4294440185
-21.379816 822.91052 864.31372 4285225815
-19.598166 822.91052 864.31372 4285094486
-16.628746 823.36456 864.69653 4285422169
-14.253211 824.27264 865.46216 4285553754
46.322937 823.59155 864.88794 4294505463
48.104588 822.91052 864.31372 4294768635
-19.537615 827.69904 864.42712 4285949795
-16.898165 826.66687 865.51892 4285488996
-17.761467 829.05688 865.57202 4286017133
11.229358 753.28558 869.70117 4291081397
29.944954 753.28558 869.70117 4294372855
31.722937 755.4635 867.61353 4294307062
-1.866055 756.89014 868.81641 4287330905
29.85688 756.89014 868.81641 4294372857
31.722937 756.89014 868.81641 4294175735
33.588989 756.89014 868.81641 4294372857
-1.8605504 760.48627 867.92444 4286739549
29.768806 761.90869 869.12378 4294570488
31.629358 761.90869 869.12378 4294833660
33.48991 761.19751 868.52411 4294571256
-1.8550459 764.07397 867.02551 4288318073
35.245872 764.07397 867.02551 4294768633
34.318352 766.20129 868.81909 4294571258
-3.6990826 769.06726 867.31152 4288974222
-1.8495413 769.77429 867.90765 4289895067
35.141285 770.48126 868.50378 4294637308
36.990826 769.77429 867.90765 4294506235
0 771.89526 869.69604 4290093220
29.592661 771.89526 869.69604 4294176244
31.442202 771.89526 869.69604 4294966783
34.216515 771.89526 869.69604 4294768893
-7.3761468 774.0437 867.5835 4287923317
-4.302752 774.51367 867.97974 4287790199
-1.8440367 775.45343 868.77222 4287065713
34.114677 776.86328 869.96094 4294702590
37.495411 774.51367 867.97974 4294571258
-7.3541284 779.0033 867.84119 4282725940
-4.5963302 779.0033 867.84119 4282724404
37.689907 779.0033 867.84119 4294702590
-3.6770642 780.40887 869.02637 4282332459
-1.8385321 780.40887 869.02637 4282266665
36.770641 780.40887 869.02637 4294440186
-4.2770638 784.41327 868.47858 4282858042
-1.8330275 785.34747 869.26636 4282923833
36.660549 783.94611 868.08472 4294703357
-7.310092 787.47485 867.13599 4282727737
-4.8733945 788.40631 867.92139 4282727224
37.159634 787.94061 867.52863 4294571259
-3.655046 790.26917 869.49207 4283056184
-1.827523 790.26917 869.49207 4283056184
32.895412 790.26917 869.49207 4294966015
34.722935 790.26917 869.49207 4294768637
36.550457 790.26917 869.49207 4294767867
-7.2880735 793.08466 867.94196 4283057210
-4.8587155 793.31683 868.1377 4283188538
-1.8220184 793.78113 868.52917 4283254329
37.351379 793.08466 867.94196 4294768124
-9.0917435 795.88611 867.68799 4283123262
-7.2733946 797.27625 868.86011 4283254847
-4.8550458 796.10645 869.61786 4283320125
-1.8220184 795.17407 869.70374 4283516987
32.796329 795.17407 869.70374 4294965759
34.583485 796.57269 869.57495 4294636795
36.973087 796.58124 868.27411 4294768638
-9.0642204 800.0777 867.29822 4283517502
38.069725 800.0777 867.29822 4294966783
-7.2513762 801.46362 868.4668 4283846213
-4.5321102 802.84955 869.63538 4284174657
-1.812844 802.84955 869.63538 4284044097
34.444038 802.84955 869.63538 4294966526
36.256882 801.46362 868.4668 4294373879
-9.0366974 804.94751 867.4801 4283912008
-7.2293577 804.94751 867.4801 4284371009
37.050461 805.63837 868.06262 4294702841
-9.0091743 809.80054 867.64795 4284502349
-7.2073393 809.80054 867.64795 4284568142
-4.5100918 808.75574 868.72906 4284568142
-1.8018348 809.80054 867.64795 4284633935
34.339451 807.71094 869.81018 4294834428
36.992661 808.75574 868.72906 4294571256
39.640366 809.80054 867.64795 4294571002
-4.2042813 811.63721 869.19659 4284830802
-1.8018348 811.86682 869.3902 4284896853
32.433029 812.55554 869.97095 4294966783
34.234863 812.55554 869.97095 4294966527
36.63731 811.63721 869.19659 4294570999
-8.0834866 814.63666 867.80164 4284962133
-5.3889909 814.63666 867.80164 4285092951
37.722935 814.63666 867.80164 4294637047
39.519264 814.63666 867.80164 4294702844
-8.0834866 816.01001 868.95959 4285028693
-4.4908257 816.01001 868.95959 4285225815
-1.7963303 816.01001 868.95959 4285225815
37.722935 816.01001 868.95959 4294702840
39.519264 816.01001 868.95959 4294440186
-10.744954 819.45599 867.94104 4285423449
-8.0587158 820.82513 869.09546 4285620573
35.816513 820.82513 869.09546 4294110451
37.607338 820.14056 868.51825 4294637050
40.293579 819.45599 867.94104 4294373879
-13.403669 823.57043 868.79419 4285752416
-10.722936 822.2041 867.64221 4285555037
37.530273 824.93671 869.94629 4294308086
40.21101 823.57031 868.79425 4294308344
43.487461 822.65948 868.02618 4294374135
13.139449 749.67261 870.57898 4291870911
15.955046 749.67261 870.57898 4292264649
19.709175 749.67261 870.57898 4292595149
22.524771 749.67261 870.57898 4292596696
25.340366 749.67261 870.57898 4293189346
28.155964 749.67261 870.57898 4294176496
0.93853211 751.10767 871.78894 4289566620
4.3798165 751.586 872.1922 4290159525
7.5082569 751.8252 872.39392 4290816434
9.3853207 751.10767 871.78894 4291408313
13.139449 751.10767 871.78894 4291805120
15.955046 751.82513 872.39392 4292133828
19.709175 751.8252 872.39392 4292530126
22.524771 751.8252 872.39392 4292530903
25.027521 751.586 872.1922 4293123296
28.155964 751.10767 871.78894 4294307312
0.93577981 754.71637 870.90771 4288383648
5.6146789 754.71637 870.90771 4290620846
10.293578 754.71637 870.90771 4291146169
13.100918 754.71637 870.90771 4291804868
26.201836 754.71637 870.90771 4293189088
28.073395 754.71637 870.90771 4294373361
0.93577981 756.14722 872.11414 4287267706
4.6788988 756.14722 872.11414 4289701797
7.4862385 756.14722 872.11414 4290751666
10.293578 756.14722 872.11414 4291146681
14.036697 756.14722 872.11414 4292001987
16.844036 756.14722 872.11414 4292528327
19.651377 756.14722 872.11414 4292661199
22.458715 756.14722 872.11414 4292267988
25.266056 756.14722 872.11414 4293057246
28.965137 757.23193 871.06671 4294241523
31.722937 758.31671 870.01929 4294570491
1.2440367 760.21893 871.62311 4288712834
4.6651373 761.16992 872.42505 4290815908
7.46422 761.16992 872.42505 4291015602
18.660551 761.16992 872.42505 4292529610
22.39266 761.16992 872.42505 4292529872
25.502752 760.6944 872.02411 4293056987
27.990826 760.45667 871.82361 4294307310
0.62018347 764.27948 871.12274 4289698712
29.768806 764.04236 870.92279 4294636539
31.629358 764.04236 870.92279 4294768125
1.8605504 766.1759 872.7218 4290357160
4.6513758 766.1759 872.7218 4291014320
7.4422016 766.1759 872.7218 4291146670
25.117432 766.1759 872.7218 4293057755
27.908257 766.1759 872.7218 4294175983
0.92752296 769.03772 871.21069 4290290855
4.6376147 769.74677 871.80859 4291211448
28.753212 769.03772 871.21069 4294110706
31.53578 768.32861 870.61279 4294965759
