# .PCD v0.7 - Point Cloud Data file format
VERSION 0.7
FIELDS x y z rgb
SIZE 4 4 4 4
TYPE F F F U
COUNT 1 1 1 1
WIDTH 1159
HEIGHT 1
VIEWPOINT 0 0 0 1 0 0 0
POINTS 1159
DATA ascii
-25.566055 760.30334 1277.1836 4289508828
-21.913761 760.30341 1277.1836 4288851157
-19.478899 761.23413 1277.9684 4288917714
-24.238533 770.10547 1277.6003 4289047756
-24.14679 776.53674 1276.4828 4288981461
-24.055046 782.93982 1275.3417 4289376466
-31.271559 784.77881 1276.8922 4287798713
-28.866055 784.77881 1276.8922 4287667645
-25.257797 784.77881 1276.8922 4288785871
-21.649542 784.77881 1276.8922 4288719565
-19.244038 784.77881 1276.8922 4288653770
-16.838531 784.77881 1276.8922 4289048528
-13.230275 784.77881 1276.8922 4289378783
-22.765137 791.14691 1275.7214 4288982224
-19.170643 791.14691 1275.7214 4288851406
-28.755962 792.97894 1277.2662 4288257468
-26.359632 792.97894 1277.2662 4289902292
-22.765137 792.97894 1277.2662 4288784593
-19.170643 792.97894 1277.2662 4288587727
-16.774311 792.97894 1277.2662 4289311707
-30.818348 814.99036 1277.5132 4287862712
-39.104588 754.737 1279.0303 4287008431
-36.660549 754.737 1279.0303 4287468982
-34.216515 754.737 1279.0303 4287468980
-31.772476 754.737 1279.0303 4288192960
-29.32844 754.737 1279.0303 4288849872
-25.662384 754.737 1279.0303 4289902559
-21.99633 754.737 1279.0303 4289244628
-19.552294 754.737 1279.0303 4288655056
-17.108257 754.737 1279.0303 4289181400
-13.442202 754.737 1279.0303 4291088630
-9.7761469 754.737 1279.0303 4292798719
-43.992661 756.60547 1280.6058 4286547880
-40.326607 756.60547 1280.6058 4287205295
-36.660549 756.60547 1280.6058 4287665330
-34.216515 756.60547 1280.6058 4287469234
-19.552294 756.60547 1280.6058 4288655056
-17.108257 756.60547 1280.6058 4288918227
-13.442202 756.60547 1280.6058 4290300909
-9.7761469 756.60547 1280.6058 4292668159
-7.3321099 756.60547 1280.6058 4292865535
-41.392662 763.09564 1279.538 4287007653
-37.740364 763.09564 1279.538 4287533479
-34.088074 763.09564 1279.538 4287600569
-31.653212 763.09564 1279.538 4288192706
-29.218349 763.09564 1279.538 4288389830
-25.566055 763.09564 1279.538 4289245400
-21.913761 763.09564 1279.538 4289114073
-19.478899 763.09564 1279.538 4288917462
-17.044037 763.09564 1279.538 4289246427
-14.609175 763.09564 1279.538 4289181661
-31.510092 773.81165 1280.7252 4288127680
-29.086239 772.88513 1279.9441 4287930815
-25.854433 772.57623 1279.6836 4288653771
-21.814678 773.81165 1280.7252 4288783825
-19.390825 773.81165 1280.7252 4288653270
-16.966972 773.81165 1280.7252 4289245408
-13.331193 773.81165 1280.7252 4289707743
-9.6954126 773.81165 1280.7252 4291153911
-7.2715597 773.81165 1280.7252 4292008959
-4.8477063 773.81165 1280.7252 4291877887
-2.4238532 773.81165 1280.7252 4292075263
-31.390825 778.38275 1278.0393 4287864761
-28.976147 778.38275 1278.0393 4288126654
-25.35413 778.38275 1278.0393 4289309904
-21.732111 778.38275 1278.0393 4289177807
-19.31743 778.38275 1278.0393 4288653009
-16.902752 778.38275 1278.0393 4289442269
-13.280734 778.38275 1278.0393 4289707741
-33.805504 780.22882 1279.5958 4287404459
-31.390825 780.22882 1279.5958 4287799217
-28.976147 780.22882 1279.5958 4287930304
-26.561468 780.22882 1279.5958 4288719819
-21.732111 780.22882 1279.5958 4289376466
-19.31743 780.22882 1279.5958 4289048015
-16.902752 780.22882 1279.5958 4289574359
-13.280734 780.22882 1279.5958 4289576156
-9.6587152 780.22882 1279.5958 4290890480
-7.2440367 780.22882 1279.5958 4291877631
-4.8293576 780.22882 1279.5958 4291746047
-2.4146788 780.22882 1279.5958 4292535295
-36.082569 788.45691 1279.9935 4287140270
-33.677063 787.53735 1279.2183 4287205813
-31.271559 787.53735 1279.2183 4287929279
-28.866055 787.53735 1279.2183 4287798203
-25.658716 787.2309 1278.9598 4289048014
-21.649542 786.61786 1278.4429 4288850635
-19.244038 786.61786 1278.4429 4288719819
-16.838531 787.53735 1279.2183 4288851406
-13.230275 787.53735 1279.2183 4289378274
-9.6220188 787.53735 1279.2183 4290430703
-7.2165136 787.53735 1279.2183 4291417341
-4.8110094 787.53735 1279.2183 4291219962
-2.4055047 788.45691 1279.9935 4291483903
0 788.45691 1279.9935 4291746559
-28.755962 794.81097 1278.8109 4288191673
-26.359632 794.81097 1278.8109 4289112774
-22.765137 794.81097 1278.8109 4288718799
-19.170643 794.81097 1278.8109 4288587466
-16.774311 794.81097 1278.8109 4289113810
-14.377981 794.81097 1278.8109 4288589261
-11.981651 794.81097 1278.8109 4289642205
-33.548622 796.64294 1280.3556 4287665582
-31.152294 796.64294 1280.3556 4288060340
-28.755962 796.64294 1280.3556 4288060086
-26.359632 796.64294 1280.3556 4289046981
-22.765137 796.64294 1280.3556 4288850125
-19.170643 796.64294 1280.3556 4288521671
-16.774311 796.64294 1280.3556 4289113808
-14.377981 796.64294 1280.3556 4288720331
-11.981651 796.64294 1280.3556 4289904861
-4.7926607 796.64294 1280.3556 4291482869
-33.420185 802.96198 1279.1434 4287338155
-31.033028 802.96198 1279.1434 4287666864
-28.645872 802.96198 1279.1434 4287929533
-26.258715 802.96198 1279.1434 4289376980
-33.420185 804.78699 1280.6823 4287535026
-31.033028 804.78699 1280.6823 4287535026
-28.645872 804.78699 1280.6823 4287600823
-26.258715 804.78699 1280.6823 4289442771
-22.677982 804.78699 1280.6823 4289244365
-30.937614 808.72467 1278.7704 4287798454
-28.557798 808.72467 1278.7704 4287798454
-26.177982 808.72467 1278.7704 4289311436
-33.317432 810.54407 1280.3044 4287204779
-30.937614 810.54407 1280.3044 4287796917
-28.557798 810.54407 1280.3044 4287865022
-26.177982 810.54407 1280.3044 4288523208
-22.608257 810.54407 1280.3044 4288457427
-19.038532 810.54407 1280.3044 4287732668
-33.188992 818.61511 1280.5696 4287731374
-30.818348 817.70892 1279.8054 4288060595
-28.447706 817.70892 1279.8054 4287863743
-21.335779 817.70892 1279.8054 4288653523
-18.965137 816.80273 1279.0414 4288193473
-9.4825687 818.61511 1280.5696 4289509853
-7.1119266 818.61511 1280.5696 4291549180
-4.7412844 818.61511 1280.5696 4291548916
-43.992661 758.474 1282.1813 4286481059
-40.326607 758.474 1282.1813 4287138984
-36.660549 758.474 1282.1813 4287797167
-17.108257 758.474 1282.1813 4289115094
-13.442202 758.474 1282.1813 4289644011
-9.7761469 758.474 1282.1813 4290829554
-7.3321099 758.474 1282.1813 4292145407
-46.436699 760.34247 1283.7567 4286678183
-43.992661 760.34247 1283.7567 4286547102
-12.220183 760.34247 1283.7567 4290234605
-9.7761469 760.34247 1283.7567 4290499015
-7.3321099 760.34247 1283.7567 4292670184
-4.8880734 760.34247 1283.7567 4292536063
-2.4440367 760.34247 1283.7567 4292207359
0 760.34247 1283.7567 4292207359
-41.392662 764.95709 1281.1075 4286941862
-37.740364 764.95709 1281.1075 4287401641
-34.088074 764.95709 1281.1075 4287403706
-31.653212 764.95709 1281.1075 4288127428
-29.218349 764.95709 1281.1075 4288521671
-25.566055 764.95709 1281.1075 4289113555
-21.913761 764.95709 1281.1075 4289113558
-19.478899 764.95709 1281.1075 4288719315
-17.044037 764.95709 1281.1075 4289048280
-13.391743 764.95709 1281.1075 4290232804
-9.7394495 764.95709 1281.1075 4290892769
-43.827522 766.8186 1282.6771 4286678181
-41.392662 766.8186 1282.6771 4287007403
-37.740364 766.8186 1282.6771 4287270825
-34.088074 766.8186 1282.6771 4287404223
-31.653212 766.8186 1282.6771 4287864774
-29.218349 766.8186 1282.6771 4288193219
-26.783485 766.8186 1282.6771 4288719819
-21.913761 766.8186 1282.6771 4289376464
-19.478899 766.8186 1282.6771 4288785111
-17.044037 766.8186 1282.6771 4289048026
-13.391743 766.8186 1282.6771 4289706979
-9.7394495 766.8186 1282.6771 4291286008
-7.3045874 766.8186 1282.6771 4292536063
-4.8697248 766.8186 1282.6771 4292601343
-2.4348624 766.8186 1282.6771 4292535551
-37.569725 775.66467 1282.2877 4287074479
-33.933945 775.66467 1282.2877 4287667125
-9.6954126 775.66467 1282.2877 4291022322
-7.2715597 775.66467 1282.2877 4291746046
-4.8477063 775.66467 1282.2877 4291614463
-2.4238532 775.66467 1282.2877 4292075007
0 775.66467 1282.2877 4291812863
-41.205505 777.5177 1283.8501 4287007655
-37.569725 777.5177 1283.8501 4287008684
0 777.5177 1283.8501 4292141055
-41.049541 782.07483 1281.1523 4286941860
-37.427521 782.07483 1281.1523 4287008686
-33.805504 782.07483 1281.1523 4287272369
-9.6587152 782.07483 1281.1523 4290693873
-7.2440367 782.07483 1281.1523 4291417596
-4.8293576 782.07483 1281.1523 4291286012
-2.4146788 782.07483 1281.1523 4291746559
0 782.07483 1281.1523 4291417596
-41.049541 783.9209 1282.709 4287007907
-37.427521 783.9209 1282.709 4287074225
-2.4146788 783.9209 1282.709 4291746047
0 783.9209 1282.709 4291746300
-37.285324 790.2959 1281.5442 4287140517
-33.677063 790.2959 1281.5442 4287731126
-31.271559 790.2959 1281.5442 4288323263
-13.230275 790.2959 1281.5442 4289115861
-9.6220188 790.2959 1281.5442 4290299374
-7.2165136 790.2959 1281.5442 4291352319
-4.8110094 790.2959 1281.5442 4291351285
-2.4055047 790.2959 1281.5442 4291219956
0 790.2959 1281.5442 4291416826
-43.299084 792.13495 1283.0947 4286085783
-40.893578 792.13495 1283.0947 4286743713
-37.285324 792.13495 1283.0947 4287074729
-33.677063 792.13495 1283.0947 4287140272
-31.271559 792.13495 1283.0947 4287995325
-9.6220188 792.13495 1283.0947 4290168045
-7.2165136 792.13495 1283.0947 4291286525
-4.8110094 792.13495 1283.0947 4291482869
-2.4055047 792.13495 1283.0947 4291417076
0 792.13495 1283.0947 4291284727
-38.341286 800.30701 1283.4451 4287008679
-35.146175 799.08563 1282.4152 4287534511
-31.152294 798.47498 1281.9003 4287732657
-28.755962 798.47498 1281.9003 4287929531
-26.359632 798.47498 1281.9003 4289048269
-22.765137 799.39099 1282.6726 4288916425
-19.170643 799.39099 1282.6726 4288521419
-16.774311 799.39099 1282.6726 4288850384
-14.377981 799.39099 1282.6726 4288457163
-10.783486 799.39099 1282.6726 4289904866
-7.1889906 800.30701 1283.4451 4291287546
-4.7926607 799.39099 1282.6726 4291418105
-34.613762 806.61194 1282.2211 4287731889
-22.677982 806.61194 1282.2211 4288916679
-19.097248 806.61194 1282.2211 4288521673
-16.710093 806.61194 1282.2211 4288653259
-14.322936 806.61194 1282.2211 4288587725
-10.742202 806.61194 1282.2211 4289575648
-35.807339 808.43701 1283.7599 4287401639
-16.710093 808.43701 1283.7599 4288259268
-14.322936 808.43701 1283.7599 4288259016
-10.742202 808.43701 1283.7599 4289378271
-7.161468 808.43701 1283.7599 4291089662
-4.774312 808.43701 1283.7599 4291287292
-2.387156 808.43701 1283.7599 4291024119
0 808.43701 1283.7599 4290957811
-33.317432 812.36346 1281.8385 4287336368
-28.557798 812.36346 1281.8385 4287930304
-26.177982 812.36346 1281.8385 4288719819
-22.608257 812.36346 1281.8385 4288588761
-19.038532 812.36346 1281.8385 4288127680
-16.658716 812.36346 1281.8385 4288193473
-14.278899 812.36346 1281.8385 4288193223
-10.709174 812.36346 1281.8385 4289378271
-7.1394496 812.36346 1281.8385 4291023869
-38.077065 814.18286 1283.3726 4286877098
-34.507339 814.18286 1283.3726 4287600304
-26.177982 814.18286 1283.3726 4288850381
-23.798164 814.18286 1283.3726 4288916699
-16.658716 814.18286 1283.3726 4287930302
-14.278899 814.18286 1283.3726 4287930819
-10.709174 814.18286 1283.3726 4289246940
-7.1394496 814.18286 1283.3726 4290826491
-4.7596331 814.18286 1283.3726 4290891768
0 814.18286 1283.3726 4291088115
-33.188992 820.42749 1282.0977 4287797171
-30.818348 820.42749 1282.0977 4288191673
-28.447706 820.42749 1282.0977 4287798715
-26.077065 820.42749 1282.0977 4289048782
-22.521101 820.42749 1282.0977 4289178838
-18.965137 820.42749 1282.0977 4288914630
-16.594496 820.42749 1282.0977 4288848837
-14.223853 820.42749 1282.0977 4288784327
-10.667891 820.42749 1282.0977 4289639637
-7.1119266 820.42749 1282.0977 4291613428
-4.7412844 820.42749 1282.0977 4291284977
-2.3706422 820.42749 1282.0977 4291219183
0 820.42749 1282.0977 4291088113
-33.188992 822.23987 1283.6259 4287796917
-30.818348 822.23987 1283.6259 4288257468
-21.335779 822.23987 1283.6259 4288719052
-18.965137 822.23987 1283.6259 4288850122
-16.594496 822.23987 1283.6259 4288850122
-14.223853 822.23987 1283.6259 4288587718
-10.667891 822.23987 1283.6259 4289442770
-7.1119266 822.23987 1283.6259 4291548403
-4.7412844 822.23987 1283.6259 4291154159
-2.3706422 822.23987 1283.6259 4290956779
0 822.23987 1283.6259 4291022320
-33.060551 830.25482 1283.8436 4287992235
-30.699083 830.25482 1283.8436 4288979130
-49.06422 755.71381 1286.3942 4285560468
-46.611008 754.77606 1285.6035 4286415775
-4.9064221 754.77606 1285.6035 4292273663
-2.4532111 754.77606 1285.6035 4292339455
0 754.77606 1285.6035 4292207359
-52.546791 764.07947 1286.9076 4285757070
-48.880733 763.1452 1286.1199 4285823374
-46.436699 763.1452 1286.1199 4286547097
-43.992661 762.21094 1285.3322 4286678433
-7.3321099 762.21094 1285.3322 4292274422
-4.8880734 762.21094 1285.3322 4292602111
-2.4440367 762.21094 1285.3322 4292273151
0 763.1452 1286.1199 4291944190
-46.262386 769.61078 1285.0314 4286414746
-43.827522 769.61078 1285.0314 4286152344
-41.392662 769.61078 1285.0314 4286941861
-37.740364 769.61084 1285.0314 4287206066
-34.088074 769.61078 1285.0314 4287404217
-31.653212 768.68005 1284.2466 4287864770
-21.913761 768.68005 1284.2466 4288915665
-19.478899 768.68005 1284.2466 4288718804
-17.044037 768.68005 1284.2466 4289113306
-13.391743 768.68005 1284.2466 4289575906
-9.7394495 768.68005 1284.2466 4291219702
-7.3045874 768.68005 1284.2466 4292009215
-4.8697248 768.68005 1284.2466 4292008959
-2.4348624 768.68005 1284.2466 4292140543
0 769.61078 1285.0314 4291878399
-48.477066 779.37079 1285.4126 4285822863
-46.053211 779.37079 1285.4126 4286283414
-43.629356 779.37079 1285.4126 4286020758
-48.477066 781.22388 1286.9751 4285626765
-46.053211 781.22388 1286.9751 4286087316
-43.629356 781.22388 1286.9751 4286218134
2.4238532 781.22388 1286.9751 4291877629
4.8477063 781.22388 1286.9751 4291877631
7.2715597 781.22388 1286.9751 4291943423
-45.878899 785.76697 1284.2655 4286153363
-43.464222 785.76697 1284.2655 4286349725
-41.049541 785.76697 1284.2655 4286876069
-38.634861 785.76697 1284.2655 4286811305
-45.878899 787.61298 1285.822 4286350224
-43.464222 787.61298 1285.822 4286349473
-41.049541 787.61298 1285.822 4286678181
-45.704586 793.974 1284.6454 4286612125
-43.299084 793.974 1284.6454 4286545819
-40.893578 793.974 1284.6454 4286874783
-37.285324 793.974 1284.6454 4287074225
-9.6220188 793.974 1284.6454 4290299628
-7.2165136 793.974 1284.6454 4291155194
-2.4055047 793.974 1284.6454 4291417076
0 793.974 1284.6454 4291350522
-45.704586 795.81299 1286.196 4286282644
-43.299084 795.81299 1286.196 4286873498
-40.893578 795.81299 1286.196 4287136926
-38.488075 795.81299 1286.196 4286678181
-7.2165136 795.81299 1286.196 4291286775
-2.4055047 795.81299 1286.196 4291220469
0 795.81299 1286.196 4291351035
-43.133945 803.97107 1286.5344 4286480539
-40.737614 803.05505 1285.7621 4287270053
-38.341286 803.05505 1285.7621 4287008165
-35.944954 802.13904 1284.9897 4287469230
-19.170643 802.13904 1284.9897 4288980427
-16.774311 802.13904 1284.9897 4289046220
-14.377981 802.13904 1284.9897 4288653772
-10.783486 802.13904 1284.9897 4289576160
-7.1889906 803.05505 1285.7621 4291024634
-4.7926607 803.05505 1285.7621 4291352566
-2.3963304 803.05505 1285.7621 4291023858
0 803.05505 1285.7621 4291088113
-40.58165 812.08698 1286.8374 4287138723
-38.194496 810.26196 1285.2987 4287007657
-35.807339 810.26196 1285.2987 4287402159
-4.774312 810.26196 1285.2987 4291154942
-2.387156 811.17444 1286.0681 4290891769
1.193578 811.17444 1286.0681 4291088373
-38.077065 816.91199 1285.6736 4287336367
-35.697247 816.91199 1285.6736 4287731125
-26.177982 816.00226 1284.9066 4288785359
-23.798164 816.00226 1284.9066 4289114071
-19.038532 816.00226 1284.9066 4288258501
-16.658716 816.00226 1284.9066 4288126915
-14.278899 816.00226 1284.9066 4288127174
-11.899082 816.00226 1284.9066 4289180118
-2.3798165 816.00226 1284.9066 4291417330
0 816.00226 1284.9066 4291088115
-33.188992 824.05225 1285.1539 4287927224
-30.818348 824.05225 1285.1539 4288453568
-21.335779 824.05225 1285.1539 4288785109
-18.965137 824.05225 1285.1539 4288850120
-16.594496 824.05225 1285.1539 4288850120
-14.223853 824.05225 1285.1539 4288587718
-10.667891 824.05225 1285.1539 4289377490
-7.1119266 824.05225 1285.1539 4291088365
-4.7412844 824.05225 1285.1539 4290825711
-2.3706422 824.05225 1285.1539 4290891504
0 824.05225 1285.1539 4290628848
-33.188992 825.86462 1286.6821 4288584382
-30.818348 825.86462 1286.6821 4289110982
-18.965137 825.86462 1286.6821 4288784325
-16.594496 825.86462 1286.6821 4288850374
-14.223853 825.86462 1286.6821 4288719304
-10.667891 825.86462 1286.6821 4289377492
-7.1119266 825.86462 1286.6821 4290891502
-4.7412844 825.86462 1286.6821 4291022318
-2.3706422 825.86462 1286.6821 4291482869
0 825.86462 1286.6821 4290956527
-7.0844035 832.06018 1285.366 4290891756
-4.7229357 832.96289 1286.1271 4290824684
-52.744034 757.58936 1287.9755 4285494152
-49.06422 757.58936 1287.9755 4285822874
2.4532111 757.58936 1287.9755 4292273151
-52.744034 759.46484 1289.5569 4285428875
2.4532111 759.46484 1289.5569 4292009727
4.9064221 759.46484 1289.5569 4292008703
-56.212845 765.94794 1288.4832 4285230465
-52.546791 765.94794 1288.4832 4285625484
-48.880733 765.94794 1288.4832 4286151828
2.4440367 765.94794 1288.4832 4291549951
4.8880734 765.94794 1288.4832 4291484155
-48.697247 772.40302 1287.3857 4286085268
-46.262386 772.40302 1287.3857 4286545819
-43.827522 772.40302 1287.3857 4286349209
-41.392662 772.40302 1287.3857 4287138725
-51.132111 774.26447 1288.9552 4286085781
-48.697247 774.26447 1288.9552 4286019988
-46.262386 774.26447 1288.9552 4286480539
-43.827522 774.26447 1288.9552 4286283675
2.4348624 774.26447 1288.9552 4292075007
4.8697248 774.26447 1288.9552 4292009215
7.3045874 774.26447 1288.9552 4292075007
9.7394495 774.26447 1288.9552 4292009727
-49.688992 783.0769 1288.5375 4285561227
2.4238532 783.0769 1288.5375 4291614973
4.8477063 783.0769 1288.5375 4291286010
7.2715597 783.0769 1288.5375 4291548926
-48.293579 790.38202 1288.1567 4285756556
-45.878899 789.45898 1287.3785 4286348689
2.4146788 790.38202 1288.1567 4291416314
4.8293576 790.38202 1288.1567 4291482361
7.2440367 791.30505 1288.9351 4291745276
-48.110092 797.65204 1287.7466 4285558923
-45.704586 797.65204 1287.7466 4285887888
-43.299084 797.65204 1287.7466 4286414484
-40.893578 797.65204 1287.7466 4287467173
-2.4055047 797.65204 1287.7466 4291089397
0 797.65204 1287.7466 4291351035
-45.704586 799.49109 1289.2972 4286215822
-43.299084 799.49109 1289.2972 4286414230
-43.133945 805.80304 1288.0791 4286480539
-40.737614 805.80304 1288.0791 4287072676
-38.341286 805.80304 1288.0791 4287072930
-43.133945 807.63507 1289.6239 4286349207
-40.737614 807.63507 1289.6239 4287072930
2.3963304 807.63507 1289.6239 4291614973
-40.58165 814.82446 1289.1456 4287205031
2.387156 814.82446 1289.1456 4291022321
4.774312 814.82446 1289.1456 4291219701
7.161468 815.73694 1289.915 4291153907
-38.077065 821.46045 1289.5088 4287205029
-35.697247 820.55072 1288.7417 4287665581
-28.557798 820.55072 1288.7417 4287994554
-26.177982 820.55072 1288.7417 4289508050
-23.798164 820.55072 1288.7417 4289311193
2.3798165 820.55072 1288.7417 4290957041
4.7596331 820.55072 1288.7417 4291088114
7.1394496 821.46045 1289.5088 4291088115
-35.559631 827.677 1288.2102 4287465637
-28.447706 827.677 1288.2102 4288782778
-26.077065 827.677 1288.2102 4289835723
-22.521101 827.677 1288.2102 4289376482
-14.223853 827.677 1288.2102 4288850887
-10.667891 827.677 1288.2102 4289114575
-7.1119266 827.677 1288.2102 4290759916
-4.7412844 827.677 1288.2102 4290890734
-2.3706422 827.677 1288.2102 4290693356
0 827.677 1288.2102 4290693360
-2.3706422 829.48938 1289.7384 4290824426
0 829.48938 1289.7384 4290693360
-56.634861 754.83624 1292.1943 4285033863
4.9247708 754.83624 1292.1943 4292337919
7.387156 754.83624 1292.1943 4292337919
-58.877064 761.34033 1291.1383 4284440692
-56.423855 761.34033 1291.1383 4285361794
2.4532111 761.34033 1291.1383 4291878397
4.9064221 761.34033 1291.1383 4291615487
7.359633 761.34033 1291.1383 4292010239
9.8128443 761.34033 1291.1383 4292271871
12.266055 761.34033 1291.1383 4292206079
-61.330276 763.21582 1292.7196 4284506485
-58.877064 763.21582 1292.7196 4284901243
7.359633 763.21582 1292.7196 4291878911
9.8128443 763.21582 1292.7196 4291483903
13.492661 763.21582 1292.7196 4291812607
-56.212845 767.81641 1290.0586 4285098626
-52.546791 767.81641 1290.0586 4285164420
-48.880733 767.81641 1290.0586 4286019990
2.4440367 767.81641 1290.0586 4292075519
4.8880734 767.81641 1290.0586 4292075513
7.3321099 767.81641 1290.0586 4292601855
-56.212845 769.68494 1291.634 4285164166
-52.546791 769.68494 1291.634 4285493383
2.4440367 769.68494 1291.634 4291812863
4.8880734 769.68494 1291.634 4291812604
7.3321099 769.68494 1291.634 4292009983
9.7761469 769.68494 1291.634 4291747071
13.442202 769.68494 1291.634 4291878911
-56.001835 776.12592 1290.5248 4285033863
-52.349541 776.12592 1290.5248 4285559691
2.4348624 776.12592 1290.5248 4291746559
4.8697248 776.12592 1290.5248 4291746559
7.3045874 776.12592 1290.5248 4291812351
9.7394495 776.12592 1290.5248 4291812351
13.391743 776.12592 1290.5248 4291680510
-56.001835 777.98743 1292.0944 4285099656
-52.349541 777.98743 1292.0944 4285297800
9.7394495 777.98743 1292.0944 4291877631
13.391743 777.98743 1292.0944 4291746047
-49.688992 784.92993 1290.1 4285692554
2.4238532 784.92993 1290.1 4291482619
4.8477063 784.92993 1290.1 4291482619
7.2715597 784.92993 1290.1 4291943167
9.6954126 784.92993 1290.1 4291614458
-53.324772 786.78302 1291.6624 4285034115
-50.900917 786.78302 1291.6624 4285494666
7.2715597 786.78302 1291.6624 4291614462
9.6954126 786.78302 1291.6624 4291352316
-53.122936 794.99713 1292.0481 4284769662
-49.903362 793.76642 1291.0104 4285362311
2.4146788 794.0741 1291.2698 4291482621
4.8293576 794.0741 1291.2698 4291285496
7.2440367 794.0741 1291.2698 4291351032
-48.110092 802.24963 1291.6232 4285888140
-45.704586 802.24963 1291.6232 4286480277
2.4055047 802.24963 1291.6232 4291088882
4.8110094 802.24963 1291.6232 4290957303
7.2165136 803.16913 1292.3984 4290957561
21.649542 803.16913 1292.3984 4291483903
-45.530273 809.46704 1291.1686 4286414484
-43.133945 809.46704 1291.1686 4286217621
4.7926607 809.46704 1291.1686 4291088115
-46.728439 811.29907 1292.7133 4286282896
-43.133945 811.29907 1292.7133 4286283929
7.1889906 811.29907 1292.7133 4291548666
-40.58165 817.56201 1291.4539 4287468710
-38.194496 817.56201 1291.4539 4287468458
7.161468 817.56201 1291.4539 4291088113
9.548624 817.56201 1291.4539 4291022322
-46.549541 819.38696 1292.9927 4285825429
-42.968807 819.38696 1292.9927 4286744478
-40.58165 819.38696 1292.9927 4287402665
10.742202 819.38696 1292.9927 4291088115
-40.456882 823.27979 1291.0428 4287795883
-38.077065 823.27979 1291.0428 4287532968
-35.697247 823.27979 1291.0428 4288322227
-28.557798 823.27979 1291.0428 4288650942
-22.608257 823.27979 1291.0428 4289048029
2.3798165 823.27979 1291.0428 4290956527
4.7596331 823.27979 1291.0428 4291022068
-40.456882 825.09918 1292.5769 4286346127
-38.077065 825.09918 1292.5769 4286544535
-19.038532 825.09918 1292.5769 4288718534
-16.658716 825.09918 1292.5769 4288981707
-2.3706422 831.30176 1291.2666 4290890734
-56.634861 756.71875 1293.7816 4285230211
7.387156 756.71875 1293.7816 4292469247
9.8495417 756.71875 1293.7816 4292403964
12.311927 756.71875 1293.7816 4292272122
-63.783485 766.9668 1295.8823 4284243570
-61.330276 766.02905 1295.0917 4284440695
-58.877064 766.02905 1295.0917 4284506490
9.8128443 765.09131 1294.301 4292009983
13.492661 765.09131 1294.301 4291943934
-64.766968 773.42188 1294.7849 4284505206
-61.100918 772.48767 1293.9972 4284637556
-58.656879 772.48767 1293.9972 4284375932
-56.212845 771.55341 1293.2095 4285033863
-53.768806 771.55341 1293.2095 4285230728
13.442202 771.55341 1293.2095 4292009727
-56.001835 779.84888 1293.6639 4285033863
-53.566971 779.84888 1293.6639 4284837506
9.7394495 779.84888 1293.6639 4291350522
12.174312 779.84888 1293.6639 4291679231
-56.001835 781.71033 1295.2334 4285099656
-53.566971 781.71033 1295.2334 4284968835
13.391743 781.71033 1295.2334 4291482876
-55.748623 788.63611 1293.2249 4285033083
-53.324772 788.63611 1293.2249 4284902274
-50.900917 788.63611 1293.2249 4285099910
9.6954126 788.63611 1293.2249 4291548666
16.966972 788.63611 1293.2249 4291812095
-55.748623 790.48914 1294.7874 4285032829
-53.324772 790.48914 1294.7874 4284836479
9.6954126 790.48914 1294.7874 4291351031
-49.500916 796.8432 1293.6047 4286018443
2.4146788 796.8432 1293.6047 4291351031
4.8293576 796.8432 1293.6047 4291417080
7.2440367 796.8432 1293.6047 4291482873
-53.122936 798.68921 1295.1613 4285228927
-50.708256 798.68921 1295.1613 4286084236
7.2440367 798.68921 1295.1613 4291548926
16.902752 798.68921 1295.1613 4291351535
19.31743 798.68921 1295.1613 4291286525
-55.326607 806.84717 1295.4998 4285557638
-52.921101 806.84717 1295.4998 4285493382
-49.312843 805.92767 1294.7244 4285690506
-45.704586 805.00818 1293.9491 4286610841
4.8110094 805.00818 1293.9491 4291220215
7.2165136 805.92767 1294.7244 4291417337
9.6220188 806.84717 1295.4998 4290891768
-50.322937 814.96313 1295.8027 4286085270
-46.728439 814.04712 1295.0303 4286217876
-43.133945 814.04712 1295.0303 4286349975
10.783486 814.04712 1295.0303 4291022322
14.377981 814.96313 1295.8027 4291022322
16.774311 814.96313 1295.8027 4291482873
21.566973 814.96313 1295.8027 4290825711
-45.355965 821.21198 1294.5314 4286941342
-42.968807 821.21198 1294.5314 4287138210
-26.258715 821.21198 1294.5314 4289572044
7.161468 821.21198 1294.5314 4291087862
10.742202 821.21198 1294.5314 4291285494
-40.456882 826.91858 1294.111 4285557892
-66.236694 768.84229 1297.4637 4284177270
-63.783485 768.84229 1297.4637 4284177772
-63.544952 775.29034 1296.3604 4284309363
-61.100918 775.29034 1296.3604 4284506485
-58.656879 775.29034 1296.3604 4284310139
-63.544952 777.15887 1297.9358 4284243570
-61.100918 777.15887 1297.9358 4284309363
-58.656879 777.15887 1297.9358 4284112761
14.66422 777.15887 1297.9358 4291547899
-60.871559 785.43329 1298.3726 4284572280
-58.436699 785.43329 1298.3726 4284901241
-56.001835 783.57184 1296.803 4285164418
13.391744 784.50256 1297.5878 4291286268
-58.172478 793.26868 1297.131 4284966520
-55.748623 793.26868 1297.131 4284966776
-53.324772 794.19525 1297.9122 4284834169
9.6954126 793.26868 1297.131 4291351033
14.543119 794.19525 1297.9122 4291417330
16.966972 794.19525 1297.9122 4291417330
19.390825 794.19525 1297.9122 4291351803
21.814678 794.19525 1297.9122 4291548926
-55.537613 800.53528 1296.7178 4285294722
-53.122936 800.53528 1296.7178 4285032829
-50.708256 800.53528 1296.7178 4285691016
9.6587152 800.53528 1296.7178 4290891514
13.280734 800.53528 1296.7178 4291286267
16.902752 800.53528 1296.7178 4291286262
19.31743 800.53528 1296.7178 4291286523
-65.196327 802.38135 1298.2743 4284440440
-62.781651 802.38135 1298.2743 4284702585
-57.952293 802.38135 1298.2743 4284899967
-55.537613 802.38135 1298.2743 4285623433
-53.122936 802.38135 1298.2743 4285427589
9.6587152 802.38135 1298.2743 4291023356
13.280734 802.38135 1298.2743 4291417343
16.902752 802.38135 1298.2743 4291548415
19.31743 802.38135 1298.2743 4291482619
21.732111 802.38135 1298.2743 4291877375
-55.326607 808.68622 1297.0503 4285491334
-52.921101 808.68622 1297.0503 4285230215
-50.515594 808.68622 1297.0503 4286019474
9.6220188 808.68622 1297.0503 4291351285
14.433027 808.68622 1297.0503 4291482871
16.838531 808.68622 1297.0503 4291482871
21.649542 808.68622 1297.0503 4291548666
-57.732109 810.52527 1298.601 4285228927
-55.326607 810.52527 1298.601 4285097341
-52.921101 810.52527 1298.601 4284703615
-50.515594 810.52527 1298.601 4286085268
13.230275 810.52527 1298.601 4291153909
16.838531 810.52527 1298.601 4291482873
21.649542 810.52527 1298.601 4291482871
-62.304588 817.71118 1298.1198 4284769658
-59.908257 816.79517 1297.3474 4284638073
-55.115597 817.71118 1298.1198 4285493130
-52.719265 817.71118 1298.1198 4285757323
-50.322937 817.71118 1298.1198 4286283411
-47.926605 818.62714 1298.8921 4286546584
14.377981 817.71118 1298.1198 4291219953
16.774311 817.71118 1298.1198 4291417332
19.170643 816.79517 1297.3474 4291220469
-46.549541 823.03699 1296.0702 4285625482
-42.968807 823.94946 1296.8396 4285623173
2.387156 823.94946 1296.8396 4290956276
4.774312 823.94946 1296.8396 4290956528
7.161468 823.94946 1296.8396 4291285494
10.344342 824.25366 1297.0961 4290956532
-61.78899 755.86212 1299.5995 4284506737
-63.544952 779.02734 1299.5114 4284177522
-61.100918 779.02734 1299.5114 4284243316
-58.656879 779.02734 1299.5114 4284310139
-63.544952 780.89581 1301.0868 4284440692
-61.100918 780.89581 1301.0868 4284440692
-58.656879 780.89581 1301.0868 4284769660
-63.306423 787.2948 1299.942 4284179060
-60.871559 787.2948 1299.942 4284310389
-58.436699 787.2948 1299.942 4284704121
13.391743 787.2948 1299.942 4291613946
17.044037 787.2948 1299.942 4291877118
-63.306423 789.15625 1301.5116 4283981426
-60.871559 789.15625 1301.5116 4284441977
13.391743 789.15625 1301.5116 4291482617
17.044037 789.15625 1301.5116 4291746300
19.478899 789.15625 1301.5116 4291482873
-64.232109 797.90137 1301.0371 4284506488
-60.596329 797.90137 1301.0371 4284768376
-58.172478 796.97485 1300.2559 4284834170
-55.748623 796.04828 1299.4746 4285360770
9.6954126 796.04828 1299.4746 4291155194
13.331193 796.04828 1299.4746 4291154932
-61.57431 805.15033 1300.6091 4284965239
-57.952293 805.15039 1300.6091 4284965502
12.878288 804.84271 1300.3497 4291417338
16.902752 804.22736 1299.8308 4291614460
19.31743 806.07336 1301.3873 4291548666
21.732111 804.22736 1299.8308 4291548664
-61.340366 812.36426 1300.1516 4284572281
-57.732109 812.36426 1300.1516 4284899713
-55.326607 812.36426 1300.1516 4285228677
-52.921101 812.36426 1300.1516 4285164168
19.244038 812.36426 1300.1516 4291286262
-57.732109 814.20331 1301.7021 4284834173
-62.304588 820.45917 1300.4368 4284966784
-57.511925 820.45917 1300.4368 4284770436
-55.115597 820.45917 1300.4368 4285099658
-52.719265 820.45917 1300.4368 4285034630
-50.322937 820.45917 1300.4368 4285166216
11.981651 820.45917 1300.4368 4290957046
14.377981 820.45917 1300.4368 4290957299
16.774311 820.45917 1300.4368 4291220215
-46.728439 822.2912 1301.9814 4284902527
14.377981 822.2912 1301.9814 4291088375
16.774311 822.2912 1301.9814 4291286010
19.170643 822.2912 1301.9814 4290957309
1.193578 826.68701 1299.1478 4290693873
4.774312 826.68701 1299.1478 4291154161
7.161468 826.68701 1299.1478 4291088367
10.742202 826.68701 1299.1478 4290890737
14.322936 826.68701 1299.1478 4291023604
16.710093 826.68701 1299.1478 4291155446
19.097248 826.68701 1299.1478 4290694391
10.742202 828.51196 1300.6866 4291022320
14.322936 828.51196 1300.6866 4291088881
16.710093 828.51196 1300.6866 4291615225
-66.732109 761.5307 1304.379 4284047220
-64.260551 759.64117 1302.7859 4284177270
-63.544952 782.76428 1302.6622 4284309109
-63.306423 791.0177 1303.0812 4283586667
-60.871559 791.0177 1303.0812 4284310389
12.174312 791.0177 1303.0812 4291416826
-64.523857 792.87921 1304.6508 4284309621
-60.871559 792.87921 1304.6508 4284638071
-60.596329 799.75439 1302.5996 4284899965
-65.444038 801.60742 1304.162 4284309111
19.390825 801.60742 1304.162 4291548664
-65.196327 809.7655 1304.5005 4284506485
-61.57431 807.91943 1302.9438 4285031032
19.31743 807.91943 1302.9438 4291548664
-67.354126 816.96185 1304.0281 4284703864
-64.948624 816.96185 1304.0281 4284703864
-60.137615 816.96185 1304.0281 4284901244
-57.732109 816.04236 1303.2528 4284639105
19.244038 816.96185 1304.0281 4291089142
-65.444038 803.46051 1305.7245 4284309113
-65.444038 805.3136 1307.2869 4284572280
-65.196327 811.61151 1306.057 4284310135
-64.948624 820.63989 1307.1294 4284247935
-61.741283 820.33344 1306.871 4284442493
-57.732109 820.63989 1307.1294 4284441987
-55.326607 820.63989 1307.1294 4284508037
-52.921101 820.63989 1307.1294 4284442496
-49.71376 820.94647 1307.3878 4284245117
7.1889906 825.9552 1305.0709 4291087602
10.783486 827.78723 1306.6156 4291088367
14.377981 827.78723 1306.6156 4290957295
16.774311 827.78723 1306.6156 4291088881
-68.176147 800.32507 1310.9288 4284309113
-67.867889 808.09314 1309.6306 4284441207
-67.611008 817.14966 1310.7266 4284705915
-64.948624 823.39844 1309.4553 4284115845
-62.543118 823.39844 1309.4553 4283720315
4.8110094 823.39844 1309.4553 4290889967
-68.176147 802.18652 1312.4984 4284243316
-67.611008 818.99573 1312.2831 4284250506
-60.366974 818.99573 1312.2831 4284115325
-67.611008 820.84174 1313.8396 4285628827
-60.366974 820.84174 1313.8396 4283983743
-57.952293 820.84174 1313.8396 4284310406
-55.537613 820.84174 1313.8396 4284244612
-67.354126 825.23749 1311.006 4286485688
-64.948624 825.23749 1311.006 4285498793
7.2165136 825.23749 1311.006 4290956527
16.838531 827.07648 1312.5565 4291220206
-67.611008 824.53381 1316.9528 4287405256
-65.196327 824.53381 1316.9528 4286352312
-61.57431 822.68774 1315.3962 4284642702
-57.952293 822.68774 1315.3962 4284639622
4.8293576 822.68774 1315.3962 4290693356
9.6587152 824.53381 1316.9528 4290890734
13.280734 824.53381 1316.9528 4291022574
-53.324772 818.28497 1318.224 4284179067
-55.748623 820.13806 1319.7865 4284573573
14.488073 826.37988 1318.5093 4290956525
16.902752 826.37988 1318.5093 4291022318
-63.020184 821.99109 1321.3489 4285891752
-60.596329 821.99109 1321.3489 4284378513
-58.172478 821.99109 1321.3489 4284246659
7.2715597 821.99109 1321.3489 4290627816
-67.867889 823.84412 1322.9114 4288522713
-64.232109 823.84412 1322.9114 4287141059
9.6954126 823.84412 1322.9114 4290365419
12.119267 823.84412 1322.9114 4290497262
-67.867889 825.6972 1324.4739 4288655589
-65.444038 825.6972 1324.4739 4287997403
13.331193 825.6972 1324.4739 4290562285
16.966972 825.6972 1324.4739 4290890482
-60.871559 820.80127 1328.1938 4285693355
-58.436699 820.80127 1328.1938 4285364372
16.966972 827.55023 1326.0363 4290759153
16.966972 829.40332 1327.5988 4290693356
-56.212845 816.39709 1331.0205 4284180866
-68.176147 824.52423 1331.333 4289576691
-64.11805 823.90375 1330.8098 4288326107
-60.871559 822.66278 1329.7634 4286352062
-58.436699 822.66278 1329.7634 4285629093
14.609175 824.52423 1331.333 4290429931
14.543119 833.10944 1330.7236 4290561769
16.966972 833.10944 1330.7236 4290693356
19.390825 831.25635 1329.1611 4290693356
9.7761469 820.13403 1334.1714 4290496746
14.609175 826.38568 1332.9026 4290561769
14.609175 828.24719 1334.472 4290627562
17.044037 828.24719 1334.472 4290693356
-56.423855 815.72986 1336.998 4284903821
7.359633 815.72986 1336.998 4290628330
-64.766968 823.87103 1337.3223 4288787684
-61.100918 822.00256 1335.7468 4287799245
-58.656879 822.00256 1335.7468 4287012284
12.220183 822.93677 1336.5345 4290561766
12.174312 830.10864 1336.0416 4290495974
13.391743 831.97009 1337.6112 4290561766
4.9247708 811.31165 1339.813 4290627816
-56.423855 817.60535 1338.5795 4285234336
9.8128443 819.48083 1340.1609 4290627816
9.7761469 826.67371 1339.6855 4290627560
12.220183 825.7395 1338.8978 4290627816
12.174312 833.8316 1339.1807 4290429918
-54.374313 806.87939 1342.6158 4284507521
-51.902752 804.98987 1341.0227 4284179067
7.387156 815.07666 1342.9875 4291088367
-61.330276 821.35632 1341.7422 4287866066
-58.877064 821.35632 1341.7422 4287537343
9.8128443 821.35632 1341.7422 4290693608
7.359633 823.23181 1343.3236 4290496495
9.7761469 829.47644 1342.0487 4290561508
9.7761469 831.34497 1343.6241 4290429918
-12.412844 801.92175 1346.2839 4289639886
-2.4825687 801.92175 1346.2839 4291022322
1.2412844 801.92175 1346.2839 4290693360
-54.374313 808.76892 1344.2091 4284378247
-54.374313 810.65845 1345.8022 4284312452
0 810.65845 1345.8022 4290430953
4.943119 810.65845 1345.8022 4290694123
-56.634861 817.90045 1345.3684 4286419376
7.387156 817.90045 1345.3684 4290693871
7.359633 826.0451 1345.6957 4290364139
7.3321099 833.2135 1345.1997 4290035948
-13.289296 796.82501 1348.5266 4289376718
-9.9669724 796.50757 1348.2589 4289180883
-7.4752293 797.46002 1349.062 4290561767
-52.133945 803.8197 1347.8842 4284573314
-12.412844 803.8197 1347.8842 4289770959
-9.930275 803.8197 1347.8842 4289705177
-7.4477062 803.8197 1347.8842 4290757865
-4.9651375 803.8197 1347.8842 4290561769
-2.4825687 803.8197 1347.8842 4290890734
1.2412844 803.8197 1347.8842 4290627563
-52.133945 805.71765 1349.4845 4284575370
-12.412844 805.71765 1349.4845 4289377752
-9.930275 805.71765 1349.4845 4289640154
-7.4477062 805.71765 1349.4845 4290956014
-4.9651375 805.71765 1349.4845 4290693608
-2.4825687 805.71765 1349.4845 4290956779
1.2412844 805.71765 1349.4845 4290825193
-54.374313 812.54797 1347.3955 4284642952
-51.902752 812.54797 1347.3955 4284182401
0 812.54797 1347.3955 4290561769
4.943119 812.54797 1347.3955 4290693610
-54.374313 814.4375 1348.9886 4285760415
-51.902752 814.4375 1348.9886 4285299864
-2.4715595 814.4375 1348.9886 4290430183
0 814.4375 1348.9886 4290299113
4.943119 814.4375 1348.9886 4290430183
-61.559631 820.72424 1347.7494 4288985065
-59.097248 820.72424 1347.7494 4288129995
-55.403671 820.72424 1347.7494 4287537344
4.9247708 820.72424 1347.7494 4290035944
-59.097248 822.60675 1349.3367 4288524753
-55.403671 822.60675 1349.3367 4287800516
4.9247708 822.60675 1349.3367 4290429931
4.9064221 829.79608 1348.8584 4290298606
7.359633 828.85834 1348.0677 4290561521
-22.508257 792.98425 1351.8285 4289900775
-20.007339 792.98425 1351.8285 4289507021
-16.255962 792.98425 1351.8285 4289375949
-14.950459 799.36499 1350.6682 4289245128
-9.9669724 799.36499 1350.6682 4289377752
-7.4752293 799.36499 1350.6682 4290495976
-4.9834862 799.36499 1350.6682 4290627565
-17.442202 801.26996 1352.2744 4285694620
-14.950459 801.26996 1352.2744 4287599789
-52.133945 807.6156 1351.0848 4284444294
-49.651375 809.51355 1352.6851 4284837000
-12.412844 808.56458 1351.885 4287205282
-9.930275 808.56458 1351.885 4287468737
-7.4477062 808.56458 1351.885 4290495216
-4.9651375 808.56458 1351.885 4290693609
-2.4825687 808.56458 1351.885 4290627815
2.4825687 808.56458 1351.885 4290496489
-54.374313 816.32703 1350.5819 4286483117
-51.902752 817.27179 1351.3784 4286089127
-49.431194 817.27179 1351.3784 4286151823
-7.4146791 817.27179 1351.3784 4290628334
-4.943119 818.21655 1352.175 4290693356
-2.4715595 817.27179 1351.3784 4290495976
1.2357798 817.27179 1351.3784 4290561519
4.943119 816.32703 1350.5819 4290299115
-64.022018 824.48926 1350.924 4290562814
-61.559631 824.48926 1350.924 4289905141
-59.097248 824.48926 1350.924 4288854499
-55.403671 824.48926 1350.924 4288656604
4.9247708 824.48926 1350.924 4290495726
-59.097248 826.37177 1352.5112 4289575921
1.2311927 826.37177 1352.5112 4290824430
-27.510092 794.89624 1353.4406 4286284179
-25.009174 794.89624 1353.4406 4287531445
-22.508257 794.89624 1353.4406 4288057790
-20.007339 794.89624 1353.4406 4289373121
-17.506422 794.89624 1353.4406 4290096843
-50.018349 796.80823 1355.0527 4284244610
-45.016514 796.80823 1355.0527 4284441471
-27.510092 796.80823 1355.0527 4284640120
-25.009174 796.80823 1355.0527 4285362566
-22.508257 796.80823 1355.0527 4287204770
-20.007339 796.80823 1355.0527 4288192174
-17.506422 796.80823 1355.0527 4289310912
-49.834862 803.17493 1353.8806 4284573573
-17.442202 803.17493 1353.8806 4285496978
-14.950459 803.17493 1353.8806 4285956259
-49.834862 805.07983 1355.4868 4284179071
-47.343121 805.07983 1355.4868 4284771208
-44.851376 805.07983 1355.4868 4284837506
-22.425688 805.07983 1355.4868 4285560972
-17.442202 805.07983 1355.4868 4285692558
-14.950459 805.07983 1355.4868 4286021010
-49.651375 811.4115 1354.2854 4285166214
-47.168808 811.4115 1354.2854 4285100421
-13.654128 811.4115 1354.2854 4286283412
-9.930275 811.4115 1354.2854 4285891750
-7.4477062 811.4115 1354.2854 4290168295
-4.9651375 811.4115 1354.2854 4290561769
2.4825687 811.4115 1354.2854 4290364906
-47.168808 813.30945 1355.8857 4285230974
-43.444954 813.30945 1355.8857 4285559693
-24.825687 813.30945 1355.8857 4285822611
-22.343119 813.30945 1355.8857 4285822611
-19.86055 813.30945 1355.8857 4286085781
-17.377981 813.30945 1355.8857 4286349209
-13.654128 813.30945 1355.8857 4285693587
-9.930275 813.30945 1355.8857 4286023088
-4.9651375 813.30945 1355.8857 4290759405
-51.902752 821.05084 1354.5649 4286944954
-49.431194 821.05084 1354.5649 4286614192
-46.959633 821.05084 1354.5649 4286482863
-43.664227 820.7359 1354.2993 4286086307
-19.772476 821.99561 1355.3615 4284839300
-17.300917 821.99561 1355.3615 4284839300
-13.593578 821.99561 1355.3615 4288715957
-9.8862381 821.99561 1355.3615 4290955232
-7.4146791 821.05084 1354.5649 4290758375
-4.943119 821.05084 1354.5649 4290495975
-2.4715595 821.05084 1354.5649 4290430182
1.2357798 821.05078 1354.5649 4290627052
1.2311927 829.19556 1354.8922 4290298852
-46.470642 791.8197 1358.6947 4284244604
-42.702751 791.8197 1358.6947 4284310139
-31.399082 790.8595 1357.885 4286349967
-27.631193 789.89935 1357.0754 4290625738
-25.119267 789.89935 1357.0754 4290427119
-50.018349 798.72021 1356.6648 4284573827
-45.850155 799.99481 1357.7396 4284639615
-30.011009 798.72021 1356.6648 4284771708
-27.510092 799.67615 1357.4709 4284705917
-25.009174 799.67615 1357.4709 4284378244
-22.508257 799.67615 1357.4709 4284641672
-20.007339 799.67615 1357.4709 4284312964
-47.343121 806.98486 1357.093 4285100171
-44.851376 806.98486 1357.093 4285099910
-22.425688 806.98486 1357.093 4285560972
-19.933945 806.98486 1357.093 4285691025
-17.442202 806.98486 1357.093 4285691025
-14.950459 806.98486 1357.093 4285823628
-43.605507 808.88977 1358.6993 4285295749
-39.867889 808.88977 1358.6993 4284967304
-32.392662 808.88977 1358.6993 4285560974
-24.917431 808.88977 1358.6993 4285822863
-22.425688 808.88977 1358.6993 4285822863
-19.933945 808.88977 1358.6993 4285822863
-17.442202 808.88977 1358.6993 4286020242
-47.168808 815.2074 1357.486 4286151826
-43.444954 815.2074 1357.486 4285954197
-32.273396 815.2074 1357.486 4286281879
-28.549541 815.2074 1357.486 4286216599
-24.825687 815.2074 1357.486 4286019215
-22.343119 815.2074 1357.486 4286216338
-19.86055 815.2074 1357.486 4286349207
-17.377981 815.2074 1357.486 4286086035
-13.654128 815.2074 1357.486 4285234576
-9.930275 815.2074 1357.486 4288127678
-55.610092 823.88513 1356.9547 4289181156
-51.902752 823.88513 1356.9547 4288325841
-49.431194 823.88513 1356.9547 4287994825
-46.959633 823.88513 1356.9547 4288060618
-43.252296 823.88513 1356.9547 4286877100
-32.130276 823.88513 1356.9547 4285956513
-28.422935 823.88513 1356.9547 4285824662
-24.715597 823.88513 1356.9547 4285496462
-22.244038 823.88513 1356.9547 4284575360
-19.772476 823.88513 1356.9547 4285692038
-17.300917 823.88513 1356.9547 4287600291
-13.593578 823.88513 1356.9547 4289705433
-9.8862381 823.88513 1356.9547 4291021287
-7.4146791 823.88513 1356.9547 4290626529
-4.943119 823.88513 1356.9547 4290298852
-2.4715595 823.88513 1356.9547 4290298852
-59.317432 825.77466 1358.5479 4289115107
-55.610092 825.77466 1358.5479 4288852188
-51.902752 825.77466 1358.5479 4287865290
-49.431194 825.77466 1358.5479 4288059853
-46.959633 825.77466 1358.5479 4287862473
-44.488075 825.77466 1358.5479 4286943661
-28.422935 825.77466 1358.5479 4284641671
-19.772476 825.77466 1358.5479 4289899199
-17.300917 825.77466 1358.5479 4290886094
-14.829358 825.77466 1358.5479 4290297818
-9.8862381 825.77466 1358.5479 4290562021
-7.4146791 825.77466 1358.5479 4290233057
-4.943119 825.77466 1358.5479 4290035425
-2.4715595 825.77466 1358.5479 4290298854
-40.337616 787.32855 1361.448 4285953170
-37.816513 787.32855 1361.448 4286808223
-35.295414 787.32855 1361.448 4287598227
-47.726604 793.74011 1360.314 4284376453
-35.166973 793.74011 1360.314 4284244864
-31.399082 793.74011 1360.314 4284376699
-47.726604 795.66052 1361.9331 4284573827
-42.702751 795.66052 1361.9331 4284376701
-40.190826 795.66052 1361.9331 4284573566
-37.678898 795.66052 1361.9331 4284770688
-35.166973 795.66052 1361.9331 4284508030
-32.655045 795.66052 1361.9331 4285034630
-42.515594 802.54413 1359.889 4284837506
-40.014679 802.54413 1359.889 4284968581
-31.261467 802.54413 1359.889 4285035657
-27.510092 802.54413 1359.889 4285102220
-25.009174 802.54413 1359.889 4285495179
-20.007339 802.54413 1359.889 4285560972
-42.515594 804.45612 1361.5012 4284968068
-40.014679 804.45612 1361.5012 4284837002
-37.51376 804.45612 1361.5012 4284771208
-35.012844 804.45612 1361.5012 4285298055
-31.261467 804.45612 1361.5012 4285364364
-27.510092 804.45612 1361.5012 4285168015
-25.009174 804.45612 1361.5012 4285495179
-39.867889 811.74719 1361.1086 4285625232
-37.376148 811.74719 1361.1086 4285756818
-34.884403 811.74719 1361.1086 4285691024
-32.392662 810.79474 1360.3055 4285626513
-28.655045 810.79474 1360.3055 4285822879
-39.7211 817.10535 1359.0863 4285428117
-37.238533 817.10535 1359.0863 4285494166
-34.755962 817.10535 1359.0863 4285494166
-32.273396 817.10535 1359.0863 4285888668
-28.549541 817.10535 1359.0863 4286480789
-24.825687 817.10535 1359.0863 4286480789
-22.343119 817.10535 1359.0863 4286678424
-19.86055 817.10535 1359.0863 4286086551
-17.377981 817.10535 1359.0863 4285428621
-13.654128 817.10535 1359.0863 4286154404
-9.930275 817.10535 1359.0863 4289114071
-42.203671 819.0033 1360.6866 4286416297
-39.7211 819.0033 1360.6866 4286022305
-37.238533 819.0033 1360.6866 4286022305
-34.755962 819.0033 1360.6866 4285627801
-32.273396 819.0033 1360.6866 4285890716
-28.549541 819.0033 1360.6866 4286153627
-24.825687 819.0033 1360.6866 4286087829
-22.343119 819.0033 1360.6866 4285627278
-55.610092 827.66418 1360.1411 4288522707
-44.488075 827.66418 1360.1411 4286680484
-28.422935 827.66418 1360.1411 4285694625
-24.715597 827.66418 1360.1411 4287666877
-19.772476 827.66418 1360.1411 4290559457
-17.300917 827.66418 1360.1411 4291020008
-14.829358 827.66418 1360.1411 4290560736
-4.943119 827.66418 1360.1411 4290101218
-2.4715595 827.66418 1360.1411 4290693356
-46.959633 829.55371 1361.7343 4287799497
-44.488075 829.55371 1361.7343 4287931067
-32.130276 829.55371 1361.7343 4289181654
-29.658716 829.55371 1361.7343 4289771213
-19.772476 829.55371 1361.7343 4290297314
-17.300917 829.55371 1361.7343 4290363364
-14.829358 829.55371 1361.7343 4290166500
-42.858715 791.18335 1364.6982 4284375678
-40.337616 791.18335 1364.6982 4284179071
-37.816513 790.21967 1363.8857 4284310659
-35.295414 789.25598 1363.0731 4284115325
-42.702751 797.58093 1363.5524 4285034365
-40.190826 797.58093 1363.5524 4284968833
-37.678898 797.58093 1363.5524 4285034626
-35.166973 797.58093 1363.5524 4285034628
-31.399082 797.58093 1363.5524 4284968835
-30.011009 806.36804 1363.1133 4285364120
-27.510092 806.36804 1363.1133 4285430169
-39.7211 820.90125 1362.2869 4286219429
-37.238533 820.90125 1362.2869 4286219429
-34.755962 820.90125 1362.2869 4285758878
-42.203671 822.79913 1363.8872 4286219681
-39.7211 822.79913 1363.8872 4285628575
-37.238533 822.79913 1363.8872 4285431453
-34.755962 822.79913 1363.8872 4284641165
-32.273396 822.79913 1363.8872 4284641165
-24.825687 822.79913 1363.8872 4286086551
-22.343119 822.79913 1363.8872 4287665582
-12.412844 822.79913 1363.8872 4290429405
-28.422935 831.44324 1363.3275 4290691554
-24.715597 831.44324 1363.3275 4290692326
-22.244038 831.44324 1363.3275 4290560484
-19.772476 831.44324 1363.3275 4289969378
-17.300917 831.44324 1363.3275 4290101220
-14.829358 831.44324 1363.3275 4290233320
-37.678898 799.50128 1365.1716 4284968581
-35.166973 799.50128 1365.1716 4285034630
-52.133945 824.69708 1365.4874 4287470016
-49.651375 824.69708 1365.4874 4287601614
-47.168808 824.69708 1365.4874 4287075269
-42.203671 824.69708 1365.4874 4286219933
-39.7211 824.69708 1365.4874 4285497246
-37.238533 824.69708 1365.4874 4285036695
-34.755962 824.69708 1365.4874 4285036695
-32.273396 824.69708 1365.4874 4284970902
-22.343119 824.69708 1365.4874 4289311703
-12.412844 824.69708 1365.4874 4290297820
-9.930275 824.69708 1365.4874 4290167012
-7.4477062 824.69708 1365.4874 4290101218
-49.651375 826.59503 1367.0878 4288194255
-42.203671 826.59503 1367.0878 4287996860
-39.7211 826.59503 1367.0878 4287799747
-37.238533 826.59503 1367.0878 4288589263
-34.755962 826.59503 1367.0878 4288918225
-27.308256 826.59503 1367.0878 4290165971
-24.825687 826.59503 1367.0878 4290297818
-22.343119 826.59503 1367.0878 4290297818
