# .PCD v0.7 - Point Cloud Data file format
VERSION 0.7
FIELDS x y z rgb
SIZE 4 4 4 4
TYPE F F F U
COUNT 1 1 1 1
WIDTH 1169
HEIGHT 1
VIEWPOINT 0 0 0 1 0 0 0
POINTS 1169
DATA ascii
25.568808 812.83337 800.87964 4294966267
28.125687 812.83337 800.87964 4294967295
31.534863 812.83337 800.87964 4294967295
34.091743 812.83337 800.87964 4294967295
-1.7009175 815.59973 800.59619 4289106071
19.560551 815.59973 800.59619 4290097328
22.962385 815.59973 800.59619 4292401367
27.21468 815.59973 800.59619 4294967295
18.649542 820.38684 800.70837 4292727768
22.888073 820.38684 800.70837 4291808718
25.431192 820.38684 800.70837 4294308345
27.974312 820.38684 800.70837 4294901247
22.838531 823.13776 800.41187 4292136147
25.376146 823.13776 800.41187 4294307062
27.06789 823.13776 800.41187 4294834941
26.136696 827.89813 800.50159 4294636021
-12.47156 749.35785 802.29602 4290953938
34.742203 747.99573 801.14746 4294373880
37.41468 748.67676 801.72174 4294308343
40.087158 747.99573 801.14746 4294111221
42.759632 749.35785 802.29602 4294374139
-12.47156 750.71991 803.44446 4285623424
42.759632 750.71991 803.44446 4294505211
-10.65688 754.37354 802.60089 4285818738
-8.2837915 755.33539 802.53998 4287002235
0 755.90118 801.27307 4287527546
34.563301 755.90118 801.27307 4294439676
37.838531 754.93939 801.33405 4294505466
39.921101 754.45844 801.36456 4294636795
42.627522 754.37354 802.60095 4294505211
-7.6807342 758.15967 803.17743 4287659384
-5.317431 757.25629 802.41565 4288712069
35.449543 757.25629 802.41565 4294373879
38.108257 757.25629 802.41565 4294570745
40.766972 757.25629 802.41565 4294636282
43.42569 757.93384 802.98694 4294768381
-4.4174314 760.89447 801.5592 4288581260
0.88348621 760.89447 801.5592 4290226072
34.455963 760.89447 801.5592 4294439673
37.989906 760.89447 801.5592 4294768636
40.640366 760.89447 801.5592 4294768637
-7.0678897 763.59619 803.83716 4287266938
-5.3009176 762.92078 803.26764 4287858558
38.284405 762.69562 803.07782 4294966527
40.640366 762.92078 803.26764 4294900735
43.290825 762.92078 803.2677 4294835454
-7.9266057 766.54425 802.3988 4287463544
-4.4036698 766.54425 802.3988 4287925381
0 765.87091 801.83105 4289437088
34.348625 766.54425 802.3988 4294703357
37.577984 766.76874 802.58807 4294900735
40.51376 767.21759 802.96655 4294966783
-4.3899083 770.83051 802.08887 4287991175
34.241287 770.83051 802.08887 4294966527
-7.0238533 772.17297 803.2207 4287070842
-4.3862386 772.927 802.54846 4287990409
0 773.68103 801.87622 4289305501
34.169724 773.68103 801.87622 4294967295
37.753212 772.17297 803.2207 4294901247
43.899082 772.17297 803.2207 4294967295
45.655045 772.17297 803.2207 4294900735
-7.0091743 775.02069 803.00574 4287266684
-5.2568808 775.02069 803.00574 4288385165
36.798164 775.02069 803.00574 4294967295
46.43578 775.02069 803.00574 4294967295
-5.2403669 779.28174 802.67444 4288253064
0.87339449 778.61401 802.11145 4289438364
34.062386 778.61401 802.11145 4294967295
37.555962 779.28174 802.67444 4294967295
41.049541 779.94946 803.23743 4294967295
43.669724 779.94946 803.23743 4294967295
-3.4862385 781.4491 801.88586 4288581263
-1.7431192 782.11542 802.44769 4289238934
0.87155962 782.11548 802.44763 4289634970
4.3577981 782.11548 802.44763 4291014064
31.376146 781.4491 801.88586 4294967295
33.990826 781.4491 801.88586 4294967295
37.186543 782.33759 802.63495 4294967295
4.3440366 786.35541 802.09863 4290619826
34.752293 786.35541 802.09863 4294967295
37.648319 786.79828 802.47198 4294967295
39.965137 787.68384 803.21875 4294967295
4.3302751 789.92065 801.18079 4290095019
32.910091 789.92065 801.18079 4294967295
34.6422 789.92065 801.18079 4294967295
36.951683 790.80347 801.92511 4294967295
31.976147 794.05469 802.05029 4294967295
34.568806 794.05469 802.05029 4294967295
37.201836 793.31189 802.73206 4294967295
13.783486 797.60034 801.11584 4288847008
20.67523 797.60034 801.11584 4291675094
22.398165 797.60034 801.11584 4293056747
24.982569 797.60034 801.11584 4294045681
28.42844 797.60034 801.11584 4294967295
31.874311 797.60034 801.11584 4294967295
34.458717 797.60034 801.11584 4294967295
37.161469 795.3761 803.16455 4294967295
32.161469 799.35663 802.59668 4294967295
34.458717 799.57617 802.78174 4294967295
36.181652 799.57617 802.78174 4294967295
24.929358 801.71198 801.96655 4293254628
28.367889 801.71198 801.96655 4293913843
31.519876 802.5882 802.70538 4294967295
34.385323 803.02637 803.07483 4294900735
36.104588 803.02637 803.07483 4294967295
20.565138 805.23792 801.0155 4290753200
23.421408 805.67462 801.38379 4293122777
25.706423 805.89301 801.56787 4292267983
28.277065 805.23792 801.0155 4292795865
31.704586 806.5481 802.12024 4294967295
35.132111 806.5481 802.12024 4294967295
-11.128441 808.59265 802.53607 4286673509
0 809.32703 801.84729 4289172368
4.2752295 809.32703 801.84729 4290225307
7.6954126 809.32703 801.84729 4291212470
16.245872 809.32703 801.84729 4289702315
20.521101 809.32703 801.84729 4290753202
23.086239 809.32703 801.84729 4292924885
25.651377 809.32703 801.84729 4293385951
28.216515 809.32703 801.84729 4294372847
31.636698 809.32703 801.84729 4294967295
35.056881 809.32703 801.84729 4294967295
37.702751 807.85828 803.22485 4294966271
39.416515 807.85828 803.22485 4294967295
-7.6954126 810.6344 802.94971 4287135347
0 810.6344 802.94971 4289106571
35.911926 810.6344 802.94971 4294967295
37.622017 810.6344 802.94971 4294967295
39.332111 810.6344 802.94971 4294967295
-4.2614679 814.78809 802.52783 4288054661
0.85229355 814.78815 802.52783 4289435544
4.2614679 814.78809 802.52783 4290290590
7.6706419 814.78815 802.52783 4291014833
11.079817 814.78815 802.52783 4291346369
13.636697 814.78809 802.52789 4291937728
16.193579 814.78809 802.52789 4292332749
25.568808 814.13654 801.97852 4294573052
28.977982 814.13654 801.97852 4294967295
31.818962 814.57086 802.34473 4294967295
35.228134 814.57086 802.34473 4294967295
37.500916 815.4397 803.07727 4294967295
39.205505 815.4397 803.07727 4294967295
-1.7009175 817.55029 802.24084 4288778131
1.7009175 818.20044 802.78906 4289830562
3.401835 818.20044 802.78906 4289764756
13.60734 818.20044 802.78906 4291936958
17.009174 818.20044 802.78906 4292464597
19.844038 817.3335 802.05811 4291215555
22.962385 816.90009 801.69263 4292005332
25.513762 816.90009 801.69263 4294572287
28.065138 816.90009 801.69263 4294967295
31.183487 817.76703 802.42358 4294901247
34.58532 817.76703 802.42358 4294966783
-1.7009175 819.50085 803.8855 4288844419
1.7009175 819.50085 803.8855 4289699746
3.401835 819.50085 803.8855 4289831316
28.822018 821.68298 801.80127 4294967295
31.417431 820.59192 802.84338 4294901503
34.813759 820.59192 802.84338 4294901247
37.420185 819.50085 803.8855 4294967295
39.121101 819.50085 803.8855 4294967295
23.684404 824.43109 801.50232 4292727253
25.376146 824.43109 801.50232 4294569457
27.944954 823.70508 802.19824 4294703613
31.647707 823.41113 803.25848 4294967295
34.473392 823.84326 803.62274 4294901247
28.759632 825.72443 802.5929 4294966271
31.015289 826.58667 803.31982 4294901247
33.834862 827.01782 803.68335 4294638079
28.666056 829.18732 801.5885 4294965503
44.678898 749.79047 806.58484 4294373625
-12.47156 752.08203 804.5929 4284767583
46.322937 754.80615 806.88989 4294967295
-10.65688 757.08929 804.89087 4286540397
47.955963 758.44714 806.03577 4294900735
-7.9761467 759.96643 804.70068 4287396469
46.675232 760.86981 805.4624 4294703868
43.290825 764.94708 804.9762 4294967039
46.824768 764.94708 804.9762 4294835455
-7.0458717 768.56421 804.10205 4287071090
37.871559 768.56421 804.10205 4294966527
40.51376 769.23755 804.66974 4294966783
42.862385 769.01312 804.48047 4294967295
46.972473 769.01312 804.48047 4294834942
49.321102 769.91089 805.23743 4294834943
51.963303 769.91089 805.23743 4294967295
38.631191 773.51544 804.35266 4294967295
40.387157 773.51544 804.35266 4294967295
43.021103 773.51544 804.35266 4294967295
49.166973 773.51544 804.35266 4294901247
51.880733 772.38647 805.36279 4294901247
54.434864 773.51544 804.35266 4294967295
38.550457 776.36035 804.13525 4294967295
40.302753 776.36035 804.13525 4294967295
42.93119 776.36035 804.13525 4294967295
46.485321 775.60913 804.80994 4294967295
46.727829 778.14648 805.64142 4294967295
41.049541 781.28485 804.36353 4294967295
43.669724 781.95258 804.92651 4294967295
45.998779 782.17511 805.1142 4294967039
41.253822 784.55859 804.50775 4294967295
43.57798 785.44702 805.25684 4294967295
46.242203 784.70142 805.93616 4294966783
43.57798 786.7796 806.38049 4294967295
45.321102 786.7796 806.38049 4294967295
41.00771 790.07501 805.23499 4294967295
43.440369 791.66907 806.57898 4294967295
39.838531 793.89331 804.5304 4294967295
38.025688 796.69751 804.27869 4294967295
40.993271 795.65894 806.01904 4294967295
43.302753 796.54175 806.76343 4294967295
38.025688 798.01892 805.39282 4294967295
40.618347 798.67963 805.94995 4294967295
43.21101 799.34033 806.50708 4294967295
37.904587 801.55194 804.44775 4294967295
40.488991 802.21057 805.00305 4294967295
43.073395 802.86914 805.55835 4294967295
-12.894495 806.31238 805.84552 4286211683
37.823853 804.34076 804.18311 4294967295
40.402752 804.99792 804.73724 4294967295
43.888992 804.92078 805.98016 4294967295
-10.282569 809.16846 804.32959 4286411361
41.130276 809.16846 804.32959 4294967295
42.844036 809.16846 804.32959 4294967295
-10.282569 810.47864 805.43433 4286411107
-7.9926605 811.40308 805.3418 4287200628
37.622017 811.94177 804.052 4294967295
40.231194 811.21021 804.74316 4294967295
43.700916 811.13373 805.98669 4294967295
-6.8403668 813.90283 805.70551 4287331441
41.042202 813.90283 805.70551 4294901247
43.322323 814.12079 805.88922 4294967295
-6.8183484 818.04608 805.2749 4287528307
-4.2614679 817.39453 804.72546 4288120701
0 817.39453 804.72546 4288975509
5.1137614 817.39453 804.72546 4290488990
7.6706419 817.39453 804.72546 4290818219
10.795719 817.17731 804.5423 4291213246
15.341285 816.74292 804.17603 4292726217
37.500916 816.74292 804.17603 4294966783
40.0578 817.39453 804.72546 4294967039
42.614677 818.04608 805.2749 4294967295
-6.8183484 819.34924 806.37366 4287594102
-4.2614679 819.34924 806.37366 4288252545
-1.7009175 820.80121 804.98193 4288647817
0.85045874 820.0752 805.6778 4289173911
4.2577982 820.0752 805.6778 4290094750
7.6706419 819.34924 806.37366 4291014575
35.719265 820.80121 804.98193 4294901247
37.420185 820.80121 804.98193 4294900735
40.015594 820.0752 805.6778 4294768380
43.466972 819.34924 806.37366 4294834942
-1.7009175 822.10156 806.07837 4289041548
1.7009175 822.10156 806.07837 4289568410
4.2522936 822.10156 806.07837 4290159779
37.420185 822.10156 806.07837 4294900735
39.121101 822.10156 806.07837 4294703103
35.603668 825.57141 805.07983 4294967039
34.680733 828.31116 804.77393 4294967295
46.561466 748.26276 807.91272 4294834941
48.352295 749.63184 809.06714 4294967039
46.466057 751.15674 807.73682 4294967295
48.253212 752.52307 808.88892 4294967295
49.886238 757.53033 809.18689 4294835455
51.667889 757.53033 809.18689 4294901247
49.732109 761.16296 808.32556 4294966783
52.396332 761.16296 808.32556 4294900735
49.629356 764.03162 808.12842 4294834687
52.288074 764.03162 808.12842 4294967039
49.321102 773.27753 808.07617 4294901503
51.669724 773.05304 807.8869 4294901503
54.605503 772.60419 807.50842 4294967039
51.963303 775.29749 809.7793 4294967295
49.166973 778.21399 808.31439 4294967295
49.06422 781.71893 808.65356 4294967295
47.163303 785.2912 807.74146 4294967295
49.940369 783.05853 809.78308 4294967295
43.57798 788.11224 807.50403 4294967295
46.242203 787.36938 808.18573 4294967295
48.910091 787.29431 809.43048 4294967295
46.483181 789.8891 809.00226 4294967295
43.440369 792.9975 807.6991 4294967295
45.177982 793.66174 808.25916 4294967295
45.975227 796.76013 808.90967 4294967295
44.939449 800.66174 807.62122 4294967295
46.766972 799.19012 808.99646 4294967295
-15.555964 803.30457 809.84961 4285618777
46.667889 801.98315 808.73535 4294967295
49.260551 803.30457 809.84961 4294967295
-13.783486 806.16211 808.33496 4285881947
44.796329 805.50354 807.77966 4294967295
46.519264 806.16211 808.33496 4294967295
-12.034863 808.94116 808.06207 4286671464
-10.315597 809.59833 808.61621 4286607209
44.700916 808.28394 807.50793 4294967295
46.420185 809.59833 808.61621 4294967295
-12.894495 810.91272 809.72449 4286540133
48.13945 810.91272 809.72449 4294967295
-10.71101 814.73676 809.02466 4286540646
-8.5596333 814.48151 807.5014 4287528054
44.462387 815.86395 807.35901 4294967295
47.128441 814.40924 808.74841 4294967295
-10.26055 818.4787 809.56372 4286606446
-8.5504589 817.82501 809.01257 4287658876
46.172478 817.82501 809.01257 4294967295
-6.8183484 821.30396 808.02191 4287724923
-4.2614679 821.30396 808.02197 4288317059
-1.7045871 821.95557 808.57129 4289172368
0 821.30396 808.02191 4288910477
40.910091 821.30396 808.02191 4294834687
43.466972 821.30396 808.02191 4294835198
-6.8183484 823.25873 809.67004 4287856005
-4.2614679 823.25873 809.67004 4288185224
-1.7045871 823.25873 809.67004 4289632667
37.420185 824.05212 807.72302 4294901247
39.717434 823.78766 808.37207 4294901247
43.466972 823.25873 809.67004 4294901247
37.420185 826.00269 809.36768 4294703357
39.121101 826.00269 809.36768 4294834943
50.14312 751.00092 810.22156 4294901247
51.933945 751.00092 810.22156 4294967295
50.040367 753.88934 810.04089 4294901247
51.827522 753.88934 810.04089 4294967039
53.009174 771.70142 810.67126 4294967295
55.65963 772.37683 811.24078 4294901503
51.963303 776.64417 810.91479 4294967295
55.65963 774.40314 812.94934 4294901247
52.844036 777.99084 812.05029 4294967295
55.486237 777.99084 812.05029 4294901247
58.128441 777.99084 812.05029 4294967295
50.922935 780.22766 810.01221 4294967295
52.678898 782.24133 811.71014 4294967295
54.434864 782.24133 811.71014 4294967295
50.816513 785.06799 811.47736 4294967295
50.074615 789.74268 811.49481 4294967295
52.403671 790.63293 812.24548 4294967295
54.150459 790.63293 812.24548 4294967295
47.06422 792.11011 810.875 4294967295
49.388378 792.99854 811.62408 4294967295
49.522018 796.98279 811.05945 4294967295
-15.588991 800.51434 810.11304 4285684824
49.365139 800.51434 810.11304 4294835454
52.128441 798.31122 812.17944 4294967295
52.540668 802.72137 811.97394 4294967039
-15.555964 805.28668 811.52081 4285750618
49.260551 804.62598 810.96375 4294967295
52.71743 805.94739 812.07788 4294967295
-15.506422 809.45514 811.11145 4285685594
-13.783486 808.13794 810.00085 4286079328
49.390823 808.57697 810.37109 4294967295
52.549541 809.45514 811.11145 4294967295
-15.506422 810.77234 812.22217 4285685594
-12.894495 812.22711 810.83264 4286606176
49.858715 812.22711 810.83264 4294967295
52.549541 810.77234 812.22217 4294967295
-13.754128 813.5415 811.94092 4286473820
49.858715 813.5415 811.94092 4294967295
-13.710092 817.68469 811.51025 4286081122
-11.99633 817.68469 811.51025 4286081378
47.985321 817.68469 811.51025 4294967295
49.699081 817.0296 810.95789 4294967295
-10.830582 820.65765 811.40106 4286344039
-8.5504589 820.43976 811.21729 4287790972
46.172478 820.43976 811.21729 4294967295
-13.680734 822.40082 812.87085 4285950299
-11.115597 822.40082 812.87085 4286344290
-7.6706419 824.56189 810.76892 4287593594
-5.1137614 824.56189 810.76892 4287856770
41.042202 822.40082 812.87085 4294835455
43.607338 822.40082 812.87085 4294769662
46.172478 822.40082 812.87085 4294967295
56.366974 779.33746 813.18579 4294967295
58.128441 779.33746 813.18579 4294967295
56.366974 781.35748 814.88892 4294967295
58.128441 780.68414 814.32117 4294967295
52.678898 784.255 813.40796 4294967295
54.434864 784.255 813.40796 4294967295
57.946789 784.92627 813.97394 4294967039
52.568806 787.07751 813.17175 4294967295
55.528442 787.03156 814.00513 4294967295
57.946789 786.93988 815.67188 4294967295
52.403671 791.96838 813.37146 4294967295
55.023853 791.96838 813.37146 4294967039
-17.46789 794.63922 815.62354 4285290066
52.293579 794.77539 813.12231 4294967295
54.150459 793.30377 814.49756 4294967039
-17.431192 797.44067 815.36951 4285421654
54.036697 796.10803 814.24597 4294967039
53.866055 799.63959 813.29956 4294966783
-17.376146 802.29645 815.53979 4285619801
-17.284403 808.59015 814.30634 4285421910
55.310093 809.91162 815.42041 4294967295
-15.506422 812.08954 813.33276 4286079328
52.549541 812.08954 813.33276 4294967295
-16.644037 814.32886 814.34882 4285620063
52.187763 814.81195 813.88409 4294967295
55.995411 814.06531 814.99866 4294967295
-15.473394 816.82751 814.71161 4286015076
49.858715 816.82751 814.71161 4294967295
53.297249 816.82751 814.71161 4294967295
-15.423853 820.96014 814.27209 4286080100
-13.710092 819.64996 813.16736 4285949793
47.985321 820.30505 813.71973 4294967295
-15.423853 822.27032 815.37671 4285882718
-13.680734 823.70819 813.97314 4285950299
-11.115597 823.70819 813.97314 4286607459
41.042202 823.70819 813.97314 4294703355
47.985321 822.27032 815.37671 4294967295
-13.680734 825.01556 815.07544 4285752402
-15.341285 829.7746 815.16406 4287658601
-13.636697 829.7746 815.16406 4288839279
-21.137615 786.0708 818.86304 4285030994
-19.376146 786.0708 818.86304 4284964944
-19.315596 789.62482 817.93567 4285422415
-17.559633 789.62482 817.93567 4285422167
56.073395 791.09644 816.56042 4294966783
56.073395 792.43604 817.68994 4294834943
-17.431192 798.77325 816.49316 4285881435
-19.174313 801.43854 818.74048 4284111196
-19.113762 806.28174 818.90002 4285355607
-19.053211 809.78381 817.92883 4285292101
-19.012844 812.55444 817.6488 4284179028
-19.012844 813.87585 818.76294 4284965196
-18.952293 818.01697 818.33057 4285487441
-17.21101 817.4201 816.51935 4285290327
49.858715 818.79907 816.37402 4294967295
52.521103 817.71851 817.42493 4294967295
55.966057 817.05994 816.86963 4294967295
-17.192661 820.77063 818.03644 4285290062
49.858715 820.77063 818.03644 4294967295
52.151073 820.98975 818.22119 4294967039
55.016514 820.77063 818.03644 4294967295
-16.280735 824.2356 817.03381 4285881421
-16.264221 826.26196 817.43439 4287065694
-13.680734 826.323 816.17786 4286802262
-24.660551 788.09076 820.56628 4284568397
-22.018349 788.09076 820.56628 4285093968
-19.315596 790.96729 819.06763 4285290829
-21.07156 793.65216 821.33142 4285290829
-19.315596 792.30969 820.19946 4285290829
-19.275229 795.78516 820.51385 4285225040
-19.174313 802.77118 819.86414 4285027169
-20.78532 813.75647 821.27844 4285881683
58.766972 815.19727 819.8772 4294967295
-20.741285 816.51862 820.99133 4285421652
57.902752 816.51862 820.99133 4294967295
-18.952293 820.65137 820.55182 4285289041
49.965137 821.30994 821.10718 4294967295
52.549541 821.30994 821.10718 4294967295
56.282574 820.87085 820.737 4294967295
58.579815 820.65137 820.55182 4294967295
-18.911926 824.05664 820.80701 4286410344
-17.137615 827.51111 819.79565 4287001713
-28.271559 786.56091 823.20044 4283714884
-26.504587 787.23633 823.76996 4283977792
-24.660551 790.78406 822.83722 4284435526
-22.311926 790.55957 822.64795 4285225040
-24.660551 792.80408 824.54041 4285881953
-21.949541 794.99463 822.46338 4285092691
-22.242203 796.78448 823.97247 4288385423
-21.903669 799.80408 823.90247 4288448664
-20.961468 803.31958 822.9425 4286870118
-22.708258 805.32269 824.63159 4285424787
-20.917431 806.76904 823.23499 4283389513
-22.660551 808.10168 824.35864 4284372307
-22.588991 812.25964 823.94043 4284766292
-20.851376 810.26697 822.26025 4284636488
-20.78532 816.40491 823.5116 4285617748
-20.741285 819.82214 823.77679 4285487960
57.902752 820.48285 824.33386 4294967295
-18.952293 823.94434 823.32837 4286936688
52.549541 822.62714 822.21777 4294967295
55.133945 822.62714 822.21777 4294967295
-18.952293 825.26154 824.43909 4283188540
-28.359632 785.71283 826.40942 4283583284
-30.038534 790.61353 826.61749 4290026144
-28.271559 790.61353 826.61749 4288775310
-26.504587 790.61353 826.61749 4288182917
-24.660551 794.1507 825.6759 4292134601
-29.06422 796.17065 827.37915 4293710805
-25.541285 795.49738 826.8114 4294172893
-28.973394 800.36438 826.99097 4291869867
-25.461468 799.69312 826.42505 4294634221
-25.408257 803.1532 826.72632 4287988893
-22.779816 801.81354 825.5968 4288517014
-25.369724 805.5755 826.80676 4286015333
-25.302753 808.71399 826.18292 4284108361
-24.984711 811.65533 827.35504 4284764233
-25.195412 815.58069 826.74072 4284961098
-22.588991 814.9165 826.18066 4285092937
-25.195412 816.90906 827.86072 4285158469
-27.713762 821.03967 827.41949 4285618771
-25.981651 820.37756 826.86121 4285881433
-22.517431 820.37762 826.86115 4285488461
-20.763302 821.75305 826.71289 4284963668
53.58165 821.80426 825.448 4294967295
55.310093 821.80426 825.448 4294967295
57.038532 821.80426 825.448 4294967295
-20.741285 824.44708 827.67639 4282924085
53.58165 823.12567 826.56226 4294966527
55.310093 823.12567 826.56226 4294966783
-18.952293 826.57874 825.54968 4282726449
-31.60734 803.04932 829.25488 4285487929
-28.973394 802.37805 828.68896 4287197798
-31.60734 804.39172 830.38672 4282265621
-28.912844 805.83246 828.98547 4282923560
-28.912844 807.17212 830.11499 4283973690
-26.201836 809.32898 828.00952 4284370499
-28.822018 810.66443 829.1355 4284565057
-27.889908 814.09851 829.41504 4284500545
-24.326605 818.23749 828.98083 4285620301
-24.326605 819.56592 830.10095 4285423699
-28.579817 823.026 829.09424 4285620828
-25.115597 823.026 829.09424 4284108615
-22.517431 823.026 829.09424 4282990402
-20.741285 825.76849 828.79053 4282726190
-31.277063 822.22278 832.34106 4283714634
-28.670643 822.88696 832.90112 4282857773
-25.195412 822.88696 832.90112 4283054640
-22.588991 822.88696 832.90112 4282989617
-20.851376 823.55121 833.46118 4283055414
-31.277063 824.87964 834.5813 4283254329
-28.670643 824.87964 834.5813 4283252788
-25.195412 824.87964 834.5813 4283384116
-22.588991 824.87964 834.5813 4283188019
56.190826 815.13135 839.44214 4294901247
57.825687 816.54962 838.02185 4294967295
58.128441 814.35059 842.70789 4294967295
59.702751 817.14502 841.13995 4294835454
59.702751 819.15869 842.83789 4294967039
56.543118 812.22736 844.84167 4294900479
56.543118 813.57825 845.98071 4294769150
58.128441 815.6972 843.84338 4294966783
58.128441 817.04388 844.97876 4294966783
55.060551 808.68872 848.39807 4294572537
54.946789 811.45923 848.11816 4294834428
56.543118 814.92908 847.11975 4294769150
-26.504587 816.27997 848.25879 4283974204
59.099998 817.33527 847.18652 4294967039
59.889908 820.41052 847.8175 4294703612
53.449543 807.92761 851.68054 4294637049
-24.866055 812.76233 851.83289 4283712313
53.284405 812.76233 851.83289 4294176757
54.946789 812.81427 849.26074 4294769150
-28.359632 815.52441 851.54578 4283778106
-26.587156 815.52441 851.54578 4283909948
55.833027 814.84692 850.97449 4294308599
56.543118 818.98169 850.53674 4294176246
58.310093 818.30627 849.96729 4294769150
55.65963 820.33252 851.67578 4294110711
58.715595 822.87939 849.89911 4294439672
58.128441 825.12384 851.79163 4294175731
46.227524 783.44647 853.27515 4294835197
52.829357 802.34229 853.51117 4294901247
55.515594 801.65771 852.93396 4294901247
52.7211 805.12543 853.24188 4294638076
-24.943119 809.28967 852.82898 4283646007
-22.270641 809.28967 852.82898 4283579963
52.638535 808.2323 853.89941 4294374136
-22.270641 810.65173 853.97742 4283712060
-28.418348 815.47809 854.1228 4283846213
-25.458105 815.02545 853.74115 4283779131
53.284405 814.79919 853.55029 4293913583
-26.587156 818.23462 853.83093 4284436540
54.946789 816.87952 852.68835 4294110451
-26.587156 819.58966 854.97351 4284634439
53.174313 819.58966 854.97351 4293913842
55.65963 821.68341 852.81482 4294110964
55.65963 823.0343 853.95386 4294110449
56.366974 827.1438 853.49481 4293715182
58.128441 826.47046 852.92712 4293912558
43.728439 781.24463 857.95874 4294703355
46.367889 782.67975 856.55273 4294835453
49.144955 781.26709 856.66968 4294967295
51.016514 781.24463 857.95874 4294966783
47.277065 784.06989 857.72485 4294900735
52.093578 799.53027 855.06433 4294704127
-21.555964 802.27692 857.38013 4283056184
-19.759632 802.27692 857.38013 4283187513
50.297249 802.27692 857.38013 4294242806
-19.699083 805.76501 856.39722 4283579711
50.14312 805.76501 856.39722 4294242293
-19.6789 808.52075 857.41272 4283580734
-17.908257 807.13409 857.55151 4283645255
50.091743 808.52075 857.41272 4293913585
51.827522 808.5412 856.12195 4294242293
-22.270641 812.01385 855.12598 4283777853
51.667889 812.01385 855.12598 4293913842
-21.9737 813.8299 856.65723 4284107583
-19.598166 814.05701 856.84863 4283713086
-17.816513 814.73804 857.42285 4283582792
51.667889 814.05701 856.84863 4294111220
-24.866055 817.51489 855.84015 4284503111
-22.497858 817.74121 856.03094 4284372040
52.396332 817.51489 855.84015 4294045173
-24.866055 819.55176 857.5575 4284765518
-22.201836 819.55176 857.5575 4284699978
52.341286 820.24829 856.83679 4294176498
53.174313 822.2998 857.25867 4293847533
54.776146 824.38513 855.0929 4293781740
54.776146 826.41144 856.80133 4293912558
42.033028 779.09192 860.06775 4294768637
45.550457 782.63757 859.13318 4294768637
49.194496 782.63757 859.13318 4294966783
51.016514 782.63757 859.13318 4294967039
47.372478 784.03052 860.30774 4294374392
49.194496 784.03052 860.30774 4294440186
51.927521 784.03052 860.30774 4294967295
-18.977064 796.65717 860.48987 4283055414
-16.266054 796.65717 860.48987 4282858292
-14.458715 796.65717 860.48987 4283055414
48.798164 796.65717 860.48987 4294242802
-18.018349 800.1579 859.51758 4283055934
-16.216515 800.1579 859.51758 4282924348
-14.414679 800.1579 859.51758 4282924085
49.550461 799.46912 858.93683 4294308340
-17.089909 802.59277 859.60858 4283187016
-14.414679 801.5354 860.67908 4283579963
48.64954 801.5354 860.67908 4294242293
-16.166973 805.0235 859.69604 4283645255
-14.370643 805.71014 860.27502 4283711293
48.500916 805.71014 860.27502 4294439414
-17.012844 808.50317 858.70593 4283580225
-14.326606 809.87231 859.86035 4283712063
48.352295 809.87231 859.86035 4294176244
-16.680122 811.72919 858.81006 4283712581
-14.297248 812.64008 859.578 4284041798
50.040367 811.95691 859.00201 4294045428
-14.297248 814.00635 860.72998 4283977799
49.14679 814.00635 860.72998 4294175986
-21.379816 818.82428 860.86829 4284831314
-19.598166 817.46216 859.71979 4284503115
-16.925688 817.46216 859.71973 4284437324
49.886238 818.14325 860.29407 4293978607
-24.866055 820.90961 858.70251 4285094486
-23.089909 820.90961 858.70251 4284897107
51.508255 820.90961 858.70251 4293978349
-24.866055 822.26752 859.84741 4285094486
-23.089909 822.26752 859.84741 4284962900
52.06361 823.18262 859.74701 4293847022
53.174313 825.6875 860.11499 4293846765
42.159634 778.34064 863.35828 4294834430
43.86055 781.18762 861.83478 4294439672
45.688072 781.88623 862.42383 4294571002
-16.398165 785.42346 861.48218 4287001713
-13.706423 783.28339 863.60193 4287395944
43.86055 783.28339 863.60193 4294372855
46.530273 784.35339 862.54205 4294571002
49.194496 785.42346 861.48218 4294308599
51.927521 785.42346 861.48218 4294900991
54.660549 785.42346 861.48218 4294967295
-18.220184 786.81641 862.65674 4282726442
-16.398165 786.81641 862.65674 4282726442
-13.361468 787.28076 863.04816 4282529064
-10.93211 788.20935 863.83118 4282135332
46.157795 787.28076 863.04816 4294373622
49.194496 786.81641 862.65674 4294373879
51.874313 787.52832 861.94904 4294703098
54.550457 788.2403 861.24133 4294966527
-18.183487 789.63043 862.41345 4282266917
-16.365137 789.63043 862.41345 4282332711
-13.637615 790.3255 862.99951 4282661423
46.670948 790.55719 863.19482 4294176498
50.004585 789.63043 862.41345 4294308596
52.732109 789.63043 862.41345 4294966269
55.459633 789.63043 862.41345 4294966527
-19.034863 793.14801 861.4552 4282989873
-16.315596 793.14801 861.4552 4282792748
-13.596331 793.84094 862.03949 4282990134
47.133945 794.53394 862.62378 4294045680
49.85321 793.14801 861.4552 4294177268
-12.689908 795.91986 863.79236 4283253049
45.321102 795.91986 863.79236 4294307316
-12.651376 799.42059 862.81995 4283579963
-10.844037 800.80237 863.98499 4283776573
46.538994 799.76605 863.11121 4294242292
-12.612844 802.9129 861.84058 4283908159
-12.612844 804.29047 863.00208 4283777856
-10.811009 804.29047 863.00208 4283777856
46.847706 804.29047 863.00208 4294505460
-12.574312 807.77014 862.01196 4283909698
-10.777982 809.14343 863.16992 4283846213
46.704586 808.45679 862.59094 4293978608
-12.53578 811.9259 861.59198 4284108360
48.352295 811.24139 861.01477 4294373109
-13.403669 815.37268 861.88208 4284175435
-10.744954 813.97961 863.32349 4284502347
46.561466 813.97961 863.32349 4293978349
48.253212 815.37268 861.88208 4294307314
-14.297248 816.73895 863.03406 4284372559
46.466057 816.73895 863.03406 4293912556
48.253212 816.73895 863.03406 4294307314
-21.379816 820.86743 862.591 4285160279
-19.598166 820.86743 862.591 4284897107
-16.925688 820.86743 862.59094 4284962132
49.886238 820.86743 862.591 4293978608
51.508255 824.98328 862.13721 4293781488
-12.908257 772.63391 866.39478 4286147160
-12.869725 776.19214 865.47083 4286802262
-12.831193 779.742 864.53992 4288839279
-11.031193 777.59772 866.65601 4288906880
42.159634 779.742 864.53992 4294373879
-10.081652 781.84406 866.31232 4284963149
-7.3321099 782.54474 866.90308 4282726442
42.159634 781.84406 866.31232 4294177013
-10.965137 784.68054 864.77991 4282332711
43.86055 784.68054 864.77991 4294242293
-9.1376143 786.0777 865.95801 4281937953
42.946789 786.0777 865.95801 4294373366
-9.7174311 790.06659 865.39722 4282858548
41.906422 790.99524 866.18018 4294373877
43.728439 789.60229 865.00574 4294373109
-10.303975 793.33759 865.53906 4283121721
43.640366 793.10583 865.34375 4294307316
45.458717 792.41071 864.75769 4294044144
-10.877064 797.30579 864.96094 4283579963
45.321102 797.30579 864.96094 4294373877
-9.0642204 798.69177 866.12964 4283776573
43.508255 798.69177 866.12964 4294110451
-9.0366974 802.87494 865.73254 4283843902
43.376148 803.5658 866.31506 4294110451
45.183487 802.18408 865.15002 4294571002
-10.811009 805.66797 864.16357 4283844155
45.045872 805.66797 864.16357 4294110451
-9.0091743 807.73425 865.9057 4283714628
-7.2073393 808.42297 866.48645 4283845959
45.045872 807.73425 865.9057 4293978608
-10.777982 810.51672 864.32776 4283912006
-8.0834866 811.89008 865.48572 4284240203
44.908257 811.89008 865.48572 4294044142
46.704586 810.51672 864.32776 4293912556
-12.53578 815.34869 864.47791 4284175181
-10.744954 815.34869 864.47791 4284175181
-8.0834866 813.26337 866.64368 4284306510
44.770641 815.34869 864.47791 4293912558
-13.403669 818.10522 864.18616 4284699475
-10.744954 817.40234 866.20953 4285028692
44.770641 817.40234 866.20953 4293912816
46.466057 818.10522 864.18616 4293781742
48.253212 818.10522 864.18616 4294571002
-13.105811 819.92694 865.72217 4285226074
-10.722936 820.83783 866.49011 4285292112
46.466057 820.15466 865.91412 4293650157
48.253212 819.47156 865.33813 4293848048
-21.379816 824.27264 865.46216 4285686366
-19.598166 823.59155 864.88794 4285554780
-16.925688 823.59155 864.88794 4285488478
-14.253211 822.91052 864.31372 4285291613
48.995415 823.59155 864.88794 4293978608
-23.161469 825.6347 866.61072 4285556834
48.104588 825.6347 866.61072 4294505208
-3.7100918 765.49219 868.22119 4288448648
-1.8550459 766.20129 868.81909 4289172115
-9.8642206 770.00995 868.10638 4287330412
-7.3981652 769.77429 867.90765 4287725691
-4.6238532 769.77429 867.90765 4288185987
-3.6990826 771.89526 869.69604 4289040265
-1.8495413 771.89526 869.69604 4290027160
38.840366 771.89526 869.69604 4294242802
-9.8348627 774.51367 867.97974 4288183418
-7.3761468 774.7486 868.17786 4288908409
-4.6100917 775.45349 868.77222 4289171842
-1.8440367 776.86328 869.96094 4289172870
38.72477 776.86328 869.96094 4294308849
40.568806 775.45343 868.77222 4294308086
-9.1926603 779.0033 867.84119 4287527794
-7.3541284 779.0033 867.84119 4287988599
-5.5155964 779.0033 867.84119 4288449150
-4.5963302 780.40887 869.02637 4282659366
40.447708 780.40887 869.02637 4294045428
-7.3321099 783.94611 868.08472 4282134049
-5.4990826 784.64679 868.67554 4282660906
38.49358 785.34747 869.26636 4294440186
40.326607 784.64679 868.67554 4294308086
-7.310092 788.17346 867.72504 4282858545
-5.4825687 788.87201 868.31409 4282858292
38.377983 788.87201 868.31409 4294636795
40.205505 788.87201 868.31409 4294373877
42.033028 787.47485 867.13599 4294571002
-5.4825687 790.26917 869.49207 4283316540
38.377983 790.26917 869.49207 4294175731
40.205505 790.26917 869.49207 4294110451
-7.2880735 793.08466 867.94196 4283317823
-5.4660549 793.78113 868.52917 4283187263
40.995415 793.08466 867.94196 4294242038
-9.0917435 795.19104 867.10193 4283579963
-7.2733946 796.58118 868.27405 4283646018
-4.8550458 796.10645 869.61786 4283450180
-1.8220184 795.17407 869.70374 4283450440
38.262386 795.17407 869.70374 4293847535
41.110828 796.57776 868.79443 4294110708
43.640366 795.19104 867.10193 4294373877
-7.2513762 800.0777 867.29822 4283451205
43.508255 800.0777 867.29822 4294110451
-7.2513762 801.46362 868.4668 4283516998
-5.4385319 802.84955 869.63538 4283384647
41.695412 801.46362 868.4668 4294110451
-7.2293577 804.94751 867.4801 4283384647
41.568806 805.63837 868.06262 4294109936
43.376148 805.63837 868.06262 4294044401
-4.5183487 807.71094 869.81018 4284241230
-1.8073394 807.71094 869.81018 4284373328
41.568806 807.71094 869.81018 4294175983
43.244038 809.80054 867.64795 4294044142
-4.804893 812.09637 869.5838 4284569169
-1.8018348 812.55554 869.97095 4284833110
41.442204 811.86682 869.3902 4294044401
43.244038 811.17804 868.80945 4293715180
-8.0834866 814.63666 867.80164 4284831314
43.111927 814.63666 867.80164 4293846765
-8.0834866 816.01001 868.95959 4285093716
43.111927 816.01001 868.95959 4294242039
-10.744954 820.82513 869.09546 4285228116
43.576756 819.91235 868.32587 4294176246
-16.084404 823.57043 868.79419 4285884002
-13.403669 822.88727 868.21814 4285620829
44.083179 823.5705 868.79425 4294110451
46.466057 822.88727 868.2182 4293649899
7.5082569 752.54266 872.9989 4290882219
4.6788988 756.14722 872.11414 4290159012
0.93302751 761.16992 872.42505 4289369996
3.73211 761.16992 872.42505 4290027171
37.321102 761.16992 872.42505 4294769150
39.187157 761.16992 872.42505 4294769150
0 764.75354 871.52246 4289172618
40.001835 764.75354 871.52246 4294637050
42.79266 764.75354 871.52246 4294834430
0 766.1759 872.7218 4289305742
37.21101 766.1759 872.7218 4294835195
-1.8550459 768.32861 870.61279 4289567897
38.028442 769.03772 871.21069 4294505974
40.811008 768.32861 870.61279 4294242293
-1.8495413 773.3092 870.88831 4290421659
38.840366 773.3092 870.88831 4294440438
0 774.72321 872.08057 4289765791
36.990826 774.72321 872.08057 4294506229
-1.8440367 778.27307 871.14954 4283578928
35.036697 779.68286 872.33826 4294176757
37.495411 778.74298 871.54572 4294177782
-3.6770642 781.81445 870.21143 4282920234
-1.8385321 781.81445 870.21143 4282788649
38.609173 781.81445 870.21143 4294243576
-3.6770642 783.22003 871.39661 4283381819
-1.8385321 783.22003 871.39661 4283447612
34.012844 784.62561 872.58179 4294438902
36.770641 783.22003 871.39661 4294176757
-3.666055 787.44952 871.0387 4283185466
-1.8330275 787.44952 871.0387 4283317052
34.827522 788.15021 871.62952 4294307316
36.660549 787.44952 871.0387 4294241780
-3.655046 791.66632 870.67017 4283187263
-1.827523 791.66632 870.67017 4283187263
0 789.55157 872.81104 4283253563
32.07798 789.55157 872.81104 4293978859
34.827522 789.55157 872.81104 4294110451
37.464218 791.66632 870.67017 4294044145
32.895412 793.06348 871.84814 4294637308
34.722935 793.06348 871.84814 4294045428
36.550457 793.06348 871.84814 4294044658
-3.6440368 796.56702 870.87817 4283385412
-1.8220184 796.56702 870.87817 4283385412
32.796329 797.95996 872.05273 4294505211
34.618347 797.95996 872.05273 4294110453
37.351379 797.26343 871.46545 4294044658
-4.2428136 799.82489 871.00897 4283319621
-1.8183486 800.05652 871.20435 4283451208
38.185322 800.75159 871.79041 4293781740
40.00367 800.05652 871.20435 4293978608
0 802.14172 872.96265 4283845959
38.185322 802.14172 872.96265 4294175985
-4.5321102 804.23547 870.80396 4284109647
-1.812844 804.23547 870.80396 4284043856
0 805.6214 871.97253 4284570193
38.069725 805.6214 871.97253 4294373877
39.882568 804.92847 871.38824 4293780969
-3.6146789 809.09271 870.97522 4284307536
-1.8073394 809.09271 870.97522 4284504659
37.954128 809.09271 870.97522 4294242291
39.761467 809.09271 870.97522 4294044658
0 810.47443 872.14026 4284833108
37.050461 810.47443 872.14026 4294373877
39.761467 810.47443 872.14026 4294044144
-4.5045872 814.62183 871.7132 4285225559
-1.8018348 814.62183 871.7132 4285488986
37.237919 814.85138 871.90674 4294636535
40.240978 814.39227 871.51959 4294175731
-8.0834866 818.06995 870.69653 4284898129
40.71682 818.29883 870.88947 4294110449
-8.0834866 820.12994 872.43335 4285623383
37.722935 820.12994 872.43335 4294571256
40.417431 820.12994 872.43335 4294110702
-13.729664 824.01971 871.78906 4286212454
-10.744954 822.87878 870.82709 4285753693
41.188992 823.56329 871.4043 4294242293
42.979816 822.19421 870.24988 4294110451
-16.084404 826.30304 871.09827 4286540651
10.354128 750.36896 875.09021 4291081398
1.8770642 753.97772 874.20886 4289436819
7.5082569 753.97772 874.20886 4290882219
10.011008 754.93439 875.01562 4291409588
13.139449 755.41272 875.41895 4289108118
26.278898 755.41272 875.41895 4292662239
28.155964 754.69519 874.8139 4294504182
30.033028 753.97772 874.20886 4294438902
0.93577981 757.57806 873.32056 4289370763
4.6788988 757.57806 873.32056 4290224298
7.4862385 757.57806 873.32056 4290882471
29.944954 757.57806 873.32056 4294504695
31.816513 757.57806 873.32056 4294966527
34.623852 757.57806 873.32056 4294967039
5.6146789 759.00885 874.52698 4290487722
7.4862385 759.72424 875.13019 4290948775
10.293578 759.72424 875.13013 4291607219
25.266056 760.4397 875.7334 4291411392
29.009174 759.72424 875.13013 4294374133
31.816513 759.00885 874.52698 4294834430
34.623852 759.00885 874.52698 4294702588
1.866055 763.30988 874.22937 4289831317
4.6651373 763.30994 874.22937 4290619302
29.85688 764.02319 874.83081 4293717743
31.722937 763.30988 874.22937 4294703868
34.522018 763.30988 874.22937 4294703355
37.321102 762.59656 873.62793 4294769148
0.9302752 767.59833 873.92114 4290159250
35.35046 767.59833 873.92114 4294834941
1.8605504 769.02075 875.12048 4290619553
4.6513758 769.02075 875.12048 4291671722
29.768806 769.02075 875.12048 4293255142
31.629358 769.02075 875.12048 4294702844
34.420185 769.02075 875.12048 4294571256
0.92752296 771.87408 873.60229 4290422948
3.7100918 772.58319 874.2002 4290816926
31.53578 772.58319 874.2002 4294768383
34.318352 772.58319 874.2002 4294637562
37.100918 771.16498 873.00439 4294769146
0.92752296 775.06934 874.33441 4284173384
4.6376147 774.0014 875.396 4286146127
25.043119 774.0014 875.396 4290557617
28.753212 774.0014 875.396 4292596693
31.442202 776.13721 873.27283 4294898940
34.216515 776.13721 873.27283 4294374392
1.2330276 778.02252 874.86237 4282725943
4.3155961 778.4939 875.25977 4282923803
7.3981652 778.96521 875.65723 4281409808
11.097248 778.96521 875.65723 4282924085
12.946789 778.96521 875.65723 4283845187
16.645872 778.96521 875.65723 4292787125
19.420183 778.96521 875.65723 4294436326
22.194496 778.96521 875.65723 4294437619
24.968807 778.96521 875.65723 4293911783
28.976149 778.4939 875.25977 4292333781
31.442202 777.55121 874.46497 4294965759
33.291744 777.55121 874.46497 4294440186
0.61467892 782.03247 874.31952 4282923831
25.816513 782.50238 874.7157 4294043365
28.582569 782.50238 874.7157 4292464342
31.348623 781.79749 874.12134 4294438907
34.114677 781.09259 873.52698 4294242550
1.8440367 783.91217 875.9043 4283055162
4.6100917 783.91217 875.9043 4283318586
7.3761468 783.91217 875.9043 4283385412
10.142202 783.91217 875.9043 4283252027
13.830275 783.91217 875.9043 4283384119
16.596331 783.91217 875.9043 4283056947
19.362385 783.91217 875.9043 4287135609
23.050459 783.91217 875.9043 4294238701
25.816513 783.91217 875.9043 4294700271
27.660551 783.91217 875.9043 4293845218
0.91926605 786.73401 874.35944 4283121466
3.6770642 787.43677 874.95203 4283253057
11.031193 787.43677 874.95203 4283974469
28.803671 786.96826 874.55695 4294043879
31.255045 786.03119 873.76685 4294306791
33.093578 786.03119 873.76685 4294373109
0.91651374 790.95288 873.99268 4283385408
3.666055 790.95288 873.99268 4283777856
29.32844 790.95288 873.99268 4294637299
31.161469 790.95288 873.99268 4294571506
0.91651374 793.40747 874.10028 4283777856
4.5825686 792.35425 875.17432 4283843906
7.3321099 792.35425 875.17432 4284107589
10.081652 792.35425 875.17432 4284501834
25.662386 792.35425 875.17432 4286541475
28.367889 793.40747 874.10028 4294569720
31.981651 794.46063 873.02625 4294703095
34.722935 794.46063 873.02625 4293979635
0.9137615 795.85779 874.20435 4283844167
4.5688076 796.55634 874.79333 4284107593
7.310092 796.5564 874.79333 4284370506
10.051376 797.25494 875.38232 4284633935
23.757797 797.25494 875.38232 4285357658
25.585321 797.25494 875.38232 4284177482
28.631195 796.78925 874.98969 4290557892
31.06789 795.85779 874.20435 4294703103
1.2146789 799.8172 873.61865 4284042060
4.5550461 800.74585 874.40173 4284304970
7.2880735 800.74585 874.40173 4284568142
10.021101 800.74585 874.40173 4284765521
29.152294 800.74585 874.40173 4288253604
31.885319 800.04944 873.81445 4294965246
34.618347 800.04938 873.81445 4294636537
36.440369 800.04938 873.81445 4294505206
1.8183486 803.53186 874.13477 4284635986
4.5458717 803.53186 874.13477 4284766025
7.2880735 802.13879 875.57617 4284504146
10.021101 802.13879 875.57617 4284897877
12.754128 802.13879 875.57617 4285028693
16.398165 802.13879 875.57617 4285423451
22.77523 802.13879 875.57617 4286080100
25.508257 802.13879 875.57617 4285294432
28.241283 802.13879 875.57617 4285360491
31.852293 802.83533 874.85547 4294571775
34.548622 803.53186 874.13477 4294965503
36.366974 803.53186 874.13477 4294637049
4.5458717 804.922 875.30688 4284767315
7.2733946 804.922 875.30688 4285094486
9.0917435 804.922 875.30688 4285094486
29.093578 804.922 875.30688 4285096294
31.8211 804.922 875.30688 4294373878
1.359633 808.04681 874.01758 4284701780
4.2299695 809.31732 875.08868 4285357657
29.005505 809.77924 875.47827 4283910196
31.72477 808.39331 874.30969 4294242286
34.444038 807.70032 873.7254 4294834430
36.256882 807.00739 873.14111 4294637049
0 811.85614 873.3053 4284833110
31.628441 811.85614 873.3053 4294241251
34.339451 811.85614 873.3053 4294966015
36.14679 811.85614 873.3053 4294899453
0 813.92871 875.05286 4285424476
28.013762 814.61963 875.63538 4284897093
31.327217 813.69843 874.8587 4294371543
34.339451 813.23785 874.47034 4294966271
-4.5045872 817.37689 874.03619 4285490780
-1.8018348 817.37683 874.03619 4285621600
31.832418 817.60645 874.2298 4294965503
34.234863 817.37683 874.03619 4294834429
36.63731 817.14728 873.84259 4294637049
-8.0834866 821.50323 873.59131 4285753441
-4.5045872 819.44312 875.77844 4286016101
-1.8018348 819.44312 875.77844 4286014820
31.532112 819.44312 875.77844 4294966252
34.234863 819.44312 875.77844 4294702590
36.879814 820.47314 874.68488 4294440186
39.519264 821.50323 873.59131 4294176244
-12.574312 823.56317 875.32825 4286738287
-10.777982 823.56317 875.32825 4286673521
-8.3828745 823.33429 875.13525 4286344810
37.722935 823.56317 875.32825 4294769405
40.417431 823.56317 875.32825 4294835198
4.4541283 835.16931 874.65002 4287790963
8.0174313 835.16931 874.65002 4287463548
19.82477 748.91699 877.79004 4291476147
22.656881 748.91699 877.79004 4291741129
11.295413 751.80823 876.30371 4290688438
13.177981 751.80823 876.30371 4289175199
16.001835 751.80823 876.30371 4290750622
25.414679 751.80823 876.30371 4293319905
16.001835 753.24744 877.51721 4290293150
19.766972 753.24744 877.51721 4291016635
22.590826 753.24744 877.51721 4290951094
24.473394 753.24744 877.51721 4292661712
13.139449 757.56531 877.23389 4291476659
15.955046 757.56531 877.23389 4290558135
19.709175 757.56531 877.23389 4290226864
22.524771 757.56531 877.23389 4291607488
25.340366 756.84778 876.62891 4291609800
7.4862385 761.87048 876.93982 4291015074
10.293578 761.87048 876.93982 4291542193
14.036697 761.87048 876.93982 4291016888
16.844036 761.87048 876.93982 4290096051
19.651377 761.87048 876.93982 4291673784
22.458715 761.87048 876.93982 4291869379
25.266056 761.87048 876.93982 4291212989
28.073395 761.87048 876.93982 4293912297
11.229358 763.30133 878.14624 4291409595
14.036697 763.30133 878.14624 4291409856
16.844036 763.30133 878.14624 4289897391
19.651377 763.30133 878.14624 4291937471
22.458715 763.30133 878.14624 4292002762
4.6651373 765.44983 876.03369 4291146145
7.46422 766.16309 876.63513 4291737512
9.9522934 766.40088 876.83563 4291671983
13.995413 766.8764 877.23657 4292133827
16.794495 766.8764 877.23657 4291542198
19.593578 766.8764 877.23657 4290358187
22.39266 766.8764 877.23657 4289964710
25.191742 766.16309 876.63513 4291740613
28.612844 765.92535 876.43463 4293057245
31.722937 765.44983 876.03369 4294835195
33.588989 765.44983 876.03369 4294769148
5.5816512 770.44312 876.31982 4291475112
7.4422016 770.44312 876.31982 4291868332
10.263303 768.30304 878.43945 4292066233
13.995413 768.30304 878.43945 4292462274
16.794495 768.30304 878.43945 4292989378
19.593578 768.30304 878.43945 4290752446
22.39266 768.30304 878.43945 4290030503
25.117432 770.44312 876.31982 4291478722
28.838531 770.44312 876.31982 4292663259
7.4422016 771.86554 877.51917 4289628027
10.543118 772.33966 877.91895 4291605413
14.26422 772.33966 877.91895 4292791754
16.744955 771.86554 877.51917 4293319124
19.53578 771.86554 877.51917 4293186773
22.326605 771.86554 877.51917 4292136136
5.5651374 775.41956 876.5918 4285094720
7.4201837 775.41956 876.5918 4287462232
9.2752295 776.12866 877.1897 4285686344
13.912844 776.12866 877.1897 4290158220
16.695414 775.41956 876.5918 4293384917
19.477982 775.41956 876.5918 4293843935
22.26055 775.41956 876.5918 4292726490
25.043119 775.41956 876.5918 4291806404
27.825687 775.41956 876.5918 4291807164
4.6238532 780.37921 876.84949 4282858292
7.3981652 780.37921 876.84949 4282725940
10.172478 780.37921 876.84949 4281935660
13.871559 780.37921 876.84949 4283908942
16.645872 780.37921 876.84949 4289764517
19.420183 780.37921 876.84949 4293780947
22.194496 780.37921 876.84949 4294964223
24.044037 780.37921 876.84949 4294897403
5.5321102 785.32196 877.09302 4283253057
7.3761468 785.32196 877.09302 4283777604
9.2201834 785.32196 877.09302 4283843653
13.830275 785.32196 877.09302 4284172362
16.596331 785.32196 877.09302 4283646788
19.362385 785.32196 877.09302 4285557324
23.050459 785.32196 877.09302 4293055173
25.816513 785.32196 877.09302 4294306801
5.5155964 788.84235 876.13721 4283909698
7.3541284 788.84235 876.13721 4283910212
10.111927 788.84235 876.13721 4284238406
13.788991 788.84235 876.13721 4284697930
16.546789 788.84235 876.13721 4285289299
19.304588 788.84235 876.13721 4284370761
22.981651 788.84235 876.13721 4285752416
25.73945 788.84235 876.13721 4291604926
27.577982 788.84235 876.13721 4294962426
14.095413 790.71649 877.71729 4284633165
16.546789 790.24792 877.32227 4285027156
19.304588 790.24792 877.32227 4284568142
22.981651 790.24792 877.32227 4284504646
10.081652 793.75562 876.35583 4284502349
12.831193 793.75562 876.35583 4284568142
16.497248 793.75562 876.35583 4284897107
19.246788 793.75562 876.35583 4285159250
22.912844 793.75562 876.35583 4284438857
25.662386 793.75562 876.35583 4284767065
27.495413 793.75562 876.35583 4291806916
13.747706 795.15698 877.53748 4284765267
16.497248 795.15698 877.53748 4285094234
19.246788 795.15698 877.53748 4285487958
21.99633 795.15698 877.53748 4285357658
14.011009 799.11786 876.95312 4284962900
16.447706 798.6521 876.56042 4285291609
19.188992 799.35071 877.14941 4285555035
22.844036 798.6521 876.56042 4286277211
25.585321 798.6521 876.56042 4284310617
27.412844 798.6521 876.56042 4284310617
10.93211 803.5318 876.75073 4285094486
13.665138 803.5318 876.75073 4285225303
16.398165 803.5318 876.75073 4285948258
19.131193 803.5318 876.75073 4285818209
22.77523 803.5318 876.75073 4286211429
25.508257 803.5318 876.75073 4286212199
27.330275 803.5318 876.75073 4284830546
5.4550457 806.31213 876.479 4285291863
