# .PCD v0.7 - Point Cloud Data file format
VERSION 0.7
FIELDS x y z rgb
SIZE 4 4 4 4
TYPE F F F U
COUNT 1 1 1 1
WIDTH 1155
HEIGHT 1
VIEWPOINT 0 0 0 1 0 0 0
POINTS 1155
DATA ascii
-73.774315 797.80835 1269.5659 4285553000
-73.774315 799.62775 1271.1001 4285882216
-82.651375 814.90918 1270.9047 4287463068
-24.348623 757.51123 1274.8293 4287135643
-19.478899 757.51123 1274.8293 4287401379
-2.4348624 757.51123 1274.8293 4293053917
-19.31743 774.69067 1274.9263 4288582826
-16.838531 781.10083 1273.791 4290620357
-14.433027 781.10083 1273.791 4290489537
-82.673393 787.48291 1272.6321 4286539628
-82.673393 789.31494 1274.1768 4286343021
-93.099083 797.48694 1274.5271 4288843154
-90.711929 796.57446 1273.7577 4288579469
-88.324768 796.57446 1273.7577 4288842384
-85.937614 796.57446 1273.7577 4288778136
-82.35688 797.48694 1274.5271 4286212723
-76.154129 801.44714 1272.6342 4285422949
-73.774315 801.44714 1272.6342 4285488742
-70.20459 803.26648 1274.1682 4285421414
-85.343117 809.55322 1272.9287 4292266211
-82.972481 809.55322 1272.9287 4287463579
-80.601837 809.55322 1272.9287 4285027941
-80.601837 811.3656 1274.4569 4284897646
-85.01284 817.61731 1273.188 4291146440
-82.651375 817.61731 1273.188 4287527568
-85.01284 819.42261 1274.7102 4291015113
-31.653212 760.30341 1277.1836 4286934908
-29.218349 760.30341 1277.1836 4287528323
-25.566055 760.30334 1277.1836 4287200654
-21.913761 760.30341 1277.1836 4287662501
-19.478899 760.30341 1277.1836 4287596961
-17.044037 760.30341 1277.1836 4289307835
-13.797554 760.61359 1277.4452 4290490062
-7.3045874 760.30341 1277.1836 4288188834
-4.8697248 760.30341 1277.1836 4288719769
-2.4348624 760.30341 1277.1836 4289640870
-29.086239 770.10547 1277.6003 4288713383
-25.450459 770.10547 1277.6003 4288713124
-19.390825 770.10547 1277.6003 4290488508
-4.8477063 770.10547 1277.6003 4292660206
-2.4238532 769.17896 1276.8191 4293976308
-19.31743 776.53674 1276.4828 4288910505
-16.902752 776.53674 1276.4828 4290686916
-14.488073 776.53674 1276.4828 4290556098
-4.8293576 776.53674 1276.4828 4292792807
-2.4146788 776.53674 1276.4828 4293384945
-19.244038 782.93982 1275.3417 4288777904
-16.838531 782.93982 1275.3417 4290751694
-13.230275 782.93982 1275.3417 4290818505
-9.6220188 782.93982 1275.3417 4290884545
-79.381653 784.77881 1276.8922 4284961362
-21.649542 784.77881 1276.8922 4288254378
-19.244038 784.77881 1276.8922 4288581290
-16.838531 784.77881 1276.8922 4290423494
-13.230275 784.77881 1276.8922 4290489537
-9.6220188 784.77881 1276.8922 4291081156
-7.2165136 784.77881 1276.8922 4292199894
-4.8110094 784.77881 1276.8922 4292463843
-82.673393 791.14691 1275.7214 4286080878
-16.774311 791.14691 1275.7214 4290160058
-14.377981 791.14691 1275.7214 4290423744
-11.981651 791.14691 1275.7214 4290357951
-82.673393 792.97894 1277.2662 4286278510
-14.377981 792.97894 1277.2662 4290554560
-10.783486 792.97894 1277.2662 4290555071
-4.7926607 792.97894 1277.2662 4292135647
-93.099083 799.31195 1276.0659 4289961119
-88.324768 799.31195 1276.0659 4289764265
-85.937614 799.31195 1276.0659 4289633960
-82.35688 799.31195 1276.0659 4286212722
-78.776146 799.31195 1276.0659 4285028189
-93.099083 801.13696 1277.6047 4291408063
-88.324768 801.13696 1277.6047 4291278794
-85.937614 801.13696 1277.6047 4291214032
-82.35688 801.13696 1277.6047 4286541951
-11.93578 801.13696 1277.6047 4290753481
-83.293579 805.08594 1275.7023 4287463831
-80.913765 805.08594 1275.7023 4285488490
-73.774315 806.90527 1277.2363 4285422697
-70.20459 805.08594 1275.7023 4285291111
-80.601837 814.08417 1276.7491 4285620589
-21.335779 814.99036 1277.5132 4288911009
-18.965137 814.99036 1277.5132 4288911788
-16.594496 814.99036 1277.5132 4288451237
-14.223853 814.08417 1276.7491 4288384680
-10.667891 814.08411 1276.7491 4290357698
-7.1119266 814.08417 1276.7491 4291409870
-4.7412844 814.08417 1276.7491 4291476190
-7.0844035 821.22803 1276.2325 4291212747
-4.7229357 821.22803 1276.2325 4291410651
-9.4458714 823.03333 1277.7548 4290817991
-7.0844035 823.03333 1277.7548 4291015113
-4.7229357 823.03333 1277.7548 4290949588
-2.3614678 823.03333 1277.7548 4292594413
-4.704587 829.23596 1276.4443 4290884556
-36.660549 754.737 1279.0303 4286475660
-34.216515 754.737 1279.0303 4286540410
-31.772476 754.737 1279.0303 4286869375
-29.32844 754.737 1279.0303 4287265412
-26.884403 754.737 1279.0303 4287331461
-21.99633 754.737 1279.0303 4287727780
-17.108257 754.737 1279.0303 4289111997
-13.442202 754.737 1279.0303 4290687699
-9.7761469 754.737 1279.0303 4291478235
-7.3321099 754.737 1279.0303 4290425291
-4.8880734 754.737 1279.0303 4291211713
-39.104588 756.60547 1280.6058 4287660440
-36.660549 756.60547 1280.6058 4285884030
-34.216515 756.60547 1280.6058 4286211697
-12.220183 756.60547 1280.6058 4291279837
-9.7761469 756.60547 1280.6058 4290557635
0 756.60547 1280.6058 4291872741
-31.653212 763.09564 1279.538 4288909992
-29.218349 763.09564 1279.538 4288778653
-25.566055 763.09564 1279.538 4287857301
-21.913761 763.09564 1279.538 4288186014
-19.478899 763.09564 1279.538 4288119454
-17.044037 763.09564 1279.538 4289303984
-13.391743 763.09564 1279.538 4291277518
-9.7394495 763.09564 1279.538 4291016397
-7.3045874 763.09564 1279.538 4287331989
-4.8697248 763.09564 1279.538 4288915843
-2.4348624 763.09564 1279.538 4289508236
-31.510092 772.88513 1279.9441 4287857814
-29.086239 772.88513 1279.9441 4287728292
-25.450459 772.88513 1279.944 4287201692
-21.814678 772.88513 1279.9441 4288780468
-16.966972 771.95856 1279.1628 4290161601
-12.927218 772.57623 1279.6836 4290752454
-9.6954126 772.88513 1279.9441 4290949830
-7.2715597 772.88513 1279.9441 4292528862
-4.8477063 771.95856 1279.1628 4292332007
-2.4238532 771.95856 1279.1628 4293450488
0 773.81165 1280.7252 4293254129
-24.14679 778.38275 1278.0393 4287462809
-21.732111 778.38275 1278.0393 4288647083
-19.31743 778.38275 1278.0393 4288712360
-12.073395 778.38275 1278.0393 4290686916
-9.6587152 778.38275 1278.0393 4290555585
-7.2440367 778.38275 1278.0393 4292529118
-4.8293576 778.38275 1278.0393 4293055210
-2.4146788 778.38275 1278.0393 4293647603
-25.35413 780.22882 1279.5958 4287200928
-21.732111 780.22882 1279.5958 4288385194
-7.2440367 780.22882 1279.5958 4292200405
-4.8293576 780.22882 1279.5958 4292792294
-2.4146788 780.22882 1279.5958 4293844983
-79.381653 787.53735 1279.2183 4284831834
-76.976151 787.53735 1279.2183 4285224800
-24.055046 787.53735 1279.2183 4287529886
-21.649542 787.53735 1279.2183 4288648111
-19.244038 787.53735 1279.2183 4288647079
-16.838531 786.61786 1278.4429 4290291906
-13.230275 786.61786 1278.4429 4290358205
-9.6220188 787.53735 1279.2183 4290949315
-7.2165136 787.53735 1279.2183 4292133588
-4.8110094 787.53735 1279.2183 4292398050
-2.4055047 788.45691 1279.9935 4293384945
-76.682571 794.81097 1278.8109 4285684838
-19.170643 794.81097 1278.8109 4289501098
-16.774311 794.81097 1278.8109 4290422200
-14.377981 794.81097 1278.8109 4290357951
-10.783486 794.81097 1278.8109 4290555329
-4.7926607 794.81097 1278.8109 4292135395
-91.060547 796.64294 1280.3556 4289567143
-22.765137 796.64294 1280.3556 4290092712
-19.170643 796.64294 1280.3556 4290160560
-16.774311 796.64294 1280.3556 4290226353
-14.377981 796.64294 1280.3556 4290226365
-10.783486 796.64294 1280.3556 4290819015
-7.1889906 796.64294 1280.3556 4291674579
-4.7926607 796.64294 1280.3556 4291806692
-90.711929 802.96198 1279.1434 4291936206
-88.324768 802.96198 1279.1434 4292199121
-85.937614 802.96198 1279.1434 4291608790
-76.388992 802.96198 1279.1434 4285422949
-74.001831 802.96198 1279.1434 4285554535
-14.322936 802.96198 1279.1434 4290556098
-11.93578 802.96198 1279.1434 4290885062
-88.324768 804.78699 1280.6823 4292659420
-76.388992 804.78699 1280.6823 4285291111
-70.421097 804.78699 1280.6823 4285356904
-21.484404 804.78699 1280.6823 4288122538
-19.097248 804.78699 1280.6823 4289107618
-16.710093 804.78699 1280.6823 4290357942
-14.322936 804.78699 1280.6823 4290423746
-10.742202 804.78699 1280.6823 4290752708
-7.161468 804.78699 1280.6823 4292002258
-78.533943 808.72467 1278.7704 4284766059
-19.038532 808.72467 1278.7704 4288845212
-16.658716 808.72467 1278.7704 4289963949
-14.278899 808.72467 1278.7704 4290161090
-10.709174 808.72467 1278.7704 4290818503
-7.1394496 808.72467 1278.7704 4291607502
-78.533943 810.54407 1280.3044 4285030251
-21.418348 810.54407 1280.3044 4288844964
-19.038532 810.54407 1280.3044 4288846247
-16.658716 810.54407 1280.3044 4288385696
-2.3798165 810.54407 1280.3044 4293186550
-82.972481 817.70892 1279.8054 4291475405
-80.601837 817.70892 1279.8054 4291935176
-21.335779 817.70892 1279.8054 4289568168
-18.965137 817.70892 1279.8054 4288977586
-16.594496 817.70892 1279.8054 4288714157
-14.223853 817.70892 1279.8054 4288844715
-10.667891 817.70898 1279.8054 4290621124
-7.1119266 816.80273 1279.0414 4291082444
-4.7412844 816.80273 1279.0414 4291476959
-2.3706422 817.70892 1279.8054 4292792818
-14.168807 824.83875 1279.277 4288976039
-10.626606 824.83875 1279.277 4290226110
-7.0844035 824.83875 1279.277 4290884045
-4.7229357 824.83875 1279.277 4290884306
-2.3614678 824.83875 1279.277 4292397802
-14.168807 826.6441 1280.7992 4289240238
-10.626606 826.6441 1280.7992 4289634999
-7.0844035 826.6441 1280.7992 4290556361
-2.3614678 826.6441 1280.7992 4292463845
-4.704587 832.83264 1279.4771 4291147719
-2.3522935 832.83264 1279.4771 4292792544
-40.326607 758.474 1282.1813 4287594895
-36.660549 758.474 1282.1813 4286673545
-34.216515 758.474 1282.1813 4286934653
-9.7761469 758.474 1282.1813 4290557642
1.2220184 758.474 1282.1813 4291218405
-46.436699 760.34247 1283.7567 4287066754
-43.992661 760.34247 1283.7567 4287134850
-40.326607 760.34247 1283.7567 4287595147
-36.660549 760.34247 1283.7567 4287660942
-34.216515 760.34247 1283.7567 4287857303
1.2220184 760.34247 1283.7567 4291939057
4.8880734 760.34247 1283.7567 4293517559
-31.653212 764.95709 1281.1075 4288450458
-29.218349 764.95709 1281.1075 4288713383
-25.566055 764.95709 1281.1075 4289238697
-21.913761 764.95709 1281.1075 4290816442
-19.478899 764.95709 1281.1075 4290488243
-17.044037 764.95709 1281.1075 4290290863
-13.391743 764.95709 1281.1075 4291145418
-9.7394495 764.95709 1281.1075 4291540176
-7.3045874 764.95709 1281.1075 4292263900
-4.8697248 764.95709 1281.1075 4292463315
-36.522934 766.8186 1282.6771 4287398797
-34.088074 766.8186 1282.6771 4287200643
-31.653212 766.8186 1282.6771 4287858317
-21.913761 766.8186 1282.6771 4290554812
-17.044037 766.8186 1282.6771 4290685887
-13.391743 766.8186 1282.6771 4291277259
-9.7394495 766.8186 1282.6771 4291409095
-7.3045874 766.8186 1282.6771 4292527319
0 766.8186 1282.6771 4293583091
-31.510092 775.66467 1282.2877 4287595160
-29.086239 775.66467 1282.2877 4288253872
-26.662386 775.66467 1282.2877 4287201184
0 775.66467 1282.2877 4293122290
-31.510092 777.5177 1283.8501 4287595160
-29.086239 777.5177 1283.8501 4287990450
0 777.5177 1283.8501 4293451255
-25.35413 782.07483 1281.1523 4287135391
-2.4146788 782.07483 1281.1523 4293648116
-31.390825 783.9209 1282.709 4287594363
-28.976147 783.9209 1282.709 4287661483
-26.561468 783.9209 1282.709 4287003553
-2.4146788 783.9209 1282.709 4293977338
-79.381653 790.2959 1281.5442 4284964193
-76.976151 790.2959 1281.5442 4285553000
-25.257797 790.2959 1281.5442 4288712098
-21.649542 790.2959 1281.5442 4288909221
-19.244038 790.2959 1281.5442 4288712099
-16.838531 790.2959 1281.5442 4290159545
-7.2165136 790.2959 1281.5442 4292068821
-2.4055047 790.2959 1281.5442 4293188336
-79.381653 792.13495 1283.0947 4285225819
-25.257797 792.13495 1283.0947 4289697962
-21.649542 792.13495 1283.0947 4289435556
-7.2165136 792.13495 1283.0947 4291937237
-2.4055047 792.13495 1283.0947 4293253877
-91.060547 798.47498 1281.9003 4291015365
-79.078896 799.39099 1282.6726 4285225571
-76.682571 798.47498 1281.9003 4285686118
-74.28624 798.47498 1281.9003 4285488740
-33.548622 800.30701 1283.4451 4287923862
-31.152294 800.30701 1283.4451 4287989655
-28.755962 800.30701 1283.4451 4288318356
-26.359632 799.39099 1282.6726 4289370022
-22.765137 799.39099 1282.6727 4289566901
-19.170643 799.39099 1282.6726 4290029492
-16.774311 799.39099 1282.6726 4290358457
-14.377981 798.47498 1281.9003 4290029502
-9.5853214 799.39099 1282.6726 4290490558
-7.1889906 799.39099 1282.6726 4291674832
-4.7926607 799.39099 1282.6726 4291609826
-2.3963304 800.30701 1283.4451 4293517310
-76.388992 806.61194 1282.2211 4284897646
-74.001831 806.61194 1282.2211 4284963695
-70.421097 806.61194 1282.2211 4285225318
-26.258715 806.61194 1282.2211 4287070872
-22.677982 806.61194 1282.2211 4287727517
-4.774312 806.61194 1282.2211 4291476194
-2.387156 806.61194 1282.2211 4293055482
-76.388992 808.43701 1283.7599 4285818750
-74.001831 808.43701 1283.7599 4285095283
-69.227524 808.43701 1283.7599 4285291111
-31.033028 808.43701 1283.7599 4286543238
-28.645872 808.43701 1283.7599 4286412938
-26.258715 808.43701 1283.7599 4286741902
-23.871559 808.43701 1283.7599 4287200139
-30.937614 812.36346 1281.8385 4287133051
-26.177982 812.36346 1281.8385 4287529104
-23.798164 812.36346 1281.8385 4287923858
-2.3798165 812.36346 1281.8385 4293252857
-33.317432 814.18286 1283.3726 4288382084
-30.937614 814.18286 1283.3726 4288250499
-28.557798 814.18286 1283.3726 4288579727
-26.177982 814.18286 1283.3726 4288711314
-23.798164 814.18286 1283.3726 4289172898
0 814.18286 1283.3726 4292661737
-30.818348 820.42749 1282.0977 4287201145
-28.447706 820.42749 1282.0977 4287396487
-26.077065 820.42749 1282.0977 4287659659
-22.521101 820.42749 1282.0977 4288053915
-18.965137 820.42749 1282.0977 4288122023
-16.594496 820.42749 1282.0977 4288450987
-14.223853 820.42749 1282.0977 4289173163
-11.853211 820.42749 1282.0977 4290949318
-30.818348 822.23987 1283.6259 4288712069
-28.447706 822.23987 1283.6259 4288908710
-26.077065 822.23987 1283.6259 4288974503
-22.521101 822.23987 1283.6259 4288842917
-18.965137 822.23987 1283.6259 4288843947
-16.594496 822.23987 1283.6259 4288843947
0 822.23987 1283.6259 4292464358
-33.060551 830.25482 1283.8436 4287527307
-30.699083 830.25482 1283.8436 4287461514
-28.337614 830.25482 1283.8436 4288511631
-14.168807 828.44946 1282.3214 4290487741
-10.626606 828.44946 1282.3214 4290290878
-7.0844035 829.35217 1283.0825 4290817477
-4.7229357 828.44946 1282.3214 4290950090
-2.3614678 828.44946 1282.3214 4292989417
0 830.25482 1283.8436 4292398304
-73.596329 754.77606 1285.6035 4284240998
-71.14312 754.77606 1285.6035 4284701806
-68.689911 754.77606 1285.6035 4284766826
-49.06422 755.71381 1286.3942 4286211699
-46.611008 754.77606 1285.6035 4287067007
-44.157799 754.77606 1285.6035 4287528831
4.9064221 754.77606 1285.6035 4293714682
7.359633 754.77606 1285.6035 4293451253
9.8128443 755.71381 1286.3942 4292597741
-48.880733 764.07947 1286.9076 4286145902
-46.436699 763.1452 1286.1199 4287132286
-43.992661 763.1452 1286.1199 4286477697
-40.326607 763.14526 1286.1199 4287398798
-36.660549 762.21094 1285.3322 4287398797
-34.216515 762.21094 1285.3322 4287463307
1.6293578 762.8338 1285.8573 4293123824
4.8880734 763.1452 1286.1199 4292662771
7.3321099 763.1452 1286.1199 4293123322
9.7761469 764.07947 1286.9076 4293451251
-41.392662 769.61078 1285.0314 4287725715
-37.740364 769.61084 1285.0314 4287266439
-34.088074 769.61078 1285.0314 4286608003
1.6232415 769.30054 1284.7698 4293319665
4.8697248 769.61078 1285.0314 4292924397
-31.510092 779.37079 1285.4126 4287725189
-29.086239 779.37079 1285.4126 4287924401
1.2119266 779.37079 1285.4126 4292991220
-36.3578 781.22388 1286.9751 4287528072
-33.933945 781.22388 1286.9751 4287133812
1.2119266 781.22388 1286.9751 4293583346
-31.390825 785.76697 1284.2655 4287988356
-28.976147 785.76697 1284.2655 4287727782
-26.561468 785.76697 1284.2655 4287333024
0 785.76697 1284.2655 4293253358
-31.390825 787.61298 1285.822 4288580246
-28.976147 787.61298 1285.822 4288975013
1.2073394 787.61298 1285.822 4293188334
-31.271559 793.974 1284.6454 4288513952
-28.866055 793.974 1284.6454 4289039778
-26.46055 793.974 1284.6454 4290224053
-2.4055047 793.974 1284.6454 4293320187
-36.082569 795.81299 1286.196 4287858069
-33.677063 795.81299 1286.196 4288121243
-31.271559 795.81299 1286.196 4288187036
-28.866055 795.81299 1286.196 4288645789
-2.4055047 795.81299 1286.196 4293254651
-79.078896 802.13904 1284.9897 4285093734
-34.746788 803.05505 1285.7621 4286608521
-31.152294 803.05505 1285.7621 4287135124
-28.755962 803.05505 1285.7621 4286807441
-26.359632 802.13904 1284.9897 4287267733
-23.963303 802.13904 1284.9897 4287333022
-4.7926607 802.13904 1284.9897 4292135141
-2.3963304 802.13904 1284.9897 4293385208
0 803.97107 1286.5344 4293385712
-78.776146 811.17444 1286.0681 4288973464
-76.388992 810.26196 1285.2987 4286999948
-74.001831 811.17444 1286.0681 4286473345
-70.421097 811.17444 1286.0681 4285946469
-66.84037 812.08698 1286.8374 4285619045
-34.613762 811.17444 1286.0681 4287658888
-28.645872 810.26196 1285.2987 4287200139
1.193578 811.17444 1286.0681 4292925164
4.774312 812.08698 1286.8374 4293056747
-34.110703 817.21515 1285.9293 4287595142
-30.937614 816.00226 1284.9066 4287527544
-28.557798 816.00226 1284.9066 4287857024
-26.177982 816.00226 1284.9066 4288383368
-23.798164 816.00226 1284.9066 4288844701
1.1899083 816.91199 1285.6736 4292530151
4.7596331 817.82166 1286.4407 4292596198
-33.188992 824.05225 1285.1539 4288842902
-30.818348 824.05225 1285.1539 4289369246
-28.447706 824.05225 1285.1539 4289499562
-26.077065 824.05225 1285.1539 4290025906
-22.521101 824.05225 1285.1539 4290290611
-18.965137 824.05225 1285.1539 4290620094
-16.594496 824.05225 1285.1539 4290422715
0 824.05225 1285.1539 4292333027
-40.300919 825.86462 1286.6821 4287724937
-34.374313 825.86462 1286.6821 4288908705
-30.818348 825.86462 1286.6821 4289369007
-28.447706 825.86462 1286.6821 4289499816
-26.077065 825.86462 1286.6821 4290026160
-18.965137 825.86462 1286.6821 4290883002
-16.594496 825.86462 1286.6821 4290751160
1.1853211 825.86462 1286.6821 4292530399
-37.783485 832.06018 1285.366 4286278258
-35.42202 832.06018 1285.366 4286475637
-49.06422 757.58936 1287.9755 4286145652
7.359633 757.58936 1287.9755 4293320437
9.8128443 757.58936 1287.9755 4292992753
12.266055 757.58936 1287.9755 4293058546
-49.06422 759.46484 1289.5569 4286145393
9.8128443 759.46484 1289.5569 4293058546
12.266055 759.46484 1289.5569 4292992753
-46.436699 765.94794 1288.4832 4287067004
-43.992661 765.94794 1288.4832 4286673284
7.3321099 765.94794 1288.4832 4293253106
9.7761469 765.94794 1288.4832 4293384432
12.220183 765.94794 1288.4832 4293318638
-41.392662 772.40302 1287.3857 4288054417
-37.740364 772.40302 1287.3857 4287395715
-34.088074 772.40302 1287.3857 4285950336
2.4348624 772.40302 1287.3857 4293253877
4.8697248 772.40302 1287.3857 4292990702
7.3045874 772.40302 1287.3857 4292793580
-43.827522 774.26447 1288.9552 4286935936
-41.392662 774.26447 1288.9552 4287857038
-37.740364 774.26447 1288.9552 4287199360
-34.088074 774.26447 1288.9552 4286279301
2.4348624 774.26447 1288.9552 4293385206
4.8697248 774.26447 1288.9552 4293056495
7.3045874 774.26447 1288.9552 4292990702
-36.3578 783.0769 1288.5375 4287725452
-33.933945 783.0769 1288.5375 4287527805
2.4238532 783.0769 1288.5375 4293384945
4.8477063 783.0769 1288.5375 4293186798
7.2715597 783.0769 1288.5375 4293252847
-36.220184 791.30505 1288.9351 4287660942
-33.805504 790.38202 1288.1567 4288250519
-31.390825 789.45898 1287.3785 4288776857
-28.976147 789.45898 1287.3785 4289367974
1.2073394 790.38208 1288.1567 4293189102
4.8293576 790.38202 1288.1567 4292990701
7.2440367 791.30505 1288.9351 4293254129
-37.285324 797.65204 1287.7466 4287726231
1.2027524 797.65204 1287.7466 4293583605
-67.354126 799.49109 1289.2972 4284767080
-43.299084 799.49109 1289.2972 4286937217
-40.893578 799.49109 1289.2972 4287266438
-38.488075 799.49109 1289.2972 4287068301
1.2027524 799.49109 1289.2972 4293583092
4.8110094 799.49109 1289.2972 4293649139
-71.889908 805.80304 1288.0791 4285225318
-67.097244 805.80304 1288.0791 4285093732
-38.341286 805.80304 1288.0791 4287002756
-34.746788 805.80304 1288.0791 4286542721
1.1981652 805.80304 1288.0791 4292990956
-71.889908 807.63507 1289.6239 4285947494
-67.097244 807.63507 1289.6239 4285487459
-58.710091 807.63507 1289.6239 4285684579
-55.115597 807.63507 1289.6239 4285947494
-52.719265 807.63507 1289.6239 4285882216
-45.530273 807.63507 1289.6239 4287067258
-43.133945 807.63507 1289.6239 4286671749
-40.737614 807.63507 1289.6239 4287461008
-38.341286 807.63507 1289.6239 4287198847
-35.944954 807.63507 1289.6239 4287067004
2.3963304 807.63507 1289.6239 4293056747
4.7926607 807.63507 1289.6239 4293056745
-69.227524 813.91199 1288.3762 4285551707
-42.968807 815.73694 1289.915 4287067521
-40.58165 814.82446 1289.1456 4287725196
-38.194496 814.82446 1289.1456 4287857818
-35.807339 813.91199 1288.3762 4288053915
4.774312 813.91199 1288.3762 4292727785
7.161468 814.82446 1289.1456 4292859371
9.548624 815.73694 1289.915 4292399846
-40.456882 820.55072 1288.7417 4287922316
-38.077065 821.46045 1289.5088 4287987595
-34.903976 820.2475 1288.486 4288514446
2.3798165 820.55072 1288.7417 4292530150
4.7596331 820.55072 1288.7417 4292530148
7.1394496 820.55072 1288.7417 4292859370
-35.559631 827.677 1288.2102 4287328897
2.3706422 827.677 1288.2102 4292529890
2.3706422 829.48938 1289.7384 4292595681
4.7412844 829.48938 1289.7384 4292595685
-55.403671 754.83624 1292.1943 4285618794
-51.710091 754.83624 1292.1943 4286145139
14.774312 754.83624 1292.1943 4293123826
-52.744034 761.34033 1291.1383 4286143853
13.492661 761.34033 1291.1383 4293319921
-51.517429 763.21582 1292.7196 4286407795
-49.06422 763.21582 1292.7196 4286277745
14.719266 763.21582 1292.7196 4293122540
-48.880733 767.81641 1290.0586 4286278006
-46.436699 767.81641 1290.0586 4286935936
-43.992661 767.81641 1290.0586 4286870406
7.3321099 767.81641 1290.0586 4292990702
9.7761469 767.81641 1290.0586 4293056236
12.220183 767.81641 1290.0586 4293187565
-46.436699 769.68494 1291.634 4286738557
-43.992661 769.68494 1291.634 4286935936
9.7761469 769.68494 1291.634 4292793832
12.220183 769.68494 1291.634 4293122540
-43.827522 776.12592 1290.5248 4286870408
-41.392662 776.12592 1290.5248 4287528339
-37.740364 776.12592 1290.5248 4287265932
-34.088074 776.12592 1290.5248 4286474865
4.8697248 776.12592 1290.5248 4293056495
7.3045874 776.12592 1290.5248 4293056495
9.7394495 776.12592 1290.5248 4293056749
-43.827522 777.98743 1292.0944 4286935948
-41.392662 777.98743 1292.0944 4287594134
-38.957798 777.98743 1292.0944 4287725452
4.8697248 777.98743 1292.0944 4293253360
7.3045874 777.98743 1292.0944 4293055982
9.7394495 777.98743 1292.0944 4293122542
-36.3578 784.92993 1290.1 4288317589
-33.933945 784.92993 1290.1 4288317073
4.8477063 784.92993 1290.1 4293055984
7.2715597 784.92993 1290.1 4293253106
-37.569725 786.78302 1291.6624 4287791245
7.2715597 786.78302 1291.6624 4293188338
-43.464222 794.99713 1292.0481 4287067517
-41.049541 794.99713 1292.0481 4287593862
-38.634861 793.15112 1290.4916 4287397518
1.2073394 793.15112 1290.4916 4293254896
4.8293576 794.0741 1291.2698 4293254380
7.2440367 794.0741 1291.2698 4293648882
9.6587152 794.99713 1292.0481 4293517048
-67.354126 801.33008 1290.8479 4284832356
-64.948624 802.24963 1291.6232 4284568158
-60.939449 802.55615 1291.8816 4285094236
-57.732109 802.24963 1291.6232 4285290595
-55.326607 803.16913 1292.3984 4285553252
-52.921101 803.16913 1292.3984 4285684842
-48.911926 802.55615 1291.8816 4286409845
-45.704586 802.24963 1291.6232 4286739322
-43.299084 802.24963 1291.6232 4286738556
-40.893578 802.24963 1291.6232 4287396487
-38.488075 801.33008 1290.8479 4287002760
2.4055047 801.33008 1290.8479 4293385712
4.8110094 802.24963 1291.6232 4293187820
7.2165136 802.24963 1291.6232 4293319149
9.6220188 803.16913 1292.3984 4293188338
21.649542 803.16913 1292.3984 4293385458
-76.682571 809.46704 1291.1686 4290749375
-69.493576 809.46704 1291.1686 4285879907
-64.70092 809.46704 1291.1686 4285355872
-58.710091 809.46704 1291.1686 4285750626
-55.115597 809.46704 1291.1686 4285947494
-52.719265 809.46704 1291.1686 4286012519
-50.322937 809.46704 1291.1686 4286670450
-46.728439 809.46704 1291.1686 4286671983
-43.133945 809.46704 1291.1686 4286474104
-40.737614 809.46704 1291.1686 4287658121
-38.341286 809.46704 1291.1686 4287921552
7.1889906 809.46704 1291.1686 4292990954
9.5853214 809.46704 1291.1686 4292595431
-79.078896 811.29907 1292.7133 4290422963
-76.682571 811.29907 1292.7133 4290291115
-74.28624 811.29907 1292.7133 4286672500
-71.889908 811.29907 1292.7133 4286012258
-67.097244 811.29907 1292.7133 4285749348
-64.70092 811.29907 1292.7133 4285683555
-58.710091 811.29907 1292.7133 4285816416
-55.115597 811.29907 1292.7133 4285947494
-52.719265 811.29907 1292.7133 4285947244
-50.322937 811.29907 1292.7133 4286407795
-46.728439 811.29907 1292.7133 4286869366
-43.133945 811.29907 1292.7133 4287132801
9.5853214 811.29907 1292.7133 4292661740
-45.355965 817.56201 1291.4539 4286672248
-42.968807 817.56201 1291.4539 4287198595
-38.194496 817.56201 1291.4539 4288053899
9.548624 817.56201 1291.4539 4292662503
21.484404 817.56201 1291.4539 4292793578
-45.355965 819.38696 1292.9927 4286936449
-42.968807 819.38696 1292.9927 4287461764
10.742202 819.38696 1292.9927 4292465126
14.322936 819.38696 1292.9927 4292596711
16.710093 819.38696 1292.9927 4292925677
19.097248 819.38696 1292.9927 4292794093
22.677982 819.38696 1292.9927 4292399335
-38.077065 823.27979 1291.0428 4287987595
-22.608257 823.27979 1291.0428 4290421166
4.7596331 823.27979 1291.0428 4292530149
7.1394496 823.27979 1291.0428 4292990700
-40.456882 825.09918 1292.5769 4286342002
-38.077065 825.09918 1292.5769 4286999676
4.7596331 825.09918 1292.5769 4292595683
7.1394496 825.09918 1292.5769 4293056234
-59.097248 758.60126 1295.3689 4285355620
-55.814068 757.34625 1294.3107 4285487462
-51.710091 756.71875 1293.7816 4286079344
14.774312 756.71875 1293.7816 4293123826
17.236698 758.60126 1295.3689 4293320689
-52.335163 765.71649 1294.8281 4286145138
-49.06422 766.9668 1295.8823 4286212213
14.719266 766.02905 1295.0917 4293122287
17.172478 766.9668 1295.8823 4293451253
19.625689 766.02905 1295.0917 4293122541
-51.324772 773.42188 1294.7849 4286212213
-48.880733 772.48767 1293.9972 4286278006
-46.436699 772.48767 1293.9972 4286804350
9.7761469 771.55341 1293.2095 4292990954
13.442202 772.48767 1293.9972 4293253872
-46.262386 779.84888 1293.6639 4286935166
-43.827522 779.84888 1293.6639 4286936202
-41.392662 779.84888 1293.6639 4287528339
-38.957798 779.84888 1293.6639 4287725452
9.7394495 779.84888 1293.6639 4293253358
12.174312 779.84888 1293.6639 4293384945
-48.697247 781.71033 1295.2334 4286474102
-46.262386 781.71033 1295.2334 4287066495
-43.827522 781.71033 1295.2334 4286870406
-41.392662 781.71033 1295.2334 4287462544
-38.957798 781.71033 1295.2334 4287659659
9.7394495 781.71033 1295.2334 4293319406
12.174312 781.71033 1295.2334 4293385199
17.044037 781.71033 1295.2334 4293254381
19.478899 781.71033 1295.2334 4292990954
-41.205505 788.63611 1293.2249 4287462548
-38.781651 788.63611 1293.2249 4287266184
9.6954126 788.63611 1293.2249 4293254129
16.966972 788.63611 1293.2249 4293385712
19.390825 788.63611 1293.2249 4293188847
21.814678 788.63611 1293.2249 4293320689
-43.629356 790.48914 1294.7874 4286607491
-41.205505 790.48914 1294.7874 4287462544
9.6954126 790.48914 1294.7874 4293451253
13.331193 790.48914 1294.7874 4293319923
16.966972 790.48914 1294.7874 4293188849
19.390825 790.48914 1294.7874 4292925679
21.814678 790.48914 1294.7874 4292859886
-65.196327 796.8432 1293.6047 4284306529
-60.366974 796.8432 1293.6047 4284964193
-57.952293 796.8432 1293.6047 4285356904
-55.537613 796.8432 1293.6047 4285488490
-53.122936 796.8432 1293.6047 4286145393
-49.500916 796.8432 1293.6047 4286408566
-45.878899 796.8432 1293.6047 4287132801
7.2440367 796.8432 1293.6047 4293517296
9.6587152 796.8432 1293.6047 4292859632
12.073395 796.8432 1293.6047 4293320183
16.902752 796.8432 1293.6047 4293385458
-62.781651 798.68921 1295.1613 4284765016
-55.537613 798.68921 1295.1613 4285291111
-53.122936 798.68921 1295.1613 4285684588
-50.708256 798.68921 1295.1613 4286342517
9.6587152 798.68921 1295.1613 4293254131
13.280734 798.68921 1295.1613 4293648631
16.902752 798.68921 1295.1613 4293254129
19.31743 798.68921 1295.1613 4293254129
21.732111 798.68921 1295.1613 4293188336
-64.948624 805.00818 1293.9491 4285289823
-62.543118 805.92767 1294.7244 4285027159
-49.312843 805.00818 1293.9491 4286672244
7.2165136 805.00818 1293.9491 4293056745
9.6220188 805.00818 1293.9491 4293122288
12.829358 806.23419 1294.9828 4293253616
16.838531 806.84717 1295.4998 4293187565
21.649542 805.92767 1294.7244 4293451251
24.055046 805.92767 1294.7244 4293188590
-79.078896 813.1311 1294.2579 4285753725
-76.682571 813.1311 1294.2579 4285750143
-74.28624 813.1311 1294.2579 4285355385
-70.691742 814.04712 1295.0303 4285356128
-67.097244 814.04712 1295.0303 4285684835
-64.70092 813.1311 1294.2579 4285684322
-62.304588 813.1311 1294.2579 4285618263
-58.310699 813.74176 1294.7728 4285881704
-55.115597 814.04712 1295.0303 4286079346
-52.719265 814.04712 1295.0303 4286145393
-50.322937 814.04712 1295.0303 4286737274
-47.127827 813.74176 1294.7728 4286803574
11.981651 814.04712 1295.0303 4292531174
14.377981 814.04712 1295.0303 4292596711
16.774311 814.96313 1295.8027 4293188847
19.170643 814.96313 1295.8027 4292924907
23.963303 814.96313 1295.8027 4292924907
-45.355965 821.21198 1294.5314 4287658892
-42.968807 821.21198 1294.5314 4287527557
10.742202 821.21198 1294.5314 4292661989
14.322936 821.21198 1294.5314 4292727785
16.710093 821.21198 1294.5314 4293122542
19.097248 821.21198 1294.5314 4292990954
22.677982 821.21198 1294.5314 4292859370
7.1394496 826.91858 1294.111 4292990187
-55.403671 760.48376 1296.9562 4285750376
17.236698 760.48376 1296.9562 4293451505
17.236698 762.36627 1298.5435 4293451251
-52.744034 768.84229 1297.4637 4286080627
17.172478 768.84229 1297.4637 4293779703
19.625689 768.84229 1297.4637 4293253360
-51.324772 775.29034 1296.3604 4286276722
-48.880733 775.29034 1296.3604 4286145652
-46.436699 775.29034 1296.3604 4286935168
13.442202 775.29034 1296.3604 4293122032
17.108257 775.29034 1296.3604 4292924398
-52.546791 777.15887 1297.9358 4286079595
-48.880733 777.15887 1297.9358 4286145906
14.66422 777.15887 1297.9358 4293056749
17.108257 777.15887 1297.9358 4292990700
19.552294 777.15887 1297.9358 4292990187
21.99633 777.15887 1297.9358 4293056236
-51.132111 785.43329 1298.3726 4286144106
-48.697247 784.50256 1297.5878 4286342259
-46.262386 784.50256 1297.5878 4287065982
-43.827522 784.50256 1297.5878 4286738567
-41.392662 783.57184 1296.803 4287462546
9.7394495 783.57184 1296.803 4293188334
13.391743 784.50256 1297.5878 4293188334
17.044037 783.57184 1296.803 4293188334
19.478899 783.57184 1296.803 4293056747
-67.867889 792.34216 1296.3497 4285290607
-63.828136 792.95978 1296.8706 4284897121
-60.596329 792.34216 1296.3497 4285291361
-58.172478 792.34216 1296.3497 4285356904
-55.748623 792.34216 1296.3497 4285685868
-53.324772 792.34216 1296.3497 4286210412
-49.688992 792.34216 1296.3497 4286473587
-46.053211 792.34216 1296.3497 4287526022
13.735168 792.95978 1296.8706 4293319923
16.966972 792.34216 1296.3497 4293254129
19.390825 793.26868 1297.131 4293056495
21.814678 793.26868 1297.131 4292990702
13.280734 800.53528 1296.7178 4293188337
16.902752 800.53528 1296.7178 4293188336
19.31743 800.53528 1296.7178 4293254129
14.488073 802.38135 1298.2743 4293188336
16.902752 802.38135 1298.2743 4293122542
19.31743 802.38135 1298.2743 4293385712
-62.543118 808.68622 1297.0503 4285356372
13.230275 808.68622 1297.0503 4292859116
16.838531 808.68622 1297.0503 4292727785
19.244038 808.68622 1297.0503 4293253879
21.649542 808.68622 1297.0503 4293385208
24.055046 808.68622 1297.0503 4293188588
16.838531 810.52527 1298.601 4292728298
19.244038 810.52527 1298.601 4292924657
21.649542 810.52527 1298.601 4293056243
24.055046 810.52527 1298.601 4293122540
-57.511925 816.79517 1297.3474 4285618793
-55.115597 816.79517 1297.3474 4286145393
-52.719265 817.71118 1298.1198 4286014577
-50.322937 817.71118 1298.1198 4286540921
-47.926605 817.71118 1298.1198 4286607229
-42.968807 823.94946 1296.8396 4286145650
-40.58165 824.862 1297.609 4286014834
10.742202 823.94946 1296.8396 4292859110
14.322936 823.94946 1296.8396 4292727525
16.710093 824.862 1297.609 4292596194
-59.317432 757.75165 1301.1926 4285487459
19.772476 757.75165 1301.1926 4293188336
-54.172478 764.24878 1300.1307 4285618793
22.161469 764.24878 1300.1307 4293056749
22.161469 766.13135 1301.718 4293253360
-53.970642 770.71783 1299.0452 4285751662
17.172478 770.71783 1299.0452 4292990191
19.625689 770.71783 1299.0452 4292726249
22.078899 770.71783 1299.0452 4293121007
-56.423855 772.59332 1300.6265 4285815917
-53.970642 772.59332 1300.6265 4285881964
19.625689 772.59332 1300.6265 4292924398
22.078899 772.59332 1300.6265 4292990191
-52.546791 779.02734 1299.5114 4286341998
14.66422 779.02734 1299.5114 4293254381
-64.766968 780.89581 1301.0868 4285421919
-61.100918 780.89581 1301.0868 4285421915
-56.212845 780.89581 1301.0868 4285882216
-52.546791 780.89581 1301.0868 4286145388
-68.176147 787.2948 1299.942 4285027939
-64.523857 787.2948 1299.942 4285291362
-60.871559 787.2948 1299.942 4285357406
-58.436699 787.2948 1299.942 4285553252
-56.001835 787.2948 1299.942 4285619045
-52.349541 787.2948 1299.942 4285880934
-48.697247 787.2948 1299.942 4286210416
-46.262386 787.2948 1299.942 4287131518
19.31743 804.22736 1299.8308 4293517046
-64.948624 812.36426 1300.1516 4285553250
-61.340366 812.36426 1300.1516 4285684826
-69.759636 814.20331 1301.7021 4285946726
-67.354126 814.20331 1301.7021 4285684838
-64.948624 814.20331 1301.7021 4285487459
-61.340366 814.20331 1301.7021 4285553250
-46.728439 820.45917 1300.4368 4286539897
16.774311 820.45917 1300.4368 4292727014
19.170643 820.45917 1300.4368 4292726249
22.765137 820.45917 1300.4368 4292858091
19.170643 822.2912 1301.9814 4292792042
21.566973 822.2912 1301.9814 4292857836
16.710093 826.68701 1299.1478 4292661989
-56.845871 760.58594 1303.5825 4285552998
-59.097248 769.89636 1304.8926 4285289573
-56.634861 768.01379 1303.3053 4285881964
-58.877064 776.34436 1303.7893 4285355872
-56.423855 775.40662 1302.9985 4285816425
-64.766968 782.76428 1302.6622 4285356123
-61.100918 782.76428 1302.6622 4285422167
-58.656879 782.76428 1302.6622 4285487459
-56.212845 782.76428 1302.6622 4285684838
-53.768806 782.76428 1302.6622 4286012519
-67.354126 816.04236 1303.2528 4285618545
-60.137615 816.04236 1303.2528 4285947760
-57.732109 816.96185 1304.0281 4286079088
-55.326607 816.96185 1304.0281 4286342003
-52.921101 817.88135 1304.8035 4286605942
-50.515594 817.88135 1304.8035 4286474356
10.783486 824.12317 1303.5262 4292661735
14.377981 824.12317 1303.5262 4292925161
19.170643 824.12317 1303.5262 4292726762
-62.06422 754.47314 1306.2765 4285421915
-59.58165 756.37109 1307.8767 4285355872
-56.845871 763.42023 1305.9723 4286013553
-59.317432 765.30975 1307.5654 4285158242
-59.097248 771.77887 1306.4799 4285289827
-58.877064 778.21985 1305.3706 4285487459
-65.196327 813.45758 1307.6135 4285355116
-62.781651 813.45758 1307.6135 4285487209
-55.326607 819.7204 1306.354 4286408822
-48.911926 820.33344 1306.871 4285817715
-45.704586 819.7204 1306.354 4285949043
-59.58165 758.26904 1309.4771 4285092449
-61.78899 767.19928 1309.1587 4285158748
-64.260551 769.08881 1310.7518 4285291363
-61.78899 769.08881 1310.7518 4285093984
-64.022018 773.66138 1308.0671 4285421665
-61.559631 773.66138 1308.0671 4285355872
-61.57431 815.30359 1309.17 4286605172
-57.952293 817.14966 1310.7266 4286211699
-53.122936 817.14966 1310.7266 4286211699
14.433027 823.39844 1309.4553 4292925159
16.838531 823.39844 1309.4553 4292596194
19.244038 823.39844 1309.4553 4292530153
-62.293579 754.59845 1312.9222 4285356120
-59.58165 760.16699 1311.0774 4285289573
-65.444038 812.72583 1313.5366 4285881964
-55.537613 818.99573 1312.2831 4285949293
-53.122936 818.99573 1312.2831 4285949043
-50.708256 818.99573 1312.2831 4286014836
21.732111 818.99573 1312.2831 4292858349
12.073395 820.84174 1313.8396 4293187052
21.732111 820.84174 1313.8396 4292793326
26.46055 827.07648 1312.5565 4292530403
-62.293579 757.45593 1315.3315 4285355872
-62.293579 759.36084 1316.9377 4285158494
-63.020184 814.57886 1315.0991 4286606959
-60.596329 814.57886 1315.0991 4286146408
16.902752 822.68774 1315.3962 4292792807
19.31743 822.68774 1315.3962 4292333029
21.732111 822.68774 1315.3962 4292661737
24.14679 823.61078 1316.1746 4292661990
-63.020184 820.13806 1319.7865 4287269791
25.35413 826.37988 1318.5093 4292661992
-65.741287 811.4939 1320.3462 4286474865
-63.306423 813.35541 1321.9156 4286082174
-60.871559 813.35541 1321.9156 4286082174
-58.436699 813.35541 1321.9156 4285949293
21.814678 821.99109 1321.3489 4292596198
21.814678 823.84412 1322.9114 4292661991
24.14679 828.22589 1320.0658 4292792809
-60.871559 815.21686 1323.4852 4285886343
-58.436699 815.21686 1323.4852 4285556336
-56.001835 815.21686 1323.4852 4285358700
-60.871559 817.07837 1325.0548 4285888138
14.609175 817.07837 1325.0548 4292858601
-68.433029 810.79163 1326.2942 4288187036
-65.174309 812.03729 1327.3445 4286477450
-52.546791 812.6601 1327.8696 4285753460
17.044037 818.93982 1326.6244 4292727787
19.478899 818.93982 1326.6244 4292661991
19.478899 820.80127 1328.1938 4292661991
24.238533 827.55023 1326.0363 4292792294
-65.988991 814.52856 1329.4451 4288388274
-58.656879 814.52856 1329.4451 4286214276
-56.212845 814.52856 1329.4451 4286016896
-63.544952 816.39709 1331.0205 4288714407
-61.100918 816.39709 1331.0205 4286609287
-58.656879 816.39709 1331.0205 4286346894
-56.212845 816.39709 1331.0205 4285623172
14.66422 816.39709 1331.0205 4292727787
-68.689911 811.04108 1333.0447 4289044919
-53.970642 811.97882 1333.8353 4286082680
9.8128443 810.10333 1332.2539 4292792294
12.266055 811.97882 1333.8353 4293252845
-63.544952 818.26556 1332.5959 4289831609
-61.100918 818.26556 1332.5959 4288449956
-58.656879 818.26556 1332.5959 4287924903
17.108257 818.26556 1332.5959 4292595944
19.552294 820.13403 1334.1714 4292596198
21.99633 820.13403 1334.1714 4292661991
-46.78532 805.66412 1335.051 4285161587
-44.322937 805.66412 1335.051 4285490552
-49.247707 807.54663 1336.6384 4285555834
-66.236694 814.79211 1336.2074 4289440187
-56.423855 815.72986 1336.998 4286609299
-53.970642 813.85437 1335.4167 4285951090
13.492661 814.79211 1336.2074 4292661990
17.108257 822.93677 1336.5345 4292399337
19.552294 822.93677 1336.5345 4292727271
21.99633 822.93677 1336.5345 4292858857
-51.710091 809.42914 1338.2256 4286082680
-49.247707 809.42914 1338.2256 4286014586
-68.946793 811.31165 1339.813 4290361283
-51.710091 811.31165 1339.813 4286345848
-63.783485 817.60535 1338.5795 4289964488
-61.330276 817.60535 1338.5795 4288648884
-58.877064 817.60535 1338.5795 4288188594
-56.423855 817.60535 1338.5795 4287201699
14.719266 817.60535 1338.5795 4292530153
17.172478 817.60535 1338.5795 4292530153
-63.783485 819.48083 1340.1609 4290492881
-61.330276 819.48083 1340.1609 4289374399
-56.423855 819.48083 1340.1609 4288188592
13.492661 819.48083 1340.1609 4292596455
19.552294 826.67371 1339.6855 4292596455
21.99633 826.67371 1339.6855 4292859627
9.8862381 806.87939 1342.6158 4292989417
-67.715599 814.13538 1342.1938 4290492884
-54.172478 814.13538 1342.1938 4286149505
-51.710091 815.07666 1342.9875 4286280838
12.311927 814.13538 1342.1938 4292596709
-66.236694 821.35632 1341.7422 4291610594
-63.783485 821.35632 1341.7422 4291412692
-61.330276 821.35632 1341.7422 4290162625
13.492661 821.35632 1341.7422 4292596456
-63.783485 823.23181 1343.3236 4292003809
13.492661 823.23181 1343.3236 4292596457
17.172478 823.23181 1343.3236 4292465130
19.552294 829.47644 1342.0487 4292661991
-47.168808 801.92175 1346.2839 4285489785
-49.431194 808.76892 1344.2091 4286211709
9.8862381 808.76892 1344.2091 4292793830
-51.902752 810.65845 1345.8022 4285821050
-49.431194 810.65845 1345.8022 4286014586
9.8862381 810.65845 1345.8022 4292399587
-66.484406 816.95923 1344.5748 4291084252
-59.097248 817.90045 1345.3684 4289438659
-54.993275 818.21417 1345.6329 4288581807
-51.710091 816.95923 1344.5748 4287988892
9.8495417 817.90045 1345.3684 4292859367
13.492661 826.0451 1345.6957 4292464613
17.172478 826.0451 1345.6957 4292596199
7.4752293 797.46002 1349.062 4292595685
-47.168808 803.8197 1347.8842 4285948793
-47.168808 805.71765 1349.4845 4286145916
-44.686237 805.71765 1349.4845 4286145918
-69.203667 812.54797 1347.3955 4291479780
-49.431194 812.54797 1347.3955 4286541442
-46.959633 812.54797 1347.3955 4286475649
9.8862381 812.54797 1347.3955 4292793830
-49.431194 814.4375 1348.9886 4287134598
-46.959633 814.4375 1348.9886 4286739840
-44.488075 814.4375 1348.9886 4287002756
7.4146791 814.4375 1348.9886 4292990954
-61.559631 820.72424 1347.7494 4291148500
-59.097248 820.72424 1347.7494 4290753490
-55.403671 820.72424 1347.7494 4290029767
-51.710091 820.72424 1347.7494 4289043129
9.8495417 820.72424 1347.7494 4292530149
-61.559631 822.60675 1349.3367 4291543776
-59.097248 822.60675 1349.3367 4291017943
-55.403671 822.60675 1349.3367 4290096326
-51.710091 822.60675 1349.3367 4289306296
-49.247707 822.60675 1349.3367 4288452273
9.8495417 822.60675 1349.3367 4292530149
-56.423855 830.73383 1349.649 4291805660
-53.970642 829.79608 1348.8584 4291149272
-46.611008 830.73383 1349.649 4290094793
13.492661 829.79608 1348.8584 4292464357
17.172478 828.85834 1348.0677 4292924911
-25.009174 792.98425 1351.8285 4289304207
-22.508257 792.98425 1351.8285 4290948775
-20.007339 792.98425 1351.8285 4291212243
-16.255962 792.98425 1351.8285 4291145931
-12.504587 792.98425 1351.8285 4291276741
-10.00367 792.98425 1351.8285 4291079875
-7.5027523 792.98425 1351.8285 4290882753
-44.851376 799.36499 1350.6682 4285621625
7.4752293 799.36499 1350.6682 4292726501
-43.605507 801.26996 1352.2744 4286144889
-28.655045 801.26996 1352.2744 4286277238
-24.917431 801.26996 1352.2744 4286475135
-22.425688 801.26996 1352.2744 4286409342
-19.933945 801.26996 1352.2744 4286145652
-17.442202 801.26996 1352.2744 4286869375
-7.4752293 801.26996 1352.2744 4291079362
7.4752293 801.26996 1352.2744 4292792294
-47.168808 807.6156 1351.0848 4286277502
-43.444954 808.56458 1351.885 4286606973
-39.7211 808.56458 1351.885 4286345849
-24.825687 809.51355 1352.6851 4286542725
-22.343119 809.51355 1352.6851 4286674310
-17.377981 808.56458 1351.885 4286937741
-13.654128 809.51355 1352.6851 4286740619
-7.4477062 809.51355 1352.6851 4287595931
7.4477062 808.56458 1351.885 4292925162
-51.902752 816.32703 1350.5819 4287924139
-49.431194 817.27179 1351.3784 4287596697
-46.959633 817.27179 1351.3784 4286741388
-43.252293 817.27185 1351.3784 4286610053
-39.544952 818.21655 1352.175 4287134094
-37.073395 818.21655 1352.175 4287068301
-32.130276 818.21655 1352.175 4287068553
7.4146791 817.27179 1351.3784 4292662246
-61.559631 824.48926 1350.924 4291874286
-59.097248 824.48926 1350.924 4291741923
-55.403671 824.48926 1350.924 4291083736
-46.78532 824.48926 1350.924 4288846779
9.8495417 824.48926 1350.924 4292464356
-61.559631 826.37177 1352.5112 4292333553
-59.097248 826.37177 1352.5112 4292004325
-56.634861 826.37177 1352.5112 4291741153
-51.710091 826.37177 1352.5112 4290491084
-49.247707 826.37177 1352.5112 4289898699
-46.78532 826.37177 1352.5112 4289240770
-44.322937 826.37177 1352.5112 4289372593
-40.629356 826.37177 1352.5112 4288384930
9.8495417 826.37177 1352.5112 4292333027
-46.611008 832.60938 1351.2305 4289373634
9.8128443 832.60938 1351.2305 4292595683
12.266055 832.60938 1351.2305 4292990441
-27.631193 787.97894 1355.4563 4289564576
-25.119267 787.97894 1355.4563 4289697697
-22.60734 787.97894 1355.4563 4291276473
-20.095413 787.97894 1355.4563 4291606991
-17.583487 787.97894 1355.4563 4291146440
-12.559633 787.97894 1355.4563 4291145157
-10.047707 787.97894 1355.4563 4291079875
-27.510092 794.89624 1353.4406 4286013816
-25.009174 794.89624 1353.4406 4285292653
-22.508257 794.89624 1353.4406 4286082426
-20.007339 794.89624 1353.4406 4286608784
-16.255962 794.89624 1353.4406 4289172647
-12.504587 794.89624 1353.4406 4291539131
-10.00367 794.89624 1353.4406 4291080647
-7.5027523 794.89624 1353.4406 4290685889
-42.515594 796.80823 1355.0527 4285621625
-40.014679 796.80823 1355.0527 4285490289
-30.011009 796.80823 1355.0527 4286013816
-27.510092 796.80823 1355.0527 4286145402
-25.009174 796.80823 1355.0527 4286014586
-22.508257 796.80823 1355.0527 4286277502
-20.007339 796.80823 1355.0527 4286211959
-16.255962 796.80823 1355.0527 4288646293
-12.504587 796.80823 1355.0527 4290751662
-10.00367 796.80823 1355.0527 4290948809
-7.5027523 796.80823 1355.0527 4290948809
-5.0018349 796.80823 1355.0527 4291015617
-2.5009174 796.80823 1355.0527 4292989407
5.0018349 796.80823 1355.0527 4292594915
-42.359634 803.17493 1353.8806 4285882746
-39.867889 803.17493 1353.8806 4286146165
-24.917431 803.17493 1353.8806 4286409855
-22.425688 803.17493 1353.8806 4286409855
-19.933945 803.17493 1353.8806 4286081924
-17.442202 803.17493 1353.8806 4286739854
-13.704587 803.17493 1353.8806 4286672773
-9.9669724 803.17493 1353.8806 4286476684
-7.4752293 803.17493 1353.8806 4290095043
7.4752293 803.17493 1353.8806 4292990187
-37.376148 805.07983 1355.4868 4286345850
-34.884403 805.07983 1355.4868 4286214009
-32.392662 805.07983 1355.4868 4286279802
-28.655045 805.07983 1355.4868 4286345598
-24.917431 805.07983 1355.4868 4286411139
-22.425688 805.07983 1355.4868 4286345346
-19.933945 805.07983 1355.4868 4286476934
-13.704587 805.07983 1355.4868 4286936201
-9.9669724 805.07983 1355.4868 4286476932
-7.4752293 805.07983 1355.4868 4288253343
-4.9834862 805.07983 1355.4868 4289438135
-2.4917431 805.07983 1355.4868 4292530149
4.9834862 805.07983 1355.4868 4292596198
-42.203671 811.4115 1354.2854 4286542461
-39.7211 811.4115 1354.2854 4286541946
-37.238533 811.4115 1354.2854 4286673532
-34.755962 811.4115 1354.2854 4286609535
-32.273396 811.4115 1354.2854 4286609535
-28.549541 811.4115 1354.2854 4286346879
-24.825687 811.4115 1354.2854 4286609285
-22.343119 811.4115 1354.2854 4286609285
-19.86055 811.4115 1354.2854 4286674827
-17.377981 811.4115 1354.2854 4286937998
-13.654128 811.4115 1354.2854 4287003791
-9.930275 811.4115 1354.2854 4287593364
-7.4477062 811.4115 1354.2854 4287790743
-4.9651375 811.4115 1354.2854 4288515234
-2.4825687 811.4115 1354.2854 4292989157
4.9651375 811.4115 1354.2854 4292530403
-39.7211 813.30945 1355.8857 4286673532
-37.238533 813.30945 1355.8857 4286804861
-34.755962 813.30945 1355.8857 4286675583
-32.273396 813.30945 1355.8857 4286675583
-28.549541 813.30945 1355.8857 4287002499
-24.825687 813.30945 1355.8857 4287002756
-22.343119 813.30945 1355.8857 4287002756
-19.86055 813.30945 1355.8857 4286806158
-17.377981 813.30945 1355.8857 4286871951
-13.654128 813.30945 1355.8857 4287069585
-9.930275 813.30945 1355.8857 4287134096
-7.4477062 813.30945 1355.8857 4287463061
-4.9651375 813.30945 1355.8857 4288384692
-2.4825687 813.30945 1355.8857 4292792824
2.4825687 813.30945 1355.8857 4292925157
4.9651375 813.30945 1355.8857 4292728037
-51.902752 821.99561 1355.3615 4290031048
-49.431194 821.99561 1355.3615 4289241537
-46.959633 820.10608 1353.7683 4287794087
-43.252293 821.05084 1354.5649 4287531932
-39.544952 821.05084 1354.5649 4287266458
-37.073395 821.05084 1354.5649 4287266714
-34.601833 821.05084 1354.5649 4287331473
-32.130276 821.05084 1354.5649 4287331729
-28.834862 821.36572 1354.8304 4287462284
-24.715597 821.05084 1354.5649 4287660177
-22.244038 821.99561 1355.3615 4287660438
-19.772476 821.99561 1355.3615 4287136395
-17.300917 821.99561 1355.3615 4286544257
-13.593578 821.99561 1355.3615 4286150522
-9.8862381 821.99561 1355.3615 4289236626
-7.4146791 821.99561 1355.3615 4292329154
-4.943119 821.99561 1355.3615 4292858337
-2.4715595 821.05084 1354.5649 4292594915
4.943119 821.05084 1354.5649 4292201698
7.4146791 821.05084 1354.5649 4292399076
-51.710091 828.25427 1354.0985 4290228428
-49.247707 828.25427 1354.0985 4290489551
-44.322937 829.19556 1354.8921 4289502644
