# .PCD v0.7 - Point Cloud Data file format
VERSION 0.7
FIELDS x y z rgb
SIZE 4 4 4 4
TYPE F F F U
COUNT 1 1 1 1
WIDTH 1159
HEIGHT 1
VIEWPOINT 0 0 0 1 0 0 0
POINTS 1159
DATA ascii
-31.772476 756.60547 1280.6058 4288121493
-29.32844 756.60547 1280.6058 4288120989
-25.662384 756.60547 1280.6058 4288582565
-21.99633 756.60547 1280.6058 4287332752
-19.552294 756.60547 1280.6058 4286676094
-17.108257 756.60547 1280.6058 4287136645
-14.66422 756.60547 1280.6058 4288317852
-9.7761469 756.60547 1280.6058 4293054960
-7.3321099 756.60547 1280.6058 4292989167
-4.8880734 756.60547 1280.6058 4292530905
-2.4440367 756.60547 1280.6058 4290557115
-2.4348624 763.09564 1279.538 4282526788
-19.31743 780.22882 1279.5958 4284175196
-16.902752 780.22882 1279.5958 4284175196
-24.055046 788.45691 1279.9935 4287461510
-21.649542 788.45691 1279.9935 4285487720
-19.244038 788.45691 1279.9935 4284503642
-16.838531 788.45691 1279.9935 4285096035
-13.230275 788.45691 1279.9935 4287727251
-19.170643 794.81097 1278.8109 4284569185
43.133945 794.81097 1278.8109 4291872739
46.728439 794.81097 1278.8109 4292070629
-22.765137 796.64294 1280.3556 4286410623
-19.170643 796.64294 1280.3556 4284569198
46.728439 796.64294 1280.3556 4292202213
50.322937 796.64294 1280.3556 4292334053
40.58165 802.96198 1279.1434 4292399333
42.968807 802.96198 1279.1434 4292267747
-19.097248 804.78699 1280.6823 4285096548
33.420185 804.78699 1280.6823 4291281372
38.194496 804.78699 1280.6823 4291938014
35.697247 808.72467 1278.7704 4292727787
-19.038532 810.54407 1280.3044 4286737775
-34.216515 758.474 1282.1813 4287726735
-31.772476 758.474 1282.1813 4287989907
-29.32844 758.474 1282.1813 4288055448
-25.662384 758.474 1282.1813 4288121758
-21.99633 758.474 1282.1813 4287135380
-19.552294 758.474 1282.1813 4286410607
-17.108257 758.474 1282.1813 4286279021
-13.442202 758.474 1282.1813 4288248984
-9.7761469 758.474 1282.1813 4289696957
-7.3321099 758.474 1282.1813 4286341514
-4.8880734 758.474 1282.1813 4285879162
-2.4440367 758.474 1282.1813 4284365923
-34.216515 760.34247 1283.7567 4287660942
-31.772476 760.34247 1283.7567 4288055700
-29.32844 760.34247 1283.7567 4287923858
-25.662384 760.34247 1283.7567 4287923863
-21.99633 760.34247 1283.7567 4287463061
-19.552294 760.34247 1283.7567 4285885308
-17.108257 760.34247 1283.7567 4285688186
-13.442202 760.34247 1283.7567 4287330960
-9.7761469 760.34247 1283.7567 4286144151
-7.3321099 760.34247 1283.7567 4284433533
-4.8880734 760.34247 1283.7567 4282395201
-25.566055 764.95709 1281.1075 4287529105
-19.478899 764.95709 1281.1075 4285883248
-14.609175 764.95709 1281.1075 4284700784
-4.8697248 764.95709 1281.1075 4283711050
-2.4348624 764.95709 1281.1075 4283447621
-25.566055 766.8186 1282.6771 4287463568
-21.913761 766.8186 1282.6771 4285687934
-19.478899 766.8186 1282.6771 4284438895
-17.044037 766.8186 1282.6771 4283715173
-13.391743 766.8186 1282.6771 4283779935
-9.7394495 766.8186 1282.6771 4284041296
-7.3045874 766.8186 1282.6771 4283185987
-4.8697248 766.8186 1282.6771 4283973202
-2.4348624 766.8186 1282.6771 4284433753
-21.814678 775.66467 1282.2877 4285095794
-19.390825 775.66467 1282.2877 4284240989
-16.966972 775.66467 1282.2877 4284043354
-13.331193 775.66467 1282.2877 4284896850
-24.238533 777.5177 1283.8501 4287265932
-21.814678 777.5177 1283.8501 4284963178
-13.331193 777.5177 1283.8501 4285818457
-9.6954126 777.5177 1283.8501 4288119163
-21.732111 782.07483 1281.1523 4285160304
-19.31743 782.07483 1281.1523 4284175192
-14.488073 782.07483 1281.1523 4286277993
-28.976147 783.9209 1282.709 4288317073
-24.14679 783.9209 1282.709 4287527055
-21.732111 783.9209 1282.709 4285553265
-19.31743 783.9209 1282.709 4284569185
-16.902752 783.9209 1282.709 4285227114
-13.280734 783.9209 1282.709 4287988624
-9.6587152 783.9209 1282.709 4289963708
-28.866055 790.2959 1281.5442 4288645018
-25.257797 790.2959 1281.5442 4287790219
-21.649542 790.2959 1281.5442 4285290595
-19.244038 790.2959 1281.5442 4284569185
-16.838531 790.2959 1281.5442 4285095785
-13.230275 790.2959 1281.5442 4287661458
-9.6220188 790.2959 1281.5442 4289898684
-31.271559 792.13495 1283.0947 4288317593
-28.866055 792.13495 1283.0947 4288645018
-25.257797 792.13495 1283.0947 4287921807
-21.649542 792.13495 1283.0947 4285553513
-16.838531 792.13495 1283.0947 4285227114
-13.230275 792.13495 1283.0947 4287659405
-9.6220188 792.13495 1283.0947 4290095549
-7.2165136 792.13495 1283.0947 4292135132
-28.755962 800.30701 1283.4451 4288384159
-26.359632 799.39099 1282.6726 4288187549
-22.765137 799.39099 1282.6727 4286543497
-19.170643 799.39099 1282.6726 4284767070
-16.774311 800.30701 1283.4451 4284964706
-14.377981 800.30701 1283.4451 4285490298
40.737614 798.47498 1281.9003 4292464356
43.133945 798.47498 1281.9003 4292135393
46.728439 799.39099 1282.6726 4292135907
50.322937 799.39099 1282.6726 4292201703
-21.484404 806.61194 1282.2211 4286475910
-19.097248 806.61194 1282.2211 4285490287
-16.710093 806.61194 1282.2211 4284635234
31.033028 806.61194 1282.2211 4291675356
33.420185 806.61194 1282.2211 4291938014
38.194496 806.61194 1282.2211 4292201692
-22.677982 808.43701 1283.7599 4287723921
-16.710093 808.43701 1283.7599 4285158744
-14.322936 808.43701 1283.7599 4285292403
34.613762 808.43701 1283.7599 4292069087
38.194496 808.43701 1283.7599 4292003546
-21.418348 812.36346 1281.8385 4287723667
-19.038532 812.36346 1281.8385 4286937194
-21.418348 814.18286 1283.3726 4288382362
-19.038532 814.18286 1283.3726 4287134346
-21.335779 820.42749 1282.0977 4289105317
-18.965137 820.42749 1282.0977 4288252832
-22.521101 822.23987 1283.6259 4288841893
-18.965137 822.23987 1283.6259 4288514204
-39.251377 754.77606 1285.6035 4287133586
-36.798164 754.77606 1285.6035 4287725724
-12.266055 753.83832 1284.8127 4292397018
1.2266055 754.77606 1285.6035 4286344062
-36.660549 764.07947 1286.9076 4287528591
-34.216515 763.1452 1286.1199 4287529358
-31.772476 763.1452 1286.1199 4287792274
-29.32844 763.1452 1286.1199 4287858063
-21.99633 762.21094 1285.3322 4286541959
-17.108257 762.21094 1285.3322 4284896353
-12.220183 762.21094 1285.3322 4284503405
-9.7761469 762.21094 1285.3322 4284042350
-7.3321099 762.21094 1285.3322 4283450470
1.2220184 764.07947 1286.9076 4286275166
-31.653212 770.5415 1285.8162 4288252048
-29.218349 769.61078 1285.0314 4287988883
-25.566055 769.61084 1285.0314 4287463569
-21.913761 769.61078 1285.0314 4285293432
-19.478899 769.61078 1285.0314 4284110688
-17.044037 769.61078 1285.0314 4283518294
-13.391743 769.61084 1285.0314 4284173908
-9.7394495 769.61078 1285.0314 4284962113
-7.3045874 769.61078 1285.0314 4285422408
-4.8697248 769.61078 1285.0314 4287986022
-2.4348624 769.61078 1285.0314 4291144087
-31.510092 779.37079 1285.4126 4287858065
-29.086239 779.37079 1285.4126 4288054683
-25.450459 779.37079 1285.4126 4287462802
-16.966972 779.37079 1285.4126 4284635743
-12.119267 779.37079 1285.4126 4288778126
-9.6954126 779.37079 1285.4126 4289371556
-7.2715597 779.37079 1285.4126 4292200655
-4.8477063 779.37079 1285.4126 4291874272
-33.933945 781.22388 1286.9751 4287726989
-31.510092 781.22388 1286.9751 4287858319
-26.662386 781.22388 1286.9751 4287724937
-7.2715597 781.22388 1286.9751 4292332256
-4.8477063 781.22388 1286.9751 4292135909
-2.4238532 781.22388 1286.9751 4291741151
-31.390825 785.76697 1284.2655 4287989907
-28.976147 785.76697 1284.2655 4288580248
-26.561468 785.76697 1284.2655 4287922061
-9.6587152 785.76697 1284.2655 4289964479
-7.2440367 785.76697 1284.2655 4292003805
-4.8293576 785.76697 1284.2655 4291873252
-33.805504 787.61298 1285.822 4287924112
-31.390825 787.61298 1285.822 4288055698
-7.2440367 787.61298 1285.822 4292004059
-4.8293576 787.61298 1285.822 4291939045
-33.677063 793.974 1284.6454 4287726236
-31.271559 793.974 1284.6454 4287989151
-28.866055 793.974 1284.6454 4288251796
-26.46055 793.974 1284.6454 4287791245
-16.838531 793.974 1284.6454 4285227129
-13.230275 793.974 1284.6454 4287135114
-9.6220188 793.974 1284.6454 4289897915
-7.2165136 793.974 1284.6454 4292332256
-4.8110094 793.974 1284.6454 4292005091
-36.082569 795.81299 1286.196 4287595149
-33.677063 795.81299 1286.196 4287594645
-31.271559 795.81299 1286.196 4288187038
-28.866055 795.81299 1286.196 4288056734
-16.838531 795.81299 1286.196 4284964193
-13.230275 795.81299 1286.196 4287331986
-9.6220188 795.81299 1286.196 4289634746
-7.2165136 795.81299 1286.196 4292069087
-4.8110094 795.81299 1286.196 4291873250
-2.4055047 795.81299 1286.196 4291939043
-31.152294 803.97107 1286.5344 4288055698
-28.755962 803.05505 1285.7621 4288055703
-26.359632 803.05505 1285.7621 4288450205
-23.164526 802.74969 1285.5046 4287003793
-16.774311 802.13904 1284.9897 4284964706
-14.377981 803.05505 1285.7621 4285095796
-10.783485 803.05505 1285.7621 4288977327
-7.1889906 803.97107 1286.5344 4291476948
-4.7926607 803.97107 1286.5344 4291806683
40.737614 803.05505 1285.7621 4292069853
43.133945 803.05505 1285.7621 4292004317
46.728439 803.05505 1285.7621 4292004321
50.322937 802.13904 1284.9897 4292201702
-31.033028 812.08698 1286.8374 4288055448
-28.645872 812.08698 1286.8374 4288186514
-26.258715 811.17444 1286.0681 4288384150
-23.871559 811.17444 1286.0681 4288381851
-16.710093 811.17444 1286.0681 4284765783
-14.322936 811.17444 1286.0681 4284504939
-10.742201 811.17444 1286.0681 4287068811
-7.161468 811.17444 1286.0681 4290685884
-4.774312 812.08698 1286.8374 4289766082
35.011623 810.8703 1285.8116 4291675612
38.194496 811.17444 1286.0681 4291741403
-33.317432 817.82166 1286.4407 4287922061
-30.937614 816.91199 1285.6736 4288317334
-28.557798 816.91199 1285.6736 4288514194
-26.177982 817.82166 1286.4407 4288448146
-23.004892 816.6087 1285.418 4288777371
-19.038532 816.00226 1284.9066 4288187036
-16.658716 816.91199 1285.6736 4285357682
-14.278899 816.91199 1285.6736 4285160552
-10.312538 817.21515 1285.9293 4284765279
-7.1394496 816.91199 1285.6736 4285950579
-4.7596331 817.82166 1286.4407 4283583586
-34.374313 824.05225 1285.1539 4287790727
-30.818348 824.05225 1285.1539 4288382353
-28.447706 824.05225 1285.1539 4288448146
-18.965137 824.05225 1285.1539 4288975003
-7.1119266 824.05225 1285.1539 4286017398
-40.300919 825.86462 1286.6821 4287526792
-37.930275 825.86462 1286.6821 4287724670
-34.374313 825.86462 1286.6821 4288053125
-30.818348 825.86462 1286.6821 4288710800
-28.447706 825.86462 1286.6821 4288645007
-26.077065 825.86462 1286.6821 4289105558
-22.521101 825.86462 1286.6821 4288843156
-18.965137 825.86462 1286.6821 4289107094
-16.594496 825.86462 1286.6821 4289764767
-14.223853 825.86462 1286.6821 4289568187
-9.4825687 825.86462 1286.6821 4286869391
-7.1119266 825.86462 1286.6821 4286605963
-4.7412844 825.86462 1286.6821 4287067258
-33.060551 832.06018 1285.366 4288054401
-30.699083 832.06018 1285.366 4287988608
-28.337614 832.06018 1285.366 4288119947
-14.168807 832.06018 1285.366 4289501611
-4.7229357 832.96289 1286.1271 4290094781
-39.251377 757.58936 1287.9755 4287134096
-36.798164 757.58936 1287.9755 4287660440
1.2266055 757.58936 1287.9755 4282528311
4.9064221 757.58936 1287.9755 4283580213
36.798164 757.58936 1287.9755 4292398050
40.477982 757.58936 1287.9755 4292135647
-39.251377 759.46484 1289.5569 4287397518
-36.798164 759.46484 1289.5569 4287660690
1.2266055 759.46484 1289.5569 4283645739
4.9064221 759.46484 1289.5569 4284566105
7.359633 759.46484 1289.5569 4285026656
36.798164 759.46484 1289.5569 4292332256
39.251377 759.46484 1289.5569 4292201187
-39.104588 765.94794 1288.4832 4286936199
-36.660549 765.94794 1288.4832 4287528337
-34.216515 765.94794 1288.4832 4287463561
-31.772476 765.94794 1288.4832 4287924112
1.2220184 765.94794 1288.4832 4291869895
-31.653212 772.40302 1287.3857 4288055185
-29.218349 772.40302 1287.3857 4287659159
-25.566055 772.40302 1287.3857 4287463061
-9.7394495 772.40302 1287.3857 4286933592
-7.3045874 772.40302 1287.3857 4290223242
-4.8697248 772.40302 1287.3857 4291671483
-2.4348624 772.40302 1287.3857 4292658378
-36.522934 774.26447 1288.9552 4287333004
-34.088074 774.26447 1288.9552 4287594897
-31.653212 774.26447 1288.9552 4287660690
-29.218349 774.26447 1288.9552 4287857054
-26.783485 774.26447 1288.9552 4287791004
-7.3045874 774.26447 1288.9552 4291474606
-4.8697248 774.26447 1288.9552 4292397268
-2.4348624 774.26447 1288.9552 4292660697
-36.3578 783.0769 1288.5375 4287530387
-33.933945 783.0769 1288.5375 4287726735
-2.4238532 783.0769 1288.5375 4291676130
-41.049541 791.30505 1288.9351 4286937485
-37.025074 790.6897 1288.4161 4287398284
-33.805504 789.45898 1287.3785 4288119958
-4.8293576 789.45898 1287.3785 4292004325
-2.4146788 790.38202 1288.1567 4291938786
-36.082569 797.65204 1287.7466 4287858069
-33.677063 797.65204 1287.7466 4287989907
-31.271559 797.65204 1287.7466 4288516251
-12.027523 797.65204 1287.7466 4288911790
-9.6220188 797.65204 1287.7466 4289372087
-7.2165136 797.65204 1287.7466 4292003807
-4.8110094 797.65204 1287.7466 4291741921
-2.4055047 797.65204 1287.7466 4292005093
-36.082569 799.49109 1289.2972 4287857303
-33.677063 799.49109 1289.2972 4288055700
-31.271559 799.49109 1289.2972 4288121493
-7.2165136 799.49109 1289.2972 4291478233
-4.8110094 799.49109 1289.2972 4291610335
-2.4055047 799.49109 1289.2972 4291676128
-33.548622 805.80304 1288.0791 4287594897
-31.152294 805.80304 1288.0791 4288121241
-28.755962 805.80304 1288.0791 4288318356
-26.359632 805.80304 1288.0791 4288449943
-10.783486 805.80304 1288.0791 4289305779
-7.1889906 805.80304 1288.0791 4291476950
-4.7926607 805.80304 1288.0791 4291542491
-2.3963304 805.80304 1288.0791 4291871456
31.152294 805.80304 1288.0791 4291741149
40.737614 805.80304 1288.0791 4292135132
43.133945 805.80304 1288.0791 4291938784
46.728439 805.80304 1288.0791 4291807456
-33.548622 807.63507 1289.6239 4287463059
-31.152294 807.63507 1289.6239 4288055196
-28.755962 807.63507 1289.6239 4288252563
-4.7926607 807.63507 1289.6239 4291739104
-2.3963304 807.63507 1289.6239 4292265448
28.755962 807.63507 1289.6239 4291806431
31.152294 807.63507 1289.6239 4291937760
40.737614 807.63507 1289.6239 4292003805
43.133945 807.63507 1289.6239 4291742175
46.728439 807.63507 1289.6239 4292005090
-35.011623 814.52032 1288.8892 4287857291
-26.258715 813.91199 1288.3762 4288777622
-11.93578 813.91199 1288.3762 4284439397
-4.774312 813.91199 1288.3762 4287989405
-2.387156 814.82446 1289.1456 4286214278
38.194496 814.82446 1289.1456 4291741399
40.58165 815.73694 1289.915 4291609551
42.968807 815.73694 1289.915 4291346393
-38.077065 821.46045 1289.5088 4287593602
-34.507339 819.64099 1287.9747 4287725193
-30.937614 819.64099 1287.9747 4288316819
-28.557798 819.64099 1287.9747 4288448148
-26.177982 820.55072 1288.7417 4288448147
-22.608257 821.46045 1289.5088 4288776091
-16.658716 820.55072 1288.7417 4288645787
-14.278899 820.55072 1288.7417 4287595163
-10.709174 820.55072 1288.7417 4285687671
-7.1394496 819.64099 1287.9747 4285030501
-4.7596331 820.55072 1288.7417 4285752426
-2.3798165 821.46045 1289.5088 4286342765
-40.300919 827.677 1288.2102 4287197824
-37.930275 827.677 1288.2102 4287197563
-34.374313 827.677 1288.2102 4288250763
-30.818348 827.677 1288.2102 4288777107
-28.447706 827.677 1288.2102 4288645520
-26.077065 827.677 1288.2102 4289237658
-22.521101 827.677 1288.2102 4289106857
-18.965137 827.677 1288.2102 4288976541
-16.594496 827.677 1288.2102 4289173663
-14.223853 827.677 1288.2102 4289567154
-10.667891 827.677 1288.2102 4289698733
-7.1119266 827.677 1288.2102 4290422449
-4.7412844 827.677 1288.2102 4290423996
-2.3706422 827.677 1288.2102 4291147719
-40.300919 829.48938 1289.7384 4286014834
-37.930275 829.48938 1289.7384 4286738809
-35.559631 829.48938 1289.7384 4287067517
-18.965137 829.48938 1289.7384 4289501599
-16.594496 829.48938 1289.7384 4289370013
-10.667891 829.48938 1289.7384 4290094255
-7.1119266 829.48938 1289.7384 4291278523
-2.3706422 829.48938 1289.7384 4291674579
-44.322937 754.83624 1292.1943 4285885045
-41.86055 754.83624 1292.1943 4286806147
7.387156 754.83624 1292.1943 4284369729
9.8495417 754.83624 1292.1943 4284239232
32.011009 754.83624 1292.1943 4292398302
34.473396 754.83624 1292.1943 4292398050
-40.477982 761.34033 1291.1383 4286871179
4.9064221 761.34033 1291.1383 4287789462
7.359633 761.34033 1291.1383 4287723669
-49.06422 763.21582 1292.7196 4285095781
-46.611008 763.21582 1292.7196 4286214261
-44.157799 763.21582 1292.7196 4286474885
-41.704586 763.21582 1292.7196 4286935436
4.9064221 763.21582 1292.7196 4292266715
7.359633 763.21582 1292.7196 4292135130
9.8128443 763.21582 1292.7196 4291674583
-39.104588 767.81641 1290.0586 4286806412
-36.660549 767.81641 1290.0586 4287661978
-34.216515 767.81641 1290.0586 4288120462
1.2220184 767.81641 1290.0586 4292989406
4.8880734 767.81641 1290.0586 4292727266
-43.992661 769.68494 1291.634 4286410887
-40.326607 769.68494 1291.634 4286674313
-36.660549 769.68494 1291.634 4287398547
-34.216515 769.68494 1291.634 4287989392
1.2220184 769.68494 1291.634 4292201184
4.8880734 769.68494 1291.634 4292069600
-37.740364 776.12592 1290.5248 4287069836
-34.088074 776.12592 1290.5248 4287660942
-2.4348624 776.12592 1290.5248 4291611100
-43.827522 777.98743 1292.0944 4286345346
-41.392662 777.98743 1292.0944 4286871690
-37.740364 777.98743 1292.0944 4287135373
-41.205505 784.92993 1290.1 4287003278
-37.569725 784.92993 1290.1 4287267216
-2.4238532 784.92993 1290.1 4291741923
-43.629356 786.78302 1291.6624 4286082176
-41.205505 786.78302 1291.6624 4286937485
-38.781651 786.78302 1291.6624 4286938246
0 786.78302 1291.6624 4292004579
-45.878899 794.99713 1292.0481 4286543231
-43.464222 794.0741 1291.2698 4286542206
-41.049541 794.0741 1291.2698 4287200136
-38.634861 794.0741 1291.2698 4287134600
0.80489296 794.38184 1291.5293 4291873505
4.8293576 794.99713 1292.0481 4292004827
-36.082569 802.24963 1291.6232 4287594647
-33.677063 801.33008 1290.8479 4287924112
-2.4055047 801.33008 1290.8479 4292003805
1.2027524 803.16913 1292.3984 4291805661
4.8110094 803.16913 1292.3984 4290426324
7.2165136 803.16913 1292.3984 4286741917
26.46055 802.24963 1291.6232 4292135141
28.866055 802.24963 1291.6232 4291807198
50.515594 802.24963 1291.6232 4292136168
52.921101 802.24963 1291.6232 4292136420
-34.746788 809.46704 1291.1686 4287462538
-2.3963304 809.46704 1291.1686 4289042103
28.755962 809.46704 1291.1686 4291871708
31.152294 809.46704 1291.1686 4292003294
33.548622 809.46704 1291.1686 4291478746
40.737614 809.46704 1291.1686 4291676380
43.133945 809.46704 1291.1686 4291544801
46.728439 809.46704 1291.1686 4291873764
-38.341286 811.29907 1292.7133 4287265916
1.1981652 811.29907 1292.7133 4285951605
31.152294 811.29907 1292.7133 4292069600
34.746788 811.29907 1292.7133 4291806942
40.737614 811.29907 1292.7133 4291938784
43.133945 811.29907 1292.7133 4291741923
-40.58165 817.56201 1291.4539 4287002749
-38.194496 817.56201 1291.4539 4287265153
-2.387156 817.56201 1291.4539 4285293159
0 817.56201 1291.4539 4285292907
-42.968807 819.38696 1292.9927 4286606457
-40.58165 819.38696 1292.9927 4287461510
1.193578 819.38696 1292.9927 4286606709
4.774312 819.38696 1292.9927 4288580218
7.161468 819.38696 1292.9927 4289830028
-42.836697 823.27979 1291.0428 4286737019
-11.899082 823.27979 1291.0428 4288383657
-2.3798165 823.27979 1291.0428 4287659396
0 823.27979 1291.0428 4288186014
-42.836697 825.09918 1292.5769 4286868860
0 825.09918 1292.5769 4291477450
-46.227524 832.20795 1292.0306 4284175715
-42.671558 831.30176 1291.2666 4283912547
-9.4825687 831.30176 1291.2666 4289963949
-7.1119266 831.30176 1291.2666 4289174433
-2.3706422 831.30176 1291.2666 4287264660
-49.247707 758.60126 1295.3689 4285029988
-46.78532 757.66003 1294.5752 4286016629
-44.322937 757.66003 1294.5752 4286016384
-41.86055 756.71875 1293.7816 4286740103
9.8495417 757.66003 1294.5752 4285554036
32.011009 757.66003 1294.5752 4292200927
34.473396 756.71875 1293.7816 4292332256
-49.06422 766.02905 1295.0917 4284963168
-46.611008 766.02905 1295.0917 4286344821
-44.157799 765.09131 1294.301 4286345094
-41.704586 765.09131 1294.301 4286739852
7.359633 766.02905 1295.0917 4292859112
9.8128443 766.02905 1295.0917 4292596200
13.083793 766.34161 1295.3552 4288713379
-48.880733 773.42188 1294.7849 4284832356
-46.436699 773.42188 1294.7849 4286279802
-43.992661 772.48767 1293.9972 4286475140
-40.733944 772.17627 1293.7346 4287199885
1.2220184 772.48767 1293.9972 4291938783
4.8880734 772.48767 1293.9972 4292004065
-46.262386 779.84888 1293.6639 4286345596
-43.827522 779.84888 1293.6639 4286345348
-41.392662 779.84888 1293.6639 4286937485
-38.957798 779.84888 1293.6639 4286938250
0 779.84888 1293.6639 4292069602
-48.697247 781.71033 1295.2334 4284895849
-46.262386 781.71033 1295.2334 4286606467
-43.827522 781.71033 1295.2334 4286345348
1.2174312 781.71033 1295.2334 4292135398
-46.053211 788.63611 1293.2249 4286409592
-43.629356 788.63611 1293.2249 4286279299
1.2119266 788.63611 1293.2249 4291938784
4.8477063 788.63611 1293.2249 4292003805
-48.477066 790.48914 1294.7874 4285885045
-46.053211 790.48914 1294.7874 4286279802
2.4238532 790.48914 1294.7874 4291741921
4.8477063 790.48914 1294.7874 4291544026
7.2715597 790.48914 1294.7874 4292333542
-45.878899 796.8432 1293.6047 4284963945
-43.464222 796.8432 1293.6047 4286145393
-41.049541 796.8432 1293.6047 4287460997
-38.634861 796.8432 1293.6047 4287001995
1.2073394 796.8432 1293.6047 4291611102
4.8293576 796.8432 1293.6047 4291610083
7.2440367 796.8432 1293.6047 4290557394
9.6587152 796.8432 1293.6047 4289043388
-48.293579 798.68921 1295.1613 4284568937
-45.878899 798.68921 1295.1613 4284766059
-43.464222 798.68921 1295.1613 4285424496
-41.049541 798.68921 1295.1613 4287003528
-38.634861 798.68921 1295.1613 4287133842
1.2073394 798.68921 1295.1613 4292201438
4.8293576 798.68921 1295.1613 4291413222
7.2440367 798.68921 1295.1613 4289241796
9.6587152 798.68921 1295.1613 4288847010
13.280734 798.68921 1295.1613 4290884812
16.902752 798.68921 1295.1613 4290488015
19.31743 798.68921 1295.1613 4290160054
-45.704586 806.84717 1295.4998 4285751662
-43.299084 805.92767 1294.7244 4285817456
-40.893578 806.84717 1295.4998 4286738557
-37.285324 805.92767 1294.7244 4287659913
1.2027524 805.92767 1294.7244 4289042618
4.8110094 805.92767 1294.7244 4287857557
7.2165136 805.92767 1294.7244 4286870662
9.6220188 806.84717 1295.4998 4288579968
21.649542 806.84717 1295.4998 4292002762
25.658714 806.23419 1294.9829 4291937247
-45.530273 814.96313 1295.8027 4286672760
-43.133945 814.04712 1295.0303 4285884781
-40.737614 813.1311 1294.2579 4285556332
-38.341286 813.1311 1294.2579 4286804602
1.5975536 813.74176 1294.7728 4286148216
4.7926607 814.04712 1295.0303 4287660159
7.1889906 814.04712 1295.0303 4288252296
9.5853214 814.96313 1295.8027 4289568406
21.566973 814.96313 1295.8027 4292069591
26.359632 814.96313 1295.8027 4292530403
28.755962 814.96313 1295.8027 4292136160
31.152294 814.04712 1295.0303 4292070625
34.746788 814.04712 1295.0303 4291281629
-45.355965 821.21198 1294.5314 4286605940
2.387156 821.21198 1294.5314 4289633460
4.774312 821.21198 1294.5314 4290688406
7.161468 821.21198 1294.5314 4291477922
9.548624 821.21198 1294.5314 4291281051
-45.216515 826.91858 1294.111 4285424746
-42.836697 826.91858 1294.111 4286014834
0 826.91858 1294.111 4291412692
-49.976147 828.73798 1295.645 4284372576
-47.596329 828.73798 1295.645 4283848030
0 828.73798 1295.645 4286674827
-51.902752 753.9726 1298.0062 4284766559
-49.431194 753.9726 1298.0062 4284963943
13.593578 753.9726 1298.0062 4287527312
24.715597 753.9726 1298.0062 4292201440
-51.710091 760.48376 1296.9562 4284437848
13.543119 760.48376 1296.9562 4286477438
-51.710091 762.36627 1298.5435 4284372057
14.774312 762.36627 1298.5435 4287859322
-49.06422 768.84229 1297.4637 4284766563
-46.611008 768.84229 1297.4637 4286214009
7.359633 768.84229 1297.4637 4292530151
9.8128443 768.84229 1297.4637 4292463854
13.492661 768.84229 1297.4637 4289306558
-51.324772 775.29034 1296.3604 4283912275
-48.880733 775.29034 1296.3604 4284569187
-46.436699 775.29034 1296.3604 4286477184
1.2220184 775.29034 1296.3604 4292003807
4.8880734 775.29034 1296.3604 4292069600
7.3321099 775.29034 1296.3604 4292135393
-51.324772 777.15887 1297.9358 4283913051
-48.880733 777.15887 1297.9358 4284306012
2.4440367 777.15887 1297.9358 4292266982
4.8880734 777.15887 1297.9358 4292135647
7.3321099 777.15887 1297.9358 4292267234
-51.132111 785.43329 1298.3726 4285949041
-48.697247 784.50256 1297.5878 4285948525
-46.262386 783.57184 1296.803 4286605940
2.4348624 783.57184 1296.803 4292004579
4.8697248 783.57184 1296.803 4292004575
7.3045874 785.43329 1298.3726 4292530149
-49.285015 792.95978 1296.8706 4285555563
7.2715597 792.34216 1296.3497 4292399585
9.6954126 792.34216 1296.3497 4291281631
13.331193 794.19525 1297.9122 4289701309
16.966972 794.19525 1297.9122 4290096058
19.390825 794.19525 1297.9122 4290226099
-48.293579 800.53528 1296.7178 4284831852
-45.878899 800.53528 1296.7178 4284963695
-43.464222 800.53528 1296.7178 4285816944
-41.049541 800.53528 1296.7178 4287329926
-38.634861 800.53528 1296.7178 4287068301
9.6587152 800.53528 1296.7178 4287001211
13.280734 800.53528 1296.7178 4292330199
16.902752 800.53528 1296.7178 4290619592
19.31743 800.53528 1296.7178 4290225336
21.732111 800.53528 1296.7178 4292067540
-49.500916 802.38135 1298.2743 4285291361
-45.878899 802.38135 1298.2743 4285424496
-41.049541 802.38135 1298.2743 4287133061
-38.634861 802.38135 1298.2743 4287528841
9.6587152 802.38135 1298.2743 4287200391
13.280734 802.38135 1298.2743 4291410381
16.902752 802.38135 1298.2743 4290225088
19.31743 802.38135 1298.2743 4290357186
21.732111 802.38135 1298.2743 4292067804
24.14679 802.38135 1298.2743 4292068835
-48.110092 808.68622 1297.0503 4285554789
-45.704586 808.68622 1297.0503 4285422947
-43.299084 808.68622 1297.0503 4285554283
-40.893578 808.68622 1297.0503 4286014834
4.8110094 808.68622 1297.0503 4286016131
7.2165136 808.68622 1297.0503 4288055457
9.6220188 808.68622 1297.0503 4288515738
13.230275 808.68622 1297.0503 4289173158
16.838531 808.68622 1297.0503 4291014852
21.649542 808.68622 1297.0503 4291938003
25.257797 808.68622 1297.0503 4292003294
28.866055 808.68622 1297.0503 4291938014
-48.110092 810.52527 1298.601 4285685351
-45.704586 810.52527 1298.601 4285751400
9.6220188 810.52527 1298.601 4288450447
13.230275 810.52527 1298.601 4290094253
16.838531 810.52527 1298.601 4291870159
19.244038 810.52527 1298.601 4291871955
21.649542 810.52527 1298.601 4292003798
25.257797 810.52527 1298.601 4292069854
28.866055 810.52527 1298.601 4291939295
-47.127827 817.40582 1297.8623 4286211439
11.182874 817.40582 1297.8623 4292068010
14.377981 817.71118 1298.1198 4291938004
16.774311 818.62714 1298.8921 4292070102
22.365747 818.01654 1298.3772 4289569979
26.359632 816.79517 1297.3474 4288977586
-46.549541 823.94946 1296.8396 4286081393
2.387156 823.94946 1296.8396 4291412175
4.774312 823.94946 1296.8396 4291478979
7.161468 823.94946 1296.8396 4290031789
9.548624 823.94946 1296.8396 4288651669
-49.976147 830.55737 1297.1791 4284569698
-54.374313 755.86212 1299.5995 4284635484
-51.902752 755.86212 1299.5995 4284832606
13.593578 755.86212 1299.5995 4285818491
17.300917 755.86212 1299.5995 4291477713
24.715597 755.86212 1299.5995 4292266463
27.187157 755.86212 1299.5995 4292266463
-55.610092 757.75165 1301.1926 4284437849
17.300917 757.75165 1301.1926 4290885814
19.772476 757.75165 1301.1926 4291149534
-51.710091 764.24878 1300.1307 4284632663
17.236698 764.24878 1300.1307 4288579727
-54.172478 766.13135 1301.718 4284437850
-51.710091 766.13135 1301.718 4283977300
17.236698 766.13135 1301.718 4287794087
-51.517429 770.71783 1299.0452 4283912025
7.359633 770.71783 1299.0452 4292135909
9.8128443 770.71783 1299.0452 4292004841
13.492661 770.71783 1299.0452 4289504702
-56.423855 772.59332 1300.6265 4284766300
-53.970642 772.59332 1300.6265 4284570204
9.8128443 772.59332 1300.6265 4292070632
13.492661 772.59332 1300.6265 4289636290
17.172478 772.59332 1300.6265 4287662498
-52.546791 779.02734 1299.5114 4284766816
4.8880734 779.02734 1299.5114 4292069600
7.3321099 779.02734 1299.5114 4292333029
9.7761469 779.02734 1299.5114 4292005093
-58.656879 780.89581 1301.0868 4283911504
-56.212845 780.89581 1301.0868 4284766813
-52.546791 780.89581 1301.0868 4285488489
7.3321099 780.89581 1301.0868 4292333540
9.7761469 780.89581 1301.0868 4291938532
13.442202 780.89581 1301.0868 4288910764
17.108257 780.89581 1301.0868 4289172646
19.552294 780.89581 1301.0868 4290488508
-52.349541 787.2948 1299.942 4285096035
9.7394495 787.2948 1299.942 4291413994
12.174312 787.2948 1299.942 4288256186
17.044037 787.2948 1299.942 4289637533
-53.566971 789.15625 1301.5116 4284962648
13.391743 789.15625 1301.5116 4288847011
17.044037 789.15625 1301.5116 4290096798
19.478899 789.15625 1301.5116 4290226613
21.913761 789.15625 1301.5116 4291147715
-50.900917 796.97485 1300.2559 4284831060
21.814678 796.04828 1299.4746 4291936465
24.238533 796.97485 1300.2559 4291937762
-49.903362 804.84271 1300.3497 4285422181
13.280734 804.22736 1299.8308 4289764517
16.902752 804.22736 1299.8308 4290159806
19.31743 805.15039 1300.6091 4291279555
-49.312843 812.36426 1300.1516 4285751912
13.230275 812.36426 1300.1516 4290949565
16.838531 812.36426 1300.1516 4292199394
19.244038 812.36426 1300.1516 4291937749
24.055046 812.36426 1300.1516 4292135645
-67.354126 814.20331 1301.7021 4284371805
-64.948624 814.20331 1301.7021 4284174683
-57.732109 814.20331 1301.7021 4284108634
-55.326607 814.20331 1301.7021 4284832356
-52.921101 814.20331 1301.7021 4285030242
-50.515594 814.20331 1301.7021 4285424744
16.838531 814.20331 1301.7021 4292135384
19.244038 814.20331 1301.7021 4291938014
24.055046 814.20331 1301.7021 4290622154
-50.322937 820.45917 1300.4368 4286276974
-47.926605 820.45917 1300.4368 4286145902
11.981651 820.45917 1300.4368 4288454801
14.377981 820.45917 1300.4368 4287860884
16.774311 820.45917 1300.4368 4284703076
19.170643 820.45917 1300.4368 4285025915
22.765137 820.45917 1300.4368 4285355389
-55.115597 822.2912 1301.9814 4285093732
-50.322937 822.2912 1301.9814 4285422949
11.981651 822.2912 1301.9814 4286611575
14.377981 822.2912 1301.9814 4286413160
16.774311 822.2912 1301.9814 4283781440
19.170643 822.2912 1301.9814 4285157494
21.566973 822.2912 1301.9814 4288117922
2.387156 826.68701 1299.1478 4285227381
4.774312 826.68701 1299.1478 4283256169
7.161468 826.68701 1299.1478 4282137687
9.548624 826.68701 1299.1478 4281481806
-52.517429 828.51196 1300.6866 4284569698
2.387156 828.51196 1300.6866 4282139234
4.774312 828.51196 1300.6866 4282467159
7.161468 828.51196 1300.6866 4282137937
9.548624 828.51196 1300.6866 4282008407
-55.610092 760.58594 1303.5825 4284765534
17.300917 759.64117 1302.7859 4289043597
-59.097248 769.89636 1304.8926 4283253061
-55.403671 768.01379 1303.3053 4284437597
17.236698 768.01379 1303.3053 4287860386
-61.330276 776.34436 1303.7893 4283648848
-58.877064 776.34436 1303.7893 4283714382
-56.423855 775.40662 1302.9985 4284898399
-53.970642 774.46881 1302.2079 4284570982
9.8128443 774.46881 1302.2079 4292202472
13.492661 775.40662 1302.9985 4289043893
17.172478 775.40662 1302.9985 4288254376
19.625689 776.34436 1303.7893 4289503676
-63.544952 782.76428 1302.6622 4283977048
-61.100918 782.76428 1302.6622 4284108634
-58.656879 782.76428 1302.6622 4284108886
-56.212845 782.76428 1302.6622 4284503644
-53.768806 782.76428 1302.6622 4285093732
9.7761469 782.76428 1302.6622 4291741669
13.442202 782.76428 1302.6622 4288189100
17.108257 782.76428 1302.6622 4289175991
19.552294 782.76428 1302.6622 4289898936
-61.100918 784.63281 1304.2377 4284043093
-58.656879 784.63281 1304.2377 4284501847
-56.212845 784.63281 1304.2377 4284896605
14.66422 784.63281 1304.2377 4286742641
19.552294 784.63281 1304.2377 4290029752
-52.349541 791.0177 1303.0812 4284699728
-56.001835 792.87921 1304.6508 4284043093
-53.566971 792.87921 1304.6508 4284436556
-53.324772 799.75439 1302.5996 4285093203
-55.748623 801.60742 1304.162 4284567388
-53.324772 801.60742 1304.162 4285355870
-60.366974 809.7655 1304.5005 4283977048
-57.952293 808.84247 1303.7222 4283845464
-55.537613 809.7655 1304.5005 4284963945
-53.122936 808.84247 1303.7222 4284830810
-50.708256 807.91943 1302.9438 4285094238
-67.354126 817.88135 1304.8035 4284962146
-64.948624 817.88135 1304.8035 4284962146
-61.340366 816.96191 1304.0282 4284699744
-57.732109 816.96185 1304.0281 4284962144
-55.326607 816.96185 1304.0281 4285093730
-52.921101 816.96185 1304.0281 4285487458
-50.515594 816.04236 1303.2528 4286276972
19.244038 816.04236 1303.2528 4291544276
-55.115597 824.12317 1303.5262 4284635230
-52.719265 824.12317 1303.5262 4284503905
11.981651 824.12317 1303.5262 4286087316
14.377981 824.12317 1303.5262 4288449441
16.774311 824.12317 1303.5262 4290686403
19.170643 824.12317 1303.5262 4291278269
7.161468 830.33698 1302.2253 4283125334
-62.06422 754.47314 1306.2765 4283582290
-59.58165 754.47314 1306.2765 4283582542
22.343119 754.47314 1306.2765 4292202222
24.825687 754.47314 1306.2765 4292332259
-62.06422 756.37109 1307.8767 4283516497
-59.58165 756.37109 1307.8767 4283516749
19.86055 756.37109 1307.8767 4290095054
-56.845871 763.42023 1305.9723 4284634980
-59.317432 765.30975 1307.5654 4283318602
-64.022018 771.77887 1306.4799 4283518293
-61.559631 771.77887 1306.4799 4283321171
-59.097248 771.77887 1306.4799 4282990402
-63.783485 778.21985 1305.3706 4283911254
-61.330276 778.21985 1305.3706 4283911254
-61.100918 787.43555 1306.6008 4283780691
-58.656879 787.43555 1306.6008 4283977299
-56.212845 787.43555 1306.6008 4284372058
21.99633 788.36975 1307.3887 4291805388
24.440367 788.36975 1307.3887 4291676126
-56.001835 794.74066 1306.2202 4284108886
-53.566971 794.74066 1306.2202 4284502097
-56.001835 796.60217 1307.7898 4284501595
-55.748623 803.46051 1305.7245 4284369755
-53.324772 803.46051 1305.7245 4284633181
-64.232109 805.3136 1307.2869 4283714646
-60.596329 805.3136 1307.2869 4283780438
-55.748623 805.3136 1307.2869 4284108636
-61.57431 811.61151 1306.057 4284240219
-67.611008 813.45758 1307.6135 4284569437
-65.196327 813.45758 1307.6135 4284503644
-67.354126 819.7204 1306.354 4284896353
-64.948624 819.7204 1306.354 4284962146
-61.340366 820.63989 1307.1294 4284897642
-57.732109 820.63989 1307.1294 4284699998
-52.921101 819.7204 1306.354 4285422949
-55.115597 825.9552 1305.0709 4284569437
11.981651 825.9552 1305.0709 4286153109
14.377981 825.9552 1305.0709 4288582074
16.774311 825.9552 1305.0709 4290621400
19.170643 825.9552 1305.0709 4290686916
-62.06422 758.26904 1309.4771 4283254094
-59.58165 758.26904 1309.4771 4283645518
-61.78899 767.19928 1309.1587 4283451726
19.772476 769.08881 1310.7518 4289438137
-64.022018 773.66138 1308.0671 4283714641
-68.433029 792.10675 1310.5396 4284108634
-65.988991 792.10675 1310.5396 4283845461
-61.100918 792.10675 1310.5396 4283977297
-58.656879 792.10675 1310.5396 4283977300
-68.176147 800.32507 1310.9288 4283911521
-64.523849 799.39435 1310.144 4283911000
-60.871559 799.39435 1310.144 4284173398
-58.436699 799.39435 1310.144 4284435803
-64.232109 807.16663 1308.8494 4283714133
-61.340366 823.39844 1309.4553 4284634741
-57.732109 823.39844 1309.4553 4284437850
19.933945 755.5509 1313.7253 4289109944
-62.06422 760.16699 1311.0774 4283451474
-59.58165 760.16699 1311.0774 4283516499
19.86055 760.16699 1311.0774 4288978097
-62.06422 762.06494 1312.6776 4283516749
19.86055 762.06494 1312.6776 4289306035
-66.236694 787.59735 1313.2775 4283714128
-63.783485 787.59735 1313.2775 4283648596
-61.330276 787.59735 1313.2775 4283846232
-58.877064 787.59735 1313.2775 4283977300
-68.433029 793.97522 1312.115 4283977050
-65.988991 793.97522 1312.115 4283845207
-61.100918 793.97522 1312.115 4283714634
-58.656879 793.97522 1312.115 4284238166
-68.433029 795.84375 1313.6904 4283780184
-68.176147 802.18652 1312.4984 4284043356
-67.611008 818.99573 1312.2831 4285490039
-65.196327 818.99573 1312.2831 4284963695
21.732111 818.99573 1312.2831 4291475905
21.732111 820.84174 1313.8396 4290950088
-55.326607 825.23749 1311.006 4284832356
-52.921101 825.23749 1311.006 4284701286
9.6220188 825.23749 1311.006 4282533976
13.230275 825.23749 1311.006 4283914868
-64.785324 757.45593 1315.3315 4283714645
-64.785324 759.36084 1316.9377 4283845713
19.86055 763.96289 1314.278 4289241273
-66.484406 783.07397 1316.0037 4283648848
-64.022018 783.07397 1316.0037 4283648848
-63.783485 790.41058 1315.6495 4283780173
-68.176147 804.04803 1314.068 4284043356
-61.57431 822.68774 1315.3962 4284636020
-57.952293 822.68774 1315.3962 4284569185
13.280734 824.53381 1316.9528 4283190109
16.902752 823.61078 1316.1746 4283650668
19.31743 823.61078 1316.1746 4283585663
21.732111 823.61078 1316.1746 4288322760
-66.732109 778.5365 1318.7179 4283846484
-64.260551 778.5365 1318.7179 4283714641
-65.444038 818.28497 1318.224 4284701538
-65.444038 820.13806 1319.7865 4285098624
16.902752 826.37988 1318.5093 4283585383
19.31743 826.37988 1318.5093 4284961144
21.732111 826.37988 1318.5093 4287790243
-64.546791 773.45258 1322.2794 4283845713
-60.596329 821.99109 1321.3489 4284438643
-58.172478 821.99109 1321.3489 4284569700
-55.748623 821.99109 1321.3489 4284701286
7.2715597 821.99109 1321.3489 4283322968
9.6954126 821.99109 1321.3489 4283322468
14.543119 823.84412 1322.9114 4283388261
19.31743 828.22589 1320.0658 4285157753
21.732111 829.14893 1320.844 4287395477
-68.176147 817.07837 1325.0548 4286875035
14.543119 825.6972 1324.4739 4285489537
16.966972 825.6972 1324.4739 4284831350
-64.523857 818.93982 1326.6244 4285754503
-64.523857 820.80127 1328.1938 4287531428
-60.871559 820.80127 1328.1938 4285689478
-58.436699 820.80127 1328.1938 4285622140
-56.001835 820.80127 1328.1938 4285095796
12.174312 820.80127 1328.1938 4283520092
19.390825 827.55023 1326.0363 4287001995
19.390825 829.40332 1327.5988 4286543744
12.174312 822.66278 1329.7634 4285361267
17.044037 824.52423 1331.333 4287395999
19.390825 831.25635 1329.1611 4286807443
9.7761469 818.26556 1332.5959 4283322970
-68.433029 820.13403 1334.1714 4289111232
-64.766968 820.13403 1334.1714 4287926958
-61.100918 820.13403 1334.1714 4286150290
-58.656879 820.13403 1334.1714 4286148235
17.044037 826.38568 1332.9026 4286082969
17.044037 828.24719 1334.472 4284247704
-68.689911 815.72986 1336.998 4288913083
-68.433029 822.93677 1336.5345 4289901519
-64.766968 822.00256 1335.7468 4288453819
-61.100918 822.00256 1335.7468 4287400616
13.849541 822.62531 1336.272 4288055720
17.044037 830.10864 1336.0416 4285101959
9.8128443 817.60535 1338.5795 4284176993
-58.877064 819.48083 1340.1609 4287661726
9.8128443 819.48083 1340.1609 4285096044
14.66422 826.67371 1339.6855 4282076008
-56.634861 815.07666 1342.9875 4285490048
7.387156 813.19415 1341.4003 4283520092
9.8128443 821.35632 1341.7422 4284045934
12.266055 821.35632 1341.7422 4287927721
9.8128443 823.23181 1343.3236 4282994025
12.266055 823.23181 1343.3236 4283059819
14.66422 829.47644 1342.0487 4283649882
12.220183 831.34497 1343.6241 4287464606
-54.374313 808.76892 1344.2091 4284898152
-54.374313 810.65845 1345.8022 4284832102
-66.484406 818.84167 1346.1621 4288980414
-64.022018 818.84167 1346.1621 4288716987
-61.559631 818.84167 1346.1621 4287795885
-59.097248 818.84167 1346.1621 4287794590
-56.634861 816.95923 1344.5748 4286608782
9.8128443 826.0451 1345.6957 4286874544
12.266055 826.0451 1345.6957 4283518844
12.220183 833.2135 1345.1997 4290885581
-52.133945 803.8197 1347.8842 4284701286
-52.133945 805.71765 1349.4845 4284832102
4.9651375 805.71765 1349.4845 4283191381
-54.374313 812.54797 1347.3955 4285093484
7.4146791 812.54797 1347.3955 4282995031
-54.374313 814.4375 1348.9886 4286342016
-51.902752 814.4375 1348.9886 4286078844
7.4146791 814.4375 1348.9886 4283322214
-66.484406 820.72424 1347.7494 4290362326
-64.022018 820.72424 1347.7494 4290163920
-61.559631 820.72424 1347.7494 4288716474
-59.097248 820.72424 1347.7494 4288518579
7.387156 820.72424 1347.7494 4285294722
-61.559631 822.60675 1349.3367 4289045435
-59.097248 822.60675 1349.3367 4288584132
-56.634861 822.60675 1349.3367 4288255423
7.387156 822.60675 1349.3367 4287661987
7.359633 830.73383 1349.649 4290885329
9.8128443 829.79608 1348.8584 4290951376
-52.133945 808.56458 1351.885 4285094508
-49.651375 808.56458 1351.885 4285291633
4.9651375 808.56458 1351.885 4282994519
-55.610092 817.27179 1351.3784 4286676376
-51.902752 817.27179 1351.3784 4285558159
-49.431194 818.21655 1352.175 4286018693
4.943119 818.21655 1352.175 4289834439
7.4146791 816.32703 1350.5819 4283320693
-64.022018 824.48926 1350.924 4290427871
-61.559631 824.48926 1350.924 4289835734
-59.097248 824.48926 1350.924 4290162635
-56.634861 824.48926 1350.924 4289833926
7.387156 824.48926 1350.924 4290950352
-64.022018 826.37177 1352.5112 4291084268
-61.559631 826.37177 1352.5112 4290426338
7.387156 826.37177 1352.5112 4291214030
-22.508257 794.89624 1353.4406 4289630108
-20.007339 794.89624 1353.4406 4289631904
-17.506422 794.89624 1353.4406 4290092455
-22.508257 796.80823 1355.0527 4288383336
-12.504587 796.80823 1355.0527 4290030001
-49.834862 803.17493 1353.8806 4284898150
-12.458715 803.17493 1353.8806 4289240488
-7.4752293 803.17493 1353.8806 4287660440
2.4917431 803.17493 1353.8806 4282667111
-47.343121 805.07983 1355.4868 4285422449
-44.851376 805.07983 1355.4868 4285356906
-12.458715 805.07983 1355.4868 4287003782
-9.9669724 805.07983 1355.4868 4288908458
-7.4752293 805.07983 1355.4868 4289829560
-4.9834862 805.07983 1355.4868 4288780454
-2.4917431 805.07983 1355.4868 4284372324
2.4917431 805.07983 1355.4868 4283254624
-49.651375 811.4115 1354.2854 4285621875
-7.4477062 811.4115 1354.2854 4290161590
-2.4825687 811.4115 1354.2854 4290819788
4.9651375 811.4115 1354.2854 4283716971
-49.651375 813.30945 1355.8857 4285294706
-47.168808 813.30945 1355.8857 4285031535
-44.686237 813.30945 1355.8857 4285816944
-7.4477062 813.30945 1355.8857 4290816946
-4.9651375 813.30945 1355.8857 4291673298
-2.4825687 813.30945 1355.8857 4291541711
2.4825687 813.30945 1355.8857 4287464857
4.9651375 813.30945 1355.8857 4284965519
-66.732109 820.10608 1353.7683 4290624471
-64.260551 820.10608 1353.7683 4290624723
-54.374313 821.05084 1354.5649 4288452521
-51.902752 821.05084 1354.5649 4287596956
-49.431194 821.99561 1355.3615 4287335584
-46.959633 821.99561 1355.3615 4286414482
4.943119 821.05084 1354.5649 4290687950
4.9247708 830.13678 1355.6858 4290556111
-25.119267 791.8197 1358.6947 4288709006
-15.07156 791.8197 1358.6947 4289568171
-12.559633 791.8197 1358.6947 4289831344
-50.018349 798.72021 1356.6648 4284832102
-46.683792 799.99481 1357.7396 4284897637
-22.508257 798.72021 1356.6648 4285357406
-20.007339 798.72021 1356.6648 4284439147
-16.255962 799.67615 1357.4709 4286345598
-12.504587 798.72021 1356.6648 4290225838
-10.00367 799.67615 1357.4709 4289503928
-7.5027523 798.72021 1356.6648 4287333788
-5.0018349 800.63214 1358.277 4284768376
-2.5009174 800.63214 1358.277 4282531415
1.2504587 799.67615 1357.4709 4282599774
5.0018349 798.72021 1356.6648 4283191127
-47.343121 806.98486 1357.093 4285095281
-44.851376 806.98486 1357.093 4285093484
-12.458715 806.98486 1357.093 4286016385
-9.9669724 806.98486 1357.093 4286672530
-7.4752293 806.98486 1357.093 4290554060
-4.9834862 806.98486 1357.093 4289766332
-2.4917431 806.98486 1357.093 4287331991
1.2458715 806.98486 1357.093 4283453298
-47.343121 808.88977 1358.6993 4285358703
-43.605507 808.88977 1358.6993 4285685102
-12.458715 808.88977 1358.6993 4285293428
-9.9669724 808.88977 1358.6993 4285424494
-4.9834862 808.88977 1358.6993 4291346132
1.2458715 808.88977 1358.6993 4287728032
-47.168808 815.2074 1357.486 4285492349
-43.444954 815.2074 1357.486 4286014834
-7.4477062 815.2074 1357.486 4290686639
-4.9651375 815.2074 1357.486 4291148246
-2.4825687 815.2074 1357.486 4291148246
2.4825687 815.2074 1357.486 4291346393
-59.317432 823.88513 1356.9547 4290426826
-55.610092 823.88513 1356.9547 4289571513
-51.902752 823.88513 1356.9547 4288321185
-49.431194 823.88513 1356.9547 4288320937
4.943119 823.88513 1356.9547 4290884808
-59.317432 825.77466 1358.5479 4290296537
-55.610092 825.77466 1358.5479 4289375947
-51.902752 825.77466 1358.5479 4288258235
-49.431194 825.77466 1358.5479 4288584370
-2.4715595 825.77466 1358.5479 4290622924
4.943119 825.77466 1358.5479 4290556107
-25.21101 787.32855 1361.448 4289763767
-22.689909 787.32855 1361.448 4290158269
-46.470642 793.74011 1360.314 4284437861
-32.655045 793.74011 1360.314 4284240989
-27.631193 793.74011 1360.314 4285292653
-25.119267 793.74011 1360.314 4287133270
-20.095413 793.74011 1360.314 4289041560
-16.327522 793.74011 1360.314 4289503140
-10.047707 793.74011 1360.314 4289701293
-7.53578 793.74011 1360.314 4288319640
-45.21468 795.66052 1361.9331 4285289827
-42.702751 795.66052 1361.9331 4285553000
-35.166973 795.66052 1361.9331 4284635747
-31.399082 795.66052 1361.9331 4284569699
-27.631193 795.66052 1361.9331 4284503907
-25.119267 795.66052 1361.9331 4284831062
-5.0238533 795.66052 1361.9331 4283392888
-42.515594 802.54413 1359.889 4285356906
-40.014679 802.54413 1359.889 4285356904
-20.007339 802.54413 1359.889 4285488742
-16.255962 802.54413 1359.889 4285489514
0 802.54413 1359.889 4283583588
-42.515594 804.45612 1361.5012 4285093484
-40.014679 804.45612 1361.5012 4284831856
-20.007339 804.45612 1361.5012 4285685864
-16.255962 804.45612 1361.5012 4285752435
-42.359634 810.79474 1360.3055 4286079859
-39.867889 811.74719 1361.1086 4285882992
-19.933945 812.69971 1361.9117 4286345348
-17.442202 811.74719 1361.1086 4286082173
-13.704587 811.74719 1361.1086 4285294707
-9.9669724 811.74719 1361.1086 4286146154
0 811.74719 1361.1086 4291083475
-49.651375 817.10535 1359.0863 4286545037
-47.168808 817.10535 1359.0863 4285361020
-43.444954 817.10535 1359.0863 4285819767
-9.930275 817.10535 1359.0863 4286803846
-7.4477062 817.10535 1359.0863 4290948805
-4.9651375 817.10535 1359.0863 4291147987
-2.4825687 817.10535 1359.0863 4291345109
2.4825687 817.10535 1359.0863 4291674331
-43.444954 819.0033 1360.6866 4286084738
-39.7211 819.0033 1360.6866 4286213505
-32.273396 819.0033 1360.6866 4285950840
-9.930275 819.0033 1360.6866 4289962152
-7.4477062 819.0033 1360.6866 4291146170
-4.9651375 819.0033 1360.6866 4290818252
-2.4825687 819.0033 1360.6866 4290818252
2.4825687 819.0033 1360.6866 4291475416
-59.317432 827.66418 1360.1411 4290754272
-55.610092 827.66418 1360.1411 4290162643
-51.902752 827.66418 1360.1411 4289110719
2.4715595 827.66418 1360.1411 4290753490
-55.610092 829.55371 1361.7343 4288779956
-51.902752 829.55371 1361.7343 4288056997
-46.959633 829.55371 1361.7343 4287134876
-44.488075 829.55371 1361.7343 4287133331
-32.130276 829.55371 1361.7343 4286016644
-42.858715 791.18335 1364.6982 4284634980
-37.816513 791.18335 1364.6982 4284830812
-35.295414 791.18335 1364.6982 4284306783
-31.51376 790.21967 1363.8857 4284438113
-27.732111 789.25598 1363.0731 4286672760
-5.042202 791.18335 1364.6982 4285096869
-2.521101 791.18335 1364.6982 4284241560
0 791.18335 1364.6982 4281941855
-42.702751 797.58093 1363.5524 4285554283
-40.190826 797.58093 1363.5524 4285357156
-37.678898 797.58093 1363.5524 4285291363
-35.166973 797.58093 1363.5524 4284963943
-31.399082 797.58093 1363.5524 4284832105
-27.631193 797.58093 1363.5524 4284897646
-25.119267 797.58093 1363.5524 4285356404
-22.60734 797.58093 1363.5524 4285553783
-20.095413 797.58093 1363.5524 4284898152
-40.014679 806.36804 1363.1133 4285685615
-25.009174 806.36804 1363.1133 4285816951
-22.508257 806.36804 1363.1133 4285883000
-20.007339 806.36804 1363.1133 4285753458
-16.255962 806.36804 1363.1133 4285819511
-37.51376 808.28003 1364.7255 4285751662
-35.012844 808.28003 1364.7255 4285751662
-31.261467 808.28003 1364.7255 4285883248
-27.510092 808.28003 1364.7255 4285949041
-25.009174 808.28003 1364.7255 4285621625
-22.508257 808.28003 1364.7255 4285621625
-20.007339 808.28003 1364.7255 4285950840
-39.867889 814.60468 1363.5179 4285950588
-32.392662 814.60468 1363.5179 4286211709
-28.655045 814.60468 1363.5179 4285950840
-24.917431 814.60468 1363.5179 4286279804
-22.425688 814.60468 1363.5179 4286345598
-19.933945 814.60468 1363.5179 4286411400
-17.442202 814.60468 1363.5179 4286411400
