# .PCD v0.7 - Point Cloud Data file format
VERSION 0.7
FIELDS x y z rgb
SIZE 4 4 4 4
TYPE F F F U
COUNT 1 1 1 1
WIDTH 1162
HEIGHT 1
VIEWPOINT 0 0 0 1 0 0 0
POINTS 1162
DATA ascii
29.695414 778.61401 802.11145 4294834943
31.442202 778.61401 802.11145 4294966271
33.188992 779.94946 803.23743 4294965759
-7.5535164 782.33759 802.63495 4288383885
-5.2293577 781.4491 801.88586 4289437342
25.27523 781.4491 801.88586 4294901247
28.761467 781.4491 801.88586 4294834943
31.376146 782.11542 802.44769 4294768637
33.119267 782.78174 803.00952 4294965759
-10.425688 787.68384 803.21875 4287397764
-8.1088686 786.79828 802.47198 4288252299
31.277063 786.35541 802.09863 4294834943
33.883484 787.01965 802.65869 4294769150
-7.7944956 790.58276 801.73901 4288186499
25.115597 789.92065 801.18079 4294966783
28.579817 789.92065 801.18079 4294834942
32.044037 790.58276 801.73901 4294769150
-10.39266 792.56909 803.41382 4287593854
-7.7779818 794.05469 802.05029 4288317571
0 794.05469 802.05029 4289830560
25.926605 794.05469 802.05029 4294966783
28.519266 794.05469 802.05029 4294966527
31.976147 794.05469 802.05029 4294966527
34.6422 792.56909 803.41382 4294834430
-10.370643 795.3761 803.16455 4287593862
-7.7669725 796.48822 802.1402 4288383111
-4.3073397 797.60034 801.11584 4289172111
-1.7229358 797.60034 801.11584 4290027425
0.8614679 797.60034 801.11584 4290357672
4.3073397 797.60034 801.11584 4291146170
6.8917432 797.60034 801.11584 4291541950
20.67523 797.60034 801.11584 4290560447
22.398165 797.60034 801.11584 4294113270
24.982569 797.60034 801.11584 4294967295
28.475229 796.48822 802.1402 4294967295
31.976147 795.3761 803.16455 4294966015
34.568806 795.3761 803.16455 4294966271
-10.337615 800.23474 803.33704 4287265401
-8.0403671 799.35663 802.59668 4288185986
0 798.91754 802.22644 4290095265
25.844036 798.91754 802.22644 4294967295
28.715597 799.35663 802.59668 4294967295
31.012844 799.57617 802.78174 4294966783
-7.4501529 802.5882 802.70538 4288382844
-4.2981653 801.71198 801.96655 4288974988
0.85963303 801.71198 801.96655 4290095001
4.2981653 801.71198 801.96655 4290948541
24.929358 801.71198 801.96655 4292927202
28.081345 802.5882 802.70538 4294967295
-6.8550458 806.5481 802.12024 4288449150
-4.5700307 805.67462 801.38379 4289106572
0.85688072 805.23792 801.0155 4290027937
3.4275229 805.23792 801.0155 4290685106
23.992661 805.23792 801.0155 4294834680
25.706423 805.89301 801.56787 4294967295
28.277065 806.5481 802.12024 4294967295
-6.8550458 807.85828 803.22485 4288317562
-4.2752295 809.32703 801.84729 4289040782
0.85504586 809.32703 801.84729 4289765283
20.521101 809.32703 801.84729 4293386734
23.086239 809.32703 801.84729 4294967295
25.651377 809.32703 801.84729 4294967295
28.247707 808.59265 802.53607 4294967295
30.847706 807.85828 803.22485 4294967295
-6.8403668 810.6344 802.94971 4288448378
29.07156 810.6344 802.94971 4294967295
30.781651 810.6344 802.94971 4294967295
-6.8183484 814.78809 802.52789 4288448378
-4.5455661 814.57098 802.34473 4288908679
0.85229355 814.78815 802.52783 4289895587
3.4091742 814.78809 802.52789 4290159779
6.8183484 814.78809 802.52789 4291342518
20.455046 814.13654 801.97852 4292990693
23.011927 814.13654 801.97852 4294966015
25.568808 814.13654 801.97852 4294966015
28.409784 814.57086 802.34473 4294967039
31.250765 815.00531 802.711 4294967039
34.091743 815.4397 803.07727 4294967295
-6.8036699 818.20044 802.78906 4288119928
-3.9688072 817.76703 802.42358 4288908681
-1.7009175 817.55029 802.24084 4289566358
1.7009175 818.20044 802.78906 4290028457
4.53578 817.76703 802.42358 4290751916
7.9376144 817.76703 802.42358 4291342520
11.055964 817.55029 802.24084 4292131527
13.60734 817.55029 802.24084 4292527313
16.158716 817.55029 802.24084 4291146426
19.560551 817.55023 802.24084 4292464599
22.962385 817.55023 802.24084 4294900991
25.513762 817.55029 802.24084 4294768895
27.21468 817.55029 802.24084 4294965759
-7.6541286 819.50085 803.8855 4288185473
-4.246789 820.59192 802.84338 4288842884
-1.7009175 819.50085 803.8855 4289698451
4.2522936 819.50085 803.8855 4290816426
7.6541286 819.50085 803.8855 4291671229
10.205504 819.50085 803.8855 4292131784
22.888073 821.68298 801.80127 4294900735
25.513762 819.50085 803.8855 4294966527
28.065138 819.50085 803.8855 4294966015
23.735781 822.97913 802.89417 4294703357
25.431192 823.6272 803.44061 4294768893
27.126606 824.27527 803.98706 4294702842
23.684404 825.72443 802.5929 4294966015
35.1474 747.51324 804.66479 4294110451
37.530273 749.1073 806.00885 4293979122
40.21101 749.79047 806.58484 4294308347
-16.034863 752.08203 804.5929 4286474856
-14.253211 752.08203 804.5929 4287330928
34.742203 752.08203 804.5929 4294307831
-16.628746 754.35211 806.50708 4286802801
-14.253211 753.44409 805.74146 4286936692
35.633026 753.44409 805.74146 4294307832
37.41468 754.12512 806.31567 4294307832
39.790218 754.35211 806.50708 4294242554
43.650459 754.80615 806.88989 4294374138
46.322937 754.80615 806.88989 4294176246
-15.985321 758.44714 806.03577 4286738294
-13.617126 757.54193 805.27246 4287068022
34.634861 757.08929 804.89087 4294438906
37.299084 758.44714 806.03577 4294636795
-12.998164 760.86981 805.4624 4287463036
-10.634862 759.96643 804.70068 4287399049
34.858715 760.41815 805.08154 4294504952
-15.952293 762.67657 806.98584 4286737010
-13.274312 763.81183 805.98102 4287528057
34.455963 764.94708 804.9762 4294637052
37.222019 762.67657 806.98584 4294505211
-14.135779 766.29791 806.11523 4287330678
35.339451 766.29791 806.11523 4294504957
37.106422 766.29791 806.11523 4294504957
-12.917432 769.46198 804.85895 4287725436
-10.568808 768.56421 804.10205 4287660159
31.706423 768.56421 804.10205 4294900735
34.05505 769.46198 804.85895 4294637565
-15.853211 771.25757 806.37292 4287000952
-13.191744 772.38647 805.36279 4287594100
-10.53578 773.51544 804.35266 4287922563
34.241287 773.51544 804.35266 4294703357
36.990826 771.25757 806.37292 4294967295
-15.80367 776.20032 806.61646 4286606696
-13.462386 775.30536 805.86188 4287133815
-10.513762 776.36035 804.13525 4287922567
34.206421 775.60913 804.80994 4294966271
38.631191 776.20032 806.61646 4294637311
-12.850154 778.59302 806.01788 4287199351
-10.513762 777.69995 805.26489 4287988619
35.045872 777.69995 805.26489 4294965759
37.674309 778.36975 805.82965 4294769407
-13.100918 782.6203 805.4895 4287002485
-10.480734 781.28485 804.36353 4287988873
34.93578 781.28485 804.36353 4294834687
37.264832 782.17511 805.1142 4294900735
-15.721101 783.95575 806.61548 4287132007
-13.073395 785.44702 805.25684 4287264635
-10.458715 784.11438 804.13318 4287791495
34.862385 784.11438 804.13318 4294966783
37.517433 784.70142 805.93616 4294703359
40.176147 783.95575 806.61548 4294703871
-13.944954 786.7796 806.38049 4287001463
37.477066 786.7796 806.38049 4294834943
-15.638532 791.66907 806.57898 4286342754
-13.03211 790.3407 805.45898 4287329909
-10.425688 789.01227 804.33887 4287594365
34.752293 789.01227 804.33887 4294768895
37.358719 791.00488 806.01898 4294900222
-12.124771 793.89331 804.5304 4287790713
36.374313 793.89331 804.5304 4294966527
-15.588991 796.54175 806.76343 4286605674
-13.270947 796.15228 805.56299 4287133298
-10.370643 796.69751 804.27869 4287659648
32.840366 796.69751 804.27869 4294966271
34.568806 796.69751 804.27869 4294966783
37.529053 795.65894 806.01904 4294966271
-12.963303 798.67963 805.94995 4287067247
32.840366 798.01892 805.39282 4294966783
34.568806 798.67963 805.94995 4294899967
36.873394 798.8999 806.13568 4294899967
-12.060551 802.21057 805.00305 4287329903
-10.337615 802.21057 805.00305 4287133304
32.161469 801.99103 804.81793 4294967039
34.458717 802.86914 805.55835 4294967295
-12.6263 805.11407 806.57916 4287264116
-10.315597 806.31238 805.84552 4287725177
-8.5963306 804.99792 804.73724 4287922819
31.806421 804.99792 804.73724 4294967295
34.385323 805.65515 805.29138 4294966527
36.730274 805.11407 806.57916 4294901247
-8.5688076 809.16846 804.32959 4287856761
32.561466 809.16846 804.32959 4294967295
34.27523 809.16846 804.32959 4294967295
-13.710092 811.78882 806.53906 4286606444
-11.13945 811.78882 806.53906 4287396217
-8.5688076 810.47864 805.43433 4288185473
32.491745 811.94177 804.052 4294967039
35.095413 811.21021 804.74316 4294967295
-13.680734 814.55658 806.25671 4286540903
-11.115597 814.55658 806.25671 4287198836
-8.5504589 813.24915 805.1543 4287922817
35.911926 813.90283 805.70551 4294967295
37.622017 813.90283 805.70551 4294967039
-13.636697 818.04608 805.2749 4286475360
-11.079817 818.04608 805.2749 4287264628
-8.5229359 816.74292 804.17603 4287856770
0.5681957 817.61176 804.90863 4289698977
28.977982 816.74292 804.17603 4294966527
31.534863 817.39447 804.72546 4294966527
34.091743 817.39453 804.72546 4294966783
-15.341285 819.34924 806.37366 4286343517
-13.636697 819.34924 806.37366 4286409310
-11.079817 819.34924 806.37366 4287264626
-7.6541286 820.80121 804.98193 4288448642
-4.2522936 820.80121 804.98193 4288843141
-1.7009175 820.80121 804.98193 4289698199
0.85229355 819.34924 806.37366 4290092703
4.2614679 819.34924 806.37366 4290815656
28.065138 820.80121 804.98193 4294834430
31.534863 819.34924 806.37366 4294966783
34.944038 819.34924 806.37366 4294768382
-11.906422 822.10156 806.07837 4287198826
-7.6541286 822.10156 806.07837 4288645249
-5.1027522 822.10156 806.07837 4288644728
28.915596 822.10156 806.07837 4294966527
30.616514 822.10156 806.07837 4294966783
25.431192 825.57141 805.07983 4294768637
43.875229 748.26276 807.91272 4294242806
-19.658716 751.8399 808.31287 4286277221
-17.871559 751.15674 807.73682 4286408297
41.104588 751.15674 807.73682 4294242552
43.78532 751.15674 807.73682 4294308345
46.466057 751.15674 807.73682 4294110451
-19.598166 756.8493 808.61261 4286277738
-17.816513 756.16827 808.03833 4286146156
40.384098 756.62231 808.4212 4294439676
43.353516 756.62231 808.4212 4294307835
46.322937 756.16827 808.03833 4293978864
-19.537615 761.16296 808.32556 4286079328
-17.169418 760.25763 807.56232 4286473835
37.299084 759.80505 807.18066 4294767867
39.667278 760.71027 807.94391 4294505213
43.811619 760.71027 807.94391 4294439164
46.179817 760.48401 807.75311 4294242292
-19.537615 762.52081 809.47058 4286079328
-16.838531 764.03162 808.12842 4286342002
38.994495 764.03162 808.12842 4294504959
40.766972 764.03162 808.12842 4294307836
43.515594 762.52081 809.47058 4294307834
46.179817 762.52081 809.47058 4294307832
-16.813763 766.51776 808.26263 4286407789
37.989906 767.6488 807.25427 4294702591
40.766972 765.38672 809.271 4294570237
43.42569 765.38672 809.271 4294307834
46.084404 765.38672 809.271 4294307832
-19.436697 770.35052 809.53223 4286407266
-17.669725 768.99963 808.39319 4286145643
38.873394 768.99963 808.39319 4294702591
40.640366 769.67505 808.96271 4294571263
43.290825 770.35052 809.53223 4294636797
-17.027525 773.05304 807.8869 4286540906
37.871559 772.60419 807.50842 4294703358
40.51376 773.95087 808.64392 4294505727
42.27523 773.95087 808.64392 4294702590
-19.376146 775.29749 809.7793 4286538852
43.155964 775.29749 809.7793 4294833660
46.678898 775.29749 809.7793 4294637051
-19.315596 778.88519 808.88037 4286735979
-16.974312 777.99023 808.12573 4286605669
40.387157 777.54279 807.74841 4294440701
42.14312 778.88519 808.88037 4294769150
-16.64679 781.04907 808.08875 4286737252
40.302753 780.37927 807.52393 4294768895
42.055046 781.71893 808.65356 4294834943
-19.275229 783.05853 809.78308 4285946463
-16.594496 785.2912 807.74146 4286606176
40.176147 785.2912 807.74146 4294967295
42.055046 783.05853 809.78308 4294967295
-19.21468 786.62659 808.86743 4286145123
-16.559633 788.11224 807.50403 4286408547
38.348625 788.11224 807.50403 4294571004
41.049541 787.29431 809.43048 4294966015
-19.174313 790.11121 809.18951 4286145634
-17.431192 789.44489 808.62769 4286342754
40.963303 790.11121 809.18951 4294966015
-16.796942 793.44037 808.07245 4286277479
40.544342 793.88312 808.4458 4294966015
-19.113762 795.65436 809.93933 4285882466
-16.482569 796.76013 808.90967 4286408295
40.770641 796.76013 808.90967 4294966015
-16.438532 799.9259 808.30884 4286408295
-13.827523 800.66174 807.62122 4287067243
37.161469 800.66174 807.62122 4294967039
40.704586 799.19012 808.99646 4294967039
-16.420183 802.64386 809.29248 4286408549
40.618347 802.64386 809.29248 4294966783
-15.506422 806.16211 808.33496 4286671464
-13.783486 805.50354 807.77966 4286737773
37.904587 805.50354 807.77966 4294967295
40.201832 806.38165 808.52002 4294967039
-15.473394 809.59833 808.61621 4286671469
-12.894495 808.28394 807.50793 4286804336
-10.315597 808.28394 807.50793 4287724922
37.823853 808.28394 807.50793 4294967295
39.543118 809.59833 808.61621 4294967295
-17.192661 810.91272 809.72449 4286012508
41.262386 810.91272 809.72449 4294967295
-15.984097 814.45746 807.91705 4286342243
35.911926 815.86395 807.35901 4294966527
37.622017 815.86395 807.35901 4294966783
39.959637 814.45746 807.91705 4294966783
42.844036 815.71942 809.85315 4294967295
-17.100918 817.82501 809.01257 4286277210
37.622017 817.82501 809.01257 4294966783
39.902142 817.60712 808.82886 4294900479
-15.341285 821.30396 808.02191 4286737501
-13.636697 820.6524 807.47253 4286606946
-10.227523 820.6524 807.47253 4287395960
32.387157 821.30396 808.02191 4294966270
34.944038 821.30396 808.02197 4294966526
-16.193579 823.25873 809.67004 4286539088
-13.60734 824.05212 807.72302 4286737504
-11.33945 823.83539 807.54028 4287460975
28.065138 823.40192 807.1748 4294768637
31.206728 823.7876 808.37207 4294768381
34.091743 823.25873 809.67004 4294768383
-15.308257 826.00269 809.36768 4287064667
-13.60734 826.00269 809.36768 4286999135
-22.385321 751.68549 810.79877 4285488479
-22.04159 754.80023 810.8089 4285554271
-22.306423 757.7572 811.34015 4285750878
-22.567583 760.7085 811.86664 4285816415
-21.313761 763.87872 810.61548 4285947998
-19.537615 763.87872 810.61548 4285947998
-22.201836 765.91553 812.33282 4285815643
-19.497248 766.74182 810.41357 4286078562
43.42569 766.74182 810.41357 4294439418
46.084404 766.74182 810.41357 4294373625
-21.269724 768.77441 812.12744 4285946714
46.970642 768.09686 811.55615 4294571002
-21.203671 773.05225 811.8103 4285749079
-19.436697 771.70142 810.67126 4286538850
44.174313 771.70142 810.67126 4294702590
46.824768 771.70142 810.67126 4294636282
-25.621101 774.40314 812.94934 4285355606
-22.054129 775.52368 811.93207 4285683802
44.036697 776.64417 810.91479 4294834943
46.678898 776.64417 810.91479 4294899964
49.475231 774.40314 812.94934 4294571002
-22.018349 777.99084 812.05029 4285683800
44.036697 777.99084 812.05029 4294834943
46.678898 777.99084 812.05029 4294769150
-24.583487 782.91254 812.27612 4285157974
-21.949541 782.24133 811.71014 4285683805
-19.315596 780.22766 810.01221 4286275424
43.899082 782.24133 811.71014 4294967039
-21.027523 785.06799 811.47736 4286013791
42.93119 785.06799 811.47736 4294966271
-31.442202 790.63293 812.24548 4285027658
-28.822018 790.63293 812.24548 4285027407
-22.708258 790.63293 812.24548 4285487709
-20.961468 789.29749 811.11951 4285553756
43.669724 789.29749 811.11951 4294966271
46.289909 790.63293 812.24548 4294965503
-31.376146 793.44275 811.99866 4284634189
-28.761467 793.44275 811.99866 4284699983
-20.336391 792.55438 811.24951 4285553502
43.57798 792.77643 811.43683 4294966527
-19.113762 796.98279 811.05945 4285882466
43.440369 796.98279 811.05945 4294965759
-19.113762 798.31122 812.17944 4286144862
-17.3211 800.51434 810.11304 4286145123
41.570641 800.51434 810.11304 4294967295
43.302753 800.51434 810.11304 4294900735
45.177982 798.31122 812.17944 4294505979
-19.053211 802.50067 811.7879 4286079832
43.302753 801.83856 811.22961 4294900735
45.034863 803.16278 812.34619 4294967295
-19.012844 805.94739 812.07788 4285750104
-17.284403 804.62598 810.96375 4285947228
43.21101 804.62598 810.96375 4294967295
-18.952293 809.45514 811.11145 4285750104
-17.229359 808.13794 810.00085 4285947746
41.35046 808.13794 810.00085 4294967295
43.073395 808.79651 810.55615 4294967295
-19.793579 811.49976 811.5274 4285487195
43.888992 811.49976 811.5274 4294967039
-19.771561 813.5415 811.94092 4285750363
44.700916 813.5415 811.94092 4294966783
-18.851376 817.68469 811.51025 4286145376
41.130276 817.68469 811.51025 4294967295
42.844036 817.68469 811.51025 4294967295
-18.811008 821.09344 811.76843 4285618261
-17.100918 819.78607 810.66614 4286408277
35.911926 821.09344 811.76843 4294967039
37.622017 820.43976 811.21729 4294966783
39.332111 819.78607 810.66614 4294966527
-18.811008 822.40082 812.87085 4286012756
-17.045872 824.56189 810.76892 4286604116
34.201836 822.40082 812.87085 4294768637
-15.909481 826.2995 812.23389 4286736221
-26.046789 752.15112 815.11536 4285224536
-25.07156 755.10828 813.68469 4285027158
-25.941284 757.23279 814.16803 4285092951
-28.594496 760.03772 815.22504 4285224280
-26.211618 759.81 815.03302 4285290072
-28.506422 764.34082 814.9292 4285356122
-25.537003 763.88678 814.54639 4285421398
-23.161469 762.9787 813.78076 4285552470
-24.866055 767.95233 814.05029 4285289553
-23.089909 767.95233 814.05029 4285881433
-28.418348 769.31024 815.19519 4284962648
-25.728439 770.05859 814.51819 4285159254
-23.042202 770.80701 813.84119 4285487445
-24.737616 775.75397 814.08838 4285552470
49.475231 775.75397 814.08838 4294374392
-25.541285 779.33746 813.18579 4285290071
-22.899082 779.33746 813.18579 4285487195
46.678898 779.33746 813.18579 4294966783
49.321102 779.33746 813.18579 4294834941
52.045872 778.22119 814.20654 4294374135
-26.422018 781.35748 814.88892 4285421141
46.678898 780.68414 814.32117 4294966783
49.321102 780.68414 814.32117 4294967295
52.256882 781.13306 814.69971 4294374137
-24.583487 784.92627 813.97394 4285092183
-22.827522 784.255 813.40796 4285618273
46.533028 784.255 813.40796 4294966527
50.044956 784.92627 813.97394 4294835198
-25.408257 788.41711 814.30127 4285027157
-22.779816 787.07751 813.17175 4285487195
46.43578 787.07751 813.17175 4294900223
49.940369 788.41711 814.30127 4294966527
-25.328442 791.96838 813.37146 4284962132
-22.708258 791.96838 813.37146 4285356122
46.289909 791.96838 813.37146 4294900223
49.863304 790.86255 814.40112 4294966783
-33.188992 793.30377 814.49756 4285027410
-31.442202 793.30377 814.49756 4284831314
-28.530886 793.74896 814.87286 4284765520
-25.03731 793.74896 814.87286 4284962129
-22.708258 793.30377 814.49756 4285356374
-20.917431 794.77539 813.12231 4285487709
46.242203 794.03955 813.80994 4294835199
49.783485 793.9715 815.06055 4294900991
-33.119267 796.10803 814.24597 4285092951
-31.376146 796.10803 814.24597 4284897107
-29.633028 796.77435 814.80774 4284831314
-26.14679 796.77435 814.80774 4284765520
-22.660551 796.77435 814.80774 4285158994
-20.917431 796.10803 814.24597 4285947226
47.06422 796.77435 814.80774 4294703357
48.807339 796.77435 814.80774 4294703871
-20.851376 800.30383 813.85962 4285553488
46.046791 800.30383 813.85962 4294834942
48.65321 800.96802 814.41968 4294900735
48.65321 802.29645 815.53979 4294966783
-20.78532 804.487 813.46265 4285684311
46.189602 804.92841 813.83478 4294967039
48.499084 805.81122 814.57922 4294967295
-24.198166 809.91162 815.42041 4285093201
-22.469725 808.59021 814.30627 4285290579
-20.741285 807.2688 813.19214 4285684311
44.939449 807.2688 813.19214 4294966783
46.667889 809.25092 814.86334 4294966783
48.499084 807.13544 815.6958 4294966783
-22.398165 812.08954 813.33276 4285159250
-24.121101 814.06531 814.99866 4285159510
-22.350458 814.8559 813.04919 4285356120
-20.631193 814.8559 813.04919 4285487961
44.700916 814.8559 813.04919 4294966783
46.519264 814.06531 814.99866 4294967039
-24.069725 817.48468 815.26575 4285158996
-22.350458 816.82751 814.71161 4285488474
-20.631193 816.17029 814.15747 4285684311
44.700916 816.82751 814.71161 4294966271
46.420185 817.48468 815.26575 4294967295
-20.565138 820.30505 813.71973 4285815637
35.988991 820.96014 814.27209 4294966783
37.702751 820.96014 814.27209 4294967039
40.273396 820.30505 813.71973 4294900479
42.844036 819.64996 813.16736 4294966783
-19.688072 822.98926 814.67493 4286210135
-17.100918 825.01556 815.07544 4286341459
-15.341285 829.12305 814.61469 4287263848
-28.829357 751.94476 818.86548 4285158744
-28.506422 765.70288 816.07776 4285290329
-26.724771 765.70288 816.07776 4285158744
-26.587156 773.51715 816.12634 4285290327
-26.422018 783.37744 816.59216 4285354576
52.844036 784.05078 817.15991 4294769150
50.816513 791.09644 816.56042 4294966783
52.678898 789.62482 817.93567 4294703103
52.568806 793.10583 818.2547 4294637310
-31.442202 796.64233 817.3125 4284897107
-27.948624 795.97467 816.74951 4284831312
-24.455046 796.64233 817.3125 4285092944
50.656879 796.64233 817.3125 4294966783
-28.761467 798.77325 816.49316 4284962382
-26.14679 799.43958 817.05499 4285093961
-22.660551 799.43958 817.05499 4285487439
50.550457 800.1059 817.61682 4294966527
-28.761467 801.43854 818.74048 4285027662
-25.27523 801.43854 818.74048 4285290829
-22.588991 803.62488 816.65979 4285488208
50.550457 801.43854 818.74048 4294966783
-27.801834 806.28174 818.90002 4284962900
-25.195412 804.95331 817.77991 4285159507
-27.713762 809.78381 817.92883 4284897107
-25.981651 808.45966 816.81226 4284897107
48.499084 808.45966 816.81226 4294966783
-27.655046 812.55444 817.6488 4284897107
-25.926605 811.89374 817.09174 4284962900
48.972477 812.11395 817.2774 4294967039
50.124771 813.87585 818.76294 4294965757
51.85321 813.87585 818.76294 4294966015
-31.012844 816.04114 816.66467 4284831562
-27.566973 817.35834 817.77521 4285290064
-25.400459 817.71851 817.42493 4285158480
-22.350458 818.79907 816.37402 4285619547
43.841286 818.79907 816.37402 4294966527
46.420185 818.79907 816.37402 4294966783
48.931374 817.62177 817.99738 4294967039
-24.069725 820.77063 818.03644 4285355860
-22.350458 820.77063 818.03644 4285750618
-20.631193 821.42786 818.59058 4286078805
40.402752 820.77063 818.03644 4294899710
43.841286 820.77069 818.0365 4294966783
46.420185 820.77063 818.03644 4294966783
-18.851376 823.58051 816.48145 4286275927
-19.395718 826.71808 817.383 4286606186
-17.100918 826.97668 816.729 4286803297
-18.811008 828.93774 818.38257 4286936951
-17.100918 828.93774 818.38257 4286937192
52.568806 795.11536 819.9491 4294966527
-31.442202 799.31323 819.56451 4284962130
-28.822018 798.64551 819.00146 4284896843
-24.455046 798.64551 819.00146 4285552970
-31.442202 801.31641 821.25354 4284501845
-28.761467 802.77118 819.86414 4284831061
50.550457 802.77118 819.86414 4294965759
-31.376146 804.10382 820.98779 4284109136
-29.633028 804.10382 820.98779 4284109136
50.550457 804.10382 820.98779 4294900735
-29.53945 807.61011 820.02014 4284238672
-29.383486 815.19727 819.8772 4285093707
52.71743 815.19727 819.8772 4294834431
-29.383486 816.51862 820.99133 4285355859
51.85321 816.51862 820.99133 4294966271
-27.566973 819.99274 819.99646 4285814863
-25.844036 820.65137 820.55182 4285748817
43.93486 821.30994 821.10718 4294967295
46.519264 821.30994 821.10718 4294967295
49.103668 820.65131 820.55188 4294967039
51.688072 821.30994 821.10718 4294966271
-24.069725 823.39941 820.25293 4285355090
-22.350458 823.39941 820.25293 4286144606
-20.631193 822.74225 819.69885 4286012506
-22.350458 825.37103 821.91528 4286804068
-20.565138 827.51111 819.79565 4286608243
-36.990826 791.4574 823.40491 4285290329
-34.348625 790.78406 822.83722 4285092951
-33.467892 792.80408 824.54041 4284896855
-33.293579 797.79462 822.20813 4285027158
-33.293579 799.13428 823.33765 4285027158
-34.353516 803.09698 822.75488 4285027415
-33.119267 806.10272 822.67316 4284897109
-31.376146 805.4364 822.11133 4284501845
53.695412 815.08069 822.39502 4294966015
52.71743 817.84003 822.10547 4294966271
-27.655046 819.16144 823.21973 4285551185
44.07523 820.48285 824.33386 4294966271
46.667889 820.48285 824.33386 4294966783
53.005505 820.04242 823.96246 4294966015
49.103668 823.28577 822.77307 4294966783
-22.350458 826.68542 823.02356 4283910212
-20.631193 826.68542 823.02356 4282991423
49.965137 825.26154 824.43909 4294834430
44.07523 821.80426 825.448 4294900478
46.667889 821.80426 825.448 4294966783
51.85321 821.80426 825.448 4294966015
-37.530273 779.84894 831.92944 4285092951
-39.196331 784.77209 832.15637 4285092951
-37.41468 784.77209 832.15637 4285092951
-35.633026 784.77209 832.15637 4284896855
-37.41468 786.13416 833.30481 4285092951
-35.633026 786.13416 833.30481 4285027158
-37.530273 785.31415 836.53748 4285158744
-35.633026 787.49628 834.45337 4285092951
-29.695414 820.01245 837.01758 4282725940
-26.201836 821.3479 838.14355 4282858040
-31.60734 817.81622 841.70593 4282858040
-29.851376 817.81622 841.70593 4282923833
-33.363304 819.15869 842.83789 4282988856
53.174313 808.07153 845.26172 4294702590
-31.706423 817.04388 844.97876 4282858040
-29.06422 817.04388 844.97876 4282792501
-26.422018 817.04388 844.97876 4282858292
-33.948627 820.94855 844.34717 4283448380
-36.798164 823.91766 844.23444 4283907649
-35.045872 823.24786 843.66968 4283646270
52.396332 808.00977 847.82562 4294636794
52.288074 811.45923 848.11816 4294505465
53.009174 814.92908 847.11975 4294373625
-31.706423 818.39056 846.11426 4282923833
-29.06422 818.39056 846.11426 4282923573
-25.541285 818.39056 846.11426 4282923572
53.009174 816.27997 848.25879 4294242552
54.605503 818.39056 846.11426 4294242552
-31.706423 820.41052 847.8175 4283579968
-29.357798 820.18604 847.62823 4283383357
54.605503 820.41052 847.8175 4294242038
-34.241287 823.85724 846.79962 4283908164
54.434864 824.52844 847.3656 4294175733
54.434864 825.87091 848.49744 4294372855
48.848927 802.62054 851.12982 4294967039
51.667889 806.56549 850.53198 4294636795
48.995415 807.92761 851.68054 4294834430
49.732109 811.40448 850.68799 4294768637
51.401836 812.81427 849.26074 4294702844
49.629356 814.16937 850.4032 4294176246
51.401836 814.16937 850.4032 4294242039
-28.271559 818.98169 850.53674 4283579963
-26.504587 818.30627 849.96729 4283252024
49.475231 817.6308 849.39783 4294373627
52.125687 818.30627 849.96729 4294373368
-30.038532 820.33252 851.67578 4284106310
-28.271559 820.33252 851.67578 4284040001
51.242203 820.33252 851.67578 4294636282
-34.348625 823.77716 850.65613 4284172101
-31.706423 823.10382 850.08838 4284040259
52.844036 823.10382 850.08838 4294307062
51.963303 825.12384 851.79163 4294438647
54.434864 827.21338 849.62939 4294504697
54.321102 829.94604 849.31738 4294372855
45.045872 794.64783 854.87158 4294702844
46.704586 796.78363 852.74841 4294704127
46.704586 798.15698 853.90637 4294769148
44.770641 803.02679 854.08838 4294834943
46.561466 802.34229 853.51117 4294965758
46.466057 805.80859 853.81787 4294965759
49.14679 804.44226 852.66589 4294965759
46.466057 807.17487 854.96985 4294834430
48.104588 809.28967 852.82898 4294834430
48.104588 810.65173 853.97742 4294571002
-24.866055 814.12024 852.97778 4283448375
47.955963 814.79919 853.55029 4294570747
-26.587156 818.23462 853.83093 4283645243
49.629356 817.55707 853.25964 4294570490
-30.038532 821.68341 852.81482 4284040514
-28.271559 821.68341 852.81482 4283910212
-26.587156 819.58966 854.97351 4283647040
49.629356 819.58966 854.97351 4294571002
51.242203 821.68341 852.81482 4294571002
-33.572475 823.0343 853.95386 4284435270
-31.805504 823.0343 853.95386 4284040011
49.475231 823.0343 853.95386 4294504695
51.963303 826.47046 852.92712 4294372854
43.376148 792.51196 856.99487 4294965759
43.244038 796.02533 856.03308 4294834943
45.045872 796.02533 856.03308 4294703357
43.710705 799.98804 855.45038 4294834942
43.111927 802.27692 857.38013 4294900735
44.770641 805.08044 855.82001 4294768893
44.770641 807.13409 857.55151 4294965503
46.466057 808.5412 856.12195 4294965759
46.322937 812.01385 855.12598 4294965759
-24.943119 813.37592 856.27441 4283514168
-23.161469 814.73804 857.42285 4283842366
46.322937 814.05701 856.84863 4294636539
-24.866055 817.51489 855.84015 4283842113
47.955963 817.51489 855.84015 4294505209
-30.132111 820.94476 856.11609 4284040011
-28.359632 820.94476 856.11609 4283909960
-25.726604 820.24829 856.83679 4284041546
47.018349 820.24829 856.83679 4294504697
-33.572475 824.38513 855.0929 4285093707
-31.018349 822.2998 857.25867 4284502349
-28.271559 824.38513 855.0929 4284436556
-26.587156 822.2998 857.25867 4284436556
47.85688 822.2998 857.25867 4294504695
49.475231 824.38513 855.0929 4294438902
49.475231 825.73602 856.23181 4294637301
51.242203 825.73602 856.23181 4294176750
41.695412 791.76208 860.28662 4294636799
-21.688074 795.27545 859.32495 4282923314
-19.880733 796.65717 860.48987 4282529588
41.568806 795.27545 859.32495 4294834430
-25.225689 800.1579 859.51758 4282858542
-22.522936 799.46918 858.93683 4282793266
-19.820183 800.1579 859.51758 4282334255
41.442204 799.46912 858.93683 4294899966
-22.522936 801.5354 860.67908 4282793269
-19.820183 801.5354 860.67908 4282727989
41.442204 801.5354 860.67908 4294834430
43.111927 803.65021 858.53809 4294834430
-22.154739 805.48126 860.08203 4282989878
-19.759632 806.39679 860.854 4283121207
43.111927 805.71014 860.27502 4294636539
-22.683792 809.41595 859.47559 4283514168
43.875229 809.18774 859.28314 4294768893
-21.445871 812.64008 859.578 4283711811
44.678898 811.95691 859.00201 4294702587
-21.445871 814.00635 860.72998 4283907909
44.678898 814.00635 860.72998 4294505208
-23.161469 817.46222 859.71979 4284040775
44.541283 818.14325 860.29407 4294636538
46.322937 816.1001 858.57129 4294373879
-24.866055 820.90961 858.70251 4284436556
46.179817 820.90961 858.70251 4294570488
-31.018349 823.65491 858.40125 4285289802
-28.359632 823.65491 858.40125 4284895823
-25.754128 822.94647 860.41986 4285026640
47.955963 822.94641 860.41986 4294702843
-30.722937 825.46167 859.92456 4285158216
-28.359632 825.00995 859.5437 4285354322
49.629356 825.00995 859.5437 4294833912
40.447708 773.38104 863.10059 4294966015
43.076149 778.34064 863.35828 4294833917
-16.447706 783.28339 863.60193 4287331950
-19.131193 787.51288 863.24396 4282595381
-16.398165 786.81641 862.65674 4282794032
41.906422 786.81641 862.65674 4294833406
-21.820183 789.63043 862.41345 4282725940
-19.092661 790.3255 862.99951 4282989109
-16.365137 790.3255 862.99951 4282396972
40.00367 791.02057 863.58557 4294965759
-19.034863 793.84094 862.03949 4282660911
-16.315596 794.53394 862.62378 4282464045
39.882568 794.53394 862.62378 4294768637
-18.128441 795.91986 863.79236 4282793010
-16.315596 795.91986 863.79236 4282793010
39.882568 795.91986 863.79236 4294505208
-18.073395 800.80237 863.98499 4283055414
-16.266054 800.80237 863.98499 4283121207
37.954128 800.80237 863.98499 4294833912
39.761467 800.11145 863.40247 4294439672
-19.820183 802.9129 861.84058 4283055414
41.442204 802.9129 861.84058 4294505208
-18.018349 804.29047 863.00208 4283121207
41.442204 804.29047 863.00208 4294571002
-19.759632 807.77014 862.01196 4283579963
-17.963303 809.14343 863.16992 4283777856
41.315598 808.45679 862.59094 4294834686
-19.699083 811.9259 861.59198 4283645506
42.979816 811.9259 861.59198 4294768124
-21.445871 815.37268 861.88208 4283909708
-19.699083 813.97961 863.32349 4284041294
41.188992 813.97961 863.32349 4294967295
42.891743 815.37268 861.88208 4294833660
-21.445871 816.73895 863.03406 4284041546
42.891743 816.73895 863.03406 4294636795
-22.567583 821.09442 862.78241 4284895054
44.541283 820.1864 862.01672 4294702844
46.322937 820.86743 862.591 4294702843
-28.418348 824.98328 862.13721 4285224019
-25.754128 824.98328 862.13721 4285356116
-28.359632 827.72009 861.82886 4285554258
-25.726604 827.03064 862.55554 4285554518
-28.359632 829.0752 862.97144 4285883216
-25.700916 829.0752 862.97144 4285751637
34.216515 767.65326 866.11938 4294833660
38.72477 771.22412 865.20605 4294966527
40.568806 772.63391 866.39478 4294767867
-14.708257 777.59772 866.65601 4287987313
40.447708 777.59772 866.65601 4294834430
43.076149 779.742 864.53992 4294637051
-14.66422 781.84406 866.31232 4285357649
40.326607 782.54474 866.90308 4294636284
43.076149 781.14337 865.72156 4294899710
-18.275229 784.68054 864.77991 4282794032
-14.620184 786.0777 865.95801 4282133547
40.205505 786.0777 865.95801 4294702591
-13.665138 790.29877 865.59296 4283185966
37.351379 790.29877 865.59296 4294768637
-14.546789 793.10583 865.34375 4283184940
38.185322 793.10583 865.34375 4294702842
-18.128441 797.30579 864.96094 4282794032
-16.315596 797.30579 864.96094 4282794032
-14.502752 797.30579 864.96094 4283055664
38.069725 797.30579 864.96094 4294967039
-14.502752 798.69177 866.12964 4283055414
36.256882 798.69177 866.12964 4294636534
-16.266054 802.18408 865.15002 4283187000
-13.85627 803.10522 865.92676 4283448890
-10.844037 803.5658 866.31506 4283579963
37.351681 803.10522 865.92676 4294834941
39.761467 802.18408 865.15002 4294768637
-18.018349 805.66797 864.16357 4283579961
-16.216515 805.66797 864.16357 4283579961
39.640366 805.66797 864.16357 4294834943
-16.216515 807.04547 865.32495 4283777856
-13.513762 807.73425 865.90564 4283843908
-10.811009 808.42297 866.48645 4284040260
37.838531 807.73425 865.9057 4294899965
39.640366 807.73425 865.9057 4294768380
-17.065138 811.20343 864.90674 4284106310
40.417431 811.20337 864.90674 4294966015
-19.699083 815.34869 864.47791 4284041546
-17.065138 813.26337 866.64368 4284435020
40.354126 814.30603 865.56079 4294966783
-21.445871 818.10522 864.18616 4284566607
-19.699083 816.71783 865.63232 4284566607
-17.311316 817.63055 866.40192 4284698445
40.293579 817.40234 866.20947 4294834940
42.891743 818.10522 864.18616 4294768637
-19.658716 820.15466 865.91412 4285290061
41.104588 820.83783 866.49011 4294966011
43.78532 820.15466 865.91418 4294702844
-22.567583 823.36456 864.69653 4285356882
46.322937 823.59155 864.88794 4294834173
-23.161469 825.6347 866.61072 4285882716
-25.700916 830.43024 864.11401 4285555037
-3.73211 756.89014 868.81641 4289236628
-9.3027525 761.19751 868.52411 4288382342
-7.4422016 761.19751 868.52411 4288644476
-4.6513758 761.19751 868.52411 4289170572
29.768806 761.90869 869.12378 4294768637
31.629358 761.90869 869.12378 4294834430
-11.130275 764.07397 867.02551 4287527548
-13.603669 766.43768 869.01837 4287394669
-10.511926 766.43768 869.01837 4288119164
31.53578 766.20129 868.81909 4294768125
-14.79633 770.48126 868.50378 4286737247
34.216515 769.77423 867.90771 4294834174
37.607342 770.00995 868.10638 4294768636
-12.946789 771.89526 869.69604 4288249970
-11.097248 771.89526 869.69604 4288315263
31.442202 771.89526 869.69604 4294966271
34.216515 771.89526 869.69604 4294900222
36.990826 771.89526 869.69604 4294965759
-13.522935 775.45343 868.77222 4288184949
-11.06422 776.86328 869.96094 4288646013
-7.3761468 776.86328 869.96094 4289238150
34.422016 776.39337 869.5647 4294768895
37.98716 775.73547 869.00995 4294768894
40.568806 774.0437 867.5835 4294899453
40.447708 779.0033 867.84119 4294899453
-12.869725 780.40887 869.02637 4283253299
-11.031193 780.40887 869.02637 4283974717
37.689907 780.40887 869.02637 4294702074
-12.831193 783.94611 868.08472 4282923062
-10.998165 784.64679 868.67554 4283119667
38.49358 783.94611 868.08472 4294966271
-12.792661 787.47485 867.13599 4283318322
36.550457 787.47485 867.13599 4294308086
-10.965137 790.26917 869.49207 4283316276
32.895412 790.26917 869.49207 4294899453
34.722935 790.26917 869.49207 4294899453
-12.754128 793.08466 867.94196 4283186224
32.796329 793.78113 868.52917 4294899455
34.618347 793.78113 868.52917 4294833406
36.440369 792.38818 867.35474 4294768633
-12.72844 796.58118 868.27405 4283055414
-10.011009 796.57269 869.57495 4283121716
32.763302 796.57269 869.57495 4294899454
34.548622 796.58118 868.27405 4294833406
36.366974 795.19104 867.10193 4294767863
-12.689908 800.0777 867.29822 4283187000
34.444038 800.0777 867.29822 4294966015
36.256882 800.0777 867.29822 4294965757
-9.0642204 801.46362 868.4668 4283711550
-7.2513762 802.84955 869.63538 4283777856
32.631191 802.84955 869.63538 4294636797
34.444038 801.46362 868.4668 4294768383
-9.6391439 805.40802 867.86847 4283843140
34.339451 805.63837 868.06262 4294702332
36.14679 805.63837 868.06262 4294899965
-13.513762 809.80054 867.64795 4284434759
-9.9238529 808.75574 868.72906 4284697673
-7.2293577 807.71094 869.81018 4284437058
32.532108 807.71094 869.81018 4294965759
34.339451 807.71094 869.81018 4294768637
36.992661 808.75574 868.72906 4294965502
-13.513762 811.17804 868.80945 4284959563
-9.9100914 811.86682 869.3902 4284829773
-7.2073393 812.55554 869.97095 4284568142
32.433029 812.55554 869.97095 4294967295
34.234863 812.55554 869.97095 4294966783
36.63731 811.63721 869.19659 4294899965
-16.166973 814.63666 867.80164 4284829778
-13.472477 814.63666 867.80164 4285157967
37.722935 814.63666 867.80164 4294966271
-13.472477 816.01001 868.95959 4285027408
-10.777982 816.01001 868.95959 4284831314
37.722935 816.01001 868.95959 4294768637
-17.012844 820.14056 868.51825 4285487955
37.607338 820.14056 868.51825 4294966015
39.398167 819.45599 867.94104 4294966011
-21.445871 822.88727 868.2182 4285685337
-19.658716 822.2041 867.64221 4285553752
40.21101 822.88727 868.21814 4294967039
43.78532 823.57037 868.79425 4294966783
-23.161469 826.99683 867.75916 4285948510
0.93853211 752.54266 872.9989 4290288537
4.6926603 752.54266 872.9989 4290881192
7.5082569 752.54266 872.9989 4291014059
9.3853207 752.54266 872.9989 4291869368
-1.8715596 754.71637 870.90771 4289894559
-1.866055 758.31671 870.01929 4290288803
0.93577981 756.14722 872.11414 4290616984
-1.866055 759.74335 871.22217 4290223269
1.866055 761.16992 872.42505 4290421659
25.191742 761.16992 872.42505 4294899452
27.990826 760.45667 871.82361 4294702844
-9.3027525 763.33112 870.32312 4288250753
-7.4422016 764.04236 870.92279 4288711030
-4.6513758 764.0423 870.92285 4289236874
-1.8605504 764.04236 870.92279 4290157475
29.148623 764.27936 871.12274 4294702332
-7.4422016 766.1759 872.7218 4289302658
-4.6513758 766.1759 872.7218 4289368459
-1.8605504 766.1759 872.7218 4290223775
27.908257 766.1759 872.7218 4294636795
-12.985321 768.32861 870.61279 4287460969
-9.8935776 768.80133 871.01141 4288513151
-7.4201837 769.74677 871.80859 4289433987
-5.5651374 769.74677 871.80859 4289302658
29.062386 769.27411 871.40997 4294833916
31.53578 768.32861 870.61279 4294833660
-10.172478 773.3092 870.88831 4289104772
-7.3981652 773.3092 870.88831 4289961358
-5.548624 773.3092 870.88831 4290421909
29.592661 773.3092 870.88831 4294834430
31.442202 773.3092 870.88831 4294768637
33.291744 773.3092 870.88831 4294374139
-9.2477064 774.72321 872.08057 4288711806
-4.6238532 774.72321 872.08057 4290356638
-1.8495413 774.72321 872.08057 4290817196
28.667891 774.72321 872.08057 4294967039
31.442202 774.72321 872.08057 4294900479
-9.2201834 778.27307 871.14954 4284238146
-7.3761468 778.27307 871.14954 4284566075
-4.6100917 778.97791 871.7439 4284631878
-1.8440367 778.97797 871.7439 4286145886
29.504587 779.68286 872.33826 4294966271
31.348623 778.97797 871.7439 4294768637
33.807339 778.74298 871.54572 4294702844
-9.1926603 781.81445 870.21143 4282855211
-7.3541284 781.81445 870.21143 4282854710
34.93211 781.81445 870.21143 4294702844
36.770641 781.81445 870.21143 4294570488
-9.1926603 783.22003 871.39661 4282726449
-7.3541284 783.92285 871.9892 4282595118
-4.9027524 784.15704 872.18671 4282594866
-1.8385321 784.62561 872.58179 4282725947
29.416513 784.62561 872.58179 4294965246
31.255045 784.62561 872.58179 4294833660
34.012844 783.22003 871.39661 4294768637
-9.7761469 787.216 870.8418 4282989103
-7.3321099 788.15021 871.62952 4282857771
29.32844 788.15021 871.62952 4294768637
32.07798 787.44952 871.0387 4294702844
34.827522 786.74884 870.44788 4294967295
-10.051376 791.66632 870.67017 4282792242
-7.3321099 789.55157 872.81104 4282858292
-5.4990826 789.55157 872.81104 4283055414
28.411926 789.55157 872.81104 4294966271
31.06789 791.66632 870.67017 4294966271
-7.310092 793.06348 871.84814 4283056166
29.240368 793.06348 871.84814 4294833660
31.06789 793.06348 871.84814 4294965503
-7.2880735 796.56702 870.87817 4283448866
-4.5550461 797.95996 872.05273 4283711286
-1.8220184 797.95996 872.05273 4284237374
29.152294 797.95996 872.05273 4294636282
30.974312 796.56702 870.87817 4294966271
-7.2733946 799.36145 870.61829 4283580213
-4.5458717 800.75159 871.79041 4283909698
29.093578 800.75159 871.79041 4294834682
31.518042 799.82489 871.00897 4294702587
-4.5458717 802.14172 872.96265 4284304709
-1.8183486 802.14172 872.96265 4284502347
29.093578 802.14172 872.96265 4294373625
-7.2513762 804.23547 870.80396 4283778106
-4.5321102 805.6214 871.97253 4284437059
-1.812844 805.6214 871.97253 4284568646
29.005505 805.6214 871.97253 4293582839
31.422628 804.69745 871.19354 4294899709
-7.2293577 809.09271 870.97522 4284502347
-4.5183487 809.09271 870.97522 4284568140
28.917431 809.09271 870.97522 4293648366
31.628441 809.09271 870.97522 4294966527
34.339451 809.09271 870.97522 4294834430
-4.5183487 810.47443 872.14026 4284699471
28.013762 810.47443 872.14026 4291936988
30.724771 810.47443 872.14026 4294966783
-9.0091743 814.62183 871.7132 4285027668
-7.2073393 814.62183 871.7132 4284896852
28.829357 815.31061 872.29395 4290225109
31.532112 814.62183 871.71313 4294966783
34.234863 814.62183 871.7132 4294834686
36.036697 813.93304 871.13245 4294636795
-13.472477 818.06995 870.69647 4285290579
-10.777982 818.06995 870.69647 4285224534
32.333946 818.75659 871.27539 4294967295
35.327831 818.29883 870.88947 4294834175
-13.472477 820.12994 872.43335 4285619549
-10.777982 820.12994 872.43335 4285948246
35.028442 820.12994 872.43335 4294966527
-21.489908 823.56329 871.4043 4286210916
-19.699083 822.87878 870.82709 4286014048
-17.012844 822.87872 870.82709 4285882973
37.607338 822.87878 870.82709 4294966015
39.995106 824.01971 871.78906 4294967039
42.979816 824.93243 872.55859 4294967295
8.2825689 838.10797 872.33173 4285686376
11.295413 750.36896 875.09021 4291934659
13.177981 750.36896 875.09021 4292395210
15.060551 750.36896 875.09021 4292133315
20.708258 750.36896 875.09021 4291937741
4.6926603 753.97772 874.20886 4291077801
7.5082569 754.69519 874.8139 4291145129
10.011008 754.93439 875.01562 4291935162
13.139449 755.41272 875.41895 4292396492
15.955046 755.41272 875.41895 4292528838
20.022018 754.93439 875.01562 4292925399
22.524771 754.69519 874.8139 4293320672
25.340366 753.97772 874.20886 4294834171
0.93577981 757.57806 873.32056 4290420373
4.6788988 757.57806 873.32056 4291078063
25.266056 757.57806 873.32056 4294636791
0 759.00885 874.52698 4290092437
4.6788988 759.7243 875.13019 4291079079
7.4862385 759.72424 875.13019 4291080367
10.293578 759.72424 875.13013 4291541435
14.036697 759.72424 875.13013 4292068552
16.844036 760.4397 875.7334 4291674052
19.339449 759.48584 874.92914 4291674822
22.458715 759.72424 875.13019 4292990436
0.93302751 763.30994 874.22937 4290356129
20.526606 763.30988 874.22937 4292331208
22.39266 764.02319 874.83081 4291936719
25.191742 763.30988 874.22937 4294899966
-3.7211008 767.59833 873.92114 4289565326
-1.8605504 767.59833 873.92114 4290420634
25.117432 767.59833 873.92114 4294899454
0.9302752 769.02075 875.12048 4290685358
4.6513758 769.02075 875.12048 4290816944
7.4422016 769.02075 875.12048 4291737267
16.744955 769.02075 875.12048 4292790479
19.53578 769.02075 875.12048 4291608255
22.326605 769.02075 875.12048 4291148485
-3.7100918 771.16498 873.00439 4290158748
-1.8550459 771.16498 873.00439 4290816678
0.92752296 772.58319 874.2002 4291145908
3.7100918 772.58319 874.2002 4291342255
25.043121 771.87408 873.60229 4294043891
27.825687 771.16498 873.00439 4294964991
0.92752296 774.0014 875.396 4290287002
4.6376147 774.0014 875.396 4292327602
7.4201837 774.0014 875.396 4292329406
16.695414 774.0014 875.396 4292988624
20.405504 774.0014 875.396 4291870659
22.26055 774.0014 875.396 4291281604
24.968807 776.13721 873.27283 4293649900
28.667891 776.13721 873.27283 4294966783
0.92477065 778.25824 875.06104 4285225804
4.6238532 778.96521 875.65723 4282595883
7.3981652 778.96521 875.65723 4288312179
10.172478 778.96521 875.65723 4292128690
16.645872 778.96521 875.65723 4293910750
19.728439 778.49384 875.25977 4292265669
22.194496 778.96521 875.65723 4291083194
24.660551 778.02252 874.86237 4293386468
27.74312 777.55121 874.46497 4294966783
-3.6880734 781.09259 873.52698 4282528555
-1.8440367 781.09259 873.52698 4282396968
0 782.50238 874.7157 4282660147
20.284403 782.50238 874.7157 4292593607
23.972477 782.50238 874.7157 4292991193
25.816513 781.79749 874.12134 4293451759
28.27523 781.5625 873.92316 4294965503
31.348623 781.09259 873.52698 4294768637
0.92201835 783.91217 875.9043 4283056702
4.6100917 783.91217 875.9043 4283057468
7.3761468 783.91217 875.9043 4282923314
10.142202 783.91217 875.9043 4282923577
16.596331 783.91217 875.9043 4294961386
19.362385 783.91217 875.9043 4294502375
23.050459 783.91217 875.9043 4292990674
-4.2899079 786.49976 874.16193 4282792498
-1.8385321 786.73401 874.35944 4283121209
23.900917 787.43677 874.95203 4293318361
25.73945 786.73401 874.35944 4293319910
27.577982 786.03119 873.76685 4294964991
-4.5825686 790.95288 873.99268 4283318064
-1.8330275 790.95288 873.99268 4283514170
25.662386 790.95288 873.99268 4293977836
27.495413 790.95288 873.99268 4294898938
-4.5743117 793.40747 874.10028 4283580206
-1.827523 794.46063 873.02625 4283579961
23.829357 792.35425 875.17432 4294370527
25.662386 792.35425 875.17432 4294108906
28.326607 794.46063 873.02625 4294833144
0.9137615 797.25494 875.38232 4284370761
4.5688076 797.25494 875.38232 4284370506
7.310092 797.25494 875.38232 4284634189
10.051376 797.25494 875.38232 4284897104
12.792661 797.25494 875.38232 4285028691
16.447706 797.25494 875.38232 4285421915
19.188992 797.25494 875.38232 4285291612
22.844036 797.25494 875.38232 4290748104
25.585321 795.85779 874.20435 4294437871
27.412844 795.85779 874.20435 4294964472
-1.8220184 799.35291 873.22717 4284370761
0.91100919 800.74585 874.40173 4284568396
3.6440368 800.74585 874.40173 4284042050
10.021101 800.74585 874.40173 4284897105
22.77523 800.74585 874.40173 4289367695
25.508257 800.04938 873.81445 4293321191
27.330275 800.04938 873.81445 4294110965
0.90917432 803.53186 874.13477 4284700232
4.5550461 802.13879 875.57617 4284962121
7.2880735 802.13879 875.57617 4284897105
10.021101 802.13879 875.57617 4285225300
13.665138 802.13879 875.57617 4285553753
16.398165 802.13879 875.57617 4285882718
19.131193 802.13879 875.57617 4285421402
22.729359 803.53186 874.13477 4287921521
25.456881 803.53186 874.13477 4291806414
27.275229 803.53186 874.13477 4293188067
0.90917432 804.922 875.30688 4284831312
16.365137 804.922 875.30688 4286144608
20.001835 804.922 875.30688 4285684572
22.729359 804.922 875.30688 4287395955
-1.8128439 808.39331 874.30975 4284765520
16.315596 809.77924 875.47827 4286210405
19.941284 809.77924 875.47827 4286275678
22.660549 808.39331 874.30969 4287066738
25.379816 807.70032 873.7254 4289174704
27.192661 807.00739 873.14111 4292004827
-4.5183487 811.85614 873.3053 4284831314
22.591743 811.85614 873.3053 4287066466
25.302752 811.85614 873.3053 4288516249
28.013762 811.85614 873.3053 4291213252
-4.5183487 813.23785 874.47034 4285028439
-1.8073394 813.92871 875.05286 4285291094
19.880733 814.61963 875.63538 4285948500
22.591743 813.92871 875.05286 4287131745
25.302752 813.92871 875.05286 4287529599
27.110092 813.23785 874.47034 4288977302
-9.0091743 817.37683 874.03619 4285751128
-7.2073393 817.37683 874.03619 4285685338
-4.5045872 817.37683 874.03625 4285553753
27.92844 817.37683 874.03625 4288186254
31.231806 817.60645 874.2298 4294966527
-13.472477 821.50323 873.59131 4286014305
-9.8935776 820.47314 874.68488 4286276961
-7.2073393 819.44312 875.77844 4286211168
-4.5045872 819.44312 875.77844 4286014046
-1.8018348 819.44312 875.77844 4285948510
25.225689 819.44312 875.77844 4287459686
27.92844 819.44312 875.77844 4287921016
31.532112 819.44312 875.77844 4294966013
35.028442 821.50323 873.59131 4294966271
-19.759632 822.87653 874.74927 4286212201
-17.065138 822.87653 874.74927 4286342502
-13.472477 823.56317 875.32825 4286409576
-10.777982 824.24982 875.90723 4286542699
-8.0834866 824.24982 875.90723 4286608493
-4.4908257 824.24982 875.90723 4286475880
35.926605 823.56317 875.32825 4294967039
37.722935 823.56317 875.32825 4294966527
