# .PCD v0.7 - Point Cloud Data file format
VERSION 0.7
FIELDS x y z rgb
SIZE 4 4 4 4
TYPE F F F U
COUNT 1 1 1 1
WIDTH 1166
HEIGHT 1
VIEWPOINT 0 0 0 1 0 0 0
POINTS 1166
DATA ascii
37.714676 775.60913 804.80994 4294967295
40.387157 774.85785 805.48462 4294967295
42.14312 776.20032 806.61646 4294967295
-19.275229 779.03961 806.39441 4285293659
-17.522936 777.69995 805.26489 4285752160
38.550457 777.69995 805.26489 4294967295
40.302753 777.69995 805.26489 4294967295
42.93119 779.03961 806.39441 4294967295
-16.885628 781.72998 804.73883 4286080097
-13.974312 781.28485 804.36353 4287068262
41.049541 781.95258 804.92651 4294967295
43.669724 782.6203 805.4895 4294967295
-19.21468 783.95575 806.61548 4285489244
-16.269114 785.00275 804.88232 4286277478
-13.363914 784.55859 804.50775 4287002468
38.348625 784.11438 804.13318 4294967295
40.963303 784.7807 804.69501 4294967295
43.57798 785.44702 805.25684 4294967295
45.416515 783.95575 806.61548 4294967039
-16.559633 786.7796 806.38049 4286211432
43.57798 786.7796 806.38049 4294967295
-15.638532 791.00488 806.01898 4286474091
-13.321712 789.45508 804.71222 4286738544
41.123547 789.45508 804.71222 4294967295
43.440369 791.66907 806.57898 4294967295
-13.856881 793.89331 804.5304 4286278508
40.704586 793.89331 804.5304 4294967295
-16.455046 795.87964 806.20514 4285883745
-13.827523 796.69751 804.27869 4286344299
38.025688 796.69751 804.27869 4294967295
40.993271 795.65894 806.01904 4294967295
43.302753 795.87964 806.20514 4294967295
-16.420183 798.67963 805.94995 4286015588
38.025688 798.01892 805.39282 4294967295
40.330273 798.8999 806.13568 4294967295
-15.506422 802.21057 805.00305 4285883488
-13.783486 801.55194 804.44775 4286606946
37.330276 801.99103 804.81793 4294967295
39.627522 802.86914 805.55835 4294967295
-15.489908 805.57794 806.5343 4286474080
-13.066422 805.39227 805.0697 4287198316
36.964218 804.99792 804.73724 4294966783
40.173702 805.11407 806.57916 4294967295
-11.99633 809.16846 804.32959 4287263856
37.702751 809.16846 804.32959 4294967295
-15.423853 811.78882 806.53906 4286803055
-13.710092 811.13373 805.98669 4286409834
-11.99633 810.47864 805.43433 4287067760
37.622017 811.94177 804.052 4294967295
40.273396 811.13373 805.98669 4294967295
-13.680734 814.55658 806.25671 4286737773
-11.970642 813.24915 805.1543 4287396219
40.187157 813.90283 805.70551 4294967295
-13.636697 818.04608 805.2749 4286672750
-11.93211 816.74292 804.17603 4287527546
37.500916 816.74292 804.17603 4294967295
39.205505 817.39453 804.72546 4294967295
-13.636697 819.34924 806.37366 4286476650
-11.068808 820.0752 805.6778 4287463285
35.719265 820.80121 804.98193 4294967295
37.420185 820.80121 804.98193 4294967295
40.0578 819.34924 806.37366 4294967295
-10.205504 822.10156 806.07837 4287528561
37.420185 822.10156 806.07837 4294967295
35.603668 826.21948 805.62628 4294967295
33.834862 828.31116 804.77393 4294967039
-21.445871 752.52307 808.88892 4285225815
-19.658716 751.15674 807.73682 4285489244
-21.379816 757.53033 809.18689 4285291613
-19.598166 756.16827 808.03833 4285555037
-21.313761 761.16296 808.32556 4285291613
-19.537615 759.80505 807.18066 4285488992
47.955963 760.48401 807.75311 4294967295
49.732109 759.80505 807.18066 4294967295
-24.866055 762.52081 809.47058 4285356120
-22.179817 763.27625 808.7995 4285421914
-19.497248 764.03162 808.12842 4286014053
47.020184 763.27625 808.7995 4294967295
-21.269724 765.38672 809.271 4285553756
-19.436697 767.6488 807.25427 4285948258
44.174313 767.6488 807.25427 4294967295
46.899082 766.51776 808.26263 4294967295
-21.203671 768.99963 808.39319 4285553756
44.174313 770.35052 809.53223 4294967295
45.941284 769.67505 808.96271 4294967295
-21.137615 773.27753 808.07617 4285751383
43.155964 773.27753 808.07617 4294901247
45.798164 775.29749 809.7793 4294967039
-25.461468 777.54279 807.74841 4284832338
-21.07156 778.21399 808.31439 4285161047
47.411011 778.88519 808.88037 4294967295
-19.275229 780.37927 807.52393 4285489242
46.43578 781.04907 808.08875 4294967295
49.06422 781.71893 808.65356 4294967295
-21.027523 783.05853 809.78308 4285685594
-19.21468 785.2912 807.74146 4285816923
46.289909 785.2912 807.74146 4294967295
49.940369 783.05853 809.78308 4294967295
-19.21468 786.62659 808.86743 4285816410
-17.431192 788.11224 807.50403 4285947746
43.57798 788.11224 807.50403 4294967295
46.581039 787.07178 809.24286 4294967295
49.783485 787.96204 809.99353 4294967295
-19.174313 790.11121 809.18951 4285815899
-17.431192 789.44489 808.62769 4285685344
46.192661 790.11121 809.18951 4294967295
49.678898 790.77753 809.75134 4294967295
-17.376146 792.9975 807.6991 4285291609
45.177982 793.66174 808.25916 4294967295
48.65321 794.32593 808.81921 4294967295
-19.053211 797.86597 807.88 4285882464
43.302753 797.86597 807.88 4294967295
46.046791 795.65436 809.93933 4294967295
48.65321 795.65436 809.93933 4294967295
-19.053211 799.19012 808.99646 4285686366
-17.284403 800.66174 807.62122 4285948510
41.482571 800.66174 807.62122 4294967295
43.21101 800.66174 807.62122 4294967295
45.034863 799.19012 808.99646 4294967295
-19.012844 802.64386 809.29248 4285882969
-17.284403 801.98315 808.73535 4286210655
44.07523 802.64386 809.29248 4294967295
46.667889 803.30457 809.84961 4294967295
-18.952293 806.82074 808.89026 4285947226
-17.229359 806.16211 808.33496 4285948249
41.35046 805.50354 807.77966 4294967295
43.073395 806.16211 808.33496 4294967295
-16.333027 808.94116 808.06207 4286210915
41.262386 808.28394 807.50793 4294967295
42.981651 809.59833 808.61621 4294967295
-18.911926 810.91272 809.72449 4286078812
-17.192661 810.91272 809.72449 4285948512
-16.272476 814.77295 808.40106 4286146660
41.042202 815.86395 807.35901 4294967295
43.384708 814.8941 808.28534 4294967295
46.271561 815.71942 809.85315 4294967295
-15.390825 817.82501 809.01257 4286476138
41.042202 818.4787 809.56372 4294967295
42.752293 817.82501 809.01257 4294967295
-13.636697 821.30396 808.02191 4286542950
-11.93211 820.6524 807.47253 4287266416
39.205505 821.30396 808.02191 4294967295
37.460548 823.33032 808.42242 4294967039
39.205505 823.25873 809.67004 4294967295
-23.280733 752.37006 811.37598 4284832858
-22.339451 754.57251 810.61694 4285095005
-25.913761 756.62195 812.34497 4285028696
-23.161469 758.89246 810.33533 4285094238
49.886238 758.89246 810.33533 4294967295
51.667889 758.89246 810.33533 4294967295
49.886238 760.93555 812.05804 4294967295
51.667889 760.93555 812.05804 4294967295
-24.866055 763.87872 810.61548 4285552470
-23.089909 763.87872 810.61548 4285618263
-24.814678 766.74182 810.41357 4285618775
-23.042202 766.74182 810.41357 4285487445
47.85688 766.74182 810.41357 4294967295
-24.814678 768.09686 811.55615 4285815628
47.85688 768.77441 812.12744 4294967295
46.824768 772.37683 811.24078 4294967295
-25.541285 776.64417 810.91479 4284897115
-22.899082 776.64417 810.91479 4284767065
49.475231 774.40314 812.94934 4294967295
-25.541285 777.99084 812.05029 4285094232
-22.388533 781.2345 810.86115 4285225303
-21.027523 785.06799 811.47736 4285684569
49.940369 784.39819 810.9126 4294967295
-20.961468 790.63293 812.24548 4285290329
-20.045872 792.77643 811.43683 4285422171
47.06422 792.11011 810.875 4294967295
50.550457 792.77643 811.43683 4294967295
-20.851376 796.98279 811.05945 4285094486
46.915596 796.98279 811.05945 4294967295
49.522018 796.98279 811.05945 4294967295
52.128441 796.98279 811.05945 4294967295
-20.851376 798.31122 812.17944 4285619801
45.900917 800.51434 810.11304 4294967295
49.365139 800.51434 810.11304 4294967295
52.128441 798.31122 812.17944 4294967295
-22.517431 803.16278 812.34619 4285290327
-20.78532 801.83856 811.22961 4285422415
49.365139 801.83856 811.22961 4294967295
51.963303 801.83856 811.22961 4294967295
-20.741285 805.28668 811.52081 4285421140
44.939449 804.62598 810.96375 4294835455
46.667889 804.62598 810.96375 4294967295
49.260551 805.28668 811.52087 4294967295
51.85321 805.28668 811.52081 4294967295
-19.813763 808.79651 810.55615 4285750361
44.796329 808.79651 810.55615 4294967295
46.519264 808.79651 810.55615 4294967295
48.242203 809.45514 811.11145 4294967295
-22.398165 810.77234 812.22217 4285421652
-19.793579 811.49976 811.5274 4285815897
44.700916 812.22711 810.83264 4294967295
46.420185 812.22711 810.83264 4294967295
49.103668 810.77234 812.22217 4294967295
-19.771561 813.5415 811.94092 4285487963
48.13945 813.5415 811.94092 4294967295
-18.851376 817.0296 810.95789 4285686370
-17.137615 817.68469 811.51025 4285818207
44.557796 817.68469 811.51025 4294967295
46.271561 817.68469 811.51025 4294967295
-15.960856 820.65765 811.40106 4286475111
41.042202 820.43976 811.21729 4294967295
42.752293 820.43976 811.21729 4294967295
-16.245872 822.40082 812.87085 4286473826
37.622017 822.40082 812.87085 4294967295
40.187157 822.40082 812.87085 4294967295
42.752293 822.40082 812.87085 4294967295
-25.148624 750.77777 813.95746 4284898654
-26.807339 757.98822 813.49695 4285094990
49.886238 763.65979 814.35498 4294966783
52.558716 763.65979 814.35498 4294967295
49.732109 767.95233 814.05029 4294966783
-28.271559 777.10486 815.22729 4285094990
-25.582569 778.22119 814.20654 4285094484
-24.660551 781.35748 814.88892 4285224534
-22.827522 784.92627 813.97394 4285356121
-21.903669 787.74731 813.73651 4285355864
-22.779816 789.75677 815.43079 4285028693
-22.708258 793.30377 814.49756 4285028693
-27.889908 797.44067 815.36951 4285158998
-25.27523 797.44067 815.36951 4285159256
-22.660551 796.10803 814.24597 4285028693
-25.195412 800.96802 814.41968 4285356118
-22.588991 799.63959 813.29956 4285028441
-27.713762 804.487 813.46265 4285421652
-25.115597 804.487 813.46265 4285486932
-22.517431 804.487 813.46265 4285552468
-28.549541 807.20215 814.44397 4285225302
-24.889542 808.32599 814.08337 4285487190
-22.469725 807.2688 813.19214 4285552468
50.124771 807.2688 813.19214 4294967295
51.85321 807.9295 813.74921 4294967295
-22.398165 812.08954 813.33276 4285355859
49.965137 812.08954 813.33276 4294967295
51.688072 812.08954 813.33276 4294967295
-22.398165 814.06531 814.99866 4284962130
-20.631193 814.8559 813.04919 4285028441
49.356571 814.32886 814.34882 4294967295
52.549541 814.06531 814.99866 4294967295
-20.058105 816.6084 814.52686 4285356889
48.999084 816.82751 814.71161 4294967295
-18.851376 820.30505 813.71973 4286013535
35.988991 820.96014 814.27209 4294967295
44.557796 820.30505 813.71973 4294967295
47.128441 820.30505 813.71973 4294967295
-18.851376 822.27032 815.37671 4286342234
-17.100918 823.70819 813.97314 4286014303
37.702751 822.27032 815.37671 4294967295
40.187157 823.70819 813.97314 4294967295
43.607338 823.70819 813.97314 4294967295
47.078899 822.98926 814.67493 4294967295
-17.100918 825.01556 815.07544 4285949793
44.462387 825.01556 815.07544 4294967295
46.172478 825.01556 815.07544 4294967295
-17.045872 829.7746 815.16406 4285356120
51.667889 765.70288 816.07776 4294967295
-28.271559 779.13116 816.93585 4285356886
-26.504587 779.13116 816.93585 4285422936
-28.271559 781.15747 818.64441 4285356120
-26.504587 781.15747 818.64441 4285290327
-24.660551 784.05078 817.15991 4285158742
-24.660551 786.0708 818.86304 4285094486
-24.583487 789.62482 817.93567 4285028693
-25.408257 792.43604 817.68994 4284962900
-29.051987 799.21747 816.86768 4285225040
-27.801834 806.28174 818.90002 4285093205
-31.177982 808.45966 816.81226 4285094740
-28.579817 809.1217 817.37054 4285159508
-25.981651 808.45966 816.81226 4285290327
-25.062386 811.89374 817.0918 4285159252
-27.983027 818.04785 817.70264 4285225047
-24.982569 817.35834 817.77521 4285290580
-22.374311 817.4201 816.51935 4285421909
-20.631193 818.79907 816.37402 4285881433
49.858715 818.79907 816.37402 4294967295
52.549541 817.35834 817.77521 4294901503
55.133945 818.67554 818.88586 4294967295
-22.350458 820.11346 817.4823 4285618767
-20.631193 820.77063 818.03644 4285881430
49.858715 820.77063 818.03644 4294967295
-18.851376 824.2356 817.03381 4286605413
47.985321 824.2356 817.03381 4294967295
-18.811008 827.63037 817.28015 4285290327
-17.100918 826.323 816.17786 4286475367
47.985321 826.20087 818.69092 4294967295
-18.811008 828.93774 818.38257 4283514437
-28.271559 782.5083 819.78345 4285028693
-26.504587 782.5083 819.78345 4285028693
-28.271559 783.85919 820.92236 4285028693
-26.504587 783.85919 820.92236 4285028693
-28.183487 788.09076 820.56628 4284962900
-26.422018 787.41742 819.99854 4285028693
-31.277063 808.27429 820.5802 4285159508
-29.53945 808.27429 820.5802 4285093971
-27.713762 811.10803 819.04541 4285290325
-22.398165 819.99274 819.99646 4285881683
-20.67523 821.30994 821.10718 4285947996
52.262386 820.43182 820.3667 4294901503
55.133945 820.65137 820.55182 4294967295
-20.631193 824.05664 820.80701 4285027156
49.858715 823.39941 820.25293 4294967295
-20.631193 825.37103 821.91528 4283645766
-31.277063 811.5954 823.38037 4285224531
-29.53945 810.93115 822.82031 4285093201
-27.655046 817.84003 822.10547 4285421654
-24.791437 817.80304 822.94629 4285487187
-27.655046 819.16144 823.21973 4285617748
-25.926605 819.82214 823.77679 4285683542
-22.469725 819.16144 823.21973 4285947996
53.58165 819.16144 823.21973 4294967295
55.310093 820.48285 824.33386 4294966783
-24.121101 823.94434 823.32837 4284304465
-22.398165 822.62714 822.21777 4285093203
-20.67523 825.26154 824.43909 4282068787
-33.188992 807.99359 826.88354 4285356122
-31.376146 812.09955 827.72961 4285355861
-29.53945 814.9165 826.18066 4285421654
-28.579817 819.71545 826.30298 4285487195
-25.385933 820.85321 826.39014 4284041541
-22.469725 821.80426 825.448 4283909708
52.829357 819.05334 825.74463 4294967295
-33.188992 809.32898 828.00952 4285355609
-33.188992 811.33215 829.69855 4285355607
-31.442202 811.99988 830.2616 4285421654
-31.277063 819.56592 830.10095 4283186498
-27.801834 819.56592 830.10095 4281871908
-24.326605 819.56592 830.10095 4282595381
-22.588991 819.56592 830.10095 4282332209
-25.981651 823.026 829.09424 4282530090
-22.517431 823.026 829.09424 4282397220
-35.045872 809.18164 831.80933 4285421400
-31.442202 813.33533 831.38757 4286012256
54.150459 816.00616 833.63953 4294967295
-33.014679 820.89435 831.22107 4282793532
-28.670643 820.89435 831.22107 4282661168
-24.326605 820.89435 831.22107 4282857771
-33.883484 822.22278 832.34106 4283315774
-31.277063 822.88696 832.90112 4283055160
-28.670643 822.88702 832.90112 4282924086
-25.195412 822.22278 832.34106 4282793782
-32.910091 825.67438 831.32739 4283250497
-34.241287 809.76154 834.91443 4285224017
-34.241287 811.104 836.04639 4285489242
54.434864 811.104 836.04639 4294967295
56.073395 815.20996 836.89233 4294967295
-25.27523 821.42798 835.59509 4282858292
-33.119267 822.76062 836.71863 4283513918
-31.376146 822.76062 836.71863 4283121207
-28.761467 822.76062 836.71863 4282989878
-25.27523 822.76062 836.71863 4282858035
51.963303 808.96393 838.16602 4294967295
50.922935 812.44641 837.17822 4294967295
52.678898 812.44641 837.17822 4294967295
52.678898 813.78888 838.31018 4294967295
54.434864 814.46008 838.87616 4294967295
56.073395 816.54962 838.02185 4294967295
-33.188992 822.68335 839.26965 4283646270
-31.442202 822.68335 839.26965 4283187513
-28.822018 822.68335 839.26965 4283121209
-25.328442 822.68335 839.26965 4283120183
51.242203 809.52563 842.56372 4294967295
52.844036 813.67725 842.14014 4294967295
55.605503 816.9212 840.95135 4294967295
-33.293579 821.9082 842.54004 4283844162
-31.541285 821.9082 842.54004 4283385662
-28.912844 821.9082 842.54004 4283384637
-26.284403 821.9082 842.54004 4283449147
54.434864 819.15869 842.83789 4294967295
47.85688 807.39398 844.69043 4294967295
49.629356 808.07153 845.26172 4294967295
51.242203 811.55188 844.27222 4294967295
52.043121 814.6377 844.91205 4294967295
54.605503 815.6972 843.84338 4294967295
52.844036 817.04388 844.97876 4294967295
-25.461468 821.17236 844.53577 4283712062
52.678898 821.84357 845.10168 4294967295
54.434864 821.17236 844.53577 4294967295
-33.293579 823.24786 843.66968 4283910210
-31.541285 823.24786 843.66968 4283844162
-28.912844 823.24786 843.66968 4283843905
56.073395 823.91766 844.23444 4294967295
54.321102 825.92712 845.92871 4294967295
55.314983 828.91534 844.52423 4294967295
54.908257 832.75531 845.14594 4294967295
47.955963 807.33081 847.25317 4294967295
49.629356 810.78168 847.54688 4294967295
51.242203 814.92908 847.11975 4294967295
-22.899082 818.39056 846.11426 4283711550
52.043121 817.33527 847.18652 4294967295
-25.541285 820.41052 847.8175 4283909952
-22.899082 819.73718 847.24976 4283778106
51.082569 820.41052 847.8175 4294967295
-33.363304 823.85724 846.79962 4283779655
-31.60734 823.85724 846.79962 4283976007
-28.973394 823.85718 846.79968 4284041544
52.678898 823.85724 846.79962 4294967295
54.434864 823.18604 846.23364 4294967295
-33.363304 825.87091 848.49744 4284568140
-31.60734 825.87091 848.49744 4284370511
-28.973394 825.87091 848.49744 4284370508
52.678898 825.87091 848.49744 4294967295
52.568806 828.60645 848.18787 4294967295
54.150459 830.69598 846.02563 4294967295
52.403671 832.03137 847.15161 4294966783
46.561466 800.28857 851.77966 4294967295
46.466057 803.07599 851.51379 4294967295
48.104588 806.56549 850.53198 4294967295
48.104588 807.92761 851.68054 4294967295
49.629356 812.81427 849.26074 4294967295
49.629356 814.16937 850.4032 4294967295
-24.737616 818.98169 850.53674 4283976005
49.475231 818.30627 849.96729 4294967295
-24.737616 820.33252 851.67578 4284041798
-22.970642 820.33252 851.67578 4284107591
49.475231 820.33252 851.67578 4294967295
-26.422018 823.10382 850.08838 4284173129
51.082569 823.10382 850.08838 4294967295
-33.467892 825.12384 851.79163 4284175435
-31.706423 825.12384 851.79163 4284370511
-28.973394 827.21338 849.62939 4284502095
-26.422018 825.12384 851.79163 4284436556
50.122017 826.16858 850.71051 4294967295
50.922935 828.55579 850.76135 4294967295
43.508255 784.8324 854.44373 4294967295
45.321102 784.8324 854.44373 4294967295
46.990826 788.36682 853.49976 4294967295
48.798164 788.36682 853.49976 4294967295
48.798164 789.74854 854.66479 4294967295
46.847706 794.64783 854.87158 4294966527
49.550461 794.64783 854.87158 4294967295
46.466057 805.12543 853.24188 4294967295
46.466057 807.17487 854.96985 4294967295
48.104588 809.28967 852.82898 4294967295
48.104588 810.65173 853.97742 4294967295
47.955963 814.79919 853.55029 4294967295
-23.042202 816.87952 852.68835 4283976005
-24.737616 821.68341 852.81482 4284304713
-22.970642 821.68341 852.81482 4284304713
49.475231 821.68341 852.81482 4294967295
-24.737616 823.0343 853.95386 4284109388
-22.970642 823.0343 853.95386 4284109388
-28.183487 826.47046 852.92712 4284436556
-26.422018 826.47046 852.92712 4284304713
49.321102 827.1438 853.49481 4294967295
41.906422 781.24463 857.95874 4294967295
43.640366 784.06989 857.72485 4294967295
45.321102 786.21832 855.6123 4294967295
-22.522936 797.40283 857.19458 4282397743
-19.820183 797.40283 857.19458 4282857269
43.244038 797.40283 857.19458 4294901247
-22.454128 800.90356 856.22229 4282858035
44.908257 800.21692 855.64331 4294967295
-22.454128 802.27692 857.38013 4282989365
-19.759632 802.27692 857.38013 4282858292
44.770641 805.08044 855.82001 4294967295
-21.489908 807.13409 857.55151 4283712063
46.466057 808.5412 856.12195 4294967295
46.322937 812.01385 855.12598 4294967295
46.322937 814.05701 856.84863 4294967295
-21.313761 817.51489 855.84015 4284173126
47.955963 817.51489 855.84015 4294967295
-21.313761 819.55176 857.5575 4284370763
47.018349 820.24829 856.83679 4294967295
-24.737616 824.38513 855.0929 4284175442
-23.042202 822.2998 857.25867 4284373078
47.85688 822.2998 857.25867 4294967295
40.205505 779.09192 860.06775 4294967295
41.906422 782.63757 859.13318 4294967295
41.906422 784.03052 860.30774 4294967295
43.728439 784.03052 860.30774 4294967295
46.367889 785.46002 858.89697 4294967295
43.640366 786.85016 860.06909 4294967295
46.367889 786.85016 860.06909 4294967295
49.095413 786.85016 860.06909 4294967295
-18.128441 791.76208 860.28662 4282463013
43.508255 790.37616 859.11804 4294967295
45.321102 790.37616 859.11804 4294967295
-21.688074 793.89368 858.15991 4282331959
-19.880733 793.89368 858.15991 4282989889
43.376148 793.89368 858.15991 4294967295
45.183487 793.89368 858.15991 4294967295
-18.073395 795.27545 859.32495 4282858542
-16.266054 796.65717 860.48987 4283121207
41.568806 796.65717 860.48987 4294967039
-18.618959 799.23956 858.74323 4282989621
43.244038 799.46912 858.93683 4294769919
-22.454128 803.65021 858.53809 4283317303
-18.88899 802.59277 859.60858 4283187003
41.442204 801.5354 860.67908 4294966783
43.111927 803.65021 858.53809 4294835455
-19.759632 805.0235 859.69604 4283712063
-17.364527 805.93903 860.46802 4283647298
43.710705 805.48126 860.08203 4294901503
-21.489908 808.50317 858.70593 4283777856
-19.699083 808.50317 858.70593 4283843649
-17.908257 809.87231 859.86035 4283910212
44.770641 808.50317 858.70593 4294967295
-21.445871 811.27374 858.42603 4283976005
-19.658716 811.95691 859.00201 4283976004
-17.871559 812.64008 859.578 4284239174
44.678898 811.95691 859.00201 4294967295
-17.871559 814.00635 860.72998 4284502347
44.678898 814.00635 860.72998 4294967295
-19.598166 817.46216 859.71979 4284305483
-17.816513 818.82428 860.86829 4284372559
44.541283 818.14325 860.29407 4294967295
46.322937 816.1001 858.57129 4294900735
-21.313761 820.90961 858.70251 4284767061
46.179817 820.90961 858.70251 4294967295
-25.700916 823.65491 858.40125 4284306769
-23.089909 822.26752 859.84741 4284373078
47.85688 823.65491 858.40125 4294967295
-12.946789 764.82532 863.73486 4286542949
-11.097248 764.82532 863.73486 4287396460
-12.908257 768.4046 862.82874 4286673252
38.609173 773.38104 863.10059 4294967295
40.205505 781.18762 861.83478 4294967039
-18.220184 785.42346 861.48218 4283579961
-16.447706 783.28339 863.60193 4283317046
41.055962 784.35339 862.54205 4294967295
-19.092661 788.2403 861.24133 4282002730
-16.398165 786.81641 862.65674 4282199846
-14.576147 788.20935 863.83118 4282660147
40.663609 787.75537 862.57642 4294967039
-16.365137 789.63043 862.41345 4282594600
-14.546789 791.02057 863.58557 4283055414
40.912842 790.3255 862.99951 4294967039
-16.315596 793.14801 861.4552 4283121457
-14.502752 794.53394 862.62378 4283055414
40.78899 793.84094 862.03949 4294967039
38.069725 795.91986 863.79236 4294967295
39.882568 795.91986 863.79236 4294967295
-16.266054 798.72974 862.23743 4283187003
-13.856269 799.42059 862.82001 4283254076
37.954128 800.11145 863.40247 4294966783
40.363911 799.42059 862.82001 4294966527
-16.216515 802.9129 861.84058 4283188034
-14.414679 802.9129 861.84058 4283385662
41.442204 802.9129 861.84058 4294966783
-13.513762 804.29047 863.00208 4283516998
41.442204 804.29047 863.00208 4294967295
-16.166973 807.77014 862.01196 4283976005
-13.771866 808.68573 862.78394 4283910982
43.111927 808.45679 862.59094 4294967039
-16.117432 811.9259 861.59198 4284239175
-16.977982 815.37268 861.88208 4284109642
-14.326606 813.97961 863.32349 4284502349
42.979816 813.97961 863.32349 4294966783
-16.084404 816.73895 863.03406 4284306510
42.891743 816.73895 863.03406 4294704125
-24.943119 821.54846 863.16528 4284964697
-21.9737 821.09442 862.78241 4284767317
-19.598166 820.86743 862.591 4284570194
-17.816513 820.86743 862.591 4284897106
44.541283 820.86743 862.591 4294967039
46.322937 820.86743 862.591 4294835711
-7.4422016 757.64148 865.52576 4288253063
-4.6513758 757.64148 865.52576 4289304979
-9.2752295 761.23761 864.63391 4288581249
-7.4201837 761.23761 864.63391 4288580997
-4.6513758 759.0639 866.7251 4289699478
-1.8605504 759.0639 866.7251 4289896857
-9.2752295 762.65576 865.82971 4288843906
-7.4201837 762.65576 865.82971 4288581001
-4.6376147 762.65576 865.82971 4289502362
-14.79633 766.94629 865.52325 4286870115
-10.172478 766.94629 865.52325 4288119675
-7.3981652 767.65326 866.11938 4288580747
-4.6238532 767.65326 866.11938 4289106580
33.90826 767.18195 865.72198 4294900735
-12.908257 769.81433 864.01746 4287330405
-11.06422 769.81433 864.01746 4288053370
36.880733 769.81433 864.01746 4294967295
-16.596331 771.92902 865.80042 4286936175
-13.830275 771.92902 865.80042 4287528553
-10.449542 772.164 865.99854 4288514186
-7.3761468 772.63391 866.39478 4288647567
-5.5321102 772.63391 866.39478 4288976789
38.72477 772.63391 866.39478 4294967295
-12.869725 776.19214 865.47083 4288055157
-11.031193 776.19214 865.47083 4288448144
38.609173 776.19214 865.47083 4294967295
-16.497248 779.742 864.53992 4285290327
-13.788991 777.59772 866.65601 4285225288
-11.031193 777.59772 866.65601 4285487709
38.609173 777.59772 866.65601 4294967295
-13.747706 781.84406 866.31232 4282988083
-10.998165 782.54474 866.90308 4282266665
37.577065 781.84406 866.31232 4294835199
-14.620184 784.68054 864.77991 4282396455
38.377983 784.68054 864.77991 4294967295
-12.792661 786.0777 865.95801 4282857269
38.377983 786.0777 865.95801 4294967295
-12.754128 789.60229 865.00574 4283055414
-10.93211 790.99524 866.18018 4282793530
37.351379 790.29877 865.59296 4294967039
-12.72844 793.10583 865.34375 4283056184
37.276146 793.10583 865.34375 4294966783
-12.689908 797.30579 864.96094 4283385149
36.256882 797.30579 864.96094 4294900735
-10.877064 798.69177 866.12964 4283517250
36.256882 798.69177 866.12964 4294965757
-10.24159 803.10522 865.92676 4283910723
37.050461 802.87494 865.73254 4294966271
39.761467 802.18408 865.15002 4294966783
-12.612844 805.66797 864.16357 4283648837
40.541283 805.66797 864.16357 4294967039
-10.210397 807.96387 866.0993 4284370506
-7.2073393 808.42297 866.48645 4284109642
40.240978 807.50464 865.7121 4294967039
-13.173088 810.97443 864.71368 4284174411
-10.777982 811.89008 865.48572 4284502097
-8.0834866 811.89008 865.48572 4284305742
41.315598 811.20337 864.90674 4294967039
43.111927 810.51672 864.32776 4294967295
-13.431192 815.34869 864.47791 4284568142
-10.744954 815.34869 864.47791 4284765264
-8.0834866 813.26337 866.64368 4284700498
-5.3889909 813.26337 866.64368 4284635732
40.354126 814.30603 865.56079 4294967295
-16.084404 818.10522 864.18616 4284897107
-13.403669 818.10522 864.18616 4285028691
-10.744954 816.71783 865.63232 4284962898
-8.3571863 817.63055 866.40192 4285029204
41.188992 817.40234 866.20953 4294967295
42.891743 818.10522 864.18616 4294967295
-16.084404 820.15466 865.91412 4285028947
-13.403669 820.15466 865.91412 4285226070
-10.722936 820.15466 865.91412 4285489495
42.891743 820.15466 865.91412 4294966783
-24.943119 823.59155 864.88794 4285818204
-22.270641 822.91052 864.31372 4285226071
-19.598166 822.91052 864.31372 4285291609
-17.816513 822.91052 864.31372 4285291863
44.541283 823.59155 864.88794 4294967039
46.322937 822.91052 864.31372 4294967295
-1.866055 755.4635 867.61353 4289961880
0.93577981 754.37451 868.65735 4289962916
5.6146789 753.28558 869.70117 4291081131
7.4862385 753.28558 869.70117 4291607221
10.293578 753.28558 869.70117 4291804859
14.036697 753.28558 869.70117 4292331979
0 756.89014 868.81641 4290028194
-1.8605504 760.48627 867.92444 4289897122
0 761.19751 868.52411 4290094238
29.768806 761.90869 869.12378 4294966015
-9.2752295 764.07397 867.02551 4289041032
-7.4201837 764.07397 867.02551 4288647304
-4.6376147 764.07397 867.02551 4289172886
-1.8550459 764.07397 867.02551 4290158762
31.53578 764.07397 867.02551 4294966015
35.245872 764.07397 867.02551 4294966527
-1.8550459 765.49219 868.22119 4290159014
0 766.20129 868.81909 4290093461
29.680735 766.20129 868.81909 4294703101
31.53578 766.20129 868.81909 4294900735
-9.2477064 769.06726 867.31152 4288579979
-7.3981652 769.06726 867.31152 4288384397
-4.3155961 769.53857 867.70898 4289172886
-1.8495413 769.77429 867.90765 4290487975
31.442202 770.48126 868.50378 4294769150
34.216515 769.77429 867.90765 4294834941
36.990826 769.77429 867.90765 4294901247
0 771.89526 869.69604 4290552486
25.893578 771.89526 869.69604 4294176246
28.667891 771.89526 869.69604 4294834431
31.442202 771.89526 869.69604 4294834943
-16.596331 774.0437 867.5835 4287199346
-14.752294 774.0437 867.5835 4287396971
-9.2201834 774.7486 868.17786 4287593088
-7.3761468 774.7486 868.17786 4287921786
-4.4256883 775.17157 868.53448 4288513398
-1.8440367 775.45343 868.77222 4289434236
0 776.15839 869.36658 4289896073
29.504587 776.86328 869.96094 4294638078
31.348623 776.15839 869.36658 4294572285
34.114677 775.45355 868.77228 4294637307
36.880733 774.7486 868.17786 4294900479
-12.869725 779.0033 867.84119 4284105542
-10.111927 779.0033 867.84119 4283778106
-7.3541284 779.0033 867.84119 4284830028
-5.5155964 779.0033 867.84119 4285685594
36.770641 779.0033 867.84119 4294966527
-9.1926603 780.40887 869.02637 4282003494
-7.3541284 780.40887 869.02637 4282069543
-4.5963302 780.40887 869.02637 4282001686
34.012844 780.40887 869.02637 4294505978
-9.7761469 784.41327 868.47858 4282661431
-7.3321099 785.34747 869.26636 4282793782
-5.4990826 785.34747 869.26636 4282990904
32.994495 785.34747 869.26636 4294834943
34.827522 785.34747 869.26636 4294966527
36.660549 783.94611 868.08472 4294966783
-10.051376 788.17346 867.72504 4282727737
-7.310092 788.87201 868.31409 4282727989
-5.4825687 788.87201 868.31409 4282925111
32.895412 788.87201 868.31409 4294966527
34.722935 788.87201 868.31409 4294967295
36.550457 787.47485 867.13599 4294967039
-7.310092 790.26917 869.49207 4283056697
-4.5688076 790.26917 869.49207 4283188027
-1.827523 790.26917 869.49207 4283385149
29.240368 790.26917 869.49207 4294505979
31.981651 790.26917 869.49207 4294834942
34.722935 790.26917 869.49207 4294966527
-9.7174311 792.85254 867.74628 4282860857
-7.2880735 793.78113 868.52917 4283254842
-5.4660549 793.78113 868.52917 4283320891
32.796329 793.78113 868.52917 4294900735
34.618347 793.78113 868.52917 4294900735
-10.000917 795.88611 867.68799 4283385918
-7.2733946 797.27625 868.86011 4283583296
-4.8550458 796.10645 869.61786 4283517246
-1.8220184 795.17407 869.70374 4283583296
0 795.17407 869.70374 4283714630
32.166973 796.10645 869.61786 4294834686
34.548622 796.58118 868.27405 4294834943
-9.0642204 800.0777 867.29822 4283649089
34.444038 800.0777 867.29822 4294636795
-7.2513762 801.46362 868.4668 4283649089
-4.5321102 802.84955 869.63538 4284175435
-1.812844 802.84955 869.63538 4284175435
32.631191 802.84955 869.63538 4294834941
34.444038 802.15662 869.05109 4294900478
-9.0366974 804.94751 867.4801 4284304713
-7.2293577 804.94751 867.4801 4284043593
-5.4220185 806.32922 868.64514 4284175435
37.050461 805.63831 868.06262 4294966783
-4.5045872 809.80054 867.64795 4284438351
-1.8018348 809.80054 867.64795 4284438350
0 807.71094 869.81018 4284636236
34.339451 807.71094 869.81018 4294967295
36.992661 808.75574 868.72906 4294967295
39.640366 809.80054 867.64795 4294967295
-3.6036696 811.86682 869.3902 4284701523
-1.8018348 811.86682 869.3902 4284701523
0 811.86682 869.3902 4284701523
36.937614 811.86676 869.39026 4294901502
-7.1853213 814.63666 867.80164 4284635732
-5.3889909 814.63666 867.80164 4284767061
39.519264 814.63666 867.80164 4294967295
-4.4908257 816.01001 868.95959 4285095254
37.722935 816.01001 868.95959 4294967295
39.519264 816.01001 868.95959 4294966783
-10.744954 820.82513 869.09546 4285816923
-8.3571863 819.91235 868.32587 4285554776
37.607338 820.82513 869.09546 4294900735
40.293579 820.14056 868.51819 4294967039
-22.339451 822.2041 867.64221 4285488983
-19.658716 822.2041 867.64221 4285685340
-16.977982 822.2041 867.64221 4285949273
-13.40367 822.88727 868.21814 4285882973
40.21101 824.2536 869.37024 4294900991
42.891743 822.88727 868.2182 4294967039
15.955046 749.67261 870.57898 4292726990
18.770641 749.67261 870.57898 4292794582
3.7541285 751.10767 871.78894 4290423201
16.893578 751.10767 871.78894 4292859607
19.709175 751.10767 871.78894 4292926168
22.524771 751.10767 871.78894 4293452259
24.401834 751.10767 871.78894 4294966270
1.8715596 754.71637 870.90771 4290686123
4.6788988 754.71637 870.90771 4290948778
7.4862385 754.71637 870.90771 4291870652
10.293578 754.71637 870.90771 4291804606
14.036697 754.71637 870.90771 4292397260
16.844036 754.71637 870.90771 4292793046
19.651377 754.71637 870.90771 4292924884
22.458715 754.71637 870.90771 4293517539
25.266056 754.71637 870.90771 4294966270
1.866055 758.31671 870.01929 4290686119
4.6706419 757.23193 871.06671 4291211697
7.4862385 756.14722 872.11414 4292001468
10.293578 756.14722 872.11414 4291936702
14.036697 756.14722 872.11414 4292134854
16.844036 756.14722 872.11414 4292660945
19.651377 756.14722 872.11414 4293055448
22.458715 756.14722 872.11414 4293582560
25.227524 757.23193 871.06671 4294833912
28.923853 758.31671 870.01929 4294900476
1.866055 760.45667 871.82361 4290554530
4.6651373 760.45667 871.82361 4291211445
7.46422 760.45667 871.82361 4291606453
10.263303 761.16992 872.42505 4292198847
13.995413 761.16992 872.42505 4292463560
16.794495 761.16992 872.42505 4292595917
19.593578 761.16992 872.42505 4292794332
22.39266 760.45667 871.82361 4293385949
24.880732 760.21893 871.62311 4294636274
27.990826 759.74335 871.22217 4294768633
1.8605504 764.75354 871.52246 4290619803
22.326605 764.75354 871.52246 4293386210
25.427523 764.27948 871.12274 4294702841
27.908257 764.04236 870.92279 4294702841
1.8605504 766.1759 872.7218 4290750629
4.6513758 766.1759 872.7218 4291343542
20.466055 766.1759 872.7218 4293319644
22.326605 766.1759 872.7218 4293123292
0.92752296 769.03772 871.21069 4290684582
4.6376147 769.74677 871.80859 4291737780
20.405504 769.74677 871.80859 4293516767
22.26055 769.74677 871.80859 4293320153
24.733946 768.80133 871.01141 4294307567
28.753212 768.32861 870.61279 4294703100
22.194496 773.3092 870.88831 4293582812
24.968807 773.3092 870.88831 4294110190
28.667891 773.3092 870.88831 4294637822
1.8495413 774.72321 872.08057 4290620553
20.344954 774.72321 872.08057 4294107361
22.194496 774.72321 872.08057 4293582812
24.968807 774.72321 872.08057 4294241776
27.74312 774.72321 872.08057 4294967039
-1.8440367 778.27307 871.14954 4282986516
0.92201835 778.97797 871.7439 4282790444
20.284403 779.68286 872.33826 4294107611
23.357798 779.21289 871.94208 4294109156
25.816513 778.97797 871.7439 4294176504
28.582569 778.97791 871.7439 4294637565
31.348623 778.97797 871.7439 4294638075
-7.3541284 781.81445 870.21143 4282529838
-4.5963302 781.81445 870.21143 4282529072
-1.8385321 781.81445 870.21143 4282660147
0 781.81445 870.21143 4282854960
34.012844 781.81445 870.21143 4294769148
-3.6770642 783.22003 871.39661 4283187513
-1.8385321 783.22003 871.39661 4283187513
0.91926605 783.92285 871.9892 4283645757
20.223854 784.62561 872.58179 4294568944
22.981651 784.62561 872.58179 4294306537
25.73945 784.62561 872.58179 4294504947
28.497248 783.22003 871.39661 4294965503
31.255045 783.22003 871.39661 4294965759
-3.666055 786.74884 870.44788 4283187004
-1.8330275 786.74884 870.44788 4283318591
0 787.44952 871.0387 4283515967
20.163303 788.15021 871.62952 4294960617
22.912844 788.15021 871.62952 4294766318
25.662386 788.15021 871.62952 4294899192
28.106422 787.216 870.8418 4294899964
31.161469 786.74884 870.44788 4294834943
-3.655046 791.66632 870.67017 4283451707
-1.827523 791.66632 870.67017 4283451707
0.91651374 790.60895 871.7406 4283451457
3.666055 789.55157 872.81104 4283976005
14.66422 789.55157 872.81104 4283120955
16.497248 789.55157 872.81104 4284634450
19.246788 789.55157 872.81104 4290421693
22.912844 789.55157 872.81104 4294635502
25.662386 789.55157 872.81104 4294372594
28.326607 791.66632 870.67017 4294834429
31.06789 791.66632 870.67017 4294834943
19.188992 793.06348 871.84814 4285753949
22.844036 793.06348 871.84814 4293317084
25.585321 793.06348 871.84814 4294569970
28.326607 793.06348 871.84814 4294899964
-3.6440368 796.56702 870.87817 4283583044
-1.8220184 796.56702 870.87817 4283583044
0 797.26349 871.46545 4283846215
25.508257 797.95996 872.05273 4293322736
28.544952 797.49561 871.66119 4294769406
30.974312 797.26349 871.46545 4294834686
-4.5458717 799.36145 870.61829 4283912520
-1.8183486 799.36145 870.61829 4283912779
0 800.75159 871.79041 4284175435
29.093578 800.75159 871.79041 4294967039
31.8211 800.05652 871.20435 4294834429
28.184402 802.14172 872.96265 4294967039
30.911926 802.14172 872.96265 4294834941
-3.6256881 804.23547 870.80396 4284175435
-1.812844 804.23547 870.80396 4284372557
0.90642202 804.92847 871.38824 4284504396
3.6256881 805.6214 871.97253 4285094990
29.005505 805.6214 871.97253 4294967295
32.026913 805.15942 871.58301 4294901246
34.444038 804.23547 870.80396 4294967039
31.628441 809.09271 870.97522 4294769405
34.339451 809.09271 870.97522 4294900735
28.013762 810.47443 872.14026 4294967035
31.628441 810.47443 872.14026 4294967295
34.339451 810.47443 872.14026 4294967295
-1.8018348 814.62183 871.7132 4285489241
0 814.62183 871.7132 4285423449
27.027523 815.31061 872.29395 4294967282
31.832418 814.85138 871.90674 4294901247
34.234863 814.62183 871.7132 4294967039
36.036697 814.62183 871.7132 4294967295
-7.1853213 818.75659 871.27539 4285948510
-4.4908257 818.06995 870.69647 4285620572
32.333946 818.75659 871.27539 4294769148
35.028442 818.75659 871.27539 4294900990
37.722935 817.3833 870.11755 4294967295
-7.1853213 820.12994 872.43335 4285818209
-4.4908257 820.12994 872.43335 4285817953
-1.7963303 820.12994 872.43335 4285818209
32.333946 820.12994 872.43335 4294901502
34.130276 820.12994 872.43335 4294967295
-19.699083 822.19421 870.24988 4285554787
-17.012844 822.19421 870.24988 4285752920
-13.431192 823.56329 871.4043 4285951592
-10.744954 822.19421 870.24988 4286146908
-8.9541283 822.19421 870.24988 4285949273
35.816513 823.56329 871.4043 4294768892
37.607338 823.56329 871.4043 4294768892
10.293578 757.57806 873.32056 4292133566
14.036697 757.57806 873.32056 4292397253
16.844036 757.57806 873.32056 4292529610
19.651377 757.57806 873.32056 4292990427
4.6651373 762.59656 873.62793 4291277495
7.46422 763.30988 874.22937 4291541172
10.263303 763.30994 874.22937 4292331203
13.995413 763.30994 874.22937 4292331718
16.794495 763.30988 874.22937 4293055440
19.28257 763.07208 874.02887 4292990936
7.4422016 767.59833 873.92114 4291739061
10.233027 767.59833 873.92114 4292463043
13.954128 767.59833 873.92114 4292726218
16.744955 767.59833 873.92114 4293252050
18.605505 767.59833 873.92114 4293122009
7.4422016 769.02075 875.12048 4292133567
10.233027 769.02075 875.12048 4292660168
13.954128 769.02075 875.12048 4292660426
1.8550459 771.16498 873.00439 4291737264
4.6376147 771.87408 873.60229 4291870654
7.4201837 772.58319 874.2002 4292265157
13.912844 772.58319 874.2002 4293252308
16.695414 771.87408 873.60229 4293318099
19.168808 771.6377 873.40302 4293515483
1.8495413 776.13721 873.27283 4283120944
4.6238532 776.13721 873.27283 4284570191
7.4201837 774.0014 875.396 4289761160
10.202752 774.0014 875.396 4293250249
13.912844 774.0014 875.396 4293712860
16.645872 776.13721 873.27283 4293449175
19.420183 776.13721 873.27283 4293646554
22.194496 776.13721 873.27283 4293319640
4.9321103 778.02252 874.86237 4284039476
7.3981652 778.25818 875.0611 4285029438
10.172478 778.25824 875.06104 4287331947
13.87156 778.25818 875.0611 4292856523
16.645872 777.55121 874.46497 4293712352
18.495413 777.55121 874.46497 4294041818
1.8440367 781.09259 873.52698 4283842366
4.302752 782.03247 874.31952 4283711033
7.3761468 782.50238 874.7157 4283187513
10.142202 782.50238 874.7157 4282791463
14.752294 782.50238 874.7157 4291475123
16.596331 781.79749 874.12134 4294963187
19.055046 781.5625 873.92316 4294701041
23.050459 781.09259 873.52698 4293846499
25.816513 781.09259 873.52698 4293978351
7.3761468 783.91217 875.9043 4283844162
10.142202 783.91217 875.9043 4283647806
12.908257 783.91217 875.9043 4283056434
1.8385321 786.03119 873.76685 4283188286
4.9027524 786.49969 874.16193 4283648070
7.3541284 787.43677 874.95203 4284041798
10.111927 787.43677 874.95203 4284502349
13.788991 786.73401 874.35944 4283384391
16.546789 786.03119 873.76685 4286411393
18.385321 786.03119 873.76685 4291406766
1.8330275 790.95288 873.99268 4283845959
4.5825686 790.95288 873.99268 4284173381
7.3321099 790.95288 873.99268 4284041798
10.081652 790.95288 873.99268 4284699727
13.747706 790.95288 873.99268 4284502604
16.497248 790.95288 873.99268 4284238920
1.8330275 792.35425 875.17432 4283912008
4.5770645 793.40747 874.10028 4284304713
7.3321099 792.35425 875.17432 4284238668
10.065138 793.40747 874.10028 4284831059
13.725689 793.40747 874.10028 4284962899
16.447706 794.46063 873.02625 4284897107
19.188992 794.46063 873.02625 4284833110
22.844036 794.46063 873.02625 4290947285
25.585321 794.46063 873.02625 4294438900
27.412844 794.46063 873.02625 4294966783
1.827523 795.85779 874.20435 4283977801
4.5688076 795.85779 874.20435 4284632654
7.310092 795.85779 874.20435 4284632652
10.051376 795.85779 874.20435 4284962129
13.706423 795.85779 874.20435 4285094485
16.447706 795.85779 874.20435 4285423451
19.188992 795.85779 874.20435 4284503893
22.844036 795.85779 874.20435 4288780189
1.8220184 800.04938 873.81445 4284307021
4.5550461 800.04944 873.81445 4284569167
7.2880735 800.04938 873.81445 4284765522
10.021101 800.04938 873.81445 4284962643
13.665137 800.04938 873.81445 4285422424
16.398165 800.04938 873.81445 4285553754
19.131193 800.04938 873.81445 4285356891
22.77523 800.04944 873.81445 4286611318
25.508257 800.04938 873.81445 4290952662
27.330275 799.35291 873.22717 4294965759
5.4550457 803.53186 874.13477 4285292112
7.2733946 803.53186 874.13477 4285357906
10.000917 803.53186 874.13477 4285423955
13.637615 803.53186 874.13477 4285883736
16.365137 803.53186 874.13477 4286343517
19.092661 803.53186 874.13477 4286080865
22.729359 803.53186 874.13477 4285427045
25.456881 803.53186 874.13477 4288782501
27.275229 803.53186 874.13477 4294901247
13.637615 804.922 875.30688 4285817693
16.365137 804.922 875.30688 4286277474
19.092661 804.922 875.30688 4286147172
22.729359 804.922 875.30688 4285031257
25.456881 804.922 875.30688 4287793805
1.812844 807.70032 873.7254 4284898902
4.7133946 808.11609 874.07599 4285357912
7.2513757 808.39331 874.30975 4285424219
9.9706421 808.39331 874.30963 4285686877
13.596331 809.0863 874.89398 4285949281
16.315596 809.0863 874.89398 4286211685
19.034863 809.0863 874.89398 4286606698
22.660551 809.0863 874.89398 4285556052
25.379816 808.39331 874.30969 4288057737
28.099083 807.00739 873.14111 4294966526
1.8073394 811.85614 873.3053 4285357656
3.6146789 811.85614 873.3053 4285489242
25.302752 811.85614 873.3053 4288976520
28.013762 811.85614 873.3053 4294967288
30.724771 811.85614 873.3053 4294966783
1.8073394 813.92871 875.05286 4285620314
4.5183487 813.92871 875.05286 4285751387
7.2293577 813.92871 875.05286 4285950049
9.0366974 813.92871 875.05286 4285884000
13.85627 814.159 875.24707 4286212967
16.266054 813.92871 875.05286 4286804334
18.977064 813.92871 875.05286 4286805356
22.591743 813.92871 875.05286 4286210643
25.302752 813.23785 874.47034 4289568910
28.917431 813.23785 874.47034 4294967295
-21.622019 818.06561 874.61694 4285423201
-1.8018348 816.68811 873.45544 4285752160
0 817.37683 874.03619 4286014559
25.225689 817.37683 874.03619 4291408562
27.92844 817.37689 874.03619 4294967035
30.631193 817.37683 874.03619 4294835711
-17.065138 821.50323 873.59131 4286278506
-10.777982 821.50323 873.59131 4285949795
-8.0834866 821.50323 873.59131 4285949541
-4.4908257 821.50323 873.59131 4286212457
-1.8018348 819.44312 875.77844 4286475371
0 819.44312 875.77844 4286212701
23.423853 819.44312 875.77844 4292722542
25.225689 819.44312 875.77844 4293780708
27.92844 819.44312 875.77844 4294967039
31.43578 821.50323 873.59131 4294835197
34.130276 821.50323 873.59131 4294834941
-12.574312 822.87653 874.74927 4286147692
-10.777982 822.87653 874.74927 4286278508
-8.0834866 822.87653 874.74927 4286277994
0 824.24982 875.90723 4287002215
26.944954 823.56317 875.32825 4294967039
31.43578 823.56317 875.32825 4294769662
34.130276 822.87653 874.74927 4294834943
0.89357799 831.76819 875.7063 4287593584
4.4541283 833.80725 873.50159 4287725940
8.0174313 833.80725 873.50159 4287069305
10.233027 770.44312 876.31982 4292923088
12.946789 780.37921 876.84949 4287790182
10.877064 811.85815 877.23114 4285950820
12.689908 811.16516 876.64685 4286212965
10.877064 813.93701 878.98401 4286542949
1.8073394 816.6922 877.38293 4286541413
4.5183487 816.6922 877.38293 4286476130
7.2293577 816.6922 877.38293 4286147429
9.6391439 816.92255 877.57715 4286476652
13.555046 816.6922 877.38293 4286674283
16.266054 816.6922 877.38293 4287068784
18.977064 816.6922 877.38293 4285951073
22.29052 816.46191 877.18878 4286407741
-14.414679 820.82068 876.93982 4286279021
-4.5045872 820.82068 876.93982 4286606445
-1.8018348 820.82068 876.93982 4287198324
0 820.82068 876.93982 4286936422
19.820183 820.82068 876.93982 4282660154
22.522936 820.82068 876.93982 4289103759
25.225689 820.82068 876.93982 4294965753
28.829357 820.82068 876.93982 4294967295
-9.9100914 822.19818 878.10132 4286739570
-7.2073393 822.19818 878.10132 4287330164
-4.5045872 822.19818 878.10132 4287066221
-1.8018348 822.19818 878.10132 4287328879
1.8018348 822.19818 878.10132 4287068008
3.6036696 822.19818 878.10132 4287067756
14.414679 822.19818 878.10132 4287988099
16.216515 822.19818 878.10132 4287198326
18.919266 822.19818 878.10132 4284896573
22.522936 822.19818 878.10132 4292594324
25.225689 822.19818 878.10132 4294967295
28.829357 822.19818 878.10132 4294440699
-4.1914372 826.53876 877.8371 4287199084
-1.7963303 826.30981 877.6441 4287461744
0.89816517 826.30981 877.6441 4287199595
3.5926607 825.62317 877.06519 4287133805
8.9816513 826.99646 878.22302 4287397754
10.777982 826.99646 878.22302 4287988360
12.574312 826.99646 878.22302 4287133051
26.944954 825.62317 877.06519 4294966527
-3.5816514 830.40881 877.17627 4287396208
-1.7908257 830.40881 877.17627 4287659379
0 829.03973 876.02185 4287528561
4.4770641 829.03973 876.02185 4287265391
7.1633029 829.03973 876.02185 4287266168
-16.266054 818.76477 879.13049 4286017385
1.8073394 818.76477 879.13049 4286673250
4.5183487 818.76477 879.13049 4286739559
7.2293577 818.76477 879.13049 4286870897
9.9403667 818.76477 879.13049 4287134065
13.555046 818.76477 879.13049 4287331185
16.266054 818.76477 879.13049 4287660149
18.073395 818.76477 879.13049 4286410355
5.4220185 820.14648 880.29553 4287133805
7.2293577 820.14648 880.29553 4287068790
9.9403667 820.14648 880.29553 4286936946
12.651376 820.14648 880.29553 4287594363
-7.2073393 823.57568 879.26282 4287198828
-5.4055047 823.57568 879.26282 4287264621
1.8018348 823.57568 879.26282 4287199850
5.4055047 823.57568 879.26282 4287199598
7.2073393 823.57568 879.26282 4287200112
9.9100914 823.57568 879.26282 4287397235
13.814067 824.03485 879.64996 4286607979
16.216515 824.2644 879.84357 4284173895
18.919266 824.2644 879.84351 4289760337
22.522936 824.2644 879.84351 4294373609
25.225689 824.2644 879.84357 4294967295
16.216515 826.33075 881.58582 4288511804
18.018349 826.33075 881.58582 4292065947
14.370643 828.36975 879.38098 4286077206
-21.86422 811.88947 883.79773 4285557088
-20.042202 811.88947 883.79773 4285951590
-18.183487 814.65302 883.51184 4286017385
-25.662386 806.36792 886.99023 4285950299
-23.829357 806.36792 886.99023 4285752663
-23.757797 809.82941 885.98474 4286278506
-21.930275 811.22656 887.16284 4286410857
-20.102753 811.22656 887.16284 4286147942
-18.220184 814.67535 886.14673 4286346861
-27.577982 805.00647 889.7663 4286346613
-25.662386 807.76929 888.17188 4287068021
-23.829357 809.17065 889.35339 4286675331
-28.411926 810.57202 890.53503 4290163641
-25.662386 810.57202 890.53503 4289176230
-22.879816 811.5979 889.43793 4287859596
-20.102753 812.62372 888.34082 4286674547
-29.504587 805.0589 893.73474 4289307046
-27.577982 807.11475 891.54407 4287662478
-25.73945 807.11475 891.54407 4286938246
-34.623852 784.76367 896.2428 4284371014
-31.816513 784.76367 896.2428 4284830276
-34.522018 788.27563 895.27991 4284635989
-31.722937 788.27563 895.27991 4284767565
-29.85688 788.27563 895.27991 4284504146
-39.07156 791.77924 894.30981 4288452773
-37.21101 791.77924 894.30981 4287991442
-34.522018 789.70227 896.48279 4286214768
-31.722937 789.70227 896.48279 4284833108
-28.838531 791.77924 894.30981 4284898902
-39.07156 794.62402 896.7085 4290885312
-37.21101 793.91284 896.10883 4289372847
