# .PCD v0.7 - Point Cloud Data file format
VERSION 0.7
FIELDS x y z rgb
SIZE 4 4 4 4
TYPE F F F U
COUNT 1 1 1 1
WIDTH 1158
HEIGHT 1
VIEWPOINT 0 0 0 1 0 0 0
POINTS 1158
DATA ascii
-16.838531 787.53735 1279.2183 4286676891
-13.230275 787.53735 1279.2183 4288716211
-9.6220188 788.45691 1279.9935 4290688979
-21.566973 794.81097 1278.8109 4287201173
-19.170643 794.81097 1278.8109 4286872473
-16.774311 794.81097 1278.8109 4286806680
-14.377981 794.81097 1278.8109 4287004825
-11.981651 794.81097 1278.8109 4289373373
-21.566973 796.64294 1280.3556 4287725984
-19.170643 796.64294 1280.3556 4287595427
-16.774311 796.64294 1280.3556 4287661476
-14.377981 796.64294 1280.3556 4287465376
-11.981651 796.64294 1280.3556 4289044151
-19.097248 802.96198 1279.1434 4288317600
-21.484404 804.78699 1280.6823 4288122790
-19.097248 804.78699 1280.6823 4288122023
-16.710093 804.78699 1280.6823 4288516781
-14.322936 804.78699 1280.6823 4288844710
-11.93578 804.78699 1280.6823 4289108138
-19.038532 808.72467 1278.7704 4288122025
-16.658716 808.72467 1278.7704 4288911540
-14.278899 808.72467 1278.7704 4288846499
-21.418348 810.54407 1280.3044 4286807193
-19.038532 810.54407 1280.3044 4287003801
-16.658716 810.54407 1280.3044 4288517296
-14.278899 810.54407 1280.3044 4288452773
-21.335779 817.70892 1279.8054 4287069071
-18.965137 817.70892 1279.8054 4287070855
-16.594496 817.70892 1279.8054 4287531150
-14.223853 817.70892 1279.8054 4287203485
-11.853211 818.61511 1280.5696 4287994030
-43.992661 758.474 1282.1813 4285950336
-40.326607 758.474 1282.1813 4286543241
-36.660549 758.474 1282.1813 4286807182
-34.216515 758.474 1282.1813 4287069587
-31.772476 758.474 1282.1813 4287793053
-9.7761469 758.474 1282.1813 4282471767
-7.3321099 758.474 1282.1813 4288590516
-4.8880734 758.474 1282.1813 4290033615
-2.4440367 758.474 1282.1813 4291349475
-43.992661 760.34247 1283.7567 4285950336
-40.326607 760.34247 1283.7567 4286411400
-36.660549 760.34247 1283.7567 4287069587
-34.216515 760.34247 1283.7567 4287069584
-31.772476 760.34247 1283.7567 4287793307
-29.32844 760.34247 1283.7567 4287661974
-26.884403 760.34247 1283.7567 4287464594
-9.7761469 760.34247 1283.7567 4285226610
-7.3321099 760.34247 1283.7567 4289897913
-4.8880734 760.34247 1283.7567 4290887379
-2.4440367 760.34247 1283.7567 4291676639
-34.088074 764.95709 1281.1075 4286807441
-31.653212 764.95709 1281.1075 4287333785
-9.7394495 764.95709 1281.1075 4290818491
-7.3045874 764.95709 1281.1075 4291805386
-4.8697248 764.95709 1281.1075 4292135393
-36.522934 766.8186 1282.6771 4286872721
-34.088074 766.8186 1282.6771 4287004307
-31.653212 766.8186 1282.6771 4287530651
-29.218349 766.8186 1282.6771 4287925395
-25.566055 766.8186 1282.6771 4287399063
-13.391743 766.8186 1282.6771 4288057508
-9.7394495 766.8186 1282.6771 4291543256
-7.3045874 766.8186 1282.6771 4292201187
-4.8697248 766.8186 1282.6771 4291938534
-2.4348624 766.8186 1282.6771 4291806692
-36.3578 775.66467 1282.2877 4287200654
-33.933945 775.66467 1282.2877 4287201423
-31.510092 775.66467 1282.2877 4287398801
-29.086239 775.66467 1282.2877 4287858069
-21.814678 775.66467 1282.2877 4286610319
-19.390825 775.66467 1282.2877 4286807189
-2.4238532 775.66467 1282.2877 4291675104
-37.569725 777.5177 1283.8501 4286871690
-33.933945 777.5177 1283.8501 4287201673
-2.4238532 777.5177 1283.8501 4291478746
-33.805504 782.07483 1281.1523 4287397768
-31.390825 782.07483 1281.1523 4287463561
-28.976147 782.07483 1281.1523 4287924893
-26.561468 782.07483 1281.1523 4287924893
-13.280734 782.07483 1281.1523 4288783287
-9.6587152 782.07483 1281.1523 4290558930
-7.2440367 782.07483 1281.1523 4291348190
-4.8293576 782.07483 1281.1523 4291347676
-36.220184 783.9209 1282.709 4286806147
-33.805504 783.9209 1282.709 4287266434
-31.390825 783.9209 1282.709 4287463813
-26.561468 783.9209 1282.709 4288384161
-9.6587152 783.9209 1282.709 4290623699
-7.2440367 783.9209 1282.709 4291610594
-4.8293576 783.9209 1282.709 4291545051
-2.4146788 783.9209 1282.709 4291545051
-28.866055 790.2959 1281.5442 4287725982
-25.257797 790.2959 1281.5442 4288647585
-21.649542 790.2959 1281.5442 4286937213
-12.027523 790.2959 1281.5442 4289900230
-9.6220188 790.2959 1281.5442 4290755024
-7.2165136 790.2959 1281.5442 4291676126
-33.677063 792.13495 1283.0947 4286543744
-31.271559 792.13495 1283.0947 4287135882
-28.866055 792.13495 1283.0947 4287398297
-25.257797 792.13495 1283.0947 4288648363
-9.6220188 792.13495 1283.0947 4289702086
-7.2165136 792.13495 1283.0947 4289965001
-4.8110094 792.13495 1283.0947 4290423748
-28.755962 800.30701 1283.4451 4287201427
-26.359632 800.30701 1283.4451 4287859100
-22.765137 799.39099 1282.6726 4288122012
-19.170643 798.47498 1281.9003 4288317602
-16.774311 799.39099 1282.6726 4288251808
-14.377981 799.39099 1282.6726 4287859361
-11.182874 799.69629 1282.9302 4288451756
-26.258715 806.61194 1282.2211 4288583328
-22.677982 806.61194 1282.2211 4288188075
-10.742202 806.61194 1282.2211 4288912809
-31.033028 808.43701 1283.7599 4287396752
-28.645872 808.43701 1283.7599 4287530387
-26.258715 808.43701 1283.7599 4287661974
-23.871559 808.43701 1283.7599 4287004573
-10.742202 808.43701 1283.7599 4289373882
-7.161468 808.43701 1283.7599 4288913337
-26.177982 812.36346 1281.8385 4287989907
-22.608257 812.36346 1281.8385 4287201175
-19.038532 812.36346 1281.8385 4287332504
-16.658716 812.36346 1281.8385 4288122277
-14.278899 812.36346 1281.8385 4287860382
-10.709174 812.36346 1281.8385 4289307070
-7.1394496 812.36346 1281.8385 4290424537
-30.937614 814.18286 1283.3726 4287593866
-28.557798 814.18286 1283.3726 4287594134
-26.177982 814.18286 1283.3726 4287988892
-23.798164 814.18286 1283.3726 4287332756
-10.709174 814.18286 1283.3726 4289108919
-7.1394496 814.18286 1283.3726 4291674081
-28.447706 820.42749 1282.0977 4287528339
-26.077065 820.42749 1282.0977 4288712612
-22.521101 820.42749 1282.0977 4288582821
-18.965137 820.42749 1282.0977 4287007385
-16.594496 820.42749 1282.0977 4287007385
-14.223853 820.42749 1282.0977 4286942114
-10.667891 820.42749 1282.0977 4287795623
-7.1119266 820.42749 1282.0977 4291412438
-26.077065 822.23987 1283.6259 4288778144
-22.521101 822.23987 1283.6259 4288844712
-18.965137 822.23987 1283.6259 4287465889
-16.594496 822.23987 1283.6259 4287531682
-14.223853 822.23987 1283.6259 4287138212
-10.667891 822.23987 1283.6259 4287663011
-7.1119266 822.23987 1283.6259 4291675096
-4.7412844 822.23987 1283.6259 4291608286
-4.7229357 830.25482 1283.8436 4290820049
-49.06422 755.71381 1286.3942 4285226860
-46.611008 755.71381 1286.3942 4285885047
-29.438532 755.71381 1286.3942 4287923612
-25.758717 755.71381 1286.3942 4287332758
-22.078899 754.77606 1285.6035 4285886853
-19.625689 754.77606 1285.6035 4285164417
-17.172478 754.77606 1285.6035 4286282899
-13.492661 754.77606 1285.6035 4287401374
-9.8128443 753.83832 1284.8127 4291084504
-2.4532111 753.83832 1284.8127 4291808995
-46.436699 763.1452 1286.1199 4285688950
-43.992661 763.1452 1286.1199 4285884795
-40.326607 763.1452 1286.1199 4286411398
-36.660549 762.21094 1285.3322 4287134609
-29.32844 762.21094 1285.3322 4287794588
-25.662384 762.21094 1285.3322 4286742932
-21.99633 763.1452 1286.1199 4286149776
-19.552294 763.1452 1286.1199 4285624196
-17.108257 763.1452 1286.1199 4285361023
-13.442202 762.21094 1285.3322 4287989919
-2.4440367 762.21094 1285.3322 4291938014
-46.262386 770.5415 1285.8162 4285490552
-43.827522 770.5415 1285.8162 4285752702
-41.392662 769.61078 1285.0314 4286608266
-37.740364 769.61078 1285.0314 4286609804
-34.088074 769.61078 1285.0314 4286938513
-31.653212 769.61078 1285.0314 4287530650
-29.218349 769.61078 1285.0314 4287792024
-25.566055 768.68005 1284.2466 4288514976
-21.913761 770.5415 1285.8162 4288580761
-19.478899 769.61078 1285.0314 4288648101
-17.044037 769.61078 1285.0314 4287463827
-13.391743 768.68005 1284.2466 4287729311
-7.3045874 768.68005 1284.2466 4291544549
-4.8697248 768.68005 1284.2466 4291675876
-2.4348624 768.68005 1284.2466 4291610083
-41.205505 779.37079 1285.4126 4286738053
-37.569725 779.37079 1285.4126 4286674563
-2.4238532 779.37079 1285.4126 4291347676
-46.053211 781.22388 1286.9751 4285424494
-43.629356 781.22388 1286.9751 4285948539
-41.205505 781.22388 1286.9751 4286803848
-38.781651 781.22388 1286.9751 4286411389
0 781.22388 1286.9751 4291610587
-36.220184 785.76697 1284.2655 4286937996
-33.805504 785.76697 1284.2655 4286938498
-31.390825 785.76697 1284.2655 4287333256
-7.2440367 785.76697 1284.2655 4291478494
-4.8293576 785.76697 1284.2655 4290887641
-2.4146788 785.76697 1284.2655 4291151069
-36.220184 787.61298 1285.822 4287200654
-33.805504 787.61298 1285.822 4287004291
-31.390825 787.61298 1285.822 4287333256
-4.8293576 787.61298 1285.822 4291412186
-2.4146788 787.61298 1285.822 4291412186
-36.082569 793.974 1284.6454 4286871692
-33.677063 793.974 1284.6454 4286609537
-31.271559 793.974 1284.6454 4287201675
-28.866055 793.974 1284.6454 4287528854
-25.257797 793.974 1284.6454 4288647082
-9.6220188 793.974 1284.6454 4289570486
-7.2165136 793.974 1284.6454 4289372851
-4.8110094 793.974 1284.6454 4289503926
-36.082569 795.81299 1286.196 4286739852
-33.677063 795.81299 1286.196 4286543744
-31.271559 795.81299 1286.196 4287201675
-28.866055 795.81299 1286.196 4287135380
-26.46055 795.81299 1286.196 4287990688
-9.6220188 795.81299 1286.196 4288782001
-7.2165136 795.81299 1286.196 4287794850
-4.8110094 795.81299 1286.196 4288187036
-33.548622 803.97107 1286.5344 4286543242
-31.152294 803.05505 1285.7621 4286937999
-28.755962 803.05505 1285.7621 4287070091
-26.359632 802.13904 1284.9897 4288253854
-23.963303 802.13904 1284.9897 4288254376
-9.5853214 802.13904 1284.9897 4287926438
-7.1889906 803.05505 1285.7621 4285623936
-4.7926607 803.97107 1286.5344 4285426540
16.774311 803.97107 1286.5344 4291214305
-33.420185 811.17444 1286.0681 4287001990
-31.033028 810.26196 1285.2987 4287396752
-28.645872 810.26196 1285.2987 4287726735
-4.774312 811.17444 1286.0681 4290819774
-33.317432 817.82166 1286.4407 4287068803
-30.937614 816.91199 1285.6736 4287397768
-28.557798 816.00226 1284.9066 4287594134
-26.177982 816.00226 1284.9066 4288186014
-23.798164 816.00226 1284.9066 4287463059
-9.5192661 816.00226 1284.9066 4289043377
-7.1394496 816.00226 1284.9066 4291806683
-4.7596331 816.91199 1285.6736 4291608540
-2.3798165 817.82166 1286.4407 4289766343
-21.335779 824.05225 1285.1539 4287858596
-18.965137 824.05225 1285.1539 4286871951
-16.594496 824.05225 1285.1539 4287135380
-14.223853 824.05225 1285.1539 4287333274
-10.667891 824.05225 1285.1539 4287859876
-7.1119266 824.05225 1285.1539 4290886355
-4.7412844 824.05225 1285.1539 4290886107
-33.188992 825.86462 1286.6821 4287661444
-30.818348 825.86462 1286.6821 4287727237
-28.447706 825.86462 1286.6821 4287530639
-21.335779 825.86462 1286.6821 4287792803
-18.965137 825.86462 1286.6821 4286937744
-16.594496 825.86462 1286.6821 4287003793
-14.223853 825.86462 1286.6821 4287333272
-10.667891 825.86462 1286.6821 4287991206
-7.1119266 825.86462 1286.6821 4290951639
-4.7412844 825.86462 1286.6821 4290951637
-2.3706422 825.86462 1286.6821 4291017430
-9.4458714 832.06018 1285.366 4287794338
-7.0844035 832.06018 1285.366 4290623438
-4.7229357 832.96289 1286.1271 4290689231
-2.3614678 833.86554 1286.8882 4290886609
25.976147 833.86554 1286.8882 4291083991
28.337614 833.86554 1286.8882 4291280339
28.227524 838.22766 1284.026 4290952400
30.579817 838.22766 1284.026 4291215829
28.227524 840.026 1285.5424 4290491599
30.579817 840.026 1285.5424 4290886357
-49.06422 757.58936 1287.9755 4285227381
-46.611008 757.58936 1287.9755 4285687932
-24.53211 757.58936 1287.9755 4286610582
-22.078899 757.58936 1287.9755 4286281618
-19.625689 757.58936 1287.9755 4285361812
-17.172478 757.58936 1287.9755 4285427606
-13.492661 757.58936 1287.9755 4285163136
-49.06422 759.46484 1289.5569 4285360499
-51.324772 765.94794 1288.4832 4285161837
-48.880733 765.94794 1288.4832 4285227631
-46.436699 765.94794 1288.4832 4285622388
-43.992661 765.94794 1288.4832 4286016385
-21.99633 765.94794 1288.4832 4288975013
1.2220184 765.94794 1288.4832 4291479778
-46.262386 772.40302 1287.3857 4285555832
-43.827522 772.40302 1287.3857 4285948539
-41.392662 772.40302 1287.3857 4286803848
-38.957798 772.40302 1287.3857 4286476932
1.2174312 772.40302 1287.3857 4291544544
-46.262386 774.26447 1288.9552 4285555832
-43.827522 774.26447 1288.9552 4286014586
-41.392662 774.26447 1288.9552 4286803846
1.2174312 774.26447 1288.9552 4291413217
4.8697248 774.26447 1288.9552 4291544801
7.3045874 774.26447 1288.9552 4291544801
-46.053211 783.0769 1288.5375 4285751662
-43.629356 783.0769 1288.5375 4285883000
-41.205505 783.0769 1288.5375 4286738053
-38.781651 783.0769 1288.5375 4286477445
1.2119266 783.0769 1288.5375 4291742689
7.2715597 783.0769 1288.5375 4291347174
-45.878899 791.30505 1288.9351 4285819253
-43.464222 790.38202 1288.1567 4285819252
-41.049541 790.38202 1288.1567 4286345596
-37.829967 790.0744 1287.8973 4286542727
-2.4146788 790.38202 1288.1567 4291411154
13.683181 790.6897 1288.4161 4291413983
-36.082569 797.65204 1287.7466 4287330192
-33.677063 797.65204 1287.7466 4286872707
-31.271559 797.65204 1287.7466 4287333258
-7.2165136 797.65204 1287.7466 4287662498
-4.8110094 797.65204 1287.7466 4287794588
-64.948624 799.49109 1289.2972 4283977300
-40.893578 799.49109 1289.2972 4286343295
-37.285324 799.49109 1289.2972 4286672514
-33.677063 799.49109 1289.2972 4286543240
-4.8110094 799.49109 1289.2972 4285819501
-2.4055047 799.49109 1289.2972 4286345846
14.433027 799.49109 1289.2972 4291083998
-33.548622 805.80304 1288.0791 4286804359
-4.7926607 805.80304 1288.0791 4286809492
16.774311 805.80304 1288.0791 4291477731
-38.341286 807.63507 1289.6239 4286411139
-35.944954 807.63507 1289.6239 4286345346
-2.3963304 807.63507 1289.6239 4283845961
-38.194496 815.73694 1289.915 4286477949
-35.011623 814.52032 1288.8892 4286937731
-2.387156 813.91199 1288.3762 4288318884
0 815.73694 1289.915 4288121493
-38.077065 821.46045 1289.5088 4286609535
-34.507339 820.55072 1288.7417 4287004037
-30.937614 820.55072 1288.7417 4287398283
-28.557798 820.55072 1288.7417 4287726481
-26.177982 821.46045 1289.5088 4288254106
-23.798164 821.46045 1289.5088 4288253354
-2.3798165 820.55072 1288.7417 4290687957
0 821.46045 1289.5088 4290686664
23.798164 821.46045 1289.5088 4290888672
26.177982 821.46045 1289.5088 4289638861
-34.374313 827.677 1288.2102 4287988875
-30.818348 827.677 1288.2102 4288252559
-28.447706 827.677 1288.2102 4287661974
-18.965137 827.677 1288.2102 4288252830
-16.594496 827.677 1288.2102 4288384159
-14.223853 827.677 1288.2102 4288449954
-10.667891 827.677 1288.2102 4287661726
-7.1119266 827.677 1288.2102 4290623186
-2.3706422 827.677 1288.2102 4291017684
-40.300919 829.48938 1289.7384 4285885297
-37.930275 829.48938 1289.7384 4286805113
-34.374313 829.48938 1289.7384 4287397507
-30.818348 829.48938 1289.7384 4287924364
-14.223853 829.48938 1289.7384 4288582826
-11.853211 829.48938 1289.7384 4287661724
-2.3706422 829.48938 1289.7384 4291083989
26.077065 829.48938 1289.7384 4291083991
28.447706 829.48938 1289.7384 4291215575
23.614679 835.6709 1288.4104 4291018195
25.976147 835.6709 1288.4104 4291083989
25.976147 837.47626 1289.9326 4290821586
28.227524 841.82434 1287.0586 4290755028
30.579817 841.82434 1287.0586 4291017943
-51.710091 754.83624 1292.1943 4285162091
1.2311927 754.83624 1292.1943 4291610850
4.9247708 754.83624 1292.1943 4291676137
-51.517429 761.34033 1291.1383 4285490802
-49.06422 761.34033 1291.1383 4285556593
1.2266055 761.34033 1291.1383 4291677159
4.9064221 761.34033 1291.1383 4291742434
-56.423855 763.21582 1292.7196 4284569185
-53.970642 763.21582 1292.7196 4284372578
4.9064221 763.21582 1292.7196 4291808227
7.359633 763.21582 1292.7196 4291742434
9.8128443 763.21582 1292.7196 4291807198
-52.546791 767.81641 1290.0586 4284570733
-48.880733 767.81641 1290.0586 4285227381
1.2220184 767.81641 1290.0586 4291545057
4.8880734 767.81641 1290.0586 4292005088
7.3321099 767.81641 1290.0586 4292005088
-52.546791 769.68494 1291.634 4284768612
-48.880733 769.68494 1291.634 4285490039
4.8880734 769.68494 1291.634 4291544801
7.3321099 769.68494 1291.634 4291742436
9.7761469 769.68494 1291.634 4291874272
-48.697247 776.12592 1290.5248 4285424496
-46.262386 776.12592 1290.5248 4285490289
-43.827522 776.12592 1290.5248 4286211709
1.2174312 776.12592 1290.5248 4291347676
4.8697248 776.12592 1290.5248 4291150815
7.3045874 776.12592 1290.5248 4291479780
-51.132111 777.98743 1292.0944 4284899948
-48.697247 777.98743 1292.0944 4285424494
2.4348624 777.98743 1292.0944 4292071138
4.8697248 777.98743 1292.0944 4291610344
7.3045874 777.98743 1292.0944 4291676137
9.7394495 777.98743 1292.0944 4291545825
-46.053211 784.92993 1290.1 4285751662
-43.629356 784.92993 1290.1 4285752954
-41.205505 784.92993 1290.1 4286345348
-38.781651 784.92993 1290.1 4286411139
0 784.92993 1290.1 4291610083
-48.477066 786.78302 1291.6624 4285227114
-46.053211 786.78302 1291.6624 4285753458
1.2119266 786.78302 1291.6624 4291479267
4.8477063 786.78302 1291.6624 4290953695
7.2715597 786.78302 1291.6624 4291085537
9.6954126 786.78302 1291.6624 4291413474
12.119267 786.78302 1291.6624 4291610596
-48.293579 794.0741 1291.2698 4284962671
-45.878899 794.0741 1291.2698 4285883516
-43.464222 794.0741 1291.2698 4286146165
-41.049541 794.0741 1291.2698 4286211958
-38.634861 794.0741 1291.2698 4286212737
-2.4146788 794.0741 1291.2698 4289306544
7.2440367 794.99713 1292.0481 4291872741
9.6587152 794.99713 1292.0481 4291610333
13.280735 794.07416 1291.2699 4291544798
16.902752 793.15112 1290.4916 4291544542
-64.948624 801.33008 1290.8479 4283845461
-45.704586 803.16913 1292.3984 4285885047
-43.299084 802.24963 1291.6232 4285885050
-40.893578 802.24963 1291.6232 4286411651
-37.285324 802.24963 1291.6232 4286542719
-2.4055047 802.24963 1291.6232 4284506215
0 803.16913 1292.3984 4284304212
14.433027 802.24963 1291.6232 4291280097
-40.737614 809.46704 1291.1686 4286345598
-38.341286 809.46704 1291.1686 4286345598
-35.944954 809.46704 1291.1686 4286411391
-2.3963304 809.46704 1291.1686 4285752954
0 809.46704 1291.1686 4284567640
-45.530273 811.29907 1292.7133 4286211709
-43.133945 811.29907 1292.7133 4286211709
-40.737614 811.29907 1292.7133 4286803846
-38.341286 811.29907 1292.7133 4286477182
1.1981652 811.29907 1292.7133 4285227365
-40.58165 817.56201 1291.4539 4286870908
-38.194496 817.56201 1291.4539 4286543742
1.193578 817.56201 1291.4539 4287135350
4.774312 817.56201 1291.4539 4283452000
22.677982 817.56201 1291.4539 4291347937
-45.355965 819.38696 1292.9927 4286279804
-42.968807 819.38696 1292.9927 4286543994
-40.58165 819.38696 1292.9927 4286543994
2.387156 819.38696 1292.9927 4285357687
4.774312 819.38696 1292.9927 4284368471
21.484404 819.38696 1292.9927 4291478242
-40.456882 823.27979 1291.0428 4286936692
-38.077065 823.27979 1291.0428 4287067517
-35.697247 823.27979 1291.0428 4287528068
-26.177982 823.27979 1291.0428 4288385948
-23.798164 823.27979 1291.0428 4288450990
0 823.27979 1291.0428 4291016149
23.798164 823.27979 1291.0428 4290953949
26.177982 823.27979 1291.0428 4289243331
-45.216515 825.09918 1292.5769 4286737012
-42.836697 825.09918 1292.5769 4286606194
-40.456882 825.09918 1292.5769 4287000952
-38.077065 825.09918 1292.5769 4287198847
-26.177982 825.09918 1292.5769 4288714405
-22.608257 825.09918 1292.5769 4288714160
1.1899083 825.09918 1292.5769 4288845746
23.798164 825.09918 1292.5769 4290952669
26.177982 825.09918 1292.5769 4291083998
-55.403671 758.60126 1295.3689 4284503651
-51.710091 756.71875 1293.7816 4285425009
1.2311927 756.71875 1293.7816 4291413987
4.9247708 756.71875 1293.7816 4291413733
7.387156 757.66003 1294.5752 4291611108
9.8495417 758.60126 1295.3689 4291741921
-58.877064 766.02905 1295.0917 4284240476
-56.423855 766.02905 1295.0917 4284635491
9.8128443 765.09131 1294.301 4292005088
12.266055 766.9668 1295.8823 4291808479
-56.212845 772.48767 1293.9972 4284504932
-52.546791 772.48767 1293.9972 4284703075
-48.880733 771.55341 1293.2095 4285490039
9.7761469 772.48767 1293.9972 4291479518
-52.349541 779.84888 1293.6639 4284832357
-48.697247 779.84888 1293.6639 4285751662
4.8697248 779.84888 1293.6639 4291149795
9.7394495 779.84888 1293.6639 4291348194
12.174312 779.84888 1293.6639 4291808489
-52.349541 781.71033 1295.2334 4284963945
-48.697247 781.71033 1295.2334 4285751662
2.4348624 781.71033 1295.2334 4291939047
4.8697248 781.71033 1295.2334 4291149795
7.3045874 781.71033 1295.2334 4291215588
9.7394495 781.71033 1295.2334 4291413474
13.391743 781.71033 1295.2334 4291808485
-49.688992 788.63611 1293.2249 4285226347
1.2119266 788.63611 1293.2249 4291807450
4.8477063 788.63611 1293.2249 4291742173
7.2715597 788.63611 1293.2249 4291939295
9.6954126 788.63611 1293.2249 4291348192
-50.900917 790.48914 1294.7874 4285093732
1.2119266 790.48914 1294.7874 4290424525
4.8477063 790.48914 1294.7874 4291215579
7.2715597 790.48914 1294.7874 4291544288
9.6954126 790.48914 1294.7874 4291282398
-48.293579 796.8432 1293.6047 4285226860
-45.878899 796.8432 1293.6047 4285621875
-43.464222 796.8432 1293.6047 4286014586
1.2073394 796.8432 1293.6047 4286805899
4.8293576 796.8432 1293.6047 4289698740
7.2440367 796.8432 1293.6047 4292067288
9.6587152 796.8432 1293.6047 4291740647
12.073395 796.8432 1293.6047 4291806696
-49.500916 798.68921 1295.1613 4285358701
-45.878899 798.68921 1295.1613 4285490287
1.2073394 798.68921 1295.1613 4286148975
4.8293576 798.68921 1295.1613 4286609313
7.2440367 798.68921 1295.1613 4291214823
9.6587152 798.68921 1295.1613 4292003823
12.073395 798.68921 1295.1613 4292201202
-48.911926 806.23419 1294.9829 4285291115
-45.704586 805.92767 1294.7244 4286211709
-43.299084 805.92767 1294.7244 4285885045
-40.893578 805.00818 1293.9491 4286740353
1.6036698 805.62115 1294.4659 4283911772
4.8110094 805.92767 1294.7244 4283914336
7.2165136 805.92767 1294.7244 4287467157
14.433027 805.00818 1293.9491 4291610335
16.838531 805.00818 1293.9491 4291478748
19.244038 805.00818 1293.9491 4291347678
-52.719265 814.96313 1295.8027 4285293157
-50.322937 814.96313 1295.8027 4285358950
-46.329052 814.35248 1295.2877 4285948530
-43.133945 814.04712 1295.0303 4286344311
-40.737614 813.1311 1294.2579 4286804352
2.3963304 813.1311 1294.2579 4284042328
4.7926607 813.1311 1294.2579 4283189331
7.1889906 814.96313 1295.8027 4284109931
14.377981 814.04712 1295.0303 4291544545
16.774311 814.04712 1295.0303 4291610082
19.170643 814.04712 1295.0303 4290887132
21.566973 813.1311 1294.2579 4291150817
-46.549541 821.21198 1294.5314 4286540151
-42.968807 821.21198 1294.5314 4286870899
2.387156 821.21198 1294.5314 4285884295
4.774312 821.21198 1294.5314 4284173929
21.484404 821.21198 1294.5314 4291412699
-46.406422 826.91858 1294.111 4285620075
-42.836697 826.91858 1294.111 4285753710
-19.038532 826.91858 1294.111 4289173161
-16.658716 826.91858 1294.111 4289173161
1.1899083 826.91858 1294.111 4289241271
23.798164 826.91858 1294.111 4291018197
-46.406422 828.73798 1295.645 4283912025
0 828.73798 1295.645 4290887377
22.608257 828.73798 1295.645 4290951895
22.521101 835.83264 1295.0869 4290886613
26.077065 836.73889 1295.851 4290952402
9.8862381 753.9726 1298.0062 4291545823
-59.097248 760.48376 1296.9562 4284569185
12.311927 762.36627 1298.5435 4292202724
-58.877064 768.84229 1297.4637 4284175196
12.266055 768.84229 1297.4637 4291808481
-61.100918 775.29034 1296.3604 4284372057
-58.656879 775.29034 1296.3604 4284175196
-56.212845 775.29034 1296.3604 4284240989
-53.768806 775.29034 1296.3604 4284176226
12.220183 775.29034 1296.3604 4291874534
-63.544952 777.15887 1297.9358 4284043606
-61.100918 777.15887 1297.9358 4284240985
-58.656879 777.15887 1297.9358 4284437850
-56.212845 777.15887 1297.9358 4284569437
-56.001835 784.50256 1297.5878 4284634206
-52.755352 784.19232 1297.3262 4284831589
-63.020184 794.19525 1297.9122 4284238418
-55.748623 794.19525 1297.9122 4285028191
-53.324772 793.26868 1297.131 4284831330
-50.900917 793.26868 1297.131 4285226344
1.2119266 792.34216 1296.3497 4290226631
4.8477063 792.34216 1296.3497 4290951639
-67.611008 800.53528 1296.7178 4283714645
-65.196327 800.53528 1296.7178 4283780438
-53.122936 800.53528 1296.7178 4284437850
-49.500916 800.53528 1296.7178 4285292906
2.4146788 800.53528 1296.7178 4284896605
4.8293576 800.53528 1296.7178 4285490289
7.2440367 800.53528 1296.7178 4290161592
9.6587152 800.53528 1296.7178 4290426077
12.073395 800.53528 1296.7178 4291741680
-67.611008 802.38135 1298.2743 4283714132
-65.196327 802.38135 1298.2743 4283911254
-62.781651 802.38135 1298.2743 4284108886
-57.952293 802.38135 1298.2743 4284633181
-55.537613 802.38135 1298.2743 4285291111
-53.122936 802.38135 1298.2743 4285225313
-50.708256 802.38135 1298.2743 4285291363
9.6587152 802.38135 1298.2743 4289437644
12.073395 802.38135 1298.2743 4292003827
-57.732109 808.68622 1297.0503 4284633181
-55.326607 808.68622 1297.0503 4284896353
-52.921101 808.68622 1297.0503 4285027939
-49.312843 808.68622 1297.0503 4285356652
4.8110094 808.68622 1297.0503 4283782235
7.2165136 808.68622 1297.0503 4285690232
14.433027 808.68622 1297.0503 4291544290
16.838531 808.68622 1297.0503 4291412703
-64.948624 810.52527 1298.601 4284174933
-57.732109 810.52527 1298.601 4284896353
-55.326607 810.52527 1298.601 4285093732
-52.921101 810.52527 1298.601 4285093732
-49.312843 810.52527 1298.601 4285619307
7.2165136 810.52527 1298.601 4284242019
9.6220188 810.52527 1298.601 4285753988
12.027523 810.52527 1298.601 4291017684
-62.304588 816.79517 1297.3474 4283911254
-57.511925 817.71118 1298.1198 4284962146
-55.115597 817.71118 1298.1198 4285488490
-52.719265 817.71118 1298.1198 4285227622
-50.322937 817.71118 1298.1198 4285359209
-47.926605 816.79517 1297.3474 4285556082
7.1889906 817.71118 1298.1198 4284501604
10.783486 817.71112 1298.1198 4287005079
14.377981 817.71118 1298.1198 4290557903
16.774311 817.71118 1298.1198 4291413212
-52.517429 824.862 1297.609 4285293159
-50.130276 824.862 1297.609 4285293159
-47.743118 823.03699 1296.0702 4286210412
4.774312 823.94946 1296.8396 4284767085
14.322936 824.862 1297.609 4289833672
21.484404 823.94946 1296.8396 4291149530
0 830.55737 1297.1791 4290622924
23.706423 838.55127 1297.3792 4290557646
26.077065 838.55127 1297.3792 4290557646
28.447706 838.55127 1297.3792 4290426828
26.077065 840.36365 1298.9072 4290622924
28.447706 840.36365 1298.9072 4290623436
-59.317432 755.86212 1299.5995 4284305758
-61.559631 764.24878 1300.1307 4284109399
-64.022018 766.13135 1301.718 4283977048
-61.559631 766.13135 1301.718 4284174683
-61.330276 770.71783 1299.0452 4284306012
-58.877064 770.71783 1299.0452 4283978844
12.266055 770.71783 1299.0452 4291742947
-63.783485 772.59332 1300.6265 4284108886
-61.100918 779.02734 1299.5114 4284109399
-58.656879 779.02734 1299.5114 4284306012
-56.212845 779.02734 1299.5114 4284635234
-63.544952 780.89581 1301.0868 4284043606
-61.100918 780.89581 1301.0868 4284109399
-58.656879 780.89581 1301.0868 4284108886
-58.436699 787.2948 1299.942 4284437850
-56.001835 787.2948 1299.942 4284569437
-53.566971 787.2948 1299.942 4284962146
-63.306423 789.15625 1301.5116 4284304216
-60.871559 789.15625 1301.5116 4284633181
-58.436699 789.15625 1301.5116 4284633433
-56.001835 789.15625 1301.5116 4284830812
-63.020184 796.97485 1300.2559 4283911765
-60.596329 797.90137 1301.0371 4284175192
-58.172478 796.97485 1300.2559 4284370779
-55.748623 796.97485 1300.2559 4284765537
-53.324772 796.04828 1299.4746 4284635234
-65.196327 805.15039 1300.6091 4284239697
-61.976757 805.45801 1300.8685 4284240472
-57.952293 804.22736 1299.8308 4284764767
-55.537613 804.22736 1299.8308 4285093732
-53.122936 804.22736 1299.8308 4285093984
9.6587152 805.15039 1300.6091 4287136161
12.878288 804.84271 1300.3497 4291281377
16.902752 804.22736 1299.8308 4291281633
19.31743 805.15039 1300.6091 4291281885
21.732111 806.07336 1301.3873 4291413472
-64.948624 812.36426 1300.1516 4284504157
-61.340366 812.36426 1300.1516 4284371805
-57.732109 812.36426 1300.1516 4284569185
-55.326607 812.36426 1300.1516 4284963943
9.6220188 812.36426 1300.1516 4284702581
12.027523 812.36426 1300.1516 4290163400
-67.354126 814.20331 1301.7021 4284175192
-64.948624 814.20331 1301.7021 4284240985
-60.137615 814.20331 1301.7021 4284174683
19.244038 814.20331 1301.7021 4291083741
-62.304588 820.45917 1300.4368 4285420900
-58.710091 820.45917 1300.4368 4285815914
-55.115597 820.45917 1300.4368 4285881964
-52.719265 820.45917 1300.4368 4285817705
-50.322937 820.45917 1300.4368 4285883498
7.1889906 820.45917 1300.4368 4284371551
10.783486 820.45917 1300.4368 4286676109
14.377981 820.45917 1300.4368 4289439429
-62.304588 822.2912 1301.9814 4285225318
-58.710091 822.2912 1301.9814 4285488489
-55.115597 822.2912 1301.9814 4285685868
7.1889906 822.2912 1301.9814 4283780966
10.783486 822.2912 1301.9814 4286347658
16.774311 822.2912 1301.9814 4291281118
19.170643 822.2912 1301.9814 4291149784
-52.517429 826.68701 1299.1478 4284109147
-50.130276 826.68701 1299.1478 4284109147
2.387156 826.68701 1299.1478 4287334299
4.774312 826.68701 1299.1478 4285557879
14.322936 826.68701 1299.1478 4290096582
16.710093 826.68701 1299.1478 4291017684
-50.130276 828.51196 1300.6866 4284044389
14.322936 828.51196 1300.6866 4290491840
16.710093 828.51196 1300.6866 4290952391
21.484404 828.51196 1300.6866 4291083227
-64.260551 761.5307 1304.379 4283912277
-61.78899 759.64117 1302.7859 4284371805
-64.022018 768.01379 1303.3053 4283582290
-63.783485 776.34436 1303.7893 4284043606
-63.544952 782.76428 1302.6622 4284174679
-61.100918 782.76428 1302.6622 4284306264
-58.656879 782.76428 1302.6622 4284567388
-63.544952 784.63281 1304.2377 4284174679
-61.100918 784.63281 1304.2377 4284372057
-60.871559 791.0177 1303.0812 4284764762
-58.436699 791.0177 1303.0812 4284633433
-60.871559 792.87921 1304.6508 4284371805
-60.596329 799.75439 1302.5996 4284306264
-67.867889 801.60742 1304.162 4283909708
-60.596329 801.60742 1304.162 4284372057
-67.611008 809.7655 1304.5005 4284109399
-61.57431 807.91943 1302.9438 4284830298
-67.354126 816.96185 1304.0281 4284503646
-64.948624 817.88135 1304.8035 4284635230
-61.340366 816.04236 1303.2528 4284830560
16.838531 817.88135 1304.8035 4290952669
19.244038 816.96185 1304.0281 4291017944
-62.304588 824.12317 1303.5262 4284569185
-57.511925 824.12317 1303.5262 4284503144
-55.115597 824.12317 1303.5262 4284568937
7.1889906 824.12317 1303.5262 4284242019
10.783486 824.12317 1303.5262 4286610065
19.170643 824.12317 1303.5262 4290885592
-64.546791 756.37109 1307.8767 4284108634
-66.732109 763.42023 1305.9723 4283911756
-66.732109 765.30975 1307.5654 4284108886
-67.867889 803.46051 1305.7245 4283911756
-67.867889 805.3136 1307.2869 4284043091
-65.196327 813.45758 1307.6135 4284437599
-67.354126 819.7204 1306.354 4284569698
-64.948624 820.63989 1307.1294 4284636522
-60.137615 821.55945 1307.9047 4284569185
-57.511925 825.9552 1305.0709 4284503405
-55.115597 825.9552 1305.0709 4284569198
-52.719265 825.9552 1305.0709 4284110183
2.3963304 825.9552 1305.0709 4287596446
4.7926607 825.9552 1305.0709 4285426042
10.783486 825.9552 1305.0709 4286742166
14.377981 827.78723 1306.6156 4290557383
19.170643 825.9552 1305.0709 4290819799
-67.029358 758.26904 1309.4771 4283846481
-61.340366 823.39844 1309.4553 4284044640
7.2165136 823.39844 1309.4553 4284044389
-70.025688 818.99573 1312.2831 4285622140
-67.611008 818.99573 1312.2831 4285097591
-70.025688 820.84174 1313.8396 4285360768
-67.611008 820.84174 1313.8396 4285098876
-65.196327 820.84174 1313.8396 4283980139
-57.732109 825.23749 1311.006 4284373102
-55.326607 826.15698 1311.7812 4284504689
9.6220188 825.23749 1311.006 4284899948
12.027523 825.23749 1311.006 4289044907
16.838531 825.23749 1311.006 4290952141
19.244038 825.23749 1311.006 4290228432
-67.611008 823.61078 1316.1746 4286876056
-65.196327 823.61078 1316.1746 4285428354
-61.171864 823.30304 1315.9152 4284309095
7.2440367 822.68774 1315.3962 4284635243
9.6587152 824.53381 1316.9528 4285295476
13.280734 824.53381 1316.9528 4289899707
16.902752 824.53381 1316.9528 4291082957
19.31743 824.53381 1316.9528 4290820051
21.732111 826.37988 1318.5093 4290885842
-63.020184 821.99109 1321.3489 4285097841
-67.867889 823.84412 1322.9114 4288517294
-65.444038 823.84412 1322.9114 4286806932
-58.436699 818.93982 1326.6244 4284504690
7.3045874 818.93982 1326.6244 4283782765
-60.871559 820.80127 1328.1938 4285161587
13.391743 820.80127 1328.1938 4290295231
17.044037 820.80127 1328.1938 4290689998
19.478899 820.80127 1328.1938 4290820049
19.478899 822.66278 1329.7634 4290820301
21.913761 822.66278 1329.7634 4290886094
24.348623 822.66278 1329.7634 4290820047
-53.970642 811.97882 1333.8353 4284308075
-63.544952 818.26556 1332.5959 4286082689
9.7761469 818.26556 1332.5959 4286150520
13.442202 820.13403 1334.1714 4290886605
17.108257 820.13403 1334.1714 4290886344
7.359633 815.72986 1336.998 4284967286
17.108257 822.93677 1336.5345 4290688974
19.552294 822.93677 1336.5345 4290885583
21.99633 822.93677 1336.5345 4290951376
25.662384 822.00256 1335.7468 4290951119
9.8128443 817.60535 1338.5795 4286478479
-67.463303 819.48083 1340.1609 4288651710
-63.783485 819.48083 1340.1609 4287337649
13.492661 819.48083 1340.1609 4291214026
17.108257 826.67371 1339.6855 4290623187
19.552294 826.67371 1339.6855 4290623691
-67.715599 815.07666 1342.9875 4288057522
-64.022018 815.07666 1342.9875 4285691036
-61.559631 815.07666 1342.9875 4285099156
-59.097248 814.13538 1342.1938 4285162874
7.387156 815.07666 1342.9875 4285230463
13.492661 821.35632 1341.7422 4290819795
9.8128443 823.23181 1343.3236 4291148237
13.492661 823.23181 1343.3236 4290688204
19.552294 829.47644 1342.0487 4290623949
-17.377981 800.0238 1344.6836 4289304498
-54.374313 808.76892 1344.2091 4284766830
4.943119 808.76892 1344.2091 4285098624
-56.845871 810.65845 1345.8022 4284899446
4.943119 810.65845 1345.8022 4285362044
-66.484406 818.84167 1346.1621 4288913846
-64.022018 818.84167 1346.1621 4288387771
-61.559631 817.90045 1345.3684 4287336365
-59.097248 816.95923 1344.5748 4286350227
9.8495417 817.90045 1345.3684 4289700021
9.8128443 826.0451 1345.6957 4291017682
13.492661 826.0451 1345.6957 4290820562
17.172478 826.98285 1346.4863 4290688979
-24.917431 797.46002 1349.062 4288972182
-22.425688 797.46002 1349.062 4289630369
-19.933945 797.46002 1349.062 4288909740
-13.704587 797.46002 1349.062 4288452007
-9.9669724 797.46002 1349.062 4288254887
-7.4752293 797.46002 1349.062 4290491849
-52.133945 803.8197 1347.8842 4284308075
2.4825687 805.71765 1349.4845 4287990952
-56.845871 812.54797 1347.3955 4284702835
4.943119 812.54797 1347.3955 4285427585
-55.610092 814.4375 1348.9886 4285295228
4.943119 814.4375 1348.9886 4286874242
7.4146791 814.4375 1348.9886 4287729295
-64.022018 820.72424 1347.7494 4289439427
-61.559631 820.72424 1347.7494 4288847290
-59.097248 820.72424 1347.7494 4287862441
7.387156 820.72424 1347.7494 4291013557
-61.559631 822.60675 1349.3367 4289111484
7.387156 822.60675 1349.3367 4291476187
7.359633 830.73383 1349.649 4290689485
9.8128443 829.79608 1348.8584 4290623697
13.492661 828.85834 1348.0677 4290623439
-25.009174 792.98425 1351.8285 4289567156
-22.508257 792.98425 1351.8285 4289632949
-24.917431 799.36499 1350.6682 4287331178
-22.425688 799.36499 1350.6682 4288318073
-19.933945 799.36499 1350.6682 4288515499
-17.442202 799.36499 1350.6682 4289173430
-13.704587 799.36499 1350.6682 4288714663
-9.9669724 799.36499 1350.6682 4288320933
-7.4752293 799.36499 1350.6682 4290228930
-4.9834862 799.36499 1350.6682 4290689481
-2.4917431 799.36499 1350.6682 4290755530
-49.834862 801.26996 1352.2744 4284373602
-22.425688 801.26996 1352.2744 4284505190
-17.442202 801.26996 1352.2744 4286739352
-13.704587 801.26996 1352.2744 4288514453
-9.9669724 801.26996 1352.2744 4288649384
-7.4752293 801.26996 1352.2744 4290360002
-4.9834862 801.26996 1352.2744 4290622672
-2.4917431 801.26996 1352.2744 4290885844
2.4917431 801.26996 1352.2744 4287793573
4.9834862 801.26996 1352.2744 4285753725
-54.616512 808.56458 1351.885 4284832112
-52.133945 808.56458 1351.885 4284700525
-49.651375 807.6156 1351.0848 4284831852
-17.377981 809.51355 1352.6851 4285227131
-13.240367 808.88086 1352.1517 4286083459
-9.930275 809.51355 1352.6851 4286806939
-7.4477062 808.56458 1351.885 4290161606
-4.9651375 808.56458 1351.885 4290687430
-2.4825687 808.56458 1351.885 4291081932
2.4825687 808.56458 1351.885 4287596198
-59.317432 816.32703 1350.5819 4287270043
-55.610092 817.27185 1351.3784 4286282639
-51.902752 818.21655 1352.175 4286282896
-49.431194 818.21655 1352.175 4286018693
4.943119 817.27179 1351.3784 4289172633
7.4146791 816.32703 1350.5819 4289437342
7.387156 824.48926 1350.924 4291214032
-64.022018 826.37177 1352.5112 4290031819
-61.559631 826.37177 1352.5112 4289439681
7.387156 826.37177 1352.5112 4290951887
-27.510092 794.89624 1353.4406 4287263619
-50.018349 796.80823 1355.0527 4284240989
-30.011009 796.80823 1355.0527 4284503394
-27.510092 796.80823 1355.0527 4285358703
-52.326607 803.17493 1353.8806 4284635243
-49.834862 803.17493 1353.8806 4284635493
-17.442202 803.17493 1353.8806 4286213003
-13.704587 803.17493 1353.8806 4287530124
-9.9669724 803.17493 1353.8806 4288780200
-7.4752293 803.17493 1353.8806 4290622404
-4.9834862 803.17493 1353.8806 4290951637
-2.4917431 803.17493 1353.8806 4291017430
0 803.17493 1353.8806 4290491086
-17.442202 805.07983 1355.4868 4285227131
-14.950459 805.07983 1355.4868 4285227631
-9.9669724 805.07983 1355.4868 4288187038
0 805.07983 1355.4868 4290426578
-52.133945 811.4115 1354.2854 4285293174
-49.651375 811.4115 1354.2854 4285293174
-17.377981 811.4115 1354.2854 4285555832
-13.654128 811.4115 1354.2854 4285359998
-9.930275 811.4115 1354.2854 4285952648
-7.4477062 811.4115 1354.2854 4287926438
-4.9651375 811.4115 1354.2854 4288712610
-2.4825687 811.4115 1354.2854 4290752194
1.2412844 811.4115 1354.2854 4288911288
-52.133945 813.30945 1355.8857 4284900219
-49.651375 813.30945 1355.8857 4285031285
-47.168808 813.30945 1355.8857 4284899698
-44.686237 813.30945 1355.8857 4285161587
-17.377981 813.30945 1355.8857 4285950336
-13.654128 813.30945 1355.8857 4285425791
-9.930275 813.30945 1355.8857 4286082689
-7.4477062 813.30945 1355.8857 4287924893
-4.9651375 813.30945 1355.8857 4288646552
-2.4825687 813.30945 1355.8857 4290028205
1.2412844 813.30945 1355.8857 4288910505
-66.732109 820.10608 1353.7683 4290098127
-64.260551 821.05084 1354.5649 4289769416
-61.78899 821.99561 1355.3615 4289111745
-59.317432 821.05084 1354.5649 4288717500
-55.610092 821.05078 1354.5649 4287796393
-51.902752 821.05084 1354.5649 4286808981
-49.431194 820.10608 1353.7683 4286741389
-2.4715595 821.05084 1354.5649 4288911011
4.943119 821.05084 1354.5649 4290357957
-64.022018 828.25427 1354.0985 4289900232
4.9247708 828.25427 1354.0985 4290623436
-30.980429 791.17963 1358.1549 4286146938
-27.631193 789.89935 1357.0754 4289304496
-30.011009 798.72021 1356.6648 4284505190
-27.510092 799.67615 1357.4709 4284439398
-25.009174 799.67615 1357.4709 4284439148
-22.508257 800.63214 1358.277 4284833399
-20.007339 799.67615 1357.4709 4285028988
0 798.72021 1356.6648 4290359500
-49.834862 806.98486 1357.093 4284700784
-24.917431 806.98486 1357.093 4285490289
-22.425688 806.98486 1357.093 4285358703
-19.933945 806.98486 1357.093 4285227131
0 806.98486 1357.093 4290687699
-47.343121 808.88977 1358.6993 4285161587
-43.605507 808.88977 1358.6993 4284833905
-32.392662 808.88977 1358.6993 4285097328
-24.917431 808.88977 1358.6993 4285490039
-22.425688 808.88977 1358.6993 4285424246
-19.933945 808.88977 1358.6993 4285490039
-47.168808 815.2074 1357.486 4285295226
-44.686237 815.2074 1357.486 4285227129
-19.86055 815.2074 1357.486 4285950588
-17.377981 815.2074 1357.486 4285884795
-13.654128 815.2074 1357.486 4285358967
-9.930275 815.2074 1357.486 4285752954
-7.4477062 815.2074 1357.486 4287134607
-4.9651375 815.2074 1357.486 4287593352
-2.4825687 815.2074 1357.486 4288119697
1.2412844 815.2074 1357.486 4288382117
-59.317432 823.88513 1356.9547 4289111484
-55.610092 823.88513 1356.9547 4288453297
-51.902752 823.88513 1356.9547 4286874522
-49.431194 823.88513 1356.9547 4287464855
-2.4715595 823.88513 1356.9547 4290754506
4.943119 823.88513 1356.9547 4290820301
-61.78899 825.77466 1358.5479 4289702597
-59.317432 825.77466 1358.5479 4289439431
-55.610092 825.77466 1358.5479 4288650426
-51.902752 825.77466 1358.5479 4287730090
-49.431194 825.77466 1358.5479 4287728543
-2.4715595 825.77466 1358.5479 4290493635
22.970642 759.07538 1359.8622 4291676126
-46.470642 793.74011 1360.314 4284373090
-37.678898 793.74011 1360.314 4284176480
-35.166973 793.74011 1360.314 4284372578
-32.655045 793.74011 1360.314 4284240735
-46.470642 795.66052 1361.9331 4284373603
-42.702751 795.66052 1361.9331 4284439397
-40.190826 795.66052 1361.9331 4284373602
-37.678898 795.66052 1361.9331 4284439395
-35.166973 795.66052 1361.9331 4284635493
-32.655045 795.66052 1361.9331 4284701286
-46.266972 802.54413 1359.889 4284766569
-42.515594 802.54413 1359.889 4284833129
-40.014679 802.54413 1359.889 4284636777
-35.012844 802.54413 1359.889 4284636777
-31.261467 802.54413 1359.889 4284833386
-27.510092 802.54413 1359.889 4285030251
-25.009174 802.54413 1359.889 4285424246
-22.508257 802.54413 1359.889 4285424246
-20.007339 802.54413 1359.889 4285227131
45.016514 802.54413 1359.889 4290886357
-46.266972 804.45612 1361.5012 4284832625
-42.515594 804.45612 1361.5012 4284964208
-40.014679 804.45612 1361.5012 4284702570
-37.51376 804.45612 1361.5012 4284636777
-35.012844 804.45612 1361.5012 4284834155
-31.261467 804.45612 1361.5012 4285096558
-27.510092 804.45612 1361.5012 4285161837
42.515594 804.45612 1361.5012 4291017680
45.016514 804.45612 1361.5012 4290886609
-42.359634 811.74719 1361.1086 4285161590
-39.867889 811.74719 1361.1086 4285293174
-37.376148 812.69971 1361.9117 4285490552
-34.884403 811.74719 1361.1086 4285359220
-32.392662 811.74719 1361.1086 4285359220
-28.655045 811.74719 1361.1086 4285490039
-24.917431 811.74719 1361.1086 4285817977
-22.425688 811.74719 1361.1086 4285949307
-19.933945 810.79474 1360.3055 4285752956
-47.168808 817.10535 1359.0863 4285754238
-43.444954 817.10535 1359.0863 4285621887
-27.308256 817.10535 1359.0863 4286278008
-24.825687 817.10535 1359.0863 4286343549
-19.86055 817.10535 1359.0863 4285687932
-17.377981 817.10535 1359.0863 4285293174
-13.654128 817.10535 1359.0863 4286343551
-9.930275 817.10535 1359.0863 4286935420
-7.4477062 817.10535 1359.0863 4287132799
-4.9651375 817.10535 1359.0863 4287463048
1.2412844 817.10535 1359.0863 4288449709
-49.651375 819.0033 1360.6866 4287595929
-47.168808 819.0033 1360.6866 4286477447
-43.444954 819.0033 1360.6866 4285884795
-39.7211 819.0033 1360.6866 4285885056
-37.238533 819.0033 1360.6866 4285753727
-34.755962 819.0033 1360.6866 4285687680
-32.273396 819.0033 1360.6866 4285753729
-28.549541 819.0033 1360.6866 4286343801
-24.825687 819.0033 1360.6866 4286344314
-22.343119 819.0033 1360.6866 4286081143
-19.86055 819.0033 1360.6866 4285227631
-17.377981 819.0033 1360.6866 4285556595
-13.654128 819.0033 1360.6866 4288448659
-9.930275 819.0033 1360.6866 4290225850
-7.4477062 819.0033 1360.6866 4289765299
-4.9651375 819.0033 1360.6866 4289569203
1.2412844 819.0033 1360.6866 4290358718
-61.78899 827.66418 1360.1411 4289111997
-59.317432 827.66418 1360.1411 4289242566
-55.610092 827.66418 1360.1411 4288453813
2.4715595 827.66418 1360.1411 4290623939
-56.845871 829.55371 1361.7343 4287269809
20.491743 756.43451 1364.1755 4291610333
25.614679 756.43451 1364.1755 4291412703
28.176147 756.43451 1364.1755 4291675876
30.737616 756.43451 1364.1755 4291676380
22.970642 762.97791 1363.1527 4291347678
-45.379818 789.25598 1363.0731 4283518295
-42.858715 790.21967 1363.8857 4283979103
-40.337616 791.18335 1364.6982 4284176480
-37.816513 789.25598 1363.0731 4284176226
-35.295414 789.25598 1363.0731 4284306783
-46.470642 797.58093 1363.5524 4284504677
-42.702751 797.58093 1363.5524 4284505190
-40.190826 797.58093 1363.5524 4284505188
-37.678898 797.58093 1363.5524 4284439395
-35.166973 797.58093 1363.5524 4284439397
-31.399082 797.58093 1363.5524 4284636777
42.702751 797.58093 1363.5524 4290951635
-40.014679 806.36804 1363.1133 4284570734
-37.51376 806.36804 1363.1133 4284899698
-35.012844 806.36804 1363.1133 4284899948
-30.011009 806.36804 1363.1133 4285227381
42.515594 806.36804 1363.1133 4291016910
-37.51376 808.28003 1364.7255 4285293174
-39.867889 814.60468 1363.5179 4285622138
-37.376148 814.60468 1363.5179 4285622138
-34.884403 814.60468 1363.5179 4285622138
-32.392662 814.60468 1363.5179 4285556345
-29.900917 814.60468 1363.5179 4286146165
-22.425688 814.60468 1363.5179 4286804100
-47.168808 820.90125 1362.2869 4287004304
-43.444954 820.90125 1362.2869 4286148730
-39.7211 820.90125 1362.2869 4286082687
-37.238533 820.90125 1362.2869 4285885308
-34.755962 820.90125 1362.2869 4285950853
-32.273396 820.90125 1362.2869 4286411404
-28.549541 820.90125 1362.2869 4286016633
-24.825687 820.90125 1362.2869 4285885047
-22.343119 820.90125 1362.2869 4285556082
-19.86055 820.90125 1362.2869 4286803566
-17.377981 820.90125 1362.2869 4287922304
-13.654128 820.90125 1362.2869 4291080102
-9.930275 820.90125 1362.2869 4291213262
-7.4477062 820.90125 1362.2869 4290686662
-4.9651375 820.90125 1362.2869 4290754506
1.2412844 820.90125 1362.2869 4290952137
-47.168808 822.79913 1363.8872 4287333785
-43.444954 822.79913 1363.8872 4286150018
-39.7211 822.79913 1363.8872 4285886593
-37.238533 822.79913 1363.8872 4285623422
-34.755962 822.79913 1363.8872 4285555834
-32.273396 822.79913 1363.8872 4285621627
-28.549541 822.79913 1363.8872 4285358700
-24.825687 822.79913 1363.8872 4284701286
-22.343119 822.79913 1363.8872 4285030251
-19.86055 822.79913 1363.8872 4287854460
-17.377981 822.79913 1363.8872 4290946731
-13.654128 822.79913 1363.8872 4291606723
-9.930275 822.79913 1363.8872 4290886609
-7.4477062 822.79913 1363.8872 4290755024
-4.9651375 822.79913 1363.8872 4290493635
1.2412844 822.79913 1363.8872 4290624970
20.491743 758.39276 1365.8267 4291741153
23.053211 758.39276 1365.8267 4291543774
25.614679 758.39276 1365.8267 4291281631
28.176147 758.39276 1365.8267 4291610596
30.737616 758.39276 1365.8267 4291611100
33.299084 758.39276 1365.8267 4291545051
25.614679 760.35107 1367.4779 4291478244
28.176147 760.35107 1367.4779 4291675624
30.737616 760.35107 1367.4779 4291610333
33.299084 760.35107 1367.4779 4291610333
40.660549 775.8443 1366.1531 4282928486
40.660549 777.78717 1367.7913 4281945188
42.858715 793.11072 1366.3234 4291081942
37.816513 795.03815 1367.9485 4290755028
40.337616 795.03815 1367.9485 4290885842
-37.678898 799.50128 1365.1716 4284570984
42.702751 799.50128 1365.1716 4290886609
40.190826 801.42169 1366.7908 4290951887
-52.133945 824.69708 1365.4874 4287599524
-49.651375 824.69708 1365.4874 4287269791
-47.168808 824.69708 1365.4874 4286875033
-43.444954 824.69708 1365.4874 4286149761
-39.7211 824.69708 1365.4874 4285623424
-34.755962 824.69708 1365.4874 4285162871
-32.273396 824.69708 1365.4874 4284833649
-28.549541 824.69708 1365.4874 4284701536
-24.825687 824.69708 1365.4874 4284833127
-22.343119 824.69708 1365.4874 4284964456
-19.86055 824.69708 1365.4874 4286805883
-17.377981 824.69708 1365.4874 4289898154
-4.9651375 824.69708 1365.4874 4290558896
-2.4825687 824.69708 1365.4874 4290690739
0 824.69708 1365.4874 4290755526
-54.616512 826.59503 1367.0878 4286875817
-52.133945 826.59503 1367.0878 4286875817
-49.651375 826.59503 1367.0878 4285495708
-47.168808 826.59503 1367.0878 4284969364
-43.444954 826.59503 1367.0878 4285753470
-39.7211 826.59503 1367.0878 4284242525
-37.238533 826.59503 1367.0878 4286018680
-34.755962 826.59503 1367.0878 4286414736
-32.273396 826.59503 1367.0878 4285164670
-28.549541 826.59503 1367.0878 4285819251
-24.825687 826.59503 1367.0878 4287595931
-22.343119 826.59503 1367.0878 4287530137
-19.86055 826.59503 1367.0878 4285496464
-2.4825687 826.59503 1367.0878 4291149241
25.614679 764.26758 1370.7802 4291347678
28.176147 763.28845 1369.9546 4291281630
30.737616 763.28845 1369.9546 4291281627
34.579819 763.28845 1369.9546 4291611620
