# .PCD v0.7 - Point Cloud Data file format
VERSION 0.7
FIELDS x y z rgb
SIZE 4 4 4 4
TYPE F F F U
COUNT 1 1 1 1
WIDTH 1164
HEIGHT 1
VIEWPOINT 0 0 0 1 0 0 0
POINTS 1164
DATA ascii
-4.2614679 821.30396 808.02197 4287856000
-1.7045871 821.30396 808.02191 4288250504
0 820.6524 807.47253 4288382575
28.977982 820.6524 807.47253 4294570740
31.81896 821.08673 807.83881 4294505209
34.091743 821.30396 808.02191 4294439158
-11.079817 823.25873 809.67004 4286870367
-7.6614676 823.98047 808.97064 4288054899
-5.1137614 823.25873 809.67004 4288317825
28.915596 824.05212 807.72302 4294111474
31.206728 823.7876 808.37207 4294439412
34.091743 823.25873 809.67004 4294242293
-8.5045872 826.00269 809.36768 4285357646
44.908257 748.71783 812.22058 4294308345
-17.012844 751.68549 810.79883 4284831834
42.979816 751.00092 810.22156 4294242552
-25.020184 755.25562 811.19299 4285027658
-22.361469 754.49738 811.86163 4285620051
-19.699083 753.73914 812.53027 4286738275
-16.977982 755.25562 811.19299 4285620578
41.104588 753.88934 810.04089 4294308345
43.78532 754.57245 810.61694 4294177527
46.561466 753.73914 812.53027 4294243576
48.352295 753.73914 812.53027 4294111734
-25.913761 756.62195 812.34497 4285028177
-22.303669 757.7572 811.34015 4285684568
-19.658716 756.62195 812.34497 4286671206
-16.925688 758.89246 810.33533 4285948260
40.087158 758.89246 810.33533 4294439934
43.650459 758.89246 810.33533 4294440186
46.466057 756.62195 812.34497 4294374392
48.253212 756.62195 812.34497 4294242806
-25.833946 761.61658 812.63232 4284962899
-22.270641 760.93555 812.05811 4285224788
-19.598166 760.93555 812.05804 4286013535
-16.925688 760.25452 811.48376 4285620051
42.759632 760.25452 811.48376 4294308345
-16.873394 763.87872 810.61548 4285487709
40.851376 763.87872 810.61548 4294242552
42.627522 763.87872 810.61548 4294242806
47.06789 763.87872 810.61548 4294045941
-21.313761 765.91553 812.33282 4285487961
-19.537615 765.91553 812.33282 4285553754
-16.85688 765.9892 811.08698 4285490793
40.766972 766.74182 810.41357 4294177781
43.42569 766.74182 810.41357 4294440185
46.179817 765.91553 812.33282 4294374648
-19.497248 769.4519 812.69873 4285488992
-17.724771 768.09686 811.55615 4285096031
40.766972 768.09686 811.55615 4294243576
43.42569 768.09686 811.55615 4294111990
46.970642 769.4519 812.69873 4294242806
-19.436697 773.05225 811.8103 4285489244
-16.78624 771.70142 810.67126 4286147174
38.873394 771.70142 810.67126 4294177783
40.640366 771.70142 810.67126 4294177783
43.290825 772.37683 811.24078 4294243065
46.824768 773.05225 811.8103 4294439672
49.475231 773.05225 811.8103 4294637049
-21.203671 774.40314 812.94934 4285028693
-19.436697 774.40314 812.94934 4285489244
-16.733946 776.64417 810.91479 4285752414
43.155964 776.64417 810.91479 4294440185
46.824768 774.40314 812.94934 4294571258
49.475231 774.40314 812.94934 4294637049
-17.614679 777.99084 812.05029 4285752414
44.036697 777.99084 812.05029 4294374392
45.798164 777.99084 812.05029 4294308599
-16.681652 781.57007 811.14417 4285555293
40.387157 780.22766 810.01221 4294374392
43.021103 781.57007 811.14417 4294637562
-16.64679 785.06799 811.47736 4285423453
40.302753 784.39819 810.9126 4294703357
42.93119 785.06799 811.47736 4294703355
46.43578 785.73785 812.04211 4294440699
49.940369 785.73785 812.04211 4294835710
-17.46789 789.96521 811.6825 4285619032
41.049541 789.29749 811.11951 4294967295
43.669724 789.96521 811.6825 4294967295
46.289909 790.63293 812.24548 4294967295
49.783485 789.96521 811.6825 4294901247
52.403671 790.63293 812.24548 4294967295
-16.559633 792.77643 811.43683 4286079839
38.348625 792.11011 810.875 4293782253
40.963303 792.77643 811.43683 4290886338
39.965137 796.98279 811.05945 4284898152
-15.588991 800.51434 810.11304 4285816412
40.770641 799.41278 811.14624 4284040249
43.440369 798.31122 812.17944 4284236081
-15.588991 801.83856 811.22961 4285553756
41.570641 801.83856 811.22961 4284040260
43.302753 803.16278 812.34619 4283972669
-15.555964 804.62598 810.96375 4285359454
41.482571 804.62598 810.96375 4283446324
43.21101 805.94739 812.07788 4282726190
-15.506422 808.79651 810.55615 4285620574
41.35046 808.13794 810.00085 4282528555
43.073395 809.45514 811.11145 4281480514
-16.351376 811.49976 811.5274 4285160027
43.888992 811.49976 811.5274 4285225594
-15.473394 813.5415 811.94092 4284633935
-15.423853 817.0296 810.95789 4284502097
42.844036 817.68469 811.51025 4294374136
-15.390825 819.78607 810.66614 4285357656
-13.680734 821.09344 811.76843 4286080602
35.911926 820.43976 811.21729 4294241780
37.622017 820.43976 811.21729 4294044915
39.902142 820.22186 811.03351 4293979379
-15.390825 822.40082 812.87085 4284504657
-13.680734 822.40082 812.87085 4284306510
-11.079817 824.56189 810.76892 4284305734
32.491745 822.40082 812.87085 4294308086
35.001835 823.48132 811.81989 4294045173
37.622017 822.40082 812.87085 4293783026
40.187157 822.40082 812.87085 4293651183
-11.079817 825.86511 811.86768 4286342753
-21.555964 750.09113 813.37854 4285619801
-19.759632 750.09113 813.37854 4285948510
46.704586 750.09113 813.37854 4294177529
-25.913761 757.98822 813.49695 4285093714
46.466057 757.98822 813.49695 4294176757
49.14679 757.98822 813.49695 4294111477
-28.594496 760.72083 815.80103 4284570193
-25.913761 760.72083 815.80103 4284766547
-28.506422 764.34082 814.9292 4284570193
-25.833946 764.34082 814.9292 4284504145
-23.161469 763.65979 814.35498 4284897877
48.698471 763.4328 814.16357 4294505978
-22.201836 767.95233 814.05029 4285028438
-24.866055 769.31024 815.19519 4285290579
-22.179817 770.05859 814.51819 4284962386
-21.203671 775.75397 814.08838 4285225815
-19.436697 775.75397 814.08838 4285686366
47.708256 775.75397 814.08838 4294374392
49.475231 775.75397 814.08838 4294440184
-21.203671 777.10486 815.22729 4285094486
-19.376146 779.33746 813.18579 4285555037
46.678898 779.33746 813.18579 4294111990
49.475231 777.10486 815.22729 4294506492
-21.137615 782.03082 815.45667 4285094486
-19.376146 780.68414 814.32117 4285423451
46.678898 780.68414 814.32117 4294309369
49.321102 780.68414 814.32117 4294704125
-19.315596 784.92627 813.97394 4285422680
-19.315596 786.93988 815.67188 4285422167
46.43578 787.07751 813.17175 4294703869
-19.275229 789.75677 815.43079 4285291609
43.669724 791.96838 813.37146 4287859100
46.289909 791.96838 813.37146 4293119435
49.783485 791.96838 813.37146 4294966527
52.403671 791.96838 813.37146 4294967295
-19.21468 793.9715 815.06055 4285159507
-17.431192 794.77539 813.12231 4285881433
41.834862 794.77539 813.12231 4285028441
43.57798 794.77539 813.12231 4286344301
46.289909 793.30377 814.49756 4290950299
49.783485 793.9715 815.06055 4292333265
52.403671 794.63922 815.62354 4293647590
-19.174313 797.44067 815.36951 4285028693
-17.431192 796.10803 814.24597 4285618777
46.192661 796.77429 814.80774 4283841590
49.388378 796.9964 814.99493 4285552484
-17.376146 800.30383 813.85962 4285094743
43.440369 799.63959 813.29956 4283777345
46.046791 800.96802 814.41968 4283976001
-19.113762 802.29645 815.53979 4285094486
46.915596 802.29645 815.53979 4283911745
48.65321 802.29645 815.53979 4284172103
-19.053211 805.81122 814.57922 4285028691
-17.3211 804.487 813.46265 4285225815
45.900917 805.14911 814.02094 4283579700
48.499084 805.81122 814.57922 4283972921
-19.012844 809.25092 814.86334 4285554007
-17.284403 807.2688 813.19214 4285094486
44.939449 807.2688 813.19214 4283313191
46.667889 808.59021 814.30627 4282857267
49.584095 808.54572 815.14081 4282795577
-17.229359 812.08954 813.33276 4284765264
44.796329 812.08954 813.33276 4293254631
46.519264 812.08954 813.33276 4290688447
48.242203 812.08954 813.33276 4285301368
-18.952293 814.72394 815.55396 4285422415
-17.192661 814.8559 813.04919 4284765268
44.700916 814.8559 813.04919 4294965759
46.519264 813.40674 814.44336 4291807696
49.103668 813.40674 814.44336 4287069307
-17.192661 816.82751 814.71161 4285095255
44.700916 816.82751 814.71161 4294243065
46.420185 816.82751 814.71161 4294506238
48.999084 816.17029 814.15747 4292530903
-15.423853 819.64996 813.16736 4285425248
41.130276 819.64996 813.16736 4293783026
42.844036 820.30505 813.71973 4294111734
47.414066 820.52344 813.90381 4294374137
49.699081 819.64996 813.16736 4292268251
-15.423853 822.27032 815.37671 4285356622
-13.680734 823.70819 813.97314 4285553756
35.911926 823.70819 813.97314 4293716980
37.622017 823.70819 813.97314 4293585644
40.231194 822.98926 814.67493 4293651438
42.844036 822.27032 815.37671 4294111734
47.128441 822.27032 815.37671 4293914097
-13.680734 825.01556 815.07544 4286341207
-28.506422 766.38391 816.65198 4285027924
-26.130888 766.15692 816.46063 4284896850
-28.506422 768.42706 818.37463 4285290579
-25.754128 770.66809 816.34009 4285028178
-23.089909 770.66809 816.34009 4285028691
-28.418348 772.70496 818.0575 4285160028
-26.033028 772.97565 817.41376 4285028697
-23.042202 773.51715 816.12634 4285226069
-25.405502 775.77563 818.03058 4285159765
-23.042202 774.87225 817.26892 4285094740
-22.381653 778.90601 816.74603 4284963412
-22.970642 781.15747 818.64441 4284635732
-21.137615 784.05078 817.15991 4285356373
-21.137615 786.0708 818.86304 4285094486
-21.07156 789.62482 817.93567 4285290579
50.816513 791.09644 816.56042 4294967295
52.568806 791.09644 816.56042 4294967295
-21.027523 793.10583 818.2547 4284831313
-20.961468 797.31006 817.87549 4284962898
50.656879 797.31006 817.87549 4283382567
52.403671 795.97467 816.74951 4290558398
-19.174313 798.77325 816.49316 4285094740
49.678898 799.43958 817.05499 4283514162
-22.660551 801.43854 818.74048 4285158730
-20.917431 801.43854 818.74048 4284634189
50.390827 803.62488 816.65979 4284170556
-22.588991 806.28174 818.90002 4285027144
-20.851376 805.61755 818.33997 4285158993
-20.78532 809.78381 817.92883 4285159500
-19.012844 811.23303 816.53467 4285620051
-22.469725 813.87585 818.76294 4284634189
-20.741285 813.87585 818.76294 4285029197
-18.952293 817.35834 817.77521 4285161042
-17.192661 818.79907 816.37402 4284768085
44.700916 818.79907 816.37402 4293783539
49.858715 818.79907 816.37402 4294571002
52.493576 818.7373 817.62994 4291017918
-27.508257 821.42786 818.59058 4285027408
-17.192661 820.77063 818.03644 4285355593
44.127827 820.98975 818.22119 4293848306
49.285629 820.98975 818.22119 4294439413
-15.423853 824.2356 817.03381 4286012749
40.273396 823.58051 816.48145 4293782254
46.271561 823.58051 816.48145 4293913842
-16.280735 826.20087 818.69092 4286145364
-28.418348 775.42065 820.34735 4285093464
-25.405502 778.034 819.93488 4284634964
-24.814678 780.29254 821.83923 4284569939
-22.970642 782.5083 819.78345 4284635732
-22.970642 783.85919 820.92236 4284569939
-22.899082 787.41742 819.99854 4284569939
54.605503 788.7641 821.13403 4294966783
-22.827522 790.96729 819.06763 4284831314
-22.827522 792.98096 820.76544 4284896852
52.678898 793.65216 821.33142 4282139461
-22.779816 796.45496 821.07861 4285093707
52.568806 796.45496 821.07861 4282332711
-20.961468 798.64551 819.00146 4284831314
-24.455046 801.31641 821.25354 4285158224
-22.660551 802.77118 819.86414 4285158224
-24.403669 804.10382 820.98779 4285158730
-24.326605 808.27429 820.5802 4285092935
-22.588991 807.61011 820.02014 4285224261
-24.249542 812.43225 820.16199 4284634189
-22.517431 811.10803 819.04541 4285093707
-20.78532 811.10803 819.04541 4285159500
-32.044037 813.75647 821.27844 4284961611
-28.548624 814.47687 820.57782 4284830543
-25.115597 813.75647 821.27844 4284437581
-22.469725 815.19727 819.8772 4284175435
-20.741285 815.19727 819.8772 4284570193
-29.383486 816.51862 820.99133 4285027658
-22.469725 816.51862 820.99133 4284897355
-20.741285 816.51862 820.99133 4285094990
-29.289907 820.65137 820.55182 4285093201
-24.982569 821.30994 821.10718 4284961611
-22.398165 821.30994 821.10718 4285290829
-20.10092 820.43182 820.3667 4285487177
49.965137 821.30994 821.10718 4294308599
51.688072 820.65137 820.55182 4294768377
-22.350458 824.05664 820.80701 4285356872
-19.485016 823.61847 820.43768 4285553226
-17.192661 822.74225 819.69885 4285355329
48.13945 822.74225 819.69885 4293913842
-19.771561 825.37103 821.91528 4286080851
-16.308258 826.44104 820.85547 4286870111
-30.194496 777.45752 822.0647 4284831314
-28.418348 777.45752 822.0647 4284503894
-26.642202 778.13647 822.63721 4284438098
-25.728439 780.9104 823.66815 4284504146
-24.814678 783.00269 824.12427 4284504146
54.776146 785.21008 822.0614 4294966783
-24.737616 786.56091 823.20044 4284831314
-24.660551 790.78406 822.83722 4284699729
-25.461468 794.99463 822.46338 4284896590
-31.60734 797.6795 824.72717 4284896071
-28.973394 797.6795 824.72717 4284896075
-25.43578 797.0658 822.90167 4284962126
-31.541285 800.47394 824.46729 4285027144
-28.912844 800.47394 824.46729 4285289549
-26.284403 799.13428 823.33765 4285027410
-28.822018 803.98724 823.50549 4285026894
-26.201836 802.65186 822.37952 4285354576
-31.442202 805.32269 824.63159 4284961614
-28.822018 805.32269 824.63159 4284501066
-26.14679 806.10272 822.67316 4284961103
-31.376146 808.10168 824.35864 4284895569
-28.761467 808.10168 824.35864 4284895572
-33.014679 812.92383 824.50049 4284961864
-27.801834 812.92383 824.50049 4285027408
-26.06422 810.26697 822.26025 4284961112
-31.177982 815.08069 822.39502 4285027658
-25.115597 815.08069 822.39502 4284896589
-31.144955 817.78455 823.36676 4285027408
-25.062386 817.84003 822.10547 4285028428
-22.469725 817.84003 822.10547 4285029193
-27.655046 819.16144 823.21973 4285027408
50.124771 820.48285 824.33386 4294243576
51.85321 820.48285 824.33386 4294440184
-27.566973 823.28577 822.77307 4285026380
-24.982571 823.28577 822.77307 4285026887
-22.398165 823.94434 823.32837 4285881933
-24.982569 825.26154 824.43909 4286144086
-22.398165 825.26154 824.43909 4286013008
-20.072784 826.64893 823.86481 4284699474
-17.192661 826.68542 823.02356 4285158224
50.759632 751.56995 826.39771 4294308597
-30.288073 776.59955 825.2655 4284831314
-28.506422 776.59955 825.2655 4284438352
-30.288073 779.32373 827.5625 4284765518
-28.506422 778.6427 826.98822 4284568912
-26.642202 782.21008 826.07196 4284699730
-28.418348 784.24689 827.78943 4284830298
-26.587156 785.71283 826.40942 4284764249
-26.587156 787.06787 827.552 4284831062
-29.06422 794.1507 825.6759 4284699726
-31.541285 801.81354 825.5968 4285026894
-34.862385 810.76697 826.60596 4284961864
-33.593884 814.69507 825.99396 4285158474
-33.014679 816.90906 827.86072 4285027408
-27.655046 823.78638 827.11932 4285881689
-24.982569 827.23737 826.10498 4283778366
-22.398165 826.57874 825.54968 4284698699
-25.844036 829.21313 827.77087 4282396968
52.838531 748.51031 830.35803 4294506233
50.913761 750.70642 829.59375 4294308597
52.732109 752.09656 830.76587 4294637049
-30.381651 775.75006 828.47327 4284504146
-30.381651 778.48267 830.77734 4284765264
-28.506422 780.68585 828.71094 4284502097
-28.418348 785.60474 828.93433 4284765268
-28.418348 786.96265 830.07922 4284765264
-34.862385 814.09851 829.41504 4285158734
52.838531 751.99268 833.29431 4294571256
55.267887 751.52832 832.90283 4294440186
95.497246 768.47498 832.80334 4294242806
-30.288073 783.41003 831.00793 4284765264
56.366974 802.23065 832.48865 4286732354
59.009174 802.90399 833.0564 4286408281
61.651375 803.57733 833.62415 4293716197
63.412846 803.57733 833.62415 4294571002
56.190826 805.73419 831.51868 4286210416
57.946789 805.73419 831.51868 4284434005
55.605503 807.97162 833.40521 4289898154
57.946789 807.74786 833.21655 4284633687
57.825687 811.19104 833.50366 4286150270
55.023853 813.33533 831.38757 4290360763
50.656879 816.00616 833.63953 4294506492
52.403671 816.00616 833.63953 4294440447
56.65321 748.35449 834.15076 4294440186
58.480736 749.0531 834.73975 4294571259
61.222015 749.0531 834.73975 4294703101
64.87706 749.0531 834.73975 4294571772
67.618347 749.0531 834.73975 4294506235
70.359634 749.0531 834.73975 4294440188
52.998165 751.1488 836.50684 4294506233
55.739449 751.1488 836.50684 4294440186
58.480736 751.1488 836.50684 4294505979
61.222019 751.1488 836.50684 4294572028
64.87706 751.1488 836.50684 4294572027
67.618347 751.1488 836.50684 4294637562
70.359634 751.1488 836.50684 4294703357
94.267891 761.27155 834.57776 4294506231
94.267891 763.35046 836.33069 4294111221
95.788994 767.64093 836.02417 4294176757
97.596329 767.64093 836.02417 4293585390
87.031189 793.75208 835.80383 4294176244
85.728432 796.97565 836.77802 4294242293
88.154137 796.04279 836.86346 4294176498
90.583488 795.10992 836.94885 4294242289
60.960548 800.06958 834.59058 4290752695
65.377983 801.42041 835.72961 4294242293
67.144951 801.42041 835.72961 4294374131
83.047707 802.7713 836.86865 4294110451
85.698166 802.7713 836.86865 4294110451
54.605503 804.92395 834.75964 4290425784
59.889908 805.59729 835.32733 4286677622
61.651375 805.59729 835.32733 4293586144
64.293579 805.59729 835.32739 4294308085
67.816513 805.59729 835.32733 4294242291
77.504585 806.27063 835.89502 4294046193
79.266052 805.59729 835.32733 4294111988
81.027519 804.92395 834.75964 4293781742
59.702751 809.76154 834.91443 4287860602
52.568806 812.5307 834.63318 4294440186
55.19725 812.5307 834.63318 4289307323
58.764221 811.81738 835.33978 4287267236
55.19725 814.54016 836.32751 4288516249
57.825687 814.54016 836.32758 4290684592
50.656879 817.34161 834.76562 4294769146
52.403671 817.34161 834.76562 4294505206
57.644035 818.67706 835.8916 4293708726
-28.670643 824.87964 834.5813 4283118129
-28.670643 826.20801 835.70142 4283183926
-26.06422 826.20801 835.70142 4283250226
73.321098 748.2113 837.95404 4294440954
76.070648 748.2113 837.9541 4294440697
79.736694 748.2113 837.9541 4294309367
82.486237 748.2113 837.95404 4294243574
84.930275 748.44482 838.15094 4294572283
88.596336 748.44482 838.15094 4293980400
52.998165 752.54596 837.68481 4294704127
55.739449 752.54596 837.68481 4294440186
58.480736 752.54596 837.68481 4294440697
61.222019 752.54596 837.68481 4294440698
64.87706 752.54596 837.68481 4294440697
67.618347 752.54596 837.68481 4294506231
70.359634 752.54596 837.68481 4294769149
73.321098 750.31335 839.72644 4294374906
76.070648 750.31335 839.72644 4294309370
79.736694 750.31335 839.72644 4294308856
82.486237 750.31335 839.72644 4294440184
85.235779 750.31335 839.72644 4294571517
88.90184 750.31335 839.72644 4294046195
91.651375 750.31335 839.72644 4294374390
52.998165 753.94312 838.86292 4294901247
55.739449 753.94312 838.86292 4294374906
58.480736 753.94312 838.86292 4294901247
61.222019 753.94312 838.86292 4294177526
64.87706 753.94312 838.86292 4294506234
67.618347 753.94312 838.86292 4294637562
70.359634 753.94312 838.86292 4294440186
89.548622 753.94312 838.86292 4294308599
91.376144 753.94312 838.86292 4294374904
93.203667 753.94312 838.86292 4294572539
92.011925 758.26099 838.57953 4294439928
94.267891 766.81525 839.2522 4294242806
95.788994 769.02264 837.18921 4294308599
97.596329 769.7135 837.77173 4294045684
89.082565 791.58252 837.8988 4294044655
90.86422 791.58252 837.8988 4294505206
85.965134 799.26355 837.83508 4294241524
88.623856 799.9411 838.40637 4294175987
65.377983 805.47302 839.14661 4294308086
68.911926 805.47302 839.14661 4294504695
70.678902 804.79761 838.57715 4294308083
73.329361 804.79761 838.57715 4294044914
76.56881 805.02277 838.76691 4294110708
79.513763 805.47302 839.14661 4294373879
82.164215 804.79761 838.57715 4294176500
85.698166 804.79761 838.57715 4294307313
61.651375 808.29065 837.59827 4293978859
63.412846 807.61731 837.03052 4294242293
66.935783 807.61731 837.03052 4294504695
77.504585 808.96393 838.16602 4294045428
59.889908 810.31061 839.30151 4292330428
61.651375 810.31061 839.30151 4294896612
77.504585 810.31061 839.30151 4293979633
59.702751 813.78888 838.31018 4292398804
61.458717 815.13135 839.44214 4294503403
52.568806 816.54962 838.02185 4290558396
54.905201 816.99615 838.39844 4288778878
59.57798 817.21948 838.58667 4293582303
55.897247 820.68018 837.58057 4292261827
58.226299 820.90277 837.76825 4294105312
57.644035 822.68335 839.26965 4293976806
-29.633028 825.42584 838.96594 4282858040
73.321098 751.71472 840.90808 4293980148
76.070648 751.71472 840.90808 4294111734
79.736694 751.71472 840.90808 4294308855
82.486237 751.71472 840.90808 4294308597
85.235779 751.71472 840.90808 4294439418
87.985321 751.71472 840.90808 4293913842
55.739449 755.34027 840.04089 4294835455
58.480736 755.34027 840.04089 4294901247
61.222019 755.34027 840.04089 4294506492
64.87706 755.34027 840.04089 4294769661
67.618347 755.34027 840.04089 4294638332
70.359634 755.34027 840.04089 4294374392
73.321098 753.11609 842.0896 4294111734
76.070648 753.11609 842.0896 4294704124
79.736694 753.11609 842.0896 4294440440
82.486237 753.11609 842.0896 4294308599
85.235779 753.11609 842.0896 4294308086
88.634857 755.34027 840.04089 4294307830
55.739449 756.73743 841.21899 4294901247
58.480736 756.73743 841.21899 4294967039
61.222019 756.73743 841.21899 4294506492
88.939445 757.20312 841.61163 4294241780
92.31559 760.8147 840.73273 4294373623
92.011925 763.13629 842.69031 4294242806
94.554131 763.21771 840.14294 4294176757
92.735779 765.99805 842.48718 4294176244
94.554131 765.99805 842.48718 4294045941
88.829361 770.97308 842.75793 4293980146
90.642204 770.97308 842.75793 4294044658
96.080734 768.89417 841.00507 4294111221
64.494492 806.82391 840.28564 4294308086
68.028442 806.82391 840.28564 4294308599
70.678902 806.82391 840.28564 4294242289
73.329361 806.82391 840.28564 4294176497
75.97982 806.82391 840.28564 4294242291
79.513763 806.82391 840.28564 4294374392
82.164215 806.82391 840.28564 4294374390
84.814682 806.82391 840.28564 4294176244
64.494492 808.85022 841.9942 4294176500
68.028442 808.85022 841.9942 4294176500
70.678902 808.85022 841.9942 4294176497
73.623848 808.62506 841.80438 4294242291
75.97982 808.85022 841.9942 4294373878
79.513763 808.85022 841.9942 4294374389
82.164215 808.17474 841.42468 4293914355
61.651375 811.65723 840.43689 4294635765
77.504585 811.65723 840.43689 4294374644
77.504585 813.00391 841.57239 4294374131
79.266052 813.00391 841.57239 4294374131
52.678898 817.14502 841.13995 4291215271
61.458717 816.47375 840.57397 4294437357
52.678898 819.15869 842.83789 4294437619
54.905201 820.12201 841.034 4294109163
57.825687 821.9082 842.54004 4293714661
-27.948624 824.0188 840.39563 4283316276
-25.328442 824.0188 840.39563 4283053874
57.644035 825.35425 841.52161 4293977316
76.98716 754.5174 843.27124 4294374904
80.042198 754.98456 843.66504 4294243063
82.486237 755.21808 843.862 4294374392
85.235779 755.21808 843.862 4294242550
87.985321 755.91876 844.45276 4294110451
86.15229 757.32013 845.6344 4294176244
87.985321 757.32013 845.6344 4294045682
88.939453 760.4632 844.36053 4294439925
91.376144 759.53174 843.57507 4294176244
88.5 763.42761 844.89795 4294110705
91.100914 764.52924 843.86475 4294176244
89.2789 765.92218 845.03931 4294110451
91.826607 767.38818 843.6593 4294110451
94.554131 767.38818 843.6593 4294176757
92.735779 768.77832 844.83142 4294242293
94.554131 768.77832 844.83142 4294045428
96.372475 768.77832 844.83142 4294242806
90.642204 772.35901 843.92651 4294308084
70.899086 808.74908 845.83301 4294308084
72.671562 808.07153 845.26172 4294308084
64.494492 811.55188 844.27222 4294110707
68.028442 811.55188 844.27222 4294176244
74.212845 811.55188 844.27222 4294110195
75.97982 811.55188 844.27222 4294373622
-26.339449 821.84357 845.10168 4283382069
55.605503 821.39606 844.72443 4291740100
-28.912844 823.24786 843.66968 4283316023
56.073395 824.58746 844.79919 4293121998
56.073395 825.92712 845.92871 4293451746
55.897247 829.36053 844.89966 4294306799
55.779816 833.42163 845.70776 4294110451
84.572479 755.10858 847.69373 4294110451
86.15229 758.7215 846.81604 4294702842
92.735779 770.16846 846.00354 4294505206
51.508255 807.33081 847.25317 4293320685
70.899086 810.10413 846.97559 4294307316
72.671562 810.10413 846.97559 4294504695
52.844036 818.39056 846.11426 4293912045
54.605503 818.39056 846.11426 4292793307
-28.183487 821.08386 848.38525 4283382069
-25.541285 820.41052 847.8175 4283447862
52.844036 820.41052 847.8175 4291805119
-31.60734 823.85724 846.79962 4283712316
-29.851376 823.18604 846.23364 4283251512
54.434864 823.85724 846.79962 4292594625
-31.60734 825.87091 848.49744 4284238668
54.434864 825.87091 848.49744 4293975769
55.109177 829.65125 847.10675 4294504178
50.040367 803.07599 851.51379 4294570751
51.667889 806.56549 850.53198 4290163652
49.886238 807.92761 851.68054 4287599011
49.732109 812.76233 851.83289 4291735184
51.455048 811.43042 849.40192 4291939777
49.629356 815.52441 851.54578 4291079602
51.401836 814.16937 850.4032 4294564539
-24.737616 818.98169 850.53674 4283448121
51.242203 818.30627 849.96729 4292198083
-26.504587 820.33252 851.67578 4283711298
51.242203 820.33252 851.67578 4291869116
-29.06422 823.10382 850.08838 4283580991
52.256882 823.32831 850.27765 4292725183
51.880733 826.16858 850.71051 4293778653
52.678898 828.55579 850.76135 4294242289
54.321102 829.94604 849.31738 4294110703
48.352295 803.02679 854.08838 4294045430
50.040367 804.44226 852.66589 4293321973
49.886238 809.28967 852.82898 4288911729
-24.814678 818.23462 853.83093 4283253559
49.629356 817.55707 853.25964 4290816173
-25.659634 820.63654 853.89417 4283386175
49.475231 821.68341 852.81482 4290881435
-30.922018 823.0343 853.95386 4284041798
-28.271559 823.0343 853.95386 4284107589
49.475231 823.0343 853.95386 4291540149
51.082569 826.47046 852.92712 4294373098
46.227524 788.99023 857.94946 4293781743
46.087158 792.51196 856.99487 4293847535
49.701836 792.51196 856.99487 4293914099
46.247097 796.94366 856.80743 4294110450
49.550461 796.02533 856.03308 4294373876
46.704586 800.90356 856.22229 4293979637
48.500916 799.53027 855.06433 4294505208
46.704586 802.27692 857.38013 4290889937
48.352295 805.08044 855.82001 4288387746
48.302753 808.52075 857.41272 4290157989
48.104588 814.05701 856.84863 4290685345
-23.089909 817.51489 855.84015 4283056950
47.955963 818.19385 856.4126 4290552463
-25.726604 820.24829 856.83679 4283911235
-23.089909 819.55176 857.5575 4283385660
47.955963 819.55176 857.5575 4291603879
-30.922018 824.38513 855.0929 4284435016
-28.359632 822.2998 857.25867 4284501065
49.475231 824.38513 855.0929 4294307305
-31.805504 825.73602 856.23181 4284502347
49.475231 825.73602 856.23181 4294833660
46.461468 782.63757 859.13318 4293913586
49.194496 782.63757 859.13318 4293913842
49.194496 784.03052 860.30774 4293913842
43.508255 790.37616 859.11804 4294044658
43.376148 793.89368 858.15991 4294044658
45.183487 793.89368 858.15991 4294110451
41.568806 796.65717 860.48987 4293978353
43.376148 795.27545 859.32495 4294110451
43.244038 799.46912 858.93683 4293519597
45.045872 799.46912 858.93683 4293388011
44.076149 802.59277 859.60858 4290820537
46.704586 803.65021 858.53809 4289701293
44.908257 805.71014 860.27502 4288513669
46.704586 805.0235 859.69604 4288841616
-23.280733 809.87231 859.86035 4283448121
46.561466 808.50317 858.70593 4288843156
46.466057 811.95691 859.00201 4289895829
-21.445871 814.00635 860.72998 4283385149
46.466057 814.00635 860.72998 4290026119
46.322937 818.14325 860.29407 4291540143
-25.754128 820.90961 858.70251 4284436041
-23.089909 820.90961 858.70251 4284370761
47.955963 820.90961 858.70251 4294437346
-28.359632 823.65491 858.40125 4284436556
-25.754129 822.94641 860.4198 4284437068
47.955963 822.26752 859.84741 4294965237
43.076149 778.34064 863.35828 4293979377
46.601833 781.88623 862.42383 4293715949
51.170643 781.88623 862.42383 4293914355
43.728439 785.42346 861.48218 4293847535
49.194496 785.42346 861.48218 4293979637
52.084404 783.28339 863.60193 4294243320
41.906422 786.81641 862.65674 4294044655
-22.729359 791.02057 863.58557 4282397485
41.822018 789.63043 862.41345 4294044658
41.695412 793.14801 861.4552 4294044144
-21.754128 795.91986 863.79236 4282857519
-19.941284 795.91986 863.79236 4282726190
-19.880733 800.80237 863.98499 4282924085
41.568806 799.42059 862.82001 4290818231
43.244038 802.9129 861.84058 4287263352
-23.423853 804.29047 863.00208 4283447862
41.442204 804.29047 863.00208 4287328114
43.244038 804.29047 863.00208 4287461230
-21.555964 807.77014 862.01196 4283448121
-19.759632 809.14343 863.16992 4283253563
44.309479 808.68573 862.78394 4289237390
-21.489908 811.24139 861.01477 4283253563
-19.699083 812.61047 862.16919 4283385149
44.770641 812.61047 862.16919 4289762693
-21.445871 815.37268 861.88208 4283844162
-19.699083 813.97961 863.32349 4283844162
44.678898 815.37268 861.88208 4289434491
-21.445871 816.73895 863.03406 4284370761
44.678898 816.73895 863.03406 4292792263
-23.161469 820.86743 862.591 4284437324
46.322937 820.1864 862.01672 4294833395
-25.754128 824.98328 862.13721 4284831310
43.076149 779.742 864.53992 4293781485
-16.497248 782.54474 866.90308 4285026894
42.159634 781.14337 865.72156 4294044909
-19.188992 786.0777 865.95801 4283711812
-16.447706 786.0777 865.95801 4283449147
-19.131193 789.60229 865.00574 4282200623
-16.398165 790.99524 866.18018 4282529338
38.262386 790.99524 866.18018 4294635513
40.084404 789.60229 865.00574 4293649387
-25.456881 793.10583 865.34375 4282855980
-23.032415 792.87408 865.14844 4282790701
-18.789602 792.87408 865.14844 4282529331
-16.365137 793.8009 865.92981 4282595381
40.00367 793.10583 865.34375 4293386985
-21.754128 797.30579 864.96094 4282858292
-19.034863 797.30579 864.96094 4282792755
39.882568 797.30579 864.96094 4291542209
-22.660549 798.69177 866.12964 4282858035
-18.128441 798.69177 866.12964 4282793782
-16.315596 798.69177 866.12964 4282793782
38.069725 798.69177 866.12964 4285881433
39.882568 798.69177 866.12964 4286471785
-21.688074 802.18408 865.15002 4283055414
-18.977064 802.18408 865.15002 4283055414
-16.266054 803.5658 866.31506 4283187513
39.761467 802.87494 865.73254 4286539365
-18.919266 805.66797 864.16357 4283383866
41.442204 805.66797 864.16357 4287724407
43.244038 805.66797 864.16357 4288184956
-18.018349 807.04547 865.32495 4283712313
-16.216515 808.42297 866.48645 4283844155
41.442204 807.73425 865.9057 4287920748
-17.963303 811.20337 864.90674 4283909436
43.111927 811.20337 864.90674 4288447087
-19.699083 815.34869 864.47791 4284370761
-17.963303 813.26337 866.64368 4284501063
43.111927 813.26337 866.64368 4292265918
-21.445871 818.10522 864.18616 4284436554
-19.699083 817.40234 866.20953 4284239946
-17.908257 817.40234 866.20953 4284305226
44.678898 818.10522 864.18616 4294307303
-21.445871 820.15466 865.91412 4284372559
-19.658716 820.83783 866.49011 4284438352
44.678898 819.47156 865.33813 4294767863
46.466057 820.15466 865.91412 4294308085
-25.833946 824.27264 865.46216 4285028693
-23.161469 823.59155 864.88794 4284765773
-25.754128 827.69904 864.42712 4284635478
-23.161469 825.6347 866.61072 4284964695
-24.866055 829.05688 865.57202 4284964695
37.100918 766.9104 869.41699 4293979896
38.840366 770.48126 868.50378 4293847794
40.689907 770.48126 868.50378 4293782253
-13.871559 771.89526 869.69604 4286868065
37.915596 771.89526 869.69604 4294308086
-14.137614 776.39337 869.5647 4287329905
38.72477 776.15839 869.36658 4294044658
40.568806 774.7486 868.17786 4293979631
40.447708 779.0033 867.84119 4293847787
-14.708257 780.40887 869.02637 4284895821
40.447708 780.40887 869.02637 4293715947
-14.053211 784.88037 868.8725 4282922542
38.49358 785.34747 869.26636 4294240754
40.326607 783.94611 868.08472 4293781742
-16.447706 787.47485 867.13599 4282332209
-14.620184 788.87201 868.31409 4282725940
36.550457 790.26917 869.49207 4292788429
-14.576147 793.08466 867.94196 4282792243
37.351379 793.08466 867.94196 4292658370
-25.456881 795.19104 867.10193 4282923314
-23.638533 795.19104 867.10193 4282857521
-16.365137 795.19104 867.10193 4282858805
-13.34312 796.5755 869.1413 4282596663
36.997555 796.11212 868.75067 4287724141
-16.315596 800.0777 867.29822 4283121207
-14.502752 800.0777 867.29822 4282925111
38.069725 800.0777 867.29822 4286210123
-13.898471 802.38751 869.24585 4283188024
37.465443 802.38751 869.24585 4286998889
-16.266054 804.94751 867.4801 4283778106
-14.458715 806.32922 868.64514 4283777856
37.954128 806.32922 868.64514 4286341207
39.761467 805.63837 868.06262 4286802267
-16.216515 809.80054 867.64795 4283711802
-13.555046 807.71094 869.81018 4283843906
37.954128 807.71094 869.81018 4286013008
40.601837 808.75574 868.72906 4287329108
-16.216515 811.17804 868.80945 4284369477
-13.814067 812.09637 869.5838 4284238918
40.541283 811.86676 869.39026 4292990162
-16.166973 814.63666 867.80164 4284566861
43.111927 814.63666 867.80164 4294307303
-16.166973 816.01001 868.95959 4284175435
-14.370643 816.01001 868.95959 4284370761
41.315598 816.01001 868.95959 4294767865
43.111927 816.01001 868.95959 4294965755
-19.699083 820.82513 869.09546 4284504144
-17.908257 820.14056 868.51825 4284569166
44.173702 820.36871 868.71063 4294505719
-21.445871 822.88727 868.2182 4284701779
-23.161469 826.99683 867.75916 4285293659
-7.46422 761.16992 872.42505 4284768087
-5.598165 761.16992 872.42505 4285623140
31.722937 761.16992 872.42505 4294242293
33.588989 761.16992 872.42505 4294176244
-9.3027525 764.75354 871.52246 4287132007
34.420185 764.75354 871.52246 4294176244
-10.233027 766.1759 872.7218 4288184177
-7.4422016 766.1759 872.7218 4288710006
33.48991 766.1759 872.7218 4294176244
-12.985321 768.32861 870.61279 4287393639
-10.202752 769.74677 871.80859 4288314986
34.627525 769.27411 871.40997 4294110706
37.100918 768.32861 870.61279 4293913588
-12.946789 773.3092 870.88831 4288118902
-11.097248 773.3092 870.88831 4288512635
35.141285 773.3092 870.88831 4294306801
36.990826 773.3092 870.88831 4293978864
-11.097248 774.72321 872.08057 4288250501
34.216515 774.72321 872.08057 4293978351
36.990826 774.72321 872.08057 4293847535
-12.908257 778.27307 871.14954 4285093201
-10.142202 778.97797 871.7439 4284172868
-7.3761468 779.68286 872.33826 4283055934
35.036697 779.68286 872.33826 4294175985
37.495411 778.74298 871.54572 4293846765
-12.869725 781.81445 870.21143 4284040764
-11.031193 781.81445 870.21143 4283580213
38.609173 781.81445 870.21143 4294109938
-10.111927 783.92285 871.9892 4282660649
-7.3541284 784.62561 872.58179 4282529588
-5.5155964 784.62561 872.58179 4282463795
34.012844 784.62561 872.58179 4294240240
36.770641 783.22003 871.39661 4293977838
-12.831193 787.44952 871.0387 4282857269
34.827522 788.15021 871.62952 4290881969
36.660549 786.74884 870.44788 4294306549
-12.792661 791.66632 870.67017 4282793010
-10.081652 789.55157 872.81104 4282793010
32.994495 789.55157 872.81104 4287988347
34.722935 791.66632 870.67017 4289764758
-10.051376 793.06348 871.84814 4282465841
32.895412 793.06348 871.84814 4287001963
34.722935 793.06348 871.84814 4286212703
-9.7174311 797.03131 871.26971 4282990904
-7.2880735 797.95996 872.05273 4283187513
-5.4660549 797.95996 872.05273 4283253563
32.796329 797.95996 872.05273 4287460204
34.618347 797.26349 871.46545 4286408032
-12.72844 799.36145 870.61829 4282990391
-10.303975 800.28827 871.39972 4283254329
34.548622 800.75159 871.79041 4286670431
36.366974 799.36145 870.61829 4286538071
-9.0917435 802.14172 872.96265 4283517250
-7.2733946 802.14172 872.96265 4283385914
34.548622 802.14172 872.96265 4286340174
-12.689908 804.23547 870.80396 4283843649
-10.272782 805.15942 871.58301 4283517251
34.444038 805.6214 871.97253 4285290305
36.256882 804.92847 871.38824 4286078546
-12.651376 809.09271 870.97522 4284238148
37.050461 809.09271 870.97522 4291806916
-9.9403667 810.47443 872.14026 4283912006
34.339451 810.47443 872.14026 4294571002
37.050461 810.47443 872.14026 4293913060
-12.612844 814.62183 871.7132 4284305739
-10.811009 814.62183 871.7132 4283978317
37.237919 814.85138 871.90674 4294834173
39.640366 814.62183 871.7132 4294702584
-16.166973 818.06995 870.69647 4284569166
-14.370643 818.06995 870.69647 4284569937
41.315598 818.06995 870.69647 4294374646
43.111927 817.3833 870.11755 4294833912
-16.166973 820.12994 872.43335 4285291863
-13.472477 820.12994 872.43335 4285226319
40.417431 820.12994 872.43335 4294505976
-21.489908 824.24786 871.98145 4285752918
-19.699083 823.56329 871.4043 4285358419
-17.908257 822.87878 870.82709 4285292116
42.979816 822.19421 870.24988 4294637049
8.2776756 839.0119 872.22186 4286674552
10.634862 839.91577 872.11194 4286210386
12.407339 839.91577 872.11194 4283644460
-1.8770642 755.41272 875.41895 4289700509
25.340366 755.41272 875.41895 4294702071
28.155964 755.41272 875.41895 4294702842
29.944954 757.57806 873.32056 4294374644
-3.7431192 759.00885 874.52698 4285426792
-1.8715596 759.72424 875.13019 4286740085
22.458715 760.4397 875.7334 4291347395
25.266056 759.72424 875.13013 4294045165
28.697248 759.48584 874.92914 4294373620
-7.46422 762.59656 873.62793 4286869348
-4.6651373 763.30994 874.22937 4288118133
-1.866055 764.02319 874.83081 4290353813
26.124771 764.02319 874.83081 4294306799
29.234863 763.54767 874.42987 4294504693
31.722937 763.30988 874.22937 4294439158
-7.4422016 767.59833 873.92114 4288447081
-5.5816512 767.59833 873.92114 4289105267
31.629358 767.59833 873.92114 4294242291
-4.6513758 769.02075 875.12048 4289302663
-1.8605504 769.02075 875.12048 4290223773
29.768806 769.02075 875.12048 4293978349
-9.2752295 771.87408 873.60229 4288644997
-7.4201837 771.87408 873.60229 4288382582
-5.5651374 772.58319 874.2002 4289370250
31.53578 771.87408 873.60229 4293978607
33.390827 771.16498 873.00439 4294241007
-9.2477064 776.13721 873.27283 4285225815
-7.3981652 776.13721 873.27283 4285357906
-4.6293578 775.06934 874.33441 4286278494
-1.8550459 774.0014 875.396 4287330412
25.970642 774.0014 875.396 4293716458
28.753212 774.0014 875.396 4294242804
31.442202 776.13721 873.27283 4293913842
34.216515 776.13721 873.27283 4293782255
-4.6238532 777.55121 874.46497 4284568393
-1.8495413 778.25818 875.0611 4283975736
20.344954 778.96521 875.65723 4291937471
24.968807 778.96521 875.65723 4293056982
28.667891 778.96521 875.65723 4291412416
31.442202 778.25818 875.0611 4294044394
33.291744 777.55121 874.46497 4294175985
-7.3761468 781.09259 873.52698 4282528555
-4.302752 781.5625 873.92316 4282199847
-1.8440367 782.50238 874.7157 4282528305
29.504587 782.50238 874.7157 4290360992
31.348623 782.50238 874.7157 4292729540
34.114677 781.09259 873.52698 4294240753
-3.6880734 783.91217 875.9043 4282858292
-1.8440367 783.91217 875.9043 4282924085
25.816513 783.91217 875.9043 4292004557
28.582569 783.91217 875.9043 4287266675
31.348623 783.91217 875.9043 4287989099
-10.111927 786.03119 873.76685 4282858292
-7.3541284 786.73401 874.35944 4282858807
-4.9027524 786.96826 874.55695 4282792757
-1.8385321 787.43677 874.95203 4282923314
29.416513 787.43677 874.95203 4286739045
31.255045 787.43677 874.95203 4286541666
33.093578 786.03119 873.76685 4289434523
-7.3321099 790.95288 873.99268 4283055414
-5.4990826 790.95288 873.99268 4283055414
29.32844 790.95288 873.99268 4288905324
31.161469 790.95288 873.99268 4287720793
-7.310092 794.46063 873.02625 4283188019
-4.5743117 793.40747 874.10028 4283122228
-1.8330275 792.35425 875.17432 4283253559
29.32844 792.35425 875.17432 4288514171
31.981651 794.46063 873.02625 4287132267
-3.655046 795.85779 874.20435 4283385408
-1.827523 795.85779 874.20435 4283385408
0 797.25494 875.38232 4283583044
28.631193 796.78925 874.98969 4288911763
31.06789 796.5564 874.79333 4287267190
-7.2880735 799.35291 873.22717 4283385914
-4.5550461 800.04944 873.81445 4283320124
-1.8220184 800.04938 873.81445 4283583041
32.188992 800.28156 874.01025 4286934113
-7.2733946 803.53186 874.13477 4283517250
-4.5458717 803.53186 874.13477 4283583044
-1.8220184 802.13879 875.57617 4283912008
28.241283 802.13879 875.57617 4290025368
31.852293 802.83533 874.85547 4287196766
-4.5458717 804.922 875.30688 4283977799
-1.8183486 804.922 875.30688 4284175435
30.911926 804.922 875.30688 4293253851
-9.9706421 807.00739 873.14111 4284107589
-7.2513757 808.39331 874.30975 4283978571
-5.4385319 809.77924 875.47827 4284111184
28.099083 809.77924 875.47827 4294966267
32.026913 807.93134 873.92017 4294110190
34.444038 807.00739 873.14111 4292136397
-9.0366974 811.85614 873.3053 4284044108
31.628441 811.85614 873.3053 4294702842
34.339451 811.85614 873.3053 4294834428
36.14679 811.85614 873.3053 4294965757
-9.0366974 813.92871 875.05286 4284635990
-7.2293577 814.61963 875.63538 4284635986
28.013762 814.61963 875.63538 4294834163
31.628439 813.92871 875.05286 4294439670
34.339451 813.23785 874.47034 4294702840
-12.612844 816.68811 873.45544 4284833108
-10.811009 817.37683 874.03619 4285161048
32.433029 818.06561 874.61694 4294703353
34.234863 817.37683 874.03619 4294768889
36.937614 817.37683 874.03625 4294505462
39.640366 816.68811 873.45544 4294506746
-16.166973 821.50323 873.59131 4285423699
-13.472477 821.50323 873.59131 4285554258
-9.9100914 819.44312 875.77844 4285489498
-7.2073393 819.44312 875.77844 4285818207
31.532112 819.44312 875.77844 4294439925
34.234863 819.44312 875.77844 4294571254
36.937614 819.44312 875.77844 4294505461
40.417431 821.50323 873.59131 4294505463
-17.065138 822.87653 874.74927 4285882716
-13.472477 823.56317 875.32825 4286080862
37.722935 824.24982 875.90723 4294703355
39.519264 822.87653 874.74927 4294571256
-21.489908 826.30151 873.71301 4285949011
-19.699083 826.30151 873.71301 4286080854
-17.012844 826.30151 873.71301 4286277211
8.042202 831.76819 875.7063 4287199097
10.722936 831.76819 875.7063 4286936690
12.47156 833.80725 873.50159 4286805104
7.1266055 835.16931 874.65002 4287462012
10.689908 835.16931 874.65002 4286475367
12.47156 835.16931 874.65002 4284304454
22.590826 751.80823 876.30371 4292264905
25.414679 751.80823 876.30371 4294109412
-3.7651377 753.24744 877.51721 4288845200
0.94128442 754.68671 878.73083 4286020730
3.7651377 754.68671 878.73083 4287465348
13.177981 754.68671 878.73083 4291872459
16.001835 754.68671 878.73083 4292267472
19.766972 753.24744 877.51721 4291740612
22.590826 753.24744 877.51721 4291806664
0 758.28284 877.83887 4286936438
19.709175 757.56531 877.23389 4291741126
22.524771 756.84778 876.62891 4291413190
19.651377 761.87048 876.93982 4291740612
22.458715 761.87048 876.93982 4291543745
24.330275 761.87048 876.93982 4294109671
0.93577981 763.30133 878.14624 4290619283
4.6788988 763.30133 878.14624 4290751653
14.972477 763.30133 878.14624 4291673270
16.844036 763.30133 878.14624 4292857545
19.651377 763.30133 878.14624 4291937222
22.458715 763.30133 878.14624 4291543747
-3.73211 765.44983 876.03369 4289302158
-1.866055 765.44983 876.03369 4290157467
22.39266 766.8764 877.23657 4291477952
25.191742 766.16309 876.63513 4293846504
28.612844 765.92529 876.43463 4294110192
-3.7211008 770.44312 876.31982 4289304468
-1.8605504 770.44312 876.31982 4290159777
0.93302751 768.30304 878.43945 4290422935
3.73211 768.30304 878.43945 4291080618
7.46422 768.30304 878.43945 4291539622
13.995413 768.30304 878.43945 4291869880
16.794495 768.30304 878.43945 4293317325
19.593578 768.30304 878.43945 4292069062
22.39266 768.30304 878.43945 4291609792
25.117432 770.44312 876.31982 4293780965
28.838531 770.44312 876.31982 4294175985
0.9302752 772.57678 878.11884 4288449135
4.6513758 773.28796 878.71851 4290292866
7.4422016 773.28796 878.71851 4291409076
11.163302 773.28796 878.71851 4292461505
13.954128 773.28796 878.71851 4292593089
16.744955 773.28796 878.71851 4292724673
19.845871 772.81378 878.31866 4291936959
22.326605 772.57678 878.11884 4291871931
24.187157 771.86554 877.51917 4294043102
0.61834866 776.36505 877.38898 4283648308
13.912844 776.83777 877.7876 4294236374
16.695414 776.83777 877.7876 4293252304
18.550459 776.83777 877.7876 4292200644
22.26055 776.83777 877.7876 4292529093
25.043119 775.41956 876.5918 4293912546
28.753212 775.41956 876.5918 4294242803
1.8550459 778.25598 878.98328 4281804588
4.6376147 778.25598 878.98328 4282462512
7.4201837 778.25598 878.98328 4283909694
11.130275 778.25598 878.98328 4289831314
13.912844 778.25598 878.98328 4293647058
16.695414 778.25598 878.98328 4293712601
18.550459 778.25598 878.98328 4293120712
0.61651379 781.32184 877.64435 4282660407
13.871559 781.79315 878.04175 4287461747
16.645872 781.79315 878.04175 4294891731
19.728439 781.32184 877.64435 4292792781
22.194496 781.08618 877.44562 4292332230
24.660551 780.85052 877.24689 4292793297
27.74312 780.37921 876.84949 4289438886
0 785.32196 877.09302 4282923583
19.362385 785.32196 877.09302 4293121245
23.050459 785.32196 877.09302 4292792526
25.816513 785.32196 877.09302 4292857810
27.660551 785.32196 877.09302 4288975766
-3.6770642 788.84235 876.13721 4282924085
-1.8385321 788.84235 876.13721 4283055414
0.92201835 786.73175 878.28174 4283055162
4.6100917 786.73175 878.28174 4283319106
7.3761468 786.73175 878.28174 4283451205
10.142202 786.73175 878.28174 4283583046
13.830275 786.73175 878.28174 4283120435
16.596331 786.73175 878.28174 4285421132
19.362385 786.73175 878.28174 4289698211
23.050459 786.73175 878.28174 4292989905
25.73945 788.84235 876.13721 4294303459
27.577982 788.84235 876.13721 4291342518
0.91926605 790.95068 877.91486 4283319614
4.5963302 791.65344 878.50745 4283712581
7.3541284 791.65344 878.50745 4283910212
10.111927 791.65344 878.50745 4284436556
19.304588 791.65344 878.50745 4283980112
23.900917 791.65344 878.50745 4293251280
25.73945 790.24792 877.32227 4293251549
27.577982 790.24792 877.32227 4291672516
0 793.75562 876.35583 4283385408
25.662386 793.75562 876.35583 4292859101
27.495413 793.75562 876.35583 4290556602
1.8330275 795.15698 877.53748 4283583044
4.5825686 795.15698 877.53748 4283976005
7.3321099 795.15698 877.53748 4284304713
10.081652 795.15698 877.53748 4284568141
13.747706 796.55835 878.71912 4285028948
16.497248 796.55835 878.71912 4285357656
19.246788 796.55835 878.71912 4285028691
22.912844 796.55835 878.71912 4288447617
25.662386 795.15698 877.53748 4292660947
0.9137615 799.35071 877.14941 4283714630
4.5688076 799.35071 877.14941 4284108109
7.310092 799.35071 877.14941 4284633933
10.051376 799.35071 877.14941 4284765520
13.706423 800.04926 877.7384 4285356888
16.447706 800.04926 877.7384 4285685594
19.188992 800.04926 877.7384 4285487958
22.844036 800.04926 877.7384 4287330412
25.585321 799.35071 877.14941 4290884033
28.326607 798.6521 876.56042 4289108382
0.9137615 802.48914 877.83362 4284372559
4.5688076 801.44641 878.9165 4284438353
7.310092 801.44641 878.9165 4284635732
10.051376 801.44641 878.9165 4284898132
13.706423 801.44641 878.9165 4285422936
16.447706 801.44641 878.9165 4285882716
19.188992 801.44641 878.9165 4285882453
22.811008 802.48914 877.83362 4285228373
25.508257 803.5318 876.75073 4290942631
28.241283 803.5318 876.75073 4294368486
-4.5458717 806.31213 876.479 4284109900
-1.8183486 806.31213 876.479 4284372557
0.91100919 804.92474 877.92517 4284438600
7.2880735 804.92474 877.92517 4285226069
10.021101 804.92474 877.92517 4285357909
13.665138 804.92474 877.92517 4285620567
16.398165 804.92474 877.92517 4285685594
19.131193 804.92474 877.92517 4286013019
22.77523 804.92474 877.92517 4285489743
25.508257 804.92474 877.92517 4289696925
28.184402 806.31213 876.479 4294965759
-3.6366973 807.70233 877.65112 4284831312
-1.8183486 808.3974 878.23718 4284897105
14.546789 809.09247 878.82324 4285818207
16.365137 809.09247 878.82324 4286212965
20.001835 809.09247 878.82324 4286212701
22.729357 808.3974 878.23718 4285948753
25.456881 807.70233 877.65112 4288778126
-7.2513762 811.16516 876.64685 4284570193
-4.5321102 811.85809 877.23114 4284832338
23.566973 812.55109 877.81543 4285686096
25.379816 811.85815 877.23114 4288975494
28.099083 811.16516 876.64685 4294966520
-3.6256881 813.93701 878.98401 4285422415
-1.812844 813.93701 878.98401 4285554258
19.941284 813.93701 878.98401 4286147419
22.660549 813.93701 878.98401 4285619549
-9.0366974 816.00134 876.80042 4285291863
-7.2293577 816.00134 876.80042 4285291863
-4.819572 816.92255 877.57715 4285489498
-1.8073394 817.38306 877.96545 4285686620
23.495413 817.38306 877.96545 4288317017
25.302752 816.6922 877.38293 4290816682
28.013762 816.6922 877.38293 4294965497
30.724771 816.00134 876.80042 4294966011
-9.9100914 820.82068 876.93982 4285686621
-7.2073393 820.82068 876.93982 4285818207
-3.6036696 820.82068 876.93982 4285818209
31.532112 820.82068 876.93982 4294439670
