# .PCD v0.7 - Point Cloud Data file format
VERSION 0.7
FIELDS x y z rgb
SIZE 4 4 4 4
TYPE F F F U
COUNT 1 1 1 1
WIDTH 1155
HEIGHT 1
VIEWPOINT 0 0 0 1 0 0 0
POINTS 1155
DATA ascii
-34.088074 760.30341 1277.1836 4287463825
-31.653212 760.30341 1277.1836 4287924632
-29.218349 760.30341 1277.1836 4287728019
-25.566055 760.30341 1277.1836 4289174957
-21.913761 760.30341 1277.1836 4289306292
-19.478899 760.30341 1277.1836 4289175208
-17.044037 760.30341 1277.1836 4289503916
-13.391743 760.30334 1277.1836 4289964985
-9.7394495 760.30341 1277.1836 4290821069
-7.3045874 760.30341 1277.1836 4292334564
-4.8697248 760.30341 1277.1836 4292137445
-2.4348624 760.30341 1277.1836 4292005859
-19.390825 770.10547 1277.6003 4289173159
-16.966972 770.10547 1277.6003 4289765553
-13.331193 770.10547 1277.6003 4289569720
-9.6954126 770.10547 1277.6003 4289767086
-7.2715597 770.10547 1277.6003 4289306535
-4.8477063 769.17896 1276.8191 4289108641
-2.4238532 768.25244 1276.038 4292332245
-9.6587152 776.53674 1276.4828 4290425280
-7.2440367 776.53674 1276.4828 4292530655
-4.8293576 776.53674 1276.4828 4292661740
-2.4146788 776.53674 1276.4828 4292990704
-13.230275 782.93982 1275.3417 4289438130
-9.6220188 782.93982 1275.3417 4289834428
-7.2165136 782.93982 1275.3417 4292137183
-4.8110094 782.93982 1275.3417 4292333540
-2.4055047 782.93982 1275.3417 4292399333
-28.866055 784.77881 1276.8922 4287925397
-21.649542 784.77881 1276.8922 4288975533
-19.244038 784.77881 1276.8922 4288778405
-16.838531 784.77881 1276.8922 4289436336
-13.230275 784.77881 1276.8922 4289241517
-9.6220188 784.77881 1276.8922 4289899451
-7.2165136 784.77881 1276.8922 4291807448
-4.8110094 784.77881 1276.8922 4291610587
-2.4055047 784.77881 1276.8922 4291939295
-21.566973 791.14691 1275.7214 4289107886
-19.170643 791.14691 1275.7214 4288714407
-14.377981 791.14691 1275.7214 4288847531
-10.783486 791.14691 1275.7214 4289637049
-7.1889906 791.14691 1275.7214 4291545305
-21.566973 792.97894 1277.2662 4289174960
-19.170643 792.97894 1277.2662 4289108904
-14.377981 792.97894 1277.2662 4288782251
-10.783486 792.97894 1277.2662 4289439928
-7.1889906 792.97894 1277.2662 4291611100
-4.7926607 792.97894 1277.2662 4291610333
-22.677982 799.31195 1276.0659 4288780718
-19.097248 799.31195 1276.0659 4288780704
-16.710093 799.31195 1276.0659 4289307048
-14.322936 799.31195 1276.0659 4289044907
-28.645872 801.13696 1277.6047 4287859602
-26.258715 801.13696 1277.6047 4288846497
-22.677982 801.13696 1277.6047 4288845741
-19.097248 801.13696 1277.6047 4288780200
-16.710093 801.13696 1277.6047 4289174958
-14.322936 801.13696 1277.6047 4289109935
-26.177982 806.90527 1277.2363 4288714911
-22.608257 806.90527 1277.2363 4288714924
-19.038532 806.90527 1277.2363 4288451753
-16.658716 806.90527 1277.2363 4288978097
-14.278899 806.90527 1277.2363 4289240751
-21.335779 814.99036 1277.5132 4288846506
-14.223853 814.99036 1277.5132 4288912552
-4.6862388 837.20172 1276.6208 4285361560
-2.3431194 837.20172 1276.6208 4283782528
-43.992661 754.737 1279.0303 4286016631
-40.326607 754.737 1279.0303 4286871681
-36.660549 754.737 1279.0303 4287200643
-9.7761469 754.737 1279.0303 4291545825
-7.3321099 754.737 1279.0303 4292335085
-4.8880734 754.737 1279.0303 4292202724
-2.4440367 754.737 1279.0303 4292136931
-46.436699 756.60547 1280.6058 4286474617
-43.992661 756.60547 1280.6058 4286016633
-40.326607 756.60547 1280.6058 4286937476
-31.653212 763.09564 1279.538 4288055700
-29.218349 763.09564 1279.538 4287793555
-25.566055 763.09564 1279.538 4288911784
-21.913761 763.09564 1279.538 4289503155
-19.478899 763.09564 1279.538 4289371306
-17.044037 763.09564 1279.538 4289766064
-13.391743 763.09564 1279.538 4289898422
-9.7394495 763.09564 1279.538 4290622904
-7.3045874 763.09564 1279.538 4291346884
-4.8697248 763.09564 1279.538 4291741149
-2.4348624 763.09564 1279.538 4292004577
-31.510092 773.81165 1280.7252 4288516249
-29.086239 773.81165 1280.7252 4288121745
-25.450459 773.81165 1280.7252 4288582558
-21.814678 773.81165 1280.7252 4288846247
-19.390825 772.88513 1279.9441 4288911274
-16.966972 772.88513 1279.9441 4289305775
-13.331193 772.88507 1279.9441 4289438642
-9.6954126 771.95856 1279.1628 4290687936
0 773.81165 1280.7252 4292333792
-16.902752 778.38275 1278.0393 4289436851
-13.280734 778.38275 1278.0393 4289635761
-9.6587152 778.38275 1278.0393 4289965757
-4.8293576 778.38275 1278.0393 4292464358
-2.4146788 778.38275 1278.0393 4292661737
-31.390825 780.22882 1279.5958 4287793809
-28.976147 780.22882 1279.5958 4287859602
-24.14679 780.22882 1279.5958 4289042856
-21.732111 780.22882 1279.5958 4288845734
-19.31743 780.22882 1279.5958 4288910507
-16.902752 780.22882 1279.5958 4289436851
-31.271559 787.53735 1279.2183 4287530123
-28.866055 787.53735 1279.2183 4288055194
-25.257797 787.53735 1279.2183 4288976555
-21.649542 786.61786 1278.4429 4289305011
-4.8110094 787.53735 1279.2183 4291610585
-2.4055047 787.53735 1279.2183 4291807964
-31.152294 794.81097 1278.8109 4287923862
-28.755962 794.81097 1278.8109 4287859348
-26.359632 794.81097 1278.8109 4288846499
-23.963303 794.81097 1278.8109 4288846508
-10.783486 794.81097 1278.8109 4289308342
-7.1889906 794.81097 1278.8109 4291545051
-4.7926607 794.81097 1278.8109 4291676126
-31.152294 796.64294 1280.3556 4288121493
-28.755962 796.64294 1280.3556 4287859602
-26.359632 796.64294 1280.3556 4289241255
-10.783486 796.64294 1280.3556 4289570999
-7.1889906 796.64294 1280.3556 4291544538
-4.7926607 796.64294 1280.3556 4291742173
-2.3963304 796.64294 1280.3556 4291742173
-31.033028 802.96198 1279.1434 4287858065
-28.645872 802.96198 1279.1434 4287858065
-26.258715 802.96198 1279.1434 4288976802
-22.677982 802.96198 1279.1434 4288845741
-19.097248 802.96198 1279.1434 4288583339
-16.710093 802.96198 1279.1434 4289043890
-14.322936 802.96198 1279.1434 4289174960
-31.033028 804.78699 1280.6823 4287858065
-28.645872 804.78699 1280.6823 4287464844
-10.742202 804.78699 1280.6823 4289503923
-30.937614 808.72467 1278.7704 4287923858
-28.557798 808.72467 1278.7704 4287596431
-26.177982 808.72467 1278.7704 4288780704
-22.608257 808.72467 1278.7704 4288649132
-19.038532 808.72467 1278.7704 4288583339
-16.658716 808.72467 1278.7704 4289241525
-14.278899 808.72467 1278.7704 4289241773
-30.937614 810.54407 1280.3044 4287989907
-28.557798 810.54407 1280.3044 4287596944
-26.177982 810.54407 1280.3044 4288583839
-22.608257 810.54407 1280.3044 4288649386
-19.038532 810.54407 1280.3044 4289043627
-16.658716 810.54407 1280.3044 4289306798
-14.278899 810.54407 1280.3044 4289044907
-10.709174 810.54407 1280.3044 4289307569
-26.077065 818.61511 1280.5696 4288847008
-22.125994 818.01099 1280.0602 4288912041
-18.965137 817.70892 1279.8054 4288780710
-16.594496 818.61511 1280.5696 4288846247
-14.223853 817.70892 1279.8054 4288649126
-9.4825687 817.70892 1279.8054 4289241002
-7.1119266 818.61511 1280.5696 4291082946
-4.7412844 818.61511 1280.5696 4291346647
-46.436699 758.474 1282.1813 4286605690
-43.992661 758.474 1282.1813 4286016631
-40.326607 758.474 1282.1813 4286870912
-46.436699 760.34247 1283.7567 4286409594
-43.992661 760.34247 1283.7567 4286082680
-40.326607 760.34247 1283.7567 4286739587
-36.660549 760.34247 1283.7567 4287330957
-34.216515 760.34247 1283.7567 4287595149
1.2220184 760.34247 1283.7567 4291872991
-34.088074 764.95709 1281.1075 4287660942
-31.653212 764.95709 1281.1075 4287989907
-29.218349 764.95709 1281.1075 4287925145
-25.566055 764.95709 1281.1075 4288647844
-21.913761 764.95709 1281.1075 4289304750
-19.478899 764.95709 1281.1075 4289501098
-17.044037 764.95709 1281.1075 4289830062
-13.391743 764.95709 1281.1075 4289437103
-9.7394495 764.95709 1281.1075 4289174949
-7.3045874 764.95709 1281.1075 4288845984
-41.392662 766.8186 1282.6771 4286935936
-36.522934 766.8186 1282.6771 4287660438
-34.088074 766.8186 1282.6771 4287594897
-31.653212 766.8186 1282.6771 4287660690
-29.218349 766.8186 1282.6771 4288055196
-25.566055 766.8186 1282.6771 4288713381
-21.913761 766.8186 1282.6771 4288976550
0 766.8186 1282.6771 4292334051
-36.3578 775.66467 1282.2877 4287462794
-33.933945 775.66467 1282.2877 4287398797
-31.510092 775.66467 1282.2877 4287925397
-29.086239 775.66467 1282.2877 4287859600
-25.450459 775.66467 1282.2877 4288714914
-21.814678 775.66467 1282.2877 4288845993
-19.390825 775.66467 1282.2877 4288976300
0 775.66467 1282.2877 4292003805
-41.205505 777.5177 1283.8501 4287135111
-37.569725 777.5177 1283.8501 4287069057
-33.933945 777.5177 1283.8501 4287201673
-26.662386 777.5177 1283.8501 4288714911
1.2119266 777.5177 1283.8501 4292070367
-36.220184 782.07483 1281.1523 4287397252
-33.805504 782.07483 1281.1523 4287004291
-31.390825 782.07483 1281.1523 4287530891
-25.35413 782.07483 1281.1523 4288844967
0 782.07483 1281.1523 4291676891
-36.220184 783.9209 1282.709 4287333256
-33.805504 783.9209 1282.709 4287397766
0 783.9209 1282.709 4291873754
-33.677063 790.2959 1281.5442 4287528852
-31.271559 790.2959 1281.5442 4287726487
-28.866055 790.2959 1281.5442 4287859352
-25.257797 790.2959 1281.5442 4288846249
-2.4055047 790.2959 1281.5442 4291412953
-36.082569 792.13495 1283.0947 4287463046
-33.677063 792.13495 1283.0947 4287397518
-2.4055047 792.13495 1283.0947 4291478746
-38.341286 800.30701 1283.4451 4286936202
-34.347401 799.69629 1282.9301 4287529102
-31.152294 798.47498 1281.9003 4288055700
-10.783486 799.39099 1282.6726 4289372596
-7.1889906 799.39099 1282.6726 4291609301
-4.7926607 799.39099 1282.6726 4291742174
-2.3963304 799.39099 1282.6726 4291807967
-33.420185 806.61194 1282.2211 4287463307
-10.742202 806.61194 1282.2211 4289438898
-7.161468 806.61194 1282.2211 4291083725
-38.194496 808.43701 1283.7599 4286477447
-33.420185 808.43701 1283.7599 4287266184
-7.161468 808.43701 1283.7599 4291083725
-4.774312 808.43701 1283.7599 4291412186
-2.387156 808.43701 1283.7599 4291741151
-30.937614 812.36346 1281.8385 4287661974
-28.557798 812.36346 1281.8385 4287597198
-26.177982 812.36346 1281.8385 4288584093
-23.798164 812.36346 1281.8385 4288912556
-19.038532 812.36346 1281.8385 4288912804
-16.658716 812.36346 1281.8385 4288912804
-10.709174 812.36346 1281.8385 4289438643
-7.1394496 812.36346 1281.8385 4291148750
-4.7596331 812.36346 1281.8385 4291477983
-30.937614 814.18286 1283.3726 4287596433
-28.557798 814.18286 1283.3726 4287531405
-26.177982 814.18286 1283.3726 4288715679
-23.798164 814.18286 1283.3726 4288912556
-16.658716 814.18286 1283.3726 4288649636
-11.899082 814.18286 1283.3726 4289175982
-7.1394496 814.18286 1283.3726 4290886344
-4.7596331 814.18286 1283.3726 4291412190
-2.3798165 814.18286 1283.3726 4291675106
-37.930275 820.42749 1282.0977 4287070086
-30.818348 820.42749 1282.0977 4287728532
-28.447706 820.42749 1282.0977 4287925906
-26.077065 820.42749 1282.0977 4288847008
-22.521101 820.42749 1282.0977 4289108904
-18.965137 820.42749 1282.0977 4289371047
-16.594496 820.42749 1282.0977 4289304998
-14.223853 820.42749 1282.0977 4288912042
-10.667891 820.42749 1282.0977 4289438126
-7.1119266 820.42749 1282.0977 4291148739
-4.7412844 820.42749 1282.0977 4291214293
-2.3706422 820.42749 1282.0977 4291543258
-40.300919 822.23987 1283.6259 4287003789
-37.930275 822.23987 1283.6259 4287070338
-34.374313 822.23987 1283.6259 4287464843
-30.818348 822.23987 1283.6259 4287925397
-28.447706 822.23987 1283.6259 4287925906
-26.077065 822.23987 1283.6259 4288715679
-22.521101 822.23987 1283.6259 4289240742
-18.965137 822.23987 1283.6259 4289042345
-16.594496 822.23987 1283.6259 4289305261
-14.223853 822.23987 1283.6259 4289174958
-10.667891 822.23987 1283.6259 4289241518
-7.1119266 822.23987 1283.6259 4290623426
-4.7412844 822.23987 1283.6259 4290886355
-2.3706422 822.23987 1283.6259 4291215577
-33.060551 830.25482 1283.8436 4286146165
-9.4458714 828.44946 1282.3214 4289438383
-7.0844035 830.25482 1283.8436 4288648099
-4.7229357 829.35217 1283.0825 4289570748
-51.517429 755.71381 1286.3942 4285421414
-49.06422 754.77606 1285.6035 4285750638
1.2266055 754.77606 1285.6034 4292070881
4.9064221 755.71381 1286.3942 4291675356
7.359633 755.71381 1286.3942 4291807198
-51.324772 763.1452 1286.1199 4285225827
-48.880733 763.1452 1286.1199 4285292137
-46.436699 763.1452 1286.1199 4286015860
-43.992661 763.1452 1286.1199 4286212469
-39.919266 762.8338 1285.8573 4286936455
-36.660549 762.21094 1285.3322 4287594132
1.6293578 762.8338 1285.8573 4292135903
4.8880734 763.1452 1286.1199 4292004577
7.3321099 763.1452 1286.1199 4291873248
9.7761469 764.07947 1286.9076 4291939036
12.220183 764.07947 1286.9076 4292004829
-46.262386 770.5415 1285.8162 4285951340
-43.827522 769.61078 1285.0314 4286277747
-41.392662 769.61078 1285.0314 4286869884
-37.740364 769.61084 1285.0314 4287264908
-34.088074 769.61078 1285.0314 4287397256
-31.653212 768.68005 1284.2466 4288054417
-29.218349 768.68005 1284.2466 4287924112
-25.566055 768.68005 1284.2466 4288450974
-21.913761 768.68005 1284.2466 4288845993
1.6232415 769.30054 1284.7698 4292136672
-46.053211 779.37079 1285.4126 4286016631
-43.629356 779.37079 1285.4126 4286214009
-41.205505 779.37079 1285.4126 4286674560
-38.781651 779.37079 1285.4126 4286870908
2.4238532 779.37079 1285.4126 4291676891
-46.053211 781.22388 1286.9751 4285950840
-43.629356 781.22388 1286.9751 4286016631
-41.205505 781.22388 1286.9751 4286543231
-38.781651 781.22388 1286.9751 4286609789
2.4238532 781.22388 1286.9751 4291742425
-41.049541 785.76697 1284.2655 4286346361
-37.427521 785.76697 1284.2655 4287004548
-33.805504 785.76697 1284.2655 4287398797
1.2073394 785.76697 1284.2655 4291742173
-41.049541 787.61298 1285.822 4286411639
-37.427521 787.61298 1285.822 4287134848
1.2073394 787.61298 1285.822 4291873505
-40.893578 793.974 1284.6454 4286872192
-37.285324 793.974 1284.6454 4287134596
-33.677063 793.974 1284.6454 4287463307
-40.893578 795.81299 1286.196 4286673784
-37.285324 795.81299 1286.196 4287068038
-40.737614 803.97107 1286.5344 4286740605
-38.341286 803.05505 1285.7621 4286609288
-35.146175 802.74969 1285.5046 4287266959
-7.1889906 802.13904 1284.9897 4291346384
-4.7926607 803.05505 1285.7621 4291676381
-2.3963304 803.05505 1285.7621 4291939297
-40.58165 812.08698 1286.8374 4286740353
-38.194496 811.17444 1286.0681 4286674826
-34.613762 811.1745 1286.0681 4287069580
-2.387156 810.26196 1285.2987 4291675106
1.193578 812.08698 1286.8374 4291609817
23.871559 812.08698 1286.8374 4291610585
-40.456882 817.82166 1286.4407 4286937485
-38.077065 816.00226 1284.9066 4287004291
-34.507339 816.91193 1285.6737 4287201673
-30.937614 816.00226 1284.9066 4287859348
-28.557798 816.00226 1284.9066 4287728784
-11.899082 816.00226 1284.9066 4289306544
-2.3798165 816.00226 1284.9066 4291478233
1.1899083 817.82166 1286.4407 4291478485
23.798164 816.91199 1285.6736 4290427850
-40.300919 824.05225 1285.1539 4286675844
-37.930275 824.05225 1285.1539 4286806912
-34.374313 824.05225 1285.1539 4287793042
-30.818348 824.05225 1285.1539 4288252828
-28.447706 824.05225 1285.1539 4287925395
-26.077065 824.05225 1285.1539 4288846497
-22.521101 824.05225 1285.1539 4289109418
-18.965137 824.05225 1285.1539 4288714409
-16.594496 824.05225 1285.1539 4289174960
-14.223853 824.05225 1285.1539 4289241003
-10.667891 824.05225 1285.1539 4289109932
-7.1119266 824.05225 1285.1539 4290294977
-4.7412844 824.05225 1285.1539 4290625236
-2.3706422 824.05225 1285.1539 4291414496
-42.671558 825.86462 1286.6821 4286477949
-40.300919 825.86462 1286.6821 4286938500
-37.930275 825.86462 1286.6821 4287265153
-34.374313 825.86462 1286.6821 4288054932
-30.818348 825.86462 1286.6821 4288252832
-28.447706 825.86462 1286.6821 4288187540
-26.077065 825.86462 1286.6821 4289174436
-21.335779 825.86462 1286.6821 4289042593
-18.965137 825.86462 1286.6821 4288714409
-16.594496 825.86462 1286.6821 4289240753
-14.223853 825.86462 1286.6821 4289437612
-11.853211 825.86462 1286.6821 4289701041
-7.1119266 825.86462 1286.6821 4290754242
-2.3706422 825.86462 1286.6821 4291546077
-52.744034 757.58936 1287.9755 4285093214
-49.06422 757.58936 1287.9755 4285488492
4.9064221 757.58936 1287.9755 4291807198
7.359633 757.58936 1287.9755 4292135907
9.8128443 757.58936 1287.9755 4291872991
-53.970642 759.46484 1289.5569 4285159007
9.8128443 759.46484 1289.5569 4291676380
12.266055 759.46484 1289.5569 4291742173
-52.546791 765.94794 1288.4832 4284963943
-48.880733 765.94794 1288.4832 4285556586
-46.436699 765.94794 1288.4832 4285885295
4.8880734 765.94794 1288.4832 4292005088
7.3321099 765.94794 1288.4832 4292071138
9.7761469 765.94794 1288.4832 4292071388
-46.262386 772.40302 1287.3857 4285951090
-43.827522 772.40302 1287.3857 4286016631
-41.392662 772.40302 1287.3857 4286477182
-38.957798 772.40302 1287.3857 4286804863
2.4348624 772.40302 1287.3857 4292135647
4.8697248 772.40302 1287.3857 4292136158
-48.697247 774.26447 1288.9552 4285227114
-46.262386 774.26447 1288.9552 4286016631
-43.827522 774.26447 1288.9552 4286214009
4.8697248 774.26447 1288.9552 4292136158
-46.053211 783.0769 1288.5375 4285950838
-43.629356 783.0769 1288.5375 4285754481
4.8477063 783.0769 1288.5375 4291545051
-45.878899 791.30505 1288.9351 4286016631
-43.464222 790.38202 1288.1567 4286280054
-41.049541 789.45898 1287.3785 4286674812
-38.634861 789.45898 1287.3785 4286936701
1.2073394 790.38202 1288.1567 4291479259
4.8293576 790.38202 1288.1567 4291675355
7.2440367 791.30505 1288.9351 4291872991
-43.299084 797.65204 1287.7466 4286410607
-40.893578 797.65204 1287.7466 4286871158
1.2027524 797.65204 1287.7466 4291939034
-43.299084 799.49109 1289.2972 4286345848
-40.893578 799.49109 1289.2972 4286740605
1.2027524 799.49109 1289.2972 4292004827
4.8110094 799.49109 1289.2972 4291872989
7.2165136 799.49109 1289.2972 4291872989
-43.133945 805.80304 1288.0791 4285951090
-40.737614 805.80304 1288.0791 4286543227
-35.944954 805.80304 1288.0791 4286937998
1.1981652 805.80304 1288.0791 4291610587
4.7926607 805.80304 1288.0791 4291741149
7.1889906 805.80304 1288.0791 4291741149
-45.530273 807.63507 1289.6239 4286543231
-43.133945 807.63507 1289.6239 4286346098
-40.737614 807.63507 1289.6239 4286675062
1.1981652 807.63507 1289.6239 4291675356
4.7926607 807.63507 1289.6239 4291610333
7.1889906 807.63507 1289.6239 4291676126
-45.355965 815.73694 1289.915 4286278006
-42.968807 814.82446 1289.1456 4285884796
-40.58165 813.91199 1288.3762 4286871690
1.193578 813.91199 1288.3762 4291675095
4.774312 814.82446 1289.1456 4291281621
7.161468 814.82446 1289.1456 4291610585
21.484404 814.82446 1289.1456 4291478488
-46.009785 820.854 1288.9974 4285951351
-42.836697 820.55072 1288.7417 4286148990
1.1899083 820.55072 1288.7417 4291544791
4.7596331 821.46045 1289.5088 4290624973
-42.671558 827.677 1288.2102 4285093732
-40.300919 827.677 1288.2102 4285225318
-37.930275 827.677 1288.2102 4285683555
-35.559631 827.677 1288.2102 4286144106
-2.3706422 827.677 1288.2102 4286806160
0 827.677 1288.2102 4286083219
-42.671558 829.48938 1289.7384 4284306783
-40.300919 829.48938 1289.7384 4284240989
1.1853211 829.48938 1289.7384 4282403426
12.311927 754.83624 1292.1943 4291872991
-56.423855 761.34033 1291.1383 4284831062
-53.970642 761.34033 1291.1383 4284569437
14.719266 761.34033 1291.1383 4291939549
-58.877064 763.21582 1292.7196 4284370259
-56.423855 763.21582 1292.7196 4284830810
13.492661 763.21582 1292.7196 4292005339
-52.546791 767.81641 1290.0586 4285422697
-48.880733 767.81641 1290.0586 4285622631
4.8880734 767.81641 1290.0586 4292136158
7.3321099 767.81641 1290.0586 4292004829
9.7761469 767.81641 1290.0586 4291874006
12.220183 767.81641 1290.0586 4291939799
-56.212845 769.68494 1291.634 4284895321
-52.546791 769.68494 1291.634 4285028191
-48.880733 769.68494 1291.634 4285095781
7.3321099 769.68494 1291.634 4292136158
9.7761469 769.68494 1291.634 4291544791
12.220183 769.68494 1291.634 4292071136
-51.132111 776.12592 1290.5248 4285227110
-48.697247 776.12592 1290.5248 4285227114
4.8697248 776.12592 1290.5248 4291807198
-51.132111 777.98743 1292.0944 4285096035
-48.697247 777.98743 1292.0944 4285095531
4.8697248 777.98743 1292.0944 4291610587
7.3045874 777.98743 1292.0944 4291742173
-46.053211 784.92993 1290.1 4286279804
-43.629356 784.92993 1290.1 4286280052
4.8477063 784.92993 1290.1 4291544791
7.2715597 784.92993 1290.1 4291544791
-48.477066 786.78302 1291.6624 4285293680
-46.053211 786.78302 1291.6624 4286082939
7.2715597 786.78302 1291.6624 4291807196
-49.500916 794.99713 1292.0481 4285292907
-45.878899 794.0741 1291.2698 4286213239
-43.464222 793.15112 1290.4916 4286344562
1.2073394 793.15112 1290.4916 4291545307
4.8293576 794.0741 1291.2698 4291872988
7.2440367 794.0741 1291.2698 4291873244
9.6587152 794.99713 1292.0481 4291873500
13.280734 794.99713 1292.0481 4291610586
16.902752 794.99713 1292.0481 4291742173
19.31743 794.0741 1291.2698 4291742172
21.732111 794.99713 1292.0481 4292071138
-48.110092 802.24963 1291.6232 4285292907
-45.704586 802.24963 1291.6232 4286016887
-43.299084 801.33008 1290.8479 4286214261
1.2027524 801.33008 1290.8479 4291873243
4.8110094 801.33008 1290.8479 4291807198
7.2165136 801.33008 1290.8479 4291741149
9.6220188 803.16913 1292.3984 4291611100
14.433027 803.16913 1292.3984 4291676891
16.838531 802.24963 1291.6232 4291610843
19.244038 802.24963 1291.6232 4291610336
21.649542 802.24963 1291.6232 4291741922
-46.728439 809.46704 1291.1686 4285819251
-43.133945 809.46704 1291.1686 4286082680
4.7926607 809.46704 1291.1686 4291676380
7.1889906 809.46704 1291.1686 4291676380
21.566973 809.46704 1291.1686 4292135645
-50.322937 811.29907 1292.7133 4285556336
-46.728439 811.29907 1292.7133 4285753459
-50.130276 817.56201 1291.4539 4285424494
-47.743118 817.56201 1291.4539 4285556336
4.774312 817.56201 1291.4539 4291544791
7.161468 817.56201 1291.4539 4291939549
21.484404 817.56201 1291.4539 4287599515
-50.130276 819.38696 1292.9927 4285753458
7.161468 819.38696 1292.9927 4289703871
21.484404 819.38696 1292.9927 4285698734
-46.406422 823.27979 1291.0428 4286345847
1.1899083 823.27979 1291.0428 4290624971
4.7596331 823.27979 1291.0428 4289572523
7.1394496 823.27979 1291.0428 4288190870
-46.406422 825.09918 1292.5769 4284700770
2.3798165 825.09918 1292.5769 4284241271
4.7596331 825.09918 1292.5769 4282206308
-56.634861 756.71875 1293.7816 4284896603
14.774312 756.71875 1293.7816 4291873500
-58.877064 766.02905 1295.0917 4284632663
-56.423855 765.09131 1294.301 4284962398
14.719266 766.02905 1295.0917 4292202465
17.172478 766.02905 1295.0917 4292071136
19.625689 766.9668 1295.8823 4291939034
-56.212845 772.48767 1293.9972 4284568667
-52.954132 772.17627 1293.7346 4285094245
7.3321099 772.48767 1293.9972 4292267747
9.7761469 772.48767 1293.9972 4292005088
12.220183 772.48767 1293.9972 4292136418
-51.132111 779.84888 1293.6639 4285030755
-48.697247 779.84888 1293.6639 4285029736
7.3045874 779.84888 1293.6639 4291611100
9.7394495 779.84888 1293.6639 4291938782
-51.132111 781.71033 1295.2334 4285490793
-48.697247 781.71033 1295.2334 4285424496
9.7394495 781.71033 1295.2334 4291872989
-49.688992 788.63611 1293.2249 4285555050
9.6954126 788.63611 1293.2249 4291872989
13.331193 788.63611 1293.2249 4291807196
16.966972 788.63611 1293.2249 4291938782
19.390825 788.63611 1293.2249 4291807194
-49.688992 790.48914 1294.7874 4285619817
9.6954126 790.48914 1294.7874 4291742173
13.331193 790.48914 1294.7874 4291741916
16.966972 790.48914 1294.7874 4291872989
-48.293579 796.8432 1293.6047 4285358700
-45.878899 796.8432 1293.6047 4286082680
9.6587152 796.8432 1293.6047 4291939295
13.280734 796.8432 1293.6047 4291807709
16.902752 796.8432 1293.6047 4291742173
19.31743 796.8432 1293.6047 4291938784
21.732111 796.8432 1293.6047 4291938784
-50.708256 798.68921 1295.1613 4285358700
9.6587152 798.68921 1295.1613 4291742173
13.280734 798.68921 1295.1613 4291873759
-55.326607 806.84717 1295.4998 4284504157
-52.921101 806.84717 1295.4998 4284635493
-49.71376 805.62115 1294.4659 4285227373
9.6220188 805.92767 1294.7244 4291676124
13.631192 806.23419 1294.9828 4291741657
16.838531 805.92767 1294.7244 4291806937
19.244038 805.92767 1294.7244 4291741144
21.649542 805.00818 1293.9491 4292136158
24.055046 805.00818 1293.9491 4291676380
-55.115597 814.96313 1295.8027 4284832606
-52.719265 814.96313 1295.8027 4284898150
-50.322937 813.1311 1294.2579 4285424494
-47.926605 813.1311 1294.2579 4285817455
10.384098 814.35248 1295.2877 4291676888
14.377981 814.96313 1295.8027 4291216092
16.774311 814.96313 1295.8027 4290426576
19.170643 814.96313 1295.8027 4289704634
-52.517429 821.21198 1294.5314 4285029736
-50.130276 821.21198 1294.5314 4285819251
9.548624 821.21198 1294.5314 4286546071
21.484404 821.21198 1294.5314 4287601323
-46.406422 826.91858 1294.111 4284438114
17.236698 760.48376 1296.9562 4292071134
-58.877064 768.84229 1297.4637 4284501847
14.719266 768.84229 1297.4637 4292399846
17.172478 768.84229 1297.4637 4292136931
19.625689 768.84229 1297.4637 4291873243
-56.212845 775.29034 1296.3604 4284635234
-53.768806 775.29034 1296.3604 4284832606
9.7761469 775.29034 1296.3604 4291939036
13.442202 775.29034 1296.3604 4291938781
17.108257 775.29034 1296.3604 4291872989
19.552294 775.29034 1296.3604 4291676126
-56.212845 777.15887 1297.9358 4284043354
-53.768806 777.15887 1297.9358 4284241239
13.442202 777.15887 1297.9358 4291807709
17.108257 777.15887 1297.9358 4291611100
19.552294 777.15887 1297.9358 4291610587
-56.001835 785.43329 1298.3726 4284962146
-52.755352 784.19232 1297.3262 4284963168
9.7394495 783.57184 1296.803 4292003805
13.391743 783.57184 1296.803 4292003804
17.044037 783.57184 1296.803 4292004059
-50.900917 794.19525 1297.9122 4285293159
-50.708256 800.53528 1296.7178 4285162091
12.073395 800.53528 1296.7178 4291676893
-55.537613 802.38135 1298.2743 4284898401
-53.122936 802.38135 1298.2743 4284833129
12.073395 802.38135 1298.2743 4291873504
-62.543118 808.68622 1297.0503 4283582803
-57.732109 808.68622 1297.0503 4283648085
-55.326607 808.68622 1297.0503 4284569187
-52.921101 808.68622 1297.0503 4284766563
9.6220188 808.68622 1297.0503 4291544791
13.230275 808.68622 1297.0503 4291544537
16.838531 808.68622 1297.0503 4291675356
19.244038 808.68622 1297.0503 4291938266
-64.948624 810.52527 1298.601 4283977549
-61.340366 810.52527 1298.601 4284043093
-57.732109 810.52527 1298.601 4284830298
-55.326607 810.52527 1298.601 4285159007
-52.921101 810.52527 1298.601 4284766563
13.230275 810.52527 1298.601 4291808221
16.838531 810.52527 1298.601 4291742175
19.244038 810.52527 1298.601 4291084502
-64.70092 818.62714 1298.8921 4284569437
-62.304588 817.71118 1298.1198 4284699995
-58.710091 818.62714 1298.8921 4284699999
-55.115597 817.71118 1298.1198 4285094500
-52.719265 816.79517 1297.3474 4284963943
11.182874 817.40582 1297.8623 4286611093
14.377981 817.71118 1298.1198 4284374655
16.774311 817.71118 1298.1198 4283059051
19.170643 817.71118 1298.1198 4282011750
-50.130276 823.03699 1296.0702 4284766559
4.774312 824.862 1297.609 4283386471
7.161468 823.94946 1296.8396 4282533474
9.548624 824.862 1297.609 4283648598
14.322936 824.862 1297.609 4284506233
21.484404 824.862 1297.609 4284113011
-59.317432 755.86212 1299.5995 4284304717
17.300917 755.86212 1299.5995 4292136929
-58.877064 770.71783 1299.0452 4284306264
14.719266 770.71783 1299.0452 4292004577
17.172478 770.71783 1299.0452 4291938784
19.625689 770.71783 1299.0452 4291807196
-58.877064 772.59332 1300.6265 4284174683
-56.212845 779.02734 1299.5114 4284108636
-53.768806 779.02734 1299.5114 4284437848
13.442202 779.02734 1299.5114 4291807453
17.108257 779.02734 1299.5114 4291676380
-56.212845 780.89581 1301.0868 4284437599
-56.001835 787.2948 1299.942 4284896605
-53.566971 787.2948 1299.942 4285159007
-56.001835 789.15625 1301.5116 4284503392
-53.566971 789.15625 1301.5116 4284503392
-55.748623 797.90137 1301.0371 4284569437
-53.324772 796.97485 1300.2559 4284635491
-61.57431 805.15039 1300.6091 4283451985
-57.952293 804.22736 1299.8308 4283254090
-62.543118 812.36426 1300.1516 4284306262
-57.732109 812.36426 1300.1516 4284372055
-64.948624 814.20331 1301.7021 4284307034
-60.137615 814.20331 1301.7021 4284372055
-57.732109 814.20331 1301.7021 4284633433
-62.304588 820.45917 1300.4368 4284635234
-58.710091 820.45917 1300.4368 4284700768
-55.115597 820.45917 1300.4368 4284766559
-52.719265 820.45917 1300.4368 4284766559
10.783486 820.45917 1300.4368 4281548381
14.377981 820.45917 1300.4368 4282730076
16.774311 820.45917 1300.4368 4282401112
21.566973 820.45917 1300.4368 4286282623
-52.719265 822.2912 1301.9814 4284437848
-50.322937 822.2912 1301.9814 4284437848
11.981651 822.2912 1301.9814 4284701286
16.774311 822.2912 1301.9814 4284309111
19.170643 822.2912 1301.9814 4284113011
14.322936 826.68701 1299.1478 4291086037
16.710093 826.68701 1299.1478 4290296522
19.097248 826.68701 1299.1478 4289309628
21.484404 826.68701 1299.1478 4288651442
14.322936 828.51196 1300.6866 4291741401
16.710093 828.51196 1300.6866 4291280850
19.097248 828.51196 1300.6866 4290887379
21.484404 828.51196 1300.6866 4290755537
-61.559631 769.89636 1304.8926 4284108886
-61.330276 776.34436 1303.7893 4284174933
-58.877064 775.40662 1302.9985 4283911769
-58.656879 782.76428 1302.6622 4284304216
-58.656879 784.63281 1304.2377 4284238418
-56.001835 791.0177 1303.0812 4284371805
-53.566971 791.0177 1303.0812 4284437850
-56.001835 792.87921 1304.6508 4284569185
-58.172478 799.75439 1302.5996 4283714128
-60.596329 801.60742 1304.162 4283255374
-65.196327 809.7655 1304.5005 4284175185
-60.366974 809.7655 1304.5005 4284174933
-67.354126 816.96185 1304.0281 4284831584
-64.948624 817.88135 1304.8035 4284962146
19.244038 817.88135 1304.8035 4282532422
11.981651 824.12317 1303.5262 4291346393
-61.78899 765.30975 1307.5654 4284174933
-61.330276 778.21985 1305.3706 4284306264
-58.877064 778.21985 1305.3706 4283845461
-61.330276 780.09534 1306.952 4284108634
-64.766968 787.43549 1306.6008 4283320144
-61.100918 787.43555 1306.6008 4283648595
-58.656879 787.43555 1306.6008 4283845461
-64.523857 794.74066 1306.2202 4283648591
-60.871559 794.74066 1306.2202 4283845713
-58.436699 794.74066 1306.2202 4283977300
-64.523857 796.60217 1307.7898 4283386446
-60.871559 796.60217 1307.7898 4283648848
-67.354126 820.63989 1307.1294 4285098099
-64.948624 820.63989 1307.1294 4284308583
-61.741283 820.33344 1306.871 4284438113
-57.732109 819.7204 1306.354 4284569185
-55.326607 820.63989 1307.1294 4284503392
-52.921101 821.55945 1307.9047 4284307034
-50.515594 821.55945 1307.9047 4284240985
7.2165136 821.55945 1307.9047 4289370545
9.6220188 821.55945 1307.9047 4289109431
11.981651 825.9552 1305.0709 4292134895
16.774311 827.78723 1306.6156 4291347928
19.170643 827.78723 1306.6156 4291740887
-62.06422 758.26904 1309.4771 4284501845
-61.78899 769.08881 1310.7518 4284043606
-64.766968 790.23828 1308.9641 4283320398
-61.100918 790.23828 1308.9641 4283845711
-58.656879 790.23828 1308.9641 4283845461
-67.354126 823.39844 1309.4553 4286282894
-64.948624 823.39844 1309.4553 4284704119
-62.06422 760.16699 1311.0774 4284174933
-60.366974 818.99573 1312.2831 4284372576
-57.952293 818.99573 1312.2831 4284437599
-62.781651 820.84174 1313.8396 4284110944
9.6587152 820.84174 1313.8396 4290621400
13.230275 825.23749 1311.006 4291217117
16.838531 827.07648 1312.5565 4291872989
19.244038 827.07648 1312.5565 4291741141
21.649542 827.07648 1312.5565 4292069850
-64.546791 763.96289 1314.278 4283977300
14.488073 824.53381 1316.9528 4291741403
21.732111 822.68774 1315.3962 4291938266
19.244038 828.91553 1314.1072 4287464594
21.649542 828.91553 1314.1072 4287530387
-61.78899 776.64697 1317.1246 4283977300
-60.596329 818.28497 1318.224 4284242786
-58.172478 818.28497 1318.224 4284504157
-55.748623 818.28497 1318.224 4284504157
-67.867889 820.13806 1319.7865 4286876065
-64.232109 820.13806 1319.7865 4285625735
-60.596329 820.13806 1319.7865 4284638577
9.6954126 820.13806 1319.7865 4288980929
16.902752 826.37988 1318.5093 4287990688
-65.023849 756.6568 1321.198 4284109140
-64.546791 772.5036 1321.4792 4284042839
14.543119 823.84412 1322.9114 4288253604
19.31743 828.22589 1320.0658 4286409072
21.732111 830.07196 1321.6223 4290355625
-65.023849 760.48071 1324.4222 4283912277
-64.785324 766.98071 1323.3627 4284372057
-58.436699 817.07837 1325.0548 4284505190
-56.001835 817.07837 1325.0548 4284636777
14.543119 825.6972 1324.4739 4285359995
16.966972 825.6972 1324.4739 4286149768
-68.176147 818.93982 1326.6244 4288387239
-64.523857 818.93982 1326.6244 4286873487
-60.871559 818.93982 1326.6244 4285754238
-58.436699 818.93982 1326.6244 4285424246
12.174312 818.93982 1326.6244 4291151553
-60.871559 820.80127 1328.1938 4287002510
16.966972 827.55023 1326.0363 4284571497
19.390825 827.55023 1326.0363 4286671217
19.390825 829.40332 1327.5988 4284769910
14.609175 824.52423 1331.333 4283913823
19.390825 831.25635 1329.1611 4283195758
-67.822021 761.09351 1332.7871 4284043093
-70.877068 818.26556 1332.5959 4289309124
-68.433029 818.26556 1332.5959 4289307580
-64.766968 818.26556 1332.5959 4287924898
-58.656879 818.26556 1332.5959 4286409855
12.220183 818.26556 1332.5959 4285891722
-68.433029 820.13403 1334.1714 4289439427
-64.766968 820.13403 1334.1714 4288057518
-61.100918 820.13403 1334.1714 4287201951
12.220183 820.13403 1334.1714 4284179810
14.609175 826.38568 1332.9026 4283717501
17.044037 826.38568 1332.9026 4282796399
14.609175 828.24719 1334.472 4290031552
17.044037 828.24719 1334.472 4285491836
-70.590828 758.41748 1337.0709 4283977300
-68.069725 756.49011 1335.4458 4283977300
-65.548622 756.49011 1335.4458 4284174933
-54.172478 807.54663 1336.6384 4284504157
-73.596329 815.72986 1336.998 4290098640
-56.423855 813.85437 1335.4167 4284963695
9.8128443 814.79211 1336.2074 4285100401
-63.544952 822.00256 1335.7468 4288913335
-61.100918 822.00256 1335.7468 4287926440
12.220183 822.93677 1336.5345 4285952893
14.609175 830.10864 1336.0416 4290887631
17.044037 830.10864 1336.0416 4288058276
14.609175 831.97009 1337.6112 4291346647
-70.590828 760.34491 1338.696 4283845461
-68.069725 760.34491 1338.696 4283845461
-70.590828 762.27234 1340.3212 4283648596
-68.069725 762.27234 1340.3212 4283846232
-49.431194 803.10034 1339.4294 4284176226
-54.172478 809.42914 1338.2256 4284898401
-78.796333 811.31165 1339.813 4291215577
-54.172478 811.31165 1339.813 4285095785
-71.14312 817.60535 1338.5795 4289768644
-58.877064 817.60535 1338.5795 4286281099
9.8128443 817.60535 1338.5795 4284442981
-67.463303 819.48083 1340.1609 4290032329
-58.877064 819.48083 1340.1609 4287465887
9.8128443 819.48083 1340.1609 4289440944
-63.544952 825.7395 1338.8978 4290555848
-61.100918 826.67371 1339.6855 4289832897
-58.656879 827.60797 1340.4733 4289241798
-56.212845 827.60797 1340.4733 4288386489
12.220183 826.67371 1339.6855 4291411914
14.609175 833.8316 1339.1807 4290953171
-73.43119 757.14215 1343.8438 4283912277
-70.590828 764.19971 1341.9463 4283452502
-51.902752 805.93463 1341.8193 4284701279
-49.431194 806.87939 1342.6158 4284964195
7.4146791 806.87939 1342.6158 4288780702
-73.871559 815.07666 1342.9875 4290887125
-55.814068 814.44916 1342.4584 4285292915
-63.783485 821.35632 1341.7422 4289636540
-61.330276 821.35632 1341.7422 4288583852
9.8128443 821.35632 1341.7422 4291215054
-58.877064 823.23181 1343.3236 4289241019
-56.423855 823.23181 1343.3236 4288254124
9.8128443 823.23181 1343.3236 4291674833
12.220183 829.47644 1342.0487 4290953422
-58.656879 831.34497 1343.6241 4289966539
-56.212845 831.34497 1343.6241 4289966539
9.7761469 831.34497 1343.6241 4291084504
12.220183 831.34497 1343.6241 4290952919
-73.43119 759.07794 1345.476 4284109399
-88.238533 769.98193 1346.8218 4283322466
-49.651375 801.92175 1346.2839 4284569698
4.9651375 801.92175 1346.2839 4285292924
7.4477062 801.92175 1346.2839 4290358985
-51.902752 808.76892 1344.2091 4285292907
-84.033028 810.65845 1345.8022 4291283930
-79.089905 810.65845 1345.8022 4291282144
-76.618347 810.65845 1345.8022 4291019229
-54.374313 810.65845 1345.8022 4285488742
-51.902752 810.65845 1345.8022 4285554535
7.4146791 810.65845 1345.8022 4284049253
-88.645874 818.84167 1346.1621 4286411400
-83.7211 818.84167 1346.1621 4292004575
-73.871559 817.90045 1345.3684 4291479003
-71.409172 817.90045 1345.3684 4291216088
-59.097248 818.84167 1346.1621 4287925927
-55.403671 817.90045 1345.3684 4286544785
7.387156 818.84167 1346.1621 4291346132
-61.330276 826.98285 1346.4863 4290165717
-58.877064 826.98285 1346.4863 4289769675
-56.423855 826.98285 1346.4863 4289638089
-53.970642 826.0451 1345.6957 4288519603
7.359633 826.98285 1346.4863 4290953171
9.8128443 826.0451 1345.6957 4291413198
-58.656879 833.2135 1345.1997 4289308345
-56.212845 833.2135 1345.1997 4289242552
7.3321099 833.2135 1345.1997 4290953425
9.7761469 833.2135 1345.1997 4290953171
-56.212845 835.08191 1346.7751 4288321187
-88.238533 771.9093 1348.4469 4284110696
-47.343121 797.46002 1349.062 4284176226
-44.851376 797.46002 1349.062 4283519064
-9.9669724 796.50757 1348.2589 4289307572
-7.4752293 796.50757 1348.2589 4287925920
-4.9834862 797.46002 1349.062 4284444294
-2.4917431 797.46002 1349.062 4282733420
2.4917431 797.46002 1349.062 4283324264
4.9834862 797.46002 1349.062 4286475397
-47.168808 803.8197 1347.8842 4284964195
-44.686237 803.8197 1347.8842 4284701536
4.9651375 803.8197 1347.8842 4283385933
-96.820183 805.71765 1349.4845 4289242800
-94.337616 805.71765 1349.4845 4287926677
-91.855049 805.71765 1349.4845 4284242525
-84.407341 805.71765 1349.4845 4290623156
-81.924774 805.71765 1349.4845 4291347136
-49.651375 805.71765 1349.4845 4285423201
-47.168808 805.71765 1349.4845 4285291359
-44.686237 805.71765 1349.4845 4284964195
-9.930275 805.71765 1349.4845 4287793055
-7.4477062 805.71765 1349.4845 4291346134
4.9651375 805.71765 1349.4845 4284310615
7.4477062 805.71765 1349.4845 4285100130
-85.268806 812.54797 1347.3955 4291806929
-79.089905 812.54797 1347.3955 4291808477
-76.618347 812.54797 1347.3955 4291347926
-51.902752 812.54797 1347.3955 4284833129
7.4146791 812.54797 1347.3955 4286083973
-91.447708 814.4375 1348.9886 4284177232
-88.976151 814.4375 1348.9886 4286410861
-85.268806 814.4375 1348.9886 4291806672
-81.56147 814.4375 1348.9886 4292136679
-79.089905 814.4375 1348.9886 4291546075
-76.618347 814.4375 1348.9886 4291282646
-51.902752 814.4375 1348.9886 4285558142
-49.431194 814.4375 1348.9886 4285490287
4.943119 814.4375 1348.9886 4291148752
7.4146791 814.4375 1348.9886 4290688201
-54.172478 820.72424 1347.7494 4287730342
-51.710091 820.72424 1347.7494 4286809240
7.387156 820.72424 1347.7494 4291280337
-51.710091 822.60675 1349.3367 4287334299
-49.247707 822.60675 1349.3367 4287069846
7.387156 822.60675 1349.3367 4291281104
-61.330276 828.85834 1348.0677 4290821597
-53.152905 830.10864 1349.1219 4288913075
-49.06422 830.73383 1349.649 4288451739
-46.611008 830.73383 1349.649 4287662224
-44.157799 830.73383 1349.649 4287923858
4.9064221 830.73383 1349.649 4290953425
7.359633 828.85834 1348.0677 4290953171
-91.15596 764.88544 1350.3727 4287530649
-88.623856 764.88544 1350.3727 4283319897
-91.15596 766.82123 1352.0049 4286941080
-86.091743 766.82123 1352.0049 4283518545
-88.238533 773.83673 1350.072 4283715427
-88.238533 775.76416 1351.6971 4283451998
-22.508257 792.98425 1351.8285 4290424205
-20.007339 792.98425 1351.8285 4289897402
-16.255962 792.98425 1351.8285 4289700275
-12.504587 792.98425 1351.8285 4289634735
-47.343121 799.36499 1350.6682 4284569698
-44.851376 799.36499 1350.6682 4284242273
-12.458715 799.36499 1350.6682 4289897389
-9.9669724 799.36499 1350.6682 4289700789
-7.4752293 799.36499 1350.6682 4288977065
-4.9834862 799.36499 1350.6682 4286477479
-2.4917431 799.36499 1350.6682 4284437639
1.2458715 799.36499 1350.6682 4283454554
-42.359634 801.26996 1352.2744 4284767585
-39.867889 801.26996 1352.2744 4284635747
-17.442202 801.26996 1352.2744 4285490539
-13.704587 801.26996 1352.2744 4286806662
-9.9669724 801.26996 1352.2744 4289501613
-7.4752293 801.26996 1352.2744 4291606989
-4.9834862 801.26996 1352.2744 4291346895
-2.4917431 801.26996 1352.2744 4290162877
1.2458715 801.26996 1352.2744 4284705399
-96.820183 808.56458 1351.885 4284307309
-94.337616 808.56458 1351.885 4283912540
-91.855049 809.51355 1352.6851 4284111196
-89.372475 808.56458 1351.885 4285752157
-86.889908 807.6156 1351.0848 4291737768
-81.924774 808.56458 1351.885 4291677404
-49.651375 808.56458 1351.885 4285488232
-47.168808 808.56458 1351.885 4285620075
-44.686237 808.56458 1351.885 4285489001
-19.86055 809.51355 1352.6851 4285687932
-17.377981 809.51355 1352.6851 4285951103
-13.240367 808.88086 1352.1517 4285885053
-9.930275 808.56458 1351.885 4285821305
-7.4477062 808.56458 1351.885 4289966007
-4.9651375 808.56458 1351.885 4290820548
-2.4825687 808.56458 1351.885 4291215306
2.4825687 809.51355 1352.6851 4291082957
4.9651375 808.56458 1351.885 4288849838
-85.268806 817.27179 1351.3784 4290162632
-81.56147 816.32703 1350.5819 4292794091
-79.089905 816.32703 1350.5819 4292334305
-76.618347 816.32703 1350.5819 4292071134
-51.902752 816.32703 1350.5819 4286018189
-49.431194 817.27179 1351.3784 4286673530
-46.959633 817.27179 1351.3784 4286081394
-44.488075 818.21655 1352.175 4286146419
-7.4146791 818.21655 1352.175 4291739324
4.943119 817.27179 1351.3784 4290819786
-51.710091 824.48926 1350.924 4287994032
4.9247708 824.48926 1350.924 4290821584
-51.710091 826.37177 1352.5112 4288518831
-49.247707 826.37177 1352.5112 4288452005
-46.78532 826.37177 1352.5112 4287794075
-44.322937 826.37177 1352.5112 4288055952
4.9247708 826.37177 1352.5112 4290821584
-52.744034 832.60938 1351.2305 4288254624
-49.06422 832.60938 1351.2305 4287991442
-46.611008 832.60938 1351.2305 4287399049
-44.157799 832.60938 1351.2305 4287399049
-91.486237 760.30164 1353.0479 4287728284
-88.944954 760.30164 1353.0479 4283780448
-86.403671 760.30164 1353.0479 4284370511
-94.027519 762.24451 1354.686 4289634744
-86.403671 762.24451 1354.686 4283649102
-91.15596 769.72498 1354.4532 4287202711
-31.399082 787.97894 1355.4563 4287133314
-27.631193 787.97894 1355.4563 4289436065
-25.119267 787.97894 1355.4563 4289831846
-22.60734 787.97894 1355.4563 4289700259
-20.095413 787.97894 1355.4563 4289108652
-16.327522 787.97894 1355.4563 4289371821
-12.559633 787.97894 1355.4563 4289701041
-10.047707 787.97894 1355.4563 4289634994
-22.508257 794.89624 1353.4406 4286083182
-20.007339 794.89624 1353.4406 4287724166
-16.255962 794.89624 1353.4406 4289369250
-12.504587 794.89624 1353.4406 4290224816
0 794.89624 1353.4406 4281810769
-95.034859 796.80823 1355.0527 4290821582
-42.515594 796.80823 1355.0527 4284439395
-25.009174 796.80823 1355.0527 4284635493
-22.508257 796.80823 1355.0527 4284767080
-20.007339 796.80823 1355.0527 4285684588
-16.255962 796.80823 1355.0527 4288777627
-88.456879 803.17493 1353.8806 4286412158
-42.359634 803.17493 1353.8806 4284964195
-39.867889 803.17493 1353.8806 4284964708
-24.917431 803.17493 1353.8806 4285161587
-22.425688 803.17493 1353.8806 4285885310
-19.933945 803.17493 1353.8806 4285754229
-17.442202 803.17493 1353.8806 4285490800
-13.704587 803.17493 1353.8806 4286411902
-4.9834862 803.17493 1353.8806 4291543245
-2.4917431 803.17493 1353.8806 4291148487
1.2458715 803.17493 1353.8806 4287201942
-92.194496 805.07983 1355.4868 4284503657
-42.359634 805.07983 1355.4868 4285619558
-39.867889 805.07983 1355.4868 4285293159
-32.392662 805.07983 1355.4868 4285228136
-28.655045 805.07983 1355.4868 4285358700
-24.917431 805.07983 1355.4868 4285292403
-22.425688 805.07983 1355.4868 4285818748
-19.933945 805.07983 1355.4868 4285950840
-17.442202 805.07983 1355.4868 4286016633
-14.950459 805.07983 1355.4868 4285688181
1.2458715 805.07983 1355.4868 4290886092
-47.168808 811.4115 1354.2854 4285753458
-44.686237 811.4115 1354.2854 4285490287
-22.343119 811.4115 1354.2854 4285623672
-19.86055 811.4115 1354.2854 4285885560
-17.377981 811.4115 1354.2854 4286017146
-13.654128 811.4115 1354.2854 4285622393
-9.930275 811.4115 1354.2854 4285031532
-7.4477062 811.4115 1354.2854 4289571249
-4.9651375 811.4115 1354.2854 4290557633
-2.4825687 811.4115 1354.2854 4291018184
2.4825687 811.4115 1354.2854 4291148750
-43.444954 813.30945 1355.8857 4285753458
-32.273396 813.30945 1355.8857 4285885810
-24.825687 813.30945 1355.8857 4285885047
-22.343119 813.30945 1355.8857 4285819253
-19.86055 813.30945 1355.8857 4286082939
-17.377981 813.30945 1355.8857 4286477697
-13.654128 813.30945 1355.8857 4285557627
-9.930275 813.30945 1355.8857 4286083189
-7.4477062 813.30945 1355.8857 4289965233
-4.9651375 813.30945 1355.8857 4291477700
-2.4825687 813.30945 1355.8857 4291214784
2.4825687 813.30945 1355.8857 4291346382
-49.431194 821.99561 1355.3615 4287992483
-46.959633 821.05084 1354.5649 4286741905
-44.488075 821.05084 1354.5649 4286346367
-22.244038 821.99561 1355.3615 4285951603
-19.772476 821.05084 1354.5649 4285819506
-17.300917 821.99561 1355.3615 4285424746
-13.593578 821.99561 1355.3615 4288908429
-9.8862381 821.99561 1355.3615 4291474367
-7.4146791 821.05084 1354.5649 4291803849
-4.943119 821.99561 1355.3615 4291083209
-2.4715595 821.05084 1354.5649 4290951366
2.4715595 821.05084 1354.5649 4291017679
4.943119 820.10608 1353.7683 4291017932
-41.86055 829.19556 1354.8921 4286214263
2.4623854 828.25427 1354.0985 4290887631
-94.43486 757.12415 1358.2169 4289831605
-84.225685 757.12415 1358.2169 4284633683
-81.673393 757.12415 1358.2169 4284372055
-79.121101 757.12415 1358.2169 4283977297
-76.56881 757.12415 1358.2169 4283582803
-94.027519 764.18732 1356.3242 4289110971
-94.027519 766.13013 1357.9623 4289307830
-91.15596 772.62866 1356.9016 4287202199
-91.15596 774.56451 1358.5338 4287070872
-25.21101 783.47375 1358.1978 4289503144
-42.702751 791.8197 1358.6947 4283848028
-35.166973 790.8595 1357.885 4284766820
-31.399082 790.85956 1357.885 4285425516
-27.631193 790.8595 1357.885 4285886578
-25.119267 790.8595 1357.885 4287200877
-97.535782 798.72021 1356.6648 4290557642
-95.034859 798.72021 1356.6648 4288849089
-87.532112 798.72021 1356.6648 4286481031
-37.51376 799.67615 1357.4709 4284898918
-35.012844 799.67615 1357.4709 4285030503
-31.261467 799.67615 1357.4709 4285030504
-27.510092 799.67615 1357.4709 4285030505
-25.009174 798.72021 1356.6648 4285030251
-22.508257 798.72021 1356.6648 4285096044
-20.007339 798.72021 1356.6648 4284898401
-42.359634 806.98486 1357.093 4285424494
-39.867889 806.98486 1357.093 4285227884
-32.392662 806.98486 1357.093 4285293678
-28.655045 806.98486 1357.093 4285424494
-24.917431 806.98486 1357.093 4285293178
-22.425688 806.98486 1357.093 4285687680
0 806.98486 1357.093 4291280337
-42.359634 808.88977 1358.6993 4285490287
-39.867889 808.88977 1358.6993 4285293678
-34.884403 808.88977 1358.6993 4285293678
-32.392662 808.88977 1358.6993 4285490800
-28.655045 808.88977 1358.6993 4285622643
-24.917431 808.88977 1358.6993 4285623672
0 808.88977 1358.6993 4291082957
-81.924774 815.2074 1357.486 4292335089
-42.203671 815.2074 1357.486 4286278006
-39.7211 815.2074 1357.486 4285885560
-32.273396 815.2074 1357.486 4285688435
-28.549541 815.2074 1357.486 4285885045
-24.825687 815.2074 1357.486 4285885045
-22.343119 815.2074 1357.486 4286082680
-19.86055 815.2074 1357.486 4286543744
-17.377981 815.2074 1357.486 4286411902
-13.654128 815.2074 1357.486 4284967538
-9.930275 815.2074 1357.486 4287331450
-4.9651375 815.2074 1357.486 4291347149
-2.4825687 815.2074 1357.486 4290952391
1.2412844 815.2074 1357.486 4291018448
-42.016514 823.88513 1356.9547 4287134850
-39.544952 823.88513 1356.9547 4286936703
-32.130276 823.88513 1356.9547 4286871940
-28.422935 823.88513 1356.9547 4286083971
-24.715597 823.88513 1356.9547 4286345846
-22.244038 823.88513 1356.9547 4285424744
-19.772476 823.88513 1356.9547 4285947760
-17.300917 823.88513 1356.9547 4287855757
-13.593578 823.88513 1356.9547 4290554547
-9.8862381 823.88513 1356.9547 4291608788
-7.4146791 823.88513 1356.9547 4291345359
-4.943119 823.88513 1356.9547 4290952139
-2.4715595 823.88513 1356.9547 4291083725
1.2357798 823.88513 1356.9547 4290952654
-39.544952 825.77466 1358.5479 4286607491
-37.073395 825.77466 1358.5479 4286409855
-32.130276 825.77466 1358.5479 4285556082
-19.772476 825.77466 1358.5479 4289763224
-17.300917 825.77466 1358.5479 4291013035
-13.593578 825.77466 1358.5479 4291344065
