# .PCD v0.7 - Point Cloud Data file format
VERSION 0.7
FIELDS x y z rgb
SIZE 4 4 4 4
TYPE F F F U
COUNT 1 1 1 1
WIDTH 1168
HEIGHT 1
VIEWPOINT 0 0 0 1 0 0 0
POINTS 1168
DATA ascii
22.398165 798.91754 802.22644 4291543497
24.982569 799.57617 802.78174 4287398014
28.42844 799.57617 802.78174 4290158995
31.874311 800.23474 803.33704 4291936186
34.458717 800.23474 803.33704 4293515709
39.627522 799.57617 802.78174 4294967295
-1.7192661 803.02637 803.07483 4290092435
0 803.02637 803.07483 4289698461
4.2981653 803.02637 803.07483 4290422433
7.7366972 801.71198 801.96655 4291869366
10.315597 801.71198 801.96655 4292199623
13.754128 801.71198 801.96655 4292660424
16.333027 801.71198 801.96655 4293383891
20.058105 802.15009 802.33594 4294306030
22.350458 802.36914 802.52069 4287464333
24.929358 803.02637 803.07483 4287654487
41.262386 802.36914 802.52069 4294967295
0 806.5481 802.12024 4289764256
4.2844038 806.5481 802.12024 4290422951
7.7119265 805.23792 801.0155 4291803575
10.282569 805.23792 801.0155 4292199621
13.710092 805.23792 801.0155 4292595401
16.280735 805.23792 801.0155 4293449685
19.42263 806.11133 801.75195 4293844446
23.13578 806.5481 802.12024 4284568396
43.700916 805.89294 801.56787 4294967295
-1.7137614 807.85828 803.22485 4289961621
0.85688072 807.85828 803.22485 4289830562
4.2788992 808.59265 802.53607 4290160549
7.6954126 809.32703 801.84729 4291541176
11.115597 809.32703 801.84729 4292396228
13.680734 809.32703 801.84729 4292528325
16.245872 809.32703 801.84729 4293647839
19.666054 809.32703 801.84729 4289307047
23.086239 809.32703 801.84729 4285620821
25.706423 807.85828 803.22485 4289829756
28.277065 807.85828 803.22485 4291143845
41.130276 807.85828 803.22485 4294967295
43.700916 807.85828 803.22485 4294966526
47.077065 808.59265 802.53607 4294967295
49.592659 809.32703 801.84729 4294967295
-1.7100917 810.6344 802.94971 4289631886
1.7100917 810.6344 802.94971 4290093220
4.2752295 810.6344 802.94971 4290488226
6.8403668 810.6344 802.94971 4291276977
23.086239 810.6344 802.94971 4286277734
25.651377 810.6344 802.94971 4290353824
27.361467 810.6344 802.94971 4290815131
49.592659 810.6344 802.94971 4294967295
51.302753 810.6344 802.94971 4294967295
-1.7045871 815.4397 803.07727 4289040002
0.5681957 815.00531 802.711 4289632654
4.5455661 815.00531 802.711 4290620323
7.6706419 814.78809 802.52789 4291869115
11.079817 814.78815 802.52783 4292856524
13.636697 814.78809 802.52789 4292989910
16.193579 814.78809 802.52789 4290095792
19.318655 814.57086 802.34473 4283121203
23.011927 814.13654 801.97852 4288576600
25.568808 814.13654 801.97852 4291338130
27.841589 815.00531 802.711 4291340967
30.68257 815.4397 803.07727 4292461251
13.60734 818.20044 802.78906 4289635257
16.158716 818.20044 802.78906 4283451989
19.844038 817.76703 802.42358 4284633142
22.6789 817.33356 802.05811 4288906857
25.513762 817.55029 802.24084 4290157201
27.21468 818.20044 802.78906 4289697177
0 819.50085 803.8855 4286408295
22.888073 821.68298 801.80127 4288842623
25.431192 821.68298 801.80127 4289697681
27.21468 819.50085 803.8855 4290287518
23.684404 824.43109 801.50232 4288644478
25.431192 822.97913 802.89417 4289960081
27.126606 824.27527 803.98706 4291866256
25.376146 825.72443 802.5929 4290484881
27.06789 827.01782 803.68335 4294104779
-7.8634863 748.69739 805.66321 4289173139
53.614677 748.42413 805.43286 4294110451
-4.4541283 752.08203 804.5929 4290819234
1.7816514 752.08203 804.5929 4294767102
46.322937 752.08203 804.5929 4294571256
48.995415 752.08203 804.5929 4294307572
51.667889 752.08203 804.5929 4294109938
-10.689908 754.80615 806.88989 4285749348
-7.7204895 754.35211 806.50708 4286013025
-5.344954 753.44409 805.74146 4287329651
1.7816514 753.44409 805.74146 4292922068
44.541283 754.80615 806.88989 4294636795
46.322937 754.12512 806.31567 4294570999
48.995415 753.44409 805.74146 4294438901
-7.9926605 758.44714 806.03577 4286013793
-4.7363911 757.54193 805.27246 4286671726
1.7761468 757.08929 804.89087 4291672251
40.259327 757.99445 805.65411 4294768638
42.627522 757.76819 805.46332 4294571002
-7.0899081 761.32147 805.84326 4286080098
-4.4311924 760.64392 805.27197 4286342499
1.772477 759.96643 804.70068 4289368716
34.563301 759.96643 804.70068 4292333271
37.812847 760.86981 805.4624 4294175218
40.766972 761.32147 805.84326 4294899455
-7.0678897 764.94708 804.9762 4286212451
-5.3009176 764.94708 804.9762 4286146658
34.455963 764.94708 804.9762 4292462797
38.050461 763.81183 805.98102 4293714406
40.766972 762.67657 806.98584 4294504695
-7.0678897 766.29791 806.11523 4286606444
35.339451 766.29791 806.11523 4292397768
37.106422 766.29791 806.11523 4293187541
-7.0458717 769.91089 805.23743 4287462001
-4.697248 769.01312 804.48047 4286869356
1.7614679 768.56421 804.10205 4286278494
31.706423 768.56421 804.10205 4289107609
34.348625 769.23755 804.66974 4292594635
36.990826 769.91089 805.23743 4293647319
-7.9155965 772.38647 805.36279 4287791475
-5.26789 773.51544 804.35266 4288383355
34.241287 773.51544 804.35266 4292398276
36.990826 771.25757 806.37292 4293910228
-7.901835 775.52905 806.05054 4287726204
-4.3862386 775.60913 804.80994 4288844427
34.206421 775.60913 804.80994 4292660674
38.631191 776.20032 806.61646 4294108124
-7.8853211 778.36975 805.82965 4287725174
-5.2568808 777.69995 805.26489 4288909701
37.674309 778.36975 805.82965 4294305766
-6.9871559 781.95258 804.92651 4288119420
-5.2403669 781.28485 804.36353 4289106310
34.93578 781.28485 804.36353 4293252052
37.264832 782.17511 805.1142 4294502123
-7.8532109 784.70142 805.93616 4287659893
-4.6483178 784.55859 804.50775 4289106576
1.7431192 784.11438 804.13318 4290027162
3.4862385 784.11438 804.13318 4288314770
34.862385 784.11438 804.13318 4293120214
37.517433 784.70142 805.93616 4294305773
40.176147 783.95575 806.61548 4294967295
-7.8440366 786.7796 806.38049 4287791991
38.348625 786.7796 806.38049 4294701556
40.091743 786.7796 806.38049 4294967295
-10.425688 791.66907 806.57898 4286738275
-8.1088686 790.78351 805.83234 4287463283
-4.3440366 789.01227 804.33887 4288777868
3.4752293 789.01227 804.33887 4290684572
37.358719 789.67651 804.89893 4294832117
41.702751 790.3407 805.45898 4294967295
-6.9284406 793.89331 804.5304 4287724670
-5.1963301 793.89331 804.5304 4288711565
38.106422 793.89331 804.5304 4294967036
-10.39266 796.54175 806.76343 4286606946
-7.7871561 795.95752 804.96277 4287790455
-4.3211012 796.69751 804.27869 4288776843
1.7284404 796.69751 804.27869 4289634201
31.976147 796.69751 804.27869 4292002490
34.568806 796.69751 804.27869 4292396723
37.161469 796.69751 804.27869 4294899179
-8.0660543 798.45941 805.76422 4287659383
-5.1853213 798.01892 805.39282 4288711314
37.161469 798.01892 805.39282 4294965739
-7.4660549 802.43011 805.18817 4287724665
-4.3073397 801.55194 804.44775 4288974474
1.7229358 801.55194 804.44775 4290027425
28.42844 801.55194 804.44775 4291144094
31.874311 802.21057 805.00305 4292922310
34.458717 802.21057 805.00305 4294966782
37.043121 802.21057 805.00305 4294900731
39.627522 801.55194 804.44775 4294967039
-10.337615 804.18634 806.66895 4286934373
-8.023242 806.09326 805.66083 4287131757
-4.2981653 804.99792 804.7373 4288645765
-1.7192661 804.34076 804.18311 4289961619
1.7192661 804.34076 804.18311 4290027171
25.78899 804.34076 804.18311 4289174152
28.367889 804.34076 804.18311 4290882219
31.806421 805.65515 805.29138 4293779167
34.385323 805.65515 805.29138 4294967295
36.964218 806.31232 805.84552 4294967039
39.972935 805.32654 805.01428 4294967295
-6.8550458 809.16846 804.32959 4287197298
-4.2844038 809.16846 804.32959 4288513409
29.133945 809.16846 804.32959 4291867819
31.704586 809.16846 804.32959 4293845220
34.27523 809.16846 804.32959 4294967295
41.130276 809.16846 804.32959 4294967295
43.700916 809.16846 804.32959 4294967295
47.128441 809.16846 804.32959 4294967295
-7.7119265 811.13373 805.98669 4286868076
-4.2807341 811.21021 804.74316 4287987321
-1.7100917 811.94177 804.052 4289172103
1.7100917 811.94177 804.052 4290290332
3.4201834 811.94177 804.052 4290356125
29.07156 811.94177 804.052 4292064430
31.636698 811.94177 804.052 4293713891
35.132111 810.47864 805.43433 4294967295
37.702751 810.47864 805.43433 4294967295
40.273396 811.13373 805.98669 4294967295
43.415287 810.91534 805.80255 4294967295
49.699081 810.47864 805.43433 4294967295
52.157799 811.94177 804.052 4294967295
-7.410398 814.12079 805.88922 4286934123
-4.2752295 813.24915 805.1543 4287789685
32.491745 813.24915 805.1543 4294961642
35.056881 813.90283 805.70557 4294967037
37.622017 813.90283 805.70551 4294967295
39.332111 814.55658 806.25671 4294967295
-6.8183484 818.04608 805.2749 4286934121
-4.2614679 817.39453 804.72546 4286802792
-1.7045871 817.39453 804.72546 4287066219
1.1363914 817.17731 804.5423 4286738021
4.2614679 817.39453 804.72546 4286541403
7.6706419 817.39453 804.72546 4289631884
10.795719 817.17731 804.5423 4290750381
28.977982 817.39453 804.72546 4291867577
31.534863 817.39447 804.72546 4293844948
34.091743 818.04608 805.2749 4294967295
-6.8183484 819.34924 806.37366 4287133805
-4.2614679 819.34924 806.37366 4286936169
-1.7045871 819.34924 806.37366 4287002217
0.85229355 820.0752 805.6778 4285291608
4.2614679 819.34924 806.37366 4284763704
28.096331 820.0752 805.6778 4292065187
31.534863 819.34924 806.37366 4294964982
34.091743 819.34924 806.37366 4294967295
37.500916 819.34924 806.37366 4294967295
0 822.10156 806.07837 4286935922
28.915596 822.10156 806.07837 4294961612
-12.53578 749.63184 809.06714 4285553220
53.72477 748.26276 807.91272 4293978353
55.515594 748.94727 808.48993 4293715181
-12.510092 752.52307 808.88892 4285421384
-10.722936 751.15674 807.73682 4285290329
-8.9357796 751.15674 807.73682 4285685344
49.14679 752.52307 808.88892 4294373364
52.7211 751.15674 807.73682 4294109680
-13.065442 757.07635 808.80402 4285881174
-10.689908 756.16827 808.03833 4286210916
44.541283 756.8493 808.61261 4294505207
46.322937 756.16827 808.03833 4294307316
-10.65688 760.48401 807.75311 4286145889
-8.8807335 760.48401 807.75311 4286277475
42.627522 760.48401 807.75311 4294504950
-10.65688 762.52081 809.47058 4286409574
-8.8623857 764.03162 808.12842 4287133553
38.994495 764.03162 808.12842 4293516769
40.766972 764.03162 808.12842 4294701043
42.627522 762.52081 809.47058 4294570488
-10.634862 765.38672 809.271 4286213214
-8.8348627 767.6488 807.25427 4287068523
38.873394 767.6488 807.25427 4293516767
40.766972 765.38672 809.271 4294503662
42.539448 765.38672 809.271 4294110451
-10.601835 769.67505 808.96271 4286541413
38.873394 768.99963 808.39319 4293385435
40.640366 769.67505 808.96271 4294700781
42.407341 770.35052 809.53223 4294767863
-10.568808 773.95087 808.64392 4286607470
-8.8073397 772.60419 807.50842 4287725691
37.871559 772.60419 807.50842 4293516248
40.51376 773.95087 808.64392 4294897897
42.27523 773.95087 808.64392 4294966779
-12.330276 775.29749 809.7793 4286474858
44.036697 775.29749 809.7793 4294967295
-10.53578 778.21399 808.31439 4286738278
40.387157 777.54279 807.74841 4294966267
42.728443 778.43774 808.50311 4294967295
-10.513762 781.71893 808.65356 4286937194
-8.7614679 780.37927 807.52393 4287198826
40.302753 780.37927 807.52393 4294966015
42.055046 781.71893 808.65356 4294967295
-13.142202 783.05853 809.78308 4286605928
-10.480734 785.2912 807.74146 4286936940
41.922935 785.2912 807.74146 4294967295
-13.100918 787.29431 809.43048 4286540134
-10.458715 788.11224 807.50403 4286739559
-13.073395 790.11121 809.18951 4286605926
-12.163302 793.66174 808.25916 4286671719
-10.425688 792.9975 807.6991 4286606946
-13.012844 796.76013 808.90967 4286605156
-10.39266 797.86597 807.88 4286475360
-12.124771 799.19012 808.99646 4286999914
-10.370643 800.66174 807.62122 4286737762
-12.099083 801.98315 808.73535 4286999403
-12.060551 806.16211 808.33496 4286736743
-10.337615 805.50354 807.77966 4286934121
-10.315597 808.94116 808.06207 4286539111
-8.5963306 808.28394 807.50793 4286670954
44.700916 809.59833 808.61621 4294967295
46.420185 808.28394 807.50793 4294967295
48.999084 808.94116 808.06207 4294967295
52.437614 809.59833 808.61621 4294967295
-12.034863 810.91272 809.72449 4286473820
-10.315597 810.91272 809.72449 4286473570
44.700916 810.91272 809.72449 4294967295
-10.282569 815.06433 809.30078 4286538852
-8.5504589 815.86395 807.35901 4286801770
35.911926 815.86395 807.35901 4294967295
37.622017 815.86395 807.35901 4294967295
40.50153 814.94232 807.45392 4294967295
43.677982 814.77295 808.40112 4294967295
-8.5504589 817.82501 809.01257 4287459440
35.911926 817.17133 808.46143 4294967295
40.187157 817.82501 809.01257 4294967295
42.752293 817.82501 809.01257 4294967295
-6.8183484 821.30396 808.02191 4288118896
-4.2614679 821.30396 808.02197 4288447605
-1.7045871 821.30396 808.02191 4288579449
31.534863 821.30396 808.02191 4294967039
34.944038 821.30396 808.02191 4294967295
37.500916 821.30396 808.02191 4294967295
-6.8183484 823.25873 809.67004 4288249720
-5.1137614 823.25873 809.67004 4288973186
28.915596 823.40192 807.1748 4294965742
32.387157 823.25873 809.67004 4294967295
34.944038 823.25873 809.67004 4294967295
-16.117432 752.37006 811.37598 4285092167
-14.326606 751.00092 810.22156 4285026626
51.933945 751.68549 810.79877 4294110449
-16.99633 754.49738 811.86163 4285289803
-14.297248 753.88934 810.04089 4285354826
46.466057 755.25562 811.19299 4294438902
49.14679 754.57251 810.61694 4294175985
-16.084404 756.62195 812.34497 4285619280
-13.362385 758.89246 810.33533 4286014552
44.541283 758.89246 810.33533 4294767867
46.466057 756.62195 812.34497 4294505208
49.14679 756.62195 812.34497 4293847020
-16.628746 761.1626 812.24951 4285619031
-13.362385 760.25452 811.48376 4286475091
44.541283 760.25452 811.48376 4294899453
46.322937 760.93555 812.05804 4294307829
48.995415 761.61658 812.63232 4294570999
-13.3211 763.87872 810.61548 4286344287
44.403671 763.87872 810.61548 4294373879
-15.985321 765.91553 812.33282 4285880922
-13.308256 765.9892 811.08698 4286145893
43.471558 765.9892 811.08698 4294505461
47.06789 765.91553 812.33282 4294769146
-13.58899 768.54858 811.93701 4286144866
44.311928 768.09686 811.55615 4294636534
46.970642 768.77441 812.12744 4294966782
49.629356 769.4519 812.69873 4294967295
-13.252294 772.37683 811.24078 4286211431
44.174313 771.70142 810.67126 4294966779
46.530273 772.60199 811.43066 4294967295
49.475231 773.05225 811.8103 4294967295
-15.902752 774.40314 812.94934 4286473307
-13.21101 776.64417 810.91479 4286408293
46.753212 775.52368 811.93207 4294967295
49.475231 774.40314 812.94934 4294967295
-15.853211 777.99084 812.05029 4286342234
46.678898 777.99084 812.05029 4294967295
49.321102 777.99084 812.05029 4294967295
-16.681652 782.91254 812.27612 4286013019
-13.169725 780.22766 810.01221 4286671467
43.899082 780.89893 810.57819 4294967295
46.533028 781.57013 811.14417 4294967295
-15.770642 785.73785 812.04211 4286144356
-14.018349 784.39819 810.9126 4285882205
43.807339 784.39819 810.9126 4294967295
45.559631 784.39819 810.9126 4294967295
-15.721101 790.63293 812.24548 4286277463
-15.688073 793.44275 811.99866 4286014809
-13.944954 792.11011 810.875 4286276961
-15.638532 796.98279 811.05945 4285882966
-13.900917 796.98279 811.05945 4286144862
-15.638532 798.31122 812.17944 4285553752
-13.856881 800.51434 810.11304 4286209630
-15.588991 803.16278 812.34619 4285947226
-13.856881 801.83856 811.22961 4286144608
-13.827523 804.62598 810.96375 4286078812
-13.209174 808.57697 810.37109 4286276446
46.519264 808.79651 810.55615 4294967295
48.816513 809.01611 810.74121 4294967295
-12.894495 812.22711 810.83264 4286473307
46.420185 812.22711 810.83264 4294967295
48.242203 810.77234 812.22217 4294967295
-12.894495 813.5415 811.94092 4286604130
46.420185 813.5415 811.94092 4294967295
-10.282569 817.68469 811.51025 4287195755
44.557796 817.68469 811.51025 4294967295
-10.26055 821.09344 811.76843 4287328114
-8.5504589 820.43976 811.21729 4288182908
37.622017 821.09344 811.76843 4294967295
40.187157 820.43976 811.21729 4294967295
42.752293 819.78607 810.66614 4294967295
-13.680734 822.40082 812.87085 4286145111
-11.115597 822.40082 812.87085 4287131497
37.622017 822.40082 812.87085 4294967295
40.187157 822.40082 812.87085 4294967295
-21.555964 752.83777 815.69434 4284895558
-19.759632 751.46442 814.53638 4284961614
-17.963303 750.09113 813.37854 4285092167
52.093578 752.15112 815.11536 4294242032
-23.280733 755.10828 813.68469 4284698699
-19.699083 755.10828 813.68469 4285356109
-17.908257 755.10828 813.68469 4285356109
-25.07156 757.16187 815.41632 4284895298
-22.385321 757.16193 815.41638 4285224007
-19.699083 756.47736 814.83911 4285487177
-17.871559 757.98822 813.49695 4285421652
49.14679 757.98822 813.49695 4293913069
52.829353 757.16193 815.41638 4294966269
-25.020184 760.72083 815.80103 4284895310
-22.339451 760.72083 815.80103 4285289807
-19.658716 760.03772 815.22504 4285552718
52.7211 760.72083 815.80103 4294967295
-19.598166 764.34082 814.9292 4285552468
-17.816513 763.65979 814.35498 4285683543
49.292358 763.4328 814.16357 4294967295
-16.873394 767.95233 814.05029 4286012506
-24.866055 769.31024 815.19519 4285289553
-23.089909 769.31024 815.19519 4285552468
-19.537615 769.31024 815.19519 4285618261
-16.85688 770.05859 814.51819 4285881947
-17.724771 772.16211 814.98376 4286078805
-17.669725 775.75397 814.08838 4286145111
-19.436697 777.10486 815.22729 4285947228
-16.733946 779.33746 813.18579 4286145111
-21.137615 782.03082 815.45667 4285749602
-19.376146 781.35748 814.88892 4285749856
-25.461468 784.92621 813.974 4285487445
-22.827522 784.92627 813.97394 4285815899
-17.559633 784.255 813.40796 4285683805
-25.461468 786.93988 815.67188 4285553235
-22.827522 786.93988 815.67188 4285750104
-19.315596 786.93988 815.67188 4286013019
-16.938837 787.52411 813.54828 4285882199
-17.46789 791.96838 813.37146 4285948759
-17.431192 794.77539 813.12231 4285685844
-17.431192 796.77435 814.80774 4285750617
-15.638532 799.63959 813.29956 4285947226
-17.376146 802.29645 815.53979 4285684824
-15.588991 804.487 813.46265 4285816410
52.829357 805.81122 814.57922 4294967295
-16.144342 807.66479 814.39813 4285947483
50.124771 809.25092 814.86334 4294967295
52.829357 807.13544 815.6958 4294967295
-15.506422 812.08954 813.33276 4286275678
48.242203 812.08954 813.33276 4294967295
-16.367889 814.06531 814.99866 4285815899
-12.894495 814.8559 813.04919 4286538850
46.420185 814.8559 813.04919 4294967295
48.242203 814.06531 814.99866 4294967295
-15.473394 816.82751 814.71161 4286013534
-12.894495 816.17029 814.15747 4286867551
46.420185 816.82751 814.71161 4294967295
-13.710092 819.64996 813.16736 4286472791
-11.99633 819.64996 813.16736 4287393893
43.700916 820.30505 813.71973 4294967295
-15.423853 822.27032 815.37671 4286275927
-13.710092 822.27032 815.37671 4286473307
-11.128441 822.98926 814.67493 4287328615
40.273396 822.27032 815.37671 4294967295
43.700916 822.27032 815.37671 4294967295
-21.622019 749.1897 816.54248 4284698699
-25.020184 762.77026 817.52911 4285356112
-22.339451 762.77026 817.52911 4285355601
52.7211 762.77026 817.52905 4294967295
-21.379816 767.06494 817.2262 4285552468
-19.598166 765.70288 816.07776 4285684311
-24.943119 768.42706 818.37463 4285159250
-22.237614 769.54761 817.35736 4285356116
-19.537615 770.66809 816.34009 4285487447
-22.201836 772.026 817.48499 4285618520
-19.537615 772.026 817.48499 4285749850
-22.155964 774.87225 817.26892 4285684056
-22.087156 778.45575 816.36633 4285618779
-21.137615 784.05078 817.15991 4285946971
-19.376146 783.37744 816.59216 4285880922
-25.461468 788.28235 816.80371 4285487706
-21.949541 788.28235 816.80371 4285554010
-19.315596 788.28235 816.80371 4285882716
-24.583487 789.62482 817.93567 4285225815
-21.903669 791.09644 816.56042 4285291609
-19.275229 791.09644 816.56042 4285225815
-21.903671 793.10583 818.2547 4285292121
-19.275229 792.43604 817.68994 4284964695
-19.21468 796.64233 817.3125 4285553748
-17.431192 798.77325 816.49316 4285881433
-19.174313 801.43854 818.74048 4285685074
-17.376146 803.62488 816.65979 4285750617
-19.113762 805.61755 818.33997 4285488465
55.603668 806.28174 818.90002 4294967295
-19.053211 809.78381 817.92883 4285487959
-17.3211 808.45966 816.81226 4286012506
52.829357 809.1217 817.37048 4294967295
-17.284403 811.23303 816.53467 4285684057
50.124771 811.89374 817.09174 4294967295
-19.012844 813.87585 818.76294 4285357658
52.71743 813.87585 818.76294 4294967295
-18.952293 818.01697 818.33057 4285358169
-16.644037 817.39948 816.93799 4285947991
46.420185 818.79907 816.37402 4294967295
49.275963 817.09485 817.5531 4294967295
52.262386 818.23651 818.51562 4294967295
-17.192661 820.77063 818.03644 4285815118
46.420185 820.11346 817.4823 4294967295
48.13945 820.77063 818.03644 4294967295
-15.423853 824.2356 817.03381 4286407002
-13.710092 824.2356 817.03381 4286603865
40.273396 823.58051 816.48145 4294967295
43.986542 824.01727 816.84967 4294967295
46.271561 823.58051 816.48145 4294967295
-15.423853 826.20087 818.69092 4286869348
-13.710092 826.20087 818.69092 4287198052
55.123856 748.29675 819.71362 4294702329
51.827522 764.8197 819.25708 4294967295
-24.943119 769.78912 819.52319 4285421652
-28.183487 788.7641 821.13403 4285421915
-26.422018 788.09076 820.56628 4285421915
-24.583487 790.96729 819.06763 4284833110
-24.583487 792.98096 820.76544 4285684569
-22.827522 793.65216 821.33142 4285881433
-21.027523 795.78516 820.51385 4285685074
-24.455046 799.98096 820.12756 4283977801
-22.708258 799.98096 820.12756 4285096283
-20.088074 799.31323 819.56451 4285685074
-24.455046 801.31641 821.25354 4284633935
-22.708258 801.31641 821.25354 4285357658
-20.917431 802.77118 819.86414 4285488208
-22.660551 804.10382 820.98779 4285356372
-20.917431 804.10382 820.98779 4285422415
-20.851376 808.27429 820.5802 4285356372
55.603668 808.27429 820.5802 4294967295
-19.053211 811.10803 819.04541 4285487959
52.829357 811.10803 819.04541 4294967295
55.427525 812.43225 820.16199 4294967295
-24.249542 813.75647 821.27844 4283846213
-22.517431 813.75647 821.27844 4284175435
-20.741285 815.19727 819.8772 4284504144
53.58165 815.19727 819.8772 4294967295
55.310093 815.19727 819.8772 4294967295
-20.741285 816.51862 820.99133 4285159250
55.310093 816.51862 820.99133 4294967295
57.038532 816.51862 820.99133 4294967295
-19.526606 820.87091 820.737 4285684047
46.519264 821.30994 821.10718 4294967295
49.390823 820.87085 820.737 4294967295
52.262386 820.43182 820.3667 4294967295
-18.911926 824.05664 820.80701 4286538330
-17.192661 823.39941 820.25293 4286079065
-16.308258 826.44104 820.85547 4286869348
-13.710092 827.51111 819.79565 4287264873
-28.770643 791.00848 823.02643 4285815642
-26.422018 790.78406 822.83722 4285815642
-29.06422 792.80408 824.54041 4285553755
-25.502752 793.89935 823.50189 4285225304
-22.827522 794.99463 822.46338 4285423451
-24.455046 802.65186 822.37952 4285027408
-27.889908 805.4364 822.11133 4284501065
-24.984711 806.32489 822.86041 4284830028
-22.660551 806.10272 822.67316 4285225043
-27.801834 812.92383 824.50049 4284500811
-25.485016 811.5954 823.38037 4284436812
-22.588991 810.26697 822.26025 4284765518
-20.851376 810.26697 822.26025 4284897107
-24.249542 815.08069 822.39502 4284435272
-22.517431 815.08069 822.39502 4285027410
-27.713762 817.72913 824.62805 4285946715
-25.115597 816.40491 823.5116 4285683795
-22.517431 816.40491 823.5116 4285552461
-20.741285 817.84003 822.10547 4285815376
55.310093 817.84003 822.10547 4294967295
57.038532 817.84003 822.10547 4294967295
-27.655046 820.48285 824.33386 4285486412
-25.062386 819.82214 823.77686 4285618000
-22.469725 819.16144 823.21973 4285618254
53.58165 819.82214 823.77679 4294967295
55.310093 819.82214 823.77679 4294967295
57.038532 819.16144 823.21973 4294967295
-22.398165 822.62714 822.21777 4285749583
-20.10092 823.50531 822.95819 4286012503
46.519264 822.62714 822.21777 4294967295
49.103668 823.28577 822.77307 4294967295
51.688072 822.62714 822.21777 4294966271
-24.121101 825.26154 824.43909 4285880920
-19.813763 825.26154 824.43909 4284895824
-17.192661 826.68542 823.02356 4284828748
-29.06422 794.1507 825.6759 4284174411
-26.422018 794.1507 825.6759 4283649350
-27.801834 814.25226 825.62061 4286012508
-28.868502 820.81903 827.2334 4286142284
-25.062386 821.80426 825.448 4285617475
-22.469725 821.80426 825.448 4285815628
52.71743 821.80426 825.448 4294967295
55.368809 821.75305 826.71289 4294966527
57.038532 821.80426 825.448 4294967295
-27.655046 823.78638 827.11932 4286209368
-25.926605 823.78638 827.11932 4285880403
-22.469725 823.78638 827.11932 4285157707
50.124771 823.78638 827.11932 4294967039
52.71743 823.78638 827.11926 4294900478
-24.121101 826.57874 825.54968 4285486925
-20.10092 827.01776 825.91992 4283119432
-29.445871 823.68811 829.65253 4284436555
-25.062386 825.76849 828.79053 4282791223
-22.469725 825.76849 828.79053 4282725940
57.522934 817.43011 832.22412 4294967295
55.314983 818.23193 835.5163 4294966527
58.517429 818.00934 835.32861 4294967039
55.19725 817.88928 839.15149 4294967295
56.366974 815.6972 843.84338 4294965246
56.366974 817.04388 844.97876 4294834430
54.776146 814.92908 847.11975 4294966526
53.009174 816.27997 848.25879 4294966783
55.57156 817.33527 847.18652 4294768893
56.366974 820.41052 847.8175 4294967039
58.128441 820.41052 847.8175 4294967039
53.449543 807.92761 851.68054 4294967295
55.231194 807.92761 851.68054 4294967295
52.341286 812.78833 850.54681 4294967039
51.401836 815.52441 851.54578 4294966783
-22.970642 817.6308 849.39783 4283317305
53.009174 818.30627 849.96729 4294900221
54.776146 818.30627 849.96729 4294966783
-26.504587 820.33252 851.67578 4284041798
-22.087156 820.33252 851.67578 4283777346
53.009174 820.33252 851.67578 4294966015
54.776146 820.33252 851.67578 4294965759
-28.183487 822.43048 849.52063 4283976005
-26.422018 823.77716 850.65613 4284500811
56.366974 823.10382 850.08838 4294703357
58.128441 823.10382 850.08838 4294900735
55.486237 825.12384 851.79163 4294702842
58.128441 825.12384 851.79163 4294966783
51.827522 805.80859 853.81787 4294967295
51.667889 809.28967 852.82898 4294967295
-24.866055 814.79919 853.55029 4283646270
-22.201836 815.47809 854.1228 4283513657
-25.700916 817.55707 853.25964 4283778113
51.401836 817.55707 853.25964 4294967039
-24.737616 821.68341 852.81482 4283976005
-22.087156 821.68341 852.81482 4284041798
52.205505 820.63654 853.89417 4294900991
54.776146 821.68341 852.81482 4294769150
-25.621101 823.0343 853.95386 4284566598
-22.087156 823.0343 853.95386 4284435016
53.009174 823.0343 853.95386 4294966527
55.779816 826.91937 853.3056 4294833658
58.128441 826.47046 852.92712 4294833912
50.451378 797.40283 857.19458 4294967295
52.253212 797.40283 857.19458 4294967295
54.055046 797.40283 857.19458 4294966783
52.991745 800.90356 856.22229 4294967295
50.297249 802.27692 857.38013 4294967295
50.14312 805.76501 856.39722 4294967295
-22.385321 807.13409 857.55151 4283251512
50.040367 809.22437 856.69794 4294966783
-19.598166 814.73804 857.42285 4283776323
49.886238 813.37592 856.27441 4294966783
-19.537615 818.19385 856.4126 4283910212
49.732109 817.51489 855.84015 4294966015
-19.537615 819.55176 857.5575 4284369477
49.629356 820.94476 856.11609 4294966271
51.401836 820.94476 856.11609 4294967295
-24.737616 824.38513 855.0929 4284829515
-22.087156 824.38513 855.0929 4284632906
52.205505 823.34247 856.17578 4294965246
-24.737616 826.41144 856.80133 4285289553
-22.970642 825.73602 856.23181 4285026894
54.776146 826.41144 856.80133 4294965502
46.461468 784.03052 860.30774 4294966270
47.133945 791.06909 859.70233 4294967295
49.85321 790.37616 859.11804 4294966783
49.701836 793.89368 858.15991 4294967295
46.388382 796.19659 860.10156 4294966783
48.798164 795.96631 859.90741 4294967295
46.847706 800.1579 859.51758 4294967295
49.550461 799.46912 858.93683 4294967295
46.847706 801.5354 860.67908 4294967295
48.500916 803.65021 858.53809 4294967295
-19.759632 806.39679 860.854 4283514168
48.500916 805.0235 859.69604 4294967039
-21.489908 808.50317 858.70593 4283514168
-19.699083 809.87231 859.86035 4283710266
48.352295 808.50317 858.70593 4294967295
48.253212 811.95691 859.00201 4294966015
-17.871559 814.00635 860.72998 4283189053
-19.598166 818.82428 860.86829 4284436554
48.104588 817.46216 859.71979 4294965501
49.732109 820.90961 858.70251 4294833660
-21.269724 823.65491 858.40125 4284895821
49.732109 822.26752 859.84741 4294899453
52.06361 823.18262 859.74701 4294833660
-22.155964 825.00995 859.5437 4285289553
53.174313 825.00995 859.5437 4294899451
46.461468 785.42346 861.48218 4294967295
49.194496 785.42346 861.48218 4294967295
-18.220184 788.20935 863.83118 4282923833
43.728439 788.20935 863.83118 4294967295
45.458717 788.2403 861.24133 4294967295
43.640366 791.02057 863.58557 4294967295
45.458717 789.63043 862.41345 4294967295
43.508255 794.53394 862.62378 4294967295
45.321102 793.14801 861.4552 4294967295
43.508255 795.91986 863.79236 4294967295
-21.688074 799.42059 862.81995 4283250230
-18.977064 800.11145 863.40247 4283185718
-16.266054 800.80237 863.98499 4283187000
43.376148 800.80237 863.98499 4294966015
45.183487 799.42059 862.82001 4294967295
-19.820183 802.9129 861.84058 4283055162
46.847706 802.9129 861.84058 4294967295
-18.018349 804.29047 863.00208 4283579963
45.946789 804.29047 863.00208 4294967039
-17.963303 807.77014 862.01196 4283972669
44.908257 809.14343 863.16992 4294967295
46.704586 808.45679 862.59094 4294965759
-17.012844 811.9259 861.59198 4283252794
46.561466 812.61047 862.16919 4294966271
-16.994495 814.67615 862.60278 4283714884
44.770641 813.97961 863.32349 4294966271
46.466057 815.37268 861.88208 4294966015
46.466057 816.73895 863.03406 4294635511
-19.598166 820.86743 862.591 4285093200
-17.816513 821.54846 863.16528 4285421652
49.886238 821.54846 863.16528 4294504695
-22.201836 824.98328 862.13721 4285421652
51.508255 824.98328 862.13721 4294966271
43.205505 776.19214 865.47083 4294967295
45.963303 776.19214 865.47083 4294967295
43.13945 778.66986 865.59796 4294966783
-16.497248 782.54474 866.90308 4284762955
43.076149 781.84406 866.31232 4294966271
43.86055 784.68054 864.77991 4294966271
-16.447706 786.0777 865.95801 4282792246
-14.620184 786.0777 865.95801 4283053354
42.033028 786.0777 865.95801 4294967295
-21.86422 790.99524 866.18018 4282923062
-19.434862 790.06659 865.39722 4282594615
-16.398165 790.29877 865.59296 4282922547
-14.576147 790.99524 866.18018 4283250226
41.906422 790.29877 865.59296 4294967039
-18.789602 793.33759 865.53906 4283315509
-16.365137 793.8009 865.92981 4283447862
41.822018 793.8009 865.92981 4294967295
-18.128441 797.30579 864.96094 4283316276
43.508255 797.30579 864.96094 4294967295
-14.502752 798.69177 866.12964 4283187513
-16.266054 802.18408 865.15002 4283579963
-14.458715 803.5658 866.31506 4284104763
41.568806 803.5658 866.31506 4294966527
43.376148 802.87494 865.73254 4294966783
-16.216515 805.66797 864.16357 4284038718
45.045872 805.66797 864.16357 4294967039
-16.216515 807.04547 865.32495 4283645757
-13.513762 807.73425 865.9057 4283451713
43.244038 807.73425 865.9057 4294966270
-14.370643 811.20337 864.90674 4283583550
44.908257 810.51672 864.32776 4294966783
-17.012844 815.34869 864.47791 4284370761
-13.472477 813.26337 866.64368 4284109388
43.941284 814.30603 865.56079 4294898940
-16.994495 817.4115 864.90924 4284764492
-13.729664 817.63055 866.40192 4284960334
44.770641 817.40234 866.20953 4294899453
46.513763 818.09607 865.48645 4294899453
48.253212 818.10522 864.18616 4294967039
-16.084404 820.15466 865.91412 4285158225
48.253212 820.15466 865.91412 4294768380
-22.270641 824.27264 865.46216 4285619024
-19.598166 823.59155 864.88794 4285684564
-17.816513 822.91052 864.31372 4285421654
49.886238 823.59155 864.88794 4294833658
-23.161469 825.6347 866.61072 4285686096
38.840366 769.77429 867.90765 4294967295
40.689907 769.77429 867.90765 4294967295
40.689907 771.89526 869.69604 4294967295
-12.908257 776.86328 869.96094 4288119926
40.568806 776.86328 869.96094 4294966783
42.28624 779.0033 867.84119 4294966527
-13.788991 780.40887 869.02637 4283976003
-11.031193 780.40887 869.02637 4284172353
-12.831193 784.64679 868.67554 4282988077
-10.998165 785.34747 869.26636 4282858292
-13.706423 788.17346 867.72504 4283053616
40.205505 788.17346 867.72504 4294636794
-12.792661 790.26917 869.49207 4283055414
38.377983 790.26917 869.49207 4294965757
40.205505 790.26917 869.49207 4294768637
-13.665138 793.08466 867.94196 4283185973
40.084404 793.78113 868.52917 4294967295
-16.365137 795.19104 867.10193 4283382069
-13.334557 796.58124 868.27411 4283252022
-10.921101 796.57269 869.57495 4283316279
38.262386 795.17407 869.70374 4294967039
40.933025 796.22937 868.63147 4294966783
-14.502752 800.0777 867.29822 4283646520
41.695412 800.0777 867.29822 4294966271
-12.689908 801.46362 868.4668 4284104763
-9.9706421 802.84955 869.63538 4283711811
39.882568 802.84955 869.63538 4294966271
-12.651376 804.94751 867.4801 4283517250
-10.844037 806.32922 868.64514 4283975744
41.568806 805.63837 868.06262 4294966526
-12.612844 809.80054 867.64795 4284175683
-9.9403667 807.71094 869.81018 4284371265
-7.2293577 807.71094 869.81018 4283845959
40.601837 808.75574 868.72906 4294966524
43.244038 809.80054 867.64795 4294966015
-9.609786 811.63721 869.19659 4284633674
-7.2073393 811.86682 869.3902 4284699726
-5.4055047 812.55554 869.97095 4284831312
41.442204 811.86682 869.3902 4294966271
43.244038 812.55554 869.97095 4294833660
-12.574312 814.63666 867.80164 4284698447
-10.777982 814.63666 867.80164 4285027658
-10.777982 816.01001 868.95959 4285355859
-8.9816513 816.01001 868.95959 4285290066
43.111927 816.01001 868.95959 4294833660
-13.431192 820.14056 868.51825 4285487192
44.770641 820.82513 869.09546 4294440184
46.561466 819.45599 867.94104 4294702844
-22.04159 824.48126 869.56226 4286080091
-19.658716 824.25354 869.37024 4286277214
-16.977982 822.88727 868.21814 4285948247
46.466057 822.2041 867.64221 4294308084
48.253212 822.2041 867.64221 4294702842
8.8348627 839.24469 867.62207 4287658362
7.6568809 841.04584 869.14062 4287790457
10.601835 840.59552 868.76099 4287987073
34.21101 760.6944 872.02411 4294966783
37.21101 764.04236 870.92279 4294967039
39.07156 763.33112 870.32312 4294967295
37.21101 766.1759 872.7218 4294967039
38.955963 769.74677 871.80859 4294967295
-12.946789 773.3092 870.88831 4288119154
40.689907 773.3092 870.88831 4294967295
-10.172478 774.72321 872.08057 4288382841
38.840366 774.72321 872.08057 4294967039
-9.2201834 778.27307 871.14954 4284238146
-7.3761468 779.68286 872.33826 4282920503
38.72477 779.68286 872.33826 4294833407
40.568806 778.27307 871.14954 4294438902
-10.111927 781.81445 870.21143 4282921004
40.447708 781.81445 870.21143 4294636282
-9.1926603 783.92285 871.9892 4282726452
-7.3541284 783.92285 871.9892 4282858293
-5.5155964 784.62561 872.58179 4282923833
37.689907 783.92285 871.9892 4294702073
-10.387156 787.68311 871.23566 4282989623
37.577065 787.44952 871.0387 4294899964
-10.065138 790.60895 871.7406 4282990128
-7.3321099 789.55157 872.81104 4283187000
-5.4990826 789.55157 872.81104 4283253049
37.519264 790.60895 871.7406 4294900733
-9.1376143 793.06348 871.84814 4283382069
-7.310092 793.06348 871.84814 4283448121
36.550457 793.06348 871.84814 4294899451
-9.1100922 796.56702 870.87817 4283381819
-7.2880735 797.95996 872.05273 4283777856
-5.4660549 797.95996 872.05273 4283909698
37.655048 797.49561 871.66119 4294966783
-10.000917 799.36145 870.61829 4283712063
-7.2733946 800.75159 871.79041 4283451205
38.185322 800.75159 871.79041 4294967295
40.00367 799.36145 870.61829 4294965759
-4.5458717 802.14172 872.96265 4283583043
-1.8183486 802.14172 872.96265 4283977801
38.185322 802.14172 872.96265 4294967039
-9.0642204 804.23547 870.80396 4284107073
-7.2513762 804.23547 870.80396 4283583044
-4.5321102 805.6214 871.97253 4283910982
-1.812844 805.6214 871.97253 4284370763
39.882568 804.23547 870.80396 4294965498
-5.4220185 809.09271 870.97522 4284502347
39.761467 809.09271 870.97522 4294966783
-3.6146789 810.47443 872.14026 4284897105
37.954128 810.47443 872.14026 4294967295
39.761467 810.47443 872.14026 4294966783
-7.2073393 814.62183 871.7132 4285093715
-4.5045872 814.62183 871.7132 4285291349
41.442204 814.62183 871.7132 4294965246
-10.777982 818.06995 870.69647 4285488216
-8.9816513 818.06995 870.69647 4285356630
43.710705 817.84106 870.50348 4294834685
-10.777982 820.12994 872.43335 4285882716
43.111927 820.12994 872.43335 4294768637
-17.012844 823.56329 871.4043 4286277211
-13.431192 822.19421 870.24988 4285816410
44.770641 822.19421 870.24988 4294505208
46.561466 822.19421 870.24988 4294636534
12.433027 837.20416 872.44165 4287987073
-1.8770642 755.41272 875.41895 4289500303
0 755.41272 875.41895 4289237900
30.033028 755.41272 875.41895 4294896369
31.816513 757.57806 873.32056 4294967295
-9.3577986 759.00885 874.52698 4288183677
-7.4862385 759.72424 875.13019 4288249455
-4.6788988 759.00885 874.52698 4288776321
-1.8715596 759.00885 874.52698 4289697429
0 759.00885 874.52698 4289698449
29.3211 759.96271 875.33124 4294966527
31.816513 759.72424 875.13019 4294965502
-13.062386 764.02319 874.83081 4287261537
-9.9522934 763.54767 874.42987 4287986796
-7.46422 764.02319 874.83081 4288316015
-4.6651378 763.30994 874.22937 4289170050
-1.866055 763.30988 874.22937 4290025112
0 763.30988 874.22937 4289829004
31.722937 764.02319 874.83081 4294965759
34.522018 763.30994 874.22937 4294768893
-13.023853 767.59833 873.92114 4287130210
-10.233027 767.59833 873.92114 4287854694
-7.4422016 767.59833 873.92114 4288710006
37.21101 767.59833 873.92114 4294967039
-4.6513758 769.02075 875.12048 4290222226
-1.8605504 769.02075 875.12048 4290748323
0 769.02075 875.12048 4290880670
34.420185 769.02075 875.12048 4294702331
37.21101 769.02075 875.12048 4294967039
-10.202752 771.16498 873.00439 4288578935
-7.4201837 771.87408 873.60229 4289170812
-4.6376147 772.58319 874.2002 4289763730
-1.8550459 772.58319 874.2002 4290355623
38.028442 771.87408 873.60229 4294966782
-7.3981652 776.13721 873.27283 4284369203
-4.6238532 776.13721 873.27283 4285356108
-1.8550459 774.0014 875.396 4286014305
0 774.0014 875.396 4288510577
34.318352 774.0014 875.396 4294966014
37.970642 775.06934 874.33441 4294438902
-4.6238532 777.55121 874.46497 4283711043
-1.8495413 777.55121 874.46497 4284830548
0 778.25818 875.0611 4284960048
34.216515 778.96521 875.65723 4294767350
36.990826 777.55121 874.46497 4294504443
-4.302752 781.5625 873.92316 4282988078
-1.8440367 781.79749 874.12134 4283184173
0 782.50238 874.7157 4283249954
35.036697 782.50238 874.7157 4294833912
36.880733 781.09259 873.52698 4294438389
-1.8440367 783.91217 875.9043 4283187263
0 783.91217 875.9043 4283514420
34.114677 783.91217 875.9043 4294767865
-7.3541284 786.03119 873.76685 4283120955
-4.2899079 786.49969 874.16193 4283187264
-1.8385321 787.43677 874.95203 4283253061
0 787.43677 874.95203 4283514168
34.012844 787.43677 874.95203 4294900221
-4.5825686 790.95288 873.99268 4283383870
34.827522 790.95288 873.99268 4294966271
-7.310092 794.46063 873.02625 4283645505
-4.5743117 793.40747 874.10028 4283843649
-1.8330275 792.35425 875.17432 4284107073
32.994495 792.35425 875.17432 4294966271
34.827522 792.35425 875.17432 4294965759
36.550457 794.46063 873.02625 4294966015
-3.655046 795.85779 874.20435 4283910212
-1.827523 795.85779 874.20435 4284041798
0 797.25494 875.38232 4284501063
32.895412 796.5564 874.79333 4294967295
34.722935 796.5564 874.79333 4294967039
-4.5550461 799.35291 873.22717 4283648583
-1.8220184 799.35291 873.22717 4283845959
0 800.74585 874.40173 4284501063
36.440369 800.04938 873.81445 4294967295
0.91100919 802.83533 874.85547 4284698445
3.6440368 802.13879 875.57617 4285026894
32.796329 802.13879 875.57617 4294967295
34.618347 802.13879 875.57617 4294967295
37.276146 803.53186 874.13477 4294967295
34.548622 804.922 875.30688 4294967295
-3.6256881 807.00739 873.14111 4284829776
-1.812844 807.70032 873.7254 4284896337
0 808.39331 874.30975 4285158995
31.72477 809.77924 875.47827 4294967295
34.444038 809.0863 874.89398 4294967039
36.861164 807.46942 873.53058 4294967295
-1.8073394 811.85614 873.3053 4285094740
37.050461 811.85614 873.3053 4294966783
39.761467 811.85614 873.3053 4294966271
-1.8073394 813.92871 875.05286 4285882713
31.628441 814.61963 875.63538 4294967295
34.339451 813.92871 875.05286 4294967295
37.050461 813.92871 875.05286 4294966783
39.761467 813.23785 874.47034 4294965759
-9.0091743 818.06561 874.61694 4285948510
-7.2073393 817.37683 874.03619 4285883221
-4.5045872 817.37689 874.03619 4285816919
37.838531 818.06561 874.61694 4294965246
40.541283 817.37683 874.03625 4294966014
-13.472477 821.50323 873.59131 4286080352
-9.8935776 820.47314 874.68488 4286015842
-7.2073393 819.44312 875.77844 4286212701
-4.5045872 819.44312 875.77844 4286080348
36.937614 819.44312 875.77844 4294966015
40.541283 819.44312 875.77844 4294965246
43.244038 819.44312 875.77844 4294702842
-16.765749 823.33429 875.13525 4286474589
-13.472478 823.56317 875.32825 4286540900
-10.777982 823.56317 875.32825 4286473827
7.1266055 833.80725 873.50159 4287592569
10.689908 833.80725 873.50159 4287658364
13.403669 831.76819 875.7063 4287593084
4.4541283 835.16931 874.65002 4287659379
0 751.80823 876.30371 4288974472
-3.7651377 753.24744 877.51721 4288973959
1.8825688 753.96704 878.12402 4289237643
4.3926606 754.20697 878.32635 4289367434
7.5302753 754.68671 878.73083 4288843656
11.295413 754.68671 878.73083 4285618763
16.943119 754.68671 878.73083 4286538319
20.708258 754.68671 878.73083 4288183645
22.590826 754.68671 878.73083 4290154344
24.473394 754.68671 878.73083 4293312408
28.238533 753.24744 877.51721 4294958245
1.8770642 758.28284 877.83887 4289959820
3.7541285 758.28284 877.83887 4290815127
25.653212 757.8045 877.43555 4294894548
28.155964 756.84778 876.62891 4294964455
1.8715596 761.87048 876.93982 4290092689
26.201836 761.87048 876.93982 4294897393
29.009174 761.87048 876.93982 4294965499
1.8715596 763.30133 878.14624 4290552211
4.6788988 763.30133 878.14624 4291011997
7.4862385 763.30133 878.14624 4291209889
10.293578 763.30133 878.14624 4292263094
25.266056 763.30133 878.14624 4294700013
28.073395 763.30133 878.14624 4294963957
-4.6651373 765.44983 876.03369 4289498503
-1.866055 765.44983 876.03369 4290155416
0.93302751 766.16309 876.63513 4290749337
29.85688 766.16309 876.63513 4294833405
31.722937 766.16309 876.63513 4294899966
34.522018 765.44983 876.03369 4294900478
0.93302751 769.37305 877.37964 4291144614
4.6651373 768.30304 878.43945 4291800997
7.46422 768.30304 878.43945 4292195487
25.191742 768.30304 878.43945 4294239718
28.923853 768.30304 878.43945 4294965758
31.722937 768.30304 878.43945 4294834430
34.420185 770.44312 876.31982 4294965503
1.8605504 772.57678 878.11884 4288578158
4.6513758 773.28796 878.71851 4290485885
7.4422016 773.28796 878.71851 4292723369
26.047707 773.28796 878.71851 4294241257
29.148623 772.81378 878.31866 4294966013
31.629358 772.57678 878.11884 4294966015
1.8550459 776.83777 877.7876 4282920210
3.7100918 776.83777 877.7876 4283181090
31.53578 776.83777 877.7876 4294833147
34.318352 775.41956 876.5918 4294965756
4.6376147 778.25598 878.98328 4283380023
7.4201837 778.25598 878.98328 4283444782
11.130275 778.25598 878.98328 4289041010
16.695414 778.25598 878.98328 4294967295
19.477982 778.25598 878.98328 4294965496
22.26055 778.25598 878.98328 4294568425
25.043119 778.25598 878.98328 4294503403
28.753212 778.25598 878.98328 4294833399
1.8495413 781.08618 877.44562 4283382316
3.6990826 781.79315 878.04175 4283646018
16.645872 781.79315 878.04175 4294961401
19.420183 781.79315 878.04175 4294967295
22.194496 781.79315 878.04175 4294963444
24.968807 781.79315 878.04175 4294569197
28.667891 781.79315 878.04175 4294571253
31.442202 781.08618 877.44562 4294571001
33.291744 780.37921 876.84949 4294570740
29.504587 785.32196 877.09302 4294636534
31.348623 785.32196 877.09302 4294636534
-1.8385321 788.84235 876.13721 4283384899
0.92201835 787.78705 877.20947 4283712063
3.6880734 786.73175 878.28174 4283385408
20.284403 786.73175 878.28174 4290289318
25.816513 786.73175 878.28174 4294831598
28.582569 786.73175 878.28174 4294767348
31.348623 786.73175 878.28174 4294899705
33.093578 788.84235 876.13721 4294966527
0.91926605 790.95068 877.91486 4284107327
4.5963302 791.65344 878.50745 4284173381
7.3541284 791.65344 878.50745 4284238920
29.416513 790.95068 877.91486 4294899706
31.255045 790.24792 877.32227 4294965498
0 793.75562 876.35583 4284041796
31.161469 793.75562 876.35583 4294966783
1.8330275 795.15698 877.53748 4284501063
4.5825686 795.15698 877.53748 4284369479
7.3321099 795.15698 877.53748 4284370763
10.081652 796.55835 878.71912 4285027407
25.662386 796.55835 878.71912 4289762972
28.71743 796.09125 878.3252 4294966526
31.161469 795.15698 877.53748 4294967295
1.827523 798.6521 876.56042 4284632650
4.8733945 799.11786 876.95312 4284830028
7.310092 799.35071 877.14941 4285093200
10.051376 800.04926 877.7384 4285290579
25.585321 800.04926 877.7384 4287133303
28.326607 800.04926 877.7384 4294965240
31.677063 799.11786 876.95312 4294967295
34.722935 798.6521 876.56042 4294967295
1.8220184 803.5318 876.75073 4285027410
4.5550461 803.5318 876.75073 4285158994
7.310092 801.44641 878.9165 4285487959
10.051376 801.44641 878.9165 4285422165
13.706423 801.44641 878.9165 4285552983
16.447706 801.44641 878.9165 4285947228
19.188992 801.44641 878.9165 4286145891
22.844036 801.44641 878.9165 4285160277
25.585321 801.44641 878.9165 4284698193
28.28257 802.48914 877.83362 4294503407
31.885321 803.5318 876.75073 4294966783
1.8183486 806.31213 876.479 4285158998
4.5550461 804.92474 877.92517 4285486677
7.2880735 804.92474 877.92517 4285487959
10.021101 804.92474 877.92517 4285487959
28.241283 804.92474 877.92517 4293517022
31.8211 806.31213 876.479 4294967295
1.8183486 808.3974 878.23718 4285356625
3.6366973 808.3974 878.23718 4285684821
25.456881 809.09247 878.82324 4284500552
28.184402 808.3974 878.23718 4292265930
0 811.85815 877.23114 4285751383
28.099083 812.55109 877.81543 4292725185
31.72477 811.16516 876.64685 4294967295
25.379816 813.93701 878.98401 4284696621
28.099083 813.93701 878.98401 4293514949
-1.8073394 816.6922 877.38293 4286079582
0 816.6922 877.38293 4286079839
28.013762 817.38306 877.96545 4294765264
31.628439 816.69226 877.38293 4294967295
34.339451 816.6922 877.38293 4294966527
36.14679 816.00134 876.80042 4294966271
-9.0091743 820.82068 876.93982 4286408547
-7.2073393 820.82068 876.93982 4286409061
-4.5045872 820.82068 876.93982 4286277218
36.937614 820.82068 876.93982 4294966527
40.541283 820.82068 876.93982 4294702844
-9.0091743 822.19818 878.10132 4286605413
-7.2073393 822.19818 878.10132 4286670954
-4.5045872 822.19818 878.10132 4286868590
-1.8018348 822.19818 878.10132 4286869360
34.234863 822.19818 878.10132 4294834430
36.937614 822.19818 878.10132 4294965246
40.541283 822.19818 878.10132 4294702844
-8.0834866 826.99646 878.22302 4287199603
-4.4908257 826.99646 878.22302 4286738280
-1.7963303 826.99646 878.22302 4287066727
0 826.99646 878.22302 4287132005
7.1853213 826.99646 878.22302 4287460980
-3.5816514 830.40881 877.17627 4287724657
0 830.40881 877.17627 4287790704
4.4770641 830.40881 877.17627 4287528048
8.9541283 829.03973 876.02185 4287460980
14.297248 833.13452 876.8584 4286870899
16.977982 833.13452 876.8584 4283840547
5.6642203 751.08215 879.61572 4285420128
7.5522938 751.08215 879.61572 4284368169
10.069725 751.56329 880.02142 4284828995
13.216514 751.80389 880.22424 4285618516
15.733945 751.56329 880.02142 4285880649
19.510092 751.56329 880.02142 4286801233
22.656881 751.08215 879.61572 4287521886
25.488991 751.08215 879.61572 4290548597
5.6477065 756.12592 879.94434 4291736229
7.5302753 756.12592 879.94434 4290355108
10.354128 756.12592 879.94434 4288183927
13.177981 756.12592 879.94434 4286670420
16.001835 756.84558 880.55109 4289432453
19.453211 756.60571 880.34882 4290154373
22.590826 756.12592 879.94434 4292522894
4.6926603 759.71783 879.04883 4290880670
7.5082569 759.71783 879.04883 4291407016
10.323853 759.71783 879.04883 4292065715
13.139449 760.43536 879.65381 4292263608
15.955046 761.15289 880.25879 4292591570
