# .PCD v0.7 - Point Cloud Data file format
VERSION 0.7
FIELDS x y z rgb
SIZE 4 4 4 4
TYPE F F F U
COUNT 1 1 1 1
WIDTH 1168
HEIGHT 1
VIEWPOINT 0 0 0 1 0 0 0
POINTS 1168
DATA ascii
55.948624 775.66937 763.00372 4293782002
67.816513 775.66937 763.00372 4294373369
70.359634 775.66937 763.00372 4294439162
73.750465 775.66937 763.00372 4294637053
77.141281 775.66937 763.00372 4294900735
79.684402 775.66937 763.00372 4294900991
81.379814 775.66937 763.00372 4294835199
52.557796 777.61359 764.64307 4293585138
54.779205 777.69922 763.84326 4293847796
58.365139 778.51709 762.78882 4293979637
61.748623 778.51709 762.78882 4293913587
65.132111 778.51709 762.78882 4294241527
70.359634 777.61359 764.64307 4294768127
73.750458 777.61359 764.64307 4294702845
77.141281 777.61359 764.64307 4294901247
59.21101 780.45715 764.42456 4293979383
61.748623 780.45715 764.42456 4294176761
65.132111 780.45715 764.42456 4294769148
46.766972 747.54584 765.45142 4293059827
48.499084 747.54584 765.45142 4293650933
46.156574 750.27899 766.88379 4293190387
48.396332 750.44824 765.28247 4293519347
44.939449 753.09106 767.51086 4293321200
46.667889 753.09106 767.51086 4293386993
43.93486 757.42578 767.2417 4293386994
42.981651 760.96576 767.61047 4292466673
42.844036 764.62219 766.76929 4292073193
43.922939 766.53564 766.63867 4290624468
43.607338 768.79828 767.67456 4288518838
44.319267 773.08667 767.36627 4286086037
46.424309 772.8233 766.49017 4289505735
49.326607 773.98804 765.51025 4294109183
83.43486 773.86316 766.71295 4294966527
85.229355 773.08667 767.36627 4294703359
47.625687 775.9386 767.15491 4287139248
49.326607 775.9386 767.15491 4291810540
51.027523 775.9386 767.15491 4292730344
68.036697 775.9386 767.15491 4294636029
73.989914 776.58875 767.70312 4294900222
76.541283 776.58875 767.70312 4294966527
79.376152 776.15527 767.33765 4294834943
81.644035 775.9386 767.15491 4294966783
52.557796 778.90979 765.73596 4293454070
55.100918 778.90979 765.73596 4294044659
57.644035 778.90979 765.73596 4293979383
70.359634 778.90979 765.73596 4294899454
52.557796 780.20593 766.82886 4292994047
54.253212 780.20593 766.82886 4293781742
58.491745 780.20593 766.82886 4294242041
62.165134 780.638 767.19318 4294373626
64.42569 780.20593 766.82886 4294834941
66.121101 780.20593 766.82886 4294900735
40.833946 749.15961 770.73621 4292665072
43.440369 747.83118 769.61609 4292731632
41.570641 752.84271 769.9176 4293190130
43.302753 751.51849 768.80103 4292796142
41.482571 755.73389 769.73926 4293058546
43.21101 754.41248 768.625 4293321973
39.754128 757.0553 770.85339 4288848835
40.77615 760.27972 769.64813 4289112766
40.402752 764.25171 770.38116 4286350492
41.130276 767.24255 768.97876 4286941593
40.273396 768.55273 770.0835 4285558655
42.752293 770.10565 768.77686 4286348941
41.042202 772.7204 770.98157 4284113513
42.752293 771.41302 769.87915 4286086273
43.466972 775.69299 769.56396 4284837755
46.023853 775.04138 769.01453 4285826711
76.706421 776.3446 770.11328 4294967295
80.115593 776.3446 770.11328 4294967295
82.672478 775.69299 769.5639 4294967295
47.058716 778.32257 769.16504 4285957780
49.326607 778.53931 769.34778 4287799985
51.594494 778.75604 769.53052 4289575117
55.563305 778.75604 769.53052 4293716724
58.681648 779.18951 769.896 4294504444
61.233028 779.18951 769.896 4294307832
64.634865 779.18951 769.896 4294966783
67.186234 778.53931 769.34778 4294834685
70.588074 778.53931 769.34778 4294966271
74.273399 778.32257 769.16504 4294966527
78.242203 778.53931 769.34778 4294967295
51.877983 780.48987 770.99243 4288655040
55.279816 780.48987 770.99243 4292729843
58.681648 780.48987 770.99243 4294570238
62.083488 780.48987 770.99243 4294701820
64.634865 780.48987 770.99243 4294966783
66.335777 780.48987 770.99243 4294966271
38.348625 748.13336 773.79492 4291414498
38.227524 751.81647 772.97632 4290099408
39.965137 750.48804 771.8562 4292664822
38.106422 755.49109 772.15063 4285691027
39.838531 754.16693 771.03406 4292336370
37.200001 757.59601 772.61737 4284639614
38.025688 759.69812 773.08179 4284047218
37.330276 764.23126 772.97992 4283453282
39.627522 762.03595 771.12891 4286810524
40.273396 769.86292 771.18823 4285427837
39.416515 771.82819 772.84521 4285031537
40.472172 774.89935 772.81885 4284110691
83.794495 774.02777 772.08386 4294967295
43.466972 778.29932 771.76147 4284309100
46.592052 778.51654 771.94464 4286679195
49.433029 778.95093 772.31091 4287732911
68.183487 778.29932 771.76147 4294506237
70.740372 778.95093 772.31091 4294967295
73.297249 777.64777 771.21204 4294966783
75.854126 778.29932 771.76147 4294967295
80.115593 777.64777 771.21204 4294967295
40.910091 780.25409 773.40967 4284110682
43.466972 780.25409 773.40967 4284440424
46.876144 780.25409 773.40967 4288455857
49.433029 780.25409 773.40967 4287799467
51.877983 781.79022 772.08887 4287339180
55.34037 781.02216 772.74927 4291019999
58.681648 781.79022 772.08887 4294636542
62.083488 781.79022 772.08887 4294833660
64.634865 781.79022 772.08887 4294768383
67.331192 780.25409 773.40967 4294637566
70.740372 780.25409 773.40967 4294967039
75.854126 780.25409 773.40967 4294967295
43.373394 783.09058 773.1853 4284901226
46.77523 783.09058 773.1853 4289112756
29.695414 747.89899 776.21338 4284965991
31.442202 747.89899 776.21338 4284639609
34.025688 748.6825 775.56598 4284902787
36.605503 749.466 774.91858 4287929270
34.862385 750.79865 776.04224 4284439666
34.752293 755.13745 775.77655 4281942106
36.48991 753.1449 774.09644 4285623683
36.374313 758.13953 774.38379 4281942621
34.6422 759.46375 775.50024 4280625218
36.297249 761.01953 774.19592 4282006871
34.568806 763.00165 775.86725 4280622901
36.755966 766.42657 774.83105 4283584610
34.458717 768.62195 776.68201 4282071871
37.276455 769.21356 775.43677 4284505447
36.964218 771.4809 776.47656 4283782241
35.988991 775.1037 775.60706 4283913321
37.702751 775.1037 775.60706 4284174942
40.187157 776.64258 774.28857 4284109663
73.533943 776.64258 774.28857 4294967039
76.954132 776.64258 774.28857 4294967295
35.911926 778.60364 775.94214 4283649884
37.622017 778.60364 775.94214 4283714905
39.332111 778.60364 775.94214 4284373091
68.403671 779.25732 776.49329 4294835199
70.968811 779.25732 776.49329 4294967295
73.533943 778.60364 775.94214 4294967295
40.341896 782.42603 775.24103 4283256916
43.466972 782.86041 775.6073 4285296250
46.876144 782.86041 775.6073 4289309630
49.433029 782.20886 775.05786 4287994538
51.98991 782.20886 775.05786 4286747048
55.399082 782.20886 775.05786 4288852931
58.808258 782.20886 775.05786 4294440446
61.365139 782.20886 775.05786 4294570491
63.92202 782.20886 775.05786 4294768894
66.478897 782.20886 775.05786 4294901247
75.001831 782.20886 775.05786 4294967295
40.0578 784.16364 776.70605 4283519325
43.466972 784.16364 776.70605 4285098365
46.876144 784.16364 776.70605 4289045947
49.433029 784.16364 776.70605 4287467676
51.989906 784.16364 776.70605 4286023074
55.399082 784.16364 776.70605 4289508277
58.808258 784.16364 776.70605 4294506494
61.365139 784.16364 776.70605 4294703871
63.92202 784.16364 776.70605 4294901247
66.478897 784.16364 776.70605 4294967295
31.442202 749.23444 777.33936 4281680203
33.188992 749.23444 777.33936 4282667354
29.695414 751.90527 779.59143 4281020222
31.376146 752.13123 777.16589 4280559671
33.119267 752.13123 777.16589 4282796633
31.376146 754.13019 778.85126 4281281595
33.119267 753.46387 778.28943 4281545021
31.277063 758.45856 778.57678 4281280822
33.014679 757.79431 778.01672 4281215289
31.277063 759.78699 779.6969 4280887091
33.014679 759.78699 779.6969 4280689712
32.044037 764.09851 779.40814 4280559671
34.568806 764.98376 777.53845 4282268994
32.264221 767.1861 779.39545 4280824379
34.458717 769.93915 777.7926 4282401614
32.735779 771.25635 778.90332 4282270790
34.458717 771.25635 778.90332 4282992219
32.666054 775.42407 779.80139 4282927176
34.385323 774.10968 778.69312 4283189081
32.561466 779.03424 778.92114 4283057985
34.27523 777.72406 777.81653 4283255378
35.056881 781.21838 778.14679 4283386961
37.622017 781.21838 778.14679 4283124568
68.403671 781.21838 778.14679 4294967295
70.968811 781.21838 778.14685 4294967295
73.533943 780.5647 777.59558 4294967295
32.491745 783.17944 779.80029 4283254857
35.056881 783.17944 779.80029 4284044894
37.622017 783.17944 779.80029 4284571233
40.121101 784.32312 778.80261 4283979353
43.466972 785.4668 777.80493 4284439660
46.876144 785.4668 777.80493 4286941346
49.433029 785.4668 777.80493 4286614178
51.989906 785.4668 777.80493 4286285213
55.399082 785.4668 777.80493 4291742141
58.901833 784.32312 778.80261 4294572287
61.365139 785.4668 777.80493 4294638079
63.92202 785.4668 777.80493 4294967039
67.441284 784.32312 778.80261 4294901503
70.113762 783.17944 779.80029 4294967295
44.319267 786.76996 778.90369 4284769132
47.728439 786.76996 778.90369 4286743967
59.660549 786.76996 778.90369 4294966783
61.365139 786.76996 778.90369 4294967295
63.92202 786.76996 778.90369 4294967295
26.284403 749.5675 781.54431 4280298804
28.620794 748.67438 780.7912 4280757306
26.284403 750.9071 782.67383 4280757558
28.385321 754.24231 781.56189 4280953657
29.197247 757.79492 781.94128 4280822070
31.277063 761.11542 780.81702 4280099120
29.53945 762.44385 781.93701 4280559169
29.445871 766.74695 781.64124 4279902765
31.111927 769.6087 781.43805 4280230436
31.874311 773.23218 780.56921 4281808695
31.012844 775.20795 782.23523 4281149732
30.946789 778.05286 782.01782 4281019179
31.704586 781.6546 781.13062 4282531653
68.550461 782.96478 782.23535 4294967295
70.264221 782.96478 782.23535 4294967295
32.491745 785.1405 781.45386 4283451736
35.056881 785.1405 781.45386 4284244069
37.622017 785.1405 781.45386 4284376679
40.187157 785.1405 781.45386 4283717980
43.322323 785.3584 781.63751 4284571749
46.742508 785.3584 781.63751 4286873742
49.592659 785.1405 781.45386 4286874780
52.157799 785.1405 781.45386 4288780449
55.57798 785.1405 781.45386 4293451753
58.71315 785.3584 781.63751 4294967039
64.128441 785.79419 782.005 4294967295
67.263611 785.3584 781.63751 4294967295
61.365139 788.07312 780.00244 4294967295
24.583487 749.35132 783.97815 4281020474
25.433945 751.47028 784.45673 4281281849
25.408257 753.58643 784.93286 4281347642
26.201836 757.91479 784.65839 4280625716
27.889908 760.79333 784.46948 4280494910
29.445871 768.73328 783.31604 4280098077
29.383486 772.25153 783.66644 4280098329
29.289907 776.52515 783.34583 4280427042
28.42844 778.50098 785.01172 4280886310
30.946789 779.36725 783.1261 4282202426
29.227524 781.33887 784.78851 4282267968
29.133945 785.58514 784.4447 4282662223
30.847706 784.93005 783.8924 4282530124
29.133945 786.89532 785.54944 4283318352
31.943731 787.46857 784.28888 4283648094
35.056881 787.75525 783.65857 4284112231
37.622017 787.75525 783.65857 4284245104
40.187157 787.75525 783.65857 4283916141
43.607338 787.75525 783.65857 4284771707
47.027523 787.75525 783.65857 4284508265
49.592659 787.75525 783.65857 4287205254
52.157799 787.75525 783.65857 4292989636
55.57798 787.75525 783.65857 4294834943
58.998169 787.75525 783.65857 4294967295
61.563301 787.75525 783.65857 4294901247
64.128441 787.75525 783.65857 4294967295
66.693581 787.10156 783.10742 4294967295
44.462387 789.71637 785.31213 4284837233
47.027523 789.71637 785.31213 4284308300
49.592659 789.71637 785.31213 4291147926
52.157799 789.71637 785.31213 4294373618
54.722935 789.71637 785.31213 4294967295
59.85321 789.71637 785.31213 4294967295
61.563301 789.71637 785.31213 4294967295
24.583487 753.37866 787.3739 4280625716
24.53211 756.26569 787.19202 4280625716
25.328442 760.58563 786.9104 4280755505
25.328442 762.58875 788.59937 4280426790
27.889908 763.45862 786.71674 4280164389
26.06422 767.75751 786.41736 4280031782
27.801834 767.75751 786.41736 4280032788
25.926605 778.19781 788.68018 4279703069
27.655046 778.19781 788.68018 4280556843
27.566973 781.79395 787.78833 4280688433
24.982569 783.11115 788.89893 4280032032
27.508257 785.28198 788.11334 4280688172
63.612843 785.93921 788.66748 4294967295
29.133945 788.20551 786.65417 4282729295
31.704586 788.20551 786.65417 4283452770
35.132111 788.20551 786.65417 4284307562
37.702751 788.20551 786.65417 4284638323
40.273396 788.20551 786.65417 4285033848
42.844036 788.20551 786.65417 4285363579
56.554127 788.20551 786.65417 4294967295
58.267891 788.20551 786.65417 4294967295
32.561466 789.51569 787.75891 4283324512
35.132111 789.51569 787.75891 4284110700
40.273396 789.51569 787.75891 4283848291
43.986542 789.95239 788.12714 4283846964
47.128441 790.17078 788.31128 4290621076
49.64587 790.9248 787.63904 4294832103
51.9841 789.95239 788.12714 4294967295
55.411621 789.95239 788.12714 4294967295
59.124771 789.51569 787.75891 4294967295
61.695412 789.51569 787.75891 4294967295
22.381653 748.28638 790.92841 4280952366
22.018349 752.40436 790.47644 4281610037
17.559633 756.0636 789.6377 4283909708
21.926605 757.50427 789.54443 4281083439
21.903671 760.95447 791.14539 4280755245
24.53211 761.62427 791.71021 4280360747
20.961468 765.92737 791.41443 4280363818
22.708258 765.92737 791.41443 4280100646
25.31468 766.31006 791.08301 4279639331
27.919266 766.69263 790.75165 4280032284
27.889908 769.45544 791.77319 4280360222
20.78532 778.00275 791.13184 4279703319
22.517431 778.00275 791.13184 4279900698
25.062386 779.51923 789.79443 4280097825
20.741285 780.84064 790.90857 4279703319
22.469725 780.84064 790.90857 4279900698
22.398165 785.74554 791.12024 4280361249
24.982571 785.08691 790.56482 4280491554
28.367889 787.91083 790.32996 4280560951
31.519876 788.12988 790.51465 4282335559
34.385323 788.56799 790.88403 4283781468
37.250763 788.12988 790.51465 4283847520
40.402752 788.56799 790.88403 4283320921
42.981651 788.56799 790.88403 4281346879
53.297249 788.56799 790.88403 4294967295
56.735779 788.56799 790.88403 4294967295
58.455048 788.56799 790.88403 4294901247
24.069725 789.88245 791.99219 4280820773
28.367889 789.88245 791.99219 4281018677
31.806421 789.88245 791.99219 4282005822
34.385323 789.88245 791.99219 4281939527
36.964218 789.88245 791.99219 4281677379
40.402752 789.88245 791.99219 4282135842
43.841286 789.88245 791.99219 4289104229
53.297249 789.88245 791.99219 4294967039
55.016514 789.88245 791.99219 4294967295
47.414066 792.57281 790.33661 4294963950
49.699081 792.7912 790.52069 4294966271
51.412846 792.13611 789.96838 4294768895
15.853211 755.09766 792.74731 4283713612
19.376146 755.09766 792.74731 4281411890
19.376146 756.44434 793.88281 4281478980
17.559633 761.43335 794.16541 4282991949
19.275229 763.63367 793.40454 4281084196
20.088074 767.93054 793.10339 4280229667
25.328442 767.93054 793.10339 4279703069
20.066055 770.02698 793.56305 4280229412
22.708258 769.26593 794.22937 4279769112
25.27523 770.78809 792.89673 4279703069
20.917431 772.12073 794.02039 4279440147
22.660551 772.12073 794.02039 4279703319
24.403669 772.12073 794.02039 4279900192
19.113762 777.05646 794.25806 4279571483
15.588991 781.9754 794.48145 4280029983
19.897247 781.40662 792.69385 4280163103
22.469725 782.16205 792.02271 4280360222
17.284403 784.14417 793.69403 4280096276
19.588991 783.92389 793.5083 4280228633
20.10092 787.94092 792.97119 4280293659
22.398165 787.72131 792.78613 4280622881
25.269724 787.50177 792.60107 4280623397
56.85688 788.37994 793.34143 4294967039
58.579815 788.37994 793.34143 4294834943
19.813763 789.69714 794.45203 4280294178
22.398165 789.69714 794.45203 4280887341
24.982569 789.69714 794.45203 4280754728
28.397247 790.44696 793.77625 4281478976
31.841284 790.44696 793.77625 4282268994
34.385323 791.19678 793.10046 4282071871
36.964218 791.19678 793.10046 4282400580
40.402752 791.19678 793.10046 4284635181
43.841286 791.19678 793.10046 4292791199
46.420185 791.19678 793.10046 4294967295
52.494495 790.44696 793.77625 4294900991
55.995415 789.69714 794.45203 4294967295
29.227524 792.51123 794.20874 4281809989
39.543118 792.51123 794.20874 4287070268
44.700916 792.51123 794.20874 4294967295
46.420185 792.51123 794.20874 4294967295
48.919266 793.63385 793.19324 4294967295
17.080734 755.04071 796.62335 4282925907
19.376146 757.79095 795.01831 4281478467
14.091743 760.48425 797.28918 4282861633
15.853211 759.13763 796.15381 4283451724
16.681652 762.77582 795.29736 4282795577
16.938837 766.53632 795.85187 4280097830
22.779816 765.64319 795.09888 4280032032
17.522936 768.32245 797.35803 4280556843
19.21468 770.60138 795.35547 4280293927
16.594496 772.60455 797.04443 4280030756
19.174313 773.45331 795.14404 4279571231
16.559633 775.45227 796.82953 4279241492
13.900917 779.71332 796.49817 4279635226
17.376146 778.38489 795.37817 4279900192
13.900917 781.04175 797.61829 4279898899
13.856881 785.28589 797.27283 4279898900
15.588991 783.29956 795.59802 4279964692
16.420183 787.44769 796.47949 4280096282
55.310093 788.7691 797.59363 4294967039
19.813763 791.01434 795.56274 4280492582
22.398165 791.01434 795.56274 4280887593
24.982569 791.01434 795.56274 4281150513
27.566973 791.01434 795.56274 4281086267
31.874311 791.01434 795.56274 4282268994
34.458717 791.01434 795.56274 4282334787
37.043121 791.01434 795.56274 4282136607
41.35046 791.01434 795.56274 4291077272
43.073395 791.01434 795.56274 4294959573
52.549541 791.01434 795.56274 4294967039
19.813763 792.99011 797.22864 4280952874
22.398165 792.99011 797.22864 4281084972
24.982569 792.99011 797.22864 4281544755
28.42844 792.99011 797.22864 4281940029
31.874311 792.99011 797.22864 4282137408
34.458717 792.99011 797.22864 4282530595
37.330276 792.77057 797.04352 4286606159
40.488991 792.99011 797.22864 4293382848
43.911011 793.36365 796.88959 4294966527
46.469727 793.73718 796.55048 4294967039
48.999084 793.82556 795.31702 4294966783
52.262386 792.77057 797.04352 4294967295
46.420185 796.45435 797.53357 4294967295
48.999081 795.79718 796.97949 4294967039
14.135779 756.84186 798.14209 4283320137
13.21101 761.83093 798.42468 4281614145
15.853211 761.83093 798.42468 4279773743
10.568808 763.85095 800.12793 4281541694
13.21101 763.85089 800.12793 4280884529
15.80367 766.80316 798.69312 4280817448
14.047707 769.4881 800.95691 4280292901
15.770642 769.66211 798.48755 4280358950
12.266055 772.34143 800.7467 4280229667
10.480734 775.94312 799.8595 4280097825
13.974312 774.60767 798.7334 4280161824
8.7339449 777.27856 800.98547 4280032284
10.480734 777.27856 800.98547 4280228380
12.201835 778.11755 799.07684 4280031516
10.458715 780.11646 800.76221 4280096784
12.163302 782.37012 798.7384 4279899149
12.163302 784.36279 800.41858 4279899149
12.990826 787.93433 799.50592 4280162326
13.827523 790.75122 799.26489 4280228380
16.420183 790.75122 799.26489 4280360223
36.297249 791.41193 799.82202 4286543924
53.58165 791.41193 799.82202 4294967295
55.310093 790.09052 798.70776 4294967295
13.827523 792.73328 800.93616 4280491551
16.420183 792.73328 800.93616 4280688931
19.84679 793.84961 799.91534 4281281068
22.398165 794.96594 798.89453 4281610033
24.982569 794.96594 798.89453 4281675574
28.472477 793.84961 799.91534 4282728262
31.976147 792.73328 800.93616 4282597441
34.568806 792.73328 800.93616 4287198733
37.161469 792.73328 800.93616 4292199055
40.488991 794.96594 798.89453 4294966527
43.93486 794.96594 798.89453 4294967039
18.952293 796.28314 800.00525 4281215275
22.398165 796.28314 800.00525 4282134580
40.488991 796.28314 800.00525 4294965758
43.93486 796.28314 800.00525 4294834175
46.420185 797.7688 798.64185 4294966783
48.13945 797.7688 798.64185 4294967039
44.700916 799.08313 799.75012 4294965759
46.420185 799.08313 799.75012 4294967295
7.951376 763.59619 803.83716 4280623919
10.568808 766.54425 802.3988 4280228647
12.917432 766.31982 802.20953 4280293927
5.26789 772.17297 803.2207 4280033579
7.8853211 773.68103 801.87622 4280163618
7.0091743 775.02069 803.00574 4280098077
1.746789 779.94946 803.23743 4279703069
7.5694184 779.05914 802.48682 4280096026
-1.7431192 782.11542 802.44769 4280032034
0 781.4491 801.88586 4279900192
8.7155962 782.11542 802.44769 4279570457
10.458715 782.11542 802.44769 4279636234
10.425688 787.01965 802.65869 4280162326
12.124771 790.58276 801.73901 4280293406
13.856881 792.56909 803.41382 4280491299
16.420183 794.05469 802.05029 4281017898
20.741285 794.05469 802.05029 4281871408
25.062386 794.05469 802.05029 4282529086
28.519266 794.05469 802.05029 4282399297
31.976147 794.05469 802.05029 4284635173
34.568806 794.05469 802.05029 4290880139
37.161469 794.05469 802.05029 4294765792
17.284403 795.3761 803.16455 4281544240
19.877064 795.3761 803.16455 4282004790
22.469725 795.3761 803.16455 4282333755
25.062386 795.3761 803.16455 4282662219
28.519266 795.3761 803.16455 4281938750
31.976147 795.3761 803.16455 4288447808
34.568806 795.3761 803.16455 4293251028
38.025688 795.3761 803.16455 4294967295
40.552292 796.48822 802.1402 4294966271
43.073395 797.60034 801.11584 4294965503
43.93486 798.91754 802.22644 4294900735
5.3009176 764.94708 804.9762 4280627513
7.951376 764.94708 804.9762 4279509801
4.4036698 769.23755 804.66974 4279771436
7.9266057 768.56421 804.10205 4280033579
10.568808 768.56421 804.10205 4280163618
4.3899083 773.51544 804.35266 4279902242
1.7522936 776.36035 804.13525 4279637276
4.3899083 774.85785 805.48462 4280032032
0.87614679 779.03961 806.39441 4280227610
4.380734 777.69995 805.26489 4279834399
0 782.6203 805.4895 4279703319
4.3669724 781.95258 804.92651 4279571480
6.9871559 781.28485 804.36353 4279439641
-1.746789 783.95575 806.61548 4280030487
0.87339449 783.95575 806.61548 4278981656
4.3669724 783.95575 806.61548 4278653197
7.8440366 784.78064 804.69507 4279833878
7.8440366 786.7796 806.38049 4279571227
10.425688 790.34064 805.45898 4280227873
12.163302 791.00488 806.01898 4280162593
13.856881 793.89331 804.5304 4280624169
15.588991 793.89331 804.5304 4281018927
36.374313 793.89331 804.5304 4294966527
13.856881 795.21753 805.64685 4280560173
16.743731 795.65894 806.01904 4281151283
19.898165 796.61963 805.52106 4282137408
22.493578 796.61963 805.52106 4282268994
25.088991 796.61963 805.52112 4282136390
28.549541 796.61963 805.52112 4285950251
32.044037 795.87964 806.2052 4293119171
34.6422 795.87964 806.20514 4294966527
37.240368 795.87964 806.20514 4294966527
40.35841 796.64557 805.10693 4294900991
41.482571 798.01892 805.39282 4294900479
44.07523 798.01892 805.39282 4294900735
-3.5119267 777.54279 807.74841 4279900192
-3.5045872 781.04907 808.08875 4279768088
-1.7522936 780.37927 807.52393 4279900192
1.7522936 780.37927 807.52393 4279900698
-3.5045872 783.05853 809.78308 4279571733
-1.746789 785.2912 807.74146 4279571733
0.87339449 785.2912 807.74146 4279308561
4.3669724 785.2912 807.74146 4279242768
-1.746789 786.62659 808.86743 4279505940
0.87339449 787.29431 809.43048 4279308055
4.075841 787.07178 809.24286 4279570963
7.8440366 788.11224 807.50403 4279900698
5.2293577 789.44489 808.62769 4279964694
7.8440361 790.11121 809.18958 4280229149
10.425688 793.66174 808.25916 4280098602
12.742508 793.88312 808.4458 4280558637
15.638532 794.32593 808.81921 4281150769
10.425688 795.65436 809.93933 4280820271
13.03211 795.65436 809.93933 4281279793
16.507339 795.65436 809.93933 4281674804
19.952293 796.76013 808.90967 4282269507
22.517431 797.86597 807.88 4281415482
25.115597 797.86597 807.88 4283910948
28.579817 797.86597 807.88 4292259229
31.277063 795.65436 809.93933 4294964989
33.883484 795.65436 809.93933 4294899967
37.358719 795.65436 809.93933 4294702334
40.833946 795.65436 809.93933 4294965759
-7.9403672 775.52368 811.93207 4279899926
-5.2844038 776.64417 810.91479 4279308312
-7.9266057 777.99084 812.05029 4280096280
-7.0238533 782.91254 812.27612 4279900192
-5.26789 781.57013 811.14423 4279833624
-3.5045872 785.06799 811.47736 4279374357
-1.7522936 785.73785 812.04211 4278979090
-1.746789 789.29749 811.11951 4279440147
0.87339449 789.96521 811.6825 4279701523
4.075841 789.74268 811.49481 4279702027
0 793.44275 811.99866 4280030487
5.2293577 792.77643 811.43683 4280228114
7.8440366 792.77643 811.43683 4280426272
16.507339 796.98279 811.05945 4281938236
19.982569 796.98279 811.05945 4282334536
22.588991 796.98279 811.05945 4281479478
25.195412 796.98279 811.05945 4287919933
28.670643 796.98279 811.05945 4294042595
31.277063 796.98279 811.05945 4294967039
33.883484 796.98279 811.05945 4294899967
37.358719 796.98279 811.05945 4294966527
39.965137 796.98279 811.05945 4294966015
19.982569 798.31122 812.17944 4282137646
22.588991 798.31122 812.17944 4284572476
25.195412 798.31122 812.17944 4291799435
28.670643 798.31122 812.17944 4294965501
31.277063 798.31122 812.17944 4294964991
33.883484 798.31122 812.17944 4294834175
37.358719 798.31122 812.17944 4294966527
-10.601835 775.75397 814.08838 4279964694
-10.601835 777.10486 815.22729 4279703319
-7.9266057 779.33746 813.18579 4279834135
-10.568808 781.35748 814.88892 4279835157
-8.8073397 781.35748 814.88892 4279834901
-7.6091743 785.14996 814.1626 4279637274
-5.26789 784.92627 813.97394 4279308311
-7.901835 786.93988 815.67188 4279440147
-4.0948014 786.98578 814.83856 4279045643
-1.7522936 788.41711 814.30127 4279440395
-3.5045872 789.75677 815.43079 4279701523
-1.746789 791.96838 813.37146 4279898901
1.746789 791.96838 813.37146 4279898901
3.493578 791.96838 813.37146 4279636233
-3.493578 793.9715 815.06055 4279505940
-1.7431192 794.77539 813.12231 4279571733
1.164526 794.23944 814.41449 4280228636
4.3623853 794.70728 814.37292 4280294943
7.8440366 794.77539 813.12231 4280492835
10.458715 794.77539 813.12231 4280951850
13.073395 794.77539 813.12231 4281477422
-3.4862385 797.44067 815.36951 4279966491
-1.7431192 796.77435 814.80774 4279900698
0 796.77435 814.80774 4279966493
4.3577981 797.44067 815.36951 4280624169
7.8440361 796.77435 814.80774 4280952618
10.458715 796.77435 814.80774 4281346609
13.073395 796.77435 814.80774 4282004282
16.559633 796.77435 814.80774 4282136127
20.045872 797.44067 815.36951 4284238645
22.660551 797.44067 815.36951 4289038929
25.27523 797.44067 815.36951 4294108115
28.761467 797.44067 815.36951 4294965502
31.376146 797.44067 815.36951 4294965247
33.990826 797.44067 815.36951 4294967295
36.605503 797.44067 815.36951 4294967295
-15.985321 773.38385 818.63 4280162578
-13.617126 772.4787 817.8667 4280096531
-12.407339 775.5498 817.84021 4279834387
-12.368808 779.80658 817.50537 4280162825
-12.368808 781.15747 818.64441 4280359700
-10.568808 784.05078 817.15991 4279769112
-12.330276 786.0708 818.86304 4279703069
-10.568808 786.0708 818.86304 4279637526
-7.901835 788.28235 816.80371 4279374354
-5.26789 788.28235 816.80371 4279308561
-7.8944955 790.3606 817.24805 4278718994
-5.2568808 791.09644 816.56042 4278982163
-7.5932717 793.3291 818.44293 4278784784
-5.2568808 792.43604 817.68994 4279047956
-4.6581039 796.86493 817.50018 4279638296
1.746789 796.64233 817.3125 4280295204
-1.7431192 799.43958 817.05499 4280097823
0 799.43958 817.05499 4280295204
4.3577981 798.77325 816.49316 4280428843
7.8440366 798.77325 816.49316 4281413685
10.458715 798.77325 816.49316 4281675830
13.073395 799.43958 817.05493 4282399043
16.559633 799.43958 817.05499 4282989875
20.045872 799.43958 817.05499 4288447075
22.660551 799.43958 817.05499 4294566083
24.984711 799.21747 816.86768 4294966525
28.761467 799.43958 817.05493 4294900223
31.376146 799.43958 817.05499 4294965503
33.990826 799.43958 817.05499 4294899967
36.605503 798.77325 816.49316 4294966783
-1.7431192 801.43854 818.74048 4280294677
0 801.43854 818.74048 4280361249
20.917431 801.43854 818.74048 4294964211
22.660551 801.43854 818.74048 4294965753
24.403669 801.43854 818.74048 4294967295
28.761467 801.43854 818.74048 4294901247
31.376146 801.43854 818.74048 4294966527
33.014679 803.62488 816.65979 4294966271
-16.034863 769.78912 819.52319 4280096280
-17.816513 772.51331 821.82007 4279966491
-16.57737 775.64697 820.53815 4279704083
-14.209174 774.7417 819.7749 4279704336
-14.179816 778.25989 820.12537 4279899401
-13.274312 781.40039 820.81134 4279964692
-14.135779 783.85919 820.92236 4279703069
-12.330276 788.09076 820.56628 4279571483
-10.568808 788.09076 820.56628 4278652948
-8.7798166 790.96729 819.06763 4278323726
-12.291743 793.65216 821.33142 4279703319
-10.53578 792.98096 820.76544 4279047955
-7.8853211 795.78516 820.51392 4279440664
-4.3669724 799.31323 819.56451 4279966237
1.746789 799.31323 819.56451 4280690216
4.3669724 799.31323 819.56445 4280887597
7.8605504 799.31323 819.56445 4281675580
10.480734 799.31323 819.56451 4282333250
13.100918 799.98096 820.12756 4282004020
16.594496 799.98096 820.12756 4285749824
19.21468 799.98096 820.12756 4293838750
26.201836 799.31323 819.56451 4294966783
-12.227523 801.31641 821.25354 4279572494
-10.480734 801.31641 821.25354 4280032284
-6.9871559 801.31641 821.25354 4280098077
-4.3669724 801.31641 821.25354 4280163347
-1.7431192 802.77118 819.86414 4280952341
0.87339449 802.04382 820.55884 4281019179
4.3669724 801.31641 821.25354 4281347892
7.8605504 801.31641 821.25354 4282004545
10.480734 801.31641 821.25354 4282333253
13.100918 801.31641 821.25354 4283449400
16.594496 801.31641 821.25354 4289039213
20.088074 801.31641 821.25354 4294967023
22.660551 802.77118 819.86414 4294966783
25.302753 802.04382 820.55884 4294967295
28.790825 802.04382 820.55884 4294966783
31.376146 802.77118 819.86414 4294967295
0 804.10382 820.98779 4280626222
31.376146 804.10382 820.98779 4294967295
-23.280733 767.43018 824.07422 4280425997
-21.445871 770.28491 823.86523 4280096784
-19.658716 769.60175 823.28918 4280030987
-17.871559 768.91858 822.71313 4280096784
-19.598166 773.87537 822.96851 4280030487
-23.161469 775.23749 824.11707 4279899149
-21.313761 778.13647 822.63721 4279832852
-19.537615 778.13647 822.63721 4279635730
-16.873394 778.13647 822.63721 4279767062
-21.313761 780.17322 824.35461 4280357399
-19.537615 780.17322 824.35461 4280423448
-16.838531 781.64758 822.98169 4280029986
-19.497248 783.00269 824.12427 4280555035
-16.838531 783.00269 824.12427 4280031532
-14.135779 785.21008 822.0614 4279900192
-15.902752 787.23633 823.76996 4280095776
-14.135779 787.23633 823.76996 4279637276
-15.853211 791.4574 823.40491 4280488992
-13.21101 790.78406 822.83722 4279440150
-15.853211 792.80408 824.54041 4278977043
-13.191744 793.89935 823.50189 4279505691
-10.53578 794.99463 822.46338 4279571483
-16.681652 797.0083 824.16119 4279240722
-13.156881 797.0658 822.90167 4280030735
-10.513762 797.79462 822.20813 4279376920
-7.8853211 797.79462 822.20813 4279638557
-15.770642 799.80408 823.90247 4279504917
-14.018349 799.80408 823.90247 4279178767
-10.513762 800.47394 824.46729 4279639836
-8.7614679 799.80408 823.90247 4279967518
-15.721101 803.98724 823.50549 4279637526
-12.809787 803.54218 823.13019 4279704094
-6.9871559 803.31958 822.9425 4280163872
-4.3669724 803.31958 822.9425 4280163872
-1.746789 803.31958 822.9425 4280558374
0.87339449 803.31958 822.9425 4281019954
4.3669724 803.31958 822.9425 4281546298
7.8605504 802.65186 822.37952 4282136381
10.480734 803.31958 822.9425 4283054379
13.100918 803.31958 822.9425 4286802254
16.303364 803.09698 822.75488 4294106306
20.088074 803.31958 822.9425 4294966013
22.708258 803.31958 822.9425 4294966527
25.03731 803.09698 822.75488 4294900991
28.822018 803.31958 822.9425 4294835711
-16.594496 805.32269 824.63159 4279900448
-13.100918 805.32269 824.63159 4280163618
0 805.32269 824.63159 4281675830
22.708258 805.32269 824.63159 4294900991
24.455046 805.32269 824.63159 4294967295
28.822018 805.32269 824.63159 4294967295
31.376146 805.4364 822.11133 4294967295
-26.944954 766.57086 827.2738 4279832852
-21.555964 765.19751 826.11584 4280162825
-25.07156 769.48376 825.80585 4279833104
-23.280733 769.48376 825.80585 4280162069
-25.941284 772.27747 826.85333 4279702544
-21.445871 771.65118 825.01721 4280030487
-24.943119 776.59955 825.2655 4279964942
-23.161469 776.59955 825.2655 4280030735
-25.537003 778.86969 827.17969 4280228117
-23.161469 778.6427 826.98822 4280162582
-21.905809 782.43634 826.26276 4280227354
-22.201836 784.24689 827.78943 4279964946
-19.497248 785.03528 825.83813 4280096281
-17.724771 785.03528 825.83813 4280096033
-21.269724 787.06787 827.552 4280357399
-19.497248 787.06787 827.552 4280817950
-17.724771 787.06787 827.552 4280686114
-19.436697 791.96436 827.75647 4279898395
-17.669725 790.61353 826.61743 4279635230
-17.614679 794.1507 825.6759 4279174929
-19.376146 796.84399 827.94678 4279045139
-19.315596 800.36438 826.99097 4279702821
-17.559633 799.02197 825.85913 4279571733
-17.522936 801.81354 825.5968 4279637526
-10.513762 802.4834 826.16156 4280099104
-8.1773701 802.70673 826.34979 4280295971
-4.380734 803.1532 826.72632 4280755241
-1.7522936 803.1532 826.72632 4281215279
1.7522936 802.4834 826.16156 4281676087
4.380734 803.1532 826.72632 4282531391
7.8853211 802.4834 826.1615 4282070332
10.513762 803.1532 826.72632 4286664721
13.142202 803.1532 826.72632 4293839531
16.938837 802.7066 826.34979 4294965500
19.275229 803.1532 826.72632 4294965503
21.027523 803.1532 826.72632 4294506239
26.284403 802.4834 826.16156 4294967295
-16.594496 806.65814 825.75757 4280293153
-13.120184 805.5755 826.80676 4280623142
-10.513762 804.49286 827.85596 4280690218
-7.0091743 804.49286 827.85596 4281083689
-5.2568808 804.49286 827.85596 4281149482
0 804.49286 827.85596 4282333253
15.770642 804.49286 827.85596 4294967039
19.275229 804.49286 827.85596 4294966271
21.867889 805.5755 826.80676 4294703103
25.369724 805.5755 826.80676 4294967295
27.948624 806.65814 825.75757 4294967295
22.708258 807.99359 826.88354 4294966783
24.455046 807.99359 826.88354 4294967295
-26.944954 767.94415 828.43164 4279833106
-26.862385 772.90656 828.69177 4279572494
-26.862385 774.27563 829.84619 4279835923
-25.833944 781.36688 829.28516 4280162837
-23.089909 785.60474 828.93433 4279833356
-24.866055 786.96265 830.07922 4279964694
-22.179817 787.69281 829.3869 4280030487
-19.497248 788.42297 828.69458 4280293403
-21.269724 790.45557 830.40845 4279635227
-21.203671 794.66614 830.03455 4278584588
-19.436697 793.31525 828.89551 4279371803
-21.724771 799.08844 829.83929 4279505437
-21.07156 803.04932 829.25488 4280162074
-19.315596 802.37805 828.6889 4280031261
-8.7798166 803.04932 829.25488 4280690218
-3.5119267 803.04932 829.25488 4281281072
-1.7559633 803.04932 829.25488 4282333503
1.7559633 803.04932 829.25488 4282135875
4.3899083 803.04932 829.25488 4282465341
7.901835 803.04932 829.25488 4283840322
10.53578 803.04932 829.25488 4291273840
13.169725 803.04932 829.25488 4294962904
17.559633 803.04932 829.25488 4294966783
-21.949541 804.39172 830.38672 4280161817
-19.315596 804.39172 830.38672 4280359452
-16.64679 805.83246 828.98547 4280293153
-13.142202 805.83246 828.98547 4280557345
-10.513762 805.83246 828.98547 4280952102
-7.8944955 805.11206 829.6861 4281149482
-4.3844037 805.11206 829.6861 4281346862
-1.7559633 804.39172 830.38672 4282004539
0.87798166 804.39172 830.38672 4282202174
4.3899083 804.39172 830.38672 4281742125
10.53578 804.39172 830.38672 4294435811
13.169725 804.39172 830.38672 4294965239
16.681652 804.39172 830.38672 4294966271
19.315596 804.39172 830.38672 4294966527
21.027523 805.83246 828.98547 4294966527
-15.770642 807.17212 830.11499 4280293153
-13.142202 807.17212 830.11499 4280752414
-10.513762 807.17212 830.11499 4281281574
-7.0091743 807.17212 830.11499 4281281324
-5.2568808 807.17212 830.11499 4281412653
22.779816 807.17212 830.11499 4294967295
-28.741285 772.75073 832.4845 4279966226
-30.444036 775.64478 831.00061 4280162074
-30.444036 777.69836 832.73212 4280292888
-28.594496 779.84894 831.92944 4280163091
-28.594496 781.21527 833.08142 4280357903
-26.130888 783.86407 831.39081 4280030221
-25.795414 787.22729 832.26447 4279964693
-23.089909 788.3205 831.22412 4279898901
-28.418348 791.03625 833.51404 4279438350
-25.754128 790.3573 832.94159 4279832855
-23.089909 789.67841 832.36914 4279701273
-25.405502 793.3916 832.88397 4279768090
-23.042202 792.48816 832.12219 4278979090
-24.737616 797.36786 832.3125 4279703069
-22.970642 796.01697 831.17358 4278979090
-28.271559 798.71869 833.45154 4279635226
-25.582569 799.80133 832.4024 4279504665
-22.899082 800.88397 831.35327 4279703069
-28.183487 803.57733 833.62415 4279896085
-25.541285 802.90399 833.0564 4279962642
1.7614679 803.57733 833.62415 4282004539
4.4036698 803.57733 833.62415 4283053851
7.9266052 802.90399 833.0564 4290089823
10.568808 803.57733 833.62415 4294964479
13.21101 803.57733 833.62415 4294966783
-21.949541 805.73419 831.51868 4280228374
-19.315596 805.73419 831.51868 4280360470
-17.559633 805.73419 831.51868 4280293153
-8.7798166 805.73419 831.51868 4281215781
-3.5119267 805.73419 831.51868 4281543738
-1.7559633 805.73419 831.51868 4282004289
0 805.73419 831.51868 4282333503
16.681652 805.73419 831.51868 4294966783
19.315596 805.73419 831.51868 4294966527
21.07156 805.73419 831.51868 4294966783
-25.461468 808.41907 833.78247 4279570460
-21.949541 807.74786 833.21655 4280162844
-19.315596 807.74786 833.21655 4280425759
-16.681652 807.7478 833.21655 4280031263
-13.163303 808.10657 832.86505 4280950052
-10.53578 807.74786 833.21655 4281544240
-7.8981652 808.10663 832.86499 4281675826
-4.387156 808.10657 832.86505 4282070331
-1.7559633 807.74786 833.21655 4282070335
0 807.74786 833.21655 4282464827
19.315596 807.07666 832.65063 4294966271
21.027523 808.51178 831.24451 4294965759
-32.333946 776.18402 835.37927 4279898899
-28.741285 774.81067 834.22144 4280162578
-31.388992 778.65466 835.50049 4280225813
-34.025688 782.4903 836.77258 4280292110
-31.040979 782.03394 836.38776 4280030235
-28.594496 782.58154 834.2334 4279899149
-31.27523 785.31415 836.53748 4280095779
-28.594496 783.94788 835.3855 4279898899
-30.288073 788.85834 835.60181 4280096030
-28.506422 787.49628 834.45337 4279635480
-26.724771 787.49628 834.45337 4279898395
-30.288073 790.22046 836.75024 4280358946
-31.082569 793.75208 835.80383 4280096280
-28.418348 792.39417 834.65894 4280162074
-31.313761 797.00513 835.93085 4280225043
-28.359632 795.19836 834.40735 4279703319
-26.587156 795.19836 834.40735 4279571733
-30.038532 800.06958 834.59058 4280355603
-28.271559 800.06958 834.59058 4280157710
-31.216513 801.87067 836.10931 4279633932
-31.706423 806.27063 835.89502 4279635226
-29.06422 805.59729 835.32733 4279635481
-25.541285 804.92395 834.75964 4279767062
1.7614679 805.59729 835.32733 4281346346
4.4036698 805.59729 835.32733 4289104965
7.9266057 805.59729 835.32733 4294503917
10.568808 805.59729 835.32733 4294967039
13.21101 805.59729 835.32733 4294966783
16.733946 805.59729 835.32733 4294966271
19.376146 806.27063 835.89502 4294967295
-25.461468 809.76154 834.91443 4279900445
-21.949541 809.76154 834.91443 4280098079
-19.315596 809.76154 834.91443 4280492583
-16.681652 809.76154 834.91443 4280558376
-13.169725 809.76154 834.91443 4281279271
-10.53578 809.76154 834.91443 4281871408
-7.901835 809.76154 834.91443 4282004280
-4.3899083 809.76154 834.91443 4282005056
-1.7559633 809.76154 834.91443 4281214773
0 809.76154 834.91443 4282989312
-19.315596 811.104 836.04639 4280558628
-16.681652 811.104 836.04639 4281019179
-13.169725 811.104 836.04639 4281478447
-10.53578 811.104 836.04639 4281742902
-7.901835 811.104 836.04639 4281875260
-4.3899083 811.104 836.04639 4281809474
-1.7559633 811.104 836.04639 4280952886
0 811.104 836.04639 4285949986
-34.234863 776.74011 839.77234 4280097298
-32.333946 778.9306 837.69519 4280030487
-34.025688 784.54395 838.50409 4280357651
-32.234863 785.22845 839.0813 4280030237
-32.168808 788.04675 838.84155 4280030237
-33.955963 789.41302 839.99353 4280162074
-33.746788 797.82568 839.23865 4279438348
-33.572475 805.47302 839.14661 4279964694
-31.805504 805.47302 839.14661 4280030487
8.8348627 805.47302 839.14661 4294967039
-29.06422 808.29065 837.59827 4280097055
-25.541285 808.96393 838.16602 4280097826
-22.018349 808.96393 838.16602 4280295456
1.7614679 808.29065 837.59827 4290621292
4.1100917 808.06616 837.409 4293779669
7.0458717 807.61731 837.03052 4294967295
10.568808 807.61731 837.03052 4294967039
13.21101 807.61731 837.03052 4294966783
16.733946 807.61731 837.03052 4294966783
-28.183487 810.31061 839.30151 4280097825
-25.541285 810.31061 839.30151 4280098075
-22.018349 810.31061 839.30151 4280493087
-19.376146 810.31061 839.30151 4280887593
-16.706423 811.37854 838.23987 4280887341
-13.169725 812.44641 837.17822 4281282099
-10.53578 812.44641 837.17822 4281349688
-7.901835 812.44641 837.17822 4281810240
-4.3899083 812.44641 837.17822 4281678114
-1.7559633 812.44641 837.17822 4285428289
0 812.44641 837.17822 4289961869
-12.291743 813.78888 838.31018 4281873986
-10.53578 813.78888 838.31018 4281613113
-7.901835 813.78888 838.31018 4281744699
-4.0972476 814.23633 838.6875 4285291572
0 813.78888 838.31018 4292592601
-37.722935 781.67725 840.01111 4280555035
-35.926605 781.67725 840.01111 4280357903
-37.722935 783.73718 841.74805 4280029983
-35.926605 783.73718 841.74805 4280094744
-34.921101 787.2821 840.81293 4280161820
-37.607338 789.33575 842.54443 4280294173
-34.886238 790.0575 841.84503 4280423192
-37.530273 792.14563 842.29761 4280228884
-34.797249 793.2262 841.24664 4279964438
-35.633026 796.34985 841.91846 4279636755
-33.746788 799.18353 840.38354 4279045389
-34.599998 801.93652 841.39685 4279701523
-33.677063 804.68384 842.40527 4280422935
-31.805504 806.82391 840.28564 4280228380
5.3009176 806.82391 840.28564 4294967295
7.951376 806.82391 840.28564 4294967295
10.601835 806.82391 840.28564 4294967295
13.252294 806.82391 840.28564 4294966783
15.902752 806.82391 840.28564 4294966783
-30.038532 808.85022 841.9942 4280294173
1.7669724 808.85022 841.9942 4294964717
4.4174314 808.85022 841.9942 4294967295
7.951376 808.85022 841.99426 4294901503
10.601835 808.85022 841.9942 4294967295
12.957798 808.62506 841.80438 4294967295
-28.183487 811.65723 840.43689 4280358946
-25.541285 811.65723 840.43689 4280227861
-22.018349 811.65723 840.43689 4280755485
-19.376146 811.65723 840.43689 4280887593
-16.733946 811.65723 840.43689 4280887341
-14.091743 811.65723 840.43689 4281084470
-1.7614679 811.65723 840.43689 4290619481
-28.183487 813.00391 841.57239 4280491299
-25.541285 813.00391 841.57239 4280623136
-21.724771 813.45282 841.95087 4280886823
-19.376146 813.67725 842.14014 4281216046
-16.733946 813.67725 842.14014 4281282353
-13.21101 813.67725 842.14014 4281741883
-10.568808 813.67725 842.14014 4281481278
-7.9266057 813.67725 842.14014 4281743915
-4.697248 813.90167 842.32941 4287596395
-1.7614679 813.67725 842.14014 4294831059
0 813.67725 842.14014 4294966271
-39.640366 782.25012 844.41821 4280358950
-43.244038 783.62769 845.57971 4280291606
-40.480736 784.7124 844.53229 4280292380
-37.722935 785.79718 843.48486 4280358946
-49.399082 787.85718 845.2218 4280358426
-43.111927 788.54382 845.80078 4280293403
-40.417431 787.85712 845.2218 4280228632
-37.530273 794.19507 844.0257 4280097041
-37.530273 796.24451 845.75366 4279702540
-37.41468 799.75507 844.78967 4279701523
-35.633026 798.39294 843.64111 4279701523
-40.087158 801.11713 845.93811 4279635728
-37.41468 801.11713 845.93811 4279701777
-35.522934 803.2572 843.81836 4280159507
-37.299084 804.61505 844.96338 4280359700
-34.599998 805.32703 844.25562 4280489489
-31.904587 806.03894 843.54785 4280228380
-33.677063 808.07153 845.26172 4280424215
-31.904587 808.07153 845.26172 4280228380
8.8623857 808.74908 845.83301 4294966527
10.634862 808.74908 845.83301 4294965759
-30.038532 811.55188 844.27222 4280425760
-28.271559 812.22736 844.84167 4280359720
-25.621101 812.22736 844.84167 4280820266
-22.970642 812.22736 844.84167 4281149482
1.7669724 811.55188 844.27222 4294967295
4.1229358 811.32672 844.08234 4294967039
7.0678897 810.87646 843.70276 4294966527
-30.038532 813.57825 845.98071 4280557093
-28.271559 813.57825 845.98071 4280622886
-25.621101 813.57825 845.98071 4281280814
-22.087156 813.57825 845.98071 4280821289
-19.436697 813.57825 845.98071 4281084720
-16.761469 814.6377 844.91205 4281479478
-13.21101 815.6972 843.84338 4282134584
-10.568808 815.6972 843.84338 4280953636
-7.9266057 815.6972 843.84338 4284371003
-4.4036698 815.6972 843.84338 4294041038
-1.7614679 815.6972 843.84338 4294966014
0 815.6972 843.84338 4294834687
-46.990826 781.45819 847.67456 4280685842
-45.946789 785.00519 846.74121 4280555283
-43.244038 785.00519 846.74121 4280163091
-48.64954 786.38269 847.90271 4280096280
-45.946789 786.38269 847.90271 4280162578
-40.417431 790.60376 847.53772 4280162327
-39.398167 794.81219 847.16211 4280294677
-40.253212 796.89606 847.61108 4279767065
-42.891743 798.97711 848.05774 4280096280
-42.759632 803.16028 847.66083 4279046423
-40.384098 802.93329 847.46942 4279308563
-39.07523 805.97296 846.10828 4280031239
-37.299084 805.97296 846.10828 4280097032
-35.522934 805.97296 846.10828 4280357903
-39.07523 808.00977 847.82562 4279636752
-37.299084 808.00977 847.82562 4279834387
-34.930885 808.23608 848.01642 4279834391
-33.677063 811.45923 848.11816 4279966491
-31.904587 810.78168 847.54688 4280294177
1.772477 811.45923 848.11816 4294966271
4.7266049 811.00751 847.7373 4294900991
-21.203671 814.92908 847.11975 4281675830
-19.436697 814.92908 847.11975 4281478195
-16.78624 814.92908 847.11975 4281872953
-13.252294 814.92908 847.11975 4281937205
-10.601835 814.92908 847.11975 4283181610
-7.951376 814.92908 847.11975 4288577140
-4.4174314 814.92908 847.11975 4294966000
-1.7669724 814.92908 847.11975 4294965757
0 814.92908 847.11975 4294834687
-10.601835 816.27997 848.25879 4286202651
-7.0678897 816.27997 848.25879 4294171871
-43.640366 775.729 850.69214 4280225813
-40.912842 775.03394 850.10602 4280226586
-45.321102 779.2887 849.76941 4280685842
-52.253212 787.76025 849.06421 4280555789
-49.550461 787.76025 849.06421 4280357656
-45.946789 787.76025 849.06421 4279899149
-43.244038 787.76025 849.06421 4280162074
-54.655659 789.59692 850.61285 4280293140
-52.253212 789.82654 850.80646 4280556057
-49.550461 789.82654 850.80646 4280226840
-45.946789 789.82648 850.8064 4280226586
-43.244038 789.82654 850.80646 4280292902
-44.010094 794.03705 850.4325 4279899424
-41.315598 792.6637 849.27466 4280753202
-48.500916 795.41034 851.59045 4280162587
-46.704586 795.41034 851.59045 4280032284
-44.770641 797.55042 849.47083 4279900698
-46.561466 799.604 851.20245 4280228131
-44.678898 800.34338 849.20984 4280032032
-44.678898 801.70972 850.36182 4279635228
-46.322937 805.20343 849.38354 4279371803
-43.650459 805.88446 849.95776 4279372052
-40.977982 805.88446 849.95776 4279701523
-43.650459 807.92761 851.68054 4279306511
-40.977982 807.92761 851.68054 4279701523
-39.07523 811.40448 850.68799 4279506196
-37.299084 811.40448 850.68799 4279703576
-34.812477 811.67603 850.91699 4280360222
-31.335779 812.79694 850.11816 4280754726
-28.38899 812.78833 850.54681 4281413169
-25.727522 812.78833 850.54688 4282071097
-23.042202 812.81427 849.26074 4281939248
1.7761468 811.40448 850.68799 4294967295
3.5522935 811.40448 850.68799 4294967295
-30.132111 814.16937 850.4032 4281412401
-22.155964 814.16937 850.4032 4282071869
-19.497248 814.16937 850.4032 4282005822
-16.543119 814.62109 850.784 4282465088
-13.293577 814.84692 850.97449 4282397488
-10.634862 815.52441 851.54578 4289826928
-8.2715597 815.07275 851.16486 4294234560
-4.4311924 814.84692 850.97449 4294965244
-1.772477 814.16937 850.4032 4294966015
0 814.16937 850.4032 4294900479
-57.834862 788.36682 853.49976 4280491799
-56.027523 788.36682 853.49976 4280097298
-57.834862 789.74854 854.66479 4280228380
-55.123856 789.74854 854.66479 4279899158
-52.412846 789.74854 854.66479 4280162074
-49.550461 791.89276 852.54858 4279702813
-46.847706 791.89276 852.54858 4279571483
-50.451378 793.95905 854.29083 4280228380
-48.500916 796.78363 852.74841 4280294173
-48.500916 798.15698 853.90637 4280229663
-48.352295 802.34229 853.51117 4279438873
-46.466057 805.12543 853.24188 4279174677
-46.322937 809.28967 852.82898 4279764749
-43.650459 809.28967 852.82898 4279634446
-40.977982 809.28967 852.82898 4279701523
-43.650459 810.65173 853.97742 4280093966
-40.977982 810.65173 853.97742 4280554264
1.7816514 810.65173 853.97742 4294967039
-34.338837 814.57294 853.35944 4280886561
-31.082569 814.79919 853.55029 4281281586
-28.418348 814.79919 853.55029 4281610551
