# .PCD v0.7 - Point Cloud Data file format
VERSION 0.7
FIELDS x y z rgb
SIZE 4 4 4 4
TYPE F F F U
COUNT 1 1 1 1
WIDTH 1159
HEIGHT 1
VIEWPOINT 0 0 0 1 0 0 0
POINTS 1159
DATA ascii
-96.954132 758.98718 1268.2257 4283059541
-111.07523 765.46045 1267.1436 4283913071
-108.66055 765.46045 1267.1436 4283254885
-106.24587 765.46045 1267.1436 4282071892
-103.83119 765.46045 1267.1436 4281216583
-99.806725 766.69116 1268.1813 4282399568
-96.587158 765.46045 1267.1436 4281413685
-94.172478 766.38348 1267.9219 4283058513
-91.757797 767.30652 1268.7001 4282731358
-115.46422 771.90564 1266.038 4283518564
-113.05872 771.90564 1266.038 4283518564
-109.45045 772.8252 1266.8132 4283255905
-105.8422 772.8252 1266.8132 4283321949
-103.4367 772.8252 1266.8132 4283519073
-101.03119 772.8252 1266.8132 4283519073
-97.422928 772.82513 1266.8132 4283387228
-106.64954 760.84021 1269.7881 4280430413
-104.22569 760.84021 1269.7881 4280035655
-100.5899 760.84021 1269.7881 4280822597
-96.954132 760.84021 1269.7881 4281808193
-94.530273 760.84021 1269.7881 4283124053
-101.80183 762.6933 1271.3506 4281478728
-92.106422 762.6933 1271.3506 4282731360
-88.470642 762.6933 1271.3506 4283323497
-84.834862 762.6933 1271.3506 4283060324
-82.411011 762.6933 1271.3506 4282863459
-115.90459 770.9986 1271.8132 4283190627
-113.48991 770.9986 1271.8132 4283124834
-94.172478 770.07556 1271.0349 4283255640
-91.757797 770.07556 1271.0349 4283388004
-89.343117 770.07556 1271.0349 4284243313
-85.7211 770.07562 1271.035 4285492345
-82.099083 770.9986 1271.8132 4288974499
-109.45045 775.58368 1269.1392 4283059291
-105.8422 775.58368 1269.1392 4283190625
-103.4367 775.58368 1269.1392 4283190625
-101.03119 775.58368 1269.1392 4283190877
-97.422935 775.58368 1269.1392 4283124830
-93.814682 775.58368 1269.1392 4283124832
-109.45045 777.42273 1270.6898 4283124834
-105.8422 777.42273 1270.6898 4283124834
-103.4367 777.42273 1270.6898 4283124834
-101.03119 777.42273 1270.6898 4283320928
-97.422935 777.42273 1270.6898 4283123805
-93.814682 777.42273 1270.6898 4283320928
-91.409172 777.42273 1270.6898 4283320417
-89.00367 777.42273 1270.6898 4283320417
-107.83486 784.73486 1270.3149 4283124580
-103.0422 783.81885 1269.5426 4283124834
-107.13394 755.64972 1273.2598 4280427083
-103.48165 755.64972 1273.2598 4281810259
-99.829361 755.64972 1273.2598 4282798420
-94.959633 755.64972 1273.2598 4283125334
-91.307343 755.64972 1273.2598 4283124582
-87.655045 755.64972 1273.2598 4282730860
-85.220184 755.64972 1273.2598 4282665067
-82.785324 755.64972 1273.2598 4282533728
-91.307343 757.51123 1274.8293 4282862689
-87.655045 757.51123 1274.8293 4282533476
-85.220184 757.51123 1274.8293 4282928234
-82.785324 757.51123 1274.8293 4282994531
-88.470642 764.54633 1272.913 4283257959
-84.834862 764.54633 1272.913 4283192424
-82.411011 764.54633 1272.913 4283586919
-82.411011 766.39941 1274.4755 4286676084
-113.48991 772.8446 1273.3698 4283124834
-91.757797 772.8446 1273.3698 4283781479
-89.343117 772.8446 1273.3698 4283649893
-85.7211 772.8446 1273.3698 4285820271
-82.099083 772.8446 1273.3698 4288253858
-118.31927 774.69067 1274.9263 4283256418
-115.90459 774.69067 1274.9263 4283452516
-113.48991 774.69067 1274.9263 4283386723
-85.7211 774.69067 1274.9263 4283188574
-82.099083 774.69067 1274.9263 4282533478
-109.45045 779.26178 1272.2404 4283124332
-105.8422 779.26178 1272.2404 4283058789
-103.4367 779.26178 1272.2404 4283058789
-101.03119 779.26178 1272.2404 4283059039
-97.422935 779.26178 1272.2404 4283124833
-93.814682 779.26178 1272.2404 4283124834
-91.409172 779.26178 1272.2404 4283320678
-86.598167 779.26178 1272.2404 4283058537
-113.05872 781.10083 1273.791 4283124834
-110.65321 781.10083 1273.791 4283124582
-105.8422 781.10083 1273.791 4283124834
-101.03119 781.10083 1273.791 4283124832
-97.422935 781.10083 1273.791 4283190626
-107.83486 787.48291 1272.6321 4283124834
-107.83486 789.31494 1274.1768 4283124832
-80.350456 761.23413 1277.9684 4283849834
-118.76881 770.10547 1277.6003 4283453022
-116.34496 770.10547 1277.6003 4283190627
-79.98716 769.17896 1276.8191 4289239212
-113.48991 776.53674 1276.4828 4283124582
-89.343117 776.53674 1276.4828 4283320678
-84.513763 776.53674 1276.4828 4282861415
-82.099083 776.53674 1276.4828 4282466907
-113.05872 782.93982 1275.3417 4283255137
-110.65321 782.93982 1275.3417 4283124834
-105.8422 782.93982 1275.3417 4283124834
-103.4367 782.93982 1275.3417 4283124834
-101.03119 782.93982 1275.3417 4283124834
-97.422935 782.93982 1275.3417 4283190626
-115.46422 784.77881 1276.8922 4283254622
-113.05872 784.77881 1276.8922 4283254622
-110.65321 784.77881 1276.8922 4283124834
-105.8422 784.77881 1276.8922 4283386977
-103.4367 784.77881 1276.8922 4283518564
-101.03119 784.77881 1276.8922 4283518564
-98.625687 784.77881 1276.8922 4283386977
-110.23119 791.14691 1275.7214 4282927962
-107.83486 791.14691 1275.7214 4283059291
-110.23119 792.97894 1277.2662 4282928210
-107.83486 792.97894 1277.2662 4283059539
-80.653214 754.737 1279.0303 4282797153
-80.653214 756.60547 1280.6058 4282929252
-75.765137 756.60547 1280.6058 4282468437
-80.350456 763.09564 1279.538 4287004793
-76.698166 763.09564 1279.538 4285690005
-73.045868 763.09564 1279.538 4283915900
-118.76881 773.81165 1280.7252 4283256418
-116.34496 773.81165 1280.7252 4283124582
-79.98716 772.88513 1279.9441 4283388270
-76.351379 772.88513 1279.944 4285426807
-118.31927 778.38275 1278.0393 4283124832
-115.90459 778.38275 1278.0393 4283124834
-94.172478 778.38275 1278.0393 4283190627
-91.757797 778.38275 1278.0393 4283124834
-89.343117 778.38275 1278.0393 4283124834
-85.7211 778.38275 1278.0393 4283058789
-82.099083 778.38275 1278.0393 4283190625
-118.31927 780.22882 1279.5958 4283320917
-115.90459 780.22882 1279.5958 4283189344
-94.172478 780.22882 1279.5958 4283190625
-91.757797 780.22882 1279.5958 4283059291
-84.513763 780.22882 1279.5958 4283124832
-82.099083 780.22882 1279.5958 4283190625
-115.46422 786.61786 1278.4429 4283056729
-113.05872 787.53735 1279.2183 4283320151
-110.65321 786.61786 1278.4429 4283124832
-105.8422 787.53735 1279.2183 4283189855
-103.4367 787.53735 1279.2183 4283190112
-101.03119 786.61786 1278.4429 4283386977
-107.83486 794.81097 1278.8109 4282730578
-78.209175 758.474 1282.1813 4284047229
-75.765137 758.474 1282.1813 4283323762
-73.321098 758.474 1282.1813 4283454576
-70.877068 760.34247 1283.7567 4284047229
-76.698166 764.95709 1281.1075 4287596460
-73.045868 764.95709 1281.1075 4285365921
-76.698166 766.8186 1282.6771 4288781234
-73.045868 766.8186 1282.6771 4287530680
-79.98716 775.66467 1282.2877 4283124832
-76.351379 775.66467 1282.2877 4282140238
-88.470642 777.5177 1283.8501 4283124830
-79.98716 777.5177 1283.8501 4283190625
-76.351379 777.5177 1283.8501 4282731360
-96.587158 782.07483 1281.1523 4283190625
-94.172478 782.07483 1281.1523 4283124832
-99.001831 783.9209 1282.709 4283386977
-96.587158 783.9209 1282.709 4283124832
-82.099083 783.9209 1282.709 4283059039
-105.8422 790.2959 1281.5442 4282927710
-71.14312 755.71381 1286.3942 4283125868
-70.877068 763.1452 1286.1199 4286415276
-68.433029 763.1452 1286.1199 4286611359
-64.766968 764.07947 1286.9076 4283714912
-73.045868 769.61078 1285.0314 4287463314
-70.611008 769.61078 1285.0314 4288318879
-92.106422 779.37079 1285.4126 4283125084
-88.470642 779.37079 1285.4126 4283124831
-84.834862 779.37079 1285.4126 4283124834
-82.411011 779.37079 1285.4126 4283124832
-94.530273 781.22388 1286.9751 4283124832
-92.106422 781.22388 1286.9751 4283059039
-88.470642 781.22388 1286.9751 4283189856
-84.834862 781.22388 1286.9751 4283189344
-76.351379 781.22388 1286.9751 4282993498
-100.20917 785.76697 1284.2655 4283125084
-96.587158 785.76697 1284.2655 4282927962
-103.83119 787.61298 1285.822 4282861917
-100.20917 787.61298 1285.822 4283125084
-67.463303 757.58936 1287.9755 4283520117
-63.783485 757.58936 1287.9755 4282795618
-66.236694 759.46484 1289.5569 4282927984
-63.783485 759.46484 1289.5569 4282663000
-68.433029 765.94794 1288.4832 4288911039
-64.766968 765.94794 1288.4832 4284567916
-61.100918 765.94794 1288.4832 4285817455
-58.656879 765.94794 1288.4832 4286150268
-73.045868 772.40302 1287.3857 4282337367
-70.611008 772.40302 1287.3857 4282929504
-73.045868 774.26447 1288.9552 4282665565
-70.611008 774.26447 1288.9552 4282599771
-94.530273 783.0769 1288.5375 4283125084
-92.106422 783.0769 1288.5375 4283320928
-84.834862 783.0769 1288.5375 4283124582
-82.411011 783.0769 1288.5375 4283059291
-75.13945 783.0769 1288.5375 4283321430
-106.24587 790.38202 1288.1567 4282532699
-103.83119 790.38202 1288.1567 4282993250
-100.61161 790.6897 1288.4161 4283321961
-61.559631 754.83624 1292.1943 4283058789
-59.097248 754.83624 1292.1943 4283124834
-56.634861 754.83624 1292.1943 4283124834
-61.330276 761.34033 1291.1383 4284503907
-58.877064 761.34033 1291.1383 4283913573
-56.423855 761.34033 1291.1383 4283650145
-56.423855 763.21582 1292.7196 4287005577
-68.433029 767.81641 1290.0586 4287990948
-64.766968 767.81641 1290.0586 4284372069
-61.100918 767.81641 1290.0586 4285095785
-58.656879 767.81641 1290.0586 4285822050
-68.433029 769.68494 1291.634 4283782015
-64.766968 769.68494 1291.634 4283715945
-61.100918 769.68494 1291.634 4284373854
-58.656879 769.68494 1291.634 4283979367
-80.350456 776.12592 1290.5248 4283256418
-76.698166 776.12592 1290.5248 4282928988
-73.045868 776.12592 1290.5248 4283190877
-70.611008 776.12592 1290.5248 4283059291
-80.350456 777.98743 1292.0944 4283322468
-73.045868 777.98743 1292.0944 4283189842
-70.611008 777.98743 1292.0944 4283387477
-96.954132 784.92993 1290.1 4282796369
-94.530273 784.92993 1290.1 4282928212
-92.106422 784.92993 1290.1 4283320671
-84.834862 784.92993 1290.1 4283254887
-82.411011 784.92993 1290.1 4282797403
-76.351379 784.92993 1290.1 4282993748
-99.377983 786.78302 1291.6624 4283256420
-96.954132 786.78302 1291.6624 4282862419
-84.834862 786.78302 1291.6624 4282926426
-82.411011 786.78302 1291.6624 4282666067
-75.13945 786.78302 1291.6624 4282928212
-101.41651 793.15112 1290.4916 4282730326
-61.559631 756.71875 1293.7816 4283189344
-59.097248 756.71875 1293.7816 4283649632
-55.403671 757.66003 1294.5752 4283255903
-51.710091 758.60126 1295.3689 4283256418
-56.423855 766.02905 1295.0917 4285690224
-68.433029 772.48767 1293.9972 4283320674
-64.766968 772.48767 1293.9972 4283584095
-61.100918 772.48767 1293.9972 4284702569
-90.089905 779.84888 1293.6639 4283320928
-87.655045 779.84888 1293.6639 4283058789
-80.350456 779.84888 1293.6639 4283125084
-77.915596 779.84888 1293.6639 4283321430
-73.045868 779.84888 1293.6639 4283189585
-70.611008 779.84888 1293.6639 4283518293
-68.176147 779.84888 1293.6639 4283517793
-90.089905 781.71033 1295.2334 4283517793
-87.655045 781.71033 1295.2334 4283320680
-80.350456 781.71033 1295.2334 4282731610
-73.045868 781.71033 1295.2334 4283189844
-70.611008 781.71033 1295.2334 4283321430
-68.176147 781.71033 1295.2334 4283255135
-96.954132 788.63611 1293.2249 4282927710
-84.834862 788.63611 1293.2249 4282861913
-82.411011 788.63611 1293.2249 4282666321
-70.29174 788.63611 1293.2249 4283320928
-67.867889 788.63611 1293.2249 4283254885
-99.377983 790.48914 1294.7874 4282796119
-96.954132 790.48914 1294.7874 4282862419
-84.834862 790.48914 1294.7874 4282927962
-82.411011 790.48914 1294.7874 4282928210
-75.13945 790.48914 1294.7874 4283059291
-70.29174 790.48914 1294.7874 4283059041
-67.867889 790.48914 1294.7874 4283189344
-64.232109 790.48914 1294.7874 4283057501
-58.172478 790.48914 1294.7874 4282859096
-55.748623 790.48914 1294.7874 4283122524
-53.324772 790.48914 1294.7874 4283123549
-49.688992 790.48914 1294.7874 4283123549
-54.172478 760.48376 1296.9562 4286810775
-51.710091 760.48376 1296.9562 4286021260
-54.172478 762.36627 1298.5435 4287005840
-51.710091 762.36627 1298.5435 4286676875
-58.877064 768.84229 1297.4637 4285293952
-56.423855 768.84229 1297.4637 4285030781
-68.433029 775.29034 1296.3604 4283320928
-64.766968 775.29034 1296.3604 4283123547
-64.766968 777.15887 1297.9358 4283255133
-61.100918 777.15887 1297.9358 4283123801
-94.959633 784.50256 1297.5878 4283059290
-91.307343 784.50256 1297.5878 4283517789
-87.655045 784.50256 1297.5878 4283190109
-80.350456 784.50256 1297.5878 4282797652
-77.103973 784.81281 1297.8494 4282927960
-73.045868 784.50256 1297.5878 4283058524
-70.611008 783.57184 1296.803 4283059291
-68.176147 783.57184 1296.803 4283255137
-64.929665 784.81281 1297.8494 4283123552
-60.871559 785.43329 1298.3726 4283123549
-58.436699 785.43329 1298.3726 4283123551
-56.001835 784.50256 1297.5878 4282927456
-52.349541 785.43329 1298.3726 4283189342
-48.697247 785.43329 1298.3726 4283254622
-46.262386 785.43329 1298.3726 4283188829
-99.377983 792.34216 1296.3497 4282599760
-96.954132 792.34216 1296.3497 4282928210
-84.834862 793.26868 1297.131 4283059291
-82.411011 793.26868 1297.131 4283190364
-79.98716 794.19525 1297.9122 4283518816
-75.947395 793.57758 1297.3915 4283255387
-70.29174 792.34216 1296.3497 4282991965
-67.867889 792.34216 1296.3497 4283254622
-58.172478 794.19525 1297.9122 4283123551
-55.748623 793.26868 1297.131 4282991966
-53.324772 793.26868 1297.131 4282730074
-49.688988 793.26874 1297.131 4282861146
-46.053211 793.26868 1297.131 4282991963
-49.431194 755.86212 1299.5995 4282665315
-46.959633 755.86212 1299.5995 4281744213
-49.431194 757.75165 1301.1926 4283851901
-46.959633 757.75165 1301.1926 4282404455
-54.172478 764.24878 1300.1307 4283781479
-54.172478 766.13135 1301.718 4284831852
-58.877064 770.71783 1299.0452 4285290607
-61.330276 772.59332 1300.6265 4282992471
-58.877064 772.59332 1300.6265 4284043604
-56.423855 772.59332 1300.6265 4285557099
-64.766968 779.02734 1299.5114 4282992733
-61.100918 779.02734 1299.5114 4282861917
-58.656879 779.02734 1299.5114 4282861663
-56.212845 779.02734 1299.5114 4282730076
-63.544952 780.89581 1301.0868 4282861917
-61.100918 780.89581 1301.0868 4282795867
-58.656879 780.89581 1301.0868 4282731360
-52.546791 780.89581 1301.0868 4283189342
-48.880733 780.89581 1301.0868 4283189081
-46.436699 780.89581 1301.0868 4282991445
-43.992661 780.89581 1301.0868 4282990150
-94.959633 787.2948 1299.942 4283059541
-91.307343 787.2948 1299.942 4283125334
-87.655045 787.2948 1299.942 4283059291
-80.350456 787.2948 1299.942 4283059539
-77.915596 787.2948 1299.942 4283059291
-73.045868 787.2948 1299.942 4282927456
-60.871559 787.2948 1299.942 4283057242
-46.262386 787.2948 1299.942 4283189342
-43.827522 787.2948 1299.942 4283450974
-41.392662 787.2948 1299.942 4283319131
-38.957798 787.2948 1299.942 4283187030
-94.959633 789.15625 1301.5116 4283059539
-91.307343 789.15625 1301.5116 4283059541
-87.655045 789.15625 1301.5116 4283059291
-80.350456 789.15625 1301.5116 4283125084
-77.915596 789.15625 1301.5116 4283321180
-73.045868 789.15625 1301.5116 4283123551
-64.523857 789.15625 1301.5116 4283122779
-60.871559 789.15625 1301.5116 4283056729
-58.436699 789.15625 1301.5116 4282860381
-43.827522 789.15625 1301.5116 4283056477
-41.392662 789.15625 1301.5116 4283385442
-37.740364 789.15625 1301.5116 4283123038
-79.98716 797.90137 1301.0371 4283125084
-76.351379 796.04828 1299.4746 4282993755
-55.748623 796.04828 1299.4746 4282795620
-53.324772 796.04828 1299.4746 4282730074
-49.688988 796.97485 1300.2559 4282599257
-46.053211 796.04828 1299.4746 4282598740
-51.902752 761.5307 1304.379 4284439666
-49.431194 760.58594 1303.5825 4286605434
-46.959633 761.5307 1304.379 4287721336
-54.993275 768.6413 1303.8344 4286870411
-51.710091 769.89636 1304.8926 4287069846
-49.247707 768.95508 1304.0989 4287530118
-46.78532 769.89636 1304.8926 4288714911
-44.322937 769.89636 1304.8926 4287530419
-40.629356 769.89636 1304.8926 4285819540
-36.93578 769.89636 1304.8926 4284504189
-58.877064 774.46881 1302.2079 4282729045
-56.423855 774.46881 1302.2079 4282662996
-53.152905 775.71918 1303.2622 4282663778
-49.06422 776.34436 1303.7893 4283518295
-46.611008 776.34436 1303.7893 4285294706
-44.157799 776.34436 1303.7893 4287727198
-39.251377 776.34436 1303.7893 4288713129
-43.992661 782.76428 1302.6622 4283056729
-40.326607 782.76428 1302.6622 4282726741
-36.660549 784.63281 1304.2377 4283384408
-94.959633 791.0177 1303.0812 4282533965
-91.307343 791.0177 1303.0812 4282928212
-87.655045 791.0177 1303.0812 4283059291
-73.045868 791.0177 1303.0812 4283123551
-70.611008 791.0177 1303.0812 4283189344
-68.176147 791.0177 1303.0812 4283452000
-64.523857 791.0177 1303.0812 4282991960
-60.871559 791.0177 1303.0812 4283123801
-43.827522 791.0177 1303.0812 4282860377
-41.392662 791.0177 1303.0812 4283189342
-37.740364 791.0177 1303.0812 4283189342
-73.045868 792.87921 1304.6508 4282861663
-68.176147 792.87921 1304.6508 4283189594
-64.523857 792.87921 1304.6508 4282992212
-60.871559 792.87921 1304.6508 4283124051
-58.436699 792.87921 1304.6508 4283124584
-43.827522 792.87921 1304.6508 4282794584
-41.392662 792.87921 1304.6508 4283518564
-38.957798 792.87921 1304.6508 4283321180
-47.168808 756.37109 1307.8767 4285950340
-44.686237 756.37109 1307.8767 4285685868
-51.902752 763.42023 1305.9723 4284634730
-49.431194 763.42023 1305.9723 4286079820
-46.959633 763.42023 1305.9723 4286474322
-43.252296 763.42023 1305.9723 4288187772
-51.902752 765.30975 1307.5654 4287921559
-46.959633 765.30975 1307.5654 4287464063
-43.252296 765.30975 1307.5654 4284509831
-39.544952 765.30975 1307.5654 4284242532
-37.073395 765.30975 1307.5654 4284571497
-34.601833 765.30975 1307.5654 4286273911
-51.710091 771.77887 1306.4799 4283057772
-49.247707 771.77887 1306.4799 4283386977
-46.78532 771.77887 1306.4799 4286742421
-44.322937 771.77887 1306.4799 4288383646
-40.629356 771.77887 1306.4799 4289107367
-36.93578 771.77887 1306.4799 4289173159
-40.477982 778.21985 1305.3706 4284042846
-36.798164 778.21985 1305.3706 4286081924
-36.798164 780.09534 1306.952 4285357437
-34.216515 787.43555 1306.6008 4282860638
-75.480736 794.74066 1306.2202 4282600023
-64.523857 794.74066 1306.2202 4282861398
-60.871559 794.74066 1306.2202 4282730576
-58.436699 794.74066 1306.2202 4282731108
-56.001835 794.74066 1306.2202 4282599522
-53.566971 794.74066 1306.2202 4282205781
-46.262386 794.74066 1306.2202 4282270807
-43.827522 794.74066 1306.2202 4282925141
-41.392662 794.74066 1306.2202 4283780450
-38.957798 794.74066 1306.2202 4283386977
-63.306423 796.60217 1307.7898 4282796119
-60.871559 796.60217 1307.7898 4282138189
-58.436699 796.60217 1307.7898 4282730076
-56.001835 796.60217 1307.7898 4282795869
-52.349541 796.60217 1307.7898 4282598990
-48.697247 796.60217 1307.7898 4282862419
-46.262386 796.60217 1307.7898 4282928212
-43.827522 796.60217 1307.7898 4282860879
-41.392662 796.60217 1307.7898 4283387479
-38.957798 796.60217 1307.7898 4283386723
-43.444954 758.26904 1309.4771 4289368215
-39.7211 758.26904 1309.4771 4288122775
-37.238533 758.26904 1309.4771 4287201673
-34.755962 758.26904 1309.4771 4285889424
-34.601833 767.19928 1309.1587 4285817455
-32.130276 767.19928 1309.1587 4286409592
-29.658716 767.19928 1309.1587 4287728223
-34.601833 769.08881 1310.7518 4288913324
-32.130276 769.08881 1310.7518 4287728793
-28.422935 769.08881 1310.7518 4285103740
-41.86055 773.66138 1308.0671 4288516458
-36.93578 773.66138 1308.0671 4288976300
-34.473396 775.54388 1309.6545 4288448148
-70.877068 790.23828 1308.9641 4282927456
-36.660549 790.23828 1308.9641 4283189594
-34.216515 790.23828 1308.9641 4282927710
-31.772476 790.23828 1308.9641 4283519590
-73.321098 792.10675 1310.5396 4282861917
-70.877068 792.10675 1310.5396 4282927710
-68.433029 792.10675 1310.5396 4283189342
-36.660549 792.10675 1310.5396 4283123549
-34.216515 792.10675 1310.5396 4282664281
-31.772476 792.10675 1310.5396 4282927710
-29.32844 792.10675 1310.5396 4283320928
-24.440367 792.10675 1310.5396 4283649130
-58.436699 798.46362 1309.3594 4282730074
-56.001835 798.46362 1309.3594 4282795867
-51.943729 799.08417 1309.8824 4282928212
-48.697247 799.39435 1310.144 4282861143
-46.262386 799.39435 1310.144 4282795349
-43.827522 799.39435 1310.144 4282729555
-41.392662 799.39435 1310.144 4282795604
-38.146175 799.70459 1310.4056 4283057759
-34.088074 799.39435 1310.144 4282992212
-32.392662 755.5509 1313.7253 4284836479
-28.655045 755.5509 1313.7253 4282734176
-39.7211 760.16699 1311.0774 4287532173
-37.238533 760.16699 1311.0774 4287729295
-34.755962 760.16699 1311.0774 4287135128
-32.273396 760.16699 1311.0774 4286937748
-29.790825 760.16699 1311.0774 4285819253
-32.273396 762.06494 1312.6776 4287918479
-28.549541 762.06494 1312.6776 4289106564
-24.825687 762.06494 1312.6776 4289173661
-34.601833 770.97833 1312.3451 4288779948
-32.130276 770.97833 1312.3451 4288451239
-28.422935 770.97833 1312.3451 4287333535
-32.130276 772.86786 1313.9382 4289171615
-28.422935 772.86786 1313.9382 4288975269
-24.715597 772.86786 1313.9382 4289568167
-22.244038 772.86786 1313.9382 4286344310
-34.473396 778.36768 1312.0354 4285359201
-32.011009 779.3089 1312.8291 4284043356
-31.891743 785.7218 1311.6962 4282927710
-29.438532 785.7218 1311.6962 4282796119
-26.985321 785.7218 1311.6962 4282861913
-29.438532 787.59735 1313.2775 4283059039
-25.758717 787.59735 1313.2775 4282729821
-36.660549 793.97522 1312.115 4283189344
-34.216515 793.97522 1312.115 4282730074
-31.772476 793.97522 1312.115 4282927710
-29.32844 793.97522 1312.115 4283189594
-25.662384 793.97522 1312.115 4283386469
-21.99633 793.97522 1312.115 4283452015
-19.552294 793.97522 1312.115 4283255137
-17.108257 793.97522 1312.115 4283255137
-7.3321099 793.97522 1312.115 4285031035
-63.544952 795.84375 1313.6904 4283123549
-61.100918 795.84375 1313.6904 4282926426
-36.660549 795.84375 1313.6904 4283123551
-31.772476 795.84375 1313.6904 4283123801
-29.32844 795.84375 1313.6904 4283320917
-25.662384 795.84375 1313.6904 4283386715
-21.99633 795.84375 1313.6904 4283386977
-19.552294 795.84375 1313.6904 4283256418
-17.108257 795.84375 1313.6904 4283322468
-13.442202 795.84375 1313.6904 4282929257
-9.7761469 795.84375 1313.6904 4282994781
-56.001835 802.18652 1312.4984 4282141017
-52.349541 802.18652 1312.4984 4282599772
-48.697247 802.18652 1312.4984 4282403675
-46.262386 802.18652 1312.4984 4282337882
-43.827522 802.18652 1312.4984 4282337369
-41.392662 802.18652 1312.4984 4282337369
-37.740364 802.18652 1312.4984 4282795617
-34.088074 802.18652 1312.4984 4283124051
-27.409174 757.45593 1315.3315 4285621875
-24.917431 757.45593 1315.3315 4283649393
-22.425688 757.45593 1315.3315 4283123049
-22.425688 759.36084 1316.9377 4288647317
-27.308256 763.96289 1314.278 4288057445
-24.825687 763.96289 1314.278 4288123790
-22.343119 763.96289 1314.278 4288913305
-24.825687 765.86084 1315.8783 4283126116
-22.343119 765.86084 1315.8783 4284376182
-19.86055 765.86084 1315.8783 4286146419
-17.377981 765.86084 1315.8783 4287199108
-14.895412 765.86084 1315.8783 4287987847
-32.130276 774.75739 1315.5315 4288649093
-28.422935 774.75739 1315.5315 4288712864
-24.715597 774.75739 1315.5315 4288778894
-22.244038 774.75739 1315.5315 4286805104
-19.772476 774.75739 1315.5315 4283849562
-17.300917 774.75739 1315.5315 4280494118
-32.011009 781.19141 1314.4164 4282859616
-28.317432 781.19141 1314.4164 4284504689
-24.623854 781.19141 1314.4164 4287597198
-24.623854 783.07397 1316.0037 4282731108
-22.161469 783.07397 1316.0037 4283191659
-19.699083 783.07397 1316.0037 4284898944
-17.236698 783.07397 1316.0037 4287728043
-26.985321 789.47284 1314.8589 4283255135
-22.078899 789.47284 1314.8589 4283451494
-19.625689 789.47284 1314.8589 4282859598
-17.172478 789.47284 1314.8589 4283056977
-13.492661 791.34833 1316.4402 4282532697
-9.8128443 791.34833 1316.4402 4282662487
-61.100918 797.71222 1315.2659 4283124832
-58.656879 797.71222 1315.2659 4282533978
-56.212845 797.71222 1315.2659 4282665565
-53.768806 797.71222 1315.2659 4282862419
-31.772476 797.71222 1315.2659 4283124051
-29.32844 797.71222 1315.2659 4283255124
-25.662384 797.71222 1315.2659 4283189586
-21.99633 797.71222 1315.2659 4283189585
-19.552294 797.71222 1315.2659 4283320928
-17.108257 797.71222 1315.2659 4283452770
-13.442202 797.71222 1315.2659 4283125866
-9.7761469 797.71222 1315.2659 4283389033
-7.3321099 797.71222 1315.2659 4283257704
-63.544952 799.58069 1316.8413 4282534480
-31.772476 799.58069 1316.8413 4283189844
-29.32844 799.58069 1316.8413 4283320917
-25.662384 799.58069 1316.8413 4283386709
-21.99633 799.58069 1316.8413 4283320917
-19.552294 799.58069 1316.8413 4283386977
-17.108257 799.58069 1316.8413 4283386977
-13.442202 799.58069 1316.8413 4283191404
-9.7761469 799.58069 1316.8413 4283454826
-7.3321099 799.58069 1316.8413 4283520875
-4.8880734 799.58069 1316.8413 4284110446
-51.132111 804.04803 1314.068 4282729824
-48.697247 804.97876 1314.8528 4282861147
-46.262386 804.97876 1314.8528 4282861147
-43.827522 804.97876 1314.8528 4282400343
-41.392662 804.97876 1314.8528 4282663515
-38.957798 804.97876 1314.8528 4283123043
-17.044037 805.90955 1315.6376 4283649382
-12.985932 805.28906 1315.1144 4283125613
-9.7394495 805.90955 1315.6376 4283192422
-7.3045874 804.97876 1314.8528 4283258471
-4.8697248 805.90955 1315.6376 4283651176
-46.053211 814.57886 1315.0991 4282729043
-19.933945 761.26581 1318.5439 4287990434
-17.442202 761.26581 1318.5439 4287661726
-24.825687 767.75873 1317.4785 4286149266
-22.343119 767.75873 1317.4785 4284898942
-19.86055 767.75873 1317.4785 4284767061
-17.377981 767.75873 1317.4785 4284372559
-13.654128 767.75873 1317.4785 4284703069
-19.86055 769.65668 1319.0789 4284111952
-17.377981 769.65668 1319.0789 4281743403
-13.654128 769.65668 1319.0789 4281879113
-9.930275 769.65668 1319.0789 4283980893
-28.422935 776.64697 1317.1246 4286016633
-24.715597 776.64697 1317.1246 4288580248
-22.244038 776.64697 1317.1246 4288975005
-19.772476 776.64697 1317.1246 4287599778
-17.300917 776.64697 1317.1246 4285297023
-14.829358 776.64697 1317.1246 4283261297
-7.4146791 776.64697 1317.1246 4283781974
-22.244038 778.5365 1318.7179 4288518300
-19.772476 778.5365 1318.7179 4288518077
-17.300917 778.5365 1318.7179 4289307593
-13.593578 778.5365 1318.7179 4286344623
-9.8862381 778.5365 1318.7179 4285751662
-7.4146791 778.5365 1318.7179 4285685868
-4.943119 778.5365 1318.7179 4285491836
-2.4715595 778.5365 1318.7179 4285360249
-22.161469 784.95642 1317.5909 4282795618
-19.699083 784.95642 1317.5909 4283451476
-17.236698 784.95642 1317.5909 4286148732
-13.543119 784.95642 1317.5909 4291871417
-9.8495417 784.95642 1317.5909 4292727266
-7.387156 784.95642 1317.5909 4292464095
-4.9247708 784.95642 1317.5909 4292135636
-2.4623854 784.95642 1317.5909 4293977840
0 784.95642 1317.5909 4294438911
-13.543119 786.83899 1319.1782 4283518057
-9.8495417 786.83899 1319.1782 4285423992
-7.387156 786.83899 1319.1782 4286345094
-4.9247708 786.83899 1319.1782 4289826717
-2.4623854 786.83899 1319.1782 4293905883
0 786.83899 1319.1782 4294966783
-7.359633 793.22382 1318.0216 4282797403
-4.9064221 793.22382 1318.0216 4282008155
0 793.22382 1318.0216 4283979909
-4.9064221 795.0993 1319.603 4283190377
-2.4532111 795.0993 1319.603 4283058535
0 795.0993 1319.603 4282730830
-56.212845 802.38342 1319.2046 4282795351
-52.954132 802.69482 1319.4672 4282860639
-36.660549 802.38342 1319.2046 4283123043
-34.216515 802.38342 1319.2046 4282926415
-31.772476 802.38342 1319.2046 4283123794
-29.32844 802.38342 1319.2046 4283058778
-25.662384 802.38342 1319.2046 4283058523
-21.99633 802.38342 1319.2046 4283190111
-19.552294 802.38342 1319.2046 4283254880
-17.108257 801.44922 1318.4169 4283386723
-14.66422 801.44922 1318.4169 4282994029
-9.7761469 801.44922 1318.4169 4283258471
-4.8880734 801.44922 1318.4169 4284110444
-2.4440367 802.38342 1319.2046 4283913835
0 802.38342 1319.2046 4284045170
-51.132111 809.63245 1318.7766 4282859868
-48.697247 808.70172 1317.9918 4282992217
-46.262386 808.70172 1317.9918 4282992217
-43.827522 808.70172 1317.9918 4282860629
-41.392662 808.70172 1317.9918 4282926422
-37.740364 808.70172 1317.9918 4283057752
-34.088074 809.63245 1318.7766 4283189081
-24.348623 809.63245 1318.7766 4283189092
-21.913761 809.63245 1318.7766 4283189092
-13.391743 808.70172 1317.9918 4283256165
-9.7394495 808.70172 1317.9918 4283191644
-7.3045874 808.70172 1317.9918 4283454559
-4.8697248 807.771 1317.207 4283519590
-20.007339 756.6568 1321.198 4287530399
-13.240367 772.18726 1321.2125 4281881702
-9.930275 772.5036 1321.4792 4283781720
-13.593578 780.42603 1320.311 4292195792
-9.8862381 780.42603 1320.311 4291938516
-7.4146791 780.42603 1320.311 4291477965
-4.943119 780.42603 1320.311 4290821834
-2.4715595 780.42603 1320.311 4291742936
7.4146791 782.31555 1321.9043 4289635277
9.8862381 782.31555 1321.9043 4289701804
-4.9247708 788.7215 1320.7655 4286675331
-2.4623854 788.7215 1320.7655 4290359738
0 788.7215 1320.7655 4294176757
-2.4623854 790.604 1322.3528 4282600035
-2.4532111 796.97485 1321.1843 4284110446
0 796.97485 1321.1843 4283256418
-56.212845 805.18616 1321.5677 4282924889
-52.546791 805.18616 1321.5677 4282794588
-34.216515 805.18616 1321.5677 4282992471
-31.772476 805.18616 1321.5677 4283386973
-29.32844 805.18616 1321.5677 4283321180
-25.662384 805.18616 1321.5677 4283058527
-21.99633 805.18616 1321.5677 4283058789
-19.552294 805.18616 1321.5677 4283320930
-17.108257 805.18616 1321.5677 4283386723
-2.4440367 805.18616 1321.5677 4283519590
0 805.18616 1321.5677 4284308075
-51.132111 811.4939 1320.3462 4282990682
-48.697247 811.4939 1320.3462 4282860629
-43.827522 811.4939 1320.3462 4282729045
-41.392662 811.4939 1320.3462 4282926424
-38.957798 811.4939 1320.3462 4282992471
-24.348623 811.4939 1320.3462 4283123299
-21.913761 811.4939 1320.3462 4283189092
-19.478899 811.4939 1320.3462 4283320930
-13.391743 811.4939 1320.3462 4283190877
-9.7394495 811.4939 1320.3462 4283059791
-7.3045874 811.4939 1320.3462 4283323220
-4.8697248 811.4939 1320.3462 4283519842
-46.262386 813.35541 1321.9156 4282860879
-43.827522 813.35541 1321.9156 4282664783
-41.392662 813.35541 1321.9156 4282796369
-29.218349 813.35541 1321.9156 4282926426
-25.566055 813.35541 1321.9156 4283189086
-21.913761 813.35541 1321.9156 4283188831
-19.478899 813.35541 1321.9156 4283255137
-12.174312 813.35541 1321.9156 4283125084
-9.7394495 813.35541 1321.9156 4283257174
-7.3045874 813.35541 1321.9156 4283388761
4.9651375 777.24847 1325.48 4289768892
7.4146791 784.20508 1323.4974 4294045180
9.8862381 784.20508 1323.4974 4292597734
2.4715595 786.0946 1325.0907 4294967295
9.8862381 786.0946 1325.0907 4293384697
2.4623854 793.42773 1324.7336 4285493886
4.9247708 793.42773 1324.7336 4287926696
2.4532111 800.72583 1324.3472 4284242032
4.9064221 800.72583 1324.3472 4284110194
2.4532111 802.60132 1325.9285 4284308075
4.9064221 802.60132 1325.9285 4284307573
7.359633 802.60132 1325.9285 4284899967
-53.768806 807.05463 1323.1432 4282728026
-36.660549 808.9231 1324.7186 4283123801
-34.216515 808.9231 1324.7186 4283123801
-31.772476 807.98889 1323.9309 4283123545
-29.32844 807.98889 1323.9309 4282991965
-26.884403 807.98889 1323.9309 4282991965
-19.552294 807.05463 1323.1432 4283386723
-17.108257 807.98889 1323.9309 4283320930
-4.8880734 807.05463 1323.1432 4283519842
-2.4440367 807.98889 1323.9309 4284243565
0 807.98889 1323.9309 4284177512
-43.827522 815.21686 1323.4852 4282926928
-29.218349 815.21686 1323.4852 4283188829
-25.566055 815.21686 1323.4852 4283254623
-21.913761 815.21686 1323.4852 4283254624
-19.478899 815.21686 1323.4852 4283254624
-12.174312 815.21686 1323.4852 4283125084
-7.3045874 815.21686 1323.4852 4283518816
-43.827522 817.07837 1325.0548 4282926928
-29.218349 817.07837 1325.0548 4283189081
-25.566055 817.07837 1325.0548 4283385692
-21.913761 817.07837 1325.0548 4283450974
-19.478899 817.07837 1325.0548 4283450974
-17.044037 817.07837 1325.0548 4283450974
-13.391743 817.07837 1325.0548 4283386973
-9.7394495 817.07837 1325.0548 4283518816
-7.3045874 817.07837 1325.0548 4283453022
-4.8697248 817.07837 1325.0548 4283518564
2.4825687 779.14642 1327.0803 4293846783
4.9651375 779.14642 1327.0803 4291674604
2.4825687 781.04437 1328.6807 4294768383
4.9651375 781.04437 1328.6807 4294373887
13.654128 781.04437 1328.6807 4292662752
2.4715595 787.98413 1326.6838 4290559210
4.943119 787.98413 1326.6838 4293846263
7.4146791 787.98413 1326.6838 4293846263
9.8862381 787.98413 1326.6838 4293581806
12.357799 787.98413 1326.6838 4293187304
7.4146791 789.87366 1328.2771 4292531157
9.8862381 789.87366 1328.2771 4292596183
12.357799 789.87366 1328.2771 4293056734
2.4623854 796.25153 1327.1146 4284111479
4.9247708 796.25153 1327.1146 4283979117
7.387156 796.25153 1327.1146 4283452516
7.387156 798.13403 1328.7019 4284175987
2.4532111 804.47681 1327.5099 4284111979
4.9064221 804.47681 1327.5099 4284111729
-39.919266 812.03729 1327.3445 4282795860
-36.660549 811.72583 1327.0819 4282598997
-34.216515 811.72583 1327.0819 4282795351
-31.772476 811.72583 1327.0819 4282861400
-17.108257 811.72583 1327.0819 4283452003
-14.66422 811.72583 1327.0819 4283190877
-9.7761469 812.6601 1327.8696 4283453022
-4.8880734 811.72583 1327.0819 4283584357
-2.4440367 811.72583 1327.0819 4283913321
0 811.72583 1327.0819 4283913317
-36.522934 818.93982 1326.6244 4282860629
-34.088074 818.93982 1326.6244 4282860629
-29.218349 818.93982 1326.6244 4283123287
-25.566055 818.93982 1326.6244 4283319897
-21.913761 818.93982 1326.6244 4283582555
-19.478899 818.93982 1326.6244 4283254622
-17.044037 818.93982 1326.6244 4283188829
-13.391743 818.93982 1326.6244 4283518307
-7.3045874 818.93982 1326.6244 4283781218
-25.566055 820.80127 1328.1938 4283189333
-21.913761 820.80127 1328.1938 4283320667
4.9651375 782.94232 1330.2809 4294967295
7.4477062 782.94232 1330.2809 4294967295
13.654128 782.94232 1330.2809 4292727274
14.895412 784.84027 1331.8812 4293385195
17.377981 784.84027 1331.8812 4293253608
7.4146791 791.76318 1329.8702 4284309385
9.8862381 791.76318 1329.8702 4286214009
9.8862381 793.65271 1331.4635 4283386471
9.8495417 800.01654 1330.2892 4283717755
7.387156 801.89905 1331.8765 4284309109
9.8495417 801.89905 1331.8765 4283980920
2.4532111 806.35229 1329.0912 4284242532
4.9064221 806.35229 1329.0912 4284045936
7.359633 806.35229 1329.0912 4284309109
2.4532111 808.22784 1330.6726 4284242282
4.9064221 808.22784 1330.6726 4284045934
-40.326607 814.52856 1329.4451 4282794577
-36.660549 814.52856 1329.4451 4282794325
-34.216515 814.52856 1329.4451 4282795086
-31.772476 814.52856 1329.4451 4282992721
-2.4440367 814.52856 1329.4451 4284110444
0 814.52856 1329.4451 4284373098
-31.772476 816.39709 1331.0205 4282992471
-9.7761469 816.39709 1331.0205 4283781218
-4.8880734 816.39709 1331.0205 4283780966
-2.4440367 816.39709 1331.0205 4284438895
0 816.39709 1331.0205 4284372848
-29.218349 822.66278 1329.7634 4283057992
17.442202 780.31543 1334.6061 4293056745
14.895412 786.73822 1333.4816 4293056745
9.8862381 795.54224 1333.0566 4283322468
14.829358 797.43176 1334.6499 4283849312
17.300917 797.43176 1334.6499 4289704888
19.772476 797.43176 1334.6499 4290753490
9.8495417 803.78162 1333.4637 4283980920
2.4532111 811.04108 1333.0447 4284570991
4.9064221 811.04108 1333.0447 4284307824
-13.442202 818.26556 1332.5959 4283388004
-9.7761469 818.26556 1332.5959 4283781731
-7.3321099 818.26556 1332.5959 4283715938
-13.442202 820.13403 1334.1714 4283189342
17.506422 775.77649 1337.3193 4292728285
17.442202 784.12531 1337.8186 4292925159
19.933945 784.12531 1337.8186 4292793830
22.425688 784.12531 1337.8186 4293385710
12.412844 788.63611 1335.0818 4289767088
13.654128 790.53406 1336.6821 4289175999
17.377981 790.53406 1336.6821 4292662771
19.86055 790.53406 1336.6821 4292728037
24.825687 790.53406 1336.6821 4292990700
28.549541 790.53406 1336.6821 4292925674
32.273396 790.53406 1336.6821 4293123308
13.593578 799.32129 1336.243 4283849071
17.300917 799.32129 1336.243 4287599265
19.772476 799.32129 1336.243 4289240251
32.130276 799.32129 1336.243 4292793059
34.601833 799.32129 1336.243 4292398302
37.073395 799.32129 1336.243 4292529888
39.544952 799.32129 1336.243 4293187050
13.593578 801.21082 1337.8363 4283848818
17.300917 801.21082 1337.8363 4287138208
19.772476 801.21082 1337.8363 4289700802
28.422935 801.21082 1337.8363 4292859622
32.130276 801.21082 1337.8363 4293385708
34.601833 801.21082 1337.8363 4292594911
37.073395 801.21082 1337.8363 4292529118
39.544952 801.21082 1337.8363 4292793057
42.016514 801.21082 1337.8363 4292990693
7.387156 805.66412 1335.051 4283980141
9.8495417 805.66412 1335.051 4283520623
34.473396 805.66412 1335.051 4292529372
7.387156 807.54663 1336.6384 4284176237
9.8495417 807.54663 1336.6384 4283718005
32.011009 807.54663 1336.6384 4292858841
34.473396 807.54663 1336.6384 4292398554
-4.9064221 815.72986 1336.998 4283583838
-2.4532111 815.72986 1336.998 4284373098
1.6354741 815.10468 1336.4709 4284373364
4.9064221 813.85437 1335.4167 4284175987
-12.220183 822.00256 1335.7468 4283386977
17.583487 770.69543 1340.8833 4292333529
20.007339 778.64447 1339.7375 4292661731
22.508257 778.64447 1339.7375 4292990696
14.950459 786.03027 1339.4248 4292462813
17.442202 786.03027 1339.4248 4293054951
19.933945 786.03027 1339.4248 4292465380
22.425688 786.03027 1339.4248 4292728296
28.655045 786.03027 1339.4248 4292729322
13.240367 793.06464 1338.8158 4283915125
17.377981 792.43201 1338.2825 4290428886
19.86055 792.43201 1338.2825 4291675096
22.343119 794.32996 1339.8827 4292595694
24.825687 794.32996 1339.8827 4292529888
28.963303 793.69727 1339.3492 4292661728
32.273396 793.38098 1339.0825 4292727777
34.755962 793.38098 1339.0825 4292531171
13.593578 803.10034 1339.4294 4283782765
17.300917 803.10034 1339.4294 4288584624
19.772476 803.10034 1339.4294 4290227650
22.244038 803.10034 1339.4294 4292333027
24.715597 803.10034 1339.4294 4292464095
28.422935 803.10034 1339.4294 4292661215
32.130276 803.10034 1339.4294 4293055714
37.073395 803.10034 1339.4294 4292397786
39.544952 803.10034 1339.4294 4292332506
7.387156 809.42914 1338.2256 4283979117
9.8495417 809.42914 1338.2256 4283652471
34.473396 809.42914 1338.2256 4292069589
7.387156 811.31165 1339.813 4283847022
32.011009 811.31165 1339.813 4292529368
34.473396 811.31165 1339.813 4292464347
36.93578 811.31165 1339.813 4292859105
39.398167 811.31165 1339.813 4292398302
-9.8128443 817.60535 1338.5795 4283781218
-7.359633 817.60535 1338.5795 4283649632
-4.9064221 817.60535 1338.5795 4284043354
-2.4532111 817.60535 1338.5795 4284503905
1.2266055 817.60535 1338.5795 4284307575
-9.8128443 819.48083 1340.1609 4283715675
-7.359633 819.48083 1340.1609 4283913053
-4.9064221 819.48083 1340.1609 4285029749
-2.4532111 819.48083 1340.1609 4285227129
1.2266055 819.48083 1340.1609 4284308604
4.9064221 819.48083 1340.1609 4284045684
-2.4440367 826.67371 1339.6855 4284372850
0 827.60797 1340.4733 4284570482
22.425688 787.93524 1341.031 4293056745
22.425688 789.84021 1342.6372 4292596198
24.917431 789.84021 1342.6372 4292332256
27.409174 789.84021 1342.6372 4292792807
22.343119 796.22791 1341.483 4292529901
24.825687 796.22791 1341.483 4292333281
28.549541 796.22791 1341.483 4292530145
22.343119 798.12585 1343.0833 4292661488
24.825687 798.12585 1343.0833 4292530401
13.593578 805.93457 1341.8193 4283914097
17.300917 805.93463 1341.8193 4289571006
19.772476 805.93463 1341.8193 4291675340
22.244038 805.93463 1341.8193 4292399062
24.715597 805.93463 1341.8193 4292530396
28.422935 805.93463 1341.8192 4292464345
32.130276 806.87939 1342.6158 4292464345
37.073395 805.93463 1341.8193 4292530140
39.544952 805.93463 1341.8193 4292333529
42.016514 806.87939 1342.6158 4292267738
-22.161469 815.07666 1342.9875 4283320667
-19.699083 814.13538 1342.1938 4283189342
-17.236698 814.13538 1342.1938 4283255135
4.9247708 814.13538 1342.1938 4284307829
32.011009 813.19415 1341.4003 4292595163
34.473396 813.19415 1341.4003 4292333531
36.93578 813.19415 1341.4003 4292267738
39.398167 813.19415 1341.4003 4292397788
-12.266055 821.35632 1341.7422 4283649632
-9.8128443 821.35632 1341.7422 4283913053
-7.359633 821.35632 1341.7422 4284044639
-4.9064221 821.35632 1341.7422 4284833149
-2.4532111 821.35632 1341.7422 4286149266
1.2266055 821.35632 1341.7422 4284833919
4.9064221 821.35632 1341.7422 4284440694
-12.266055 823.23181 1343.3236 4283583586
-7.359633 823.23181 1343.3236 4283978596
-4.9064221 823.23181 1343.3236 4283978094
1.2266055 823.23181 1343.3236 4284638078
4.9064221 823.23181 1343.3236 4284702583
0 829.47644 1342.0487 4284306283
9.8862381 808.76892 1344.2091 4283915127
13.593578 808.76892 1344.2091 4284439927
17.300917 808.76892 1344.2091 4290425032
19.772476 808.76892 1344.2091 4292595154
22.244038 808.76892 1344.2091 4292923862
24.715597 808.76892 1344.2091 4292595161
28.422935 808.76892 1344.2091 4292529368
42.016514 808.76892 1344.2091 4292332508
7.4146791 810.65845 1345.8022 4284241267
9.8862381 810.65845 1345.8022 4284373872
13.593578 810.65845 1345.8022 4284897641
17.300917 810.65845 1345.8022 4291935172
19.772476 810.65845 1345.8022 4292857304
22.244038 810.65845 1345.8022 4292528595
24.715597 810.65845 1345.8022 4292462809
28.422935 810.65845 1345.8022 4292397529
42.016514 810.65845 1345.8022 4292529118
-24.623854 816.95923 1344.5748 4283452500
-22.161469 816.95923 1344.5748 4283452500
-19.699083 817.90045 1345.3684 4283321433
-17.236698 817.90045 1345.3684 4283387226
-14.774312 817.90045 1345.3684 4283452511
7.387156 817.90045 1345.3684 4284045682
9.8495417 817.90045 1345.3684 4283977832
12.311927 818.84167 1346.1621 4286082439
-7.359633 825.10736 1344.905 4283913067
-4.9064221 826.0451 1345.6957 4284043625
-2.4532111 826.98285 1346.4863 4284306283
2.4532111 826.0451 1345.6957 4284832883
4.9064221 826.0451 1345.6957 4284438896
-4.8880734 833.2135 1345.1997 4284637544
-2.4440367 833.2135 1345.1997 4284571495
0 833.2135 1345.1997 4284637544
0 835.08191 1346.7751 4285097832
27.954128 756.41602 1349.7716 4292397005
25.3211 761.01379 1347.1082 4292332007
27.85321 761.01379 1347.1082 4293318902
15.19266 762.94958 1348.7405 4289832107
20.25688 762.94958 1348.7405 4292659926
22.78899 762.94958 1348.7405 4292988892
25.3211 762.94958 1348.7405 4292793578
27.85321 762.94958 1348.7405 4293056749
7.4146791 812.54797 1347.3955 4284637821
9.8862381 812.54797 1347.3955 4284110696
13.593578 812.54797 1347.3955 4284766840
17.300917 812.54797 1347.3955 4292067563
19.772476 812.54797 1347.3955 4292661208
22.244038 812.54797 1347.3955 4292200657
24.715597 812.54797 1347.3955 4292135132
28.422935 812.54797 1347.3955 4292398303
32.130276 812.54797 1347.3955 4292595681
34.601833 812.54797 1347.3955 4292464860
37.073395 812.54797 1347.3955 4292267738
39.544952 812.54797 1347.3955 4292464095
13.593578 814.4375 1348.9886 4286609543
17.300917 814.4375 1348.9886 4292398292
19.772476 814.4375 1348.9886 4292530651
22.244038 814.4375 1348.9886 4292070100
24.715597 814.4375 1348.9886 4292004057
28.422935 814.4375 1348.9886 4292070363
32.130276 814.4375 1348.9886 4292399585
34.601833 814.4375 1348.9886 4292464606
-14.774312 820.72424 1347.7494 4283583586
-9.8495417 820.72424 1347.7494 4283715425
7.387156 820.72424 1347.7494 4283913067
9.8495417 820.72424 1347.7494 4284697191
13.543119 820.72424 1347.7494 4289368488
-12.311927 822.60675 1349.3367 4283452000
-9.8495417 822.60675 1349.3367 4283452516
7.387156 822.60675 1349.3367 4283780966
13.543119 822.60675 1349.3367 4290226110
-2.4532111 828.85834 1348.0677 4284176489
1.6354741 829.48346 1348.5948 4284110440
4.9064221 830.73383 1349.649 4284240735
7.359633 830.73383 1349.649 4285951353
17.78899 758.35883 1351.4097 4289763752
20.330275 758.35883 1351.4097 4289898156
22.871559 758.35883 1351.4097 4291477188
20.25688 764.88544 1350.3727 4292465130
22.78899 764.88544 1350.3727 4292859632
25.3211 764.88544 1350.3727 4292925161
27.85321 764.88544 1350.3727 4293385712
20.25688 766.82123 1352.0049 4291939297
22.78899 766.82123 1352.0049 4292465641
27.85321 766.82123 1352.0049 4292728037
43.444954 809.51355 1352.6851 4292398301
-24.715597 816.32703 1350.5819 4283518293
-22.244038 816.32703 1350.5819 4283518293
-19.772476 818.21655 1352.175 4283386973
-17.300917 818.21655 1352.175 4283453022
14.829358 816.32703 1350.5819 4289172909
17.300917 817.27179 1351.3784 4292856542
19.772476 817.27179 1351.3784 4292266967
22.244038 816.32703 1350.5819 4292596700
24.715597 816.32703 1350.5819 4292530905
28.422935 816.32703 1350.5819 4292399323
32.130276 816.32703 1350.5819 4292596448
-7.387156 824.48926 1350.924 4283847524
7.387156 824.48926 1350.924 4283649380
12.311927 824.48926 1350.924 4290622141
-9.8495417 826.37177 1352.5112 4283717221
-7.387156 826.37177 1352.5112 4283651428
-4.9247708 826.37177 1352.5112 4283979367
4.9247708 826.37177 1352.5112 4284109931
7.387156 826.37177 1352.5112 4284175724
2.4532111 832.60938 1351.2305 4285032038
4.9064221 832.60938 1351.2305 4285425007
7.359633 832.60938 1351.2305 4287793555
37.238533 811.4115 1354.2854 4292333277
39.7211 811.4115 1354.2854 4292464606
43.444954 811.4115 1354.2854 4292135640
34.755962 813.30945 1355.8857 4292530140
37.238533 813.30945 1355.8857 4292398554
39.7211 813.30945 1355.8857 4292332758
43.444954 813.30945 1355.8857 4292398810
-14.005505 821.36572 1354.8304 4283452254
-9.8862381 821.99561 1355.3615 4283781731
9.8862381 821.05084 1354.5649 4284634727
19.772476 821.05084 1354.5649 4292463062
24.715597 821.99561 1355.3615 4292199903
9.8495417 829.19556 1354.8921 4288318119
13.543119 829.19556 1354.8921 4292331736
30.627523 757.12415 1358.2169 4292728289
33.179817 757.12415 1358.2169 4292662239
-24.825687 815.2074 1357.486 4283321684
-22.343119 815.2074 1357.486 4283255891
22.343119 815.2074 1357.486 4292529370
24.825687 815.2074 1357.486 4292464608
28.549541 815.2074 1357.486 4292332765
32.273396 815.2074 1357.486 4292464095
34.755962 815.2074 1357.486 4292464347
37.238533 815.2074 1357.486 4292530140
39.7211 815.2074 1357.486 4292004307
43.444954 815.2074 1357.486 4292267994
-12.357799 823.88513 1356.9547 4284242273
9.8862381 823.88513 1356.9547 4284504184
12.357799 823.88513 1356.9547 4290623190
17.300917 825.77466 1358.5479 4292332243
19.772476 825.77466 1358.5479 4292134612
13.543119 832.01929 1357.2731 4290357430
47.343121 811.74719 1361.1086 4292465373
-19.86055 817.10535 1359.0863 4283386973
-17.377981 817.10535 1359.0863 4283453022
17.377981 817.10535 1359.0863 4292857056
22.343119 817.10535 1359.0863 4292660697
24.825687 817.10535 1359.0863 4292595431
28.549541 817.10535 1359.0863 4292463585
32.273396 817.10535 1359.0863 4292660704
34.755962 817.10535 1359.0863 4292464347
37.238533 817.10535 1359.0863 4293056484
39.7211 817.10535 1359.0863 4292268249
42.203671 817.10535 1359.0863 4292005077
-17.377981 819.0033 1360.6866 4283649632
14.895412 819.0033 1360.6866 4291478483
17.377981 819.0033 1360.6866 4292136156
22.343119 819.0033 1360.6866 4292594650
28.549541 819.0033 1360.6866 4292528863
32.273396 819.0033 1360.6866 4292594652
17.300917 827.66418 1360.1411 4292726990
17.300917 829.55371 1361.7343 4292330699
-22.425688 814.60468 1363.5179 4283321430
44.851376 814.60468 1363.5179 4292268249
14.895412 820.90125 1362.2869 4292200405
17.377981 820.90125 1362.2869 4292332247
19.86055 820.90125 1362.2869 4292265689
22.343119 820.90125 1362.2869 4292726240
24.825687 820.90125 1362.2869 4292660191
28.549541 820.90125 1362.2869 4292726238
22.343119 822.79913 1363.8872 4292398040
24.825687 822.79913 1363.8872 4292135132
27.308256 822.79913 1363.8872 4292398304
32.392662 818.41455 1366.7303 4292595163
34.884403 817.4621 1365.9272 4292398038
37.376148 817.4621 1365.9272 4292595417
39.867889 817.4621 1365.9272 4292137179
43.605507 816.50964 1365.1241 4291939542
19.86055 824.69708 1365.4874 4292660695
22.343119 824.69708 1365.4874 4292594902
24.825687 824.69708 1365.4874 4292594911
27.308256 824.69708 1365.4874 4292594911
19.86055 826.59503 1367.0878 4292463311
22.343119 826.59503 1367.0878 4292726740
24.825687 826.59503 1367.0878 4292726753
27.308256 826.59503 1367.0878 4292594911
29.900917 820.31952 1368.3365 4291938266
32.392662 820.31952 1368.3365 4292267232
42.515594 815.92798 1371.174 4291939799
35.012844 817.8399 1372.7861 4292399583
37.51376 817.8399 1372.7861 4292333790
40.014679 817.8399 1372.7861 4292202204
-20.095413 811.02362 1374.887 4283583838
30.844648 820.38922 1374.9355 4292332253
