# .PCD v0.7 - Point Cloud Data file format
VERSION 0.7
FIELDS x y z rgb
SIZE 4 4 4 4
TYPE F F F U
COUNT 1 1 1 1
WIDTH 1155
HEIGHT 1
VIEWPOINT 0 0 0 1 0 0 0
POINTS 1155
DATA ascii
58.807339 780.68054 1235.5037 4294768895
61.159634 780.68054 1235.5037 4294703103
49.590824 776.09393 1238.1766 4294570751
51.952293 776.09393 1238.1766 4294373887
54.313763 776.09393 1238.1766 4294768383
59.036697 779.70465 1241.2211 4294833919
61.398167 779.70465 1241.2211 4294768895
47.412846 773.30573 1242.3658 4294373375
47.412846 775.1181 1243.8939 4294702335
49.783485 775.1181 1243.8939 4294768127
52.154129 775.1181 1243.8939 4294636543
55.710091 775.1181 1243.8939 4294834175
61.398167 783.31543 1244.2656 4294702335
63.759632 783.31543 1244.2656 4294702335
42.836697 770.51752 1246.5551 4294242554
46.009785 769.30463 1245.5323 4294242554
49.976147 768.69812 1245.021 4294570750
47.412846 776.93048 1245.4221 4294636543
49.783485 776.93048 1245.4221 4294768383
52.154129 776.93048 1245.4221 4294504703
55.710091 776.93048 1245.4221 4294504959
47.412846 778.74286 1246.9502 4294702590
49.783485 778.74286 1246.9502 4294966015
52.154129 778.74286 1246.9502 4294703103
55.710091 778.74286 1246.9502 4294571263
59.266056 778.74286 1246.9502 4294768639
61.636696 778.74286 1246.9502 4294703103
64.007339 778.74286 1246.9502 4294637311
40.893578 753.51538 1250.5317 4294111484
40.58165 768.28693 1249.9064 4294111486
40.456882 772.33691 1248.0891 4294373887
42.836697 772.33691 1248.0891 4294308347
45.216515 772.33691 1248.0891 4294768895
38.077065 774.15625 1249.6232 4293913340
40.456882 774.15625 1249.6232 4294373887
42.836697 774.15625 1249.6232 4294308347
45.216515 774.15625 1249.6232 4294637311
40.300919 782.36761 1250.0066 4294966015
42.671558 782.36761 1250.0066 4294373629
47.412846 781.46143 1249.2424 4294242555
49.783485 781.46143 1249.2424 4294900991
52.154129 781.46143 1249.2424 4294571775
54.524769 781.46143 1249.2424 4294505983
59.266056 781.46143 1249.2424 4294834431
61.636696 782.36761 1250.0066 4294702335
64.007339 782.36761 1250.0066 4294636543
40.893578 755.35437 1252.0823 4293848830
31.271559 757.19342 1253.6329 4293454070
38.488075 757.19342 1253.6329 4294243071
40.893578 757.19342 1253.6329 4294045439
40.737614 761.83472 1251.0061 4294045693
43.133945 761.83472 1251.0061 4294177531
45.530273 761.83472 1251.0061 4294111738
40.737614 763.66675 1252.5509 4293979896
43.133945 763.66675 1252.5509 4294242554
35.807339 770.11194 1251.4452 4294177279
38.194496 770.11194 1251.4452 4294373887
34.613762 771.93695 1252.984 4293716474
35.697247 775.97565 1251.1572 4294374399
38.077065 775.97565 1251.1572 4294307834
40.456882 775.97565 1251.1572 4294504957
42.836697 775.97565 1251.1572 4294504957
45.216515 775.97565 1251.1572 4294768383
38.077065 777.79504 1252.6913 4293912306
40.456882 777.79504 1252.6913 4294438650
42.836697 777.79504 1252.6913 4294176248
45.216515 777.79504 1252.6913 4294307834
57.115597 777.79504 1252.6913 4294373887
40.300919 785.99237 1253.0629 4294177531
47.412846 784.17999 1251.5347 4294439935
49.783485 784.17999 1251.5347 4294374143
52.154129 784.17999 1251.5347 4294308349
54.524769 785.08618 1252.2988 4294308605
61.636696 785.99237 1253.0629 4294307834
28.866055 759.95197 1255.9589 4292730361
31.271559 759.95197 1255.9589 4293782783
33.677063 759.95197 1255.9589 4293716470
37.285324 759.95197 1255.9589 4293913849
31.152294 767.33075 1255.6403 4293782783
34.347401 766.10938 1254.6105 4294045691
38.341286 765.49872 1254.0956 4294111486
33.420185 773.76196 1254.5228 4292795628
34.613762 775.58698 1256.0615 4292729840
35.697247 779.61444 1254.2253 4293849087
38.077065 779.61444 1254.2253 4294373879
45.216515 779.61444 1254.2253 4294373629
57.115597 779.61444 1254.2253 4294439935
34.507339 781.43384 1255.7594 4290101985
38.077065 781.43384 1255.7594 4293913590
40.456882 781.43384 1255.7594 4294308347
42.836697 781.43384 1255.7594 4293781751
45.216515 781.43384 1255.7594 4294373887
58.305504 781.43384 1255.7594 4294307580
61.875229 781.43384 1255.7594 4294504445
64.255043 781.43384 1255.7594 4294570239
59.266056 787.80475 1254.5909 4294177277
54.524769 789.61713 1256.1191 4294374654
26.561468 754.38422 1257.8043 4292865023
28.976147 754.38422 1257.8043 4293717242
33.805504 754.38422 1257.8043 4293519095
36.220184 754.38422 1257.8043 4294243071
43.464222 754.38422 1257.8043 4294045691
45.878899 754.38422 1257.8043 4294111484
25.35413 756.23022 1259.361 4288262612
25.257797 764.54956 1259.8354 4287994298
28.866055 763.63 1259.0601 4291217125
31.271559 762.71051 1258.2848 4293848831
28.755962 770.07874 1257.9574 4286614694
31.152294 770.07874 1257.9574 4291549169
31.033028 778.32446 1258.3698 4287864770
33.420185 777.41199 1257.6003 4288848864
28.557798 785.07263 1258.8275 4288257983
30.937614 785.07263 1258.8275 4287271088
34.507339 784.1629 1258.0605 4290034900
38.077065 784.16296 1258.0605 4293848311
40.456882 785.07263 1258.8275 4294111484
42.836697 784.16296 1258.0605 4293847547
46.406425 784.16296 1258.0605 4294308094
49.976147 784.16296 1258.0605 4294242559
52.355965 784.16296 1258.0605 4294308861
54.735779 785.07263 1258.8275 4294243325
57.908871 783.85968 1257.8048 4294176764
52.154129 791.42944 1257.6473 4294241787
55.710091 791.42944 1257.6473 4294176507
52.154129 793.24188 1259.1754 4294374143
54.524769 793.24188 1259.1754 4294374143
25.35413 758.07629 1260.9175 4289048785
25.35413 759.92236 1262.474 4289834703
25.257797 766.38855 1261.3861 4286023336
21.649542 768.2276 1262.9366 4287071872
25.257797 768.2276 1262.9366 4286351017
28.755962 772.82678 1260.2744 4286680232
31.152294 772.82678 1260.2744 4289706710
26.359632 774.65881 1261.8191 4286679982
28.755962 774.65881 1261.8191 4286614955
23.871559 782.88696 1262.2168 4284901509
26.258715 782.88696 1262.2168 4287664815
28.645872 781.06195 1260.678 4287995845
31.033028 781.06195 1260.678 4287930052
28.557798 787.80176 1261.1287 4287005842
30.937614 787.80176 1261.1287 4287466137
34.507339 786.89203 1260.3616 4290886877
38.077065 786.89203 1260.3616 4294045178
40.456882 787.80176 1261.1287 4294110970
42.836697 786.89203 1260.3616 4294307582
46.803059 787.49854 1260.8729 4294504702
49.976147 787.80176 1261.1287 4294241790
52.355965 786.89203 1260.3616 4294177531
57.115597 786.89203 1260.3616 4294177531
49.783485 795.0542 1260.7036 4294438652
16.966972 755.28107 1265.1007 4284111981
19.390825 755.28107 1265.1007 4283785858
21.814678 754.35449 1264.3196 4285957025
14.488073 761.76837 1264.0305 4282336584
16.902752 761.76837 1264.0305 4283323479
19.31743 761.76837 1264.0305 4283389033
21.732111 761.76837 1264.0305 4285757581
14.488073 763.61444 1265.587 4282336586
16.902752 763.61444 1265.587 4284047460
19.31743 763.61444 1265.587 4284179306
21.732111 763.61444 1265.587 4286284681
13.230275 770.06665 1264.4873 4282793295
16.838531 770.06665 1264.4873 4287398284
19.244038 770.06665 1264.4873 4288058026
21.649542 770.06665 1264.4873 4287071131
25.257797 770.06665 1264.4873 4286547881
26.359632 776.49084 1263.3638 4286747049
28.755962 776.49084 1263.3638 4286943672
23.963303 778.32281 1264.9086 4284904591
26.359632 778.32281 1264.9086 4287207346
19.097248 784.71198 1263.7555 4285755005
23.871559 784.71198 1263.7555 4285559427
26.258715 784.71198 1263.7555 4287599011
16.710093 786.53699 1265.2943 4285493634
19.097248 786.53699 1265.2943 4285624189
22.677982 786.53699 1265.2943 4286083972
26.258715 786.53699 1265.2943 4287004304
34.613762 786.53699 1265.2943 4293318886
38.194496 786.53699 1265.2943 4294045178
42.968807 786.53699 1265.2943 4293977847
45.355965 786.53699 1265.2943 4294438398
47.596329 790.53076 1263.4297 4294504703
49.976147 790.53076 1263.4297 4294636287
46.406422 792.35016 1264.9637 4294372859
9.6954126 758.98718 1268.2257 4282467407
13.331193 758.06067 1267.4445 4282335821
16.966972 757.13409 1266.6632 4283717473
19.390825 757.13409 1266.6632 4283324014
21.814678 757.13409 1266.6632 4286087064
1.2073394 767.30652 1268.7001 4282861662
4.8293576 767.30652 1268.7001 4282467159
7.2440367 767.30652 1268.7001 4282467159
9.6587152 766.38348 1267.9219 4282531925
13.280734 765.46045 1267.1436 4282598224
16.902752 765.46045 1267.1436 4286216576
19.31743 765.46045 1267.1436 4287071872
7.2165136 773.74469 1267.5885 4282729045
9.6220188 773.74469 1267.5885 4282203730
13.230275 772.8252 1266.8132 4282860630
16.838531 772.8252 1266.8132 4286478984
19.244038 772.8252 1266.8132 4286281633
21.649542 772.8252 1266.8132 4285886875
24.055046 772.8252 1266.8132 4285364632
0 781.98688 1267.9979 4282400082
4.7926607 781.98688 1267.9979 4282334535
7.1889906 781.07086 1267.2256 4282531915
11.182874 781.37622 1267.483 4283584616
14.377981 781.07086 1267.2256 4284702836
16.774311 781.07086 1267.2256 4285623939
19.170643 780.15485 1266.4532 4284900217
21.566973 781.07086 1267.2256 4285426300
0 788.36194 1266.8331 4282859348
23.871559 788.36194 1266.8331 4286149770
26.258715 788.36194 1266.8331 4286741650
28.645872 788.36194 1266.8331 4288580246
31.033028 788.36194 1266.8331 4291540674
34.613762 788.36194 1266.8331 4293780469
38.194496 788.36194 1266.8331 4293913338
40.58165 788.36194 1266.8331 4293781751
42.968807 788.36194 1266.8331 4293978362
45.355965 788.36194 1266.8331 4294241791
-2.387156 790.18695 1268.3719 4282926924
0 790.18695 1268.3719 4283189594
7.161468 790.18695 1268.3719 4283320928
19.097248 790.18695 1268.3719 4286019195
28.645872 790.18695 1268.3719 4291539901
31.033028 790.18695 1268.3719 4293382105
34.613762 790.18695 1268.3719 4294569723
38.194496 790.18695 1268.3719 4293518580
40.58165 790.18695 1268.3719 4293847544
42.968807 790.18695 1268.3719 4294175481
45.216515 795.98895 1268.0319 4294504443
7.2715597 760.84021 1269.7881 4282401364
9.6954126 760.84021 1269.7881 4282400080
12.119267 760.84021 1269.7881 4282662996
2.4238532 762.6933 1271.3506 4282926426
4.8477063 762.6933 1271.3506 4282598488
7.2715597 762.6933 1271.3506 4282467159
2.4146788 770.07556 1271.0349 4282204500
4.8293576 770.07556 1271.0349 4282532182
7.2440367 769.15259 1270.2567 4282466905
9.6587152 769.15259 1270.2567 4282531415
1.2027524 775.58368 1269.1392 4282730326
4.8110094 775.58368 1269.1392 4282531916
7.2165136 775.58368 1269.1392 4282400330
9.6220188 775.58368 1269.1392 4282203730
13.230275 775.58368 1269.1392 4283256159
16.838531 775.58368 1269.1392 4285361020
19.244038 775.58368 1269.1392 4285229181
21.649542 775.58368 1269.1392 4285557890
-2.4055047 777.42273 1270.6898 4282596430
1.2027524 777.42273 1270.6898 4282006351
4.8110094 777.42273 1270.6898 4281742400
9.6220188 777.42273 1270.6898 4282728532
-4.7926607 785.65088 1271.0874 4281808695
-2.3963304 784.73486 1270.3149 4282466114
1.1981652 784.73486 1270.3149 4282793555
4.7926607 784.73486 1270.3149 4282992468
7.1889906 784.73486 1270.3149 4283124054
10.783485 784.73486 1270.3149 4284373868
14.377981 784.73486 1270.3149 4285558908
16.774311 785.65088 1271.0874 4286413699
19.170643 785.65088 1271.0874 4286150783
21.566973 785.65088 1271.0874 4286084990
-4.774312 792.92444 1270.6802 4283058000
-2.387156 792.92444 1270.6802 4283058000
0 792.92444 1270.6802 4283057242
4.774312 792.01196 1269.9108 4283124834
7.161468 792.01196 1269.9108 4283256420
9.548624 792.01196 1269.9108 4283388261
14.322936 792.01196 1269.9108 4284900993
16.710093 792.01196 1269.9108 4285558923
19.097248 792.92444 1270.6802 4287463040
28.645872 792.01196 1269.9108 4293253349
35.807339 792.01196 1269.9108 4294636031
38.194496 792.01196 1269.9108 4294373625
40.58165 792.92444 1270.6802 4294373626
42.968807 792.92444 1270.6802 4294438650
45.355965 792.01196 1269.9108 4294504443
4.8697248 755.64972 1273.2598 4282400082
7.3045874 755.64972 1273.2598 4282728791
2.4348624 757.51123 1274.8293 4282728278
4.8697248 757.51123 1274.8293 4282335570
-2.4055047 779.26178 1272.2404 4282531668
2.4055047 779.26178 1272.2404 4282268240
-4.8110094 781.10083 1273.791 4282399297
2.4055047 781.10083 1273.791 4282859348
-4.7926607 787.48291 1272.6321 4282663752
2.3963304 787.48291 1272.6321 4283189594
4.7926607 787.48291 1272.6321 4283255135
10.783486 787.48291 1272.6321 4284505704
14.377981 787.48291 1272.6321 4285888390
16.774311 787.48291 1272.6321 4285888390
22.765137 787.48291 1272.6321 4285952630
26.359632 787.48291 1272.6321 4288517784
-9.5853214 789.31494 1274.1768 4282139207
-7.1889906 789.31494 1274.1768 4282402379
2.3963304 789.31494 1274.1768 4283517793
11.981651 789.31494 1274.1768 4285032829
22.765137 789.31494 1274.1768 4288318858
26.359632 789.31494 1274.1768 4292199099
31.152294 789.31494 1274.1768 4294503160
33.548622 789.31494 1274.1768 4294175483
-2.387156 796.57446 1273.7577 4283386456
0 796.57446 1273.7577 4283583071
40.58165 796.57446 1273.7577 4293979384
42.968807 795.66199 1272.9883 4294242041
-2.4238532 770.10547 1277.6003 4282730576
-4.8293576 776.53674 1276.4828 4282202447
-7.2165136 782.93982 1275.3417 4281612867
-12.027523 784.77881 1276.8922 4282007369
-9.6220188 784.77881 1276.8922 4281941578
-7.2165136 784.77881 1276.8922 4282336336
-10.783486 791.14691 1275.7214 4282400331
-7.1889906 791.14691 1275.7214 4282860881
2.3963304 791.14691 1275.7214 4283583586
4.7926607 791.14691 1275.7214 4283321180
7.1889906 791.14691 1275.7214 4283518816
10.783486 791.14691 1275.7214 4284439911
14.377981 791.14691 1275.7214 4284111698
16.774311 791.14691 1275.7214 4285624937
22.765137 791.14691 1275.7214 4292132289
26.359632 791.14691 1275.7214 4294632170
28.755962 791.14691 1275.7214 4294372342
31.152294 791.14691 1275.7214 4294174962
34.746788 791.14691 1275.7214 4293846777
38.341286 791.14691 1275.7214 4294176248
-10.783486 792.97894 1277.2662 4282597460
-7.1889906 792.97894 1277.2662 4283189596
-4.7926607 792.97894 1277.2662 4283254874
2.3963304 792.97894 1277.2662 4284175474
4.7926607 792.97894 1277.2662 4284439397
7.1889906 792.97894 1277.2662 4284242019
10.783486 792.97894 1277.2662 4285095281
14.377981 792.97894 1277.2662 4287068775
16.774311 792.97894 1277.2662 4289437323
19.170643 792.97894 1277.2662 4291016635
22.765137 792.97894 1277.2662 4293253090
26.359632 792.97894 1277.2662 4294503162
28.755962 792.97894 1277.2662 4294175733
31.152294 792.97894 1277.2662 4294109940
35.944954 792.97894 1277.2662 4294175742
38.341286 792.97894 1277.2662 4293979383
-2.387156 799.31195 1276.0659 4283913823
0 799.31195 1276.0659 4284439647
-2.387156 801.13696 1277.6047 4283388761
-2.4440367 754.737 1279.0303 4284437095
0 754.737 1279.0303 4283978344
-2.4440367 756.60547 1280.6058 4284373872
0 756.60547 1280.6058 4283781479
-7.2715597 773.81165 1280.7252 4281940815
-4.8477063 771.95856 1279.1628 4282135879
-7.2440367 778.38275 1278.0393 4281678408
-12.073395 780.22882 1279.5958 4281678406
-9.6587152 780.22882 1279.5958 4281678660
-19.244038 788.45691 1279.9935 4282071367
-16.838531 788.45691 1279.9935 4282268490
-13.631192 787.2309 1278.9598 4282334536
-10.783486 794.81097 1278.8109 4283124055
-7.1889906 794.81097 1278.8109 4283321180
-4.7926607 794.81097 1278.8109 4283452502
2.3963304 794.81097 1278.8109 4284767080
4.7926607 794.81097 1278.8109 4284703326
7.1889906 794.81097 1278.8109 4284505690
10.783486 794.81097 1278.8109 4287986307
14.377981 794.81097 1278.8109 4291606973
16.774311 794.81097 1278.8109 4293646556
19.170643 794.81097 1278.8109 4293715693
21.566973 794.81097 1278.8109 4293649900
28.755962 794.81097 1278.8109 4293847796
35.944954 794.81097 1278.8109 4293978360
38.341286 794.81097 1278.8109 4293781749
-10.783486 796.64294 1280.3556 4283321432
-7.1889906 796.64294 1280.3556 4283321180
-4.7926607 796.64294 1280.3556 4283519066
2.3963304 796.64294 1280.3556 4284637027
4.7926607 796.64294 1280.3556 4285686366
7.1889906 796.64294 1280.3556 4287265655
10.783486 796.64294 1280.3556 4290815933
14.377981 796.64294 1280.3556 4292989669
-2.4440367 760.34247 1283.7567 4283586417
0 760.34247 1283.7567 4283190625
-2.4348624 764.95709 1281.1075 4283257958
0 764.95709 1281.1075 4282928736
-9.6954126 775.66467 1282.2877 4281414980
-21.732111 783.9209 1282.709 4282135875
-19.31743 783.9209 1282.709 4282071367
-16.902752 783.9209 1282.709 4282268490
-16.838531 790.2959 1281.5442 4282334035
-14.433027 790.2959 1281.5442 4282268240
33.677063 790.2959 1281.5442 4294044156
-16.838531 792.13495 1283.0947 4282925391
-14.433027 792.13495 1283.0947 4282729295
25.257797 792.13495 1283.0947 4293715188
31.271559 792.13495 1283.0947 4293847796
33.677063 792.13495 1283.0947 4293978360
-10.783485 799.39099 1282.6726 4283781979
-7.1889906 799.39099 1282.6726 4283979359
-4.7926607 799.39099 1282.6726 4284044896
-2.3963304 800.30701 1283.4451 4285293680
0 799.39099 1282.6726 4286214506
11.981651 799.39099 1282.6726 4294043641
14.377981 799.39099 1282.6726 4293912055
16.774311 800.30701 1283.4451 4293714678
19.170643 800.30701 1283.4451 4293715184
-4.9064221 754.77606 1285.6035 4284177524
-2.4532111 755.71381 1286.3942 4283718003
-4.8880734 764.07947 1286.9076 4282730576
-9.7394495 770.5415 1285.8162 4281940815
-19.390825 779.37079 1285.4126 4282332999
-16.966972 779.37079 1285.4126 4282464842
-14.543119 779.37079 1285.4126 4282139211
-24.238533 781.22388 1286.9751 4282070082
-21.732111 785.76697 1284.2655 4281939781
-21.732111 787.61298 1285.822 4281939277
-19.31743 787.61298 1285.822 4281939277
-19.244038 793.974 1284.6454 4282992971
-16.838531 793.974 1284.6454 4282992971
-14.433027 793.974 1284.6454 4283189842
16.838531 793.974 1284.6454 4294108406
19.244038 793.974 1284.6454 4293846259
21.649542 793.974 1284.6454 4293583343
25.257797 793.974 1284.6454 4293846776
28.866055 793.974 1284.6454 4294044406
31.271559 793.974 1284.6454 4293847283
33.677063 793.974 1284.6454 4293977847
-19.244038 795.81299 1286.196 4283255891
-16.838531 795.81299 1286.196 4283255891
-14.433027 795.81299 1286.196 4283255891
2.4055047 795.81299 1286.196 4286478703
4.8110094 795.81299 1286.196 4289500816
7.2165136 795.81299 1286.196 4292395708
9.6220188 795.81299 1286.196 4293188586
16.838531 795.81299 1286.196 4293649139
19.244038 795.81299 1286.196 4293451757
21.649542 795.81299 1286.196 4293583343
26.46055 795.81299 1286.196 4293977849
28.866055 795.81299 1286.196 4293846259
31.271559 795.81299 1286.196 4293912308
-10.384098 802.74969 1285.5046 4284702551
-7.1889906 802.13904 1284.9897 4285097050
-4.7926607 802.13904 1284.9897 4287199095
-2.3963304 802.13904 1284.9897 4290488745
0 802.13904 1284.9897 4292267217
11.981651 803.05505 1285.7621 4294109944
14.377981 803.05505 1285.7621 4293649652
16.774311 803.05505 1285.7621 4293583860
19.170643 802.13904 1284.9897 4293518834
-4.9064221 757.58936 1287.9755 4283652210
-4.9064221 759.46484 1289.5569 4283389287
-7.3321099 765.94794 1288.4832 4282334535
-13.391743 772.40302 1287.3857 4281546566
-19.478899 774.26447 1288.9552 4282202447
-17.044037 774.26447 1288.9552 4282071118
-14.609175 774.26447 1288.9552 4281809735
-24.238533 783.0769 1288.5375 4282005574
-24.14679 791.30505 1288.9351 4282071367
-21.732111 790.38202 1288.1567 4282531148
-19.31743 789.45898 1287.3785 4282925391
-21.649542 797.65204 1287.7466 4282730074
-19.244038 797.65204 1287.7466 4283191381
-16.838531 797.65204 1287.7466 4283322968
-14.433027 797.65204 1287.7466 4283716442
2.4055047 797.65204 1287.7466 4290358440
4.8110094 797.65204 1287.7466 4292200646
7.2165136 797.65204 1287.7466 4293779421
9.6220188 797.65204 1287.7466 4293517046
21.649542 797.65204 1287.7466 4294307064
26.46055 797.65204 1287.7466 4293978614
-21.649542 799.49109 1289.2972 4282994781
-19.244038 799.49109 1289.2972 4283388763
-16.838531 799.49109 1289.2972 4283585885
-14.433027 799.49109 1289.2972 4283716438
2.4055047 799.49109 1289.2972 4293648870
4.8110094 799.49109 1289.2972 4293583595
7.2165136 799.49109 1289.2972 4293451753
9.6220188 799.49109 1289.2972 4293122540
-7.387156 754.83624 1292.1943 4283521375
-14.719266 761.34033 1291.1383 4284177522
-7.359633 761.34033 1291.1383 4282862918
-34.344955 763.21582 1292.7196 4281807941
-31.891743 763.21582 1292.7196 4281544769
-29.438532 763.21582 1292.7196 4281479478
-25.758717 763.21582 1292.7196 4283847515
-13.492661 763.21582 1292.7196 4282663506
-9.8128443 763.21582 1292.7196 4282466377
-29.32844 767.81641 1290.0586 4281808695
-25.662384 767.81641 1290.0586 4283518808
-17.108257 767.81641 1290.0586 4282992721
-13.442202 767.81641 1290.0586 4281875528
-29.32844 769.68494 1291.634 4282005572
-24.440367 769.68494 1291.634 4282465621
-21.99633 769.68494 1291.634 4282399828
-19.552294 769.68494 1291.634 4282203730
-17.108257 769.68494 1291.634 4282072144
-24.348623 776.12592 1290.5248 4282135879
-21.913761 776.12592 1290.5248 4282333001
-29.218349 777.98743 1292.0944 4281612365
-26.783485 777.98743 1292.0944 4281612365
-24.238533 784.92993 1290.1 4281939277
-24.238533 786.78302 1291.6624 4282201670
-31.390825 794.99713 1292.0481 4282795340
-28.976147 794.99713 1292.0481 4282730830
-25.35413 794.07416 1291.2699 4282598993
-21.732111 793.15112 1290.4916 4282401614
24.14679 794.0741 1291.2698 4293715188
-21.649542 802.24963 1291.6232 4284174431
-19.244038 802.24963 1291.6232 4283846233
-16.838531 802.24963 1291.6232 4283978075
-13.230276 802.24963 1291.6232 4285557604
-9.6220188 803.16913 1292.3984 4290095013
-7.2165136 802.24963 1291.6232 4289832605
-4.8110094 802.24963 1291.6232 4291477188
-2.4055047 802.24963 1291.6232 4293055964
0 802.24963 1291.6232 4293385195
4.8110094 802.24963 1291.6232 4293517555
7.2165136 802.24963 1291.6232 4293780727
9.6220188 802.24963 1291.6232 4293584368
12.027523 803.16913 1292.3984 4293453041
-32.011009 758.60126 1295.3689 4281807941
-28.317432 758.60126 1295.3689 4282597709
-24.623854 758.60126 1295.3689 4284176730
-22.161469 758.60126 1295.3689 4284242523
-19.699083 758.60126 1295.3689 4284176480
-17.236698 758.60126 1295.3689 4284242273
-12.311927 758.60126 1295.3689 4284111729
-9.8495417 757.66003 1294.5752 4283717721
-7.387156 756.71875 1293.7816 4283520092
-31.891743 766.02905 1295.0917 4281743171
-26.985321 766.9668 1295.8823 4282334537
-22.078899 765.09131 1294.301 4283453022
-19.625689 765.09131 1294.301 4283255637
-34.216515 773.42188 1294.7849 4282070082
-31.772476 773.42188 1294.7849 4282135875
-29.32844 772.48767 1293.9972 4282005574
-26.069723 772.17627 1293.7346 4282071113
-21.99633 771.55341 1293.2095 4282202447
-26.783485 779.84888 1293.6639 4281612365
-29.218349 781.71033 1295.2334 4282005070
-26.783485 781.71033 1295.2334 4282005070
-26.662386 788.63611 1293.2249 4282202951
-31.510092 790.48914 1294.7874 4282270790
-29.086239 790.48914 1294.7874 4282664783
-31.390825 796.8432 1293.6047 4283124049
-28.976147 796.8432 1293.6047 4282861913
-25.35413 796.8432 1293.6047 4283125854
-43.464222 798.68921 1295.1613 4282662725
-37.427521 798.68921 1295.1613 4282727244
-33.805504 798.68921 1295.1613 4283189842
-31.390825 798.68921 1295.1613 4282992719
-28.976147 798.68921 1295.1613 4283255387
-25.35413 798.68921 1295.1613 4283584095
2.4146788 798.68921 1295.1613 4293779953
-43.299084 806.84717 1295.4998 4283255387
-37.285324 805.92773 1294.7244 4283452763
-33.677063 805.92767 1294.7244 4283716187
-31.271559 805.92767 1294.7244 4283979615
-28.866055 805.92767 1294.7244 4283979354
-25.257797 805.92773 1294.7244 4284505695
-21.649542 805.92767 1294.7244 4284835170
-19.244038 805.92767 1294.7244 4286606441
-16.838531 805.92767 1294.7244 4288580231
-13.230276 805.92767 1294.7244 4291343280
-9.6220188 805.92767 1294.7244 4292858845
-7.2165136 805.92767 1294.7244 4293516775
-4.8110094 805.92767 1294.7244 4293517808
-2.4055047 805.92767 1294.7244 4293452015
0 805.92767 1294.7244 4293320429
4.8110094 805.00818 1293.9491 4293518580
7.2165136 805.00818 1293.9491 4293452787
-22.161469 760.48376 1296.9562 4284110433
-19.699083 760.48376 1296.9562 4283255637
-17.236698 760.48376 1296.9562 4283189844
-39.398167 762.36627 1298.5435 4282005572
-36.93578 762.36627 1298.5435 4281808193
-34.473396 762.36627 1298.5435 4282005572
-36.798164 768.84229 1297.4637 4282466125
-34.344955 768.84229 1297.4637 4282530883
-31.891743 768.84229 1297.4637 4282333503
-43.992661 775.29034 1296.3604 4282202174
-36.660549 775.29034 1296.3604 4282071867
-34.216515 775.29034 1296.3604 4282005574
-31.772476 775.29034 1296.3604 4281939781
-43.992661 777.15887 1297.9358 4282005822
-36.660549 777.15887 1297.9358 4281678406
-34.216515 777.15887 1297.9358 4281678408
-31.772476 777.15887 1297.9358 4281612615
-29.32844 777.15887 1297.9358 4281612365
-31.653212 785.43329 1298.3726 4281940281
-29.218349 785.43329 1298.3726 4282071365
-26.783485 783.57184 1296.803 4282071367
-43.629356 794.19525 1297.9122 4282794054
-37.569725 794.19525 1297.9122 4282466125
-33.933945 793.26868 1297.131 4282926670
-43.464222 800.53528 1296.7178 4283121739
-41.049541 800.53528 1296.7178 4283121739
-37.427521 800.53528 1296.7178 4283056977
-33.805504 800.53528 1296.7178 4283913051
-31.390825 800.53528 1296.7178 4283584086
-28.976147 800.53528 1296.7178 4283255378
-25.35413 800.53528 1296.7178 4284043097
2.4146788 800.53528 1296.7178 4293517037
-43.464222 802.38135 1298.2743 4283189331
-41.049541 802.38135 1298.2743 4283189331
2.4146788 802.38135 1298.2743 4293714930
-43.299084 808.68622 1297.0503 4283320667
-40.893578 808.68622 1297.0503 4283518045
-37.285324 808.68622 1297.0503 4283649893
-33.677063 808.68622 1297.0503 4283651428
-31.271559 808.68622 1297.0503 4284111979
-28.866055 808.68622 1297.0503 4284900448
-25.257797 808.68622 1297.0503 4286017122
-21.649542 808.68622 1297.0503 4288252020
-19.244038 808.68622 1297.0503 4290750381
-16.838531 808.68622 1297.0503 4293118929
-13.230275 808.68622 1297.0503 4293779175
-9.6220188 808.68622 1297.0503 4293648114
-7.2165136 808.68622 1297.0503 4293911543
-4.8110094 808.68622 1297.0503 4293254894
-2.4055047 808.68622 1297.0503 4293254894
-43.299084 810.52527 1298.601 4283320667
-21.649542 810.52527 1298.601 4293380559
-19.244038 810.52527 1298.601 4293516002
-16.838531 810.52527 1298.601 4293384415
-13.230275 810.52527 1298.601 4293780207
-9.6220188 810.52527 1298.601 4293254381
-7.2165136 810.52527 1298.601 4293385710
-4.8110094 810.52527 1298.601 4292728035
-40.629356 764.24878 1300.1307 4282005319
-36.93578 764.24878 1300.1307 4282071367
-34.473396 764.24878 1300.1307 4281809735
-44.322937 766.13135 1301.718 4282005572
-40.629356 766.13135 1301.718 4282137159
-46.611008 770.71783 1299.0452 4282333253
-44.157799 770.71783 1299.0452 4282071871
-40.477982 770.71783 1299.0452 4282268480
-36.798164 770.71783 1299.0452 4282530883
-46.611008 772.59332 1300.6265 4282201924
-40.477982 772.59332 1300.6265 4282071099
-46.436699 779.02734 1299.5114 4282333531
-43.992661 779.02734 1299.5114 4282465090
-40.326607 779.02734 1299.5114 4282267978
-36.660549 779.02734 1299.5114 4281939279
-34.216515 779.02734 1299.5114 4281678408
-31.772476 779.02734 1299.5114 4281678408
-48.880733 780.89581 1301.0868 4280757306
-46.436699 780.89581 1301.0868 4281414980
-43.992661 780.89581 1301.0868 4282530883
-40.326607 780.89581 1301.0868 4282202436
-36.660549 780.89581 1301.0868 4282071367
-34.216515 780.89581 1301.0868 4282136381
-31.772476 780.89581 1301.0868 4282333503
-29.32844 780.89581 1301.0868 4282071367
-43.827522 787.2948 1299.942 4282268742
-36.522934 787.2948 1299.942 4282334535
-34.088074 787.2948 1299.942 4281941826
-43.827522 789.15625 1301.5116 4282662725
-37.740364 789.15625 1301.5116 4282596680
-48.477066 796.97485 1300.2559 4282333511
-46.053211 796.97485 1300.2559 4282398792
-41.205505 796.04828 1299.4746 4282794054
-45.878899 805.15039 1300.6091 4283255637
-41.049541 804.22736 1299.8308 4283386973
2.4146788 804.22736 1299.8308 4293649652
4.8293576 804.22736 1299.8308 4293518580
-21.649542 812.36426 1300.1516 4294171630
-19.244038 812.36426 1300.1516 4293581547
-16.838531 812.36426 1300.1516 4293318118
-13.230275 812.36426 1300.1516 4293451757
-9.6220188 812.36426 1300.1516 4293451755
-7.2165136 812.36426 1300.1516 4293649135
-16.838531 814.20331 1301.7021 4293318888
-13.230275 814.20331 1301.7021 4293254640
-51.710091 769.89636 1304.8926 4282004539
-49.247707 769.89636 1304.8926 4282004289
-51.517429 776.34436 1303.7893 4282005572
-49.06422 775.40662 1302.9985 4281676106
-46.611008 774.46881 1302.2079 4282005320
-40.477982 774.46881 1302.2079 4281875010
-51.324772 782.76428 1302.6622 4282269246
-48.880733 782.76428 1302.6622 4281349186
-46.436699 782.76428 1302.6622 4281152064
-43.992661 782.76428 1302.6622 4282071871
-40.326607 782.76428 1302.6622 4282071618
-36.660549 782.76428 1302.6622 4282071365
-34.216515 782.76428 1302.6622 4281940281
-56.212845 784.63281 1304.2377 4281872702
-52.546791 784.63281 1304.2377 4282137408
-48.880733 784.63281 1304.2377 4281809735
-46.436699 784.63281 1304.2377 4281875785
-40.326607 784.63281 1304.2377 4282202949
-48.697247 791.0177 1303.0812 4281808193
-46.262386 791.0177 1303.0812 4281939779
-41.392662 791.0177 1303.0812 4282794054
-58.436699 792.87921 1304.6508 4282071367
-56.001835 792.87921 1304.6508 4282071367
-52.349541 792.87921 1304.6508 4282137158
-55.748623 799.75439 1302.5996 4282201922
-49.688992 799.75439 1302.5996 4282794830
-46.053211 799.75439 1302.5996 4283189585
-60.596329 801.60742 1304.162 4282792258
-55.748623 801.60742 1304.162 4283187534
-53.324772 801.60742 1304.162 4283125332
-48.477066 801.60742 1304.162 4282926928
-45.878899 808.84247 1303.7222 4283453268
-43.464222 809.7655 1304.5005 4283848030
-38.634861 809.7655 1304.5005 4284244072
-31.390825 808.84247 1303.7222 4284637799
-28.976147 808.84247 1303.7222 4286213734
-24.951683 808.53485 1303.4628 4290027683
-49.431194 765.30975 1307.5654 4282070082
-51.710091 771.77887 1306.4799 4282005572
-51.517429 778.21985 1305.3706 4281808443
-56.423855 780.09534 1306.952 4281741373
-53.970642 780.09534 1306.952 4281742902
-70.877068 788.36975 1307.3887 4282596932
-68.433029 787.43555 1306.6008 4282006088
-64.359627 787.74689 1306.8634 4282071628
-61.100918 787.43555 1306.6008 4282071631
-58.656879 787.43555 1306.6008 4282399814
-56.212845 787.43555 1306.6008 4282334022
-52.546791 787.43549 1306.6008 4282400580
-48.880733 786.50128 1305.8131 4282466377
-46.436699 786.50128 1305.8131 4282400328
-41.548622 786.50128 1305.8131 4282530883
-68.176147 794.74066 1306.2202 4282072144
-64.523857 794.74066 1306.2202 4281940293
-60.871559 794.74066 1306.2202 4282203201
-58.436699 794.74066 1306.2202 4281809735
-56.001835 794.74066 1306.2202 4281546820
-52.349541 794.74066 1306.2202 4281612867
-70.611008 796.60217 1307.7898 4282401112
-68.176147 796.60217 1307.7898 4282071367
-64.523857 796.60217 1307.7898 4282202433
-60.871559 796.60217 1307.7898 4282465342
-58.436699 796.60217 1307.7898 4282465094
-53.566971 796.60217 1307.7898 4282334539
-67.867889 803.46051 1305.7245 4282661201
-60.596329 803.46051 1305.7245 4282134603
-58.172478 803.46051 1305.7245 4282726992
-55.748623 803.46051 1305.7245 4283187543
-53.324772 803.46051 1305.7245 4283124301
-49.688992 803.46051 1305.7245 4283124048
-67.867889 805.3136 1307.2869 4282663502
-60.596329 805.3136 1307.2869 4282859598
-58.172478 805.3136 1307.2869 4282663502
-55.748623 805.3136 1307.2869 4282860881
-53.324772 805.3136 1307.2869 4283124051
-49.688992 805.3136 1307.2869 4283189843
-41.205505 805.3136 1307.2869 4283978596
-37.569725 805.3136 1307.2869 4284176489
-33.933945 805.3136 1307.2869 4283653216
-45.878899 811.61151 1306.057 4283781981
-43.464222 811.61151 1306.057 4283979367
-21.732111 811.61151 1306.057 4293581545
-19.31743 811.61151 1306.057 4293318888
-19.31743 813.45758 1307.6135 4293319402
-54.374313 769.08881 1310.7518 4282071365
-54.172478 773.66138 1308.0671 4282005572
-55.403671 775.54388 1309.6545 4281939263
-71.14312 781.97083 1308.5333 4282203201
-68.689911 781.97083 1308.5333 4281417030
-63.783485 781.97083 1308.5333 4281678406
-61.330276 781.97083 1308.5333 4282007371
-58.877064 781.97083 1308.5333 4281938496
-76.049538 783.84631 1310.1147 4282136381
-73.596329 783.84631 1310.1147 4282136381
-71.14312 783.84631 1310.1147 4282465090
-66.236694 783.84631 1310.1147 4281809735
-70.877068 790.23828 1308.9641 4282596680
-68.433029 790.23828 1308.9641 4282268490
-64.766968 790.23828 1308.9641 4282071367
-61.100918 790.23828 1308.9641 4282071367
-73.321098 792.10675 1310.5396 4282072144
-70.877068 792.10675 1310.5396 4282203730
-73.045868 800.32507 1310.9288 4282400330
-70.611008 799.39435 1310.144 4282203469
-68.176147 798.46362 1309.3594 4281742148
-64.523857 799.39435 1310.144 4282398537
-58.436699 798.46362 1309.3594 4282990154
-51.132111 798.46362 1309.3594 4282862417
-60.596329 809.01965 1310.4117 4283321430
-58.172478 808.09314 1309.6306 4283255891
-55.748623 808.09314 1309.6306 4283255635
-53.324772 808.09314 1309.6306 4282993238
-49.688988 808.09314 1309.6306 4283716701
-41.205505 808.09314 1309.6306 4284110949
-37.165752 808.40204 1309.891 4284506469
-33.933945 808.09314 1309.6306 4286279274
-31.510092 809.01965 1310.4117 4290554269
-29.086239 809.01965 1310.4117 4292133317
-25.854433 808.40204 1309.891 4292199369
-56.845871 770.97833 1312.3451 4282005822
-61.78899 772.86786 1313.9382 4282202174
-59.317432 772.86786 1313.9382 4282135875
-66.484406 779.3089 1312.8291 4281022272
-61.559631 777.42639 1311.2418 4282071867
-59.097248 777.42639 1311.2418 4281938496
-78.502754 785.7218 1311.6962 4282793028
-76.049538 785.7218 1311.6962 4282793028
-73.596329 785.7218 1311.6962 4282596932
-83.409172 787.59735 1313.2775 4282727244
-78.502754 787.59735 1313.2775 4282596680
-76.049538 787.59735 1313.2775 4282596680
-73.596329 787.59735 1313.2775 4282530887
-83.097244 793.97522 1312.115 4282007371
-78.209175 793.97522 1312.115 4282073416
-75.765137 793.97522 1312.115 4281941830
-73.321098 793.97522 1312.115 4282203732
-78.209175 795.84375 1313.6904 4282007875
-75.765137 795.84375 1313.6904 4282073668
-73.321098 795.84375 1313.6904 4282203730
-73.045868 802.18652 1312.4984 4281872702
-70.611008 802.18652 1312.4984 4282859598
-64.523857 802.18652 1312.4984 4282662732
-60.596329 811.79932 1312.7554 4283715677
-58.172478 811.79932 1312.7554 4283847516
-55.748623 811.79932 1312.7554 4284044639
-53.324772 811.79932 1312.7554 4284044639
-49.688988 811.79932 1312.7554 4284307556
-46.053211 811.79932 1312.7554 4284702315
-43.629356 811.79932 1312.7554 4284637032
-41.205505 811.79932 1312.7554 4285624184
-37.569725 811.79932 1312.7554 4288844953
-33.933945 811.79932 1312.7554 4291805629
-31.510092 810.87274 1311.9742 4292988865
-24.238533 810.87274 1311.9742 4293450990
-21.814678 810.87274 1311.9742 4293385197
-57.099083 763.96289 1314.278 4282268492
-54.616512 763.96289 1314.278 4282333503
-58.340366 765.86084 1315.8783 4281612867
-66.732109 774.75739 1315.5315 4281349438
-64.260551 774.75739 1315.5315 4281808695
-85.862389 790.41058 1315.6495 4282138186
-83.409172 789.47284 1314.8589 4282400332
-80.138222 790.09796 1315.386 4282203465
-76.049538 789.47284 1314.8589 4282268742
-83.097244 797.71222 1315.2659 4282203730
-78.209175 797.71222 1315.2659 4282401595
-75.765137 797.71222 1315.2659 4282270266
-85.541283 799.58069 1316.8413 4282401868
-83.097244 799.58069 1316.8413 4282334033
-79.431198 799.58069 1316.8413 4282597196
-75.765137 799.58069 1316.8413 4282662725
-68.176147 804.97876 1314.8528 4282860878
-64.523849 804.97882 1314.8528 4282860878
-60.871559 804.04803 1314.068 4283518293
-60.596329 814.57886 1315.0991 4283978344
-58.172478 814.57886 1315.0991 4284439395
-55.748623 814.57886 1315.0991 4284439395
-53.324772 814.57886 1315.0991 4284110696
-49.688992 814.57886 1315.0991 4284570721
-46.053211 814.57886 1315.0991 4285885799
-43.629356 814.57886 1315.0991 4287659379
-41.205505 814.57886 1315.0991 4289962134
-55.748623 816.43188 1316.6616 4284965741
-53.324772 816.43188 1316.6616 4284376684
-49.688992 816.43188 1316.6616 4285558381
-46.053211 816.43188 1316.6616 4289306005
-59.58165 767.75873 1317.4785 4282005822
-67.029358 769.65668 1319.0789 4282331707
-64.546791 769.65668 1319.0789 4282136381
-88.645874 784.95642 1317.5909 4282334539
-86.183487 784.95642 1317.5909 4282400332
-81.258713 784.95642 1317.5909 4282727244
-91.108253 786.83899 1319.1782 4282335570
-88.645874 786.83899 1319.1782 4282268490
-85.862389 793.22382 1318.0216 4281809989
-83.409172 793.22382 1318.0216 4282137937
-80.955963 793.22382 1318.0216 4282137937
-85.862389 795.0993 1319.603 4282073414
-80.955963 795.0993 1319.603 4282598488
-83.097244 801.44922 1318.4169 4282334033
-78.209175 802.38342 1319.2046 4282793802
-75.765137 802.38342 1319.2046 4282925389
-73.321098 802.38342 1319.2046 4282859850
-70.877068 802.38342 1319.2046 4283188815
-73.045868 808.70172 1317.9918 4283058001
-70.611008 808.70172 1317.9918 4283189588
-68.176147 808.70172 1317.9918 4283255130
-64.523857 808.70172 1317.9918 4283452507
-31.653212 809.63245 1318.7766 4293056734
-29.218349 808.70172 1317.9918 4293188327
-26.783485 808.70172 1317.9918 4293517292
-53.324772 818.28497 1318.224 4285423994
-49.688992 818.28497 1318.224 4287857299
-43.629356 818.28497 1318.224 4292660697
-41.205505 818.28497 1318.224 4293515750
-38.781651 818.28497 1318.224 4293385188
-53.324772 820.13806 1319.7865 4289172118
-50.900917 820.13806 1319.7865 4291935168
-46.053211 820.13806 1319.7865 4293450208
-43.629356 820.13806 1319.7865 4293056997
-41.205505 820.13806 1319.7865 4293122790
-37.569725 820.13806 1319.7865 4293254631
-64.785324 765.07574 1321.7565 4282005572
-62.293579 765.07574 1321.7565 4282005572
-70.753212 771.55463 1320.6792 4282072131
-93.570641 788.7215 1320.7655 4282729295
-91.108253 788.7215 1320.7655 4282663502
-88.645874 788.7215 1320.7655 4281809989
-93.570641 790.604 1322.3528 4282664783
-91.108253 790.604 1322.3528 4282598990
-88.645874 790.604 1322.3528 4281612867
-85.862389 798.85034 1322.7657 4282401614
-80.955963 798.85034 1322.7657 4282400082
-78.209175 805.18616 1321.5677 4282859598
-75.765137 805.18616 1321.5677 4282925391
-73.045868 811.4939 1320.3462 4283189594
-70.611008 811.4939 1320.3462 4283255387
-68.176147 811.4939 1320.3462 4283386723
-64.523857 811.4939 1320.3462 4283583844
-37.740364 811.4939 1320.3462 4292659925
-34.088074 811.4939 1320.3462 4293649137
-31.653212 811.4939 1320.3462 4293451757
-29.218349 811.4939 1320.3462 4293189099
-73.045868 813.35541 1321.9156 4282861913
-70.611008 813.35541 1321.9156 4283256670
-68.176147 813.35541 1321.9156 4283585383
-64.523857 813.35541 1321.9156 4283781989
-60.871559 813.35541 1321.9156 4284044389
-58.436699 813.35541 1321.9156 4284439397
-43.827522 813.35541 1321.9156 4291671481
-41.392662 813.35541 1321.9156 4293250769
-37.740364 813.35541 1321.9156 4293384931
-34.088074 813.35541 1321.9156 4293583857
-31.653212 813.35541 1321.9156 4293386734
-29.218349 813.35541 1321.9156 4292992236
-26.783485 813.35541 1321.9156 4293058285
-53.324772 821.99109 1321.3489 4291870652
-43.629356 821.99109 1321.3489 4293056999
-41.205505 821.99109 1321.3489 4293188586
-37.569725 821.99109 1321.3489 4293254631
-33.933945 821.99109 1321.3489 4293188840
-41.205505 823.84412 1322.9114 4293188586
-91.108253 792.48651 1323.9401 4282598990
-88.645874 793.42773 1324.7336 4282467660
-83.409172 800.72583 1324.3472 4282663502
-80.955963 800.72583 1324.3472 4282531916
-85.862389 802.60132 1325.9285 4282400332
-83.409172 802.60132 1325.9285 4282531916
-78.209175 807.98889 1323.9309 4282926671
-75.765137 807.98889 1323.9309 4283189588
-25.255045 808.30029 1324.1935 4293057772
-21.99633 807.98889 1323.9309 4293057773
-19.552294 808.9231 1324.7186 4293189101
-64.523857 815.21686 1323.4852 4284176486
-60.871559 815.21686 1323.4852 4284110696
-58.436699 815.21686 1323.4852 4284636777
-56.001835 815.21686 1323.4852 4285031535
-46.262386 815.21686 1323.4852 4291870150
-36.522934 815.21686 1323.4852 4293187552
-34.088074 815.21686 1323.4852 4293517800
-31.653212 815.21686 1323.4852 4293649387
-29.218349 815.21686 1323.4852 4293254892
-26.783485 815.21686 1323.4852 4293254892
-64.523857 817.07837 1325.0548 4284638059
-60.871559 817.07837 1325.0548 4284901743
-58.436699 817.07837 1325.0548 4285360747
-56.001835 817.07837 1325.0548 4286808193
-48.697247 817.07837 1325.0548 4292989657
-34.088074 817.07837 1325.0548 4293188840
-31.653212 817.07837 1325.0548 4293385962
-67.524773 762.3927 1326.0344 4282070332
-85.862389 804.47681 1327.5099 4282663498
-83.409172 804.47681 1327.5099 4282859848
-78.209175 810.79163 1326.2942 4282860879
-75.765137 811.72583 1327.0819 4283518809
-73.321098 812.6601 1327.8696 4283781981
-70.877068 812.6601 1327.8696 4283913823
-68.433029 812.6601 1327.8696 4283913823
-64.523857 818.93982 1326.6244 4284965230
-60.871559 818.93982 1326.6244 4285556845
-58.436699 818.93982 1326.6244 4287463547
-56.001835 818.93982 1326.6244 4289437338
-51.132111 818.93982 1326.6244 4293515220
-48.697247 818.93982 1326.6244 4293384682
-46.262386 818.93982 1326.6244 4293318888
-70.611008 820.80127 1328.1938 4284373854
-68.176147 820.80127 1328.1938 4285360747
-64.523857 820.80127 1328.1938 4285885285
-60.871559 820.80127 1328.1938 4289041030
-58.436699 820.80127 1328.1938 4290883252
-56.001835 820.80127 1328.1938 4292527821
-52.349541 820.80127 1328.1938 4293121761
-48.697247 820.80127 1328.1938 4292990954
-46.262386 820.80127 1328.1938 4292990954
-43.827522 820.80127 1328.1938 4292991206
-81.258713 800.01654 1330.2892 4282663502
-81.258713 801.89905 1331.8765 4282991434
-85.862389 806.35229 1329.0912 4282925643
-83.409172 806.35229 1329.0912 4282860100
-24.53211 808.22784 1330.6726 4293189099
-22.078899 808.22784 1330.6726 4293254892
-75.765137 814.52856 1329.4451 4283781981
-73.321098 814.52856 1329.4451 4283848030
-70.877068 814.52856 1329.4451 4283913823
-68.433029 814.52856 1329.4451 4283781981
-75.765137 816.39709 1331.0205 4283913053
-73.321098 816.39709 1331.0205 4283848030
-70.877068 816.39709 1331.0205 4283781981
-68.433029 816.39709 1331.0205 4284176237
-64.523857 822.66278 1329.7634 4287989634
-60.871559 823.59351 1330.5482 4292133054
-58.436699 823.59351 1330.5482 4292858078
-56.001835 823.59351 1330.5482 4293318629
-52.349541 823.59351 1330.5482 4292990951
-48.697247 823.59351 1330.5482 4293057005
-46.262386 823.59351 1330.5482 4293583349
-43.827522 822.66278 1329.7634 4293254633
-88.645874 803.78162 1333.4637 4282859850
-81.258713 803.78162 1333.4637 4282991686
-78.502754 811.04108 1333.0447 4283519065
-73.321098 818.26556 1332.5959 4284044889
-73.321098 820.13403 1334.1714 4285361251
-70.877068 820.13403 1334.1714 4285098080
-68.433029 820.13403 1334.1714 4285885547
-63.306423 826.38568 1332.9026 4292726238
-60.871559 826.38568 1332.9026 4293515754
-58.436699 826.38568 1332.9026 4293253610
-56.001835 826.38568 1332.9026 4293516783
-52.349541 826.38568 1332.9026 4292991206
-48.697247 826.38568 1332.9026 4292729833
-63.306423 828.24719 1334.472 4292662239
-60.871559 828.24719 1334.472 4292925411
-58.436699 828.24719 1334.472 4292925157
-56.001835 828.24719 1334.472 4292925157
-52.349541 828.24719 1334.472 4292597477
-96.390823 801.21082 1337.8363 4282467411
-93.919266 801.21082 1337.8363 4282663502
-91.447708 801.21082 1337.8363 4282663502
-76.049538 815.72986 1336.998 4284110433
-70.877068 822.93677 1336.5345 4287793807
-68.433029 822.93677 1336.5345 4289830820
-65.174309 822.62531 1336.272 4291607231
-63.306423 830.10864 1336.0416 4292794078
-60.871559 830.10864 1336.0416 4292794078
-58.436699 830.10864 1336.0416 4292794082
-56.001835 830.10864 1336.0416 4292794082
-97.394493 831.97009 1337.6112 4284900719
-60.871559 831.97009 1337.6112 4292794595
-85.268806 803.10034 1339.4294 4282992460
-81.56147 803.10034 1339.4294 4282992201
-86.183487 811.31165 1339.813 4283387477
-83.7211 811.31165 1339.813 4283519064
-78.796333 811.31165 1339.813 4283781468
-76.049538 817.60535 1338.5795 4285097078
-73.596329 819.48083 1340.1609 4285624176
-97.761467 827.60797 1340.4733 4284176993
-65.988991 826.67371 1339.6855 4292794335
-85.268806 805.93463 1341.8192 4283124306
-81.56147 805.93463 1341.8193 4283255636
-100.9578 815.07666 1342.9875 4283453272
-98.495415 815.07666 1342.9875 4283387479
-88.645874 815.07666 1342.9875 4283584088
-86.183487 814.13538 1342.1938 4283847261
-82.900307 813.82159 1341.9293 4283781724
-78.796333 814.13538 1342.1938 4283978594
-98.128441 823.23181 1343.3236 4283913821
-71.14312 823.23181 1343.3236 4292596187
-68.689911 823.23181 1343.3236 4292728798
-95.317429 829.47644 1342.0487 4285361269
-91.651382 829.47644 1342.0487 4285559927
-95.317429 831.34497 1343.6241 4286411652
-91.855049 800.0238 1344.6836 4282926928
-89.372475 800.0238 1344.6836 4282926926
-91.855049 801.92175 1346.2839 4282926926
-89.372475 801.92175 1346.2839 4283124049
-97.626602 808.76892 1344.2091 4283124301
-93.919266 808.76892 1344.2091 4283124051
-91.447708 808.76892 1344.2091 4283124051
-88.976151 808.76892 1344.2091 4283387477
-81.56147 808.76892 1344.2091 4283650393
-101.33395 810.65845 1345.8022 4283321430
-97.626602 810.65845 1345.8022 4283321684
-93.919266 810.65845 1345.8022 4282992719
-91.447708 810.65845 1345.8022 4283189842
-88.976151 810.65845 1345.8022 4283518295
-100.9578 817.90045 1345.3684 4283781724
-98.495415 817.90045 1345.3684 4283782236
-93.570641 818.84167 1346.1621 4284110431
-91.108253 817.90045 1345.3684 4283715929
-88.645874 817.90045 1345.3684 4283781215
-86.183487 817.90045 1345.3684 4284044386
-83.7211 816.95923 1344.5748 4284044637
-76.333946 817.90045 1345.3684 4285688172
-73.871559 818.84167 1346.1621 4287266438
-94.448624 825.10736 1344.905 4284242784
-90.768806 825.10736 1344.905 4284374624
-88.315598 826.98285 1346.4863 4285888890
-95.317429 833.2135 1345.1997 4286346109
-91.651382 833.2135 1345.1997 4285163375
-94.686241 797.46002 1349.062 4282860879
-91.855049 803.8197 1347.8842 4283124051
-89.372475 803.8197 1347.8842 4283321684
-96.390823 812.54797 1347.3955 4283387479
-93.919266 812.54797 1347.3955 4283518293
-91.447708 812.54797 1347.3955 4283518293
-81.56147 812.54797 1347.3955 4283781468
-96.390823 814.4375 1348.9886 4283650395
-93.919266 814.4375 1348.9886 4283584086
-81.56147 814.4375 1348.9886 4284110431
-79.089905 814.4375 1348.9886 4284701790
-96.033028 820.72424 1347.7494 4284242786
-93.570641 820.72424 1347.7494 4284505440
-91.108253 820.72424 1347.7494 4284439647
-88.645874 820.72424 1347.7494 4284242273
-86.183487 820.72424 1347.7494 4284899946
-83.7211 820.72424 1347.7494 4285623926
-76.333946 820.72424 1347.7494 4289373606
-73.871559 820.72424 1347.7494 4290753983
-88.645874 822.60675 1349.3367 4284769132
-86.183487 822.60675 1349.3367 4285624185
-83.7211 822.60675 1349.3367 4286214261
-73.871559 822.60675 1349.3367 4292332495
-71.409172 822.60675 1349.3367 4293253597
-68.946793 822.60675 1349.3367 4292991202
-98.128441 829.79608 1348.8584 4286543491
-93.222015 828.85834 1348.0677 4286019195
-90.768806 828.85834 1348.0677 4286019195
-99.669724 799.36499 1350.6682 4282795590
-97.177979 799.36499 1350.6682 4282861383
-94.686241 799.36499 1350.6682 4282926926
-99.669724 801.26996 1352.2744 4282992971
-97.177979 801.26996 1352.2744 4282992971
-94.686241 801.26996 1352.2744 4282926928
-96.390823 816.32703 1350.5819 4284308579
-84.033028 816.32703 1350.5819 4284703076
-81.56147 817.27179 1351.3784 4285821302
-79.089905 817.27179 1351.3784 4286017394
-86.183487 824.48926 1350.924 4285823097
-83.7211 824.48926 1350.924 4286738807
-67.715599 824.48926 1350.924 4292333792
-64.022018 824.48926 1350.924 4292465630
-88.645874 826.37177 1352.5112 4285495670
-86.183487 826.37177 1352.5112 4285429876
-67.715599 826.37177 1352.5112 4292530914
-81.56147 821.05084 1354.5649 4287858316
-79.089905 821.05084 1354.5649 4289765021
-76.618347 821.05084 1354.5649 4291607482
-74.14679 821.99561 1355.3615 4292267736
-71.675232 821.99561 1355.3615 4292728287
-88.645874 828.25427 1354.0985 4284311661
-86.183487 828.25427 1354.0985 4284772212
-84.033028 823.88513 1356.9547 4286083189
-76.618347 823.88513 1356.9547 4291215538
-74.14679 823.88513 1356.9547 4291544526
-71.675232 823.88513 1356.9547 4292728800
-84.033028 825.77466 1358.5479 4284967288
-76.618347 825.77466 1358.5479 4285889422
-74.14679 825.77466 1358.5479 4286415234
-81.924774 820.90125 1362.2869 4287070340
-79.4422 820.90125 1362.2869 4288978319
-81.924774 822.79913 1363.8872 4286414734
-79.4422 822.79913 1363.8872 4285955215
