# .PCD v0.7 - Point Cloud Data file format
VERSION 0.7
FIELDS x y z rgb
SIZE 4 4 4 4
TYPE F F F U
COUNT 1 1 1 1
WIDTH 1168
HEIGHT 1
VIEWPOINT 0 0 0 1 0 0 0
POINTS 1168
DATA ascii
-40.302753 775.02069 803.00574 4280031000
-38.550457 775.02069 803.00574 4280423448
-45.416515 779.28174 802.67444 4281476900
-41.049541 779.28174 802.67444 4281279004
-38.429359 778.61401 802.11145 4281477150
-40.091743 782.78174 803.00952 4282723619
-37.477066 782.11548 802.44763 4281673500
-39.965137 787.68384 803.21875 4283912008
-37.358719 787.01965 802.65869 4283781448
-1.7321101 792.56909 803.41382 4281084470
0.86605507 792.56909 803.41382 4281083187
3.4642203 792.56909 803.41382 4280887341
-4.3128443 796.48822 802.1402 4280756525
-1.7284404 795.3761 803.16455 4281084720
0 795.3761 803.16455 4281084470
-15.506422 800.23474 803.33704 4281082935
-7.753211 800.23474 803.33704 4280624943
-5.1688075 800.23474 803.33704 4280428586
-15.473394 803.02637 803.07483 4281148980
-12.894495 802.36914 802.52069 4281017898
-10.315597 802.36914 802.52069 4280624689
-8.5963306 803.02637 803.07483 4280494130
95.911926 758.44714 806.03577 4294571002
97.688072 758.44714 806.03577 4294702844
103.90459 758.44714 806.03577 4294571515
106.56881 758.44714 806.03577 4294637310
109.23303 757.76819 805.46332 4294505211
112.78532 757.76825 805.46332 4294768382
28.359632 761.32147 805.84326 4290031567
30.132111 761.32147 805.84326 4289768394
94.827522 761.32147 805.84326 4294833919
97.486237 761.32147 805.84326 4294965759
99.258713 761.32147 805.84326 4294439934
23.042202 762.67657 806.98584 4281347418
24.737616 764.94708 804.9762 4281282126
28.271559 764.94708 804.9762 4281020757
30.97156 763.81183 805.98102 4281480284
94.827522 762.67657 806.98584 4294833919
97.486237 762.67657 806.98584 4294834175
99.258713 762.67657 806.98584 4294308349
17.669725 766.29791 806.11523 4279108631
24.737616 766.29791 806.11523 4281083437
30.922018 766.29791 806.11523 4280689712
95.416512 766.29791 806.11523 4294965759
114.85321 766.29791 806.11523 4292860901
8.8073397 769.91089 805.23743 4278849822
10.568808 769.23755 804.66974 4280426023
13.21101 769.91089 805.23743 4279044633
19.376146 768.56421 804.10205 4280556078
22.018349 768.56421 804.10205 4280426290
26.422018 768.56421 804.10205 4281609781
28.183487 768.56421 804.10205 4280689712
8.8073397 771.25757 806.37292 4279176725
10.568808 771.25757 806.37292 4279505184
13.21101 771.25757 806.37292 4279307288
15.853211 771.25757 806.37292 4279898395
29.944954 771.25757 806.37292 4281412151
31.706423 771.25757 806.37292 4281411900
-49.940369 776.36035 804.13525 4281149483
-47.311928 776.36035 804.13525 4281083943
-43.807339 776.36035 804.13525 4281542693
17.559633 776.20032 806.61646 4278780171
22.827522 776.20032 806.61646 4279633162
-49.648319 778.14648 805.64142 4281412138
-47.311928 777.69995 805.26489 4281149482
-43.807339 777.69995 805.26489 4281411107
17.522936 779.03961 806.39441 4278190086
21.903669 779.03961 806.39441 4279043847
-52.403671 782.6203 805.4895 4283386182
-49.783485 781.95258 804.92651 4282332473
-46.289909 781.95258 804.92651 4282989888
-43.669724 781.95258 804.92651 4283515977
-41.922935 781.28485 804.36353 4282855461
-58.145565 784.50568 805.33514 4282662720
-54.908257 784.7807 804.69501 4283254842
-52.293579 785.44702 805.25684 4283385931
-49.969418 785.00275 804.88232 4283517515
-46.192661 785.44702 805.25684 4283385674
-43.57798 785.44702 805.25684 4283845711
-41.253822 784.55859 804.50775 4284305734
5.2403669 783.95575 806.61548 4281083689
6.9871559 783.95575 806.61548 4280754728
22.708258 783.95575 806.61548 4280428336
-57.522934 786.7796 806.38049 4282663227
-54.908257 786.7796 806.38049 4283057204
-52.293579 786.7796 806.38049 4282991173
-49.678898 786.7796 806.38049 4282399292
-46.192661 786.7796 806.38049 4282662207
-43.57798 786.7796 806.38049 4282990402
5.2293577 786.7796 806.38049 4280887341
6.972477 786.7796 806.38049 4280821800
-57.341286 791.66907 806.57898 4280162335
-55.603668 791.66907 806.57898 4280359720
-52.997246 791.66907 806.57898 4280294180
-49.522018 791.66907 806.57898 4280557609
-46.046791 791.66907 806.57898 4280360747
-43.440369 791.66907 806.57898 4280426540
-41.00771 790.3407 805.45898 4281544756
-38.227524 789.67651 804.89893 4282005553
-1.7376146 789.01227 804.33887 4280297007
0.86880732 789.01227 804.33887 4280755253
3.4752293 789.01227 804.33887 4280821548
6.9504585 790.3407 805.45898 4280821548
1.7321101 793.89331 804.5304 4281018677
3.4642203 793.89331 804.5304 4280953134
-53.118042 796.10034 806.3913 4281017897
-49.076458 796.10034 806.3913 4280952368
-45.900917 795.21753 805.64685 4280623919
-43.302753 795.21753 805.64685 4280426540
-4.3211012 796.69751 804.27869 4280690986
-1.7284404 796.69751 804.27869 4280953386
1.1547401 796.15228 805.56299 4281018418
3.4642203 795.87964 806.20514 4280756525
-51.85321 799.34033 806.50708 4281149486
-48.396332 799.34033 806.50708 4281148984
-46.667889 798.67963 805.94995 4281083189
-44.3633 798.45941 805.76422 4280821041
-41.482571 798.01892 805.39282 4280492081
-24.198166 799.34033 806.50708 4280953134
-19.877064 798.01892 805.39282 4281084470
-3.4568808 798.67963 805.94995 4280624931
-1.7284404 798.67963 805.94995 4280953896
0 798.67963 805.94995 4281346863
-48.242203 802.86914 805.55835 4280952632
-46.519264 802.86914 805.55835 4280689717
-43.647705 802.43011 805.18817 4280689455
-40.77615 802.43011 805.18817 4280754985
-28.42844 802.86914 805.55835 4280952886
-24.982569 802.86914 805.55835 4280952630
-22.398165 802.21057 805.00305 4280887088
-19.813763 802.21057 805.00305 4281149489
-17.229359 802.21057 805.00305 4281215026
-7.4660554 802.43011 805.18817 4280494382
-4.5944958 802.43011 805.18817 4280559659
-51.688072 804.18634 806.66895 4280820521
-49.103668 804.18634 806.66895 4280820783
-46.469727 805.57794 806.5343 4280492335
-43.865135 805.94513 806.18994 4280493609
-40.402752 806.31232 805.84552 4280624421
-36.964218 806.96954 806.39966 4280821548
-34.385323 806.96954 806.39966 4280951850
-31.634497 805.91809 805.51306 4280820781
-28.398165 805.57794 806.5343 4280951854
-24.955963 805.57794 806.5343 4281149233
-22.398165 804.18634 806.66895 4281149486
-19.813763 804.18634 806.66895 4280952884
-15.912386 805.2879 805.6358 4281018419
-12.894496 805.65509 805.29132 4280887341
-10.315597 805.65521 805.29132 4280363312
-8.0281343 805.6037 806.11993 4280232493
-4.3073397 804.18634 806.66895 4280495406
-1.7229358 804.18634 806.66895 4280757808
-35.132111 811.13367 805.98669 4281018156
-31.704586 811.78882 806.53906 4280755493
68.051376 749.63184 809.06714 4292793830
69.842201 749.63184 809.06714 4293056745
67.911926 752.52307 808.88892 4292925157
69.699081 752.52307 808.88892 4293122792
25.833946 756.8493 808.61261 4291413210
33.851376 757.53033 809.18689 4289571279
67.702751 757.53033 809.18689 4292137181
69.484406 757.53033 809.18689 4293124076
74.829361 757.53033 809.18689 4293451505
76.611008 757.53033 809.18689 4293714678
89.082565 757.53033 809.18689 4294307836
100.6633 756.16827 808.03833 4294243324
109.57156 757.53033 809.18689 4294505468
112.24403 757.53033 809.18689 4294307834
114.02569 757.53033 809.18689 4294504959
22.201836 759.80505 807.18066 4291018443
26.642202 760.48401 807.75311 4285886860
31.970642 759.80505 807.18066 4289637072
34.634861 761.16296 808.32556 4281413210
76.374313 761.16296 808.32556 4293911543
92.359634 760.48401 807.75311 4294636284
101.24036 760.48401 807.75311 4294637311
103.90459 759.80505 807.18066 4294571772
106.56881 759.80505 807.18066 4294505981
113.67339 761.16296 808.32556 4294373629
115.44954 761.16296 808.32556 4294044408
34.563301 764.03162 808.12842 4280624691
37.299084 762.52081 809.47058 4280428085
47.955963 762.52081 809.47058 4279967534
55.948624 762.52081 809.47058 4281083702
65.71743 762.52081 809.47058 4282866264
67.354126 764.03162 808.12842 4286152080
70.157791 762.52081 809.47058 4292795631
73.710098 762.52081 809.47058 4293319921
76.374313 762.52081 809.47058 4294109438
79.038528 762.52081 809.47058 4294109685
83.478897 762.52081 809.47058 4294307316
85.255043 762.52081 809.47058 4294372605
87.919266 762.52081 809.47058 4294767870
91.376144 763.27625 808.7995 4294701822
93.941284 764.03162 808.12842 4294964991
97.486237 764.03162 808.12842 4294966015
100.14495 764.03162 808.12842 4294570751
103.90459 762.52081 809.47058 4294702074
106.56881 762.52081 809.47058 4294768637
109.23303 762.52081 809.47058 4294900735
112.78532 762.52081 809.47058 4294769151
16.78624 767.6488 807.25427 4279176726
19.436697 767.6488 807.25427 4280558378
22.087156 767.6488 807.25427 4281083693
25.621101 767.6488 807.25427 4281412402
28.271559 767.6488 807.25427 4281412401
30.922018 767.6488 807.25427 4281019187
34.455963 767.6488 807.25427 4281415494
38.108257 765.38672 809.271 4281218374
46.970642 765.38672 809.271 4280954681
49.629356 765.38672 809.271 4281347642
52.288074 765.38672 809.271 4281544251
55.833027 765.38672 809.271 4282200643
65.58165 765.38672 809.271 4284048483
67.144951 767.6488 807.25427 4286413201
76.216515 765.38672 809.271 4293913592
92.168808 765.38672 809.271 4294965247
94.678894 766.51776 808.26263 4294965247
97.486237 765.38672 809.271 4294965759
100.14495 765.38672 809.271 4294702591
103.68991 765.38672 809.271 4294899711
114.85321 767.6488 807.25427 4291743188
17.669725 768.99963 808.39319 4279964694
19.436697 769.67505 808.96271 4280030234
22.087156 769.67505 808.96265 4280228374
25.621101 769.67505 808.96265 4280162852
28.271559 768.99963 808.39319 4281477945
34.455963 768.99963 808.39319 4281544255
37.989906 769.67505 808.96265 4280753711
40.640366 768.99963 808.39319 4281807941
43.290825 769.67505 808.96265 4280952620
46.530273 769.44995 808.77289 4280362802
49.475231 769.67505 808.96271 4280362028
52.125687 768.99963 808.39319 4281544253
55.954128 769.44995 808.77289 4281938500
58.310093 769.67505 808.96271 4283583069
60.960552 769.67511 808.96271 4283913835
64.200005 769.44989 808.77289 4284440428
67.733948 769.90021 809.15253 4289963197
85.698166 770.35052 809.53223 4294636029
93.649544 770.35052 809.53223 4294834175
115.4422 769.90021 809.15253 4288188836
8.2201834 773.50195 808.26544 4278650627
10.568808 773.27753 808.07617 4279043095
13.21101 773.27753 808.07617 4278714382
16.440367 773.05304 807.8869 4278780170
19.376146 773.95087 808.64392 4278911500
21.137615 773.95087 808.64392 4279173123
25.541285 773.95087 808.64392 4279109135
29.06422 773.27753 808.07617 4278980375
31.706423 773.27753 808.07617 4279372558
34.348625 773.27753 808.07617 4279634708
37.871559 773.95087 808.64392 4279372048
40.51376 773.27753 808.07617 4280096027
43.155964 773.95087 808.64392 4279176224
46.972473 773.50195 808.26544 4278651686
49.321102 773.95087 808.64392 4279769112
51.963303 773.27753 808.07617 4279900712
55.192657 773.50195 808.26544 4280755257
59.009174 773.95087 808.64392 4282663753
61.651375 773.95087 808.64392 4283256141
64.587158 773.50195 808.26544 4283913562
67.816513 773.95087 808.64392 4290228907
5.2844038 775.29749 809.7793 4278782217
7.9266057 775.29749 809.7793 4278714883
10.568808 775.29749 809.7793 4278321168
35.229359 775.29749 809.7793 4280163618
51.963303 775.29749 809.7793 4280623402
55.486237 775.29749 809.7793 4281083700
58.128441 775.29749 809.7793 4282004289
64.293579 775.29749 809.7793 4279969582
66.935783 775.29749 809.7793 4280427081
7.901835 778.88519 808.88037 4278387465
10.53578 778.88519 808.88037 4278190102
13.169725 778.21399 808.31445 4278452240
15.80367 778.21399 808.31439 4279175189
19.315596 777.54279 807.74841 4278584588
25.461468 777.54279 807.74841 4279372557
28.973394 777.54279 807.74841 4279372051
31.60734 777.54279 807.74841 4279372301
34.241287 778.21399 808.31439 4280030490
37.753212 778.21399 808.31439 4279899933
40.387157 778.21399 808.31439 4280492070
43.313763 777.99023 808.12573 4280623417
46.533028 778.21399 808.31445 4280558126
49.752293 778.43774 808.50311 4280623912
52.678898 778.88519 808.88037 4280821298
54.434864 778.88519 808.88037 4280887091
8.7614679 781.71893 808.65356 4280622886
10.513762 781.71893 808.65356 4280557874
13.142202 781.71893 808.65356 4280557612
16.938837 781.2724 808.27704 4280294694
19.275229 781.04907 808.08875 4279702816
21.61162 780.82587 807.90045 4279703081
25.408257 781.04913 808.08875 4280492843
28.912842 781.04907 808.08875 4279902497
31.541285 781.04907 808.08875 4279966761
33.877674 781.2724 808.27704 4280229416
38.550457 781.71893 808.65356 4281081640
40.302753 781.71893 808.65356 4281147433
42.639141 781.2724 808.27704 4280951612
46.43578 781.71893 808.65356 4280755755
-66.587158 783.05853 809.78308 4279768862
-63.958717 783.05853 809.78308 4279768341
-61.137615 785.2912 807.74146 4280162578
-59.390827 785.2912 807.74146 4281478697
8.7339449 785.2912 807.74146 4280690214
10.480734 785.2912 807.74146 4280821046
13.100918 785.2912 807.74146 4280886320
16.594496 785.2912 807.74146 4280952621
20.088074 785.2912 807.74146 4280690736
22.708258 785.2912 807.74146 4280559923
25.369724 784.17487 808.76227 4280625218
28.912844 783.05853 809.78308 4280953134
31.541285 783.05853 809.78308 4281149486
34.169724 783.05853 809.78308 4281083693
37.674309 783.05853 809.78308 4281017900
41.112846 784.17487 808.76227 4281215793
43.807339 783.05853 809.78308 4280887341
46.43578 783.05853 809.78308 4280889394
49.940369 783.05853 809.78308 4280689712
52.568806 783.05853 809.78308 4280953134
55.19725 783.05853 809.78308 4281018927
-64.631195 787.96204 809.99353 4280294173
-62.011009 787.29431 809.43048 4280359711
-58.456879 787.36938 808.18573 4280162587
-54.908257 788.11224 807.50403 4280162073
-52.293579 788.11224 807.50403 4280358946
-49.678898 788.11224 807.50403 4280623147
-46.192661 788.11224 807.50403 4280163365
-43.57798 788.11224 807.50403 4280229667
-40.091743 788.11224 807.50403 4280624169
5.2293577 788.11224 807.50403 4280887341
8.7155962 788.11224 807.50403 4280887341
10.458715 788.11224 807.50403 4280887091
13.088074 787.36938 808.18573 4280755758
16.594496 786.62659 808.86743 4280887341
20.088074 786.62659 808.86743 4280953137
22.708258 786.62659 808.86743 4281018677
25.619574 787.07178 809.24286 4280755252
28.822018 787.96204 809.99353 4282203453
31.442202 787.96204 809.99353 4285751912
34.062386 787.96204 809.99353 4286410621
41.922935 787.96204 809.99353 4284769912
43.669724 787.96204 809.99353 4285033083
45.416515 787.96204 809.99353 4284770936
54.150459 787.29431 809.43048 4283847521
-61.009174 790.11121 809.18951 4280755242
-59.266056 790.11121 809.18951 4280886057
5.2293577 789.44489 808.62769 4280887341
7.8440366 789.44489 808.62769 4281019179
10.458715 789.44489 808.62769 4281084720
13.363914 789.8891 809.00226 4280755246
16.559633 790.11121 809.18951 4280952112
20.045872 790.11121 809.18951 4281083955
22.660551 790.11121 809.18951 4281149493
24.403669 790.11121 809.18951 4280887091
-57.341286 793.66174 808.25916 4281281070
-55.603668 793.66174 808.25916 4281544239
-52.128441 792.9975 807.6991 4280887341
-50.390827 792.9975 807.6991 4280887341
5.2128439 792.9975 807.6991 4280626222
7.8192654 793.66168 808.25916 4280822826
10.425688 793.66174 808.25916 4281149999
12.163302 793.66174 808.25916 4280755241
-58.210091 795.65436 809.93933 4281018677
-55.603668 795.65436 809.93933 4282070332
-53.695412 797.86597 807.88 4281083437
-50.231194 797.86597 807.88 4281281072
1.7321101 797.86597 807.88 4281610033
4.338532 796.76013 808.90967 4281149738
7.8192658 795.65436 809.93933 4280690218
10.425688 795.65436 809.93933 4280689712
13.03211 795.65436 809.93933 4280689714
16.507339 795.65436 809.93933 4280820787
19.113762 795.65436 809.93933 4281214773
-55.427525 799.19012 808.99646 4280887341
-52.71743 800.66174 807.62122 4281018414
-50.124771 800.66174 807.62122 4281149486
-1.7284404 800.66174 807.62122 4281282099
0.86605507 799.9259 808.30884 4281478447
3.4642203 799.19012 808.99646 4281412653
10.39266 799.19012 808.99646 4280559923
-55.310093 802.64386 809.29248 4280886061
-53.58165 801.98315 808.73535 4281017644
0.8642202 802.64386 809.29248 4281018927
-52.549541 806.16211 808.33496 4280754987
-49.103668 806.16211 808.33496 4280624171
-22.398165 806.16211 808.33496 4280952621
-19.813763 806.16217 808.33496 4280494130
-16.655046 806.38165 808.52002 4281018680
-12.922018 806.82074 808.89026 4281149482
-10.337615 806.82074 808.89026 4280560173
-7.4660549 806.38165 808.52002 4280429354
-4.3073397 806.16211 808.33496 4280494636
-1.7229358 806.16211 808.33496 4280756528
0 806.16211 808.33496 4281018674
-46.420185 808.28394 807.50793 4279967786
-43.841286 808.9411 808.06201 4280427816
-40.402752 808.94116 808.06207 4280493345
-37.823853 808.94116 808.06207 4280886571
-31.806421 808.28394 807.50793 4280821032
-28.367889 808.94116 808.06207 4280624423
-24.929356 808.9411 808.06201 4280821547
-22.350458 809.59833 808.61621 4280690214
-46.420185 810.91272 809.72449 4280558126
-43.841286 810.91272 809.72449 4280951850
-40.402752 810.91272 809.72449 4280754980
-37.823853 810.91272 809.72449 4280820521
-30.946789 810.91272 809.72449 4280560425
-28.367889 810.91272 809.72449 4280560427
-24.929358 810.91272 809.72449 4280494377
-22.350458 810.91272 809.72449 4280494632
-35.132111 813.75415 808.19617 4281017900
-32.133026 814.73682 809.02466 4280822829
61.973396 748.71783 812.22058 4292400612
64.667892 748.71783 812.22058 4292465891
76.34404 747.34448 811.06262 4293452273
79.936691 748.71783 812.22058 4293846513
82.631195 748.71783 812.22058 4293978101
85.325684 748.71783 812.22058 4293978358
40.293579 752.37006 811.37598 4291940842
46.561466 752.37006 811.37598 4291875047
48.352295 752.37006 811.37598 4292072682
57.306423 752.37006 811.37598 4291678436
64.469727 752.37006 811.37598 4292006108
66.260551 751.00092 810.22156 4292597734
71.633026 751.00092 810.22156 4292924907
73.423851 751.00092 810.22156 4293254129
76.110092 751.00092 810.22156 4293517298
79.691742 752.37006 811.37598 4294043122
82.377983 752.37006 811.37598 4293912306
85.064224 752.37006 811.37598 4294044150
88.645874 751.68549 810.79877 4294110713
91.332108 751.68549 810.79877 4294177274
93.122932 751.00092 810.22156 4294571002
97.600006 751.00092 810.22156 4294702075
35.743118 755.25562 811.19299 4289504971
37.530273 755.25562 811.19299 4289504971
40.21101 755.25562 811.19299 4289638091
43.875229 753.73914 812.53027 4289638089
46.466057 755.25562 811.19299 4289572294
49.14679 755.25562 811.19299 4289507015
52.829357 753.73914 812.53027 4289441480
55.401836 755.25562 811.19299 4289375431
58.14312 754.49738 811.86163 4289835466
61.783485 753.73914 812.53027 4290426831
64.337616 755.25562 811.19299 4291085004
66.72049 754.34473 810.42499 4292203230
70.890518 754.34479 810.42499 4292925927
73.273392 754.57251 810.61694 4293254377
75.954132 753.88934 810.04089 4293582578
79.528442 755.25562 811.19299 4294175480
83.102753 755.25562 811.19299 4294176500
85.783485 755.25562 811.19299 4294110199
87.570641 755.25562 811.19299 4294242041
92.038528 754.57251 810.61694 4294505468
94.719269 753.88934 810.04089 4294703357
37.41468 758.89246 810.33533 4281150038
40.21101 756.62195 812.34497 4280822872
43.78532 756.62195 812.34497 4280824405
46.322937 758.89246 810.33533 4280233039
48.995415 758.89246 810.33533 4280626514
52.638535 757.7572 811.34015 4281283673
55.231194 758.89246 810.33533 4281283927
57.994495 757.7572 811.34015 4281479512
61.656879 756.62195 812.34497 4281807444
65.129364 757.7572 811.34015 4282339668
67.702751 758.89246 810.33533 4287333274
70.375229 758.89246 810.33533 4293188590
73.938538 758.89246 810.33533 4293451503
79.283485 758.89246 810.33533 4294109687
82.846786 758.89246 810.33533 4294242039
85.519264 758.89246 810.33533 4294176248
88.191742 758.89246 810.33533 4294570493
90.86422 758.89246 810.33533 4294636286
103.33578 758.89246 810.33533 4294769150
106.00826 758.89246 810.33533 4294439930
109.57156 758.89246 810.33533 4294702590
112.24403 758.89246 810.33533 4294636797
40.087158 760.25452 811.48376 4280297793
43.650459 760.25452 811.48376 4280364847
46.322937 760.25452 811.48376 4279967534
49.886238 760.25452 811.48376 4280098874
52.558716 760.25452 811.48376 4280822076
58.794495 760.25452 811.48376 4281214777
61.466972 760.25452 811.48376 4281413435
64.13945 760.25452 811.48376 4281418562
81.955963 760.25452 811.48376 4294307316
40.851376 763.87872 810.61548 4281414980
43.515594 763.87872 810.61548 4281349689
58.612843 763.87872 810.61548 4283844444
61.277065 763.87872 810.61548 4284111984
63.941284 763.87872 810.61548 4284180325
70.157791 763.87872 810.61548 4293189620
73.710098 763.87872 810.61548 4293452787
79.038528 763.87872 810.61548 4294175733
82.59082 763.87872 810.61548 4294176248
85.255043 763.87872 810.61548 4294372859
87.919266 763.87872 810.61548 4294636030
90.583488 763.87872 810.61548 4294767615
106.56881 763.87872 810.61548 4294965759
109.23303 763.87872 810.61548 4294834430
112.78532 763.87872 810.61548 4294966783
70.086235 765.9892 811.08698 4293584119
73.5578 766.74182 810.41357 4294110198
76.216515 766.74182 810.41357 4294242293
79.038528 765.23657 811.76038 4294307832
82.504585 765.9892 811.08698 4294570239
85.965134 766.74182 810.41357 4294570238
88.623856 766.74182 810.41357 4294570750
91.28257 766.74182 810.41357 4294768127
94.827522 766.74182 810.41357 4294702078
97.486237 766.74182 810.41357 4294966015
100.14495 766.74182 810.41357 4294899967
103.68991 766.74182 810.41357 4294964991
106.34863 766.74182 810.41357 4294636797
109.23303 765.23657 811.76038 4294637054
112.55229 766.74182 810.41357 4294834943
70.899086 768.09686 811.55615 4294372859
73.5578 768.09686 811.55615 4294570494
77.102753 768.77441 812.12744 4294242554
79.761467 768.77441 812.12744 4294308347
82.124763 768.54852 811.93701 4294504958
88.623856 768.09686 811.55615 4294767615
91.28257 768.09686 811.55615 4294965503
95.71376 768.77441 812.12744 4294702846
97.486237 768.77441 812.12744 4294900223
100.14496 768.77441 812.12744 4294834943
103.68991 768.77441 812.12744 4294834431
106.34863 768.77441 812.12744 4294767870
109.00734 768.77441 812.12744 4294768126
112.55229 768.77441 812.12744 4294703359
60.960548 773.05225 811.8103 4281151808
68.911926 773.05225 811.8103 4281348183
70.678902 772.37683 811.24078 4287465890
73.329361 772.37683 811.24078 4290359495
83.047707 772.37683 811.24078 4294899967
85.698166 772.37683 811.24078 4294834174
88.348625 772.37683 811.24078 4294966015
90.999084 772.37683 811.24084 4294966271
94.238533 772.60199 811.43066 4294900735
115.73669 772.37683 811.24084 4285028471
5.2844038 776.64417 810.91479 4279372053
56.366974 776.64417 810.91479 4280691765
59.009174 776.64417 810.91479 4280822070
61.651375 776.64417 810.91479 4280952632
64.293579 776.64417 810.91479 4280296755
67.816513 776.64417 810.91479 4280230460
70.678902 774.40314 812.94934 4280031532
73.329361 774.40314 812.94934 4283650923
83.047707 774.40314 812.94934 4294702335
85.698166 774.40314 812.94934 4294965759
88.348625 774.40314 812.94934 4294966783
90.999084 774.40314 812.94934 4294966783
94.533028 774.40314 812.94934 4294769151
115.73669 774.40314 812.94934 4282597454
59.009174 777.99084 812.05029 4280690484
61.651375 777.99084 812.05029 4281018425
68.69725 777.99084 812.05029 4280757306
84.550461 777.99084 812.05029 4294966527
88.073395 777.99084 812.05029 4294505727
-70.238533 782.24133 811.71014 4279965717
-68.482567 781.57013 811.14423 4279769111
36.875229 780.22766 810.01221 4280820521
50.044952 780.22766 810.01221 4280689962
52.678898 780.22766 810.01221 4280428336
55.312843 780.22766 810.01221 4280362543
59.117432 782.01758 811.52148 4282203210
61.458717 781.57013 811.14417 4280952632
64.092659 781.57007 811.1441 4280888121
66.726608 781.57013 811.14423 4280953396
-70.091743 785.73785 812.04211 4280294927
-67.171257 785.29132 811.66559 4280623132
-63.958717 784.39819 810.9126 4280162074
28.912844 784.39819 810.9126 4282136377
31.541285 784.39819 810.9126 4283255378
34.169724 784.39819 810.9126 4284899953
37.674309 785.06799 811.47736 4284768116
40.302753 785.06799 811.47736 4283913577
42.93119 784.39819 810.9126 4283980393
46.727829 784.84473 811.28906 4284376944
49.940369 785.06799 811.47729 4283980895
52.568806 785.06799 811.47736 4284242022
56.073395 785.06799 811.47736 4284110449
58.409786 785.29126 811.66559 4284374392
61.330276 785.06799 811.47736 4282796383
63.082569 785.73785 812.04211 4280954931
-70.744949 790.63293 812.24548 4281019181
-64.631195 789.96521 811.6825 4281084972
-62.884403 789.96521 811.6825 4280755755
26.201836 789.29749 811.11951 4280887091
28.822018 789.96521 811.6825 4281612342
31.442202 789.96521 811.6825 4285620851
34.062386 789.96521 811.6825 4286344833
37.264832 790.18781 811.87012 4285556089
41.049541 789.96521 811.6825 4285163134
43.669724 789.96521 811.6825 4284703099
45.416515 789.29749 811.11951 4284508032
52.403671 789.96521 811.6825 4284506736
55.023853 789.96521 811.6825 4284835444
58.808563 790.18781 811.87012 4283980395
-61.590214 792.99854 811.62408 4280887341
-59.266056 792.11011 810.875 4281215275
5.2293577 792.11011 810.875 4280887341
13.944954 792.11011 810.875 4280754226
16.559633 792.11011 810.875 4280886576
20.336391 792.55438 811.24951 4281149491
22.660551 792.77643 811.43683 4281214773
25.27523 792.77643 811.43683 4281083956
28.761467 793.44275 811.99866 4281677359
-58.210091 796.98279 811.05945 4280821046
5.2128439 796.98279 811.05945 4281083689
7.8192658 796.98279 811.05945 4280493878
13.03211 796.98279 811.05945 4280822076
16.507339 796.98279 811.05945 4280952379
19.113762 796.98279 811.05945 4281084470
-58.119267 799.41278 811.14624 4281017900
1.7321101 800.51434 810.11304 4281018927
4.338532 799.41278 811.14624 4280887593
7.8192658 798.31122 812.17944 4280494129
10.425688 798.31122 812.17944 4280559923
13.03211 798.31122 812.17944 4280559669
16.507339 798.31122 812.17944 4280756278
19.982569 798.31122 812.17944 4281084470
-57.737003 802.72137 811.97394 4280426531
1.7321101 803.16278 812.34619 4280952884
4.0415902 802.27997 811.60181 4280624930
-55.310093 805.28668 811.52081 4280820530
-53.58165 805.94739 812.07788 4281017142
-51.688072 808.79651 810.55615 4281215007
-49.103672 808.79651 810.55615 4281083689
-46.519264 808.13794 810.00085 4280623919
-19.813763 808.79651 810.55615 4280560176
-16.367889 808.79657 810.55615 4280625213
-12.922018 808.79651 810.55615 4280690986
-10.337615 808.79651 810.55615 4280363570
-7.753211 808.79651 810.55615 4280428851
-4.3073397 808.79657 810.55615 4280427312
-1.7229358 808.79651 810.55615 4281017909
0 808.79651 810.55615 4281083453
-55.133945 810.77234 812.22217 4280821800
-52.549541 810.77234 812.22217 4280557860
-49.050461 811.49976 811.5274 4280820781
-46.420185 812.22711 810.83264 4280623919
-43.841286 812.22711 810.83264 4280951850
-40.402752 812.22711 810.83264 4281081640
-37.823853 812.22711 810.83264 4280754478
-30.946789 812.22711 810.83264 4280692267
-28.367889 812.22711 810.83264 4280560427
-24.929358 812.22711 810.83264 4280823599
-22.350458 812.22711 810.83264 4281020976
-19.813763 810.77234 812.22217 4280364847
-16.367889 810.77234 812.22217 4280296755
-12.922018 810.77234 812.22217 4280689962
-10.337615 810.77234 812.22217 4280364847
-7.753211 810.77234 812.22217 4280495406
-4.3073397 810.77234 812.22217 4280427563
-1.7229358 810.77234 812.22217 4280623919
0 810.77234 812.22217 4281083187
-48.999084 813.5415 811.94092 4280559149
-46.420185 813.5415 811.94092 4280231214
-43.841286 813.5415 811.94092 4281017900
-40.402752 813.5415 811.94092 4281081640
-36.964218 813.5415 811.94092 4280688935
-34.385323 813.5415 811.94092 4280231464
-28.367889 813.5415 811.94092 4279771686
-24.929358 813.5415 811.94092 4280691762
-22.350458 813.5415 811.94092 4280560173
35.028442 750.09113 813.37854 4292137192
37.722935 750.09113 813.37854 4292137192
44.010094 750.09113 813.37854 4291875047
50.297249 750.09113 813.37854 4292138987
52.991745 750.09113 813.37854 4292007913
55.686237 750.09113 813.37854 4291810789
59.2789 750.09113 813.37854 4291744485
61.973396 750.09113 813.37854 4291941092
77.102753 770.80701 813.84119 4293647858
79.761467 770.80701 813.84119 4294505727
81.533943 770.80701 813.84119 4294767615
97.486237 770.80701 813.84119 4294900735
100.14495 770.80701 813.84119 4294834687
103.68991 770.80701 813.84119 4294834431
106.34863 770.80701 813.84119 4294966527
109.00734 770.80701 813.84119 4294834431
112.55229 770.80701 813.84119 4294637823
77.102753 772.16211 814.98376 4291480032
79.761467 772.16211 814.98376 4294505983
81.533943 772.16211 814.98376 4294702335
97.486237 772.16211 814.98376 4294967295
100.14495 772.16211 814.98376 4294834943
103.68991 772.16211 814.98376 4294834687
106.34863 772.16211 814.98376 4294967039
109.00734 772.16211 814.98376 4294967295
112.55229 772.16211 814.98376 4294505982
70.678902 775.75397 814.08838 4281084470
73.329361 775.75397 814.08838 4279509814
76.863304 775.75397 814.08838 4281157474
79.513763 775.75397 814.08838 4292141567
82.164215 775.75397 814.08838 4294571262
86.58165 775.75397 814.08838 4294900735
90.999084 775.75397 814.08838 4294967039
94.533028 775.75397 814.08838 4294966783
68.69725 779.33746 813.18579 4281084470
70.678902 777.10486 815.22729 4281084474
73.21376 778.22119 814.20654 4280165176
76.863304 777.10486 815.22729 4279576888
79.513763 777.10486 815.22729 4289777107
82.164215 777.10486 815.22729 4293913335
85.431198 779.33746 813.18579 4294834943
88.073395 779.33746 813.18579 4294901247
90.999084 777.10486 815.22729 4294967295
94.533028 777.10486 815.22729 4294967039
116.62019 777.10486 815.22729 4278520608
68.69725 781.35748 814.88892 4281084206
82.788994 780.68414 814.32117 4294966015
85.431198 781.35748 814.88892 4294900991
88.073395 780.68414 814.32117 4294967039
64.970642 784.92627 813.97394 4280692269
67.311928 785.14996 814.1626 4280953134
-70.967896 787.07751 813.17175 4281611316
-67.463303 787.74731 813.73657 4281084973
38.550457 787.07751 813.17175 4285096828
46.727829 787.97052 813.9248 4284113024
49.940369 787.74731 813.73651 4284705157
57.825687 787.07751 813.17175 4284506487
61.330276 787.74731 813.73651 4281875539
63.711926 787.47821 814.38165 4281348408
67.604584 786.93988 815.67188 4281084720
-70.857803 790.86255 814.40112 4280625195
-67.358719 790.86255 814.40112 4280821546
-64.631195 791.96838 813.37146 4280953386
31.442202 791.96838 813.37146 4282070866
34.062386 791.96838 813.37146 4282071116
37.555962 791.96838 813.37146 4282268745
41.049541 791.96838 813.37146 4282136909
43.669724 791.96838 813.37146 4282202197
46.43578 789.75677 815.43079 4281744474
49.86055 790.86255 814.40112 4281482587
52.403671 791.96838 813.37146 4281678660
55.023853 791.96838 813.37146 4281809991
58.517433 791.96838 813.37146 4283322208
61.330276 789.75677 815.43079 4282005324
63.082569 789.75677 815.43079 4281609531
-70.453819 793.74896 814.87286 4280427047
-66.377983 793.9715 815.06055 4281215277
-64.631195 793.9715 815.06055 4281149484
-61.880733 794.77539 813.12231 4280887341
20.917431 794.77539 813.12231 4281280822
22.660551 794.77539 813.12231 4281412151
25.27523 794.77539 813.12231 4281348144
28.761467 794.77539 813.12231 4281348643
31.442202 793.30377 814.49756 4282202426
34.353516 793.74896 814.87286 4281872953
37.555962 793.9715 815.06055 4281609782
41.049541 793.9715 815.06055 4281544504
43.669724 793.30377 814.49756 4281939779
46.289909 793.30377 814.49756 4281678660
50.656879 793.30377 814.49756 4281349438
52.403671 793.30377 814.49756 4282070332
55.023853 793.30377 814.49756 4282399043
58.517433 793.30377 814.49756 4282859855
-62.171253 796.55225 814.62042 4281017646
20.045872 797.44067 815.36951 4281018674
22.660551 796.77435 814.80774 4281018677
25.27523 796.77435 814.80774 4280624944
28.761467 796.77435 814.80774 4280887342
31.376146 796.77435 814.80774 4281280565
33.119267 796.77435 814.80774 4281083442
-61.395718 800.52521 814.04633 4280689202
-59.078899 799.63959 813.29956 4280820773
5.2128439 800.96802 814.41968 4280690214
7.8192658 800.30383 813.85962 4280427816
10.425688 800.30383 813.85962 4280886827
12.742508 800.08246 813.67291 4280952623
16.507339 799.63959 813.29956 4280887344
-61.685318 802.29645 815.53979 4280623165
7.8192658 802.29645 815.53979 4280558126
10.425688 802.29645 815.53979 4280820271
-58.025688 805.14911 814.02087 4280886321
1.7321101 804.487 813.46265 4280886337
4.3302751 805.14911 814.02094 4280886828
-60.623852 807.13544 815.6958 4280231214
-57.933945 808.88721 815.21069 4280493356
-55.310093 807.2688 813.19214 4281083437
-53.58165 807.2688 813.19214 4281083437
1.1522936 808.59015 814.30634 4281214774
4.3302751 807.13544 815.6958 4280887091
-55.133945 812.08954 813.33276 4280624421
-52.549541 812.08954 813.33276 4280492837
-19.813763 812.08954 813.33276 4279905073
-16.367889 812.08954 813.33276 4280165165
-12.922018 812.08954 813.33276 4280558628
-10.337615 812.08954 813.33276 4280626222
-7.753211 812.08954 813.33276 4280823601
-4.3073397 812.08954 813.33276 4280690472
-1.7229358 812.08954 813.33276 4281017894
-52.262386 813.84576 814.81354 4280492581
-49.051376 814.78992 814.30157 4280623405
-46.469727 814.78992 814.30157 4280425773
-43.888073 814.78992 814.30157 4280688679
-40.488991 814.06531 814.99866 4280557609
-37.330276 813.84576 814.81354 4280820777
-34.458717 814.06531 814.99866 4280755241
-31.874311 814.06531 814.99866 4280492328
-28.42844 814.06531 814.99866 4280295721
-24.955963 814.78992 814.30164 4280427305
-22.398165 814.06531 814.99866 4280492583
-20.10092 813.84576 814.81354 4280690996
-16.367889 813.40674 814.44336 4280623919
-13.209174 813.84576 814.81354 4280888099
-10.337615 813.40674 814.44336 4280692267
-7.4660549 813.84576 814.81354 4280822317
-4.5944958 813.84576 814.81354 4281084460
-1.7229358 813.40674 814.44336 4281149732
97.486237 773.51715 816.12634 4294967295
100.14495 773.51715 816.12634 4294966527
103.68991 773.51715 816.12634 4294967295
106.34863 773.51715 816.12634 4294900735
109.00734 773.51715 816.12634 4294900479
112.55229 773.51715 816.12634 4294308604
116.09724 773.51715 816.12634 4281412927
94.827522 776.22729 818.4115 4294967295
97.486237 775.5498 817.84021 4294967039
100.14495 775.54974 817.84021 4294834431
103.68991 775.5498 817.84021 4294967295
106.34863 775.5498 817.84021 4294967295
108.71192 775.32397 817.64972 4294967295
112.55229 774.87225 817.26892 4293979898
115.21101 774.87225 817.26892 4281412933
70.678902 779.13116 816.93585 4281149233
73.329361 779.13116 816.93579 4281149232
76.863304 779.13116 816.93585 4279705895
79.513763 779.13116 816.93585 4282935920
81.86972 779.35626 817.12567 4289506260
88.348625 779.80658 817.50537 4294967039
90.999084 779.13116 816.93579 4294967039
70.678902 781.15747 818.64441 4281281072
73.329361 781.15747 818.64441 4281215279
76.863304 781.15747 818.64441 4280624682
79.513763 781.15747 818.64441 4282336584
82.164215 781.15747 818.64441 4289309381
85.698166 781.15747 818.64441 4294967295
88.348625 781.15747 818.64441 4294769150
90.115593 781.15747 818.64441 4294966527
64.970642 788.28235 816.80371 4281214773
67.604584 788.28235 816.80371 4281544238
70.458717 786.0708 818.86304 4281478195
73.981651 786.0708 818.86304 4281083437
76.623856 786.0708 818.86304 4281215274
79.266052 786.0708 818.86304 4283057985
-68.339447 791.09644 816.56042 4280821548
49.06422 791.09644 816.56042 4281349438
61.330276 791.09644 816.56042 4281741886
64.026604 790.3606 817.24805 4281412408
67.604584 789.62482 817.93567 4281150765
-68.339447 792.43604 817.68994 4281149486
43.807339 792.43604 817.68994 4280887091
46.43578 793.10583 818.2547 4280755253
49.940365 793.10583 818.2547 4280952884
52.568806 793.10583 818.2547 4281279792
55.19725 793.10583 818.2547 4281279539
58.409786 792.88257 818.06641 4281673790
-67.251373 796.64233 817.3125 4280689193
-64.631195 795.97467 816.74951 4280951850
34.93578 796.64233 817.3125 4281017142
37.555962 796.64233 817.3125 4280951601
41.049541 796.64233 817.3125 4280886577
43.669724 796.64233 817.3125 4280952630
-64.495415 799.43958 817.05499 4280623149
13.363914 799.66168 817.24225 4280820267
16.559633 799.43958 817.05499 4280820782
20.045872 799.43958 817.05499 4280689710
22.660551 799.43958 817.05499 4280887088
25.27523 799.43958 817.05499 4280428090
28.761467 799.43958 817.05499 4280887091
31.376146 799.43958 817.05499 4281083189
33.119267 799.43958 817.05499 4281082933
-64.495415 801.43854 818.74048 4280623919
-61.685318 803.62488 816.65979 4280557874
7.8192658 803.62488 816.65979 4280623919
10.458715 801.43854 818.74048 4280492583
13.073395 801.43854 818.74048 4280623148
16.559633 801.43854 818.74048 4280754224
20.045872 801.43854 818.74048 4280886575
22.660551 801.43854 818.74048 4280887341
26.14679 801.43854 818.74048 4280821046
-62.554127 805.61755 818.33997 4280297004
5.2128439 806.28174 818.90002 4280297007
7.5296631 805.39618 818.15332 4280558896
-61.201221 809.34247 817.55664 4280427809
-58.891743 809.78381 817.92883 4280231716
1.7321101 809.1217 817.37054 4281083187
3.4642203 808.45966 816.81226 4280494130
-57.038532 811.89374 817.09174 4280428068
-55.310093 811.89374 817.09174 4280558878
-53.58165 812.55444 817.6488 4280821023
-36.297249 812.55444 817.6488 4280690218
-19.012844 812.55444 817.6488 4280952884
-16.420183 812.55444 817.6488 4280821298
-12.099083 812.55444 817.6488 4281019942
-10.370643 812.55444 817.6488 4281084720
-8.6422014 812.55444 817.6488 4281084720
-3.4568808 812.55444 817.6488 4281215275
-1.7284404 812.55444 817.6488 4281412653
0 811.89374 817.09174 4281215026
-57.038532 813.87585 818.76294 4280558376
-55.310093 813.87585 818.76294 4280427042
-52.71743 813.87585 818.76294 4280426788
-36.297249 813.87585 818.76294 4280558376
-34.568806 813.87585 818.76294 4280820521
-19.877064 813.87585 818.76294 4280228909
-16.420183 813.87585 818.76294 4280755509
-12.963303 813.87585 818.76294 4281346860
-10.370643 813.87585 818.76294 4281084720
-7.7779818 813.87585 818.76294 4281084723
-4.3211012 813.87585 818.76294 4281411892
-48.672935 817.02905 817.49768 4280492848
-46.519264 816.69971 817.21997 4280098099
-43.93486 816.04114 816.66467 4280294954
-40.488991 816.04114 816.66467 4280558126
-37.904587 816.04114 816.66467 4280558376
-31.874311 816.04114 816.66467 4280688932
-28.42844 816.04114 816.66467 4280820517
-24.982569 816.04114 816.66467 4280492069
-22.398165 816.04114 816.66467 4280229667
117.58899 772.51331 821.82007 4278190098
110.1211 775.42065 820.34735 4294967295
112.78532 775.42065 820.34741 4293387755
115.44954 775.42065 820.34735 4279769120
119.00183 776.09961 820.9198 4279836214
92.168808 778.93744 820.69666 4294966527
94.827522 778.25989 820.12537 4294967295
97.486237 778.25989 820.12537 4294967295
100.14496 778.25989 820.12537 4294967295
103.3945 778.03412 819.93488 4294967295
106.34863 777.5824 819.55408 4294967039
108.1211 777.5824 819.55408 4294966527
70.678902 782.5083 819.78345 4281478195
73.329361 782.5083 819.78345 4281346612
76.863304 782.5083 819.78345 4280887855
79.513763 782.5083 819.78345 4282336836
82.164215 782.5083 819.78345 4288193981
85.698166 782.5083 819.78345 4294967295
88.348625 782.5083 819.78345 4294967295
91.28257 780.29254 821.83923 4294967039
94.827522 780.29254 821.83923 4294967295
72.445869 783.85919 820.92236 4281412401
82.164215 783.85919 820.92236 4287732141
85.698166 783.85919 820.92236 4294769663
68.69725 788.7641 821.13403 4280953134
73.981651 787.41742 819.99854 4281936699
75.743118 787.41742 819.99854 4282528836
61.458717 790.96729 819.06763 4282001992
64.092659 790.96729 819.06763 4281477945
66.726608 790.96729 819.06763 4280953134
55.312843 793.65216 821.33142 4280951596
59.117432 793.20465 820.9541 4281148981
61.458717 792.30969 820.19946 4281412151
46.43578 795.78516 820.51385 4281083953
49.648319 795.56183 820.32562 4281084205
52.568806 795.11536 819.9491 4280952100
-66.960243 799.09064 819.37677 4280623919
24.455046 799.98096 820.12756 4280952632
28.822018 799.98096 820.12756 4280886057
31.442202 799.98096 820.12756 4280622636
34.353516 799.53583 819.7522 4280755509
37.555965 799.31323 819.56445 4280361522
40.758411 799.09064 819.37677 4280821815
43.669724 798.64551 819.00146 4281084470
-64.495415 802.77118 819.86414 4280297007
10.458715 802.77118 819.86414 4280887341
13.073395 802.77118 819.86414 4281018425
16.559633 802.77118 819.86414 4280622903
20.06789 802.04382 820.55884 4281477947
22.708258 801.31641 821.25354 4281083187
25.328442 801.31641 821.25354 4280755505
28.822018 801.31641 821.25354 4280821023
31.442202 801.31641 821.25354 4280820271
34.062386 801.31641 821.25354 4281083957
37.555962 801.31641 821.25354 4280887861
-64.495415 804.10382 820.98779 4280558126
8.7155962 804.10382 820.98779 4280559923
10.458715 804.10382 820.98779 4280428586
13.073395 804.10382 820.98779 4280624944
15.688073 804.10382 820.98779 4280557874
4.3440366 808.27429 820.5802 4281084470
-61.489906 811.77014 819.6037 4280492581
-58.891743 811.77014 819.6037 4280492581
-1.7321101 812.43225 820.16199 4282002742
0.86605507 811.77014 819.6037 4281806390
-57.159634 813.75647 821.27844 4280492583
-55.427525 813.75647 821.27844 4280165671
-52.774311 814.47687 820.57782 4280164645
-50.124771 815.19727 819.8772 4280558376
-44.07523 815.19727 819.8772 4280165421
-40.618347 815.19727 819.8772 4280689962
-37.161469 815.19727 819.8772 4280624169
-34.568806 815.19727 819.8772 4281213482
-31.976147 815.19727 819.8772 4281212456
-28.519266 815.19727 819.8772 4281541167
-25.062386 815.19727 819.8772 4281740860
-22.469725 815.19727 819.8772 4281479228
-19.897247 814.47687 820.57782 4281545021
-16.438532 814.47687 820.57782 4281282099
-12.963303 815.19727 819.8772 4282002994
-10.370643 815.19727 819.8772 4281741623
-7.7779818 815.19727 819.8772 4281807929
-4.3211012 815.19727 819.8772 4281872952
-1.7321101 813.75647 821.27844 4282463293
0 813.75647 821.27844 4282724668
-52.71743 816.51862 820.99133 4280295978
-50.124771 816.51862 820.99133 4280821548
-46.667889 816.51862 820.99133 4280558376
-44.07523 816.51862 820.99133 4280624169
-40.618347 816.51862 820.99133 4280887341
-31.976147 816.51862 820.99133 4281280815
-28.519266 816.51862 820.99133 4281543735
-25.062386 816.51862 820.99133 4281938244
-22.469725 816.51862 820.99133 4282200652
-20.741285 816.51862 820.99133 4282136381
-49.103668 819.99274 819.99646 4281083689
117.58899 773.87537 822.96851 4278191388
112.24403 775.23749 824.11707 4294636795
114.91652 775.23749 824.11707 4285029999
118.47981 775.23749 824.11707 4279376164
97.688072 778.81537 823.20972 4294967295
100.35229 778.81537 823.20972 4294967295
104.20061 778.36279 822.82806 4294967295
106.56881 778.13647 822.63721 4294967039
108.93701 777.91016 822.44635 4294967295
88.623856 781.64758 822.98169 4294967295
91.28257 781.64758 822.98169 4294967295
95.023849 780.17322 824.35461 4294834943
97.688072 780.17322 824.35461 4294967295
100.35229 780.17322 824.35461 4294967295
70.678902 785.21008 822.0614 4281282099
72.445869 785.21008 822.0614 4281084720
77.746788 785.21008 822.0614 4281741898
79.513763 785.21008 822.0614 4283386723
82.164215 785.21008 822.0614 4288127399
85.833031 784.10638 823.09283 4294769406
88.623856 783.00269 824.12427 4294967295
91.28257 783.00269 824.12427 4294967039
70.678902 787.23633 823.76996 4281019436
73.329361 787.23633 823.76996 4283058003
76.863304 787.23633 823.76996 4287466394
79.513763 786.56091 823.20044 4285628803
81.280731 786.56091 823.20044 4286284668
61.651375 791.4574 823.40491 4281477945
64.293579 790.78406 822.83722 4281739320
67.816513 790.78406 822.83716 4282264888
50.922935 794.99463 822.46338 4280887593
52.678898 794.99463 822.46338 4280952102
55.312843 794.99463 822.46338 4280820781
58.824768 794.99463 822.46338 4281676604
61.651375 792.80408 824.54041 4282466625
64.293579 792.80408 824.54041 4281609531
67.816513 792.80408 824.54041 4282923342
43.253826 797.75629 823.04785 4281610038
46.509174 797.37268 823.81445 4281676344
49.752293 796.78448 823.97247 4281676857
52.678898 796.33704 823.59521 4281613113
55.312843 797.00824 824.16113 4281941567
58.824768 796.33704 823.59521 4282270792
34.169724 800.47394 824.46729 4281674547
37.674309 800.47394 824.46729 4281873726
40.302753 799.80408 823.90247 4281808963
42.055046 799.13428 823.33765 4281808443
13.974312 803.98724 823.50549 4281214773
16.885628 803.54218 823.13019 4280951857
20.088074 803.31958 822.9425 4281215028
22.708258 803.31958 822.9425 4281609784
25.03731 803.09698 822.75488 4281478195
28.822018 802.65186 822.37952 4281544240
31.442202 802.65186 822.37952 4281410605
7.8440366 806.10272 822.6731 4281216056
10.458715 806.10272 822.67316 4281018928
12.801224 805.3606 823.7915 4281347382
16.594496 805.32269 824.63159 4282333250
20.088074 805.32269 824.63159 4282004542
22.708258 805.32269 824.63159 4282333253
5.2293577 808.10168 824.35864 4281872952
7.8440366 808.10168 824.35864 4281938496
-64.29174 812.92383 824.50049 4280163368
-61.685318 812.25964 823.94043 4280360749
-59.078899 812.25964 823.94043 4280426790
1.7376146 810.93115 822.82031 4282330681
3.4752293 810.93115 822.82031 4282069305
-57.159634 815.08069 822.39502 4280558376
-55.427525 815.08069 822.39502 4280297007
-37.240368 815.08069 822.39502 4280887341
-34.6422 815.08069 822.39502 4281083437
-19.053211 815.08069 822.39502 4282333503
-16.455046 815.08069 822.39502 4281938745
-12.990826 815.08069 822.39502 4281872952
-10.39266 815.08069 822.39502 4281611320
-7.7944956 815.08069 822.39502 4281677111
-4.3302751 815.08069 822.39502 4282004536
-1.7321101 815.08069 822.39502 4282595135
0 815.08069 822.39502 4282202174
-57.159634 816.40491 823.5116 4280297257
-55.427525 816.40491 823.5116 4280690218
-52.773396 817.78455 823.3667 4280624421
-45.851376 817.78455 823.36676 4281082664
-43.817738 817.80304 822.94629 4281214507
-40.704586 817.06702 824.06982 4281215279
-37.240368 816.40491 823.5116 4280952884
-34.6422 816.40491 823.5116 4281018677
-32.044037 816.40491 823.5116 4281347642
-28.579817 816.40491 823.5116 4282136645
-25.115597 816.40491 823.5116 4283188562
-22.517431 816.40491 823.5116 4283648598
-20.78532 816.40491 823.5116 4283648348
-10.39266 816.40491 823.5116 4281349688
-49.260551 819.82214 823.77679 4280821542
-46.667889 819.16144 823.21973 4280952102
110.46239 776.59955 825.2655 4294967295
112.24403 776.59955 825.2655 4293387497
115.09541 775.4917 826.2934 4284635743
117.95229 774.38379 827.32129 4278849820
97.990829 779.32373 827.5625 4294967295
101.55413 779.32373 827.5625 4294967295
103.33578 778.6427 826.98822 4294967295
105.71131 778.41571 826.79681 4294967295
108.68073 777.96167 826.41394 4294967295
88.807343 782.88904 826.64441 4294967295
91.471558 782.88904 826.64441 4294967039
94.727821 781.9837 825.88116 4294966783
99.464218 781.53113 825.49951 4294967295
79.761467 785.71283 826.40942 4287398801
82.715599 785.26117 826.02856 4289704637
85.669716 784.80939 825.64771 4293781752
87.919266 784.24689 827.78943 4294967295
91.471558 784.24689 827.78943 4294967039
77.988991 787.06787 827.552 4292402417
79.761467 787.06787 827.552 4292073196
82.420181 787.06787 827.552 4290229686
70.678902 790.61353 826.61749 4283451208
73.329353 790.61346 826.61743 4284240739
76.686607 790.88367 826.84534 4293913082
79.513763 791.96436 827.75647 4294967295
81.280731 791.96436 827.75647 4294967295
61.651375 794.1507 825.6759 4282468424
64.293579 794.1507 825.6759 4282861133
67.816513 794.1507 825.6759 4283123022
51.963303 796.17065 827.37909 4282006077
55.486237 796.84399 827.94678 4282203203
58.715595 795.94629 827.18988 4282401351
61.651375 795.49738 826.8114 4282663752
63.412846 795.49738 826.8114 4282532168
77.504585 796.17065 827.37909 4290163402
79.266052 796.17065 827.37909 4291150297
81.027519 796.17065 827.37909 4291347166
40.387157 800.36438 826.99097 4282334535
43.021103 799.69318 826.42505 4282072642
46.533028 799.02197 825.85913 4282334535
49.166973 799.02197 825.85913 4282334787
25.700304 802.70673 826.34979 4282070336
28.620794 802.26007 825.97333 4281873215
31.541285 801.81354 825.5968 4282529338
34.169724 801.81354 825.5968 4282661694
37.674309 801.81354 825.5968 4282334274
10.480734 806.65814 825.75757 4281807691
13.100918 806.65814 825.75757 4281741636
16.594496 806.65814 825.75757 4282136128
19.21468 806.65814 825.75757 4282202174
21.903669 804.49286 827.85596 4282201924
