# .PCD v0.7 - Point Cloud Data file format
VERSION 0.7
FIELDS x y z rgb
SIZE 4 4 4 4
TYPE F F F U
COUNT 1 1 1 1
WIDTH 1171
HEIGHT 1
VIEWPOINT 0 0 0 1 0 0 0
POINTS 1171
DATA ascii
-49.433029 778.95093 772.31091 4284703867
-16.477676 778.51654 771.94464 4292860904
-51.989906 780.25409 773.40967 4284374904
-49.433029 780.25409 773.40967 4284572280
-46.876144 780.25409 773.40967 4284310907
-43.373394 781.79022 772.08887 4284179324
-39.971558 781.79022 772.08887 4284639100
-37.420185 781.79022 772.08887 4283456351
-34.868805 781.79022 772.08887 4282665558
-32.317432 781.79022 772.08887 4284769914
-22.962385 781.79022 772.08887 4291416036
-19.580734 781.02216 772.74927 4292794858
-17.045872 780.25409 773.40967 4292532972
-31.466972 783.09058 773.1853 4284442488
-28.065138 783.09058 773.1853 4284441977
-25.513762 783.09058 773.1853 4288192178
-22.962385 783.09058 773.1853 4291808981
-20.411009 783.09058 773.1853 4292466155
-6.9284406 760.78796 776.61682 4294374655
-6.9137616 763.66235 776.42432 4294374654
-10.337615 765.98755 774.46082 4294111484
-8.6146793 766.64612 775.01611 4294308863
-12.034863 769.50928 774.81415 4293913590
-10.315597 769.50928 774.81415 4293979644
-8.6146793 768.62195 776.68201 4294572031
-12.872477 772.63721 775.48944 4293979130
-10.315597 771.4809 776.47656 4294111743
-13.695413 776.5282 775.50018 4291810793
-15.390825 777.94995 775.39099 4292203750
-13.680734 779.25732 776.49329 4287470507
-51.137615 781.55725 774.50842 4284570745
-49.433029 782.20886 775.05786 4284636532
-46.876144 782.20886 775.05786 4284375415
-43.466972 782.20886 775.05786 4284573050
-40.0578 782.20886 775.05786 4284375676
-37.500916 782.20886 775.05786 4284573821
-34.944038 782.20886 775.05786 4282534489
-32.387157 782.86041 775.6073 4282468687
-19.318655 782.42603 775.24103 4287992495
-16.477676 781.99164 774.87469 4288059823
-34.944038 784.16364 776.70605 4283784807
-31.228746 784.23944 775.89795 4281678933
-28.095413 784.27734 775.4939 4284112509
-25.513762 785.04114 774.82996 4284704645
-22.962385 785.04114 774.82996 4287071888
-19.602753 784.16364 776.70605 4280692846
-17.045872 784.16364 776.70605 4278190121
-6.9137616 764.98376 777.53845 4294440447
-5.1963301 764.76062 779.96643 4294506239
-6.9137616 766.30518 778.65259 4294506239
-5.1853213 767.62659 779.76685 4293652217
-7.753211 769.93915 777.7926 4293388534
-12.034863 772.79529 777.58484 4294375167
-10.315597 772.79529 777.58484 4293784063
-8.6146793 771.25635 778.90332 4291283932
-12.034863 774.76685 779.24725 4285759636
-13.710092 779.03424 778.92114 4278191155
-47.027523 781.87207 778.698 4284573566
-43.607338 781.87207 778.698 4284637819
-40.187157 781.87207 778.698 4284376196
-37.622017 781.87207 778.698 4284771442
-15.390825 781.21838 778.14679 4279110963
-47.882568 783.17944 779.80029 4284507517
-42.752293 783.17944 779.80029 4284441723
-40.187157 783.17944 779.80029 4284441725
-35.056881 783.17944 779.80029 4284310647
-31.534863 785.4668 777.80493 4281022027
-28.125687 785.4668 777.80493 4282273126
-25.568808 785.4668 777.80493 4282207848
-23.011927 785.4668 777.80493 4282534994
-19.602753 785.4668 777.80493 4278720830
-16.218349 784.32312 778.80261 4279509026
-13.680734 783.17944 779.80029 4283843147
-25.568808 786.76996 778.90369 4282731621
-23.011927 786.76996 778.90369 4282270275
-4.3669724 755.2439 782.40637 4294769407
-5.2293577 757.46179 781.6604 4294900991
-5.2128439 761.11542 780.81702 4294572031
-5.1963301 767.40906 782.19946 4292008673
-7.7779818 769.6087 781.43805 4284773520
-10.337615 773.23218 780.56921 4281485714
-12.034863 776.73846 780.90967 4278190125
-10.337615 775.20795 782.23523 4278190117
-8.6146793 775.20795 782.23523 4278190381
-12.034863 778.05286 782.01782 4279174425
-46.271561 781.6546 781.13062 4284573566
-43.700916 782.30969 781.68298 4284375929
-40.273396 782.96478 782.23535 4284375930
-37.702751 782.30969 781.68298 4284375928
-35.988991 782.96478 782.23535 4284178806
-13.710092 781.6546 781.13062 4284568651
-34.201836 785.1405 781.45386 4284177520
-31.636698 785.1405 781.45386 4282730585
-28.216515 785.1405 781.45386 4281086018
-25.651377 785.79419 782.005 4282465871
-23.086239 785.79419 782.005 4283584343
-19.666054 785.1405 781.45386 4280295995
-16.245871 785.1405 781.45386 4283513383
-4.3899083 749.35132 783.97815 4294769149
-3.5045872 752.24677 783.80334 4294901247
-3.493578 757.24707 784.09534 4294572287
-3.4862385 760.12701 783.90771 4294440447
-3.4752293 763.77222 783.05713 4293914875
-4.0544343 765.98633 784.92401 4287598497
-6.9284406 769.39539 783.87433 4278191884
-5.1963301 770.0575 784.43262 4278524692
-7.7779818 772.25153 783.66644 4278191664
-5.1853213 772.91223 784.22351 4278190848
-10.337615 776.52515 783.34583 4280157710
-7.7642202 775.37939 784.34174 4280028951
-5.1853213 774.23358 785.33765 4278321416
-12.034863 779.36725 783.1261 4289501601
-10.315597 779.36725 783.1261 4290226883
-7.753211 778.50092 785.01172 4289569705
-48.13945 781.99603 785.34265 4284113011
-46.420185 781.33887 784.78851 4284310394
-44.127827 781.55792 784.97321 4284507002
-12.034863 781.33887 784.78851 4293709258
-10.315597 781.33887 784.78851 4293250028
-40.273396 784.27496 783.34009 4284113278
-37.702751 784.27496 783.34009 4284047481
-35.132111 784.93005 783.8924 4284309110
-31.704586 785.58514 784.4447 4284045155
-29.133945 785.58514 784.4447 4282006076
-16.280735 785.58514 784.4447 4283057979
-13.710092 784.27496 783.34009 4291996868
-34.27523 786.89532 785.54944 4284702581
-31.704586 786.89532 785.54944 4284242797
-27.971865 786.96405 784.73541 4282073681
-25.6789 786.99841 784.32843 4280955970
-23.11101 786.99841 784.32843 4283059033
-19.687157 786.99841 784.32843 4283321448
-16.280735 786.89532 785.54944 4281546802
0 749.03772 787.63776 4294769407
-1.7559633 752.03625 786.24194 4294901247
-1.7559633 754.04993 787.93988 4294309116
0 754.04993 787.93988 4294834943
-1.746789 759.91791 786.34741 4294243583
-1.7431192 763.45862 786.71674 4294701055
-3.4752293 767.75751 786.41736 4280492949
-1.7431192 765.45752 788.40222 4292730367
-3.4752293 769.75012 788.09753 4278193700
-4.3247709 775.45392 787.67474 4278518794
-5.1853213 778.19781 788.68018 4282462278
-48.242203 781.79395 787.78833 4285037176
-46.519264 781.79395 787.78833 4284116074
-44.796329 781.79395 787.78833 4284375932
-7.753211 781.13538 787.23303 4293384677
-43.435326 784.2464 787.89417 4284310652
-40.402752 784.62482 787.55914 4284309886
-36.964218 784.62482 787.55914 4284440952
-34.385323 785.93921 788.66748 4284572278
-31.806421 785.93921 788.66748 4284112498
-29.227524 785.93921 788.66748 4283915631
-24.069725 785.93921 788.66748 4280758060
-15.473394 785.93921 788.66748 4279047202
-12.894496 784.62482 787.55927 4285885563
-10.315597 784.62482 787.55927 4286086051
-7.753211 783.11115 788.89893 4280499046
-5.1688075 783.11115 788.89893 4278198365
-27.420183 788.20551 786.65417 4282863709
-25.706423 788.20551 786.65417 4280495161
-22.278898 788.20551 786.65417 4283257937
-19.708256 788.20551 786.65417 4284505454
-17.137615 788.20551 786.65417 4283126368
-41.130276 789.51569 787.75891 4284310137
0 753.75098 791.61194 4294967039
0 758.94495 789.45117 4294966527
0 760.28461 790.58069 4294966015
0 763.92419 789.72546 4294966271
-1.7431192 766.79016 789.52588 4288329698
-1.7431192 768.1228 790.64954 4284909191
-1.7376146 772.40698 790.33777 4278190866
-3.4642203 776.67853 790.01526 4279500815
-4.3211012 779.51923 789.79443 4280558892
-3.4568808 780.84064 790.90857 4278190595
-7.753211 785.08698 790.56482 4278912286
-40.116207 788.12988 790.51465 4284573309
-37.250763 787.69171 790.1452 4284507262
-34.385323 787.91077 790.3299 4284507770
-31.806423 787.91083 790.32996 4283981683
-28.367889 787.91077 790.3299 4283455344
-24.929358 787.91077 790.3299 4281744973
-22.350458 787.91077 790.3299 4280363565
-19.771561 787.91083 790.32996 4281481306
-16.333027 787.91083 790.32996 4282072914
-12.894495 787.91083 790.32996 4279244830
-10.315597 787.91077 790.3299 4279305756
-37.823853 789.88245 791.99219 4284508032
-34.385323 789.88245 791.99219 4284507517
-30.946789 789.88245 791.99219 4284770688
-28.367889 789.88245 791.99219 4284440953
-24.929358 789.88245 791.99219 4284177007
-22.350458 789.88245 791.99219 4281150268
-19.771561 789.88245 791.99219 4281280068
-16.333027 789.88245 791.99219 4282991704
-12.894495 789.88245 791.99219 4284047987
-37.702751 793.44629 791.073 4284770688
0.58409786 763.4104 793.21631 4290692324
0 769.26593 794.22937 4278200377
0 772.12073 794.02039 4278192914
-1.7376146 775.06384 792.57788 4278979099
-1.7321101 779.32697 792.24841 4278191367
0 777.05646 794.25806 4278191115
-4.3211012 782.16205 792.02271 4278911489
-4.3211012 784.14417 793.69403 4289961112
-36.181652 787.72131 792.78613 4284441727
-32.735779 788.37994 793.34143 4284507517
-10.337615 788.37994 793.34143 4287988371
-7.7532115 787.72131 792.78613 4289238943
-36.104588 791.19678 793.10046 4284507517
-34.458717 789.69714 794.45203 4284507517
-31.874311 789.69714 794.45203 4284770175
-28.399082 790.44696 793.77625 4284309110
-24.982569 789.69714 794.45203 4284111729
-22.398165 789.69714 794.45203 4281611339
-19.813763 789.69714 794.45203 4280427333
-16.333027 791.19678 793.10046 4282532696
-12.922018 789.69714 794.45203 4284573057
-10.337615 789.69714 794.45203 4287201195
-7.753211 789.69714 794.45203 4293715197
-36.964218 792.51123 794.20874 4284573566
1.7669724 754.14014 795.86414 4294702335
1.7614679 757.79095 795.01831 4294768895
1.7614679 760.48425 797.28918 4293323775
1.7559633 764.11829 796.4292 4292601599
0.87798166 765.552 796.33002 4285171101
1.7522936 768.32245 797.35803 4281685084
0.87339449 773.36279 796.37573 4278192911
0 776.11859 797.39136 4279109135
-1.7376146 779.04907 795.93817 4284894292
-1.7376146 781.04175 797.61829 4292397268
-3.4642203 784.62378 796.7146 4294111738
-4.4939451 787.71198 796.70227 4293651961
-34.458717 791.01434 795.56274 4284572280
-31.874311 791.01434 795.56274 4284835197
-28.42844 791.01434 795.56274 4284374903
-24.982569 791.01434 795.56274 4284374130
-22.398165 791.01434 795.56274 4283847528
-19.813763 791.01434 795.56274 4282794836
-16.367889 791.01434 795.56274 4282270543
-12.922018 791.01434 795.56274 4283849588
-10.337615 791.01434 795.56274 4284311954
-7.753211 791.01434 795.56274 4290825712
-37.002754 793.07855 795.99518 4284508032
-34.458717 792.33154 796.67334 4284639611
-31.874311 792.33154 796.67334 4284441208
-28.141283 792.77057 797.04352 4284703353
-24.695414 792.77057 797.04352 4284440947
-22.398165 792.99011 797.22864 4284506483
-19.813763 792.99011 797.22864 4283322475
-16.367889 792.99011 797.22864 4283059028
-12.922018 792.99011 797.22864 4283848555
-10.337615 792.99011 797.22864 4283393404
-8.6146793 792.99011 797.22864 4285893795
1.7761468 748.94202 798.02124 4294834687
3.5522935 750.97888 799.73865 4294439932
3.5339448 759.54358 800.42017 4293193471
3.5229359 764.52423 800.69568 4287332774
1.7522936 769.66211 798.48755 4278198819
3.5119267 769.4881 800.95691 4278190625
1.7522936 772.34143 800.7467 4278517766
0.58226299 777.83789 799.71307 4285820009
-1.7376146 782.37012 798.7384 4294045689
0 780.11646 800.76221 4293584627
-1.7376146 783.69855 799.85852 4294045689
0 785.02698 800.97864 4293847546
-3.4642203 788.59644 800.06421 4293651187
-1.7321101 787.93433 799.50592 4293454066
-34.568806 791.41193 799.82202 4285034367
-31.111927 791.41193 799.82202 4284768378
-29.383486 791.41193 799.82202 4284768378
-25.926605 791.41193 799.82202 4284900219
-6.9137616 790.75122 799.26489 4287667636
-5.1853213 790.75122 799.26489 4292338936
-27.655046 792.73328 800.93616 4284507771
-25.062386 792.73328 800.93616 4284573562
-22.469725 792.73328 800.93616 4284573816
-19.813763 794.96594 798.89453 4283521389
-16.367889 794.96594 798.89453 4283650649
-12.922018 794.96594 798.89453 4283650149
-10.337615 794.96594 798.89453 4283785565
-7.7779818 792.73328 800.93616 4284510071
-5.1853213 792.73328 800.93616 4289182156
-12.060551 796.28314 800.00525 4283649380
5.344954 749.35785 802.29602 4294505981
5.344954 750.71991 803.44446 4294637311
4.4385319 754.75543 802.26892 4294309630
7.1045871 755.73145 803.74585 4294374654
3.5339448 760.89447 801.5592 4292796142
3.5229359 765.87091 801.83105 4279311737
3.5119267 770.83051 802.08887 4278191375
1.7522936 773.68103 801.87622 4278583312
3.5045872 773.68103 801.87622 4278190082
3.5045872 775.02069 803.00574 4278190605
1.746789 779.94946 803.23743 4288913072
0 781.4491 801.88586 4293847546
-33.014679 787.68384 803.21875 4284573816
0 787.01965 802.65869 4293256436
-29.445871 791.24487 802.29724 4284507517
-3.4642203 790.58276 801.73901 4292532710
-1.7321101 790.58276 801.73901 4292927467
-27.713762 792.56909 803.41382 4284508032
-25.115597 792.56909 803.41382 4284376701
-22.517431 792.56909 803.41382 4284310905
-19.877064 794.05469 802.05029 4283981690
-16.420183 794.05469 802.05029 4283651428
-13.827523 794.05469 802.05029 4283517793
-10.370643 794.05469 802.05029 4283257174
-7.7779818 794.05469 802.05029 4283653224
-4.3247709 793.31189 802.73206 4285495182
-1.7321101 792.56909 803.41382 4289703882
-16.420183 795.3761 803.16455 4283585635
-12.963303 795.3761 803.16455 4283256420
-10.370643 795.3761 803.16455 4283322468
-8.6422014 795.3761 803.16455 4283519590
8.0174313 752.08203 804.5929 4294440447
8.314373 754.35211 806.50708 4294572285
5.3284402 757.08929 804.89087 4294572287
7.9926605 758.44714 806.03577 4294768383
5.317431 760.64392 805.27197 4292927999
5.3009176 764.94708 804.9762 4287669957
7.9651375 763.81183 805.98102 4292074735
10.634862 762.67657 806.98584 4293915127
12.407339 762.67657 806.98584 4293849078
7.0678897 766.29791 806.11523 4286678717
5.2844038 769.23755 804.66974 4280891971
7.0458717 769.91089 805.23743 4279377991
5.26789 773.51544 804.35266 4278190086
7.0458717 771.25757 806.37292 4278192656
1.7522936 776.36035 804.13525 4285097330
4.6801224 775.80615 805.41211 4280293139
3.5045872 778.36975 805.82965 4288913314
1.746789 781.95258 804.92651 4293518836
3.493578 782.6203 805.4895 4291610866
1.746789 783.95575 806.61548 4292072167
1.7431192 786.7796 806.38049 4286547356
-33.883484 789.01227 804.33887 4284902781
-31.277063 789.01227 804.33887 4284507517
-28.670643 791.00488 806.01898 4284508032
-25.195412 791.66907 806.57898 4284376702
-22.588991 791.66907 806.57898 4284245112
0 790.34064 805.45898 4289245650
-19.919266 793.89331 804.5304 4284375680
-6.9284406 793.89331 804.5304 4283126116
-4.3302751 793.89331 804.5304 4283521135
-1.7321101 793.89331 804.5304 4289508305
-19.053211 795.21753 805.64685 4284310139
-16.166361 795.65894 806.01904 4284243313
-12.990826 795.87964 806.2052 4283257703
-10.39266 795.87964 806.20514 4282862415
-7.7944956 795.87964 806.2052 4283322201
-4.3302751 795.87964 806.2052 4283124830
-1.7321101 795.21753 805.64685 4285363077
7.9926605 759.80505 807.18066 4294440447
10.65688 759.80505 807.18066 4294572285
8.8623857 764.03162 808.12842 4293981439
10.634862 764.03162 808.12842 4294243576
8.8348627 767.6488 807.25427 4291418110
10.601835 767.6488 807.25427 4292469489
13.293577 765.38672 809.271 4293850352
8.8348627 768.99963 808.39319 4288525755
10.601835 769.67505 808.96271 4288782531
13.252294 769.67505 808.96265 4294045688
16.491743 769.90021 809.15253 4294703610
7.6330276 773.05304 807.8869 4279179558
7.0458717 775.29749 809.7793 4278191618
5.26789 777.54279 807.74841 4282399830
7.0238533 778.88519 808.88037 4278721805
4.380734 781.04907 808.08875 4286153651
4.3752294 784.17487 808.76227 4281355131
-33.154129 788.03711 808.74878 4284772228
-31.376146 788.11224 807.50403 4284508030
1.7431192 788.11224 807.50403 4279510610
4.075841 787.51691 809.61816 4278191126
-31.376146 789.44489 808.62769 4284639872
-28.761467 790.11121 809.18951 4284442495
-26.14679 790.77753 809.75134 4284310909
1.7431192 790.11121 809.18951 4281611359
-24.326605 792.9975 807.6991 4284441977
-22.588991 793.66174 808.25916 4284507770
-20.272171 793.88312 808.4458 4284374907
-17.376146 794.32593 808.81921 4284506485
-1.7376146 794.32593 808.81921 4283716969
0 793.66174 808.25916 4285623459
-16.507339 795.65436 809.93933 4284768378
-13.03211 795.65436 809.93933 4283783796
-10.425688 795.65436 809.93933 4283125838
-7.8192658 795.65436 809.93933 4283125335
-4.3440366 795.65436 809.93933 4283454821
-1.7376146 795.65436 809.93933 4283258467
0 795.65436 809.93933 4282012281
15.952293 769.4519 812.69873 4294900735
8.8348627 772.37683 811.24078 4278193684
10.601835 772.37683 811.24078 4280231750
12.957798 772.15167 811.05096 4290956774
17.669725 771.70142 810.67126 4294768637
19.436697 771.70142 810.67126 4294966271
8.8073397 776.64417 810.91479 4278194433
10.601835 774.40314 812.94934 4278192147
7.9266057 777.99084 812.05029 4279902751
5.26789 780.22766 810.01221 4282012552
7.0238533 782.24133 811.71014 4278257426
5.2568808 784.39819 810.9126 4278192191
-33.188992 789.96521 811.6825 4285230710
-31.442202 789.29749 811.11951 4284902524
-29.695414 789.29749 811.11951 4284639609
4.075841 789.74268 811.49481 4280819489
-31.376146 792.11011 810.875 4284836985
-28.470947 792.55438 811.24951 4284639355
-25.27523 792.77643 811.43683 4284573565
-22.660551 793.44275 811.99866 4284507519
-20.045872 793.44275 811.99866 4284702333
1.7431192 792.77643 811.43683 4282469242
-15.638532 796.98279 811.05945 4284702331
-13.03211 796.98279 811.05945 4284309110
-10.425688 796.98279 811.05945 4284243538
-7.8192658 796.98279 811.05945 4282796108
-4.3440366 796.98279 811.05945 4283586660
-1.7376146 796.98279 811.05945 4283193178
0 796.98279 811.05945 4282340461
-10.425688 798.31122 812.17944 4284637290
-7.8192658 798.31122 812.17944 4282860880
-4.3440366 798.31122 812.17944 4282862423
-1.7376146 798.31122 812.17944 4283719018
0 798.31122 812.17944 4283524467
14.179816 770.80701 813.84119 4290165719
16.85688 770.05859 814.51819 4294308862
19.537615 769.31024 815.19519 4294768383
13.293577 772.16211 814.98376 4284114826
10.601835 775.75397 814.08838 4278260000
8.8073397 779.33746 813.18579 4278192925
10.601835 777.10486 815.22729 4278192937
8.8073397 781.35748 814.88892 4278521363
7.0238533 784.92627 813.97394 4278522137
5.2568808 788.41711 814.30127 4279046684
7.0238533 786.93988 815.67188 4278915364
-31.442202 791.96838 813.37146 4285033081
-29.695414 791.96838 813.37146 4285033081
4.3669724 791.96838 813.37146 4278198311
-27.948624 793.30377 814.49756 4284573566
-25.328442 793.30377 814.49756 4284770948
-22.684404 794.70728 814.37292 4284442242
-20.066973 794.70728 814.37292 4284769153
-17.431192 794.77539 813.12231 4284899967
1.746789 793.9715 815.06055 4281814111
4.075841 794.19409 815.24823 4281547342
-16.269114 796.55225 814.62042 4284703357
-13.073395 796.77429 814.80774 4284506233
-10.458715 797.44067 815.36951 4284375930
-7.8440366 797.44067 815.36951 4282468443
-4.3577981 797.44067 815.36951 4282074709
-1.7431192 797.44067 815.36951 4283786099
0 797.44067 815.36951 4283851360
16.873394 770.66809 816.34009 4294243071
19.598166 768.42706 818.37463 4294768639
21.379816 768.42706 818.37463 4294965759
13.308256 772.77161 816.80566 4278325286
16.57737 772.4787 817.8667 4290497246
19.537615 772.026 817.48499 4294244863
21.313761 772.026 817.48499 4294964991
12.998164 775.32397 817.64972 4278321425
10.601835 779.13116 816.93585 4278848288
10.601835 781.15747 818.64441 4278260000
8.8073397 784.05078 817.15991 4278719266
7.9155965 787.17657 817.83337 4278784029
10.568808 786.0708 818.86304 4278849820
-29.78899 791.09644 816.56042 4285033081
5.2568808 791.09644 816.56042 4278786358
7.0238533 789.62482 817.93567 4278586651
-28.620794 793.3291 818.44293 4284441973
-25.116209 793.3291 818.44293 4284902019
-21.903669 793.7757 818.81946 4285229696
-19.275229 793.7757 818.81946 4285097339
7.0091743 793.7757 818.81946 4280362319
-16.594496 796.64233 817.3125 4285162625
-13.100918 797.31006 817.87549 4285098627
1.746789 796.64233 817.3125 4283193950
4.3669724 795.97467 816.74951 4282600292
-10.458715 798.77325 816.49316 4284507517
-7.8440366 798.77325 816.49316 4283980654
-4.0672784 799.21747 816.86768 4282533195
-1.7431192 799.43958 817.05499 4283322707
0 799.43958 817.05499 4283259233
0 801.43854 818.74048 4281085515
17.816513 771.83228 821.24585 4287992767
19.598166 771.83228 821.24585 4293848575
21.9737 772.05927 821.43726 4294702847
14.209174 775.42065 820.34735 4278191117
15.985321 775.42065 820.34735 4279179815
23.089909 776.09961 820.9198 4294572285
12.407339 778.25989 820.12537 4278587427
10.601835 782.5083 819.78345 4278326045
12.407339 780.29254 821.83923 4278326045
12.368808 783.85919 820.92236 4278718234
8.8073397 787.41742 819.99854 4278455065
10.568808 788.09076 820.56628 4278191888
-29.851376 790.96729 819.06763 4285097589
-26.339449 790.96729 819.06763 4284574079
7.901835 790.96729 819.06763 4279375139
8.7798166 792.98096 820.76544 4281610828
-28.036697 795.11536 819.9491 4285032579
-25.408257 795.78516 820.51392 4285295236
-21.903669 795.78516 820.51392 4285032064
-19.275229 795.78516 820.51385 4284966272
-16.938837 796.00848 820.70215 4285031813
-14.018349 796.45496 821.07861 4284769664
4.380734 795.78516 820.51385 4283520867
7.0091743 795.78516 820.51385 4283256670
-12.227523 798.64551 819.00146 4284637821
-10.480734 798.64551 819.00146 4284441723
-7.8605504 798.64551 819.00146 4284178039
-4.6581039 799.53583 819.7522 4283058008
-1.746789 799.98096 820.12756 4281215275
1.746789 798.64551 819.00146 4283652962
-4.3669724 801.31641 821.25354 4283781212
-1.746789 801.31641 821.25354 4281346093
0 802.77118 819.86414 4281347919
17.816513 773.87537 822.96851 4281222997
19.598166 773.87537 822.96851 4291420912
21.379816 773.87537 822.96851 4294506492
16.925688 775.23749 824.11707 4278191384
19.598166 775.23749 824.11707 4286551213
22.270641 775.23749 824.11707 4292007652
14.209174 778.13647 822.63721 4278654241
15.985321 778.81537 823.20972 4278586905
14.209174 780.17322 824.35461 4278784029
15.985321 780.17322 824.35461 4278190864
12.368808 785.21008 822.0614 4278192154
12.368808 787.23633 823.76996 4281016099
10.568808 790.78406 822.83722 4284237649
8.7798166 794.99463 822.46338 4285100158
10.568808 792.80408 824.54041 4287134887
-25.461468 796.33704 823.59521 4284836228
-21.949543 797.0083 824.16119 4284705156
-19.315596 797.0083 824.16119 4284507777
-16.681652 797.0083 824.16119 4284441986
-13.163303 797.37268 823.81445 4284572542
-10.524771 797.73706 823.46765 4284244346
-8.183486 797.75629 823.04785 4284572538
1.7522936 797.79462 822.20813 4283388270
4.380734 797.79462 822.20813 4283520090
8.1896029 797.27032 823.51019 4284242802
-7.0091743 799.13428 823.33765 4285031544
-5.2568808 800.47394 824.46729 4284373872
1.7522936 799.80408 823.90247 4281940818
4.380734 799.80408 823.90247 4282861133
7.0091743 799.80408 823.90247 4283846505
-3.493578 802.65186 822.37952 4284634980
-1.746789 802.65186 822.37952 4283582292
0 802.65186 822.37952 4281546822
17.816513 776.59955 825.2655 4278190354
19.598166 776.59955 825.2655 4282537060
22.306423 775.4917 826.2934 4288324817
17.816513 778.6427 826.98822 4279566336
19.598166 777.96167 826.41394 4278190080
14.209174 781.53113 825.49951 4279500815
15.985321 782.21008 826.07196 4282590752
14.179816 785.03528 825.83813 4284167985
16.85688 784.97986 827.09943 4291079589
15.952293 787.06787 827.552 4292465628
13.42899 790.34338 826.38965 4292135904
15.902752 791.28894 827.18695 4292860655
10.568808 794.1507 825.6759 4283784059
12.330276 794.1507 825.6759 4289902808
-21.137615 796.84399 827.94678 4284966784
-19.376146 796.84399 827.94678 4284769662
-16.733946 796.84399 827.94678 4284704130
-13.21101 796.84399 827.94678 4284442237
-10.568808 796.84399 827.94678 4284310907
10.568808 796.17065 827.37909 4283979366
12.917432 796.39508 827.56836 4286151056
-7.901835 799.69312 826.42505 4284441464
-5.26789 800.36438 826.99097 4284506485
1.7559633 800.36438 826.99097 4281020215
3.5119267 800.36438 826.99097 4282136377
8.1944952 799.91693 826.61371 4284042854
-3.5045872 802.4834 826.16156 4284439929
-1.7522936 802.4834 826.16156 4284374136
0 802.4834 826.16156 4283388255
5.2568808 801.81354 825.5968 4283978581
22.339451 775.75006 828.47327 4284181851
25.020184 775.75006 828.47327 4292401384
19.658716 777.11639 829.62537 4281008128
22.339449 777.7995 830.20135 4289892767
17.816513 780.68585 828.71094 4289101433
19.598166 781.36688 829.28516 4292526002
17.761467 785.60474 828.93433 4292860640
17.724771 788.42297 828.69458 4292926183
19.537615 786.96265 830.07922 4293123306
17.724771 790.45557 830.40845 4292860647
14.135779 793.31525 828.89551 4289571279
16.491743 794.21582 829.65485 4291744240
-19.376146 798.19067 829.08228 4284770938
-16.733946 798.86401 829.65002 4284704899
-13.21101 798.86401 829.65002 4284573820
-10.568808 798.86401 829.65002 4284311163
-8.8073397 799.53735 830.21777 4284376701
10.568808 798.86401 829.65002 4283715684
13.21101 798.86401 829.65002 4283914606
15.853211 798.86401 829.65002 4287402923
-7.0238533 801.70685 828.12292 4284836733
-4.3899083 802.37805 828.6889 4284441463
-1.7559633 803.04932 829.25488 4284638073
0.87798166 802.37805 828.6889 4283585131
4.3899083 801.70685 828.12292 4282858047
7.901835 801.70685 828.12292 4283451487
-3.5119267 804.39172 830.38672 4284441977
-1.7559633 804.39172 830.38672 4284375928
0 804.39172 830.38672 4284768378
25.966972 775.64478 831.00061 4293912820
22.339451 779.84894 831.92944 4294372596
25.07156 777.69836 832.73212 4294767357
23.233028 781.21527 833.08142 4293914103
19.598166 783.41003 831.00793 4293057762
21.379816 784.09106 831.58215 4293255914
19.537615 788.3205 831.22412 4293056999
21.379816 786.13416 833.30481 4292597984
19.537615 789.67841 832.36914 4293124589
21.313761 791.03625 833.51404 4292993001
19.497248 792.48816 832.12219 4292140785
21.269724 793.84326 833.26477 4292992488
-19.436697 797.36786 832.3125 4285034626
17.669725 796.69238 831.74304 4289046976
19.436697 796.01697 831.17358 4292073445
-16.733946 800.88397 831.35327 4284376449
-13.21101 800.88397 831.35327 4284375931
-10.568808 800.88397 831.35327 4284376701
-7.9266057 800.88397 831.35327 4284508029
-5.2844038 800.88397 831.35327 4283981426
1.7614679 800.88397 831.35327 4283585135
4.4036698 800.88397 831.35327 4282530635
7.9266057 800.88397 831.35327 4283779682
10.568808 800.88397 831.35327 4284110431
13.21101 800.88397 831.35327 4283717213
16.761469 799.80133 832.4024 4284245634
19.436697 798.71869 833.45154 4290035957
-16.733946 802.23065 832.48865 4284705918
-12.917432 802.6795 832.86719 4284639359
-10.568808 802.90399 833.0564 4284573824
-7.9266057 802.90399 833.0564 4284573821
-4.697248 803.12842 833.24561 4284441977
-1.7614679 803.57733 833.62415 4284375928
0.88073397 802.90399 833.0564 4284374904
4.4036698 802.23065 832.48865 4284174179
7.9266052 802.90399 833.0564 4283780946
10.568808 802.90399 833.0564 4284438880
13.21101 802.90399 833.0564 4284308576
16.733946 802.90399 833.0564 4283324516
19.376146 803.57733 833.62415 4285496976
26.944954 774.81067 834.22144 4294963963
26.008257 778.65466 835.50049 4293979896
23.233028 782.58154 834.2334 4293913842
25.07156 781.80573 836.19537 4293519346
23.233028 783.94788 835.3855 4293387243
22.567583 787.95026 834.83618 4293322220
22.201836 793.07312 835.23138 4293058283
19.497248 795.19836 834.40735 4291612911
21.269724 797.23096 836.12122 4290493909
19.436697 800.06958 834.59058 4287075506
-15.902752 801.42041 835.72961 4285098622
-13.546788 802.32098 836.48895 4284704897
-10.601835 802.7713 836.86865 4284639868
-5.3009176 802.7713 836.86865 4284310905
1.7669724 802.09583 836.29913 4283851387
4.4174314 802.09583 836.29913 4284046711
7.0678897 802.7713 836.86865 4283520092
21.203671 801.42041 835.72961 4286284972
-7.9266057 804.92395 834.75964 4284442747
-3.5229359 804.92395 834.75964 4284310907
-1.7614679 805.59729 835.32733 4284376444
0 804.92395 834.75964 4283589758
8.8073397 804.92395 834.75964 4280033063
10.568808 804.92395 834.75964 4280096030
13.21101 804.92395 834.75964 4279966747
16.733946 805.59729 835.32739 4282928212
19.376146 804.92395 834.75964 4285231491
28.917431 770.40436 838.35425 4294636286
30.724771 770.40436 838.35425 4294964991
27.972477 772.88556 838.48431 4294373369
31.628441 771.78607 839.51929 4294571005
28.829357 776.74011 839.77234 4294176248
26.944954 778.9306 837.69519 4293716980
26.944954 780.30396 838.85315 4293256175
25.07156 783.85938 837.92688 4293518834
25.020184 787.36359 838.26556 4293452270
23.161469 791.58252 837.8988 4293452789
25.020184 789.41302 839.99353 4293188586
23.161469 792.94464 839.04724 4293453304
23.089909 797.14673 838.6662 4292205821
21.269724 800.61865 838.97766 4285230728
-12.368808 804.79761 838.57715 4284049536
-10.601835 804.79761 838.57715 4284377723
-7.951376 804.79761 838.57715 4284311420
-4.4174314 804.79761 838.57715 4284376700
-1.7669724 805.47302 839.14661 4284310907
0 804.79761 838.57715 4283983741
7.951376 804.12219 838.00769 4281481040
10.601835 804.79761 838.57715 4281150262
13.546788 804.57245 838.38739 4280887601
16.78624 805.47302 839.14661 4283386454
19.436697 804.79761 838.57715 4286216587
34.444038 770.97308 842.75793 4294438650
36.256882 770.97308 842.75793 4294373627
28.917431 773.16779 840.68433 4294307834
31.628441 773.16779 840.68433 4294307577
31.628441 774.54956 841.84937 4294307834
34.339451 774.54956 841.84937 4294768383
37.050461 774.54956 841.84937 4294702590
28.829357 778.8064 841.51447 4293715955
31.532112 778.8064 841.5144 4294242297
26.944954 781.67725 840.01111 4293453041
26.944954 783.05054 841.16907 4293518832
28.741285 784.42389 842.32703 4293715695
26.862385 787.2821 840.81293 4293649137
25.941284 790.0575 841.84503 4293452270
25.875229 793.2262 841.24664 4293190900
24.943119 796.34985 841.91846 4291876071
23.089909 799.86249 840.95605 4289507272
1.772477 802.65125 840.69147 4283720312
4.4330273 802.29382 841.04419 4283655027
7.9761467 803.3288 841.2627 4283324010
12.407339 803.3288 841.2627 4283187532
21.89113 801.92407 841.82245 4285954961
-10.601835 806.82391 840.28564 4284508284
-7.9623852 805.75391 841.34546 4284442492
-4.4311924 804.68384 842.40527 4284442236
-1.772477 804.68384 842.40527 4284113013
0 804.68384 842.40527 4284179319
7.9761467 804.68384 842.40527 4283915883
10.634862 804.68384 842.40527 4283189342
13.293577 804.68384 842.40527 4283255135
16.838531 804.68384 842.40527 4283452768
19.497248 804.68384 842.40527 4284176489
-10.601835 808.17474 841.42468 4284507771
34.339451 775.93127 843.0144 4294242041
37.050461 775.93127 843.0144 4294307834
39.761467 775.93127 843.0144 4294307834
34.339451 778.00385 844.76196 4293979124
37.050461 778.00391 844.76196 4294241529
41.568806 778.6947 845.34448 4294636799
28.829357 780.87262 843.25671 4293518834
31.532112 781.5614 843.83746 4293979381
28.741285 785.79718 843.48486 4293912304
31.485321 784.7124 844.53229 4294175989
34.234863 783.62769 845.57971 4294373625
28.741285 787.17047 844.64282 4293912304
31.136391 788.08612 845.41479 4293912819
28.653212 790.7049 843.69885 4293649648
26.807339 794.19507 844.0257 4293257724
28.594496 794.19507 844.0257 4293453298
30.444036 792.07397 844.85327 4293518834
26.807339 796.24451 845.75366 4293321471
28.594496 796.24451 845.75366 4293716210
25.537003 799.30103 844.4068 4289965786
1.7761468 803.2572 843.81836 4284310905
4.4403667 803.2572 843.81836 4284179569
22.201836 803.2572 843.81836 4285623433
25.833946 801.11713 845.93811 4289110728
-7.9761467 806.03894 843.54785 4284573563
-4.4311924 806.03894 843.54785 4284639100
-1.772477 806.03894 843.54785 4284441723
0.88807338 805.32703 844.25562 4284376182
4.4403667 804.61505 844.96338 4284245362
7.9926605 804.61505 844.96338 4284178804
10.634862 806.03894 843.54785 4284636275
13.306421 805.32703 844.25562 4284899705
16.838531 806.03894 843.54785 4282665818
19.497248 806.03894 843.54785 4281484105
22.201836 804.61505 844.96338 4283519061
-8.8623857 807.39398 844.69043 4285097593
39.882568 775.82385 846.84796 4294636286
39.882568 777.90271 848.60083 4294571004
34.339451 780.07642 846.50952 4294308599
37.050461 781.45819 847.67462 4294307320
41.568806 780.76733 847.09204 4294505212
43.376148 780.76733 847.09204 4294439675
32.433029 785.00519 846.74121 4294242039
34.234863 785.00519 846.74121 4294505211
34.234863 786.38269 847.90271 4294438650
32.333946 789.91711 846.95874 4293847285
34.130276 791.29041 848.1167 4293913592
31.339451 794.12769 846.58496 4293715956
28.594496 797.61084 846.90576 4292926190
31.308258 796.89606 847.61108 4293846519
28.594496 798.97711 848.05774 4292003823
30.381651 798.97711 848.05774 4294174975
1.7816514 803.84131 848.23511 4284704117
4.4541283 803.84131 848.23511 4284638323
25.833944 803.16028 847.66083 4286676620
28.506422 802.47925 847.08655 4290755289
-7.1045871 805.97296 846.10828 4284638323
-4.4403667 805.97296 846.10828 4284770426
-1.7761468 805.97296 846.10828 4284573564
0 805.97296 846.10828 4284769910
7.9926605 805.97296 846.10828 4284376182
10.65688 805.97296 846.10828 4284572026
13.3211 805.97296 846.10828 4285031809
16.873394 805.97296 846.10828 4283911784
19.537615 805.97296 846.10828 4282990421
22.201836 805.97296 846.10828 4284763738
-7.1045871 807.33081 847.25317 4284638323
-4.4403667 807.33081 847.25317 4284835963
-1.7761468 807.33081 847.25317 4284639359
0 807.33081 847.25317 4284967034
10.65688 807.33081 847.25317 4284506233
13.3211 807.33081 847.25317 4285426305
15.985321 807.33081 847.25317 4286477449
19.537615 807.33081 847.25317 4288579214
39.882568 779.2887 849.76941 4294242041
40.78899 780.67462 850.93799 4294570491
43.508255 780.67462 850.93799 4294570750
37.351681 784.68219 850.39301 4294175733
34.234863 787.76025 849.06421 4294504959
36.036697 787.76025 849.06421 4294242041
36.036697 789.82654 850.80646 4294175991
34.130276 793.35034 849.85358 4294043638
32.234863 797.55042 849.47083 4294109686
35.028442 795.41034 851.59045 4294175478
31.617126 799.85052 850.53827 4293913081
28.594496 802.39282 850.93781 4286743214
30.381651 802.39282 850.93781 4292861949
-4.4541283 806.56549 850.53198 4284704893
-1.7816514 806.56549 850.53198 4284770938
1.1877676 806.11151 850.14917 4284638072
4.4541283 805.88446 849.95776 4284637560
8.0174313 805.88446 849.95776 4284309622
10.689908 806.56549 850.53198 4284375928
13.362385 806.56549 850.53198 4284966012
17.22263 806.11151 850.14917 4287659657
19.598166 806.56549 850.53198 4290225057
22.270641 805.88446 849.95776 4289302427
25.537003 805.65747 849.76636 4286346342
-4.4541283 807.92761 851.68054 4284572784
-1.7816514 807.92761 851.68054 4284638071
0 807.92761 851.68054 4284506487
4.4541283 807.92761 851.68054 4284507518
8.0174313 807.92761 851.68054 4284113015
10.689908 807.92761 851.68054 4284375928
13.362385 807.92761 851.68054 4284308850
16.925688 807.92761 851.68054 4287792533
19.598166 807.92761 851.68054 4290422449
22.270641 807.92761 851.68054 4290486961
43.640366 779.89948 854.2085 4294833406
40.78899 782.06055 852.10657 4294438905
40.78899 783.44647 853.27515 4294438905
37.954128 787.67596 852.91724 4294571005
36.995415 790.82068 853.60669 4294305781
35.028442 796.78363 852.74841 4293912819
34.130276 798.15698 853.90637 4293847796
32.234863 802.34229 853.51117 4293716211
1.787156 805.80859 853.81787 4284703867
26.211618 805.35321 853.4339 4286345050
28.594496 805.12543 853.24188 4284769659
30.381651 805.12543 853.24188 4292335854
-3.574312 807.17487 854.96985 4284310135
-1.7816514 809.28967 852.82898 4284375928
0.89357799 808.2323 853.89941 4284506238
4.4678898 807.17487 854.96985 4284703614
8.0174313 809.28967 852.82898 4284506233
10.689908 809.28967 852.82898 4284440694
13.362385 809.28967 852.82898 4284374901
16.925688 809.28967 852.82898 4287398802
19.598166 809.28967 852.82898 4290422701
22.270641 809.28967 852.82898 4290289314
25.913761 807.17487 854.96985 4288186237
28.594496 807.17487 854.96985 4285754479
31.27523 807.17487 854.96985 4293123299
0 810.65173 853.97742 4284243316
8.9082565 810.65173 853.97742 4284572280
10.689908 810.65173 853.97742 4284702583
13.362385 810.65173 853.97742 4284571510
16.925688 810.65173 853.97742 4285491840
19.598166 810.65173 853.97742 4287530135
22.270641 810.65173 853.97742 4289171346
40.955048 781.96216 857.25574 4294636542
43.684402 781.26709 856.66968 4294636286
46.127216 781.25958 857.09937 4294834175
41.822018 784.06989 857.72485 4294967295
39.882568 787.60425 856.78094 4294570236
37.954128 791.13025 855.82983 4294372857
37.954128 792.51196 856.99487 4294438650
36.036697 796.71411 856.61383 4293978100
34.130276 800.21692 855.64331 4294176763
35.028442 802.27692 857.38013 4294439422
32.234863 804.39587 855.2428 4293518834
34.025688 805.76501 856.39722 4294570750
-3.574312 808.5412 856.12195 4284047218
-1.787156 809.22437 856.69794 4284440946
1.787156 809.22437 856.69794 4284703867
4.4678898 809.22437 856.698 4284375930
7.1486239 809.22437 856.69794 4284572280
25.913761 809.22437 856.698 4288449157
28.594496 809.22437 856.69794 4286277721
30.99939 808.52759 856.98242 4293252817
0 812.01385 855.12598 4284506487
8.9082565 812.01385 855.12598 4284572280
10.689908 812.01385 855.12598 4284572280
13.362385 812.01385 855.12598 4284572280
16.925688 812.01385 855.12598 4284637305
19.598166 812.01385 855.12598 4286873500
22.270641 812.01385 855.12598 4288582281
10.689908 813.37592 856.27441 4284506487
13.065442 813.83002 856.65723 4284309367
16.925688 813.37592 856.27441 4284178035
19.598166 813.37592 856.27441 4285888138
43.728439 782.63757 859.13318 4294702591
46.461468 782.63757 859.13318 4294636286
41.822018 785.46002 858.89697 4294767359
43.728439 784.03052 860.30774 4294899199
46.461468 784.03052 860.30774 4294702078
41.822018 786.85016 860.06909 4294570237
43.640366 786.85016 860.06909 4294636031
40.486851 791.30011 859.89716 4294636538
37.954128 793.89368 858.15991 4294636286
37.954128 795.27545 859.32495 4294306810
39.761467 796.65717 860.48987 4294636795
37.237919 799.23956 858.74323 4294636030
35.926605 803.65021 858.53809 4294636797
37.838531 801.5354 860.67908 4294571004
39.640366 801.5354 860.67908 4294571004
34.729053 805.48126 860.08203 4294768127
-1.7908257 809.87231 859.86035 4284506483
1.7908257 809.87231 859.86035 4284704121
3.5816514 809.87231 859.86035 4284375928
28.653212 809.87231 859.86035 4289762677
31.637922 809.41595 859.47559 4294502887
0 811.95691 859.00201 4284571762
5.3614678 811.27374 858.42603 4284375928
8.042202 811.95691 859.00208 4284441208
10.722936 812.64008 859.578 4284309113
14.297248 812.64008 859.578 4284309113
16.977982 812.64008 859.578 4284835198
19.658716 812.64008 859.578 4285624969
22.339451 811.95691 859.00201 4286806393
25.913761 811.27374 858.42603 4286805885
8.9357796 814.00635 860.72998 4284309109
10.722936 814.00635 860.72998 4284309113
13.403669 814.00635 860.72998 4284242804
16.977982 814.00635 860.72998 4284571766
19.658716 814.00635 860.72998 4284638071
21.445871 814.00635 860.72998 4286998635
46.461468 785.42346 861.48218 4294899967
49.194496 785.42346 861.48218 4294966527
41.822018 788.2403 861.24133 4294636284
43.640366 788.2403 861.24133 4294570237
45.550457 787.51288 863.24396 4294899199
41.822018 791.02057 863.58557 4294899455
43.640366 790.3255 862.99951 4294833919
40.78899 793.84094 862.03949 4294504953
41.695412 795.91986 863.79236 4294965503
43.508255 795.91986 863.79236 4294833660
40.665138 799.42065 862.81995 4294768125
37.838531 802.9129 861.84058 4294767867
39.640366 802.9129 861.84058 4294505211
36.937614 804.29047 863.00208 4294833660
39.640366 804.29047 863.00208 4294833660
-3.5926607 809.14343 863.16992 4288715690
1.7963303 809.14343 863.16992 4284834675
3.5926607 809.14343 863.16992 4284309109
34.729053 808.68573 862.78394 4294899710
-1.7908257 811.9259 861.59198 4285032324
0 812.61047 862.16919 4285883250
5.3724771 811.9259 861.59198 4284243315
7.1633029 812.61047 862.16919 4284243316
23.280733 812.61047 862.16919 4291340973
25.966972 811.92596 861.59192 4292790467
28.653212 811.9259 861.59198 4293648868
31.339451 811.92596 861.59192 4294701817
8.9541283 813.97961 863.32349 4284309109
10.744954 813.97961 863.32349 4284440442
13.403669 815.37268 861.88208 4284505718
17.012844 813.97961 863.32349 4284702581
19.699083 813.97961 863.32349 4284702581
22.385321 813.97961 863.32349 4287990934
25.966972 813.97961 863.32349 4293713392
28.653212 813.97961 863.32349 4294966527
31.339451 813.97961 863.32349 4294834173
47.515594 784.68054 864.77991 4294702591
49.343121 784.68054 864.77991 4294965503
47.515594 786.0777 865.95801 4294964991
49.343121 786.0777 865.95801 4294965759
51.170643 786.0777 865.95801 4294965503
45.550457 790.29877 865.59296 4294636540
43.640366 792.41071 864.75769 4294833406
45.458717 793.8009 865.92981 4294636282
41.695412 797.30579 864.96094 4294966527
43.508255 797.30579 864.96094 4294965503
43.508255 798.69177 866.12964 4294438904
41.568806 802.87494 865.73254 4294966015
36.937614 805.66797 864.16357 4294767100
39.640366 805.66797 864.16357 4294899453
37.838531 807.73425 865.9057 4294636538
39.640366 807.73425 865.9057 4294636027
-3.5926607 810.51672 864.32776 4287007155
-1.7963303 811.89008 865.48572 4288123079
0.89816517 811.20337 864.90674 4286346104
4.1914372 811.43231 865.09979 4284112499
7.1853213 811.89008 865.48572 4284309109
34.729053 810.97443 864.71368 4294834430
0 813.26337 866.64368 4288784077
5.3889909 813.26337 866.64368 4284047470
8.0834866 813.26337 866.64368 4284113013
10.744954 815.34869 864.47791 4284440694
13.431192 815.34869 864.47791 4284505973
17.012844 815.34869 864.47791 4284505972
19.699083 815.34869 864.47791 4284704121
22.385321 815.34869 864.47791 4285102468
25.966972 815.34869 864.47791 4291940066
28.653212 815.34869 864.47791 4294966271
31.388992 814.30603 865.56079 4294900735
10.744954 816.71783 865.63232 4284243570
14.326606 816.71783 865.63232 4284570995
17.012844 816.71783 865.63232 4284505203
19.699083 816.71783 865.63232 4285492099
22.385321 816.71783 865.63232 4284576380
47.515594 788.17346 867.72504 4294636799
49.343121 788.17346 867.72504 4294966015
51.170643 788.17346 867.72504 4294966271
47.372478 793.08466 867.94196 4294505981
49.194496 793.08466 867.94196 4294703614
51.623852 793.31683 868.1377 4294703357
45.93716 796.22943 868.63147 4294570490
49.194496 795.17407 869.70374 4294636797
51.016514 795.17407 869.70374 4294308345
43.508255 800.0777 867.29822 4294504697
43.508255 801.46362 868.4668 4294635513
45.321102 802.84955 869.63538 4294504443
41.568806 805.63837 868.06262 4294899454
43.376148 805.63837 868.06262 4294570493
1.8018348 809.80054 867.64795 4284177495
36.937614 809.80054 867.64795 4294834428
40.604584 808.75574 868.72906 4294702844
43.376148 807.71094 869.81018 4294636286
1.8018348 811.86682 869.3902 4285162901
4.2042813 812.09637 869.5838 4284045667
32.433029 812.55554 869.97095 4294966783
34.234863 811.86682 869.3902 4294900735
36.937614 811.86682 869.3902 4294702844
0 814.63666 867.80164 4288647626
8.0834866 814.63666 867.80164 4284177520
12.574312 814.63666 867.80164 4284309363
26.046789 814.63666 867.80164 4291086038
28.741285 814.63666 867.80164 4294966271
30.537615 814.63666 867.80164 4294967295
8.9816513 816.01001 868.95959 4283980141
10.777982 816.01001 868.95959 4283585383
13.472477 816.01001 868.95959 4284242801
17.065138 816.01001 868.95959 4284307825
19.759632 816.01001 868.95959 4285031548
22.454128 816.01001 868.95959 4284442746
26.944954 816.01001 868.95959 4293914879
52.998165 793.06348 871.84814 4294768895
47.372478 796.56702 870.87817 4294504695
49.194496 797.26349 871.46545 4294833405
46.670948 799.82489 871.00897 4294438135
47.277065 802.14172 872.96265 4294899455
45.321102 804.92847 871.38824 4294702078
40.665138 809.09271 870.97522 4294768637
43.376148 809.09271 870.97522 4294636284
40.665138 810.47443 872.14026 4294768637
43.376148 810.47443 872.14026 4294636286
1.2012233 814.39227 871.51959 4288581319
4.5045872 814.62183 871.7132 4286477458
7.2073393 814.62183 871.7132 4283847783
23.423853 815.31061 872.29395 4284837504
25.225689 814.62183 871.7132 4286086029
28.228745 814.85138 871.90674 4294374908
31.532112 814.62183 871.7132 4294966783
34.234863 814.62183 871.7132 4294966015
36.036697 813.93304 871.13245 4294965246
8.9816513 817.3833 870.11755 4284044389
10.777982 817.3833 870.11755 4283783019
13.472477 817.3833 870.11755 4284176754
17.065138 817.3833 870.11755 4284373367
19.759632 817.3833 870.11755 4285097089
21.555964 817.3833 870.11755 4284245366
52.164223 793.40747 874.10028 4294702844
52.084404 795.85779 874.20435 4294701820
49.194496 800.04938 873.81445 4294504442
51.927521 800.04944 873.81445 4294504442
47.277065 803.53186 874.13477 4294833407
50.004585 803.53186 874.13477 4294767613
52.732109 803.53186 874.13477 4294966271
47.277065 804.922 875.30688 4294964735
50.004585 804.922 875.30688 4294833405
52.732109 804.922 875.30688 4294833660
46.046242 808.67053 874.54333 4294833406
37.954128 811.85614 873.3053 4294899453
40.665138 811.85614 873.3053 4294702842
43.376148 811.85614 873.3053 4294504443
0.90366971 814.61963 875.63538 4283388020
4.5183487 814.61963 875.63538 4287399094
32.532108 814.61963 875.63538 4294966783
34.339451 814.61963 875.63538 4294966527
37.050461 813.92871 875.05286 4294900478
40.665138 813.92871 875.05286 4294768378
43.376148 813.92871 875.05286 4294636799
7.2073393 816.68811 873.45544 4286014082
9.9100914 816.68811 873.45544 4284108906
13.513762 816.68811 873.45544 4283716717
16.216515 817.37683 874.03619 4284046199
18.919266 816.68811 873.45544 4284440694
22.823242 817.14728 873.84259 4284639101
25.225689 817.37683 874.03619 4285034622
27.628134 817.14728 873.84259 4293192179
30.631193 816.68811 873.45544 4294967295
49.095413 806.31213 876.479 4294966527
51.927521 804.92474 877.92517 4294833660
54.660549 804.92474 877.92517 4294571002
50.004585 808.3974 878.23718 4294768380
52.732109 808.3974 878.23718 4294702076
46.227524 811.85815 877.2312 4294900223
41.695412 813.93701 878.98401 4294966271
43.508255 813.93701 878.98401 4294768895
45.321102 813.93701 878.98401 4294768895
0.90366971 816.00134 876.80042 4282728016
4.2171254 816.46191 877.18878 4285821598
7.2293577 816.00134 876.80042 4287070631
9.9403667 816.00134 876.80042 4283913076
13.856269 816.46191 877.18878 4283717748
16.266054 817.38306 877.96545 4283586678
19.278288 816.46191 877.18878 4284178808
22.29052 816.92255 877.57715 4284112761
25.302752 817.38306 877.96545 4284307825
28.314985 816.92255 877.57715 4294177530
31.628439 816.6922 877.38293 4294967039
34.339451 816.6922 877.38293 4294966783
36.749237 816.46191 877.18878 4294835454
39.761467 816.00134 876.80042 4294965503
1.7908257 830.40881 877.17627 4281609781
1.7908257 831.77789 878.33057 4281543988
4.4770641 831.77789 878.33057 4281086523
47.277065 811.87274 881.16748 4294638079
50.004585 810.4826 879.99536 4294967039
5.4385319 815.32294 880.15259 4286287041
7.2513762 815.32294 880.15259 4286943159
9.9706421 815.32294 880.15259 4284178039
12.689908 815.32294 880.15259 4284242019
18.128441 815.32294 880.15259 4284047481
38.069725 815.32294 880.15259 4294967295
40.78899 815.32294 880.15259 4294967295
43.508255 815.32294 880.15259 4294309631
45.321102 815.32294 880.15259 4292467429
13.596331 816.70892 881.32117 4283782746
16.315596 816.70892 881.32117 4283388783
19.034863 816.70892 881.32117 4284178806
22.624771 817.73682 880.22583 4283915381
25.302752 818.76477 879.13049 4284570747
28.013762 818.76477 879.13049 4293848316
31.675228 817.73682 880.22583 4294967295
34.339451 818.76477 879.13049 4294967295
37.163303 816.70892 881.32117 4294967295
40.78899 816.70892 881.32117 4293979643
43.508255 816.70892 881.32117 4292336089
34.339451 820.14648 880.29553 4294505727
3.6036696 824.95319 880.42432 4281808443
3.6036696 826.33075 881.58582 4281611320
49.194496 811.19299 883.21045 4290166993
51.016514 811.19299 883.21045 4290033099
5.4550457 814.65302 883.51184 4286611082
7.2733946 814.65302 883.51184 4287530415
10.000917 814.65302 883.51184 4286873482
46.702755 813.73273 883.60791 4286877871
12.72844 816.04315 884.68396 4284175222
20.001835 816.04315 884.68396 4284702583
22.693577 817.06897 883.58685 4284177270
25.379816 818.09485 882.48975 4285095794
28.099083 818.09485 882.48975 4294571262
31.72477 818.09485 882.48975 4294967295
37.163303 818.09485 882.48975 4289968076
