# .PCD v0.7 - Point Cloud Data file format
VERSION 0.7
FIELDS x y z rgb
SIZE 4 4 4 4
TYPE F F F U
COUNT 1 1 1 1
WIDTH 1162
HEIGHT 1
VIEWPOINT 0 0 0 1 0 0 0
POINTS 1162
DATA ascii
61.054131 784.10638 823.09283 4289304470
64.695412 783.00269 824.12427 4283978345
67.144951 785.21008 822.0614 4283189842
70.012848 783.00269 824.12427 4288189345
73.5578 783.00269 824.12427 4294966783
77.102753 783.00269 824.12427 4294769150
79.761467 783.00269 824.12427 4294967295
82.420181 783.00269 824.12427 4294769150
52.125687 787.9118 824.33948 4290421398
55.65963 787.9118 824.33948 4290618004
58.310093 787.23633 823.76996 4291538853
60.960552 787.23639 823.7699 4289238418
64.494492 787.23633 823.76996 4283715159
68.028442 787.23633 823.76996 4285492321
52.844036 792.80408 824.54041 4290685104
55.486237 792.80408 824.54041 4289565840
59.009174 792.80408 824.54041 4290092695
61.651375 792.80408 824.54041 4286212715
64.293579 792.80408 824.54041 4286607697
67.816513 792.80408 824.54041 4292856509
-73.420181 751.56995 826.39771 4291544791
-70.70092 752.95593 827.56628 4289702336
-67.981651 752.95593 827.56628 4290687950
-65.262383 752.95593 827.56628 4290689483
-72.293579 755.20538 825.53882 4289768129
-70.486237 757.27795 827.28638 4280626240
-68.076454 757.50824 827.48053 4280362038
-64.160553 757.96881 827.8689 4280556861
-61.449543 757.96881 827.8689 4281019179
-58.738533 757.96881 827.8689 4280625197
-55.123856 757.96881 827.8689 4279903019
-52.412846 757.96881 827.8689 4279772460
-49.701836 757.96881 827.8689 4279376657
-46.087158 757.96881 827.8689 4278784029
-43.376148 757.96881 827.8689 4279176221
-40.665138 757.96881 827.8689 4279307289
-37.954128 757.96881 827.8689 4279635480
-31.628441 757.96881 827.8689 4278455065
-28.013762 757.96881 827.8689 4278192390
-25.302752 757.96881 827.8689 4279439641
-22.591743 756.5871 826.70386 4283387510
-4.5183487 757.96881 827.8689 4278652691
-72.073395 760.89862 826.41522 4280230444
-70.271561 761.5874 826.99597 4280887091
-67.56881 761.5874 826.99597 4280625716
-63.965141 761.5874 826.99597 4280230958
-61.262386 761.5874 826.99597 4280560173
-58.559631 761.5874 826.99597 4280297004
-54.955963 761.5874 826.99597 4280297007
-52.253212 761.5874 826.99597 4280297007
-49.550461 761.5874 826.99597 4279900702
-45.946789 761.5874 826.99597 4279702820
-43.244038 761.5874 826.99597 4279900196
-40.541283 761.5874 826.99597 4280162851
-37.838531 761.5874 826.99597 4280491299
-34.234863 761.5874 826.99597 4279832350
-31.532112 761.5874 826.99597 4279308061
-27.92844 761.5874 826.99597 4279505940
-25.225689 761.5874 826.99597 4280032284
-22.823242 760.66901 826.22168 4280360996
-9.609786 760.66901 826.22168 4278653470
-7.2073393 760.20984 825.83447 4278260500
-5.4055047 761.5874 826.99597 4278785536
-88.91835 766.57086 827.2738 4280029981
-85.325684 765.88422 826.69482 4280033579
-82.631195 765.88416 826.69482 4279837480
-79.936691 765.88422 826.69482 4280100650
-76.34404 765.88416 826.69482 4280231721
-73.649544 765.88416 826.69482 4280494379
-70.056877 766.57086 827.2738 4280428336
-52.093578 766.57086 827.2738 4280428336
-50.297249 766.57086 827.2738 4280165671
-46.704586 766.57086 827.2738 4279376419
-43.710705 766.1131 826.88788 4279703335
-41.315598 766.57086 827.2738 4279899690
-37.722935 766.57086 827.2738 4279966241
-34.729053 766.11304 826.88788 4279900448
-31.43578 766.57086 827.2738 4279834399
-28.741285 766.57086 827.2738 4279179035
-26.046789 766.57086 827.2738 4279902755
-22.753517 765.65527 826.50177 4280099109
-19.759632 765.19751 826.11584 4279573028
-17.364527 765.65527 826.50177 4279770140
-13.173088 765.65527 826.50177 4280031768
-10.777982 765.88416 826.69482 4280163352
-8.0834866 765.88416 826.69482 4279966478
-4.7902141 765.65527 826.50177 4279835150
0 765.19751 826.11584 4279571233
26.046789 766.57086 827.2738 4281282099
-91.332108 770.16833 826.38306 4279635729
-88.645874 770.16833 826.38306 4279832608
-85.064224 770.16833 826.38306 4279900196
-82.377983 770.16833 826.38306 4279836706
-80.587158 770.16833 826.38306 4280165671
-77.005501 770.16833 826.38306 4280231464
-42.979816 770.16833 826.38306 4279047456
-34.025688 770.16833 826.38306 4280293403
-21.489908 769.48376 825.80585 4280951584
-19.699083 769.48376 825.80585 4280753950
-16.714373 769.71191 825.99823 4281345565
-13.729664 769.71198 825.99823 4281540631
-10.744954 770.16833 826.38306 4282656804
-8.0587158 770.16833 826.38306 4282986280
-4.1785932 769.71191 825.99823 4282266413
-1.7908257 768.79926 825.22864 4280624421
0.89541286 769.48376 825.80579 4282069034
13.431192 770.16833 826.38306 4284368962
17.012844 770.16833 826.38306 4284170298
19.699083 770.16833 826.38306 4283314475
25.966972 770.16833 826.38306 4282855975
28.653212 768.79926 825.22864 4281545271
30.444036 768.79926 825.22864 4281808443
-91.144951 773.01746 826.16931 4278846727
-88.554123 772.27747 826.85333 4279107586
-85.064224 771.53748 827.53735 4278190086
-82.377983 771.53748 827.53735 4278190093
-80.587158 771.53748 827.53735 4278453268
-43.875229 771.53748 827.53735 4278980126
-41.188992 771.53748 827.53735 4279044635
-34.025688 771.53748 827.53735 4280754706
-25.07156 771.53748 827.53735 4284239174
-22.385321 771.53748 827.53735 4284896336
-19.699083 771.53748 827.53735 4285158996
-16.977982 773.01746 826.16931 4285618511
-13.416513 772.27747 826.85333 4286210400
-10.744954 771.53748 827.53735 4286539869
-8.0587158 771.53748 827.53735 4286539616
-4.4770641 771.53748 827.53735 4286737260
-1.787156 772.33435 825.59326 4284962389
0.89541286 771.53748 827.53735 4287328883
4.4678898 772.33435 825.59326 4285289564
8.042202 772.33429 825.59326 4285816674
10.722936 772.33435 825.59326 4286014043
13.418348 772.27747 826.85333 4288447615
16.977982 773.01746 826.16931 4288776065
19.658716 773.01746 826.16931 4288512635
22.339449 772.33429 825.59326 4285881175
25.913761 773.01746 826.16931 4288184191
28.594496 772.33435 825.59326 4284634198
31.27523 772.33435 825.59326 4282727747
34.849541 772.33435 825.59326 4283452760
37.530273 772.33435 825.59326 4282926414
39.317432 771.65118 825.01721 4282202197
-42.891743 774.38379 827.32129 4279176225
-41.104588 774.38379 827.32129 4279176225
-33.955963 774.38379 827.32129 4282727468
-19.658716 774.38379 827.32129 4286543733
-16.977982 774.38379 827.32129 4286608236
-13.403669 774.38379 827.32129 4287528572
-1.787156 774.38379 827.32129 4287792258
1.787156 774.38379 827.32129 4288054403
4.4678898 774.38379 827.32129 4288119946
8.042202 774.38379 827.32129 4288514968
10.722936 774.38379 827.32129 4288646526
13.403669 774.38379 827.32129 4288711811
16.977982 774.38379 827.32129 4288842632
19.658716 774.38379 827.32129 4288711556
22.339451 774.38379 827.32129 4288712068
25.913761 774.38379 827.32129 4288448911
28.594496 774.38379 827.32129 4286674536
31.27523 774.38379 827.32129 4283122242
34.849541 774.38379 827.32129 4283385684
37.530273 774.38379 827.32129 4282530374
40.087158 776.59955 825.2655 4282465096
43.650459 776.59955 825.2655 4285093216
46.322937 776.59955 825.2655 4286015086
48.995415 776.59955 825.2655 4283645765
-40.977982 779.32373 827.5625 4282662725
-1.7816514 779.32373 827.5625 4282992969
19.598166 779.32373 827.5625 4283447360
22.567583 778.86969 827.17969 4283843894
25.833946 778.6427 826.98822 4283384118
28.506422 778.6427 826.98822 4283188779
31.178898 778.6427 826.98828 4283451456
34.742203 778.6427 826.98822 4283517010
37.41468 778.6427 826.98822 4283582803
40.087158 778.6427 826.98828 4283319373
43.650459 778.6427 826.98828 4285881701
46.322937 778.6427 826.98822 4287986809
48.698471 778.41571 826.79681 4288512632
31.082569 782.88904 826.64441 4283713849
34.634861 782.88904 826.64441 4283517262
37.299084 782.88904 826.64441 4285030501
39.963303 782.88904 826.64441 4284111203
43.515594 782.88904 826.64441 4285556834
47.06789 782.88904 826.64441 4288645493
49.732109 782.21008 826.07196 4289696646
52.396332 781.53113 825.49951 4290485389
85.255043 782.21008 826.07196 4294899967
87.031189 782.21008 826.07196 4294899967
-1.7761468 784.24689 827.78943 4283256141
19.537615 784.24689 827.78943 4286211155
22.201836 784.24689 827.78943 4286341457
25.754128 784.24689 827.78943 4286209115
28.418348 784.24689 827.78943 4284634691
31.049541 784.97986 827.09943 4283583042
34.563301 785.71283 826.40942 4283385932
37.222019 785.71283 826.40942 4285293157
39.921101 784.97986 827.09943 4284503905
43.42569 785.71283 826.40942 4286409842
46.970642 785.71283 826.40942 4289106042
49.629356 785.71283 826.40942 4289632656
52.288074 784.35773 825.26685 4290486162
55.833027 784.35773 825.26685 4290815129
70.899086 785.03528 825.83813 4291476419
73.5578 785.03528 825.83813 4294965247
77.102753 785.03528 825.83813 4294702590
79.761467 785.03528 825.83813 4294966527
82.420181 785.03528 825.83813 4294834942
85.255043 784.24689 827.78943 4294769150
87.031189 784.24689 827.78943 4294637308
31.018349 787.06787 827.552 4284374109
34.563301 787.06787 827.552 4283650138
38.108257 787.06787 827.552 4284109412
40.766972 787.06787 827.552 4285031033
43.42569 787.06787 827.552 4287922829
46.970642 787.06787 827.552 4289108127
70.899086 787.06787 827.552 4294175212
73.5578 787.06787 827.552 4294702330
77.102753 787.06787 827.552 4294439676
82.420181 787.06787 827.552 4294506494
85.078896 787.06787 827.552 4294769150
31.216513 791.5141 827.37677 4282138953
34.455963 791.28894 827.18689 4283453276
37.695412 791.5141 827.37677 4284240481
40.640366 791.28894 827.18695 4286739584
43.290825 791.28894 827.18689 4287267735
46.824768 791.28894 827.18689 4289174965
49.475231 790.61353 826.61749 4289766319
51.683945 790.27582 826.33276 4290226352
55.65963 789.26263 825.47852 4290092179
58.310093 789.26263 825.47852 4290683541
60.960548 789.26263 825.47852 4288514700
64.494492 789.26263 825.47852 4283451692
68.028442 789.26263 825.47852 4290223478
70.678902 791.28894 827.18695 4294833151
73.329361 791.96436 827.75647 4294768126
76.863304 791.28894 827.18695 4294702846
79.513763 790.61353 826.61749 4294571518
81.280731 791.96436 827.75647 4294768383
52.844036 794.1507 825.6759 4290686139
55.486237 794.1507 825.6759 4289829273
59.009174 794.1507 825.6759 4289237894
61.651375 794.1507 825.6759 4287989371
64.293579 794.1507 825.6759 4291145362
67.816513 794.1507 825.6759 4294962671
33.467892 796.84399 827.94678 4280428336
40.51376 796.84399 827.94678 4280952632
43.155964 796.84399 827.94678 4280821800
45.798164 796.84399 827.94678 4281017923
49.321102 796.17065 827.37909 4285885823
52.844036 796.17065 827.37909 4286348169
55.486237 796.17072 827.37909 4288187024
59.009174 796.17065 827.37915 4291935156
61.651375 796.17065 827.37909 4292725952
64.293579 795.49738 826.8114 4293318613
68.110092 795.94623 827.18988 4294635775
59.702751 800.36438 826.99097 4293714161
61.458717 800.36438 826.99097 4294965247
64.092659 799.69312 826.42505 4294768123
67.311928 799.91693 826.61371 4294768382
63.082569 803.1532 826.72632 4293516267
67.463303 803.1532 826.72632 4294834175
63.958717 804.49286 827.85596 4292465897
67.463303 804.49286 827.85596 4294900991
68.124771 807.99359 826.88354 4294703615
-63.6422 750.70642 829.59375 4290623690
-60.611622 751.16974 829.98444 4287860391
-58.187157 751.40149 830.17981 4286217618
-55.762691 751.16974 829.98444 4287861927
-52.732109 750.70642 829.59375 4289308343
-50.004585 750.70642 829.59375 4283057742
-46.367889 750.70642 829.59375 4278190593
-43.640366 750.70642 829.59375 4279175178
-40.912842 750.70642 829.59375 4282990420
-36.973087 751.16974 829.98444 4281479259
-34.548622 751.40149 830.17981 4279046206
-31.8211 750.70642 829.59375 4278190627
-28.184402 750.70642 829.59375 4280757305
-25.456881 750.70642 829.59375 4287926177
-22.729359 750.70642 829.59375 4292005350
-16.365137 750.70642 829.59375 4290361033
-13.637615 750.70642 829.59375 4289835732
-9.0917435 752.09656 830.76587 4280297559
-7.2733946 752.09656 830.76587 4279707709
-67.075226 754.34186 828.73486 4282530142
-64.355965 754.34186 828.73486 4282727512
-61.636696 754.34186 828.73486 4282333270
-54.385323 754.34186 828.73486 4282994800
-52.572475 754.34186 828.73486 4282468456
-49.85321 754.34186 828.73486 4279902020
-46.227524 754.34186 828.73486 4278390026
-43.508255 754.34186 828.73486 4278191372
-40.78899 754.34186 828.73486 4278585368
-37.163303 755.03479 829.31915 4278977823
-34.444038 755.72778 829.90344 4279239968
-31.72477 754.34186 828.73486 4278191635
-28.099083 754.34186 828.73486 4278915598
-25.379816 754.34186 828.73486 4281020506
-10.877064 754.34186 828.73486 4280889697
-36.14679 759.35059 829.03394 4280095779
-90.091743 762.9649 828.15735 4280623919
-88.289909 762.9649 828.15735 4280492333
-72.073395 763.65369 828.7381 4280428337
-70.271561 762.9649 828.15735 4280165165
-67.56881 763.65369 828.73804 4280494130
-63.965141 763.65369 828.7381 4280100400
-61.262386 763.65369 828.7381 4280690736
-58.559635 763.65363 828.73804 4280822323
-54.955963 763.65369 828.7381 4280493616
-52.253212 762.9649 828.15735 4280428336
-49.250153 763.42407 828.54449 4279639075
-45.946789 762.9649 828.15735 4279442212
-40.240978 763.42407 828.54449 4279965988
-36.937614 762.9649 828.15735 4280032035
-31.532112 762.9649 828.15735 4279637276
-27.92844 762.9649 828.15735 4279966241
-25.225689 762.9649 828.15735 4280360997
-79.038528 767.94415 828.43164 4280231464
-75.445869 767.94415 828.43164 4280165671
-72.861465 766.83203 829.45599 4280363050
-70.056877 767.94415 828.43164 4280692015
-67.464218 766.83203 829.45599 4280428337
-64.866058 765.71997 830.48035 4280099372
-61.973396 767.94415 828.43164 4280361517
-58.468807 766.83203 829.45599 4280953135
-54.955963 765.71997 830.48035 4279836708
-52.093578 767.94415 828.43164 4279509802
-49.399082 767.94415 828.43164 4279770407
-46.704586 767.94415 828.43164 4279376670
-44.908257 767.94415 828.43164 4279310621
-40.417431 767.94415 828.43164 4279244831
-37.722935 767.94415 828.43164 4279442464
-35.926605 767.94415 828.43164 4280096280
-31.43578 767.94415 828.43164 4280557092
-28.741285 767.94415 828.43164 4280755230
-26.046789 767.94415 828.43164 4281083169
-23.352293 767.94415 828.43164 4281542693
-79.038528 769.31744 829.5896 4278650631
-76.34404 769.31744 829.5896 4279046420
-73.649544 769.31744 829.5896 4279310623
-70.655663 770.23297 830.36157 4279769363
-67.362381 770.00415 830.16858 4278588185
-64.667892 770.6908 830.74756 4278916369
-61.973396 770.00415 830.16858 4279047707
-58.380737 770.00409 830.16858 4279704615
-55.686237 770.00415 830.16858 4278849818
-52.991741 770.00415 830.16858 4278982946
-49.399078 770.00415 830.16858 4278653220
-46.704586 769.31744 829.5896 4278717980
-39.519264 769.31744 829.5896 4279308561
-37.722935 769.31744 829.5896 4279769112
-35.926605 769.31744 829.5896 4280162825
-31.43578 769.31744 829.5896 4282923062
-28.741285 770.00415 830.16858 4283978307
-26.944954 770.00415 830.16858 4284570187
-91.332108 772.90656 828.69177 4278649600
-88.645874 772.90656 828.69177 4278321152
-85.064224 772.90656 828.69177 4278190095
-82.377983 772.90656 828.69177 4278190350
-79.691742 772.90656 828.69177 4278191110
-76.110092 772.90656 828.69177 4278718990
-73.423851 772.90656 828.69177 4278981913
-46.561466 772.90656 828.69177 4278717984
-44.770641 772.90656 828.69177 4278586655
-39.398167 772.90656 828.69177 4281019679
-37.607338 772.90656 828.69177 4282072623
-35.816513 772.90656 828.69177 4282595883
-31.339451 772.90656 828.69177 4283978038
-25.07156 772.90656 828.69177 4285293909
-22.385321 772.90656 828.69177 4285820004
-10.744954 772.90656 828.69177 4288055157
-8.0587158 772.90656 828.69177 4287857786
-4.4770641 772.90656 828.69177 4287463292
0 772.90656 828.69177 4287922817
-91.332108 774.27563 829.84619 4280426790
-88.645874 774.27563 829.84619 4280426790
-85.064224 774.27563 829.84619 4279901993
-82.377983 774.27563 829.84619 4279312422
-79.691742 774.27563 829.84619 4278982682
-76.110092 774.27563 829.84619 4278981911
-73.423851 774.27563 829.84619 4279047452
-49.247707 774.27563 829.84619 4280164913
-46.561466 774.27563 829.84619 4279768611
-43.831192 775.01282 829.15973 4280689712
-40.21101 775.75006 828.47327 4282532168
-37.530273 775.75006 828.47327 4282927178
-34.849541 775.75006 828.47327 4283519045
-31.306423 775.01282 829.15973 4284438101
-28.653212 774.27563 829.84619 4284636245
-25.966972 774.27563 829.84619 4284900189
-22.339451 775.75006 828.47327 4285163879
-19.658716 775.75006 828.47327 4285426540
-16.977982 775.75006 828.47327 4285886312
-13.403669 775.75006 828.47327 4286280305
-10.722936 775.75006 828.47327 4286478451
-8.042202 775.75006 828.47327 4286544501
-4.4678898 775.75006 828.47327 4286215027
-1.787156 775.75006 828.47327 4286214259
0.89357799 775.75006 828.47327 4286410094
4.4678898 775.75006 828.47327 4286280053
8.042202 775.75006 828.47327 4286082424
10.722936 775.75006 828.47327 4286015336
13.403669 775.75006 828.47327 4285619808
16.977982 775.75006 828.47327 4284830547
19.658716 775.75006 828.47327 4284765264
21.445871 775.75006 828.47327 4284569939
-82.209175 778.48267 830.77734 4280426540
-75.954132 778.48267 830.77734 4280363050
-46.466057 778.48267 830.77734 4280361249
-43.78532 777.11639 829.62537 4281084207
-39.317432 777.11639 829.62537 4282794056
-37.530273 777.11639 829.62537 4282465092
-34.849541 777.11639 829.62537 4283519050
-31.27523 777.79956 830.20142 4282336836
-28.594496 778.48267 830.77734 4278194714
-25.6159 778.02728 830.39337 4279705383
-22.339449 777.79956 830.20142 4280493097
-19.658716 777.79956 830.20135 4280624164
-17.275841 777.57178 830.00934 4281545263
-13.403669 777.7995 830.20135 4280690465
-10.722936 777.79956 830.20135 4280558626
-8.3400612 777.57184 830.00934 4281216811
-4.4678898 777.79956 830.20142 4280362531
0.59571868 777.57178 830.00934 4281546797
4.4678898 777.11639 829.62537 4282795590
7.7443428 777.57184 830.00934 4281743923
10.722936 777.11639 829.62537 4283056196
13.403669 777.11639 829.62537 4283185732
16.977982 777.11639 829.62537 4283315521
89.357796 778.48267 830.77734 4294768383
91.144951 778.48267 830.77734 4294967295
-46.322937 782.04791 829.85938 4280229663
-43.650455 781.36688 829.28516 4280624169
-40.087158 781.36688 829.28516 4280820783
-37.41468 781.36688 829.28516 4280951601
-34.742203 781.36688 829.28516 4281018930
-32.069725 782.04791 829.85938 4280428838
-22.270641 782.04791 829.85938 4278978592
-19.598166 782.04791 829.85938 4278386712
-16.628746 781.59393 829.47656 4278387207
-13.362385 782.04791 829.85938 4279308561
-10.689908 782.04791 829.85938 4279837206
-7.7204895 781.59393 829.47656 4279441431
-4.4541283 782.04791 829.85938 4281941056
-1.7816514 780.68585 828.71094 4278194954
1.1877676 781.59393 829.47656 4281941801
4.4541283 781.36688 829.28516 4281480993
8.314373 781.59393 829.47656 4282926645
10.689908 781.36688 829.28516 4282727727
13.362385 781.36688 829.28516 4283186734
16.925688 781.36688 829.28516 4284368953
19.598166 780.68585 828.71094 4283841332
22.270641 780.68585 828.71094 4284038952
25.833946 780.68585 828.71094 4283712047
28.506422 780.68585 828.71094 4283449629
89.082565 782.04791 829.85938 4294703103
-7.1045871 785.60474 828.93433 4281018677
-4.4403667 785.60474 828.93433 4282399811
-1.7761468 785.60474 828.93433 4284109653
14.209174 785.60474 828.93433 4286080602
16.873394 785.60474 828.93433 4285948249
19.537615 785.60474 828.93433 4286407777
22.201836 785.60474 828.93433 4287064163
25.754128 785.60474 828.93433 4287787895
28.418348 785.60474 828.93433 4285820005
87.031189 785.60474 828.93433 4294637308
-15.985321 786.96265 830.07922 4280427042
-10.65688 786.96265 830.07922 4280492583
-7.9926605 786.96265 830.07922 4280426793
-4.4403667 786.96265 830.07922 4280821035
-1.772477 788.42297 828.69458 4281741873
1.7761468 786.96265 830.07922 4283253299
3.5522935 786.96265 830.07922 4283188019
8.8807335 786.96265 830.07922 4283582792
10.65688 786.96265 830.07922 4283714382
13.3211 786.96265 830.07922 4283714382
16.85688 787.69281 829.3869 4283648590
19.497248 788.42297 828.69458 4283582542
22.155964 788.42297 828.69458 4285290580
25.700916 788.42297 828.69458 4285619045
28.359632 788.42297 828.69458 4284965989
30.132111 788.42297 828.69458 4285097832
38.994495 788.42297 828.69458 4285292907
73.5578 788.42297 828.69458 4294834174
82.420181 788.42297 828.69458 4294637310
85.078896 788.42297 828.69458 4294702590
87.031189 786.96265 830.07922 4294834175
-15.952293 791.13312 830.97974 4279967786
-13.293577 791.13312 830.97974 4280294954
-10.634862 791.13312 830.97974 4279968035
-7.6807342 790.6814 830.59888 4280098343
-4.4311924 790.45557 830.40845 4280163369
-1.772477 790.45557 830.40845 4279834403
5.317431 791.13312 830.97974 4279965989
7.0899081 791.13312 830.97974 4280097325
10.634862 791.13312 830.97974 4280556843
13.58899 790.6814 830.59888 4280097316
17.133944 790.22974 830.21802 4280031263
19.497248 790.45557 830.40845 4280557350
22.155964 789.77802 829.83716 4280755755
25.700916 789.77802 829.83716 4280559923
28.359632 789.77802 829.83716 4280692015
83.306419 790.45557 830.40845 4294900223
85.669716 790.6814 830.59888 4294834942
-7.0678897 794.66614 830.03455 4280163368
-4.4174314 794.66614 830.03455 4280162855
-1.7669724 794.66614 830.03455 4280293927
5.3009176 794.66614 830.03455 4280031782
10.601835 794.66614 830.03455 4280884261
13.252294 794.66614 830.03455 4280622376
16.491743 794.21582 829.65485 4280163369
19.436697 794.66614 830.03455 4280492333
22.087156 793.99066 829.46503 4280426790
25.621101 793.99066 829.46503 4280033832
28.271559 793.99072 829.46503 4280099627
30.922016 793.99066 829.46503 4280625717
34.750458 793.76556 829.27521 4280559156
37.989906 793.99066 829.46503 4281281596
40.640366 793.31525 828.89551 4284042080
43.290825 793.31525 828.89551 4285163343
47.119263 793.76556 829.27521 4285623153
51.242203 793.99072 829.46503 4286609546
70.678902 793.99072 829.46503 4294702332
73.329361 793.99072 829.46509 4294702590
76.863304 793.99072 829.46509 4294702591
79.513763 793.99072 829.46503 4294966527
81.280731 793.99072 829.46503 4294965759
29.944954 799.53735 830.21777 4280820521
31.706423 798.86401 829.65002 4280820531
34.348625 798.86401 829.65002 4280754991
37.871559 798.86401 829.65002 4281149492
40.51376 798.86401 829.65002 4281609533
43.155964 798.86401 829.65002 4281412402
46.678894 798.86401 829.65002 4281216831
49.321102 798.86401 829.65002 4281283143
51.963303 798.86401 829.65002 4281547337
55.486237 798.86401 829.65002 4283717997
58.128441 798.19067 829.08228 4292728048
70.458717 799.53735 830.21777 4294506239
72.220184 799.53735 830.21777 4294638079
58.824772 802.37805 828.68896 4282863213
61.458717 802.37805 828.6889 4288981450
64.970642 801.70685 828.12292 4294964735
40.387157 804.39172 830.38672 4280559923
42.14312 804.39172 830.38672 4280757558
56.190826 804.39172 830.38672 4282073164
58.824768 804.39172 830.38672 4282797661
61.458717 804.39172 830.38672 4282863972
63.958717 805.83246 828.98547 4287142582
66.587158 805.83246 828.98547 4293519095
71.116516 804.39172 830.38672 4294899967
75.506424 804.39172 830.38672 4294834428
59.57798 807.17212 830.11499 4283191911
61.330276 807.17212 830.11499 4283126118
63.958717 807.17212 830.11499 4285499806
67.251373 809.32898 828.00952 4292992756
70.091743 807.17212 830.11499 4294966015
67.542503 811.10956 829.51093 4292861164
-5.4660549 750.59973 832.11975 4279378745
-72.073395 767.09747 831.64185 4280098077
-64.866058 767.09747 831.64185 4278786844
-70.955048 772.75073 832.4845 4279967013
-67.362381 772.75073 832.4845 4280032033
-64.667892 772.75073 832.4845 4280163870
-61.973396 772.75073 832.4845 4280294432
-58.380737 772.75073 832.4845 4280688424
-55.686237 772.75073 832.4845 4280556840
-52.991745 772.75073 832.4845 4280230438
91.612846 773.43738 833.06348 4294967295
-88.645874 775.64478 831.00061 4280885807
-85.064224 775.64478 831.00061 4280624421
-82.377983 775.64478 831.00061 4280033829
-79.691742 775.64478 831.00061 4279770657
-76.110092 775.64478 831.00061 4280231718
-73.423851 775.64478 831.00061 4279968287
-49.247707 775.64478 831.00061 4280362543
-46.561466 775.64478 831.00061 4280558376
-28.653212 775.64478 831.00061 4282861385
-26.862385 775.64478 831.00061 4282861385
-88.645874 777.69843 832.73206 4281148203
-85.064224 777.69843 832.73206 4280754728
-82.377983 778.38293 833.30933 4280099120
-79.691742 777.69836 832.73212 4280099113
-75.954132 779.84894 831.92944 4280165671
-73.423851 777.69836 832.73212 4280297257
-70.73761 778.38293 833.30933 4280624421
-67.45443 777.92657 832.9245 4280623651
-64.469727 778.38293 833.30933 4280426790
-57.306423 778.38293 833.30933 4280099622
-55.515594 777.69836 832.73212 4280296230
-52.829353 777.69836 832.73212 4280492583
-49.19725 778.4314 832.04218 4280295977
-30.381651 779.84894 831.92944 4280231716
-28.594496 779.84894 831.92944 4278588965
-25.913761 779.84894 831.92944 4278783779
92.038528 779.84894 831.92944 4294967295
94.018349 777.69836 832.73212 4294967039
-75.954132 781.21527 833.08142 4280034855
-73.273392 781.21527 833.08142 4280428586
-52.7211 781.21527 833.08142 4280754728
92.932114 781.21527 833.08142 4294966527
94.719269 781.21527 833.08142 4294967295
-48.995411 784.09106 831.58215 4280623406
-46.322937 784.09106 831.58215 4280295204
-43.650459 784.09106 831.58215 4280426280
-40.087158 784.09106 831.58215 4280426283
-37.41468 784.09106 831.58215 4280360747
-34.742203 784.09106 831.58215 4280492069
-31.178898 784.09106 831.58215 4280491817
-28.506422 784.09106 831.58215 4280558128
-25.833944 784.09106 831.58215 4280294695
-22.270641 784.09106 831.58215 4280623915
-19.598166 784.09106 831.58215 4280360747
-17.22263 783.86407 831.39081 4280427045
-13.362385 784.09106 831.58215 4280427295
-10.689908 783.41003 831.00793 4280820773
-8.9082565 783.41003 831.00793 4281083689
0.59388381 783.86407 831.39081 4284436290
4.7510705 783.86407 831.39081 4284962888
7.7204895 783.86407 831.39081 4285159760
10.689908 783.41003 831.00793 4286276709
12.47156 783.41003 831.00793 4286079330
89.082565 784.09106 831.58215 4294703102
90.86422 784.09106 831.58215 4294967295
-48.995415 786.13416 833.30481 4280297007
-46.322937 786.13416 833.30481 4279968035
-43.650459 786.13416 833.30481 4279967785
-40.087158 786.13416 833.30481 4280229934
-37.41468 786.13416 833.30481 4280360747
-34.742203 786.13416 833.30481 4280229411
-31.178898 786.13416 833.30481 4280360747
-28.506422 786.13416 833.30481 4280033579
-25.833946 786.13416 833.30481 4280033576
-22.201836 788.3205 831.22412 4280099625
-19.537615 788.3205 831.22412 4280099372
-16.873394 788.3205 831.22412 4280360997
-13.3211 788.3205 831.22412 4280360997
-10.65688 788.3205 831.22412 4280426790
-8.8807335 788.3205 831.22412 4280360997
0.88807338 788.3205 831.22412 4279637276
4.4403667 788.3205 831.22412 4280030488
7.9926605 788.3205 831.22412 4280163618
10.65688 788.3205 831.22412 4280426790
12.433027 788.3205 831.22412 4280097825
87.919266 788.3205 831.22412 4294966783
91.755051 786.13416 833.30481 4294967295
-33.746788 791.03625 833.51404 4280099622
-31.082569 791.03625 833.51404 4280165421
-28.418348 790.3573 832.94159 4279573792
-25.754128 790.35736 832.94159 4280100392
-22.201836 790.35736 832.94159 4279968808
-19.537615 790.3573 832.94159 4279837223
-17.761467 789.67841 832.36914 4279967786
0.88807338 789.67841 832.36914 4279965483
3.5522935 789.67841 832.36914 4280097575
8.8807335 789.67841 832.36914 4280426290
88.807343 790.3573 832.94159 4294967295
91.471558 790.35736 832.94159 4294966527
-21.269724 793.84326 833.26477 4280099622
-19.497248 793.84326 833.26477 4279968035
-17.133945 792.93988 832.50311 4279575336
-13.293577 792.48816 832.12219 4279968035
-10.634862 793.16571 832.69348 4279771417
-8.8623857 792.48816 832.12219 4279639836
0.88623852 793.16571 832.69348 4280097576
3.5449541 792.48816 832.12219 4280163368
7.9761467 792.48816 832.12219 4280556843
83.306419 792.48816 832.12219 4294966271
85.965134 793.16571 832.69348 4294900991
88.623856 793.84326 833.26477 4294966783
-15.902752 796.69238 831.74304 4279837476
-13.252294 796.69244 831.74304 4279968035
-7.951376 796.69238 831.74304 4279967777
-4.4174314 796.69238 831.74304 4280032808
-1.7669724 796.69238 831.74304 4280098602
4.4174314 796.69238 831.74304 4280097825
7.9513764 796.69244 831.74304 4280359970
10.601835 796.69238 831.74304 4280425510
13.252294 796.69238 831.74304 4280294439
16.78624 796.69238 831.74304 4279900972
19.436697 796.69238 831.74304 4280098870
22.087158 796.69238 831.74304 4280426540
25.621101 796.69244 831.74304 4280230188
28.271559 796.69238 831.74304 4280361254
30.038532 796.01697 831.17358 4280428586
70.678902 796.01697 831.17358 4294900735
73.623856 796.46729 831.55322 4294769150
76.863304 796.69244 831.74304 4294768639
79.513763 796.69238 831.74304 4294966271
82.164215 796.69238 831.74304 4294965759
84.814682 797.36786 832.3125 4294702590
-7.951376 798.71869 833.45154 4280360744
-4.4174314 798.71869 833.45154 4280163370
-1.7669724 798.71869 833.45154 4280426540
4.4174314 798.71869 833.45154 4279705127
7.951376 798.71869 833.45154 4280163369
10.601835 798.71869 833.45154 4280360495
13.252294 798.71869 833.45154 4280163370
16.78624 798.71869 833.45154 4279900970
19.436697 798.71869 833.45154 4280033329
22.051376 799.80133 832.4024 4279967786
25.541285 800.88397 831.35327 4280099372
29.06422 800.88397 831.35327 4280820521
31.706423 800.88397 831.35327 4281082433
34.348625 800.88397 831.35327 4280951352
37.871559 800.88397 831.35327 4281017907
40.51376 800.88397 831.35327 4281018677
43.155964 800.88397 831.35327 4281216306
46.678898 800.88397 831.35327 4281349187
49.321102 800.88397 831.35327 4282005574
51.963303 800.88397 831.35327 4282071884
55.486237 800.88397 831.35327 4281612623
70.458717 800.88397 831.35327 4294966015
73.100922 800.88397 831.35327 4294965759
76.744949 799.80133 832.4024 4294768383
79.266052 800.88397 831.35327 4294834175
82.164215 798.71869 833.45154 4294899967
84.814682 798.71869 833.45154 4294966015
16.733946 803.57733 833.62415 4280097825
19.376146 803.57733 833.62415 4280229667
22.311926 803.12842 833.24561 4280164390
25.541285 802.90399 833.0564 4280427044
29.06422 802.90399 833.0564 4280623391
31.706423 802.90399 833.0564 4280951084
34.348625 802.90399 833.0564 4280951852
37.577984 802.6795 832.86719 4280821807
44.036697 802.90399 833.0564 4280757558
46.678898 802.90399 833.0564 4281347130
49.321102 802.90399 833.0564 4281610057
51.963303 802.90399 833.0564 4282137161
54.605503 802.90399 833.0564 4282335043
73.981651 802.23065 832.48865 4294967295
77.504585 802.90399 833.0564 4294834175
79.266052 802.90399 833.0564 4294768383
81.027519 803.57733 833.62415 4294702844
38.631191 805.73419 831.51868 4280821298
40.387157 805.73419 831.51868 4280689712
42.14312 805.73419 831.51868 4280559923
56.190826 805.73419 831.51868 4282532168
57.946789 805.73419 831.51868 4283519064
71.994499 805.73419 831.51868 4294965759
73.750458 805.73419 831.51868 4294966527
75.506424 805.73419 831.51868 4294834428
31.60734 808.41907 833.78247 4281213478
34.241287 807.74786 833.21655 4281148460
37.753212 807.74786 833.21655 4280820271
40.387157 807.74786 833.21655 4281018166
43.021103 807.7478 833.21655 4280888114
46.533028 807.7478 833.21655 4281347642
50.044956 807.74786 833.21655 4281545293
52.678898 808.41907 833.78247 4282334535
55.312843 807.74786 833.21655 4282268741
58.732113 808.82281 832.16083 4283584095
61.330276 809.18164 831.80933 4284373360
63.958714 809.18164 831.80933 4282803319
66.587158 809.85144 832.37415 4288716987
71.005508 808.82281 832.16089 4294966271
73.750458 807.74786 833.21655 4294967039
76.344955 808.10596 832.8645 4294900223
79.018349 807.74786 833.21655 4294900223
42.055046 811.19104 833.50366 4281150769
46.43578 811.19104 833.50366 4281020474
49.940369 811.19104 833.50366 4281546565
52.568806 811.19104 833.50366 4282268742
55.19725 811.19104 833.50366 4282267974
58.701836 811.19104 833.50366 4283649633
61.330276 811.19104 833.50366 4284176237
63.958717 811.19104 833.50366 4283849838
70.967896 811.19104 833.50366 4294966783
73.596329 811.19104 833.50366 4294965759
76.22477 811.19104 833.50366 4294966527
78.85321 811.19104 833.50366 4294966527
59.390827 814.67078 832.51355 4284572530
67.251373 814.00305 831.95056 4291874265
58.517433 816.00616 833.63953 4284047214
62.011009 816.00616 833.63953 4283651947
64.631195 816.00616 833.63953 4285361540
67.251373 816.00616 833.63953 4292859105
-70.955048 774.81067 834.22144 4280492583
-66.464218 774.81067 834.22144 4280361249
-64.667892 774.81067 834.22144 4280361249
-61.973396 775.49731 834.80035 4280426789
-58.680126 775.26837 834.60742 4280360997
-88.645874 779.75208 834.46375 4280951850
-85.064224 779.75208 834.46375 4280492333
-82.377983 779.75208 834.46375 4280099120
-79.691742 779.75208 834.46375 4279837226
-70.73761 779.75208 834.46375 4280953386
-67.15596 779.75208 834.46375 4280754728
-64.469727 779.75208 834.46375 4280492583
-61.877064 778.65466 835.50049 4280295978
-58.201836 779.75208 834.46375 4280099369
-55.515594 779.75208 834.46375 4280165671
-82.377983 781.12115 835.61816 4280099372
-79.393272 781.57758 836.00293 4280033828
-76.071556 782.17078 835.84912 4280100131
-73.273392 782.58154 834.2334 4280231464
-70.73761 781.80573 836.19531 4280493607
-67.15596 781.80573 836.19537 4280295977
-64.469727 781.80573 836.19537 4280558376
-61.783485 781.80573 836.19531 4280624172
-58.201836 781.80573 836.19531 4280427821
-55.458717 782.53589 835.50299 4280231211
-52.7211 782.58154 834.2334 4280624421
92.932114 782.58154 834.2334 4294967039
94.719269 782.58154 834.2334 4294967039
96.506424 782.58154 834.2334 4294967295
-73.273392 783.94788 835.3855 4279838753
-62.550457 785.31415 836.53748 4280624421
-58.082569 785.31415 836.53748 4280360747
-55.401836 785.31415 836.53748 4280558126
-52.7211 783.94788 835.3855 4280558376
94.719269 783.94788 835.3855 4294967039
96.506424 784.63098 835.96149 4294900991
-52.558716 788.17731 835.02759 4280755241
-48.995415 788.17731 835.02759 4280492330
-46.322937 788.17731 835.02759 4279968036
-43.650455 788.17731 835.02759 4280099113
-40.087158 788.17731 835.02759 4280492845
-37.41468 788.17731 835.02759 4280361000
-35.039143 787.95026 834.83618 4280099626
-31.178898 787.49628 834.45337 4280034085
94.427521 788.17731 835.02759 4294834174
-52.558716 790.22046 836.75024 4280622636
-48.995415 790.22046 836.75024 4280426288
-46.322937 790.22046 836.75024 4280099622
-43.650459 790.22046 836.75024 4280099369
-40.087158 790.22046 836.75024 4280690735
-37.41468 790.22046 836.75024 4280360997
-35.633026 790.22046 836.75024 4279968035
94.427521 790.22046 836.75024 4294967295
-33.746788 793.07312 835.23138 4279902243
-31.082569 793.07312 835.23138 4280229933
-28.418348 793.07312 835.23138 4280163874
-25.754129 793.07312 835.23138 4280295972
-22.497858 793.2995 835.42218 4280230693
91.471558 792.39417 834.65894 4294966271
95.023849 793.75208 835.80383 4294967039
-33.746788 795.10992 836.94885 4279639584
-31.082569 795.10992 836.94885 4280295204
-28.418348 795.10992 836.94885 4280491299
-25.754128 795.10992 836.94885 4280294434
-22.201836 795.10992 836.94885 4280230187
-19.497248 795.87585 834.97864 4279835946
-17.015781 796.8244 835.77844 4279967525
-13.293577 797.23096 836.12122 4280098596
-10.634862 796.55341 835.54999 4280229921
-8.8623857 797.90851 836.6925 4280491299
0.88623852 796.55347 835.54987 4279967783
86.851379 795.87585 834.97864 4294966527
88.623856 795.87585 834.97864 4294834175
91.28257 796.55347 835.54987 4294900223
93.941284 797.23096 836.12122 4294967295
-7.0678897 800.06958 834.59058 4280491299
-4.4174314 800.06958 834.59058 4280031266
-1.7669724 800.06958 834.59058 4280097575
4.4174314 800.06958 834.59058 4279770913
7.951376 800.06958 834.59058 4279770913
10.601835 800.06958 834.59058 4280097575
13.252294 800.06958 834.59058 4280097575
16.78624 800.06958 834.59058 4279967015
19.436697 800.06958 834.59058 4280033579
21.203671 800.06958 834.59058 4279967786
82.164215 800.06958 834.59058 4294769150
85.698166 800.06958 834.59058 4294966783
88.348625 800.06958 834.59058 4294768383
-3.5339448 801.42041 835.72961 4279966239
-1.7669724 802.09583 836.29913 4279900446
5.3009176 801.42041 835.72961 4279771176
7.951376 802.09583 836.29907 4280163616
10.601835 802.09583 836.29913 4280360738
13.252294 802.09583 836.29907 4280294688
16.78624 802.7713 836.86865 4280163103
19.436697 802.7713 836.86865 4280360997
21.203671 802.7713 836.86865 4280688429
83.047707 802.09583 836.29913 4294965759
85.698166 802.09583 836.29913 4294966783
88.348625 802.09583 836.29913 4294966271
90.115593 802.7713 836.86865 4294967039
22.899082 805.59729 835.32733 4280688431
25.541285 805.59729 835.32739 4280557349
29.06422 805.59729 835.32733 4281016875
31.706423 804.92395 834.75964 4281213482
52.844036 804.92395 834.75964 4281876033
81.027519 805.59729 835.32733 4294899709
34.241287 809.76154 834.91443 4280557096
37.753212 809.76154 834.91443 4280491050
40.387157 809.76154 834.91443 4280622636
43.899082 809.76154 834.91443 4281150769
80.774315 809.76154 834.91443 4294966271
37.753212 811.104 836.04639 4280622638
40.387157 811.104 836.04639 4280556591
42.93119 812.5307 834.63318 4281018927
46.43578 812.5307 834.63318 4280823351
49.940369 812.5307 834.63318 4281415236
52.568806 812.5307 834.63318 4282005574
55.19725 812.5307 834.63318 4282400332
57.825687 812.5307 834.63318 4284176487
61.330276 812.5307 834.63318 4284506737
63.958717 812.5307 834.63318 4283981425
70.967896 812.5307 834.63318 4294966527
73.596329 812.5307 834.63318 4294966783
76.22477 812.5307 834.63318 4294967039
79.813766 811.81738 835.33978 4294967039
82.530273 811.104 836.04639 4294966783
84.28624 811.104 836.04639 4294966783
46.727829 814.31689 836.13934 4280888631
49.940369 814.54016 836.32751 4281283394
52.568806 814.54016 836.32758 4281677129
55.19725 814.54016 836.32758 4282335568
59.57798 815.20996 836.89233 4284243570
61.330276 815.20996 836.89233 4283783019
70.967896 814.54016 836.32751 4294966527
73.596329 814.54016 836.32758 4294966783
76.22477 814.54016 836.32751 4294966783
79.437309 814.31689 836.13934 4294966527
57.644035 817.34161 834.76562 4283980389
62.884403 817.34161 834.76562 4283388007
64.631195 817.34161 834.76562 4286875035
67.542503 817.7868 835.14093 4293584877
-88.91835 778.9306 837.69519 4280951850
-85.325684 778.9306 837.69519 4280688685
-84.427521 780.30396 838.85315 4280426540
-82.631195 780.30396 838.85315 4280426540
-80.834862 780.30396 838.85315 4280426540
-75.811623 784.31573 838.31171 4280231717
-73.423851 784.54395 838.50409 4280100130
-70.43914 784.77216 838.69647 4280295971
-67.45443 784.31573 838.31171 4280098605
-64.469727 783.85938 837.92688 4280492835
-60.888073 783.85938 837.92688 4280426540
-66.124771 786.68042 837.68958 4280426540
-64.337616 786.68042 837.68958 4280231716
-61.656879 787.36359 838.2655 4280295717
-58.082569 787.36365 838.26556 4280426539
-55.401836 787.36359 838.26556 4280492335
97.102142 787.59131 838.45752 4294966783
-57.188992 789.41302 839.99353 4280622636
-55.401836 789.41302 839.99353 4280754478
-52.7211 789.41302 839.99353 4280754728
-49.069725 790.4978 838.94617 4280558131
-46.466057 789.41302 839.99353 4280361249
-43.650459 791.58252 837.8988 4280230439
-40.087158 791.58252 837.8988 4280033832
-37.41468 791.58252 837.8988 4280033829
-35.633026 791.58252 837.8988 4279770913
-40.087158 792.94464 839.04724 4280229930
-37.41468 792.94464 839.04724 4280099622
-35.633026 792.94464 839.04724 4279639584
-31.970642 796.46777 838.09375 4280229667
-28.418348 796.46777 838.09375 4280491299
-25.458105 796.92041 838.4754 4280491553
-22.201834 797.14673 838.6662 4280492069
-19.537615 797.14673 838.6662 4280360744
-17.761467 797.82568 839.23865 4280427042
-12.433027 797.82568 839.23865 4280360997
-10.65688 797.82568 839.23865 4280361249
-15.952293 799.26355 837.83508 4280427042
-14.179816 799.26355 837.83508 4280229667
-7.9761467 799.26355 837.83508 4279966491
-4.7266049 800.16699 838.59686 4279966494
0.88623852 799.94116 838.40637 4279048735
4.1357799 800.16699 838.59686 4279180833
91.57798 799.71527 838.216 4294966783
93.941284 799.9411 838.40637 4294967039
16.78624 804.12219 838.00769 4280162841
19.436697 804.79761 838.57715 4280032032
21.792662 805.02277 838.76691 4280490538
83.047707 804.12219 838.00769 4294966783
85.992653 804.57245 838.38739 4294966015
88.348625 804.79761 838.57715 4294899965
90.70459 805.02277 838.76691 4294966527
25.834862 808.06616 837.409 4280163616
29.06422 808.29059 837.59827 4280163872
31.706423 808.29065 837.59827 4280688679
34.348625 808.96393 838.16602 4280688682
82.788994 807.61731 837.03052 4294966271
85.431198 808.29065 837.59827 4294899966
88.073395 808.96393 838.16602 4294966271
31.706423 810.31061 839.30151 4280622886
34.348625 810.31061 839.30151 4280754477
37.753212 812.44641 837.17822 4280820017
40.387157 812.44641 837.17822 4280820271
43.021103 812.44641 837.17822 4281018677
82.530273 812.44641 837.17822 4294966783
85.164215 812.44641 837.17822 4294966783
88.816513 811.37854 838.23987 4294900735
38.631191 813.78888 838.31018 4281017394
40.387157 813.78888 838.31018 4281083187
43.313763 814.23633 838.6875 4281347129
46.240368 814.68384 839.06476 4281478454
50.044952 815.13135 839.44214 4281414979
73.750458 815.13135 839.44214 4294966271
76.384399 815.13135 839.44214 4294967295
80.188995 814.68384 839.06476 4294901247
82.530273 814.46008 838.87616 4294967295
84.871559 814.23633 838.6875 4294967039
87.798164 814.46008 838.87616 4294967039
52.568806 816.54962 838.02185 4281284427
54.905201 816.99615 838.39844 4282402646
58.701836 817.21948 838.58667 4284046186
61.330276 817.21948 838.58667 4284045423
63.958717 817.21948 838.58667 4286085001
67.171257 817.44269 838.7749 4292925155
70.967896 816.54962 838.02185 4294966783
-84.686241 779.49512 842.09521 4280556843
-82.884407 779.49512 842.09521 4280163372
-79.936691 781.67725 840.01111 4280362029
-71.85321 781.67725 840.01111 4280099622
-79.936691 783.05054 841.16907 4280558379
-76.643425 783.96606 841.9411 4279902754
-73.649544 784.42389 842.32703 4279771165
-70.955048 784.42389 842.32703 4280360997
-66.857491 787.05396 840.62054 4280492837
-64.469727 786.5976 840.23572 4280624421
-61.783485 787.96667 841.39014 4280492070
-59.097248 787.96667 841.39014 4280622886
-60.888073 789.33575 842.54443 4280426790
-58.201836 789.33575 842.54443 4280491817
-55.515594 789.33575 842.54443 4280754478
-52.7211 790.7793 841.14563 4280886057
-49.14679 790.7793 841.14563 4280623165
-46.466057 790.7793 841.14563 4280098077
-43.78532 790.7793 841.14563 4280360744
-43.78532 792.14563 842.29761 4280360744
-40.087158 794.3067 840.19568 4280230185
-37.41468 794.3067 840.19568 4280231464
-34.742203 794.3067 840.19568 4280689962
-30.288073 794.3067 840.19568 4280360997
-40.977982 795.66882 841.34424 4280360747
-37.41468 795.66882 841.34424 4280624421
-34.742203 796.34985 841.91846 4280623653
-31.1789 796.34985 841.91846 4280295456
-28.506422 796.34985 841.91846 4280360481
-26.724771 796.34985 841.91846 4280492068
-24.866055 799.18353 840.38354 4280623392
-22.201836 799.18353 840.38354 4280426528
-19.537615 799.18353 840.38354 4280229663
-16.873394 799.18353 840.38354 4280163870
-13.3211 799.18353 840.38354 4280034081
-10.65688 799.18353 840.38354 4279968035
-7.6966362 799.63617 840.7652 4279901731
-5.3284402 800.54144 841.52856 4279639334
0.88807338 800.54144 841.52856 4279966739
-3.5486238 801.93652 841.39685 4279966238
-1.7743119 801.93652 841.39685 4280032031
4.4357796 801.93646 841.39685 4280031008
7.9844036 801.93646 841.39685 4280163357
10.645871 801.93652 841.39685 4280622111
13.299999 802.29382 841.04419 4280227864
16.838531 803.3288 841.2627 4280031260
92.168808 801.97369 840.12024 4294967295
94.532104 802.42535 840.50104 4294967039
17.724771 804.68384 842.40527 4279900192
19.497248 804.68384 842.40527 4279966241
22.120182 805.75391 841.34546 4280424739
24.737616 806.82391 840.28564 4280361249
90.999084 806.82391 840.28564 4294966783
94.827522 804.68384 842.40527 4294967039
26.504587 808.17474 841.42468 4280163618
28.271559 808.85022 841.9942 4279901207
30.627523 809.07538 842.18408 4280361504
91.882568 808.85022 841.9942 4294900735
34.348625 811.65723 840.43689 4280754991
36.990826 811.65723 840.43689 4280820019
89.834862 811.65723 840.43689 4294966783
34.348625 813.00391 841.57239 4280689448
37.871559 813.67725 842.14014 4280886310
40.51376 813.67725 842.14014 4281083435
42.862385 813.90167 842.32941 4281083957
45.798164 814.35059 842.70789 4281282099
73.981651 814.35059 842.70789 4294966783
75.743118 814.35059 842.70789 4294967295
79.266052 814.35059 842.70789 4294967295
81.908257 814.35059 842.70789 4294967039
86.311928 813.67725 842.14014 4294967295
89.834862 813.67725 842.14014 4294967295
47.411011 816.47375 840.57397 4281413685
50.044952 817.14502 841.13995 4281414207
52.678898 817.14502 841.13995 4281546316
55.605503 817.36871 841.32861 4282400845
58.824768 817.81622 841.70593 4284637042
61.458717 817.81622 841.70593 4283979889
64.092659 817.81622 841.70593 4288056479
66.726608 817.81622 841.70593 4292662491
71.116516 817.14496 841.14001 4294966271
77.262383 816.47375 840.57397 4294967295
84.28624 816.47375 840.57397 4294967295
87.798164 816.47375 840.57397 4294967295
64.092659 819.15869 842.83789 4287860897
67.849541 819.18213 841.9856 4294703349
-91.54863 773.74493 845.09509 4280819239
-88.829361 773.74493 845.09509 4280688935
-86.752296 775.93127 843.0144 4280492333
-84.686241 780.87262 843.25671 4280754478
-82.884407 780.87262 843.25671 4280358950
-79.280731 782.25012 844.41821 4280033829
-76.57798 783.62769 845.57971 4279641635
-72.861465 784.7124 844.53229 4280034340
-70.271561 783.62769 845.57971 4280426790
-68.260551 785.79718 843.48486 4280426790
-64.667892 785.79718 843.48486 4280426790
-73.649544 788.54382 845.80078 4280558376
-64.667892 787.85718 845.2218 4280492070
-62.871559 787.17047 844.64282 4280426790
-59.2789 788.54382 845.80078 4280426790
-61.783485 790.7049 843.69885 4280492070
-57.306423 790.7049 843.69885 4280622886
-55.515594 790.7049 843.69885 4280688935
-52.829357 790.7049 843.69885 4280492835
-49.247707 790.7049 843.69885 4280426288
-46.561466 790.7049 843.69885 4280229667
-64.469727 792.07397 844.85327 4280427042
-61.783485 792.07397 844.85327 4280427042
-57.188992 794.87823 844.60168 4280099874
-55.515594 792.07397 844.85327 4280492835
-52.829357 792.07397 844.85327 4280427292
-43.875229 792.07397 844.85327 4280295207
-39.913151 794.42279 844.21771 4280492578
-37.530273 794.87823 844.60168 4280361249
-39.317432 796.24451 845.75366 4280229663
-37.530273 796.24451 845.75366 4280361249
-34.849541 796.24451 845.75366 4280425506
-31.27523 796.24451 845.75366 4280360470
-28.594496 796.24451 845.75366 4280096030
-26.807339 796.24451 845.75366 4280424739
-24.943119 798.39294 843.64111 4280557595
-22.270641 799.07404 844.21533 4280360476
-19.598166 799.07397 844.21539 4280294940
-16.925688 799.07404 844.21533 4279574045
-13.362385 799.07404 844.21533 4279574552
-10.689908 799.07397 844.21539 4279705377
-8.314373 799.30103 844.4068 4279639586
-5.344954 799.75507 844.78967 4279442212
0.89082569 799.75507 844.78967 4280228380
-19.598166 801.11713 845.93811 4280358444
-16.034863 801.11713 845.93811 4280293153
-7.1266055 801.11713 845.93811 4279639584
-4.4486237 802.18713 844.87823 4279638558
-1.7761468 803.2572 843.81836 4279900192
0.89082569 801.11713 845.93811 4279768862
4.4486237 802.18713 844.87823 4279834404
8.006422 802.18713 844.87823 4280032032
10.65688 803.2572 843.81836 4280491551
13.3211 803.2572 843.81836 4280162077
15.985321 803.2572 843.81836 4280096030
-1.7761468 804.61505 844.96338 4279768611
10.65688 804.61505 844.96338 4280229663
13.3211 804.61505 844.96338 4280031261
16.873394 804.61505 844.96338 4280031008
19.497248 806.03894 843.54785 4279966241
22.155964 806.03894 843.54785 4280491299
24.814678 806.03894 843.54785 4280229667
94.827522 806.03894 843.54785 4294967039
23.042202 807.39398 844.69043 4280360222
25.99633 807.8457 845.07129 4279900195
28.359632 808.74908 845.83301 4279900698
94.827522 807.39398 844.69043 4294966271
30.922018 810.87646 843.70276 4280361251
34.455963 812.22736 844.84167 4280492319
91.882568 811.55188 844.27222 4294967039
