# .PCD v0.7 - Point Cloud Data file format
VERSION 0.7
FIELDS x y z rgb
SIZE 4 4 4 4
TYPE F F F U
COUNT 1 1 1 1
WIDTH 1167
HEIGHT 1
VIEWPOINT 0 0 0 1 0 0 0
POINTS 1167
DATA ascii
42.981651 781.33887 784.78851 4289174695
44.557796 784.93005 783.8924 4291609027
44.557796 786.89532 785.54944 4292137179
46.742508 787.53735 783.47485 4293518060
46.950459 790.84949 784.30548 4292861402
49.433029 791.98267 783.29883 4293058796
82.084404 789.71637 785.31213 4294768383
47.160244 794.1546 785.13019 4284508294
49.326607 794.79388 783.05322 4292201954
51.027523 794.79388 783.05322 4293123306
76.541283 794.79388 783.05322 4294768637
79.092667 794.79388 783.05322 4294768383
47.625687 797.39459 785.24609 4281882477
49.326607 796.09424 784.14966 4289971697
76.541283 796.09424 784.14966 4294768637
79.092667 796.74438 784.69788 4294900222
81.644035 796.74438 784.69788 4294967039
47.471561 800.94446 784.31506 4282734453
49.166973 800.29639 783.76862 4283657093
70.359634 800.29639 783.76855 4294834174
73.750458 800.29639 783.76855 4294834174
76.858711 800.51239 783.95074 4294965759
83.075226 800.94446 784.31506 4294967295
47.471561 802.2406 785.40796 4283257715
49.906422 803.73743 784.05396 4284047486
52.444038 803.73743 784.05396 4292205815
54.981651 803.73743 784.05396 4293259003
67.669724 803.73743 784.05396 4294570488
70.284401 802.98901 784.73096 4294965502
73.750458 802.2406 785.40796 4294965759
77.141281 802.2406 785.40796 4294966015
79.684402 802.2406 785.40796 4294966527
83.075226 802.2406 785.40796 4294966271
49.906422 805.03082 785.14453 4283915637
52.444038 805.03082 785.14453 4290298322
54.981651 805.03082 785.14453 4294242552
57.519264 805.03082 785.14453 4294833406
67.669724 805.03082 785.14453 4294636799
70.207336 805.03082 785.14453 4294899711
55.64587 809.20557 784.74048 4294701567
58.343853 808.81879 784.41437 4294635773
61.547703 808.56104 784.19696 4294439933
64.920181 808.56097 784.19696 4294571518
62.255047 812.62494 785.00745 4294768895
63.937614 812.62494 785.00745 4294768895
29.383486 778.19781 788.68018 4287997364
31.976147 778.19781 788.68018 4288980984
34.568806 778.19781 788.68018 4289637083
25.844036 780.47675 786.67773 4281151562
27.566973 780.47675 786.67773 4281286222
37.330276 780.91583 787.04791 4290360274
39.627522 781.13538 787.23303 4289636285
37.904587 783.11115 788.89893 4285228677
40.853672 784.2464 787.89417 4286675334
42.981647 784.62482 787.55927 4290030771
44.557796 788.20551 786.65417 4291874493
44.557796 789.51569 787.75891 4280693310
46.172478 791.02374 786.41443 4283982960
82.084404 791.02374 786.41443 4294702591
44.462387 792.9848 788.06793 4280299332
44.319267 797.19531 787.69409 4281089101
46.023853 795.89215 786.59521 4282865258
44.319267 798.49847 788.79285 4282008652
45.92477 799.34521 786.89075 4282996323
79.943123 798.69501 786.34253 4294966527
81.644035 799.34521 786.89075 4294966527
44.223854 801.29572 788.5354 4281614410
46.698166 802.41626 787.51813 4283652975
73.750458 803.53674 786.50085 4294967039
77.141281 803.53674 786.50085 4294966271
79.943123 801.29572 788.5354 4294966783
82.494492 801.29572 788.5354 4294899711
46.906422 805.69702 788.32233 4284572534
49.906422 806.32416 786.23499 4284374901
52.444038 806.32416 786.23499 4290757077
54.13578 806.32416 786.23499 4293056745
67.669724 806.32416 786.23499 4294833406
70.207336 806.32416 786.23499 4294965247
73.671562 805.57849 786.91437 4294966783
77.141281 805.48102 788.14014 4294966527
79.684402 805.48096 788.1402 4294900479
82.227524 806.12909 788.68665 4294900735
49.906422 808.26422 787.87079 4284572278
52.444038 808.26416 787.87079 4290691030
54.13578 808.26416 787.87079 4292663013
67.669724 808.26416 787.87079 4294636797
70.207336 808.26416 787.87085 4294900479
73.590828 808.26422 787.87079 4294967039
82.895416 808.91089 788.41602 4294966783
55.64587 811.78381 786.91443 4294571519
58.175228 811.78387 786.91443 4294637055
61.266666 811.99872 787.09552 4294506239
65.763306 811.78381 786.91443 4294703102
58.175232 813.71759 788.54492 4294571519
61.547707 813.71759 788.54492 4294440188
64.592659 813.78217 787.72729 4294834687
25.062386 779.51923 789.79443 4280690761
28.579817 778.00275 791.13184 4285033847
32.044037 778.00275 791.13184 4288387259
34.568806 779.51923 789.79443 4289834439
36.297249 779.51923 789.79443 4290492370
25.062386 780.84064 790.90857 4280362548
27.655046 780.84064 790.90857 4282792006
34.568806 780.84064 790.90857 4284505985
36.297249 780.84064 790.90857 4284637572
37.330276 785.30646 790.75 4281018681
39.627522 784.42834 790.00952 4283847274
40.402752 787.91083 790.32996 4280822074
42.981651 787.91077 790.3299 4280625469
41.262386 789.88245 791.99219 4281480523
42.981651 789.88245 791.99219 4281217607
41.130276 793.44629 791.073 4281480773
42.844036 793.44629 791.073 4281152064
40.472172 797.12482 791.55878 4281873987
42.752293 796.25323 790.82385 4281939527
42.614677 799.80164 789.89172 4281939779
40.910091 801.10486 790.99048 4281742148
43.687458 802.53247 790.4502 4281677638
45.92477 802.59607 789.63184 4283783528
82.494492 802.59607 789.63184 4294834943
44.223854 805.19684 791.82471 4281875783
46.623856 808.0733 790.32581 4284309615
76.858711 807.85724 790.14374 4294966527
79.684402 808.0733 790.32587 4294966783
81.379814 807.42523 789.77942 4294900479
44.080734 810.01758 791.96521 4281612867
46.623856 810.01758 791.96521 4284113009
49.906422 811.49756 790.59717 4284112759
52.444042 811.49756 790.59717 4290494938
54.558716 811.49756 790.59717 4293124076
67.669724 811.49756 790.59717 4294900991
70.207336 811.49756 790.59717 4294966527
73.590828 811.49756 790.59711 4294966271
77.143486 811.75623 790.81519 4294900479
79.511925 812.14423 791.1424 4294899455
81.880363 811.23889 790.37903 4294966527
55.64587 815.00671 789.63184 4294768639
58.175232 815.00671 789.63184 4294637051
61.547707 815.00671 789.63184 4294636795
64.920181 815.00671 789.63184 4294967039
53.959633 817.58502 791.80579 4292663277
55.64587 816.94043 791.26233 4294636799
58.175228 816.94043 791.26233 4294504956
61.547707 816.94043 791.26233 4294834174
64.920181 816.94043 791.26233 4294967039
29.445871 779.32697 792.24841 4284831845
32.044037 779.32697 792.24841 4285292158
32.332722 781.09259 793.73712 4281609535
34.568806 782.16205 792.02271 4281742148
36.297249 782.16205 792.02271 4281939527
34.568806 784.14417 793.69403 4281018677
36.297249 784.80487 794.2511 4280952884
37.904587 787.72131 792.78613 4280886839
39.627522 788.37994 793.34143 4281544769
37.823853 791.19678 793.10046 4280689717
39.543118 791.19678 793.10046 4281150268
37.823853 792.51123 794.20874 4280754478
39.416515 794.75647 792.17773 4281609531
37.702751 797.37683 794.38721 4281018677
39.332111 799.52173 793.57971 4281478715
40.910091 803.05957 792.63867 4281215553
42.614677 803.05957 792.63867 4281873483
40.910091 805.01434 794.28687 4280757306
43.419266 805.75574 793.604 4281546820
42.522934 807.79755 794.01758 4281415232
44.080734 811.31372 793.05811 4281941830
46.906422 811.74579 793.42236 4284309878
69.511925 812.60986 794.151 4294901247
79.684402 812.60986 794.151 4294965247
49.906422 814.73096 793.32349 4283915381
52.444038 814.73096 793.32343 4290626520
54.13578 814.08429 792.7782 4292465639
67.669724 814.73096 793.32343 4294835199
71.053207 814.08429 792.7782 4294967295
73.590828 814.08429 792.7782 4294768127
76.974312 814.08429 792.7782 4294966271
81.203667 814.08429 792.7782 4294834175
50.752293 816.67096 794.95923 4283718255
52.444038 816.67096 794.95923 4290692313
54.981651 816.67096 794.95923 4293847285
58.365135 816.67096 794.95923 4294900479
61.748623 816.67096 794.95923 4294900479
65.132111 816.67096 794.95923 4294900479
25.195412 778.38489 795.37817 4280623667
28.670643 779.04907 795.93817 4281675579
31.277063 779.71332 796.49817 4279965739
31.277063 781.04175 797.61829 4280229162
32.910091 784.62378 796.71454 4280624170
34.6422 785.28589 797.27283 4280690735
34.568806 788.7691 797.59363 4280820271
36.297249 786.78699 795.92236 4280690991
36.181652 791.01434 795.56274 4280951600
34.458717 793.64874 797.78394 4280097325
36.729053 793.26862 796.59149 4281018168
37.702751 798.68701 795.49194 4281148980
37.702751 801.30737 797.70129 4280953134
39.332111 802.13647 795.78436 4281216562
40.121101 805.20752 796.41174 4281283129
40.910091 808.27234 797.03387 4280955707
42.568806 809.01086 796.34863 4281153086
44.223854 811.04846 796.75867 4282007626
45.92477 811.04846 796.75867 4284310125
47.471561 814.55408 795.79034 4284178557
49.166973 815.20215 796.33679 4283850107
67.816513 815.20215 796.33679 4294637308
70.359634 814.55408 795.79041 4294901247
73.750458 814.55408 795.79034 4294834943
77.141281 814.55408 795.79034 4294900479
79.684402 814.55408 795.79034 4294965503
50.014679 816.49835 797.42969 4284177784
52.444038 817.96436 796.04968 4291413470
54.981651 817.96436 796.04968 4294637560
58.365135 817.96436 796.04968 4294966783
61.816513 817.23132 796.73969 4294637055
65.132111 817.96436 796.04968 4294900735
79.684402 816.49835 797.42969 4294966271
25.288074 777.74121 799.41357 4280163625
28.761467 778.78381 799.63867 4280163874
26.14679 780.11646 800.76221 4278983457
28.761467 780.11646 800.76221 4279639843
31.277063 782.37012 798.7384 4280426790
29.53945 784.36279 800.41858 4280032795
31.277063 783.69855 799.85852 4280427042
31.75535 787.71362 799.31982 4280163618
32.840366 790.75122 799.26489 4280163874
34.568806 790.09052 798.70776 4280490800
32.840366 792.73328 800.93616 4280358946
34.458717 794.96594 798.89453 4280491050
36.181652 794.96594 798.89453 4281148980
34.458717 796.28314 800.00525 4280491050
37.002754 797.026 799.32355 4281018161
36.104588 799.74036 800.3042 4280558123
37.702751 803.27264 799.3584 4280493357
39.332111 806.05859 799.09143 4281217336
40.187157 808.01965 800.745 4281216053
43.277435 812.08466 799.72516 4281742911
45.92477 812.99902 798.40332 4284244079
47.058716 814.73285 799.86523 4284244601
49.326607 815.59973 800.59619 4283586165
68.036697 814.29938 799.49976 4294834943
70.588074 814.29938 799.49976 4294835454
73.706429 814.73285 799.86523 4294834943
76.541283 814.94958 800.04797 4294636799
79.092667 814.94958 800.04797 4294767871
50.862385 817.79449 798.52258 4285029751
52.557796 817.79449 798.52258 4292266982
55.100918 817.79449 798.52258 4294834431
58.491745 817.79449 798.52258 4294966527
61.882568 817.79449 798.52258 4294636798
64.42569 817.79449 798.52258 4294834687
66.121101 817.79449 798.52258 4294900479
64.42569 819.09064 799.61548 4294768383
24.455046 779.28174 802.67444 4279640100
26.14679 782.11542 802.44769 4280164131
27.889908 782.11542 802.44769 4280098588
29.53945 787.01965 802.65869 4279966477
31.177982 790.58276 801.73901 4280162593
29.445871 792.56909 803.41382 4280294173
31.976147 794.05469 802.05029 4280424739
31.976147 795.3761 803.16455 4280097825
34.458717 797.60034 801.11584 4280163368
32.735779 799.57617 802.78174 4279965984
34.458717 798.91754 802.22644 4280229667
34.385323 802.36914 802.52069 4279900196
36.104588 802.36914 802.52069 4280360747
37.702751 805.89301 801.56787 4280558376
35.988991 807.85828 803.22485 4280363566
37.702751 807.85828 803.22485 4280626222
40.187157 809.32703 801.84729 4281019953
40.187157 810.6344 802.94971 4281413169
43.466972 814.78815 802.52783 4282006596
46.592052 815.00531 802.711 4284310384
68.183487 814.78809 802.52789 4294900735
70.456268 814.57086 802.34473 4294834942
73.297249 815.4397 803.07727 4294769150
75.57003 815.00531 802.711 4294768639
78.97921 815.00531 802.711 4294833919
49.326607 816.90009 801.69263 4283389558
52.161469 817.33356 802.05811 4290097095
55.279816 817.55029 802.24084 4294834687
58.398163 817.3335 802.05811 4294900479
61.799999 817.33356 802.05811 4294768382
64.634865 818.20044 802.78906 4294833407
66.335777 816.90009 801.69263 4294966271
22.803669 776.28033 805.37585 4280294441
24.455046 781.95258 804.92651 4280228897
25.582876 784.50568 805.33514 4280097825
27.889908 784.7807 804.69501 4279900684
26.14679 786.7796 806.38049 4280032032
27.889908 786.7796 806.38049 4280162074
28.381041 790.34064 805.45898 4280228636
29.445871 793.89331 804.5304 4280098077
28.548624 795.95752 804.96277 4279900448
31.111927 796.69751 804.27869 4279966239
29.383486 798.67963 805.94995 4279834652
31.111927 798.67963 805.94995 4279965217
32.735779 802.21057 805.00305 4280030756
32.138226 805.11407 806.57916 4279768606
34.385323 805.65521 805.29132 4279310624
36.104588 804.34076 804.18311 4280692278
35.988991 809.16846 804.32959 4280165678
37.702751 809.16846 804.32959 4280821548
35.417736 811.35205 806.17084 4280295204
37.702751 810.47864 805.43433 4280887341
40.187157 811.94177 804.052 4281479225
37.622017 813.90283 805.70551 4281215793
40.187157 813.90289 805.70557 4281413436
68.403671 814.55658 806.25671 4294901247
71.253822 814.12079 805.88922 4294440444
73.533943 814.55658 806.25671 4294243325
76.099083 814.55658 806.25671 4294571006
78.664223 814.55658 806.25671 4294570237
43.466972 816.74292 804.17603 4282336345
46.876144 816.74292 804.17603 4284639614
49.433029 817.39453 804.72546 4284046448
51.705811 817.61176 804.90863 4288058275
55.399082 818.04608 805.2749 4294967295
59.092358 817.61176 804.90863 4294900223
61.365139 818.04608 805.2749 4294965759
63.63792 817.61176 804.90863 4294900222
66.478897 817.39453 804.72546 4294966015
80.115593 816.74292 804.17603 4294965759
17.669725 770.35052 809.53223 4280622886
19.436697 770.35052 809.53223 4280754728
21.137615 772.60419 807.50842 4280556843
21.137615 775.29749 809.7793 4280360747
22.827522 778.21399 808.31439 4280229414
22.779816 783.05853 809.78308 4280623138
24.455046 785.2912 807.74146 4280097825
25.018961 787.56689 808.78833 4280294432
26.14679 789.44489 808.62769 4280098077
26.06422 792.9975 807.6991 4279900698
27.801834 794.32593 808.81921 4279703069
27.713762 797.86597 807.88 4279703319
28.548624 799.9259 808.30884 4279637276
31.111927 800.66174 807.62122 4280031782
28.807341 802.86407 809.47821 4279506191
31.012844 806.16211 808.33496 4279834399
32.666054 808.94116 808.06207 4280032034
34.385323 808.28394 807.50793 4280163618
32.666054 810.91272 809.72449 4280492835
34.385323 810.91272 809.72449 4280492835
35.988991 813.75415 808.19611 4280756007
37.702751 815.06433 809.30078 4280624418
40.230278 815.79169 808.60608 4281479226
43.607338 815.86395 807.35901 4283781233
47.027523 815.86395 807.35901 4285557894
68.477066 815.79169 808.60608 4294571260
71.044952 815.79169 808.60608 4294505468
73.612839 815.79169 808.60608 4294373883
76.180733 815.79169 808.60608 4294899454
78.664223 815.86395 807.35901 4294965247
43.607338 817.17133 808.46143 4283583068
47.027523 817.17133 808.46143 4286214018
49.592659 817.82501 809.01257 4285096562
52.157799 817.82501 809.01257 4290494150
55.57798 817.82501 809.01257 4294967295
58.998169 817.82501 809.01257 4294965759
61.563301 817.82501 809.01257 4294965759
64.128441 817.82501 809.01257 4294834430
66.693581 817.82501 809.01257 4294900223
17.724771 769.4519 812.69873 4280426540
17.669725 773.05225 811.8103 4279836456
19.436697 773.05225 811.8103 4280033579
21.203671 771.70142 810.67126 4280426540
17.669725 774.40314 812.94934 4279770913
19.436697 774.40314 812.94934 4279968035
21.137615 776.64417 810.91479 4280229667
21.137615 777.99084 812.05029 4280229667
21.949541 781.57007 811.14417 4280294944
22.779816 785.06799 811.47736 4280556835
22.708258 790.63293 812.24548 4280424739
24.455046 789.96521 811.6825 4279834908
25.56575 792.99854 811.62408 4279571483
26.06422 796.98279 811.05945 4279703069
26.06422 798.31122 812.17944 4279702819
27.713762 800.51434 810.11304 4279637526
25.981651 802.50067 811.7879 4279701792
28.519266 805.28662 811.52081 4279834387
31.012844 808.79651 810.55615 4279900445
31.839449 811.49976 811.5274 4280424995
34.385323 812.22711 810.83264 4280624421
32.666054 813.5415 811.94092 4280361249
34.385323 813.5415 811.94092 4280690214
36.104588 813.5415 811.94092 4280690214
40.273396 817.0296 810.95789 4281347893
43.986542 817.46631 811.32617 4282334017
47.128441 817.68469 811.51025 4283716445
49.699081 818.33978 812.06262 4284311419
51.412846 818.33978 812.06262 4288191143
68.550461 817.68469 811.51025 4294636029
71.121101 817.0296 810.95789 4294834174
73.691742 817.68469 811.51025 4294834430
53.012844 819.78607 810.66614 4294836223
55.57798 820.43976 811.21729 4294967295
58.998169 820.43976 811.21729 4294966527
61.563301 820.43976 811.21729 4294900479
64.128441 820.43976 811.21729 4294768381
66.693581 819.78607 810.66614 4294899199
15.985321 767.95233 814.05029 4280229667
19.537615 767.95233 814.05029 4280492333
15.985321 769.31024 815.19519 4279639071
17.669725 775.75397 814.08838 4280163618
19.436697 775.75397 814.08838 4280163618
17.669725 777.10486 815.22729 4280163870
19.436697 777.10486 815.22729 4280163870
21.137615 779.33746 813.18579 4280557345
17.614679 781.35748 814.88892 4280293665
19.376146 780.68414 814.32117 4280294177
17.559633 785.59747 814.53992 4280030237
19.315596 784.92627 813.97394 4280358946
21.07156 784.92627 813.97394 4280293150
17.559633 786.93988 815.67188 4279898145
19.315596 786.93988 815.67188 4280292903
21.903669 787.74731 813.73651 4280293406
19.275229 789.75677 815.43079 4280358946
21.867889 790.86255 814.40112 4280162587
20.961468 793.9715 815.06055 4279637526
22.708258 793.9715 815.06055 4279637526
24.403669 794.77539 813.12231 4279703069
22.660551 797.44067 815.36951 4279571483
24.403669 796.77435 814.80774 4279439393
24.326605 802.29645 815.53979 4279898395
25.981651 805.14911 814.02094 4279898395
25.981651 807.13544 815.6958 4279571233
28.519266 808.59027 814.30621 4279965207
31.012844 812.08954 813.33276 4279769112
32.161469 813.84576 814.81354 4280360997
34.42202 814.78992 814.30157 4281084205
36.964218 814.8559 813.04919 4281281837
75.647705 814.8559 813.04919 4294899705
36.964218 816.17029 814.15747 4281478965
40.689297 816.6084 814.52686 4281807416
43.554737 817.04657 814.8963 4282070594
46.420185 817.48468 815.26575 4281741898
48.999084 817.48468 815.26575 4283387225
51.57798 817.48468 815.26575 4289374388
68.770645 817.48468 815.26575 4294571002
70.489906 816.82751 814.71161 4294833661
72.209175 816.17029 814.15747 4294965759
53.126606 819.64996 813.16736 4294967039
55.697247 820.96014 814.27209 4294966271
59.124771 820.96014 814.27209 4294900735
61.695412 820.96014 814.27209 4294769150
64.266052 820.96014 814.27209 4294900735
66.8367 819.64996 813.16736 4294966527
58.267891 822.27032 815.37671 4294966271
14.253211 766.38391 816.65198 4280033058
13.340366 769.54761 817.35736 4280360481
15.985321 770.66809 816.34009 4279966239
13.617126 772.93121 818.24835 4280490785
15.985321 772.026 817.48499 4280162335
14.179816 776.22729 818.4115 4280294177
15.952293 775.5498 817.84021 4280228128
15.902752 779.80658 817.50537 4280293153
14.135779 781.15747 818.64441 4280096030
14.091743 784.72412 817.72766 4280095779
15.853211 784.05078 817.15991 4279832861
14.091743 786.0708 818.86304 4279900196
16.706423 787.17657 817.83337 4280096546
17.522936 791.09644 816.56042 4279703069
19.275229 791.09644 816.56042 4279900192
17.522936 793.10583 818.2547 4278850323
19.275229 793.10583 818.2547 4278982166
20.379206 796.86493 817.50018 4279570711
22.660551 799.43958 817.05499 4279898647
24.403669 798.77325 816.49316 4279898395
20.917431 801.43854 818.74048 4279635727
22.660551 801.43854 818.74048 4279701777
24.326605 803.62488 816.65979 4279898395
24.326605 805.61755 818.33997 4279373852
25.981651 808.45966 816.81226 4279505690
27.713762 809.78381 817.92883 4279439641
29.383486 811.89374 817.09174 4280163873
31.111927 812.55444 817.6488 4280624169
31.976147 813.87585 818.76294 4280822820
34.458717 816.04114 816.66467 4281215279
37.330276 816.48016 817.03485 4281872439
40.488991 817.3584 817.77527 4282332480
44.222015 817.79742 818.14551 4282004810
46.519264 817.35834 817.77527 4282070864
49.103668 818.01697 818.33057 4284964703
52.798779 818.27765 817.67841 4293583591
55.995415 818.67554 818.88586 4294966527
10.689908 769.78912 819.52319 4280884513
12.47156 769.78912 819.52319 4280950306
10.689908 771.83228 821.24585 4280490782
12.433027 775.42065 820.34735 4280293916
13.293577 778.25989 820.12537 4280227613
12.368808 782.5083 819.78345 4280162587
12.368808 783.85919 820.92236 4280555548
14.091743 788.09076 820.56628 4279244324
15.853211 787.41742 819.99854 4279244326
15.80367 790.96729 819.06763 4278718234
14.047707 793.65216 821.33142 4279439391
15.80367 792.98096 820.76544 4279176475
16.938837 796.00848 820.70215 4279242005
17.46789 799.98096 820.12756 4279437844
19.796942 799.09064 819.37677 4279373074
17.46789 801.31641 821.25354 4279503893
20.066055 802.04382 820.55884 4279438353
22.660551 802.77118 819.86414 4279635729
20.917431 804.10382 820.98779 4278452224
22.660551 804.10382 820.98779 4279504141
25.485016 808.05292 820.39355 4279571226
28.579817 811.77014 819.6037 4280295456
32.009174 814.47687 820.57782 4281017893
34.568806 815.19727 819.8772 4280688935
36.297249 815.19727 819.8772 4281215279
37.161469 816.51862 820.99133 4281674551
39.754128 816.51862 820.99133 4282463293
43.21101 816.51862 820.99133 4282463295
46.667889 816.51862 820.99133 4282070864
51.85321 816.51862 820.99133 4291806153
53.411011 819.99274 819.99646 4294965759
55.995415 819.99274 819.99646 4294965503
8.9357796 770.28491 823.86523 4280294177
8.9082565 773.87537 822.96851 4280293927
10.689908 773.87537 822.96851 4280162074
10.65688 778.13647 822.63721 4280228123
10.65688 780.17322 824.35461 4280687134
12.368808 785.21008 822.0614 4280161824
12.368808 787.23633 823.76996 4279375131
14.091743 790.11072 822.26953 4279439391
13.188992 793.89935 823.50189 4279570461
12.867279 797.27032 823.51019 4279505177
15.770642 797.79462 822.20813 4279110932
14.018349 799.80408 823.90247 4279438871
15.770642 799.80408 823.90247 4279307541
16.885628 803.54218 823.13019 4278846993
19.21468 803.31958 822.9425 4278780940
17.46789 805.32269 824.63159 4278714378
20.349848 805.84271 823.32599 4279372299
22.660551 806.10272 822.67316 4279964946
24.403669 806.76904 823.23499 4280097825
22.660551 808.10168 824.35864 4280359700
24.403669 808.10168 824.35864 4280557093
26.06422 810.26697 822.26025 4280491299
28.670643 810.93115 822.82031 4280492318
32.910091 815.08069 822.39502 4281478447
34.6422 815.08069 822.39502 4281148980
37.50214 817.32471 823.41504 4282331965
40.35841 817.80304 822.94629 4282989382
44.07523 817.84003 822.10547 4282333506
46.667889 817.84003 822.10547 4281741373
49.260551 817.84003 822.10547 4287856467
51.85321 817.84003 822.10547 4293452007
41.482571 819.16144 823.21973 4283189830
44.07523 819.82214 823.77679 4283059014
46.667889 819.16144 823.21973 4282071869
49.260551 819.16144 823.21973 4288971653
5.3724771 771.53748 827.53735 4280555035
7.7443428 772.56201 825.78534 4280293414
8.0284405 775.4917 826.2934 4280424739
8.9082565 778.6427 826.98822 4280555555
10.65688 781.53113 825.49951 4280161824
8.8807335 784.24689 827.78943 4280096030
10.634862 785.03528 825.83813 4279375131
10.634862 787.06787 827.552 4280096280
10.601835 791.28894 827.18695 4279703069
12.368808 789.26263 825.47852 4279832852
10.568808 796.17065 827.37909 4280161823
12.291743 799.69318 826.42505 4279569683
14.018349 802.4834 826.16156 4278716179
15.770642 803.1532 826.72632 4278387210
14.018349 804.49286 827.85596 4278977293
16.619267 805.5755 826.80676 4279044109
20.088074 806.65814 825.75757 4279900180
20.088074 807.99359 826.88354 4280096281
22.708258 807.99359 826.88354 4280359452
25.27523 809.43433 825.4823 4280557093
27.889908 809.43433 825.4823 4280557595
28.761467 810.76697 826.60596 4280559384
31.376146 811.43323 827.16779 4281084205
33.883484 814.25226 825.62061 4281478965
36.48991 815.58069 826.74072 4282265914
38.227524 816.90906 827.86072 4282923333
39.965137 816.90906 827.86072 4283318091
41.570641 819.05334 825.74463 4283518545
44.07523 821.80426 825.448 4284173632
46.766972 819.71545 826.30292 4286280027
48.499084 819.05334 825.74463 4289498224
1.7963303 769.31744 829.5896 4280490003
3.5926607 770.00415 830.16858 4280490268
5.3724771 772.90656 828.69177 4280162587
5.3614678 775.75006 828.47327 4280162587
7.1486239 775.75006 828.47327 4280686114
5.3614678 777.79956 830.20135 4280162074
7.1486239 777.11639 829.62537 4280161824
7.7204895 781.13989 829.09375 4279833885
8.8807335 785.60474 828.93433 4280096030
8.8807335 786.96265 830.07922 4280030237
8.8623857 789.77802 829.83716 4279900196
8.8348627 793.99072 829.46503 4280227621
10.568808 798.86401 829.65002 4280162074
12.291743 802.37805 828.6889 4279240714
13.155046 805.11206 829.6861 4279438346
16.64679 805.83246 828.98547 4279635730
16.64679 807.17212 830.11499 4279701522
20.118347 808.25055 829.06226 4280226840
22.708258 809.32898 828.00952 4280555035
25.328442 809.32898 828.00952 4280490532
26.201836 810.66443 829.1355 4280558378
28.822018 811.33215 829.69855 4280822826
31.442202 811.99988 830.2616 4281543988
33.990826 813.43219 828.85327 4282003768
36.605503 814.76483 829.97681 4282792510
0.90091741 769.1637 833.38409 4280096281
1.7963303 772.75073 832.4845 4280162074
3.5926607 772.06409 831.90552 4280228380
3.5816514 775.64478 831.00061 4280096280
1.7908257 778.38293 833.30933 4279900196
4.1749234 778.41522 832.46454 4280029983
5.3614678 781.21527 833.08142 4280293153
7.1266055 784.09106 831.58215 4280227360
5.344954 786.13416 833.30481 4280163618
7.1045871 788.3205 831.22412 4280097575
5.3284402 791.03625 833.51404 4280294173
7.1045871 789.67841 832.36914 4280358444
7.0899081 793.16571 832.69348 4280294175
8.8348627 796.69238 831.74304 4280293403
8.8348627 798.71869 833.45154 4279962897
10.568808 800.88397 831.35327 4279635727
10.568808 802.90399 833.0564 4279373059
12.330276 803.57733 833.62415 4279439104
14.047707 805.73419 831.51868 4279635727
17.559633 807.07666 832.65063 4279962384
19.315596 807.74786 833.21655 4280489754
21.91468 808.82349 832.16144 4280424476
25.116209 809.40497 831.99756 4280294182
31.541285 811.19104 833.50366 4281543988
34.062386 813.33533 831.38757 4282332988
36.682568 814.67078 832.51355 4282991423
38.348625 816.76379 831.66229 4283190607
40.963303 816.76379 831.66229 4283059013
0 764.0434 836.91504 4280162074
0 771.91876 835.70709 4280031005
0.89816517 775.49731 834.80035 4279834401
0.89541286 778.65466 835.50049 4279965989
3.5816514 779.75208 834.46375 4279898395
-1.7908257 782.4903 836.77258 4279966491
0.89541286 781.80573 836.19537 4279704100
4.4678898 782.58154 834.2334 4280293153
1.1914374 784.8587 836.1535 4279900966
3.574312 783.94788 835.3855 4280097825
4.1571865 787.95026 834.83618 4280294946
3.5633028 790.22046 836.75024 4280686364
5.3284402 793.07312 835.23138 4280950049
5.3284402 795.10992 836.94885 4280949804
7.0899081 796.55341 835.54999 4280555548
8.8348627 800.06958 834.59058 4279504143
8.8348627 801.42041 835.72961 4279570697
10.601835 802.7713 836.86865 4279504391
13.21101 804.92395 834.75964 4279635982
16.440367 805.82178 835.5166 4279767315
26.339449 809.76154 834.91443 4281149486
28.973394 809.76154 834.91443 4281478195
31.60734 811.104 836.04639 4282331959
34.169724 812.5307 834.63318 4282793277
-1.812844 765.42932 838.08362 4280098077
-1.8073394 769.7135 837.77173 4279900445
-3.6146789 771.78607 839.51929 4279637526
-1.8018348 773.98505 837.44934 4279900698
-3.6036696 776.05133 839.19159 4279768089
-1.8018348 775.36255 838.61084 4280162074
-1.7963303 778.9306 837.69519 4279768862
0 778.9306 837.69519 4279900196
-3.5926607 780.30396 838.85315 4280032284
-3.5816514 785.22845 839.0813 4280032284
-1.7908257 783.85938 837.92688 4279966491
-1.787156 787.36359 838.26556 4280163100
0.89357799 787.36359 838.2655 4280491554
-1.787156 789.41302 839.99353 4280098077
0.89357799 790.4978 838.94617 4280294429
3.5633028 791.58252 837.8988 4280950306
0 792.94464 839.04724 4280360222
3.5633028 792.94464 839.04724 4280752426
5.3284402 797.14673 838.6662 4280294175
7.6807342 800.16699 838.59686 4279635983
13.252294 804.12219 838.00769 4279635730
16.78624 805.47302 839.14661 4280161045
19.436697 805.47302 839.14661 4280950041
22.311926 808.06622 837.409 4281148964
24.660551 807.61731 837.03052 4281083437
29.06422 808.96393 838.16602 4282068535
31.706423 810.31061 839.30151 4282792510
34.293579 811.37854 838.23987 4282924099
36.875229 812.44641 837.17822 4283648337
36.875229 813.78888 838.31018 4283845461
-3.6440368 761.74335 841.51575 4280098077
-1.8220184 760.3504 840.34131 4280098077
-3.6440368 763.13629 842.69031 4279571483
-3.6366973 765.99805 842.48718 4279637526
-3.5926607 781.67725 840.01111 4280032284
-3.5816514 787.2821 840.81293 4280031258
-3.5816514 789.33575 842.54443 4279900698
-1.787156 790.7793 841.14563 4280098077
1.787156 790.7793 841.14563 4280228380
-1.787156 792.14563 842.29761 4280097827
0.89357799 792.14563 842.29761 4280097825
3.5633028 794.3067 840.19568 4280294177
4.1571865 796.57684 842.10986 4280358426
7.9926605 800.54144 841.52856 4279438350
10.645871 801.93652 841.39685 4279569937
13.293577 803.3288 841.2627 4279767062
16.838531 804.68384 842.40527 4280358423
19.436697 806.82391 840.28564 4280950290
21.203671 806.82391 840.28564 4281213984
25.621101 806.82391 840.28564 4281476650
22.970642 808.17474 841.42468 4282001961
26.504587 808.17474 841.42468 4281937201
28.271559 808.17474 841.42468 4282265910
30.627523 809.07538 842.18408 4282990143
34.455963 809.52563 842.56372 4283056199
-5.4990826 757.32013 845.6344 4279179285
-5.4825687 760.92889 844.75317 4279179035
-5.4825687 762.32605 845.93115 4279572237
-5.4660549 765.92218 845.03931 4279899653
-5.4550457 768.77832 844.83142 4279702027
-7.2513762 773.74493 845.09509 4279640340
-5.4385319 772.35901 843.92651 4279177479
-5.4220185 775.93127 843.0144 4279837719
-5.4220185 778.00385 844.76196 4280032788
-5.4055047 782.25012 844.41821 4280228884
-5.4055047 783.62769 845.57971 4280425997
-3.5926607 788.54382 845.80078 4279571483
-1.7908257 792.07397 844.85327 4280097825
0.89357799 794.19507 844.0257 4280293153
0.89357799 796.24451 845.75366 4280227108
3.574312 796.24451 845.75366 4280030487
5.344954 798.39294 843.64111 4279832852
8.0174313 799.75507 844.78967 4279636234
8.0174313 801.11713 845.93811 4279636226
10.689908 801.11713 845.93811 4279964694
13.3211 803.2572 843.81836 4280161822
16.873394 804.61505 844.96338 4280817695
19.497248 806.03894 843.54785 4281278494
21.269724 806.03894 843.54785 4281607203
24.814678 806.03894 843.54785 4281805615
23.042202 807.39398 844.69043 4281871658
25.700916 807.39398 844.69043 4282593848
28.359632 807.39398 844.69043 4282923833
31.018349 808.74908 845.83301 4283912268
34.563301 808.74908 845.83301 4283452491
-5.5321102 751.48718 848.56445 4278326279
-3.6770642 753.703 846.50854 4280032284
-7.3541284 756.51416 848.87891 4279179035
-7.3321099 760.12286 847.99756 4279638030
-7.310092 763.72321 847.10925 4279899653
-9.1376143 765.12036 848.28723 4280031248
-7.2880735 767.31512 846.21375 4280096784
-9.1100922 769.40454 847.97546 4279639057
-7.2733946 770.16846 846.00354 4280032788
-7.2733946 772.94873 848.34778 4280032788
-7.2513762 777.90271 848.60083 4280163091
-5.4055047 785.00519 846.74121 4280754458
-5.4055047 786.38269 847.90271 4280097298
-4.1914372 790.8327 847.73071 4280228640
-1.7908257 794.12769 846.5849 4280293665
-1.7908257 796.18127 848.31641 4280293153
0.89541286 796.89606 847.61108 4279702817
4.4678898 797.61084 846.90576 4279440147
4.4678898 798.97711 848.05774 4279569936
10.689908 802.47925 847.08655 4280030487
13.659328 802.93329 847.46942 4280423968
16.034863 803.84131 848.23511 4280884007
17.761467 805.97296 846.10828 4281081892
19.537615 805.97296 846.10828 4281476650
21.313761 805.97296 846.10828 4281805865
23.089909 807.33081 847.25317 4281937201
25.754128 807.33081 847.25317 4282725690
28.418348 807.33081 847.25317 4283055162
31.082569 808.68872 848.39807 4283846220
33.746788 808.68872 848.39807 4283714630
35.449543 810.10413 846.97559 4284893261
-7.3981652 750.68542 851.8125 4279245078
-9.2201834 754.30676 850.94177 4279047456
-9.1926603 757.91974 850.06396 4279637276
-10.098166 760.4248 850.21417 4280030488
-10.998165 762.9256 850.36084 4280163091
-10.965137 767.21606 850.05432 4279705107
-12.792661 769.31183 851.82141 4279900196
-9.7174311 771.95825 850.12872 4279966732
-7.2733946 774.33887 849.5199 4280098581
-9.0917435 777.11914 851.86426 4280489242
-7.2513762 779.2887 849.76941 4280097032
-7.2513762 780.67462 850.93799 4280096784
-7.2293577 784.91248 850.58716 4280228632
-5.4055047 787.76025 849.06421 4280096794
-7.2073393 789.82654 850.80646 4280294173
-4.4908257 793.35034 849.85358 4280162077
-4.4908257 795.41034 851.59045 4280161821
-1.7908257 797.55042 849.47083 4280162074
0.89541286 797.55042 849.47083 4279767066
-1.7908257 798.91949 850.62524 4279833106
0 798.91949 850.62524 4279701523
4.7755351 799.37579 851.01007 4279175694
7.7492356 800.32513 850.06641 4279438860
8.9357796 801.70972 850.36182 4279768862
10.722936 801.70972 850.36182 4280294173
13.105809 802.62061 851.12982 4280557347
16.084404 803.07599 851.51379 4280951850
17.816513 805.20343 849.38354 4281410605
19.598166 805.20343 849.38354 4281805363
22.270641 805.88446 849.95776 4282199603
25.833946 806.56549 850.53198 4282790975
28.506422 806.56549 850.53198 4283320137
23.161469 807.92761 851.68054 4283451457
25.833946 807.92761 851.68054 4283319619
28.506422 807.92761 851.68054 4283255876
31.178898 807.92761 851.68054 4283320365
33.851376 807.92761 851.68054 4285029680
-11.06422 755.71655 852.13049 4279768862
-12.869725 760.73083 852.43433 4280293403
-12.869725 762.13641 853.61951 4280229663
-12.831193 765.72833 852.724 4280032034
-12.792661 770.70898 852.99951 4280161824
-10.965137 770.70898 852.99951 4280163091
-13.706423 772.10614 854.17749 4280227610
-12.754128 775.67279 853.26074 4279966491
-10.324771 774.74414 852.47772 4280293653
-13.665138 777.06573 854.43518 4280621341
-10.303975 778.97266 853.42706 4280489246
-9.0642204 782.06055 852.10657 4280489755
-9.0642204 783.44647 853.27515 4280621591
-9.0366974 787.67596 852.91724 4280360222
-9.0366974 789.74854 854.66479 4280491551
-7.2073393 791.89276 852.54858 4280491551
-9.0091743 793.95905 854.29083 4279965982
-7.2073393 793.95905 854.29083 4280161820
-4.4908257 796.78363 852.74841 4279898900
1.7963303 796.78363 852.74841 4279438350
-4.4908257 798.15698 853.90637 4279569936
-1.7963303 798.15698 853.90637 4279636233
0.89816517 798.15698 853.90637 4279438348
3.5926607 798.15698 853.90637 4278979090
8.0587158 801.65771 852.93396 4279966491
10.744954 801.65771 852.93396 4280360222
13.431192 803.02679 854.08838 4281279271
16.977982 805.12549 853.24194 4281476140
19.658716 805.12543 853.24188 4282265915
21.445871 805.12543 853.24188 4282923835
17.871559 807.17487 854.96985 4283315774
19.658716 807.17487 854.96985 4284302669
22.339451 807.17487 854.96985 4284173114
25.875229 808.2323 853.89941 4284303684
28.594496 807.17487 854.96985 4284697150
-11.130275 749.89203 855.06763 4278915614
-13.912844 752.01929 856.86121 4279572763
-12.946789 754.92737 855.38916 4280032034
-14.79633 757.04834 857.17755 4280162843
-14.752294 761.35565 856.88525 4279900192
-14.708257 764.94757 855.98975 4279900196
-16.546789 766.35315 857.17493 4280096280
-14.708257 766.35315 857.17493 4280161824
-16.497248 769.93243 856.2688 4279703319
-18.330275 771.3338 857.45032 4279900196
-16.497248 771.3338 857.45032 4279768611
-14.620184 773.5033 855.35559 4279966491
-18.275229 775.599 857.12262 4280489764
-16.447706 775.599 857.12262 4280555557
-16.398165 779.85168 856.78418 4279768335
-13.665138 779.15515 856.19696 4280883989
-19.131193 781.24463 857.95874 4280294681
-16.398165 781.24463 857.95874 4280228380
-13.652294 781.96216 857.25574 4280753175
-10.910091 781.98468 855.96667 4280556827
-13.637615 784.06989 857.72485 4280359965
-12.689908 788.99023 857.94946 4280491551
-10.877064 786.91125 856.19659 4280491551
-10.844037 791.13025 855.82983 4280557093
-10.844037 792.51196 856.99487 4280229667
-7.2073393 796.71411 856.61383 4279832854
-5.4055047 797.40283 857.19458 4279898899
-3.5926607 799.53027 855.06433 4279636233
-1.7963303 800.21692 855.64331 4279768072
0.59877676 799.98804 855.45038 4279964694
4.7902141 799.98804 855.45038 4279638806
8.0834866 800.90356 856.22229 4280360470
10.777982 800.90356 856.22229 4280884513
8.0834866 802.27692 857.38013 4281148185
10.777982 802.27692 857.38013 4281147685
13.729664 804.85223 855.62762 4281673259
16.117432 805.76501 856.39722 4282659641
17.012844 807.13409 857.55151 4284435786
19.699083 807.13409 857.55151 4284565062
-16.744955 751.2406 860.12885 4279440399
-16.695414 755.56482 859.85071 4280032284
-16.645872 759.16931 858.96594 4279900698
-19.362385 763.47034 858.66833 4279900182
-16.596331 762.76544 858.07397 4279900192
-19.304588 767.75873 858.35999 4280097050
-20.223854 769.86707 860.13776 4280162844
-19.188992 777.69476 858.88965 4280491800
-18.220184 782.63757 859.13318 4280228380
-16.398165 782.63757 859.13318 4280228380
-18.220184 784.03052 860.30774 4280294173
-16.398165 784.03052 860.30774 4280294173
-13.637615 785.46002 858.89697 4280425759
-14.546789 786.85016 860.06909 4280294173
-12.689908 790.37616 859.11804 4280491551
-10.877064 791.76208 860.28662 4280623388
-9.0366974 793.89368 858.15991 4279899921
-7.2293577 796.65717 860.48987 4280555283
-4.2042813 799.23956 858.74323 4280425233
-1.8018348 800.1579 859.51758 4279834126
1.2012233 799.69873 859.13037 4280163100
4.2042813 799.69873 859.13037 4280622610
-1.8018348 801.5354 860.67908 4280490003
0 801.5354 860.67908 4280360222
4.5045872 801.5354 860.67908 4281543199
7.2073393 801.5354 860.67908 4281148441
9.9100914 801.5354 860.67908 4281017376
12.574312 803.65021 858.53809 4281215275
13.472477 805.0235 859.69604 4283188797
-22.326605 754.79663 863.12708 4279704336
-18.605505 753.37427 861.92773 4279900698
-19.477982 756.98303 861.04651 4279835414
-22.26055 759.8194 863.43811 4280163091
-20.223854 771.97546 861.91541 4280621845
-21.930275 780.48907 861.24573 4280228884
-20.102753 781.18762 861.83478 4280228632
-18.220184 785.42346 861.48218 4280687134
-16.398165 785.42346 861.48218 4280621341
-18.220184 787.51288 863.24396 4280819495
-16.398165 787.51288 863.24396 4280556322
-14.546789 788.2403 861.24133 4280491551
-13.637615 790.3255 862.99951 4280229663
-9.9706421 793.84094 862.03949 4280293655
-9.0642204 795.91986 863.79236 4280687638
-7.2513762 795.91986 863.79236 4280556037
-4.5183487 798.72974 862.23743 4280621837
-1.8073394 800.80237 863.98499 4282002462
1.204893 800.3418 863.59668 4281280036
4.5183487 800.80237 863.98499 4282069037
7.2073393 802.9129 861.84058 4281871658
9.9100914 802.9129 861.84058 4282530611
9.0091743 804.29047 863.00208 4283516485
13.513762 804.29047 863.00208 4283713849
18.919266 804.29047 863.00208 4284894795
-22.39266 751.18365 864.00488 4279637526
-20.526606 751.18365 864.00488 4279571733
-24.258715 754.03687 866.41064 4280228630
-22.326605 756.21906 864.32642 4279704336
-22.743118 771.69403 865.60229 4280425493
-21.99633 782.54474 866.90308 4280686364
-20.163303 781.14337 865.72156 4280555035
-20.102753 784.68054 864.77991 4280817950
-20.102753 786.0777 865.95801 4280557595
-18.220184 790.29877 865.59296 4280494113
-16.398165 790.29877 865.59296 4280033563
-13.334557 792.87408 865.14844 4280360220
-10.910091 793.8009 865.92981 4280687638
-5.4385319 797.30579 864.96094 4280424963
-3.6256881 798.69177 866.12964 4281805340
0 802.18408 865.15002 4282594098
4.5183487 802.18408 865.15002 4283054905
7.2293577 802.87494 865.73254 4283778885
10.24159 803.10522 865.92676 4284239937
12.651376 803.5658 866.31506 4284963148
16.266054 802.18408 865.15002 4284634189
-25.266056 751.13934 867.89154 4280295978
-28.073395 753.28558 869.70117 4280752661
-25.191742 755.4635 867.61353 4280228380
-25.191742 756.89014 868.81641 4280228380
-22.39266 756.89014 868.81641 4280162074
-25.117432 761.19751 868.52411 4280293660
-22.326605 761.19751 868.52411 4280162844
-24.115597 765.49219 868.22119 4280555283
-22.26055 765.49219 868.22119 4280621845
-23.357798 775.9234 869.16846 4280424989
-22.062386 779.0033 867.84119 4280686364
-23.900917 780.40887 869.02637 4280557849
-21.99633 784.64679 868.67554 4280623904
-20.102753 788.17346 867.72504 4280624674
-19.188992 790.26917 869.49207 4280426521
-16.398165 793.08466 867.94196 4280492052
-14.576147 793.08466 867.94196 4280491801
-13.352905 795.17969 868.83643 4280689437
-10.011009 795.18256 868.40283 4281281051
-7.2733946 795.88611 867.68799 4281346575
-4.8489299 797.508 869.05548 4282397979
-1.812844 800.0777 867.29822 4282726944
1.812844 800.0777 867.29822 4282265389
4.8342509 801.9256 868.85626 4284239941
7.2293577 804.94751 867.4801 4285159500
-30.033028 751.8252 872.39392 4280161550
-28.073395 754.71637 870.90771 4280425493
-27.990826 758.31671 870.01929 4280752661
-28.612844 760.6944 872.02411 4280555798
-26.047707 764.04236 870.92279 4280555539
-27.908257 766.1759 872.7218 4280491799
-25.117432 766.1759 872.7218 4280621845
-25.043119 769.74677 871.80859 4280686364
-25.893578 774.72321 872.08057 4280555035
-25.816513 778.97797 871.7439 4280426513
-23.900917 781.81445 870.21143 4280755728
-25.73945 784.62561 872.58179 4281019179
-23.900917 783.92285 871.9892 4280492835
-21.99633 787.44952 871.0387 4280493085
-21.99633 789.55157 872.81104 4280361249
-19.188992 791.66632 870.67017 4280295191
-21.930275 793.06348 871.84814 4280623392
-18.275229 793.06348 871.84814 4280623388
-16.447706 793.06348 871.84814 4280821023
-9.1100922 797.26349 871.46545 4282134564
-7.2880735 797.26349 871.46545 4282856740
-4.5550461 797.95996 872.05273 4283054381
-1.8183486 799.36145 870.61829 4283582008
0.90917432 799.36145 870.61829 4283518021
-33.787155 755.41272 875.41895 4280423448
-30.97156 754.69519 874.8139 4280423445
-29.944954 757.57806 873.32056 4280162074
-33.688072 759.72424 875.13019 4280293660
-31.816513 759.00885 874.52698 4280293403
-33.588989 764.02319 874.83081 4280489490
-31.722937 763.30988 874.22937 4280358935
-29.234863 763.07208 874.02887 4280294677
-28.838531 767.59833 873.92114 4280294677
-31.629358 769.02075 875.12048 4280293907
-29.768806 769.02075 875.12048 4280294173
-28.444036 772.11041 873.80157 4280228131
-25.970642 771.16498 873.00439 4280294173
-31.53578 774.0014 875.396 4280098077
-28.711927 775.06934 874.33441 4280751907
-28.976149 778.02252 874.86237 4280950049
-27.660551 781.79749 874.12134 4281410344
-25.816513 781.09259 873.52698 4280624421
-27.660551 783.91217 875.9043 4280557345
-25.73945 786.73401 874.35944 4280426788
-23.900917 786.73401 874.35944 4280426788
-23.829357 790.95288 873.99268 4280361249
-20.163303 790.95288 873.99268 4280623392
-25.662386 792.35425 875.17432 4280557595
-22.879816 793.40747 874.10028 4280557595
-19.188992 794.46063 873.02625 4280951835
-16.447706 794.46063 873.02625 4281214234
-13.706423 794.46063 873.02625 4281411357
-10.965137 794.46063 873.02625 4281872160
-13.706423 795.85779 874.20435 4281476900
-10.051376 796.5564 874.79333 4282331945
-7.310092 797.25494 875.38232 4282924085
1.827523 797.25494 875.38232 4283846983
3.655046 797.25494 875.38232 4283978303
-4.8587155 799.8172 873.61865 4283714114
-1.8220184 800.04938 873.81445 4283715655
0 800.04938 873.81445 4283715912
-5.4660549 802.13879 875.57617 4283714382
-37.651375 751.80823 876.30371 4280292360
-34.827522 751.80823 876.30371 4280686114
-32.00367 751.80823 876.30371 4280553781
-39.533943 754.68671 878.73083 4280096784
-37.651375 753.24744 877.51721 4279964942
-35.768806 753.24744 877.51721 4280030735
-37.541283 757.56531 877.23389 4280293137
-35.664219 757.56531 877.23389 4280358930
-37.431194 761.87048 876.93982 4280555283
-35.559631 761.87048 876.93982 4280818454
-35.559631 763.30133 878.14624 4280555789
-37.321102 766.16309 876.63513 4280293647
-34.21101 766.40088 876.83563 4280097038
-31.722937 765.44983 876.03369 4280097032
-37.321102 768.30304 878.43945 4280163091
-34.472481 769.37305 877.37964 4280097042
-31.629358 770.44312 876.31982 4280293907
-39.07156 773.28796 878.71851 4280294677
-37.21101 772.57678 878.11884 4280032023
-34.730274 772.33966 877.91895 4279900438
-33.390827 776.12866 877.1897 4280817946
-31.53578 776.12866 877.1897 4281015326
-34.318352 778.25598 878.98328 4280425241
-31.442202 781.08618 877.44562 4280425493
-29.592661 781.08618 877.44562 4280622111
-27.660551 785.32196 877.09302 4280556581
-28.582569 786.73175 878.28174 4280229667
-25.73945 788.84235 876.13721 4280361249
-27.577982 790.24792 877.32227 4280884007
-25.73945 791.65344 878.50745 4281277974
-22.912844 793.75562 876.35583 4280884760
-19.246788 793.75562 876.35583 4280754974
-16.497248 793.75562 876.35583 4281083939
-13.442203 795.62408 877.93134 4281739822
-10.998165 795.85767 878.1283 4282595378
-9.1376143 798.6521 876.56042 4282858040
-7.310092 798.6521 876.56042 4282793782
-3.655046 798.6521 876.56042 4283584840
1.827523 798.6521 876.56042 4284111184
3.655046 798.6521 876.56042 4284176978
-40.908253 751.56329 880.02142 4279505674
-39.533943 756.84558 880.55109 4280162825
-39.41835 761.15289 880.25879 4280489740
-39.41835 762.58789 881.46875 4280162578
-40.238533 766.16296 880.55908 4280096785
-42.919266 769.72961 879.64233 4280293403
-40.120186 769.72961 879.64233 4280163091
-42.919266 771.15625 880.84521 4280031248
-41.053211 771.15625 880.84521 4280163091
-39.07156 775.42151 880.51752 4280557845
-37.21101 775.42151 880.51752 4280228380
-35.35046 774.71033 879.91785 4280228380
-34.318352 779.67419 880.17908 4280162839
-34.318352 781.09235 881.37488 4280293916
-31.442202 783.91418 879.83014 4280424728
-29.592661 783.20715 879.23401 4280161824
-31.442202 786.03516 881.61841 4280753431
-29.504587 788.14154 879.47046 4280686884
-27.660551 789.55133 880.65906 4281147685
-25.816513 790.96106 881.84778 4281017103
-22.981651 793.05902 879.69263 4280754453
-19.304588 793.05902 879.69263 4280689183
-16.546789 793.76184 880.28516 4281346861
-14.708257 794.4646 880.87769 4281871408
-12.831193 797.95972 879.90063 4282529086
-10.081652 797.95972 879.90063 4283121207
-7.3321099 797.95972 879.90063 4283056196
-3.666055 797.95972 879.90063 4283846985
-43.42569 754.6908 882.65833 4280817171
-41.537613 754.6908 882.65833 4280294411
-43.299084 760.4436 883.58496 4280423954
-41.416515 759.724 882.97815 4280293134
-41.053211 772.58289 882.0481 4280294677
-41.053211 774.72278 883.85242 4280492054
-39.07156 778.26636 882.9162 4280425756
-37.21101 778.26636 882.9162 4280360222
-39.07156 780.39996 884.71521 4280687134
-37.100918 782.51056 882.57068 4280752931
-34.318352 782.51056 882.57068 4280753181
-34.318352 784.63788 884.36438 4280622366
-31.442202 787.44916 882.81067 4280884763
-28.667891 788.15613 883.4068 4280950050
-25.816513 793.07574 883.63086 4280887330
-23.050459 793.07581 883.63086 4281084452
-19.362385 793.07574 883.63086 4281215528
-16.546789 795.87018 882.06287 4281478447
-14.095413 796.80731 882.85303 4282726714
-10.111927 797.27576 883.24805 4283846983
-7.3541284 797.27576 883.24805 4284109901
-45.181652 763.32214 886.01196 4280162074
-43.172478 769.76306 887.51868 4280885010
-41.053211 776.86273 885.65674 4280360222
-41.053211 778.28931 886.85962 4280687134
-39.07156 781.82239 885.91455 4280491551
-37.21101 781.82239 885.91455 4280557093
-37.21101 783.24481 887.11389 4280491299
-31.53578 786.76514 886.15808 4280294679
-29.062386 787.71063 886.95526 4280228636
-24.044037 793.1051 887.57959 4281544490
-18.495413 793.1051 887.57959 4281478447
-25.816513 795.19043 885.41382 4281281574
-22.128441 795.19043 885.41382 4281544490
-20.284403 795.19043 885.41382 4281412903
-16.596331 795.89532 886.00818 4282332985
-12.908257 796.60022 886.60254 4283780936
-16.596331 798.01001 887.79126 4284172614
-49.089909 762.62976 889.35229 4280226816
-46.257797 762.62976 889.35229 4280228106
-50.829357 766.20062 888.43896 4280489242
-45.809174 766.68036 888.84351 4280556048
-43.299084 766.20062 888.43896 4280163091
-45.181652 769.0791 890.86609 4280555283
-43.172478 771.91565 889.33368 4280818711
-43.045872 776.17871 889.00415 4281080345
-41.053211 779.71594 888.0625 4280557345
-39.187157 781.85583 889.86688 4280753949
-37.321102 782.56915 890.46838 4280884513
-34.420185 784.66718 888.31323 4280688158
-33.48991 786.0896 889.51257 4280557595
