# .PCD v0.7 - Point Cloud Data file format
VERSION 0.7
FIELDS x y z rgb
SIZE 4 4 4 4
TYPE F F F U
COUNT 1 1 1 1
WIDTH 325
HEIGHT 1
VIEWPOINT 0 0 0 1 0 0 0
POINTS 325
DATA ascii
-19.776146 802.69751 1235.7555 4285099646
-16.286238 802.69751 1235.7555 4284769910
-16.401834 792.41833 1238.8607 4283126631
-14.058716 792.41833 1238.8607 4283718509
-10.544037 792.41833 1238.8607 4291875300
-16.350458 796.401 1236.9866 4283389287
-14.014679 796.401 1236.9866 4283981424
-10.511009 796.401 1236.9866 4291809507
-7.0073395 796.401 1236.9866 4292466153
-4.6715598 796.401 1236.9866 4292465893
-2.3357799 796.401 1236.9866 4292860651
-30.365137 798.18677 1238.4923 4283256920
-28.029358 798.18677 1238.4923 4283520875
-25.693579 798.18677 1238.4923 4283849584
-22.189907 798.18677 1238.4923 4284179317
-18.686239 798.18677 1238.4923 4285429125
-16.350458 798.18677 1238.4923 4284573816
-14.014679 798.18677 1238.4923 4284506737
-10.511009 798.18677 1238.4923 4291808993
-2.3357799 798.18677 1238.4923 4292532198
-18.612844 805.36554 1238.0051 4285229950
-16.286238 805.36554 1238.0051 4285558657
-13.959633 806.25488 1238.755 4285233015
-10.469725 806.25488 1238.755 4291284952
-6.9798164 806.25488 1238.755 4292073193
-23.522936 787.8739 1241.569 4283651176
-16.466055 786.97473 1240.8108 4282599256
-14.113762 787.8739 1241.569 4284045934
-10.585321 787.8739 1241.569 4292006371
-30.46055 794.20966 1240.3711 4283520092
-28.117432 794.20966 1240.3711 4283586669
-25.774311 794.20966 1240.3711 4283652462
-22.259632 794.20966 1240.3711 4284440692
-18.744955 794.20966 1240.3711 4284639611
1.1715597 794.20966 1240.3711 4292861417
4.6862388 794.20966 1240.3711 4292993003
-7.0293579 796.00098 1241.8815 4292531950
-4.6862388 796.00098 1241.8815 4292466405
1.1715597 796.00098 1241.8815 4292729577
4.6862388 796.00098 1241.8815 4292730344
7.0293579 796.00098 1241.8815 4292993773
-28.029358 799.97247 1239.9979 4283455332
-25.693579 799.97247 1239.9979 4283915883
-23.357798 799.97247 1239.9979 4283652973
-14.014679 799.97247 1239.9979 4284967538
-10.511009 799.97247 1239.9979 4291677662
-7.0073395 799.97247 1239.9979 4292532722
-4.6715598 799.97247 1239.9979 4292532452
-2.3357799 799.97247 1239.9979 4292532452
-28.029358 801.75818 1241.5037 4283520875
-25.693579 801.75818 1241.5037 4283981426
-22.189907 801.75818 1241.5037 4283718768
-14.014679 801.75818 1241.5037 4285624439
-10.511009 801.75818 1241.5037 4291611355
-7.0073395 801.75818 1241.5037 4292269294
-4.6715598 801.75818 1241.5037 4292334305
-2.3357799 801.75818 1241.5037 4292663527
-19.776146 808.92297 1241.0046 4284506740
-16.286238 808.92297 1241.0046 4286414988
-13.959633 808.92297 1241.0046 4286284436
-10.469725 808.92297 1241.0046 4291612899
-6.9798164 808.92297 1241.0046 4292204265
-4.6532111 809.81232 1241.7545 4292663527
-2.3266056 809.81232 1241.7545 4292794856
-22.433945 781.51001 1242.7433 4283386957
-18.891743 781.51001 1242.7433 4282007875
-16.530275 781.51001 1242.7433 4282600012
-14.168807 781.51001 1242.7433 4284309363
-25.976147 783.31543 1244.2656 4283783521
-22.433945 783.31543 1244.2656 4283914850
-18.891743 783.31543 1244.2656 4283322968
-14.168807 783.31543 1244.2656 4284571247
-10.626606 783.31543 1244.2656 4291940322
-28.227524 789.67224 1243.0853 4283388261
-25.875229 789.67224 1243.0853 4283585383
-22.34679 789.67224 1243.0853 4284111727
-18.818348 789.67224 1243.0853 4284376955
-7.056881 789.67224 1243.0853 4292532202
-4.704587 789.67224 1243.0853 4292465893
-2.3522935 789.67224 1243.0853 4292663273
1.1761467 789.67224 1243.0853 4292466663
1.1715597 797.79236 1243.3918 4292993005
4.6862388 797.79236 1243.3918 4293058794
7.0293579 797.79236 1243.3918 4293124587
1.1715597 799.58368 1244.9023 4292861417
4.6862388 799.58368 1244.9023 4292795624
7.0293579 799.58368 1244.9023 4292993003
9.3724775 799.58368 1244.9023 4293189099
-28.029358 803.54388 1243.0093 4283257452
-25.693579 803.54388 1243.0093 4284178554
-22.189907 803.54388 1243.0093 4283718003
-4.6715598 803.54388 1243.0093 4292466659
-2.3357799 803.54388 1243.0093 4292664038
-28.029358 805.32959 1244.515 4283060322
-25.693579 805.32959 1244.515 4283718509
-23.357798 805.32959 1244.515 4283980143
-4.6715598 805.32959 1244.515 4292532452
-2.3357799 805.32959 1244.515 4292729831
-18.612844 811.59106 1243.2543 4285227631
-16.286238 811.59106 1243.2543 4289833140
-13.959633 811.59106 1243.2543 4290294727
-10.469725 811.59106 1243.2543 4292465639
-6.9798164 811.59106 1243.2543 4292794091
-4.6532111 811.59106 1243.2543 4293056745
-2.3266056 811.59106 1243.2543 4293056745
-18.612844 813.36975 1244.754 4284768626
-16.286238 813.36975 1244.754 4289703101
-13.959633 813.36975 1244.754 4290754004
-10.469725 813.36975 1244.754 4292465130
-6.9798164 813.36975 1244.754 4292728298
-4.6532111 813.36975 1244.754 4292794602
-21.335779 776.93048 1245.4221 4282861133
-18.965137 776.93048 1245.4221 4282400580
-16.594496 776.93048 1245.4221 4282861131
-14.223853 776.93048 1245.4221 4284113011
-11.853211 776.93048 1245.4221 4291547620
-28.447706 778.74286 1246.9502 4283191127
-26.077065 778.74286 1246.9502 4283980643
-10.667891 778.74286 1246.9502 4292138471
-33.060551 785.12079 1245.7878 4282533726
-28.337614 785.12079 1245.7878 4283388261
-25.976147 785.12079 1245.7878 4283585383
-21.25321 785.12079 1245.7878 4284638071
-18.891743 785.12079 1245.7878 4283652212
-7.0844035 785.12079 1245.7878 4292926958
-4.7229357 785.12079 1245.7878 4292663786
-33.060551 786.92615 1247.3101 4282337369
-30.699083 786.92615 1247.3101 4282929506
1.1715597 802.27075 1247.168 4293255402
4.6862388 802.27069 1247.168 4293321707
7.0293579 801.375 1246.4127 4293255657
9.3724775 801.375 1246.4127 4293255405
-28.029358 808.00818 1246.7734 4283652715
-25.693579 808.00818 1246.7734 4283784301
-22.579203 808.30585 1247.0244 4283718516
-18.612844 815.14844 1246.2538 4284179060
-16.286238 815.14844 1246.2538 4289047485
-13.959633 815.14844 1246.2538 4290557392
-10.469725 815.14844 1246.2538 4292333800
-6.9798164 815.14844 1246.2538 4292597482
-4.6532111 815.14844 1246.2538 4292532452
-2.3266056 815.14844 1246.2538 4292729831
-18.612844 816.92719 1247.7535 4283915377
-16.286238 816.92719 1247.7535 4289047231
-13.959633 816.92719 1247.7535 4290426826
-10.469725 816.92719 1247.7535 4292532200
-6.9798164 816.92719 1247.7535 4292663527
-4.6532111 816.92719 1247.7535 4292466655
-2.3266056 816.92719 1247.7535 4292927206
-26.177982 772.33691 1248.0891 4284508282
-22.608257 772.33691 1248.0891 4282533703
-19.038532 772.33691 1248.0891 4280565587
-16.658716 772.33691 1248.0891 4281223261
-14.278899 772.33691 1248.0891 4283718509
-26.177982 774.15625 1249.6232 4283784032
-23.798164 774.15625 1249.6232 4283782235
-28.447706 780.55524 1248.4784 4283520092
-7.1119266 780.55524 1248.4784 4292466925
-4.7412844 780.55524 1248.4784 4292203748
1.1715597 805.85339 1250.1887 4293320940
4.6862388 805.85339 1250.1887 4293058795
-22.189907 811.57971 1249.7848 4283849843
-2.3357799 810.68677 1249.032 4292926444
-18.612844 818.70587 1249.2533 4283520875
-16.286238 818.70587 1249.2533 4288784316
-13.959633 818.70587 1249.2533 4290361031
-10.469725 818.70587 1249.2533 4292269283
-6.9798164 818.70587 1249.2533 4292335075
-4.6532111 818.70587 1249.2533 4292334303
-2.3266056 818.70587 1249.2533 4292860647
-18.612844 820.48462 1250.7531 4283981426
-16.286238 820.48462 1250.7531 4288586680
-13.959633 820.48462 1250.7531 4291085002
-10.469725 820.48462 1250.7531 4292400864
-6.9798164 820.48462 1250.7531 4292664038
-4.6532111 820.48462 1250.7531 4292598245
-2.3266056 820.48462 1250.7531 4293058796
-7.1394496 775.97565 1251.1572 4292730092
7.056881 800.46234 1252.1832 4293256427
9.409174 800.46234 1252.1832 4293124589
10.585321 802.26068 1253.6996 4293256175
-25.774311 808.54034 1252.4543 4283916404
1.1715597 808.54034 1252.4543 4293189103
4.6862388 808.54034 1252.4543 4292992751
7.0293579 808.54034 1252.4543 4292597993
10.544037 808.54034 1252.4543 4293058794
-25.774311 810.33167 1253.9647 4283784561
1.1715597 810.33167 1253.9647 4292926699
4.6862388 810.33167 1253.9647 4293320687
7.0293579 810.33167 1253.9647 4293254894
10.544037 810.33167 1253.9647 4293124587
-22.189907 814.25824 1252.0433 4283980141
0 814.25824 1252.0433 4292794854
-22.189907 816.04395 1253.5491 4284177522
0 816.04395 1253.5491 4292664040
-16.286238 823.15265 1253.0027 4289243581
-13.959633 823.15265 1253.0027 4291216077
-10.857491 822.8562 1252.7528 4292466401
-6.9798164 823.15265 1253.0027 4292664039
-4.6532111 823.15265 1253.0027 4292598244
-2.3266056 822.26331 1252.2528 4292993003
-25.257797 760.87146 1256.7341 4283455331
-21.649542 760.87146 1256.7341 4285297786
-26.359632 765.49872 1254.0956 4284307825
-22.765137 765.49872 1254.0956 4282535248
7.056881 804.05908 1255.2159 4292795626
9.409174 804.05908 1255.2159 4293125100
-25.774311 812.12305 1255.4751 4283652460
2.3431194 812.12305 1255.4751 4292860647
4.6862388 812.12305 1255.4751 4292993003
7.0293579 812.12305 1255.4751 4293453554
10.544037 812.12305 1255.4751 4292993003
-25.774311 813.91437 1256.9856 4284639868
2.3431194 813.91437 1256.9856 4292795626
4.6862388 813.91437 1256.9856 4292992749
7.0293579 813.91437 1256.9856 4292795626
10.544037 813.91437 1256.9856 4292992749
-22.189907 817.82971 1255.0547 4284439411
-22.189907 819.61542 1256.5604 4284439147
-18.686239 819.61542 1256.5604 4284572278
-6.9798164 827.59943 1256.7522 4292531687
-24.14679 756.23022 1259.361 4283781722
-21.732111 756.23022 1259.361 4287794838
-19.244038 762.71051 1258.2848 4280564565
-16.838531 762.71051 1258.2848 4281880682
7.0844035 799.56366 1257.9657 4293322221
-25.774311 815.70569 1258.496 4285625223
1.1715597 815.70569 1258.496 4293190380
4.6862388 815.70569 1258.496 4293124337
7.0293579 815.70569 1258.496 4292992751
9.3724775 815.70569 1258.496 4293058542
-22.189907 821.40112 1258.066 4284308331
-18.686239 821.40112 1258.066 4284638071
-9.3431196 821.40112 1258.066 4292532452
-2.3357799 821.40112 1258.066 4293058794
-22.189907 823.18689 1259.5718 4284571495
-18.686239 823.18689 1259.5718 4284900719
-16.350458 823.18689 1259.5718 4289506228
-14.014679 823.18689 1259.5718 4290886857
-10.511009 823.18689 1259.5718 4292137184
-7.0073395 823.18689 1259.5718 4292465639
-4.6715598 823.18689 1259.5718 4292335073
-2.3357799 823.18689 1259.5718 4292795624
-25.774311 817.49701 1260.0063 4284570995
1.1715597 817.49701 1260.0063 4292861417
4.6862388 817.49701 1260.0063 4292794089
7.0293579 817.49701 1260.0063 4292925931
9.3724775 817.49701 1260.0063 4292926183
-25.774311 819.28833 1261.5167 4284374374
1.1715597 819.28833 1261.5167 4292861417
4.6862388 819.28833 1261.5167 4292860649
7.0293579 819.28833 1261.5167 4293058285
9.3724775 819.28833 1261.5167 4292860388
-18.686239 824.9726 1261.0774 4285229933
-16.350458 824.9726 1261.0774 4289506478
-14.014679 824.9726 1261.0774 4291807698
-10.511009 824.9726 1261.0774 4292531425
-4.6715598 824.9726 1261.0774 4292532452
-2.3357799 824.9726 1261.0774 4293124589
-14.014679 826.7583 1262.583 4291873493
-10.511009 826.7583 1262.583 4292597221
-7.0073395 826.7583 1262.583 4292794604
-4.6715598 826.7583 1262.583 4292729831
-2.3357799 826.7583 1262.583 4293124589
-29.086239 754.35449 1264.3196 4283981681
-26.662386 753.42798 1263.5383 4283455080
-19.390825 754.35449 1264.3196 4287664291
-16.966972 755.28107 1265.1007 4287270543
-28.117432 821.07971 1263.0272 4283980641
-25.774311 821.07971 1263.0272 4284309863
1.1715597 821.07971 1263.0272 4292598245
4.6862388 821.07971 1263.0272 4292729831
7.0293579 821.07971 1263.0272 4292795624
-22.259632 822.87103 1264.5376 4285098347
1.1715597 822.87103 1264.5376 4292927978
4.6862388 822.87103 1264.5376 4293124587
-10.511009 828.54401 1264.0887 4292531941
-7.0073395 829.43689 1264.8416 4292794603
-4.6715598 829.43689 1264.8416 4292597988
-2.3357799 828.54401 1264.0887 4292927210
-25.875229 820.2442 1268.8628 4285032046
-21.088074 824.66235 1266.048 4285099124
-18.744955 824.66235 1266.048 4285492083
-16.401834 824.66235 1266.048 4290031800
1.1715597 824.66235 1266.048 4292927980
4.6862388 824.66235 1266.048 4293190382
-18.744955 826.45374 1267.5583 4285558392
-16.401834 826.45374 1267.5583 4290032572
-14.058716 826.45374 1267.5583 4291611348
1.1715597 826.45374 1267.5583 4292730349
4.6862388 826.45374 1267.5583 4292795628
-7.0073395 833.0083 1267.8529 4292925671
-28.337614 814.00653 1270.1436 4284176739
-25.875229 822.04254 1270.3792 4285032046
-22.738838 823.24146 1271.39 4285163897
-18.744955 829.14069 1269.824 4285821050
-16.401834 829.14069 1269.824 4291084491
-14.058716 829.14069 1269.824 4291610845
-10.544037 829.14075 1269.824 4292268773
-4.6862388 830.03638 1270.5792 4292860134
-2.3431194 828.245 1269.0688 4292860647
2.3431194 828.245 1269.0688 4292663786
-30.818348 809.55322 1272.9287 4284242282
-28.447706 809.55322 1272.9287 4284176237
-30.818348 811.3656 1274.4569 4284308079
-30.699083 817.61731 1273.188 4284176993
-28.337614 817.61731 1273.188 4284308579
-30.699083 819.42261 1274.7102 4284374624
-28.337614 819.42261 1274.7102 4284571495
-22.34679 826.53839 1274.1699 4285689470
-9.3724775 831.8277 1272.0896 4292793828
-30.818348 813.17798 1275.9851 4283980643
-25.976147 821.22803 1276.2325 4285492335
-28.337614 823.03333 1277.7548 4285491052
-25.976147 823.03333 1277.7548 4286083189
-21.170643 829.23596 1276.4443 4285623672
-18.818348 829.23596 1276.4443 4288516240
-31.772476 754.737 1279.0303 4282007384
-9.7761469 754.737 1279.0303 4292796142
-30.818348 818.61511 1280.5696 4285031784
-28.447706 818.61511 1280.5696 4285163627
-25.976147 824.83875 1279.277 4286083189
-25.976147 826.6441 1280.7992 4286346359
-23.614679 826.6441 1280.7992 4285952636
-30.818348 820.42749 1282.0977 4285228136
