# .PCD v0.7 - Point Cloud Data file format
VERSION 0.7
FIELDS x y z rgb
SIZE 4 4 4 4
TYPE F F F U
COUNT 1 1 1 1
WIDTH 1051
HEIGHT 1
VIEWPOINT 0 0 0 1 0 0 0
POINTS 1051
DATA ascii
-78.533943 788.71143 1261.8956 4282403675
-73.774315 788.71143 1261.8956 4282994529
-73.489906 796.86664 1262.2317 4283060574
-76.388992 786.53699 1265.2943 4282797407
-70.421097 786.53699 1265.2943 4283388256
-64.453209 786.53699 1265.2943 4283256670
-62.066055 786.53699 1265.2943 4283256670
-78.533943 790.53076 1263.4297 4282731362
-73.774315 790.53076 1263.4297 4282928736
-70.20459 790.53076 1263.4297 4283388004
-64.255043 790.53076 1263.4297 4283322468
-61.875229 790.53076 1263.4297 4283518564
-78.533943 792.35016 1264.9637 4282797407
-76.154129 792.35016 1264.9637 4283124832
-73.774315 792.35016 1264.9637 4283190625
-70.20459 792.35016 1264.9637 4283715938
-64.255043 792.35016 1264.9637 4283519590
-61.875229 792.35016 1264.9637 4283715686
-57.115597 792.35016 1264.9637 4283715175
-78.231194 799.58514 1264.5239 4282798435
-75.86055 800.49133 1265.2881 4283191377
-73.489906 799.58514 1264.5239 4282994515
-71.119263 800.49133 1265.2881 4283256670
-51.952293 808.59045 1265.5769 4283718255
-49.590824 808.59045 1265.5769 4283718255
-44.867889 808.59045 1265.5769 4283652460
-82.330276 814.84912 1264.3138 4283123035
-82.330276 816.64746 1265.8301 4283189081
-64.70092 781.98688 1267.9979 4283190625
-62.304588 781.98688 1267.9979 4284110433
-58.710091 781.98688 1267.9979 4285030759
-52.719265 781.98688 1267.9979 4284703083
-81.1633 788.36194 1266.8331 4282533726
-76.388992 788.36194 1266.8331 4282928736
-66.84037 788.36194 1266.8331 4283519590
-58.485321 788.36194 1266.8331 4283386722
-54.904587 788.36194 1266.8331 4283189344
-52.517429 788.36194 1266.8331 4283256169
-81.1633 790.18695 1268.3719 4282731358
-66.84037 790.18695 1268.3719 4283585383
-59.678898 790.18695 1268.3719 4283781479
-54.904587 790.18695 1268.3719 4283583588
-52.517429 790.18695 1268.3719 4283386723
-83.293579 794.16956 1266.4978 4283124049
-78.533943 794.16956 1266.4978 4282797407
-76.154129 794.16956 1266.4978 4282994781
-70.20459 794.16956 1266.4978 4283519842
-66.634865 794.16956 1266.4978 4283519590
-64.255043 794.16956 1266.4978 4283519590
-61.875229 794.16956 1266.4978 4283519590
-57.115597 794.16956 1266.4978 4283519086
-54.735779 794.16956 1266.4978 4283321964
-52.355965 794.16956 1266.4978 4283388011
-76.154129 795.98895 1268.0319 4282929238
-70.20459 795.98895 1268.0319 4283454049
-66.634865 795.98895 1268.0319 4283519590
-64.255043 795.98895 1268.0319 4283519590
-61.875229 795.98895 1268.0319 4283388261
-57.115597 795.98895 1268.0319 4283257452
-54.735779 795.98895 1268.0319 4283191659
-52.355965 795.98895 1268.0319 4283257452
-78.231194 802.30371 1266.8162 4282861917
-75.86055 802.30371 1266.8162 4282862419
-73.489906 802.30371 1266.8162 4283125334
-71.119263 802.30371 1266.8162 4283256418
-67.563309 802.30371 1266.8162 4283519591
-64.007339 802.30371 1266.8162 4283585385
-61.636696 802.30371 1266.8162 4283190625
-54.524769 802.30371 1266.8162 4283520623
-52.154129 802.30371 1266.8162 4283520875
-49.783485 802.30371 1266.8162 4283520875
-79.416519 804.11609 1268.3444 4282861660
-75.86055 804.11609 1268.3444 4283189594
-73.489906 804.11609 1268.3444 4283453022
-71.119263 804.11609 1268.3444 4283190627
-67.563309 804.11609 1268.3444 4283651178
-64.007339 804.11609 1268.3444 4283716971
-61.636696 804.11609 1268.3444 4283716971
-59.266056 804.11609 1268.3444 4283782765
-55.710091 804.11609 1268.3444 4283716720
-52.154129 804.11609 1268.3444 4283718509
-49.783485 804.11609 1268.3444 4283849838
-46.227524 804.11609 1268.3444 4283651176
-42.671558 804.11609 1268.3444 4283650926
-85.01284 810.39581 1267.0991 4283123551
-82.651375 810.39581 1267.0991 4282728793
-80.289909 812.20117 1268.6213 4283189594
-76.747711 811.29846 1267.8602 4283320919
-73.205505 811.29846 1267.8602 4283584085
-70.84404 811.29846 1267.8602 4283780967
-68.482567 812.20117 1268.6213 4283912297
-51.952293 811.29846 1267.8602 4284111475
-49.590824 811.29846 1267.8602 4284045682
-47.229359 811.29846 1267.8602 4283784048
-44.080734 811.59937 1268.1139 4283784051
-82.330276 818.44586 1267.3464 4283320139
-55.326607 775.58368 1269.1392 4282924639
-52.921101 775.58368 1269.1392 4282992199
-61.340366 777.42273 1270.6898 4285292408
-57.732109 777.42273 1270.6898 4286079596
-55.326607 777.42273 1270.6898 4285882216
-52.921101 777.42273 1270.6898 4284702824
-49.312843 777.42273 1270.6898 4283059544
-67.097244 783.81885 1269.5426 4283519842
-58.710091 783.81885 1269.5426 4283190361
-55.115597 783.81885 1269.5426 4283255637
-52.719265 783.81885 1269.5426 4283322468
-50.322937 784.73486 1270.3149 4283322215
-47.926605 785.65088 1271.0874 4283649895
-81.959023 793.2287 1270.9365 4282205524
-59.678898 792.92444 1270.6802 4283519590
-50.130276 792.92444 1270.6802 4283651440
-46.549541 792.92444 1270.6802 4283322727
-42.968807 793.83698 1271.4495 4283716719
-69.014679 797.80835 1269.5659 4283519842
-66.634865 797.80835 1269.5659 4283519590
-64.255043 797.80835 1269.5659 4283519590
-61.875229 797.80835 1269.5659 4283388513
-58.305504 797.80835 1269.5659 4283454309
-54.735779 797.80835 1269.5659 4283389033
-52.355965 797.80835 1269.5659 4283389033
-49.976147 797.80835 1269.5659 4283389033
-46.406422 797.80835 1269.5659 4283257452
-85.673393 799.62775 1271.1001 4282926928
-83.293579 799.62775 1271.1001 4282992721
-80.913765 799.62775 1271.1001 4282861917
-58.305504 799.62775 1271.1001 4283585899
-46.406422 799.62775 1271.1001 4283520875
-42.836697 799.62775 1271.1001 4283520370
-85.343117 805.92847 1269.8724 4282926422
-82.972481 805.92847 1269.8724 4282926422
-79.416519 805.92847 1269.8724 4283058008
-75.86055 805.92847 1269.8724 4283452502
-73.489906 805.92847 1269.8724 4283518295
-71.119263 805.92847 1269.8724 4283320928
-67.563309 805.92847 1269.8724 4283716457
-64.007339 805.92847 1269.8724 4283980143
-61.636696 805.92847 1269.8724 4283980143
-59.266056 805.92847 1269.8724 4283980143
-55.710091 805.92847 1269.8724 4283979893
-47.412846 805.92847 1269.8724 4283389287
-42.671558 805.92847 1269.8724 4283652210
-40.300919 805.92847 1269.8724 4283652210
-80.601837 807.74084 1271.4006 4282860377
-67.563309 807.74084 1271.4006 4284044905
-64.007339 807.74084 1271.4006 4284374124
-61.636696 807.74084 1271.4006 4284111477
-59.266056 807.74084 1271.4006 4284177270
-55.710091 807.74084 1271.4006 4283980925
-42.671558 807.74084 1271.4006 4283849588
-40.300919 807.74084 1271.4006 4283849588
-37.930275 807.74084 1271.4006 4284111729
-80.289909 814.90918 1270.9047 4283386709
-76.747711 814.90918 1270.9047 4283386711
-73.205505 814.90918 1270.9047 4283584092
-70.84404 814.90918 1270.9047 4284437104
-67.301834 814.90924 1270.9047 4285556608
-63.759632 815.81189 1271.6658 4286149766
-61.398167 815.81189 1271.6658 4284444294
-59.036697 815.81189 1271.6658 4284378501
-55.888073 815.21014 1271.1583 4284177791
-51.952293 814.90918 1270.9047 4284439670
-49.590824 814.90918 1270.9047 4284373877
-47.229359 814.90918 1270.9047 4284242546
-43.687157 814.90924 1270.9047 4284111479
-48.477066 766.39941 1274.4755 4284175724
-49.500916 772.8446 1273.3698 4283452489
-45.878899 772.8446 1273.3698 4284965210
-43.464222 772.8446 1273.3698 4284766813
-41.049541 772.8446 1273.3698 4284503642
-45.878899 774.69067 1274.9263 4282271574
-43.464222 774.69067 1274.9263 4282398030
-41.049541 774.69067 1274.9263 4282661201
-38.634861 774.69067 1274.9263 4282990150
-67.354126 779.26178 1272.2404 4283322468
-55.326607 779.26178 1272.2404 4285622379
-49.312843 779.26178 1272.2404 4283715684
-45.704586 779.26178 1272.2404 4282925920
-43.299084 779.26178 1272.2404 4282661981
-40.893578 779.26178 1272.2404 4281806928
-38.488075 779.26178 1272.2404 4282071871
-48.110092 781.10083 1273.791 4283780966
-45.704586 781.10083 1273.791 4283978344
-43.299084 781.10083 1273.791 4283980141
-40.893578 781.10083 1273.791 4283585383
-37.285324 781.10083 1273.791 4281748571
-50.322937 787.48291 1272.6321 4283649895
-46.728439 787.48291 1272.6321 4283584102
-43.133945 787.48291 1272.6321 4283256418
-40.737614 787.48291 1272.6321 4283585383
-43.133945 789.31494 1274.1768 4283322468
-40.737614 789.31494 1274.1768 4283322468
-38.341286 789.31494 1274.1768 4283191659
-82.35688 795.66199 1272.9883 4282599256
-42.968807 795.66199 1272.9883 4283586419
-40.58165 796.57446 1273.7577 4283520370
-38.194496 797.48694 1274.5271 4283586669
-83.293579 801.44714 1272.6342 4282926926
-40.456882 801.44714 1272.6342 4283650926
-38.077065 802.35681 1273.4011 4284111728
-35.697247 803.26648 1274.1682 4284111729
-66.377983 809.55322 1272.9287 4284570995
-64.007339 809.55322 1272.9287 4284570995
-61.636696 809.55322 1272.9287 4283718255
-59.266056 809.55322 1272.9287 4284178806
-55.710091 809.55322 1272.9287 4284178302
-40.300919 809.55322 1272.9287 4283915129
-37.930275 809.55322 1272.9287 4284045684
-35.559631 809.55322 1272.9287 4284045684
-64.007339 811.3656 1274.4569 4284636275
-61.636696 811.3656 1274.4569 4284113013
-59.266056 811.3656 1274.4569 4284375928
-54.524769 811.3656 1274.4569 4284243066
-40.300919 811.3656 1274.4569 4283980673
-37.930275 811.3656 1274.4569 4283979637
-80.289909 817.61731 1273.188 4283519064
-75.566971 817.61731 1273.188 4283585885
-73.205505 817.61731 1273.188 4283783521
-70.84404 817.61731 1273.188 4284504189
-67.301834 817.61731 1273.188 4286215050
-61.398167 817.61731 1273.188 4285493132
-59.036697 817.61731 1273.188 4285229961
-55.494495 817.61731 1273.188 4284767624
-51.952293 817.61731 1273.188 4284833649
-49.590824 817.61731 1273.188 4284504940
-47.229359 817.61731 1273.188 4284308581
-44.867889 817.61731 1273.188 4284308581
-80.289909 819.42261 1274.7102 4283322970
-75.566971 819.42261 1274.7102 4283521375
-73.205505 819.42261 1274.7102 4283521375
-70.84404 819.42261 1274.7102 4283190375
-67.301834 819.42261 1274.7102 4283847789
-55.494495 819.42261 1274.7102 4284833149
-51.952293 819.42261 1274.7102 4285095542
-47.229359 819.42261 1274.7102 4284373618
-44.867889 819.42261 1274.7102 4284307825
-48.697247 759.37268 1276.3989 4283257958
-46.262386 759.37268 1276.3989 4283257958
-43.827522 760.30341 1277.1836 4283453799
-41.392662 760.30341 1277.1836 4283322212
-49.688992 768.25244 1276.038 4284371544
-46.053211 768.25244 1276.038 4285882216
-43.629356 768.25244 1276.038 4285422949
-41.205505 768.25244 1276.038 4284962398
-37.569725 770.10547 1277.6003 4284240735
-36.220184 776.53674 1276.4828 4282466373
-33.805504 776.53674 1276.4828 4282860879
-31.390825 776.53674 1276.4828 4283387479
-28.976147 776.53674 1276.4828 4282400862
-25.35413 776.53674 1276.4828 4281940042
-21.732111 776.53674 1276.4828 4283190096
-19.31743 776.53674 1276.4828 4283190375
-45.704586 782.93982 1275.3417 4283649895
-43.299084 782.93982 1275.3417 4283783521
-40.893578 782.93982 1275.3417 4283849314
-37.285324 782.93982 1275.3417 4282994793
-37.285324 784.77881 1276.8922 4283126636
-33.677063 784.77881 1276.8922 4283518816
-31.271559 784.77881 1276.8922 4283715938
-40.737614 791.14691 1275.7214 4283388011
-38.341286 791.14691 1275.7214 4283124834
-38.341286 792.97894 1277.2662 4283716971
-34.746788 792.97894 1277.2662 4283848557
-35.807339 799.31195 1276.0659 4284309363
-33.420185 801.13696 1277.6047 4283981426
-31.033028 801.13696 1277.6047 4283718255
-35.697247 805.08594 1275.7023 4284111729
-78.231194 814.99036 1277.5132 4283716442
-64.007339 814.99036 1277.5132 4286544257
-42.671558 814.99036 1277.5132 4284177270
-40.300919 814.08417 1276.7491 4284440444
-75.566971 821.22803 1276.2325 4283652962
-73.205505 821.22803 1276.2325 4283652962
-70.84404 821.22803 1276.2325 4283519590
-68.482567 821.22803 1276.2325 4283651176
-55.494495 821.22803 1276.2325 4284308080
-51.952293 821.22803 1276.2325 4284570995
-47.229359 821.22803 1276.2325 4284243068
-70.84404 823.03333 1277.7548 4283389287
-54.102753 829.23596 1276.4443 4284308075
-55.2789 831.0343 1277.9607 4284571247
-51.750458 831.0343 1277.9607 4285031532
-52.720184 835.4104 1275.1105 4286083450
-56.001835 763.09564 1279.538 4285689189
-52.349541 763.09564 1279.538 4285097327
-46.262386 763.09564 1279.538 4284175724
-43.827522 763.09564 1279.538 4284372578
-41.392662 763.09564 1279.538 4284372578
-36.3578 771.95856 1279.1628 4283253579
-33.933945 771.95856 1279.1628 4283846232
-31.510092 771.95856 1279.1628 4283714645
-29.086239 771.95856 1279.1628 4281876312
-26.662386 771.95856 1279.1628 4281678933
-33.805504 778.38275 1278.0393 4281680203
-31.390825 778.38275 1278.0393 4282469719
-28.976147 778.38275 1278.0393 4282794075
-25.35413 778.38275 1278.0393 4282267975
-14.488073 778.38275 1278.0393 4283126118
-33.805504 780.22882 1279.5958 4283190094
-31.390825 780.22882 1279.5958 4283519316
-28.976147 780.22882 1279.5958 4283123549
-26.561468 780.22882 1279.5958 4282071118
-36.082569 787.53735 1279.2183 4283388522
-33.677063 787.53735 1279.2183 4283519341
-31.271559 787.53735 1279.2183 4283519341
-28.866055 787.53735 1279.2183 4283519591
-34.746788 794.81097 1278.8109 4283652205
-31.152294 794.81097 1278.8109 4283454826
-33.548622 796.64294 1280.3556 4283980141
-31.152294 796.64294 1280.3556 4283651176
-28.755962 796.64294 1280.3556 4283651178
-33.420185 802.96198 1279.1434 4283915377
-31.033028 802.96198 1279.1434 4283915377
-33.420185 804.78699 1280.6823 4284111729
-35.697247 808.72467 1278.7704 4283979637
-38.077065 810.54407 1280.3044 4284045936
-35.697247 810.54407 1280.3044 4284045936
-79.021416 818.01099 1280.0602 4283651935
-66.377983 818.61511 1280.5696 4283913321
-64.007339 817.70892 1279.8054 4284636788
-61.636696 817.70892 1279.8054 4284505202
-59.266056 817.70892 1279.8054 4284439665
-49.783485 817.70892 1279.8054 4284964983
-45.042202 818.61511 1280.5696 4284111225
-42.671558 817.70892 1279.8054 4284242551
-59.036697 826.6441 1280.7992 4284242019
-56.675228 826.6441 1280.7992 4284374124
-51.952293 826.6441 1280.7992 4284441194
-51.324772 758.474 1282.1813 4284570732
-48.880733 758.474 1282.1813 4282995300
-46.436699 758.474 1282.1813 4283192422
-39.104588 758.474 1282.1813 4283651428
-36.660549 758.474 1282.1813 4283585635
-34.216515 758.474 1282.1813 4282994529
-39.104588 760.34247 1283.7567 4283979367
-36.660549 760.34247 1283.7567 4284702833
-53.566971 764.95709 1281.1075 4283189581
-37.740364 764.95709 1281.1075 4284110432
-34.088074 766.8186 1282.6771 4283716442
-31.653212 766.8186 1282.6771 4283519064
-29.218349 766.8186 1282.6771 4283322468
-19.390825 775.66467 1282.2877 4283451746
-16.966972 775.66467 1282.2877 4283780968
-24.238533 777.5177 1283.8501 4281940029
-21.814678 777.5177 1283.8501 4282268994
-19.390825 777.5177 1283.8501 4283058789
-16.966972 777.5177 1283.8501 4284572028
-14.543119 777.5177 1283.8501 4284506987
-28.976147 782.07483 1281.1523 4283518564
-26.561468 782.07483 1281.1523 4283386977
-25.35413 783.9209 1282.709 4283257186
-16.902752 783.9209 1282.709 4283388261
-31.271559 790.2959 1281.5442 4283651178
-28.866055 790.2959 1281.5442 4283585383
-26.46055 790.2959 1281.5442 4283519590
-28.866055 792.13495 1283.0947 4283651176
-26.46055 792.13495 1283.0947 4283519590
-28.755962 799.39099 1282.6726 4283914613
-33.420185 806.61194 1282.2211 4283915377
-31.033028 806.61194 1282.2211 4283915377
-28.645872 806.61194 1282.2211 4284113013
-33.420185 808.43701 1283.7599 4283981424
-31.033028 808.43701 1283.7599 4283915631
-28.645872 808.43701 1283.7599 4284113013
-38.077065 812.36346 1281.8385 4284440692
-35.697247 812.36346 1281.8385 4284177520
-40.456882 814.18286 1283.3726 4284572028
-79.416519 820.42749 1282.0977 4283520349
-75.86055 820.42749 1282.0977 4283126368
-73.489906 820.42749 1282.0977 4283257954
-67.563309 820.42749 1282.0977 4283717737
-64.007339 820.42749 1282.0977 4283849064
-61.636696 820.42749 1282.0977 4284044639
-59.266056 820.42749 1282.0977 4284110433
-55.710091 820.42749 1282.0977 4283980393
-52.154129 820.42749 1282.0977 4284111979
-49.783485 820.42749 1282.0977 4284243566
-46.227524 820.42749 1282.0977 4284243064
-71.119263 822.23987 1283.6259 4283849838
-67.563309 822.23987 1283.6259 4284046701
-64.007339 822.23987 1283.6259 4283849064
-61.636696 822.23987 1283.6259 4283913823
-59.266056 822.23987 1283.6259 4283979617
-55.710091 822.23987 1283.6259 4284176489
-52.154129 822.23987 1283.6259 4283980643
-47.412846 822.23987 1283.6259 4284373872
-63.759632 828.44946 1282.3214 4284309615
-61.398167 828.44946 1282.3214 4284440168
-59.036697 828.44946 1282.3214 4284374374
-34.216515 762.21094 1285.3322 4283585385
-31.772476 762.21094 1285.3322 4283322214
-29.32844 762.21094 1285.3322 4283388261
-24.238533 779.37079 1285.4126 4283191381
-21.814678 779.37079 1285.4126 4283191381
-19.390825 779.37079 1285.4126 4282929252
-16.966972 779.37079 1285.4126 4283916404
-14.543119 779.37079 1285.4126 4284441723
-21.814678 781.22388 1286.9751 4283126368
-19.390825 781.22388 1286.9751 4283322468
-14.543119 781.22388 1286.9751 4283585385
-25.35413 785.76697 1284.2655 4283322982
-16.902752 785.76697 1284.2655 4283191661
-24.14679 787.61298 1285.822 4283388007
-21.732111 787.61298 1285.822 4283388007
-19.31743 787.61298 1285.822 4283388533
-16.902752 787.61298 1285.822 4283388533
-14.488073 787.61298 1285.822 4282863209
-25.257797 793.974 1284.6454 4283651177
-25.257797 795.81299 1286.196 4283651950
-19.244038 795.81299 1286.196 4283718768
-31.152294 802.13904 1284.9897 4284111729
-28.755962 802.13904 1284.9897 4283915381
-26.359632 803.97107 1286.5344 4284375928
-22.765137 803.97107 1286.5344 4284374899
-19.170643 803.97107 1286.5344 4284177270
-38.194496 812.08698 1286.8374 4284440694
-34.2159 811.4787 1286.3246 4284244084
-31.033028 811.17444 1286.0681 4284113011
-28.645872 811.17444 1286.0681 4284244342
-42.836697 817.82166 1286.4407 4284570995
-67.563309 824.05225 1285.1539 4284243054
-64.007339 824.05225 1285.1539 4284176489
-61.636696 824.05225 1285.1539 4284110433
-67.563309 825.86462 1286.6821 4284177775
-34.344955 757.58936 1287.9755 4283388531
-31.891743 757.58936 1287.9755 4282994029
-21.913761 772.40302 1287.3857 4282794306
-21.814678 783.0769 1288.5375 4283126116
-19.390825 783.0769 1288.5375 4283191661
-14.543119 783.0769 1288.5375 4282995050
-24.14679 789.45898 1287.3785 4283388261
-21.732111 790.38202 1288.1567 4283585383
-19.31743 790.38202 1288.1567 4283388525
-16.902752 789.45898 1287.3785 4283519086
-14.488073 789.45898 1287.3785 4282928486
-25.257797 797.65204 1287.7466 4283783794
-21.649542 797.65204 1287.7466 4283652462
-19.244038 797.65204 1287.7466 4283849838
-25.257797 799.49109 1289.2972 4284178807
-21.649542 799.49109 1289.2972 4283915631
-19.244038 799.49109 1289.2972 4284111729
-14.433027 799.49109 1289.2972 4284111729
-26.359632 805.80304 1288.0791 4284178806
-22.765137 805.80304 1288.0791 4283784048
-19.170643 805.80304 1288.0791 4284179060
-26.359632 807.63507 1289.6239 4284178806
-22.765137 807.63507 1289.6239 4284310135
-19.170643 807.63507 1289.6239 4284310385
-40.58165 813.91199 1288.3762 4284768126
-38.194496 813.91199 1288.3762 4284506233
-35.807339 813.91199 1288.3762 4284506233
-31.033028 813.91199 1288.3762 4284900991
-78.533943 819.64099 1287.9747 4284111979
-76.154129 819.64099 1287.9747 4283980393
-73.774315 820.55072 1288.7417 4283979880
-71.394493 821.46045 1289.5088 4284045934
-49.976147 819.64099 1287.9747 4284178022
-46.406422 820.55072 1288.7417 4284373870
-9.7761469 769.68494 1291.634 4282466907
-7.3321099 769.68494 1291.634 4282861665
-12.174312 776.12592 1290.5248 4283520621
-9.7394495 776.12592 1290.5248 4283912547
-7.3045874 776.12592 1290.5248 4283518045
-12.174312 777.98743 1292.0944 4283519592
-9.7394495 777.98743 1292.0944 4283519842
-7.3045874 777.98743 1292.0944 4283322464
-4.8697248 777.98743 1292.0944 4282665567
-12.119267 784.92993 1290.1 4283126381
-12.119267 786.78302 1291.6624 4283191659
-21.732111 793.15112 1290.4916 4283520875
-16.902752 794.0741 1291.2698 4283718510
-14.488073 794.0741 1291.2698 4283914863
-16.838531 802.24963 1291.6232 4284112244
-13.631192 802.55615 1291.8816 4284177271
-26.359632 809.46704 1291.1686 4284310135
-22.765137 809.46704 1291.1686 4284310135
-19.170643 809.46704 1291.1686 4284113011
-33.548622 811.29907 1292.7133 4284703869
-28.755962 811.29907 1292.7133 4284506233
-26.359632 811.29907 1292.7133 4284506233
-22.765137 811.29907 1292.7133 4284309108
-19.170643 811.29907 1292.7133 4284177270
-42.968807 817.56201 1291.4539 4284571497
-78.776146 819.38696 1292.9927 4284439647
-76.388992 819.38696 1292.9927 4284176489
-50.130276 819.38696 1292.9927 4284178022
-45.355965 819.38696 1292.9927 4284768626
-71.394493 823.27979 1291.0428 4284045934
-49.976147 823.27979 1291.0428 4285294704
-47.596329 823.27979 1291.0428 4285294706
-49.976147 825.09918 1292.5769 4286345850
-47.596329 825.09918 1292.5769 4286477695
-12.266055 766.9668 1295.8823 4282270809
-4.9064221 766.9668 1295.8823 4283123549
-2.4532111 766.9668 1295.8823 4283386977
1.2266055 766.9668 1295.8823 4283977838
-12.220183 771.55341 1293.2095 4282730576
-9.7761469 771.55341 1293.2095 4282664281
-7.3321099 771.55341 1293.2095 4282664281
-4.8880734 772.48767 1293.9972 4282663766
-2.4440367 772.48767 1293.9972 4282597974
0 772.48767 1293.9972 4283058271
-12.174312 779.84888 1293.6639 4282929257
-9.7394495 779.84888 1293.6639 4282863459
-7.3045874 779.84888 1293.6639 4282995302
-4.8697248 779.84888 1293.6639 4283191911
-2.4348624 779.84888 1293.6639 4283191911
-9.7394495 781.71033 1295.2334 4283191911
-7.3045874 781.71033 1295.2334 4283126118
-4.8697248 781.71033 1295.2334 4283257704
-2.4348624 781.71033 1295.2334 4283257704
-16.966972 788.63611 1293.2249 4283257452
-12.119267 788.63611 1293.2249 4283126118
-12.119267 790.48914 1294.7874 4283586669
-16.902752 796.8432 1293.6047 4284111729
-12.073395 796.8432 1293.6047 4283980143
-12.073395 798.68921 1295.1613 4284111477
-9.6587152 798.68921 1295.1613 4284045936
-16.838531 805.92767 1294.7244 4284310643
-13.631192 805.62115 1294.4659 4284375164
-82.673393 814.96313 1295.8027 4283519579
-40.737614 814.04712 1295.0303 4284834674
-34.746788 814.04712 1295.0303 4284374127
-31.152294 814.04712 1295.0303 4284505453
-28.755962 814.04712 1295.0303 4284177009
-26.359632 814.04712 1295.0303 4284242545
-22.365747 814.35248 1295.2877 4284308341
-19.170643 814.04712 1295.0303 4284373621
-74.001831 821.21198 1294.5314 4283849064
-45.355965 821.21198 1294.5314 4285426292
-42.968807 821.21198 1294.5314 4285623424
-4.9247708 762.36627 1298.5435 4283190377
-2.4623854 762.36627 1298.5435 4283387757
0 762.36627 1298.5435 4283321964
-2.4440367 775.29034 1296.3604 4282270809
0 775.29034 1296.3604 4282730074
0 777.15887 1297.9358 4283191911
-14.609175 785.43329 1298.3726 4283191911
-9.7394495 784.50256 1297.5878 4283257450
-7.3045874 784.50256 1297.5878 4283257450
-4.8697248 784.50256 1297.5878 4283519594
-2.4348624 783.57184 1296.803 4283519592
0 784.50256 1297.5878 4283388004
-12.119267 792.34216 1296.3497 4283848812
-9.6954126 793.26868 1297.131 4283914350
0 794.19525 1297.9122 4284175724
-9.6587152 800.53528 1296.7178 4284506487
-9.6587152 802.38135 1298.2743 4284440694
-7.2440367 802.38135 1298.2743 4284243316
-16.838531 808.68622 1297.0503 4284703615
-13.230275 808.68622 1297.0503 4284309113
-9.6220188 808.68622 1297.0503 4284177270
-7.2165136 808.68622 1297.0503 4284111477
-38.488075 810.52527 1298.601 4284111729
-24.055046 810.52527 1298.601 4284111729
-16.838531 810.52527 1298.601 4284636790
-14.433027 810.52527 1298.601 4284506487
-9.6220188 810.52527 1298.601 4284507771
-7.2165136 810.52527 1298.601 4284441977
-81.475227 816.79517 1297.3474 4284242525
-79.078896 818.62714 1298.8921 4284505438
-43.133945 816.79517 1297.3474 4285426042
-40.737614 817.71118 1298.1198 4285557629
-33.548622 816.79517 1297.3474 4285031285
-31.152294 816.79517 1297.3474 4284899698
-28.755962 816.79517 1297.3474 4284832627
-45.355965 823.94946 1296.8396 4286412677
-42.968807 823.94946 1296.8396 4286346881
-9.8862381 757.75165 1301.1926 4282797414
-7.4146791 757.75165 1301.1926 4282797414
-4.943119 757.75165 1301.1926 4283190627
0 757.75165 1301.1926 4283060073
2.4623854 766.13135 1301.718 4283913067
2.4532111 770.71783 1299.0452 4282927456
2.4532111 772.59332 1300.6265 4282664281
0 779.02734 1299.5114 4283388261
-9.7394495 787.2948 1299.942 4283389037
-7.3045874 787.2948 1299.942 4283454830
-4.8697248 787.2948 1299.942 4283651178
-2.4348624 787.2948 1299.942 4283585385
0 787.2948 1299.942 4284241517
-7.3045874 789.15625 1301.5116 4283782765
-4.8697248 789.15625 1301.5116 4283783019
-2.4348624 789.15625 1301.5116 4283716969
0 789.15625 1301.5116 4284175976
-7.2715597 797.90137 1301.0371 4284177522
-4.8477063 797.90137 1301.0371 4284111727
0 797.90137 1301.0371 4284373618
-12.073395 804.22736 1299.8308 4284112761
-9.6587152 804.22736 1299.8308 4284177270
-7.2440367 804.22736 1299.8308 4284111477
-4.8293576 806.07336 1301.3873 4283981174
-2.4146788 806.07336 1301.3873 4284046968
0 806.07336 1301.3873 4284507521
-38.488075 812.36426 1300.1516 4284373618
-16.838531 812.36426 1300.1516 4284636538
-14.433027 812.36426 1300.1516 4284638071
-9.6220188 812.36426 1300.1516 4284573816
-37.285324 814.20331 1301.7021 4284768630
-25.257797 814.20331 1301.7021 4284832885
-21.649542 814.20331 1301.7021 4284833399
-19.244038 814.20331 1301.7021 4284833653
-16.838531 814.20331 1301.7021 4284833653
-40.737614 820.45917 1300.4368 4285492088
-31.152294 820.45917 1300.4368 4285361269
-28.755962 820.45917 1300.4368 4285164668
-26.359632 820.45917 1300.4368 4285098874
-40.737614 822.2912 1301.9814 4286281086
-31.152294 822.2912 1301.9814 4286479235
-28.755962 822.2912 1301.9814 4286150279
-26.359632 822.2912 1301.9814 4286018693
-23.963303 822.2912 1301.9814 4286019193
-9.8862381 759.64117 1302.7859 4282928486
-7.4146791 759.64117 1302.7859 4282994279
4.9247708 768.95508 1304.0989 4283058258
7.387156 768.95508 1304.0989 4283387223
2.4532111 775.40662 1302.9985 4283191396
-2.4440367 782.76428 1302.6622 4283519340
-7.3045874 791.0177 1303.0812 4283848558
-4.8697248 791.0177 1303.0812 4283783015
-2.4348624 791.0177 1303.0812 4283717221
-7.3045874 792.87921 1304.6508 4283848558
-4.8697248 792.87921 1304.6508 4283849314
-2.4348624 792.87921 1304.6508 4283849314
0 792.87921 1304.6508 4284242030
-4.8477063 799.75439 1302.5996 4284309363
-2.4238532 799.75439 1302.5996 4284572278
0 799.75439 1302.5996 4284572280
-4.8477063 801.60742 1304.162 4284113013
-2.4238532 801.60742 1304.162 4284178806
0 801.60742 1304.162 4284375932
-12.073395 808.84247 1303.7222 4284572279
-7.2440367 809.7655 1304.5005 4284573816
-4.8293576 807.91943 1302.9438 4284638073
-84.192657 816.04236 1303.2528 4284702824
-76.976151 816.04236 1303.2528 4284046186
-37.285324 816.96191 1304.0281 4285097334
-33.677063 816.96185 1304.0281 4285229430
-31.271559 816.04236 1303.2528 4284900469
-28.866055 816.04236 1303.2528 4284636788
-24.85688 816.65533 1303.7697 4284834935
2.4825687 756.37109 1307.8767 4283716722
4.9651375 756.37109 1307.8767 4283847274
4.943119 763.42023 1305.9723 4283912820
7.4146791 763.42023 1305.9723 4284241528
9.8862381 765.30975 1307.5654 4284373618
4.9247708 771.77887 1306.4799 4283321180
7.387156 771.77887 1306.4799 4283321180
2.4532111 778.21985 1305.3706 4284177520
4.9064221 778.21985 1305.3706 4283785856
7.359633 778.21985 1305.3706 4282798961
2.4532111 780.09534 1306.952 4285691016
4.9064221 780.09534 1306.952 4285098136
7.359633 780.09534 1306.952 4284637585
2.4440367 787.43555 1306.6008 4286478733
4.8880734 788.36975 1307.3887 4287598761
7.3321099 788.36975 1307.3887 4287598761
-2.4348624 794.74066 1306.2202 4284111727
-2.4238532 805.3136 1307.2869 4284572280
0 805.3136 1307.2869 4284966786
-84.513763 811.61151 1306.057 4283979096
-13.280734 811.61151 1306.057 4284834419
-9.6587152 811.61151 1306.057 4284243570
-7.2440367 811.61151 1306.057 4284769914
-82.099083 813.45758 1307.6135 4284505438
-21.732111 813.45758 1307.6135 4284636790
-19.31743 813.45758 1307.6135 4284637040
-16.902752 813.45758 1307.6135 4284571247
-13.280734 813.45758 1307.6135 4284638324
-9.6587152 813.45758 1307.6135 4284638323
-7.2440367 813.45758 1307.6135 4284901495
-37.285324 819.7204 1306.354 4286478717
-33.677063 819.7204 1306.354 4286545028
4.9651375 758.26904 1309.4771 4283847274
7.4477062 758.26904 1309.4771 4283913067
9.8862381 767.19928 1309.1587 4283585885
12.357799 767.19928 1309.1587 4284112229
9.8862381 769.08881 1310.7518 4282861917
13.593578 769.08881 1310.7518 4282862688
4.9247708 773.66138 1308.0671 4283060324
7.387156 773.66138 1308.0671 4282928482
9.8495417 775.54388 1309.6545 4283124832
2.4532111 781.97083 1308.5333 4286544272
4.9064221 781.97083 1308.5333 4286874533
7.359633 781.97083 1308.5333 4287006120
4.9064221 783.84631 1310.1147 4287991974
7.359633 783.84631 1310.1147 4288781234
9.8128443 783.84631 1310.1147 4287400114
2.4440367 790.23828 1308.9641 4285689732
7.3321099 790.23828 1308.9641 4287860886
2.4440367 792.10675 1310.5396 4284373618
4.8880734 792.10675 1310.5396 4284307575
7.3321099 792.10675 1310.5396 4284768126
2.4348624 799.39435 1310.144 4284310140
4.8697248 800.32507 1310.9288 4284506233
-87.258713 809.01965 1310.4117 4283913303
-4.8477063 807.16663 1308.8494 4284769912
-2.4238532 808.09314 1309.6306 4284638326
0 807.16663 1308.8494 4285163132
-21.732111 815.30359 1309.17 4285230715
-9.6587152 815.30359 1309.17 4285559675
-7.2440367 815.30359 1309.17 4285362296
-2.4146788 815.30359 1309.17 4284769914
0 815.30359 1309.17 4284703867
-9.6587152 817.14966 1310.7266 4285493630
9.9669724 755.5509 1313.7253 4283519340
9.930275 760.16699 1311.0774 4283979637
13.654128 762.06494 1312.6776 4284374388
9.8862381 770.97833 1312.3451 4282731360
13.593578 770.97833 1312.3451 4282796902
13.593578 772.86786 1313.9382 4283651179
9.8495417 778.36768 1312.0354 4285362568
12.311927 778.36768 1312.0354 4285165190
9.8128443 785.7218 1311.6962 4287794098
12.266055 785.7218 1311.6962 4287794098
4.9064221 787.59735 1313.2775 4287729299
9.8128443 787.59735 1313.2775 4287991218
2.4440367 793.97522 1312.115 4284309109
4.8880734 793.97522 1312.115 4284439162
7.3321099 793.97522 1312.115 4284373368
4.8880734 795.84375 1313.6904 4284572026
7.3321099 795.84375 1313.6904 4284572026
2.4348624 802.18652 1312.4984 4284769664
4.8697248 802.18652 1312.4984 4284310137
-19.390825 812.72583 1313.5366 4285230715
-16.966972 812.72583 1313.5366 4285427837
-13.331193 812.72583 1313.5366 4285691012
-4.8477063 811.79932 1312.7554 4284967035
-2.4238532 810.87274 1311.9742 4284704119
0 810.87274 1311.9742 4284506233
13.704587 757.45593 1315.3315 4283914099
17.442202 759.36084 1316.9377 4284177522
14.895412 763.96289 1314.278 4284047218
17.377981 765.86084 1315.8783 4283126631
14.829358 774.75739 1315.5315 4283718768
17.300917 774.75739 1315.5315 4283258217
12.311927 781.19141 1314.4164 4287070892
14.774312 783.07397 1316.0037 4287662250
9.8128443 790.41058 1315.6495 4285162115
13.083793 790.72314 1315.9131 4286018185
7.3321099 797.71222 1315.2659 4284703869
7.3321099 799.58069 1316.8413 4284770688
-4.8697248 805.90955 1315.6376 4284769912
0 805.90955 1315.6376 4284636538
-21.814678 814.57886 1315.0991 4286216828
-19.390825 814.57886 1315.0991 4285822597
-16.966972 814.57886 1315.0991 4285559425
-13.331193 814.57886 1315.0991 4285559427
17.442202 761.26581 1318.5439 4284113011
19.933945 761.26581 1318.5439 4284243064
17.377981 767.75873 1317.4785 4283191409
19.86055 767.75873 1317.4785 4283781229
17.377981 769.65668 1319.0789 4283716719
19.86055 769.65668 1319.0789 4283716719
22.343119 769.65668 1319.0789 4286019474
24.825687 769.65668 1319.0789 4286875287
14.829358 776.64697 1317.1246 4286548128
17.300917 776.64697 1317.1246 4285035146
14.829358 778.5365 1318.7179 4287006883
17.300917 778.5365 1318.7179 4286480539
19.772476 778.5365 1318.7179 4283916958
12.311927 784.95642 1317.5909 4289175492
14.774312 786.83899 1319.1782 4286741137
9.8128443 793.22382 1318.0216 4284834171
13.492661 793.22382 1318.0216 4283980398
17.172478 793.22382 1318.0216 4284179056
9.8128443 795.0993 1319.603 4284703869
13.492661 795.0993 1319.603 4284638073
2.4440367 802.38342 1319.2046 4285031549
4.8880734 802.38342 1319.2046 4284965496
7.3321099 801.44922 1318.4169 4285755525
2.4348624 809.63245 1318.7766 4284703867
4.8697248 809.63245 1318.7766 4285492599
20.007339 756.6568 1321.198 4283718509
22.508257 757.61279 1322.0042 4284178037
25.009174 758.56879 1322.8102 4284702833
19.933945 763.17078 1320.1503 4283847274
22.425688 763.17078 1320.1503 4286215822
22.425688 765.07574 1321.7565 4286478742
24.917431 765.07574 1321.7565 4287266977
19.86055 772.5036 1321.4792 4283193721
22.343119 772.5036 1321.4792 4283851394
24.825687 772.5036 1321.4792 4284967784
14.829358 782.31555 1321.9043 4287661996
17.300917 781.37079 1321.1077 4287465129
19.772476 781.37079 1321.1077 4287401904
22.244038 781.37079 1321.1077 4287204525
29.658716 782.31555 1321.9043 4285099158
17.236698 788.7215 1320.7655 4286479746
9.8128443 796.97485 1321.1843 4284901509
13.492661 796.97485 1321.1843 4284703871
9.8128443 798.85034 1322.7657 4285557640
12.266055 798.85034 1322.7657 4285097089
2.4440367 805.18616 1321.5677 4284506233
4.8880734 805.18616 1321.5677 4284768376
7.3321099 805.18616 1321.5677 4285097341
25.009174 760.48071 1324.4222 4286609547
28.655045 766.98071 1323.3627 4289769159
28.655045 768.88562 1324.9689 4288650639
32.392662 768.88562 1324.9689 4290886835
22.343119 775.35052 1323.8798 4283522200
24.825687 775.35052 1323.8798 4283784311
28.549541 775.35052 1323.8798 4283850097
24.825687 777.24847 1325.48 4286941608
28.549541 777.24847 1325.48 4286217622
32.273396 777.24847 1325.48 4285032829
17.300917 784.20508 1323.4974 4287069846
19.772476 784.20508 1323.4974 4288977845
22.244038 784.20508 1323.4974 4288583087
24.715597 784.20508 1323.4974 4287600319
28.422935 784.20508 1323.4974 4285100442
19.772476 786.0946 1325.0907 4287599513
22.244038 786.0946 1325.0907 4287862684
24.715597 786.0946 1325.0907 4287926970
28.422935 786.0946 1325.0907 4285690777
32.130276 786.0946 1325.0907 4284836752
17.236698 793.42773 1324.7336 4284638073
19.699083 794.36902 1325.5273 4284900991
29.548624 792.48651 1323.9401 4285164672
7.359633 800.72583 1324.3472 4285031033
9.8128443 800.72583 1324.3472 4284833151
13.492661 800.72583 1324.3472 4284964991
9.8128443 802.60132 1325.9285 4284570493
13.492661 802.60132 1325.9285 4284768123
7.3321099 807.05463 1323.1432 4285295476
9.7761469 807.05463 1323.1432 4285163384
27.510092 762.3927 1326.0344 4291806694
31.261467 763.34869 1326.8406 4292200943
28.655045 770.79059 1326.5751 4283784554
32.392662 770.79059 1326.5751 4284508534
58.555962 770.79059 1326.5751 4293255920
62.293579 770.79059 1326.5751 4293321973
32.392662 772.69556 1328.1813 4284047470
24.825687 779.14642 1327.0803 4287205811
27.308256 779.14642 1327.0803 4286153123
32.273396 779.14642 1327.0803 4284835729
34.755962 779.14642 1327.0803 4284376703
32.273396 781.04437 1328.6807 4284508561
34.755962 781.04437 1328.6807 4284573566
19.772476 787.98413 1326.6838 4284967808
22.244038 787.98413 1326.6838 4285362566
24.715597 787.98413 1326.6838 4285951381
28.422935 787.98413 1326.6838 4285755280
32.130276 787.98413 1326.6838 4284966786
19.772476 789.87366 1328.2771 4284639359
22.244038 789.87366 1328.2771 4285231239
24.715597 789.87366 1328.2771 4285427587
27.187157 789.87366 1328.2771 4285559173
32.130276 789.87366 1328.2771 4284901243
34.601833 789.87366 1328.2771 4284507771
14.774312 796.25153 1327.1146 4285097091
17.236698 796.25153 1327.1146 4285294470
17.236698 798.13403 1328.7019 4285491332
13.492661 804.47681 1327.5099 4285624190
17.172478 804.47681 1327.5099 4285295224
27.631193 757.25275 1329.5487 4289964990
31.399082 757.25275 1329.5487 4291872219
32.655045 759.1731 1331.168 4293384191
35.166973 759.1731 1331.168 4292991206
52.750458 759.1731 1331.168 4293649650
55.262386 759.1731 1331.168 4293254894
35.012844 766.21667 1329.2587 4292070102
47.517429 766.21667 1329.2587 4293453041
52.519264 766.21667 1329.2587 4293386734
55.020184 766.21667 1329.2587 4293320687
57.521099 766.21667 1329.2587 4293320687
35.012844 768.12866 1330.8708 4285626765
46.266972 768.12866 1330.8708 4293320687
52.519264 768.12866 1330.8708 4293255405
55.020184 768.12866 1330.8708 4293255405
34.884403 774.60052 1329.7875 4283720565
37.376148 776.50549 1331.3937 4284508032
39.867889 776.50549 1331.3937 4285429638
43.605507 776.50549 1331.3937 4292402153
47.343121 776.50549 1331.3937 4293519347
34.755962 782.94232 1330.2809 4284507780
37.238533 782.94232 1330.2809 4284771208
39.7211 782.94232 1330.2809 4284573312
43.444954 782.94232 1330.2809 4290163908
34.755962 784.84027 1331.8812 4284310135
37.238533 784.84027 1331.8812 4284375928
39.7211 784.84027 1331.8812 4284506233
43.444954 784.84027 1331.8812 4289241530
22.244038 791.76318 1329.8702 4285164420
24.715597 791.76318 1329.8702 4284639868
28.422935 791.76318 1329.8702 4284573820
32.130276 791.76318 1329.8702 4284770686
34.601833 791.76318 1329.8702 4284573564
19.772476 793.65271 1331.4635 4285294720
22.244038 793.65271 1331.4635 4285623685
24.715597 793.65271 1331.4635 4285361794
28.422935 793.65271 1331.4635 4285428354
32.130276 793.65271 1331.4635 4285363329
34.601833 793.65271 1331.4635 4285493382
42.016514 793.65271 1331.4635 4288847247
17.236698 800.01654 1330.2892 4285163132
19.699083 800.01654 1330.2892 4285294202
19.699083 801.89905 1331.8765 4285097328
4.9064221 806.35229 1329.0912 4285887093
35.166973 761.09351 1332.7871 4292596196
46.470642 761.09351 1332.7871 4293254892
50.238533 761.09351 1332.7871 4292925929
52.750458 761.09351 1332.7871 4293320687
55.262386 761.09351 1332.7871 4293254381
42.702751 763.01392 1334.4064 4293781240
45.21468 763.01392 1334.4064 4293518834
50.238533 763.01392 1334.4064 4293254892
35.012844 770.04059 1332.4829 4284574577
46.266972 770.04059 1332.4829 4293189614
52.519264 770.04059 1332.4829 4293320685
55.020184 770.04059 1332.4829 4293255405
57.521099 770.04059 1332.4829 4293321198
61.272476 770.04059 1332.4829 4292861167
40.014679 771.95258 1334.0951 4286808990
42.515594 771.95258 1334.0951 4292204017
46.266972 771.95258 1334.0951 4293387509
52.519264 771.95258 1334.0951 4293716210
55.020184 771.95258 1334.0951 4293518582
57.521099 771.95258 1334.0951 4292334051
60.022018 771.95258 1334.0951 4290952919
37.376148 778.41046 1332.9999 4284507517
39.867889 778.41046 1332.9999 4284179321
43.605507 778.41046 1332.9999 4290560731
47.343121 778.41046 1332.9999 4292994815
47.343121 780.31543 1334.6061 4294044144
49.834862 780.31543 1334.6061 4292597730
52.326607 780.31543 1334.6061 4288715942
37.238533 786.73822 1333.4816 4284375928
39.7211 786.73822 1333.4816 4284376701
43.444954 786.73822 1333.4816 4287599531
19.772476 795.54224 1333.0566 4285360766
22.244038 796.487 1333.8533 4285426045
24.715597 796.487 1333.8533 4285491828
28.011009 796.17206 1333.5878 4285492343
32.130276 795.54224 1333.0566 4285559679
34.601833 795.54224 1333.0566 4285691012
42.016514 795.54224 1333.0566 4293317844
7.387156 803.78162 1333.4637 4286084729
17.236698 803.78162 1333.4637 4285821046
37.816513 757.4538 1336.2583 4293254124
40.337616 758.41748 1337.0709 4293385708
42.858715 757.4538 1336.2583 4293254379
46.640366 756.49011 1335.4458 4293189351
50.42202 756.49011 1335.4458 4293189099
40.190826 764.93433 1336.0256 4292201954
42.702751 764.93433 1336.0256 4293320435
50.238533 764.93433 1336.0256 4293058283
37.678898 766.85468 1337.6448 4288522413
40.190826 766.85468 1337.6448 4289769176
42.702751 766.85468 1337.6448 4292729855
50.238533 766.85468 1337.6448 4293123306
50.018349 773.86456 1335.7072 4293584627
52.519264 773.86456 1335.7072 4293913592
55.020184 773.86456 1335.7072 4292532468
57.521099 773.86456 1335.7072 4290624471
50.018349 775.77649 1337.3193 4293321973
52.519264 775.77649 1337.3193 4291216340
55.020184 775.77649 1337.3193 4287996097
57.521099 775.77649 1337.3193 4285495962
47.343121 782.22034 1336.2123 4289568439
49.834862 782.22034 1336.2123 4287530930
52.326607 782.22034 1336.2123 4285096589
47.343121 784.12531 1337.8186 4287138210
49.834862 784.12531 1337.8186 4285625223
52.326607 784.12531 1337.8186 4284440692
37.238533 788.63611 1335.0818 4284507771
39.7211 788.63611 1335.0818 4283787114
43.444954 788.63611 1335.0818 4284970639
47.168808 788.63611 1335.0818 4283983251
37.238533 790.53406 1336.6821 4285098624
39.7211 790.53406 1336.6821 4287334008
44.686237 790.53406 1336.6821 4287399344
47.168808 790.53406 1336.6821 4285228175
22.244038 799.32129 1336.243 4285294706
24.715597 799.32129 1336.243 4286606959
27.187157 799.32129 1336.243 4286935668
19.772476 801.21082 1337.8363 4285886591
37.816513 760.34491 1338.696 4293254633
40.337616 760.34491 1338.696 4293188847
37.816513 762.27234 1340.3212 4289903310
37.678898 768.77509 1339.264 4284246909
50.238533 768.77509 1339.264 4293453039
60.28624 770.69543 1340.8833 4287600569
55.020184 778.64447 1339.7375 4285100674
57.521099 777.68848 1338.9314 4284377464
49.834862 786.03027 1339.4248 4283784561
29.790825 794.32996 1339.8827 4285951353
32.273396 794.32996 1339.8827 4286148732
34.755962 794.32996 1339.8827 4286084236
37.238533 793.38098 1339.0825 4286742933
39.7211 793.38098 1339.0825 4290686377
43.858715 793.69727 1339.3492 4293254117
47.168808 793.38098 1339.0825 4292596967
49.651375 793.38098 1339.0825 4292070883
52.133945 794.32996 1339.8827 4291939549
63.027523 766.12708 1343.5714 4288123819
60.28624 772.61584 1342.5024 4283195263
55.020184 781.51245 1342.1556 4284637040
57.521099 781.51245 1342.1556 4284768626
52.519264 783.42444 1343.7678 4284245112
55.020184 783.42444 1343.7678 4285490793
49.834862 787.93524 1341.031 4284572280
52.326607 787.93524 1341.031 4284506487
52.326607 789.84021 1342.6372 4290491597
29.790825 796.22791 1341.483 4287593352
32.273396 796.22791 1341.483 4287527559
34.755962 796.22791 1341.483 4288055689
37.238533 796.22791 1341.483 4288976791
39.7211 796.22791 1341.483 4291607493
22.343119 798.12585 1343.0833 4286347142
24.825687 798.12585 1343.0833 4287463809
28.549541 798.12585 1343.0833 4288187029
32.273396 798.12585 1343.0833 4288317600
34.755962 798.12585 1343.0833 4289042847
37.238533 798.12585 1343.0833 4291279553
39.7211 798.12585 1343.0833 4292003292
64.288071 769.01819 1346.0092 4284508282
68.069725 769.01819 1346.0092 4288388000
70.590828 769.98193 1346.8218 4290224838
57.774311 776.4566 1345.741 4284376182
60.28624 775.49646 1344.9314 4284047216
55.020184 785.33636 1345.3799 4284899698
55.020184 787.24835 1346.9921 4287272358
24.825687 800.0238 1344.6836 4288647065
65.834862 762.94958 1348.7405 4285624982
68.366974 762.94958 1348.7405 4287532979
64.288071 771.9093 1348.4469 4283915883
68.069725 771.9093 1348.4469 4287532436
70.590828 771.9093 1348.4469 4289765564
60.28624 778.37701 1347.3601 4285098874
57.774311 780.29742 1348.9794 4286872190
60.28624 780.29742 1348.9794 4288519861
64.288071 773.83673 1350.072 4284439913
68.069725 773.83673 1350.072 4287400850
70.590828 773.83673 1350.072 4289306294
64.288071 775.76416 1351.6971 4285362559
68.069725 775.76416 1351.6971 4286416018
70.590828 775.76416 1351.6971 4288978335
57.774311 782.21777 1350.5986 4286939282
60.50642 779.6189 1354.9474 4288650418
64.288071 778.65521 1354.1348 4288717495
68.069725 778.65521 1354.1348 4286612633
70.590828 778.65521 1354.1348 4285427079
73.111923 778.65521 1354.1348 4285032322
57.985321 781.54633 1356.5725 4286153877
60.50642 781.54633 1356.5725 4286411936
64.288071 781.54633 1356.5725 4286412704
68.069725 781.54633 1356.5725 4285032075
65.548622 783.47375 1358.1978 4285691529
68.069725 783.47375 1358.1978 4284902013
70.899086 778.43616 1361.7983 4284639620
