# .PCD v0.7 - Point Cloud Data file format
VERSION 0.7
FIELDS x y z rgb
SIZE 4 4 4 4
TYPE F F F U
COUNT 1 1 1 1
WIDTH 1137
HEIGHT 1
VIEWPOINT 0 0 0 1 0 0 0
POINTS 1137
DATA ascii
-15.897248 771.56256 743.84473 4292926695
-13.34312 773.93829 741.92371 4293584879
-13.34312 775.21338 742.9989 4292993253
-15.897248 772.84192 744.92334 4292202976
-13.387156 774.12122 746.00208 4293254881
-15.93211 773.18408 747.82794 4292202208
-13.416513 773.8252 748.36853 4292923866
-11.73945 773.8252 748.36853 4293318368
-10.062386 775.1073 749.44958 4292728035
-8.3853207 775.1073 749.44958 4293451757
-18.508257 772.74841 751.38464 4292136931
-15.984404 772.74841 751.38464 4292202976
-13.46055 772.74841 751.38464 4292398552
-11.777982 772.74841 751.38464 4292530138
-15.984404 774.03479 752.46924 4292334819
-13.46055 774.03479 752.46924 4291873243
-10.936697 774.03479 752.46924 4292334050
-7.5467887 776.38947 750.53064 4292795625
-19.110703 772.89471 754.12402 4292400614
-16.019266 773.75409 754.84875 4292137444
-13.489908 773.75409 754.84875 4292201700
-18.548624 775.04327 755.93567 4292467177
-16.019266 775.04327 755.93567 4292466407
-13.489908 775.04327 755.93567 4292991206
-10.943119 775.57318 754.42041 4292596195
-7.5715594 775.96423 754.09613 4292596449
-4.4868503 776.17865 754.27686 4293517551
-1.6825688 776.60742 754.63843 4294306812
-7.5715594 777.8938 755.72314 4292268260
-4.2064219 777.8938 755.72314 4292925418
-1.6825688 777.8938 755.72314 4294109690
0 777.8938 755.72314 4293913592
-5.0311928 782.15906 755.39539 4292596965
-1.6770642 781.51794 754.85486 4293254381
-22.040367 769.83667 758.08582 4292663023
-22.556574 773.55927 758.60858 4291677931
-20.300917 772.05035 757.33624 4292467177
-19.391743 776.3324 757.02271 4292795626
-16.019266 776.3324 757.02271 4292269280
-13.489908 776.3324 757.02271 4292137183
-10.96055 776.3324 757.02271 4292136929
-25.293577 777.62152 758.10962 4285821317
-21.921101 777.62152 758.10962 4290560473
-19.391743 777.62152 758.10962 4292859884
-16.019266 777.62152 758.10962 4292334310
-13.489908 777.62152 758.10962 4292071136
-10.936697 779.18011 756.80774 4292071136
-7.5715594 779.18011 756.80774 4292333538
-3.3651376 779.18011 756.80774 4292333279
0.84311926 777.62152 758.10962 4293584888
-21.873394 781.75281 758.97693 4285429886
-19.069113 781.32404 758.61542 4290429152
-15.984404 781.10962 758.43463 4292335596
-13.46055 781.10962 758.43463 4292005856
-10.936697 781.10962 758.43463 4292137696
-7.571559 781.10962 758.43469 4292400612
-3.9259939 781.32404 758.61542 4292465892
-1.6825688 781.10962 758.43463 4292728807
-19.28624 785.36438 758.09802 4287930054
-15.93211 785.36438 758.09802 4291744233
-13.416513 785.36438 758.09802 4292335587
-10.900917 785.36438 758.09802 4292204000
-7.5467887 785.36438 758.09802 4292466916
-5.0311928 785.36438 758.09802 4292795626
-19.244038 788.19379 757.86768 4284113528
-15.897248 788.19379 757.86768 4290032600
-22.590824 789.47308 758.94641 4282532695
-19.180733 791.78992 756.97571 4283127901
-15.844954 791.78992 756.97571 4288455378
-13.34312 791.78992 756.97571 4291874536
-10.877064 789.47308 758.94641 4291940584
-7.5302753 789.47308 758.94641 4292927216
-5.0201836 789.47308 758.94641 4292664038
-21.68257 793.065 758.0509 4282664783
-19.180733 793.065 758.0509 4283455321
-15.844954 793.065 758.0509 4285299358
-13.34312 793.065 758.0509 4288846779
-10.841284 793.065 758.0509 4292399854
-7.5055046 793.065 758.0509 4292861173
-11.649541 797.15137 758.88037 4287201949
-23.735781 771.13281 759.17871 4291152612
-23.684404 775.28369 760.0625 4286021012
-28.666056 778.91071 759.19666 4282799965
-26.136696 778.91071 759.19666 4284375946
-22.764221 778.91071 759.19666 4286286494
-20.234863 778.91071 759.19666 4290295518
0.84311926 778.91071 759.19666 4293452791
-30.914373 781.05927 761.0083 4281216551
-28.666056 780.19983 760.28357 4281415984
-26.136696 780.19983 760.28357 4281877345
-23.60734 780.19983 760.28357 4283324766
0.56207949 781.05927 761.0083 4292925677
3.3724771 780.84436 760.82709 4293912821
-33.651375 784.3255 761.14612 4281146642
-31.968807 784.3255 761.14612 4286475619
-28.60367 783.68231 760.60382 4283848532
-26.079815 783.68231 760.60376 4282666079
-22.71468 783.03912 760.06152 4283851614
-3.3651376 783.03912 760.06152 4292926183
-1.6825688 783.68231 760.60382 4292859622
-33.541283 787.92859 760.26013 4280099079
-31.025688 787.92859 760.26013 4286150777
-28.510092 787.92859 760.26013 4286149264
-25.994495 787.92859 760.26013 4284374116
-22.640366 786.64648 759.17908 4282665038
-13.416513 786.64648 759.17908 4292467692
-10.900917 786.64648 759.17908 4292072933
-7.5467887 786.64648 759.17908 4292664298
-3.9131498 787.07391 759.53937 4292926445
-1.6770642 787.92859 760.26013 4292203496
-33.541283 789.21075 761.34119 4279576873
-30.992661 789.98157 760.68311 4283457386
-28.447706 790.75244 760.02502 4286218905
-25.937614 790.75244 760.02502 4285294723
-23.427523 790.75244 760.02502 4282664783
-4.183486 790.75244 760.02502 4289837782
-1.6770642 789.21075 761.34119 4287472063
-25.937614 792.03174 761.10376 4285163386
-22.516514 794.34015 759.1261 4282533204
-19.180733 794.34015 759.1261 4283060309
-15.844954 794.34015 759.1261 4285493902
-13.34312 794.34015 759.1261 4287531171
-10.841284 794.34015 759.1261 4292268525
-7.5055046 794.34015 759.1261 4291611624
-4.1752291 793.18591 760.11493 4286021540
-1.6733944 792.03174 761.10376 4282601600
-22.516514 796.25281 760.73877 4285097582
-19.180733 796.25281 760.73877 4284570737
-16.122936 796.04028 760.55957 4283782232
-13.34312 795.61523 760.20117 4285491332
-10.007339 795.61523 760.20117 4287467706
-7.5055046 795.61523 760.20117 4281806955
-4.1697249 795.61523 760.20117 4278779963
-1.66789 795.61523 760.20117 4278190118
-18.306421 799.69598 761.02588 4288186014
-16.642202 799.69598 761.02588 4283653979
-14.145872 799.05981 760.4895 4283718240
-10.81743 799.05981 760.4895 4283389559
-7.4889908 798.42371 759.95312 4278257204
-4.1605506 798.42371 759.95312 4278190102
-1.6642202 799.05981 760.4895 4278520084
-13.284404 803.13074 761.30597 4282663494
-10.793578 803.13074 761.30603 4283453273
-7.472477 802.49603 760.77069 4280098865
-4.1513762 802.49603 760.77069 4278586649
-1.6605505 803.13074 761.30597 4278259484
-9.930275 808.58344 761.97937 4282730576
-7.1718655 808.16168 761.62378 4282402395
-4.1376147 807.95081 761.44598 4279047725
-1.6550459 808.58344 761.97937 4278194968
1.6917431 777.87042 762.24353 4293649400
5.0752292 778.51709 762.78882 4294636286
6.7669725 779.16376 763.33411 4294570750
-30.352293 782.77814 762.45752 4286283144
0.84311926 782.77814 762.45752 4293123310
4.2238531 781.61768 763.44104 4294044660
6.7669725 780.45715 764.42456 4294110201
0.84311926 784.83954 762.88763 4292664304
4.2155962 784.71179 764.08801 4293453549
10.679511 784.9267 764.26923 4294110973
-34.492661 788.18451 764.3999 4282202939
-30.286238 788.18451 764.3999 4283914823
1.1217126 787.3269 763.67682 4290627301
4.2064219 788.18451 764.3999 4293058796
10.936697 788.18451 764.3999 4293914105
-31.86422 791.13391 762.96277 4281153088
-28.510092 791.13391 762.96277 4284112473
0.83853209 791.13391 762.96277 4285166494
-28.510092 793.05713 764.58435 4281151042
-25.937614 793.95074 762.7218 4282468441
0.55779815 794.164 762.90155 4280033315
4.1926603 793.05713 764.58435 4289769946
16.770641 793.05713 764.58435 4293715706
-26.774311 795.86975 764.33984 4282731080
4.183486 795.86975 764.33984 4284773016
16.733946 795.86975 764.33984 4293715706
-25.685505 799.69562 763.64172 4282927692
-22.516512 799.44061 763.4267 4285622648
-19.445259 799.52484 762.62555 4289633713
-16.642202 800.96832 762.09863 4287664776
-14.977982 800.96832 762.09863 4282401336
0.83394498 799.44061 763.4267 4278259481
3.3357799 800.7157 764.50183 4278190085
-18.86116 802.66473 763.52899 4286940830
-16.642202 802.87677 763.70782 4288124596
-14.977982 802.87677 763.70782 4284637823
0.83211011 803.51294 764.24426 4278520608
-13.837921 805.88135 763.62518 4285558665
-11.070336 805.45819 763.26837 4282992988
-8.3027525 805.03503 762.91162 4282137937
-1.6605505 805.03503 762.91162 4278192938
-13.240367 809.84875 763.04626 4286151563
-10.757798 809.84875 763.04626 4283652194
-7.4477062 809.84875 763.04626 4282995037
-4.1376147 809.84875 763.04626 4280890683
-1.6550459 809.84875 763.04626 4278588429
-14.06789 811.11401 764.11316 4284178552
-10.757798 811.11401 764.11316 4284507769
-7.4477062 811.11401 764.11316 4282797656
-4.1376147 811.11401 764.11316 4282073421
-1.6550459 811.11401 764.11316 4279046684
-11.559633 813.89014 763.83789 4284573564
-7.4311924 813.89014 763.83789 4282534228
8.4770641 778.90979 765.73596 4294241787
7.612844 781.75049 765.51514 4294110971
7.612844 783.04382 766.60571 4293781752
7.3070335 787.07526 766.08081 4293321716
13.489908 787.29016 766.26196 4293716729
-33.651375 790.11401 766.02686 4282402634
-30.892355 789.30615 767.08984 4282007113
4.2064219 789.47083 765.4845 4291939559
7.8519874 790.32843 766.2077 4293650682
10.936697 790.11401 766.02686 4293782524
13.46055 790.7572 766.56921 4293716728
15.143119 790.7572 766.56921 4293519093
-31.127522 792.04352 767.65381 4282466121
-28.510092 794.33923 765.66541 4282663498
7.5467887 794.33923 765.66541 4292468467
10.936697 792.04352 767.65381 4293584888
13.46055 792.04352 767.65381 4293519347
15.143119 792.04352 767.65381 4293519347
-30.746178 796.04877 767.10675 4282268488
-28.447706 797.14905 765.41858 4282860879
4.183486 797.14905 765.41858 4282602828
7.5467887 796.26245 767.28699 4289899983
10.900917 796.26245 767.28699 4293125107
15.640368 796.55792 766.66425 4293518065
-28.447706 798.42834 766.49719 4282532170
-26.774311 799.7077 767.57593 4282465873
5.0201836 798.42834 766.49719 4278521112
7.5302753 799.7077 767.57593 4284707214
-25.018349 802.62842 766.1145 4282860883
-22.516514 802.62842 766.1145 4283320671
-20.014679 801.99084 765.5769 4283651428
4.1697249 802.62836 766.1145 4278321942
6.6715598 803.26593 766.6521 4278190106
-25.852295 804.54108 767.72717 4282794325
-22.492661 805.29932 767.05847 4282992219
-19.138531 805.42139 765.85339 4283781733
-16.642202 805.42139 765.85339 4284243318
0.83211011 805.42139 765.85339 4278322467
4.1660552 805.29932 767.05847 4278387210
6.6715598 804.54108 767.72717 4278191628
-21.634863 807.32983 767.46252 4283123547
-19.118347 808.08667 766.79266 4283386721
-16.605505 808.84357 766.1228 4283126368
-14.944954 807.57404 765.05237 4286152069
0.83027524 808.84357 766.1228 4279112705
3.3284404 807.32983 767.46252 4280098120
6.6568809 807.32983 767.46252 4278190592
-18.266054 810.11304 767.19324 4283519590
-16.605505 810.11304 767.19324 4283191911
-14.06789 812.37933 765.18005 4284244342
-9.930275 812.37933 765.18005 4284376953
-4.1376147 812.37933 765.18005 4282532945
-1.6550459 812.37933 765.18005 4279835182
0.83027524 810.11304 767.19324 4285686539
-13.240367 814.27728 766.78027 4284376440
-10.757798 814.27722 766.78027 4284639612
-7.4477067 814.27722 766.78027 4283191645
-4.1376147 814.27722 766.78027 4282861393
-1.6550459 814.27728 766.78027 4284045157
13.46055 793.97302 769.2807 4293254892
13.46055 795.90253 770.90759 4293385712
-30.187157 798.82672 769.4491 4282466629
-28.510092 798.82672 769.4491 4282729545
-26.774311 800.987 768.65466 4282795086
8.3669729 800.987 768.65466 4282075240
10.895412 799.20654 769.11536 4291215837
13.416513 799.46777 769.98962 4293846009
15.093578 798.82672 769.4491 4293254128
-30.121101 802.90601 770.27264 4281940802
-28.447706 802.26636 769.73328 4282663752
8.3669729 802.26636 769.73328 4278919463
11.155963 802.69281 770.09283 4285497526
13.387156 803.54565 770.81201 4289769428
15.61835 803.1192 770.45245 4292860660
-28.354128 805.81616 768.80237 4282270540
-25.852295 805.81616 768.80237 4282401614
-23.350458 805.81616 768.80237 4282794838
5.0036697 805.81616 768.80237 4278190123
8.3394499 805.81616 768.80237 4278256896
10.007339 805.81616 768.80237 4278190114
-28.354128 808.36639 770.95264 4282071365
-25.852295 807.72888 770.41504 4282205001
-22.492661 808.48358 769.74335 4282664538
-19.970642 809.23834 769.07172 4283059037
1.6642202 809.87451 769.60815 4293513425
4.1605506 809.23834 769.07172 4288843186
7.4889913 809.23834 769.07172 4281348899
10.835779 808.1059 770.07892 4279244572
13.34312 807.72888 770.41504 4282862196
15.566974 807.94141 770.59424 4290953958
-21.634863 811.14679 770.68091 4282732375
-18.847704 811.22534 769.87518 4283322716
-16.605505 812.01733 768.79883 4283389022
-14.944954 812.01733 768.79883 4284046951
0.55474007 811.2254 769.87518 4289041579
4.1605506 811.14679 770.68091 4293120755
7.4889908 811.14679 770.68091 4284767325
16.642202 811.14679 770.68091 4287729107
-14.114679 813.92157 770.40442 4283915884
-10.793578 813.92157 770.40442 4284836223
-7.472477 813.92157 770.40442 4284770426
-4.1513762 813.92157 770.40442 4283257436
-1.6605505 813.92157 770.40442 4283520090
13.416513 800.74988 771.07068 4293123828
-30.121101 805.46466 772.43005 4281545023
-28.447706 804.82501 771.89075 4282465871
-25.018349 809.64154 772.02783 4282139461
-23.350458 809.64154 772.02783 4282008652
10.841284 809.64154 772.02783 4278190080
13.34312 809.64154 772.02783 4278192650
15.011009 809.64154 772.02783 4285499013
-22.516514 810.91663 773.10291 4282008652
-19.138531 812.41907 771.75366 4282796884
-16.642202 812.41907 771.75366 4283389789
0.83211011 812.41907 771.75366 4286351531
4.1660552 811.66785 772.42828 4291678704
7.4981651 811.66785 772.42828 4290425029
10.841284 810.91663 773.10291 4282067241
13.34312 810.91663 773.10291 4278190080
15.844954 810.91663 773.10291 4279968052
-18.306421 813.69141 772.82642 4283059039
-16.642202 814.32758 773.36279 4282994268
-14.145872 814.32758 773.36279 4283783531
-10.805505 815.07739 772.68701 4284704124
-7.2006116 815.11523 772.28296 4285427329
-4.1605506 814.32764 773.36279 4284046440
-1.6642202 814.32758 773.36279 4283060310
-8.3027525 816.46057 772.54529 4285361542
-28.510092 805.87842 775.3949 4281610814
-26.104954 808.91882 775.34259 4281679172
-23.427523 809.94226 776.20544 4282073164
11.713761 809.94226 776.20544 4278190080
13.387156 809.94226 776.20544 4278190084
15.897248 809.94226 776.20544 4278194708
18.407339 809.30261 775.66614 4290368226
-21.68257 812.19177 774.1781 4282336336
-20.014679 812.19177 774.1781 4282467159
0.83394498 812.19177 774.1781 4284706960
4.1697249 812.19177 774.1781 4291084767
7.5055046 812.19177 774.1781 4292135141
10.007339 812.19177 774.1781 4288714634
-18.902752 813.89185 775.61157 4283321429
-16.6789 814.74194 776.32837 4283059291
-3.3357799 814.74194 776.32837 4284769660
-1.66789 814.74194 776.32837 4283388007
0.83394498 813.46686 775.25317 4283323242
4.1697249 813.46686 775.25317 4288059823
-14.145872 816.23602 774.97205 4283783533
-10.540061 816.66016 775.32959 4284507513
-7.7663612 816.66016 775.32959 4285033084
-4.9926605 816.23602 774.97205 4285163386
-30.352293 802.75989 779.3056 4281610300
-28.60367 805.55005 779.04218 4281610301
-23.478899 809.72479 778.63806 4282139207
16.770641 809.72479 778.63806 4278190080
19.28624 809.72479 778.63806 4283322974
-21.777981 811.11426 778.50165 4282402126
-20.080734 812.50092 778.36292 4283189842
0.83669722 812.50092 778.36292 4283717726
4.183486 812.50092 778.36292 4286874508
7.5302753 811.86127 777.82349 4292598254
10.883486 811.48779 778.1626 4289241780
13.401834 811.11426 778.50165 4283646003
15.077065 811.11426 778.50165 4278714368
-18.407339 813.78027 779.44153 4283059539
0.83669722 813.78027 779.44153 4284307305
4.183486 813.78027 779.44153 4283849838
-15.844954 816.01709 777.40356 4283256927
-13.34312 816.65466 777.9411 4283389292
-11.008073 817.54724 778.69373 4284442487
-7.3387156 817.54724 778.69366 4285034875
-4.0029359 817.03723 778.26367 4284902782
-1.66789 816.65466 777.9411 4284441721
-30.352293 805.33813 781.47955 4281545021
-28.60367 807.47955 780.66907 4281610814
-25.799387 807.90839 781.03058 4282071367
-23.555964 808.76587 781.75366 4282007371
16.825687 808.76587 781.75366 4278190080
19.349541 808.76587 781.75366 4278456130
-22.71468 810.05225 782.83826 4282729295
-20.124771 812.28906 780.80017 4282862417
7.5467887 812.28906 780.80017 4289178571
10.936697 810.05225 782.83826 4293058546
13.46055 810.05225 782.83826 4291544528
15.984404 810.05225 782.83826 4280027150
19.349541 810.05225 782.83826 4278976530
-19.28624 813.57123 781.88123 4282927955
-16.188379 814.99078 781.33429 4283256418
0.83761466 814.95642 781.74133 4284177782
3.9131496 813.9986 782.24164 4283848814
-15.060551 816.33893 781.599 4283585383
-13.387156 816.97858 782.13831 4283520875
-10.877064 817.61823 782.67761 4284310647
-7.5302753 817.61823 782.67761 4284573817
-4.4623852 817.19183 782.31805 4284968830
-1.6733944 816.97858 782.13831 4285166468
22.838531 805.03082 785.14453 4292073977
-30.773853 808.23865 783.92523 4280887858
-28.666056 808.56104 784.19696 4281742913
-26.305319 808.81885 784.41443 4281809734
16.862385 809.85016 785.28394 4279899690
19.391743 809.85016 785.28394 4278190088
-22.71468 811.33856 783.92285 4282336590
-19.349541 812.62494 785.00745 4282730833
5.0477066 812.62494 785.00745 4284373618
7.571559 811.98175 784.46515 4286481561
10.936697 811.33856 783.92285 4293452262
13.46055 811.33856 783.92285 4292990954
15.143119 811.33856 783.92285 4285622138
-15.093578 816.1355 784.04346 4283519592
-13.416513 817.4176 785.12451 4283389287
-10.900917 817.4176 785.12451 4283916145
-7.5467887 817.4176 785.12451 4284639610
-4.1926603 817.4176 785.12451 4284836732
-1.6770642 817.4176 785.12451 4285363077
1.6770642 816.1355 784.04346 4283916133
22.838531 806.32416 786.23499 4286745520
25.403669 806.22662 787.46082 4292864255
20.300917 808.91089 788.41602 4278190080
22.838531 807.61749 787.32556 4282601335
-26.136696 811.78387 786.91443 4281744197
-22.764219 811.78387 786.91443 4282009168
7.5880733 812.42841 787.45789 4284311155
10.96055 811.78387 786.91443 4289702862
13.489908 811.13928 786.37097 4294043642
16.019266 811.13928 786.37097 4291018189
18.548624 811.13928 786.37097 4279439645
-26.136696 813.71759 788.54492 4282005572
-22.764221 813.71759 788.54492 4282402129
-19.36055 814.18439 786.97644 4282665048
-16.264832 814.7688 786.81512 4282665822
0.56085628 814.7688 786.81512 4285165948
4.2091742 814.18445 786.97638 4284178036
7.5880733 813.71759 788.54492 4283586919
-18.508257 816.48395 788.26135 4283978611
-15.984404 816.48395 788.26135 4284306279
-13.46055 816.48395 788.26135 4284046186
-10.920183 817.5918 787.23346 4284112496
-7.5467887 818.69971 786.20557 4284836734
-4.1926603 818.69971 786.20557 4284967805
-1.6770642 818.69971 786.20557 4285888138
27.21468 803.89642 790.72827 4293913340
25.513762 805.19684 791.82471 4287539404
20.344954 808.72137 790.87231 4278190089
22.888075 808.0733 790.32581 4278190612
7.612844 812.79089 791.68762 4284045934
10.99633 812.14429 791.14233 4285232272
13.533945 810.85089 790.05188 4290951649
16.080734 810.4809 790.39392 4293057266
18.629358 810.1109 790.7359 4283451736
-26.136696 815.00671 789.63184 4282005822
-22.764221 815.00671 789.63184 4282533458
-20.234863 815.00671 789.63184 4283781231
0.84311926 815.00671 789.63184 4285755769
4.2155962 815.00671 789.63184 4284637042
-23.045259 816.72559 791.08124 4282005826
-19.097248 817.21704 790.62354 4286212478
-16.019266 816.94043 791.26233 4287200675
-13.489908 816.94043 791.26233 4286085274
-11.23425 817.21704 790.62354 4284112251
-7.5715594 817.77026 789.34595 4284573051
-4.2064219 817.77026 789.34595 4285295233
-1.6825688 817.77026 789.34595 4285492099
0.56207949 816.72559 791.08124 4285819779
3.3724771 816.29584 790.71887 4285885056
-21.873394 819.05658 790.43054 4281742650
-20.190826 819.05658 790.43054 4283648848
-10.095413 819.05658 790.43054 4283849584
-7.5715594 819.05658 790.43054 4284441979
-4.2064219 819.05658 790.43054 4285033606
-1.6825688 819.05658 790.43054 4284835716
29.07156 798.86798 793.02856 4293584375
30.781651 798.86798 793.02856 4293321973
28.409784 803.27679 792.82178 4292796405
30.68257 802.40802 792.08923 4293715443
25.513762 806.49719 792.92114 4283984005
28.096331 805.75574 793.604 4290427623
20.411009 807.79755 794.01758 4283186764
22.962385 807.79755 794.01758 4278780438
25.513762 807.79755 794.01758 4278190096
11.86789 812.60986 794.151 4284831856
13.563303 811.96179 793.60455 4286675860
15.258716 811.96179 793.60455 4287201948
1.6917431 815.37762 793.86865 4285557892
4.5113149 814.94653 793.50519 4284964724
7.612844 814.73096 793.32349 4284175213
10.150458 814.73096 793.32343 4284043617
-21.921101 818.87415 792.89282 4282333503
-19.391743 818.87415 792.89282 4282201672
-16.046789 817.77258 793.92603 4282268776
-13.489908 818.87415 792.89282 4284440190
-10.979816 817.77258 793.92603 4283783276
-7.5880733 818.87415 792.89282 4284442228
-4.2155962 818.87415 792.89282 4285034372
-1.6862385 818.87415 792.89282 4285034628
0.84587157 816.67096 794.95923 4285230724
-21.921101 820.16327 793.97974 4282268994
-19.391743 820.16327 793.97974 4281741899
31.636696 802.13647 795.78436 4293912823
34.201836 802.79016 796.33557 4293847285
28.125687 806.3175 795.38562 4285166185
31.636698 804.09753 797.43787 4293124328
34.091743 806.3175 795.38562 4293847796
17.009174 809.0979 795.11401 4291017680
19.858717 809.03986 795.93707 4281544774
23.011927 808.27234 797.03387 4279306261
25.568808 808.27234 797.03387 4282001190
27.273394 808.27234 797.03387 4286339137
17.009174 811.04846 796.75867 4280166996
18.710093 810.39825 796.21045 4278653793
4.2385321 815.20215 796.33679 4285229182
7.6293578 815.20215 796.33679 4284307057
11.020184 814.55408 795.79034 4283650137
13.563303 813.90601 795.2439 4282926958
15.258716 813.90601 795.2439 4281676634
-16.07156 817.96436 796.04968 4282268242
-13.533945 817.96436 796.04968 4283520592
-10.99633 817.96436 796.04968 4284047196
-7.612844 817.96436 796.04968 4284705137
-4.2293577 817.96436 796.04968 4285231489
-1.6917431 817.96436 796.04968 4285100160
0 816.49835 797.42969 4285427587
3.3908257 816.49835 797.42969 4285754755
-19.455046 819.25769 797.14026 4281678158
-16.07156 819.25769 797.14026 4282795086
-13.533945 819.25769 797.14026 4282729547
-7.612844 819.25769 797.14026 4284046176
29.07156 806.05859 799.09143 4291931795
31.636696 806.05859 799.09143 4293911528
34.201836 805.40491 798.54028 4293847283
25.651377 808.01965 800.745 4291407783
28.216515 808.01965 800.745 4293055970
11.906422 812.99902 798.40332 4281610298
13.622019 812.9162 799.64148 4281150539
16.185322 812.54907 799.9859 4283191143
19.602753 810.87866 799.23145 4283648324
23.011927 810.22705 798.68213 4287460182
1.133945 815.16632 800.23071 4285361539
4.53578 815.16626 800.23071 4285820295
7.6541281 814.94958 800.04797 4285293183
11.055964 814.29938 799.49976 4282136657
-11.020184 817.79449 798.52258 4282992717
-4.2385321 817.79449 798.52258 4284770933
-1.6954129 817.79449 798.52258 4284705915
-18.609175 821.19769 798.776 4282334538
-16.364527 820.4953 799.05585 4282531916
-13.563303 819.73877 800.16193 4282662736
31.704586 806.5481 802.12024 4294306812
34.27523 805.23792 801.0155 4293583345
23.086239 809.32703 801.84729 4293581285
25.651377 809.32703 801.84729 4292992490
28.247707 808.59265 802.53607 4293321707
30.847706 807.85828 803.22485 4293585140
19.666054 810.6344 802.94971 4286412181
23.086239 810.6344 802.94971 4293844734
25.651377 810.6344 802.94971 4293714430
0.85229355 815.4397 803.07727 4285164165
4.2614679 815.4397 803.07727 4285689228
7.6706419 815.4397 803.07727 4285819781
11.079817 814.78809 802.52789 4285753729
13.636697 814.78809 802.52789 4284572025
15.341285 814.13654 801.97852 4282401362
-11.33945 817.3335 802.05811 4282926421
-7.6541286 816.90009 801.69263 4283454555
-4.2522936 816.90009 801.69263 4284573552
-1.7009175 816.90009 801.69263 4284573564
29.227524 806.96954 806.39966 4293453041
31.806421 806.31238 805.84552 4293650931
34.385323 804.99792 804.73724 4293913081
36.964218 805.65515 805.29138 4293913338
39.543118 805.65515 805.29138 4294242303
27.420183 809.16846 804.32959 4293255405
17.100918 811.94177 804.052 4281813322
19.96575 811.89081 804.88104 4285233799
23.13578 811.13373 805.98669 4288916419
25.706423 810.47864 805.43433 4292798207
0.85504586 814.55658 806.25671 4285098372
10.26055 814.55658 806.25671 4286019474
13.680734 814.55658 806.25671 4286544274
16.245872 813.90283 805.70557 4283586661
18.811008 813.24915 805.1543 4285036924
-10.227523 816.74292 804.17603 4282730326
-7.6706419 816.74292 804.17603 4282403153
-4.2614679 816.74292 804.17603 4283916138
-1.7045871 816.74292 804.17603 4285032829
4.2614679 816.74292 804.17603 4285623433
7.3865438 817.17731 804.5423 4286150022
11.93211 816.74292 804.17603 4286085268
38.025688 803.30457 809.84961 4294111486
39.754128 803.30457 809.84961 4294111486
29.289907 806.82074 808.89026 4293321202
32.161469 806.38165 808.52002 4293650418
34.458717 805.50354 807.77966 4293847546
36.181652 805.50354 807.77966 4294242303
25.78899 809.59833 808.61621 4293190911
27.508257 808.28394 807.50793 4293321202
20.631193 810.91272 809.72449 4282931053
22.350458 810.91272 809.72449 4286154910
-10.26055 815.86395 807.35901 4283189581
-7.7036695 815.79169 808.60608 4282992205
-4.2798166 815.79169 808.60608 4283387225
-1.7100917 815.86395 807.35901 4285558142
0.85596329 815.79169 808.60608 4285163396
4.2752295 815.86395 807.35901 4285230213
8.5504589 815.86395 807.35901 4286412935
11.115597 815.86395 807.35901 4286478240
13.695413 815.79169 808.60608 4286412942
15.984097 815.33087 808.6535 4286084490
18.851376 813.09906 807.6438 4282798670
-10.26055 817.17133 808.46143 4283188045
-1.7100917 817.82501 809.01257 4283847270
4.2752295 817.82501 809.01257 4285362050
7.6954126 817.17133 808.46143 4286412671
11.115597 817.17133 808.46143 4286412436
31.976147 805.94739 812.07788 4293650163
34.568806 805.28668 811.52081 4293452532
37.161469 805.28662 811.52081 4293913852
40.330276 805.5069 811.70654 4293847802
24.121101 809.45514 811.11145 4286941092
28.42844 808.13794 810.00085 4293255926
19.793579 811.49976 811.5274 4282401626
22.398165 810.77234 812.22217 4286415518
17.192661 813.5415 811.94092 4286412938
-3.9987767 817.46631 811.32617 4282729299
0.85688072 817.68469 811.51025 4283849600
5.1412845 818.33978 812.06262 4285166468
7.7119265 817.68469 811.51025 4285756287
11.13945 817.0296 810.95789 4285953682
-1.7100917 820.43976 811.21729 4283386971
3.4201834 820.43976 811.21729 4284967292
32.044037 805.81122 814.57922 4293978614
34.6422 805.81122 814.57922 4293977849
36.374313 805.81122 814.57922 4294175229
20.741285 809.91162 815.42041 4284307825
22.469725 809.91162 815.42041 4284570997
25.062386 808.59021 814.30627 4287270569
28.549541 807.20209 814.44397 4291939565
32.910091 807.13544 815.6958 4294045178
18.952293 812.08954 813.33276 4285097078
-10.315597 814.8559 813.04919 4283057742
-7.7366972 814.8559 813.04919 4282860621
13.768807 814.78992 814.30157 4286085004
16.359634 814.42761 814.65009 4286019721
-6.8770642 816.17029 814.15747 4282860879
-4.5847096 817.04657 814.8963 4282795342
8.5963306 817.48468 815.26575 4285691014
10.315597 816.17029 814.15747 4285625482
12.034863 816.17029 814.15747 4285823117
-1.7137614 820.96014 814.27209 4282991949
0.85688072 820.30505 813.71973 4283322195
4.2844038 820.30505 813.71973 4284373613
6.8550458 819.64996 813.16736 4285230463
-1.7137614 822.27032 815.37671 4283451726
0.85688072 822.27032 815.37671 4282860365
38.348625 801.43854 818.74048 4293781753
28.670643 806.28174 818.90002 4288848839
31.277063 805.61755 818.33997 4292927218
33.883484 805.61755 818.33997 4293848317
36.48991 804.95331 817.77991 4294637055
25.115597 809.1217 817.37054 4284705163
19.877064 811.89368 817.09174 4285493892
22.469725 811.23303 816.53467 4283125614
13.827523 813.87585 818.76294 4285954185
16.420183 813.87585 818.76294 4285953673
-6.8917432 816.04114 816.66467 4282861133
-3.4385321 818.79907 816.37402 4283057742
5.1577983 818.79907 816.37402 4284965491
10.337615 816.04114 816.66467 4285625480
12.060551 816.04114 816.66467 4285757322
40.176147 799.98096 820.12756 4293518582
38.429359 801.31641 821.25354 4293847292
34.862385 804.10382 820.98779 4293913592
36.605503 804.10382 820.98779 4293913592
26.06422 808.27429 820.5802 4285888663
19.053211 812.43225 820.16199 4286677141
22.517431 811.10803 819.04541 4284243566
24.249542 811.10803 819.04541 4283190627
8.6422014 815.19727 819.8772 4285689478
10.39266 813.75647 821.27844 4285428357
12.990826 813.75647 821.27844 4285757065
15.588991 813.75647 821.27844 4285888138
37.050461 753.82361 824.37378 4294638078
39.761467 753.82361 824.37378 4294901247
40.302753 799.13428 823.33765 4293715706
34.93578 803.98724 823.50549 4293847796
37.555962 803.31958 822.9425 4293913336
28.777063 805.74121 823.02234 4286746531
31.409174 805.37952 823.37146 4289111762
33.154129 805.37952 823.37146 4292993535
24.403669 808.10168 824.35864 4284375928
13.03211 812.92383 824.50049 4285755271
17.376146 811.5954 823.38037 4286150279
19.982569 810.93115 822.82031 4286150793
22.588991 810.26697 822.26025 4285625219
34.444038 751.56995 826.39771 4294374655
38.069725 750.18402 825.22913 4294901247
39.882568 750.18402 825.22913 4294901247
37.050461 755.20538 825.53882 4294703870
39.761467 755.20538 825.53882 4294967039
34.339451 757.96881 827.8689 4294177279
37.050461 757.27795 827.28638 4294440189
39.761467 756.5871 826.70386 4294834687
46.322937 779.32373 827.5625 4294374141
49.886238 778.6427 826.98822 4294636542
52.261776 778.41571 826.79681 4294637311
53.284405 781.53113 825.49951 4294702847
55.060551 781.53113 825.49951 4294768895
42.27523 794.1507 825.6759 4293781753
42.27523 796.17065 827.37909 4293912828
40.387157 799.69318 826.42505 4293913340
35.045872 803.1532 826.72632 4292927728
38.550457 801.81354 825.5968 4293913340
26.201836 806.65814 825.75757 4283586669
28.868807 805.5755 826.80676 4285560958
31.541285 804.49286 827.85596 4286678935
6.972477 809.43433 825.4823 4284900219
20.917431 809.43433 825.4823 4286281097
22.708258 807.99359 826.88354 4286281097
24.455046 807.99359 826.88354 4286478731
4.0672784 811.21118 826.98047 4283454042
7.8440366 810.76697 826.60596 4285294722
10.458715 811.43323 827.16779 4285557636
13.073395 812.09955 827.72961 4285425794
16.559633 810.76697 826.60596 4285952648
19.174313 810.76697 826.60596 4286084488
41.906422 748.51031 830.35803 4294638079
34.444038 754.34186 828.73486 4294045691
34.339451 759.35059 829.03394 4293650681
46.466057 775.75006 828.47327 4294504957
48.253212 775.75006 828.47327 4294636799
44.678898 778.48267 830.77734 4293979898
46.466057 778.48267 830.77734 4294176761
48.253212 777.79956 830.20135 4294637311
52.7211 778.48267 830.77734 4294571263
55.401836 778.48267 830.77734 4294703103
57.188992 778.48267 830.77734 4294834175
49.886238 780.68585 828.71094 4294702591
44.403671 785.60474 828.93433 4294045178
46.179817 785.60474 828.93433 4294307064
44.174313 794.66614 830.03455 4294044156
40.51376 799.53735 830.21777 4293518584
33.363304 803.04932 829.25488 4291153116
37.753212 801.70685 828.12292 4293584889
26.284403 805.83246 828.98547 4284570734
28.944036 805.11206 829.6861 4283847528
20.961468 809.32898 828.00952 4286084234
22.779816 807.17212 830.11499 4286150283
5.2403669 810.66443 829.1355 4282732114
7.8605499 811.33215 829.69855 4284045153
16.594496 810.66443 829.1355 4285952647
10.458715 813.43219 828.85327 4285097091
12.201835 813.43219 828.85327 4285623435
41.299084 751.52832 832.90283 4294768895
43.728439 751.2962 832.70703 4294768895
45.550457 750.59973 832.11975 4294966783
44.678898 779.84894 831.92944 4294242554
46.466057 779.84894 831.92944 4294438904
49.14679 779.84894 831.92944 4294833918
52.829357 778.38293 833.30933 4294636797
51.827522 781.21527 833.08142 4294833407
44.541283 784.77209 832.15637 4294044926
46.322937 784.77209 832.15637 4294175481
48.698471 783.86407 831.39081 4294570494
44.541283 786.13416 833.30481 4293847546
46.322937 786.13416 833.30481 4293846259
48.995415 786.13416 833.30481 4294306554
51.667889 786.13416 833.30481 4294964479
44.311928 793.84326 833.26477 4293978362
42.407341 796.69238 831.74304 4293780984
35.229359 800.88397 831.35327 4292663786
37.871559 800.88397 831.35327 4294045182
40.640366 798.71869 833.45154 4293847546
29.06422 803.57733 833.62415 4283717498
31.706423 802.23065 832.48865 4285098624
33.467892 802.23065 832.48865 4287006622
25.461468 805.73419 831.51868 4285493130
14.018349 809.85144 832.37415 4285492097
16.64679 809.85144 832.37415 4285952646
19.295412 808.46545 832.51349 4286018693
21.927523 807.79419 831.94757 4286018695
7.8853211 811.19104 833.50366 4282992719
10.513762 811.19104 833.50366 4284044137
37.351379 753.38562 834.46875 4294373627
41.299084 753.84991 834.86029 4294703359
43.728439 753.38562 834.46875 4294703871
55.686237 776.18402 835.37927 4294966527
57.482571 776.18402 835.37927 4294768637
53.72477 779.75208 834.46375 4294636799
55.686237 777.55731 836.53723 4294768383
50.040367 782.58154 834.2334 4294636286
51.933945 781.12115 835.61816 4294899199
46.466057 785.31415 836.53748 4293912308
48.104588 787.49628 834.45337 4294636031
40.766972 797.90851 836.6925 4293913853
43.42569 796.55347 835.54993 4293649913
46.084404 796.55341 835.54993 4294176248
35.339451 800.06958 834.59058 4289110465
37.989906 800.06958 834.59058 4293782271
31.216513 802.32098 836.48895 4282995051
34.455963 801.42041 835.72961 4285692842
37.106422 801.42041 835.72961 4291942911
21.137615 806.27063 835.89502 4286018693
25.541285 804.92395 834.75964 4285559437
28.183487 804.92395 834.75964 4286085770
13.169725 809.76154 834.91443 4285492355
15.80367 809.76154 834.91443 4285164418
34.722935 752.54596 837.68481 4293715443
37.464218 752.54596 837.68481 4294241785
40.205505 752.54596 837.68481 4294505727
37.464218 753.94312 838.86292 4294109431
38.262386 758.9574 839.16675 4293584625
59.460552 773.98505 837.44934 4294571002
61.449543 771.78607 839.51929 4294570750
59.460552 775.36255 838.61084 4294505981
44.770641 783.85938 837.92688 4293847294
46.466057 786.68042 837.68958 4293978101
44.403671 797.14673 838.6662 4293584374
46.771866 797.37305 838.85699 4293913590
34.563301 800.61865 838.97766 4284707717
38.403671 800.16699 838.59686 4290955738
40.766972 799.26355 837.83508 4293914101
42.539448 799.26355 837.83508 4293518580
22.087156 804.79761 838.57715 4285886850
25.621101 804.12219 838.00769 4285691016
28.271559 804.12219 838.00769 4286018180
17.614679 807.61731 837.03052 4285360766
19.376146 807.61731 837.03052 4285623937
38.377983 755.34027 840.04089 4294044408
38.262386 760.3504 840.34131 4293715697
57.834862 773.16779 840.68433 4294768895
61.449543 773.16779 840.68433 4294570750
64.160553 773.16779 840.68433 4294505470
48.104588 797.03088 842.49268 4293847796
40.259327 800.08881 841.14691 4291545834
43.515594 799.86249 840.95605 4293781753
46.179817 799.86249 840.95605 4293847796
23.042202 803.3288 841.2627 4286149766
25.700916 803.3288 841.2627 4285756807
28.418348 801.89929 842.67346 4286279299
31.050459 801.93646 841.39685 4285425784
34.599083 801.93652 841.39685 4284177512
37.260551 801.93652 841.39685 4286349451
16.78624 806.82391 840.28564 4285360769
19.436697 806.82391 840.28564 4285492097
22.155964 804.68384 842.40527 4286148230
16.78624 808.17474 841.42468 4285557884
19.436697 808.17474 841.42468 4285557627
64.355965 772.35901 843.92651 4294636799
67.075226 772.35901 843.92651 4294834175
50.040367 796.24451 845.75366 4293781236
40.087158 799.75507 844.78967 4288847542
43.650459 799.75507 844.78967 4292862198
46.322937 799.75507 844.78967 4293124589
48.104588 798.39294 843.64111 4293782003
25.754128 803.2572 843.81836 4286018180
28.418348 803.2572 843.81836 4286082687
31.178898 801.11713 845.93811 4287398817
34.742203 801.11713 845.93811 4283651180
37.299084 803.2572 843.81836 4284442475
40.087158 801.11713 845.93811 4286877089
43.650459 801.11713 845.93811 4291808501
46.322937 801.11713 845.93811 4293781742
22.179817 805.32703 844.25562 4285687168
24.866055 804.61505 844.96338 4286081156
19.497248 807.39398 844.69043 4285558142
64.551376 771.55859 847.17566 4294570750
51.933945 794.81219 847.16211 4293978614
48.253212 797.61084 846.90576 4293124589
23.161469 803.84131 848.23511 4285623170
25.833946 803.16028 847.66083 4285818758
28.506422 802.47925 847.08655 4285622140
35.633026 802.47925 847.08655 4284641378
21.313761 805.97296 846.10828 4285491584
50.297249 794.03705 850.4325 4293386734
52.093578 794.03705 850.4325 4293715443
48.352295 797.55042 849.47083 4293321191
31.27523 800.34338 849.20984 4289703881
33.955963 800.34338 849.20984 4286613672
37.568806 800.31598 850.49475 4283982426
40.252293 800.31598 850.49475 4284706170
43.516819 800.32513 850.06641 4290754761
46.561466 798.91949 850.62524 4293978866
25.913761 802.39282 850.93781 4285557127
28.594496 801.70972 850.36182 4285753729
31.27523 801.70972 850.36182 4290425293
34.849541 801.70972 850.36182 4287466651
22.270641 805.20343 849.38354 4285230213
55.123856 789.74854 854.66479 4293847796
50.451378 793.95905 854.29083 4293517550
52.253212 793.95905 854.29083 4293912309
48.500916 796.78363 852.74841 4293518315
44.908257 798.15698 853.90637 4293977838
25.966972 802.34229 853.51117 4285360257
28.653212 801.65771 852.93396 4285294202
31.339451 801.65771 852.93396 4290491598
34.921101 801.65771 852.93396 4289768646
22.339451 804.44226 852.66589 4285230212
58.917431 788.99023 857.94946 4294440700
55.123856 791.13025 855.82983 4293913074
41.442204 797.40283 857.19458 4289563779
43.244038 797.40283 857.19458 4292725466
45.946789 796.71411 856.61383 4294175219
26.944954 800.90356 856.22229 4285557890
28.741285 800.90356 856.22229 4285425788
37.722935 799.53027 855.06433 4284769660
39.519264 799.53027 855.06433 4286405971
25.07156 804.39587 855.2428 4285623937
55.593884 790.83813 859.50757 4293912056
58.917431 790.37616 859.11804 4294570749
49.701836 793.89368 858.15991 4293649902
52.412846 793.89368 858.15991 4293715184
41.568806 796.65717 860.48987 4289569943
43.376148 796.65717 860.48987 4292135897
46.388382 796.19659 860.10156 4294044407
48.798164 795.27545 859.32495 4293847796
27.92844 800.1579 859.51758 4284900729
31.532112 799.46918 858.93683 4288255145
34.234863 798.7804 858.35608 4291675859
36.937614 798.7804 858.35608 4288846011
39.640366 798.7804 858.35608 4287135602
61.948624 785.42346 861.48218 4294703103
63.770641 785.42346 861.48218 4294966527
61.823853 788.2403 861.24133 4294440701
64.616508 788.22485 862.53625 4294834431
67.41468 787.51288 863.24396 4294899966
55.156574 790.55719 863.19482 4294043641
58.187157 790.3255 862.99951 4294307321
60.91468 790.3255 862.99951 4294899454
69.097244 789.63043 862.41345 4294965503
49.85321 793.84094 862.03949 4293978613
52.572475 793.14801 861.4552 4294044406
41.695412 795.91986 863.79236 4286279539
43.508255 795.91986 863.79236 4286673556
47.133945 795.91986 863.79236 4292596709
28.013762 799.42059 862.81995 4285163899
31.929663 799.88116 863.20831 4285427586
34.339451 799.42065 862.82001 4289834950
36.749237 798.96002 862.43164 4290029259
39.761467 799.42065 862.81995 4289110194
45.183487 798.03888 861.65491 4292134632
61.948624 790.99524 866.18018 4294701309
64.681648 790.29877 865.59302 4294899455
67.41468 789.60229 865.00574 4294965503
69.236694 789.60229 865.00574 4294834175
50.307648 793.33759 865.53906 4294110201
52.732109 793.10583 865.34375 4294175992
55.762691 792.87408 865.14844 4294307574
58.187157 793.10583 865.34375 4294372855
60.005505 792.41071 864.75769 4294570491
37.163303 797.30579 864.96094 4291214039
39.882568 797.30579 864.96094 4288912833
45.321102 797.30579 864.96094 4289442228
29.005505 798.69177 866.12964 4285033081
30.818348 798.69177 866.12964 4285033081
38.069725 798.69177 866.12964 4290624732
32.532108 802.18408 865.15002 4284508536
34.339451 802.87494 865.73254 4284837501
36.749237 803.10522 865.92676 4286284693
67.618347 788.87201 868.31409 4294966271
70.359634 788.17346 867.72504 4294966271
65.790825 790.26917 869.49207 4294832895
67.618347 790.26917 869.49207 4294898687
49.194496 793.78113 868.52917 4294044927
51.016514 793.78113 868.52917 4294307832
55.57156 793.08466 867.94196 4294373366
58.304588 793.78113 868.52917 4294373109
61.037613 792.38818 867.35474 4294569977
63.770641 792.38818 867.35474 4294832893
41.822018 795.88611 867.68799 4286874019
43.640366 795.88611 867.68799 4285956738
46.702755 795.64874 868.35986 4287534758
30.818348 800.0777 867.29822 4285097591
38.069725 800.0777 867.29822 4291613163
39.882568 800.0777 867.29822 4290032595
40.486851 802.38763 869.24585 4289571537
37.050461 804.94751 867.4801 4285758592
70.571564 787.44952 871.0387 4294768893
52.998165 791.66632 870.67017 4294505211
54.825687 791.66632 870.67017 4294438902
61.222019 791.66632 870.67017 4294372854
64.976151 790.60895 871.7406 4294636285
67.822021 789.55157 872.81104 4294833407
69.655045 789.55157 872.81104 4294833406
49.343121 793.06348 871.84814 4292338680
52.084404 793.06348 871.84814 4294241019
56.65321 793.06348 871.84814 4294044144
58.480736 793.06348 871.84814 4294042863
41.906422 797.26349 871.46545 4290229463
43.728439 796.56702 870.87817 4288127135
45.550457 796.56702 870.87817 4284376934
71.702751 786.73401 874.35944 4294965759
54.990826 790.95288 873.99268 4293912558
61.406425 790.95288 873.99268 4294109426
65.072479 790.95288 873.99268 4294373111
47.515594 794.46063 873.02625 4285692290
49.343121 794.46063 873.02625 4291679710
52.241287 792.35425 875.17432 4293912571
55.907341 792.35425 875.17432 4294438903
58.656879 792.35425 875.17432 4294306549
43.86055 795.85779 874.20435 4291018447
45.688072 795.85779 874.20435 4286544524
73.981651 781.08618 877.44562 4294834686
75.831192 781.79315 878.04175 4294966783
68.025688 788.84235 876.13721 4294899455
70.890823 787.78705 877.20947 4294834430
52.398167 791.65344 878.50745 4292663277
56.07523 791.65344 878.50745 4294241524
58.833027 791.65344 878.50745 4293978353
61.590824 790.24792 877.32227 4294372853
64.348625 790.24792 877.32227 4294833660
66.187157 790.24792 877.32227 4294768637
47.658714 793.75562 876.35583 4285885295
49.491745 793.75562 876.35583 4289701545
43.992661 795.15698 877.53748 4290363611
45.825687 795.15698 877.53748 4286942375
73.981651 783.20715 879.23401 4294966527
75.831192 783.20715 879.23401 4294967295
68.229355 788.14154 879.47046 4294768637
70.995415 788.14154 879.47046 4294702844
52.555046 790.96106 881.84778 4290821604
55.321102 790.96106 881.84778 4294308086
58.087158 790.96106 881.84778 4293978608
61.467892 790.02124 881.05536 4294307061
64.541283 789.55133 880.65906 4294767867
66.385323 789.55133 880.65906 4294703357
47.801834 793.05902 879.69263 4283657852
49.640366 793.05902 879.69263 4285697691
79.307343 775.4361 884.45386 4294966527
79.073395 778.9776 883.51587 4294966783
81.86422 778.9776 883.51587 4294967295
74.201836 782.51056 882.57068 4294900735
76.056877 782.51056 882.57068 4294967039
78.14312 780.39996 884.71521 4294702335
74.201836 783.92877 883.76648 4294769150
76.056877 783.92877 883.76648 4294966783
62.884403 788.8631 884.00293 4294175731
64.733948 788.8631 884.00293 4294307316
67.816513 788.39178 883.60547 4294242293
70.28257 787.44916 882.81067 4294176246
72.132111 787.44916 882.81067 4294373625
44.256882 792.37085 883.0365 4288852196
47.022934 792.37085 883.0365 4284379785
49.78899 792.37085 883.0365 4283591268
52.555046 792.37085 883.0365 4289507019
80.240364 778.28931 886.85962 4294965759
82.106422 778.28931 886.85962 4294965759
78.14312 781.82239 885.91455 4294965759
74.42202 783.24481 887.11389 4294965759
76.28257 783.24481 887.11389 4294966271
64.926605 788.18335 887.35388 4294307062
67.709175 788.18335 887.35388 4294176244
70.491745 786.76514 886.15808 4294372855
72.346786 786.76514 886.15808 4294438904
46.238533 791.6911 886.38745 4286350254
49.012844 791.6911 886.38745 4283983487
52.711926 791.6911 886.38745 4288521405
55.48624 790.98413 885.79132 4294110711
58.260551 790.98407 885.79138 4294175989
61.959633 790.2771 885.19519 4294043890
49.012844 793.1051 887.57959 4284902778
52.711926 793.1051 887.57959 4287468719
55.48624 793.1051 887.57959 4292793832
57.335781 793.1051 887.57959 4294109436
80.240364 779.71594 888.0625 4294967295
82.106422 779.71594 888.0625 4294966783
78.374313 781.14258 889.26538 4294834175
74.42202 784.66718 888.31323 4294767615
76.28257 784.66718 888.31323 4294966527
68.84037 787.51202 890.71191 4294307316
70.70092 786.0896 889.51257 4294372855
72.56147 786.0896 889.51257 4294438904
59.361469 791.01978 889.74548 4293977586
61.216515 790.31067 889.14758 4294372598
63.999084 789.60156 888.54968 4294307064
66.781654 789.60156 888.54968 4294373109
49.937614 794.5191 888.77185 4284440694
52.78899 793.47852 889.85651 4287008166
55.651375 792.43793 890.94116 4291609049
58.433945 792.43793 890.94116 4294175225
53.636696 795.93304 889.96411 4289309376
82.590828 776.93823 893.5686 4294965759
84.467888 776.93823 893.5686 4294967295
80.477066 779.04041 891.41699 4294966527
79.54129 781.18665 893.22668 4294966527
70.910095 785.42242 892.87415 4294372855
73.709175 784.70911 892.27271 4294372855
76.508255 783.99579 891.67126 4294898942
63.258717 788.93439 891.91125 4294174710
61.398167 790.35681 893.1106 4294306549
50.086239 793.85614 892.13696 4284899444
51.941284 793.85614 892.13696 4284177522
55.651375 793.85614 892.13696 4290886092
82.590828 778.37323 894.77856 4294966527
71.119263 784.76367 896.2428 4294109169
73.926605 784.04828 895.63959 4294504185
76.733948 783.33289 895.03638 4294372855
78.605507 783.33289 895.03638 4294965247
65.311928 786.849 894.07703 4294240504
67.177979 786.849 894.07703 4294438389
69.044037 786.849 894.07703 4294372596
58.695412 790.74072 895.3963 4294241274
76.021103 782.67834 898.40857 4294702074
79.77523 781.96082 897.80359 4294900479
71.328438 784.1134 899.61853 4294242039
75.082565 784.1134 899.61853 4294440186
61.761467 787.62531 898.65564 4294372342
64.568802 786.90991 898.05249 4294174966
67.376144 786.90991 898.05243 4294570233
69.247704 786.19452 897.44922 4294373109
72.990829 786.90991 898.05243 4293124331
59.889908 789.05615 899.86206 4294833147
77.185318 782.03223 901.78784 4294505979
80.009171 781.31262 901.18109 4294768380
70.389908 785.5484 900.82849 4293979385
61.943119 786.98346 902.03845 4294635511
64.758713 786.98346 902.03845 4294044660
67.57431 786.98346 902.03845 4293190132
70.389908 786.98346 902.03845 4291808730
73.205505 786.98346 902.03845 4287861401
77.411011 781.39459 905.17432 4285628053
79.29908 781.39459 905.17432 4287001463
75.30275 784.1911 903.60809 4286284975
64.948624 786.34998 905.42847 4288126134
67.772476 786.34998 905.42847 4285623174
70.596329 786.34998 905.42847 4280361294
73.420181 786.34998 905.42847 4278588243
75.30275 786.34998 905.42847 4278715963
77.636696 780.76532 908.56775 4281283957
79.530273 780.76532 908.56775 4280891968
65.889908 787.78918 906.64197 4282993525
67.772476 787.78918 906.64197 4278193203
70.596329 787.78918 906.64197 4278193706
73.420181 787.78918 906.64197 4279049262
75.30275 787.78918 906.64197 4279376670
