# .PCD v0.7 - Point Cloud Data file format
VERSION 0.7
FIELDS x y z rgb
SIZE 4 4 4 4
TYPE F F F U
COUNT 1 1 1 1
WIDTH 634
HEIGHT 1
VIEWPOINT 0 0 0 1 0 0 0
POINTS 634
DATA ascii
-28.029358 769.61517 1214.4015 4293058031
-25.693579 769.61517 1214.4015 4293979133
-22.189907 769.61517 1214.4015 4293979383
-18.686239 769.61517 1214.4015 4294307327
-23.266054 776.01685 1213.259 4293978101
-11.633027 776.01685 1213.259 4294966783
-23.266054 777.79553 1214.7588 4294110201
-20.939449 777.79553 1214.7588 4294373629
-11.633027 777.79553 1214.7588 4294967039
-35.14679 767.33966 1217.715 4290296524
-31.632111 767.33966 1217.715 4292532214
-30.365137 773.18658 1217.4128 4293452287
-28.029358 772.2937 1216.6599 4293518067
-25.693579 772.2937 1216.6599 4293715703
-21.800611 771.99609 1216.4091 4293912308
-18.686239 772.2937 1216.6599 4293846267
-16.350458 772.2937 1216.6599 4294832895
-14.014679 772.2937 1216.6599 4294768127
-11.633027 779.57428 1216.2585 4294835199
-34.899082 781.35297 1217.7583 4291479528
-37.48991 770.02667 1219.9806 4284176989
-35.14679 770.02667 1219.9806 4290690752
-32.022629 769.72809 1219.7289 4292268784
-37.372478 776.75806 1220.4242 4285493382
-35.036697 775.86523 1219.6714 4290757071
-31.533028 775.86523 1219.6714 4292598768
-28.029358 775.86523 1219.6714 4293124599
-25.693579 775.86523 1219.6714 4293716734
-22.189907 776.75806 1220.4242 4294242557
-18.686239 775.86523 1219.6714 4294175999
-16.350458 775.86523 1219.6714 4294636543
-14.014679 775.86523 1219.6714 4294308604
-23.266054 783.13171 1219.2581 4291082190
-19.38838 783.72461 1219.7579 4290162894
-16.286238 784.02106 1220.0079 4293387774
-13.959633 784.02106 1220.0079 4294045437
-39.988991 764.49536 1221.8568 4282205014
-37.636696 764.49536 1221.8568 4282401364
-39.988991 766.2937 1223.3732 4282335071
-37.48991 772.71368 1222.2462 4284770414
-44.519264 774.505 1223.7566 4283850358
-39.833027 774.505 1223.7566 4283389037
-43.211929 778.54376 1221.9298 4283652463
-39.708256 778.54376 1221.9298 4283718003
-37.372478 778.54376 1221.9298 4285887123
-31.533028 778.54376 1221.9298 4292860911
-28.029358 778.54376 1221.9298 4293452539
-25.693579 778.54376 1221.9298 4294307839
-22.189907 778.54376 1221.9298 4294374142
-18.686239 778.54376 1221.9298 4294242303
-16.350458 778.54376 1221.9298 4294702847
-14.014679 778.54376 1221.9298 4294440447
-43.211929 780.32947 1223.4355 4283849324
-39.708256 780.32947 1223.4355 4284243566
-37.372478 780.32947 1223.4355 4286083723
-35.036697 780.32947 1223.4355 4288649393
-31.533028 780.32947 1223.4355 4288978878
-28.029358 780.32947 1223.4355 4290554562
-25.693579 780.32947 1223.4355 4291015113
-18.612844 786.68909 1222.2576 4283128425
-40.144955 759.8457 1224.4766 4282860883
-37.783485 759.8457 1224.4766 4282007901
-34.241287 759.8457 1224.4766 4290888672
-30.699083 759.8457 1224.4766 4293387775
-28.337614 759.8457 1224.4766 4293584627
-25.976147 759.8457 1224.4766 4294308349
-39.988991 768.99127 1225.6477 4283256686
-43.211929 782.11523 1224.9412 4284505968
-39.708256 782.11523 1224.9412 4286084486
-37.372478 782.11523 1224.9412 4285887373
-35.036697 782.11523 1224.9412 4286347924
-31.533028 782.11523 1224.9412 4286808740
-28.029358 782.11523 1224.9412 4288650649
-25.693579 782.11523 1224.9412 4288782235
-22.189907 782.11523 1224.9412 4288519345
-35.036697 783.90094 1226.4469 4284770686
-31.533028 783.90094 1226.4469 4285956777
-28.029358 783.90094 1226.4469 4287865774
-25.693579 783.90094 1226.4469 4286023570
-22.189907 783.90094 1226.4469 4282604400
-16.350458 783.90094 1226.4469 4292734460
-14.014679 783.90094 1226.4469 4294111231
-42.176147 781.67035 1229.7982 4284637040
-39.833027 781.67035 1229.7982 4286545037
-37.48991 781.67035 1229.7982 4286481561
-35.036697 785.68665 1227.9525 4285229442
-31.533028 785.68665 1227.9525 4287729343
-28.029358 785.68665 1227.9525 4289308093
-25.693579 785.68665 1227.9525 4287136924
-22.189907 785.68665 1227.9525 4282602084
-18.686239 785.68665 1227.9525 4284376934
-16.350458 785.68665 1227.9525 4293258989
-14.014679 785.68665 1227.9525 4294111231
-28.029358 787.47241 1229.4583 4289701052
-25.693579 787.47241 1229.4583 4286148231
-22.189907 787.47241 1229.4583 4284306528
-18.686239 787.47241 1229.4583 4286282117
-39.833027 783.46167 1231.3086 4286544787
-37.48991 783.46167 1231.3086 4286019215
-35.14679 785.25299 1232.8191 4284704121
-31.632111 785.25299 1232.8191 4288383895
-16.401834 785.25299 1232.8191 4293782776
-14.058716 785.25299 1232.8191 4294177023
-30.46055 787.94 1235.0847 4288977820
-28.117432 787.94 1235.0847 4289372342
-25.774311 787.94 1235.0847 4285819776
-22.259632 787.94 1235.0847 4282994267
-18.744955 787.94 1235.0847 4286545300
-39.988991 782.47888 1237.02 4286806662
-37.636696 782.47888 1237.02 4285427587
-35.284405 784.27722 1238.5364 4283978344
-32.93211 784.27722 1238.5364 4286541666
-16.466055 784.27722 1238.5364 4293586431
-14.113762 784.27722 1238.5364 4294374143
-28.117432 790.62701 1237.3502 4292006626
-25.774311 790.62701 1237.3502 4287071894
-22.259632 790.62701 1237.3502 4283520874
-35.284405 786.07556 1240.0527 4289701304
-32.14801 787.27441 1241.0635 4291347410
-18.818348 787.8739 1241.569 4287072669
-45.042202 775.1181 1243.8939 4283783528
-42.671558 775.1181 1243.8939 4284373618
-43.687157 781.51001 1242.7433 4283388524
-40.144955 781.51001 1242.7433 4286743193
-37.783485 781.51001 1242.7433 4285754755
-43.687157 783.31543 1244.2656 4284046188
-40.144955 783.31543 1244.2656 4286612620
-37.783485 783.31543 1244.2656 4287464342
-16.530275 783.31543 1244.2656 4293913087
-14.168807 783.31543 1244.2656 4294243327
-30.579817 789.67224 1243.0853 4292862196
-28.227524 789.67224 1243.0853 4292993791
-25.875229 789.67224 1243.0853 4286743717
-23.522936 789.67224 1243.0853 4282732612
-45.042202 776.93048 1245.4221 4283586415
-42.671558 776.93048 1245.4221 4284503907
-37.783485 785.12079 1245.7878 4288186786
-35.42202 785.12079 1245.7878 4291476437
-34.241287 786.92615 1247.3101 4292795121
-21.25321 786.92615 1247.3101 4283916885
-18.891743 786.92615 1247.3101 4287598759
-45.042202 782.36761 1250.0066 4283716969
-42.671558 782.36761 1250.0066 4285360749
-40.300919 782.36761 1250.0066 4287268746
-16.594496 782.36761 1250.0066 4293520126
-14.223853 782.36761 1250.0066 4293849332
-11.853211 782.36761 1250.0066 4293717746
-33.060551 788.73151 1248.8323 4293057779
-30.699083 788.73151 1248.8323 4293255157
-28.337614 788.73151 1248.8323 4292927728
-25.976147 788.73151 1248.8323 4286677136
-22.433945 788.73151 1248.8323 4283324260
-28.337614 790.53687 1250.3545 4286152119
-25.976147 790.53687 1250.3545 4284441501
-23.614679 790.53687 1250.3545 4283323469
-46.227524 785.08618 1252.2988 4283585383
-42.671558 785.08618 1252.2988 4285689464
-40.300919 785.08618 1252.2988 4287202703
-37.930275 785.08618 1252.2988 4288122024
-35.559631 785.99237 1253.0629 4292990450
-18.965137 785.99237 1253.0629 4288452786
-16.658716 781.43384 1255.7594 4293651711
-14.278899 781.43384 1255.7594 4293389042
-46.227524 787.80475 1254.5909 4283847524
-42.671558 787.80475 1254.5909 4286082939
-40.300919 787.80475 1254.5909 4287069834
-37.930275 787.80475 1254.5909 4287069335
-34.374313 787.80475 1254.5909 4288188334
-30.818348 787.80475 1254.5909 4287662250
-21.335779 787.80475 1254.5909 4285034087
-18.965137 787.80475 1254.5909 4289306294
-46.227524 789.61713 1256.1191 4283847781
-42.671558 789.61713 1256.1191 4286018684
-40.300919 789.61713 1256.1191 4287400337
-37.930275 789.61713 1256.1191 4286544787
-34.374313 789.61713 1256.1191 4285229201
-30.818348 789.61713 1256.1191 4283781772
-28.447706 789.61713 1256.1191 4283257704
-26.077065 789.61713 1256.1191 4282994531
-22.521101 789.61713 1256.1191 4283916402
-18.965137 789.61713 1256.1191 4289242039
-11.93578 779.23694 1259.1392 4293323249
-16.658716 784.16296 1258.0605 4294175999
-14.278899 784.16296 1258.0605 4294045432
-11.899082 784.16296 1258.0605 4294111225
-46.227524 791.42944 1257.6473 4283979616
-42.671558 791.42944 1257.6473 4286281086
-40.300919 791.42944 1257.6473 4287465359
-37.930275 791.42944 1257.6473 4285233804
-34.374313 791.42944 1257.6473 4283126120
-30.818348 791.42944 1257.6473 4283518314
-28.447706 791.42944 1257.6473 4283124832
-26.077065 791.42944 1257.6473 4283124832
-22.521101 791.42944 1257.6473 4284178528
-46.227524 793.24188 1259.1754 4284176745
-42.671558 793.24188 1259.1754 4286084477
-40.300919 793.24188 1259.1754 4287860888
-37.930275 793.24188 1259.1754 4286875537
-34.374313 793.24188 1259.1754 4282862677
-19.038532 788.71143 1261.8956 4289832638
-16.658716 787.80176 1261.1287 4294044159
-14.278899 787.80176 1261.1287 4293913594
-11.899082 787.80176 1261.1287 4294242303
-45.832417 795.65839 1261.213 4284375658
-9.4825687 796.86664 1262.2317 4293847544
-30.937614 790.53076 1263.4297 4283126618
-28.557798 790.53076 1263.4297 4283388007
-26.177982 790.53076 1263.4297 4283651178
-22.608257 790.53076 1263.4297 4284771956
-19.038532 790.53076 1263.4297 4289637578
-14.278899 790.53076 1263.4297 4293782270
-11.899082 790.53076 1263.4297 4294177023
-42.836697 792.35016 1264.9637 4286018693
-40.456882 792.35016 1264.9637 4287531932
-38.077065 792.35016 1264.9637 4286809758
-34.507339 792.35016 1264.9637 4283585122
-30.937614 792.35016 1264.9637 4284044637
-28.557798 792.35016 1264.9637 4283980141
-26.177982 792.35016 1264.9637 4283388261
-22.608257 792.35016 1264.9637 4284706406
-19.038532 792.35016 1264.9637 4290227646
-14.278899 792.35016 1264.9637 4293650683
-10.709174 792.35016 1264.9637 4293979131
-9.4825687 798.67896 1263.7599 4293716726
-16.710093 788.36194 1266.8331 4293782271
-16.710093 790.18695 1268.3719 4293912054
-42.836697 794.16956 1266.4978 4286083721
-40.456882 794.16956 1266.4978 4287925925
-38.077065 794.16956 1266.4978 4287596194
-34.507339 794.16956 1266.4978 4286740620
-30.937614 794.16956 1266.4978 4287464846
-28.557798 794.16956 1266.4978 4287857563
-26.177982 794.16956 1266.4978 4287594647
-22.608257 794.16956 1266.4978 4288715179
-19.038532 794.16956 1266.4978 4290426326
-38.077065 795.98895 1268.0319 4288515236
-34.507339 795.98895 1268.0319 4290555329
-30.937614 795.98895 1268.0319 4292266713
-28.557798 795.98895 1268.0319 4292201692
-26.177982 795.98895 1268.0319 4292596194
-22.608257 795.98895 1268.0319 4293319388
-45.355965 793.83698 1271.4495 4285295476
-42.968807 793.83698 1271.4495 4285755271
-40.58165 793.83698 1271.4495 4287400096
-19.097248 793.83698 1271.4495 4293649648
-16.710093 792.92444 1270.6802 4293979128
-14.322936 792.92444 1270.6802 4293519348
-11.93578 792.92444 1270.6802 4293782521
-45.355965 797.48694 1274.5271 4285361020
-38.194496 795.66199 1272.9883 4288187286
-34.613762 796.57446 1273.7577 4290161854
-31.033028 796.57446 1273.7577 4292464870
-28.645872 796.57446 1273.7577 4292399328
-26.258715 796.57446 1273.7577 4293057258
-22.677982 796.57446 1273.7577 4293058024
-19.097248 796.57446 1273.7577 4293321460
-16.710093 796.57446 1273.7577 4293584375
-14.322936 796.57446 1273.7577 4293585140
-11.93578 796.57446 1273.7577 4293848569
-46.728439 792.97894 1277.2662 4284177772
-43.133945 792.97894 1277.2662 4286083975
-40.737614 792.97894 1277.2662 4287465628
-35.807339 799.31195 1276.0659 4289702835
-28.645872 799.31195 1276.0659 4292268251
-26.258715 799.31195 1276.0659 4292465630
-22.677982 799.31195 1276.0659 4292992235
-19.097248 799.31195 1276.0659 4293386734
-16.710093 799.31195 1276.0659 4293518063
-14.322936 799.31195 1276.0659 4293912306
-11.93578 799.31195 1276.0659 4294307064
-43.133945 794.81097 1278.8109 4286281351
-40.737614 794.81097 1278.8109 4287531419
-38.341286 794.81097 1278.8109 4287794329
-46.728439 796.64294 1280.3556 4284177772
-43.133945 796.64294 1280.3556 4286216072
-40.737614 796.64294 1280.3556 4287466139
-38.341286 796.64294 1280.3556 4287729045
-33.548622 796.64294 1280.3556 4290491590
-31.152294 796.64294 1280.3556 4292399587
-46.728439 798.47498 1281.9003 4284243566
-43.133945 798.47498 1281.9003 4286086285
-40.737614 798.47498 1281.9003 4287138973
-38.341286 798.47498 1281.9003 4287860382
-35.146175 799.08563 1282.4152 4290163137
-31.152294 798.47498 1281.9003 4292465380
-28.755962 798.47498 1281.9003 4292399587
-26.359632 799.39099 1282.6726 4292793833
-22.765137 799.39099 1282.6726 4293188589
-19.170643 799.39099 1282.6726 4293254382
-16.774311 799.39099 1282.6726 4293451504
-14.377981 799.39099 1282.6726 4293648881
-11.981651 799.39099 1282.6726 4293714674
-21.566973 802.13904 1284.9897 4293320687
-19.170643 803.05505 1285.7621 4293320428
-11.981651 802.13904 1284.9897 4293649137
-48.110092 797.65204 1287.7466 4283388513
-45.704586 797.65204 1287.7466 4285691012
-43.299084 797.65204 1287.7466 4285888908
-40.893578 797.65204 1287.7466 4287138975
-38.488075 797.65204 1287.7466 4287728797
-33.677063 797.65204 1287.7466 4290688201
-31.271559 797.65204 1287.7466 4292661991
-28.866055 797.65204 1287.7466 4292596198
-49.312843 799.49109 1289.2972 4283518812
-45.704586 799.49109 1289.2972 4285492349
-43.299084 799.49109 1289.2972 4285822345
-40.893578 799.49109 1289.2972 4287138462
-37.285324 799.49109 1289.2972 4288715438
-33.677063 799.49109 1289.2972 4290753227
-31.271559 799.49109 1289.2972 4292792809
-28.866055 799.49109 1289.2972 4292596198
-25.257797 799.49109 1289.2972 4292925418
-16.838531 799.49109 1289.2972 4293517550
-14.433027 799.49109 1289.2972 4293714930
-50.322937 807.63507 1289.6239 4283781981
-47.926605 807.63507 1289.6239 4283783521
-49.312843 802.24963 1291.6232 4283848291
-45.704586 802.24963 1291.6232 4284769906
-43.299084 802.24963 1291.6232 4285559430
-40.893578 802.24963 1291.6232 4287401377
-37.285324 802.24963 1291.6232 4287731111
-33.677063 802.24963 1291.6232 4289964744
-31.271559 802.24963 1291.6232 4292925173
-28.866055 802.24963 1291.6232 4292793829
-25.257797 802.24963 1291.6232 4293057001
-21.649542 802.24963 1291.6232 4293452015
-19.244038 803.16913 1292.3984 4293386734
-16.838531 802.24963 1291.6232 4293518063
-13.230275 802.24963 1291.6232 4293649651
-49.312843 806.84717 1295.4998 4283323483
-45.704586 805.00818 1293.9491 4284638573
-43.299084 805.00818 1293.9491 4285559175
-40.893578 805.92767 1294.7244 4287465889
-37.285324 805.00818 1293.9491 4287860899
-33.677063 805.00818 1293.9491 4289767631
-31.271559 805.00818 1293.9491 4292991231
-24.055046 805.00818 1293.9491 4293188586
-21.649542 805.00818 1293.9491 4293517550
-19.244038 805.00818 1293.9491 4293583345
-16.838531 805.00818 1293.9491 4293649139
-13.230275 805.00818 1293.9491 4293649397
-28.976147 802.38135 1298.2743 4293056999
-26.561468 802.38135 1298.2743 4293188586
-13.230275 810.52527 1298.601 4293452019
-49.500916 806.07336 1301.3873 4283650908
-45.878899 805.15039 1300.6091 4284639343
-43.464222 805.15039 1300.6091 4285754757
-41.049541 806.07336 1301.3873 4287071131
-37.427521 805.15039 1300.609 4288452272
-33.805504 805.15039 1300.6091 4291017421
-31.390825 805.15039 1300.6091 4293254640
-28.976147 805.15039 1300.6091 4293123048
-25.35413 805.15033 1300.6091 4293122791
-21.732111 805.15039 1300.6091 4293846515
-19.31743 805.15039 1300.6091 4293649138
-16.902752 805.15039 1300.6091 4293517296
-13.280734 805.15033 1300.6091 4293517812
-13.230275 812.36426 1300.1516 4293386225
-33.805504 807.91943 1302.9438 4290952650
-31.390825 807.91943 1302.9438 4292992490
-28.976147 807.91943 1302.9438 4292991206
-24.14679 808.84247 1303.7222 4293057001
-21.732111 808.84247 1303.7222 4293714931
-19.31743 808.84247 1303.7222 4293189359
-16.902752 808.84247 1303.7222 4293123566
-13.230275 816.04236 1303.2528 4293254894
-49.688992 805.3136 1307.2869 4283913310
-46.053211 805.3136 1307.2869 4285032048
-43.629356 805.3136 1307.2869 4285361540
-41.205505 805.3136 1307.2869 4286875035
-37.569725 805.3136 1307.2869 4288125616
-26.662386 805.3136 1307.2869 4292991206
-16.902752 811.61151 1306.057 4293188847
-14.488073 811.61151 1306.057 4293254640
-46.053211 809.01965 1310.4117 4284899948
-41.205505 808.09314 1309.6306 4287137695
-37.569725 807.16663 1308.8494 4288256940
-33.933945 808.09314 1309.6306 4290557893
-31.510092 808.09314 1309.6306 4292926441
-29.086239 808.09314 1309.6306 4293188587
-25.450459 808.09314 1309.6306 4293122793
-21.814678 809.01965 1310.4117 4293254379
-19.390825 809.01965 1310.4117 4293188847
-13.280734 815.30359 1309.17 4293452270
-21.814678 810.87274 1311.9742 4293254379
-19.390825 810.87274 1311.9742 4293188334
-16.966972 810.87274 1311.9742 4293583091
-48.697247 804.97876 1314.8528 4283781724
-46.262386 804.04803 1314.068 4285032048
-43.827522 804.97876 1314.8528 4285426564
-37.740364 805.90955 1315.6376 4287861930
-26.783485 805.90955 1315.6376 4293188588
-12.878288 823.30304 1315.915 4293123049
-9.6587152 822.68774 1315.3962 4293318888
-48.697247 807.771 1317.207 4283848030
-46.262386 808.70172 1317.9918 4284571497
-43.827522 808.70172 1317.9918 4284769152
-41.392662 808.70172 1317.9918 4286743198
-37.740364 808.70172 1317.9918 4287992492
-34.088074 808.70172 1317.9918 4290951886
-31.653212 808.70172 1317.9918 4292794090
-29.218349 808.70172 1317.9918 4292991208
-25.160246 808.39142 1317.7302 4293122794
-21.913761 809.63245 1318.7766 4293189101
-19.478899 809.63245 1318.7766 4293057512
-17.044037 809.63245 1318.7766 4293386734
-13.331193 818.28497 1318.224 4293385964
-37.740364 811.4939 1320.3462 4288452271
-34.088074 811.4939 1320.3462 4291543247
-13.391743 811.4939 1320.3462 4293517550
-24.348623 813.35541 1321.9156 4292923360
-21.913761 813.35541 1321.9156 4293515754
-19.478899 813.35541 1321.9156 4293254892
-17.044037 813.35541 1321.9156 4293320685
-13.391743 813.35541 1321.9156 4293254124
-51.324772 807.98889 1323.9309 4284110442
-48.880733 807.98889 1323.9309 4283913827
-46.436699 808.9231 1324.7186 4284571247
-43.992661 808.9231 1324.7186 4284572028
-41.548622 808.9231 1324.7186 4286545819
-31.772476 808.9231 1324.7186 4293187815
-29.32844 808.9231 1324.7186 4293252843
-26.069725 808.30029 1324.1935 4293122027
-21.99633 808.9231 1324.7186 4293583091
-19.552294 808.9231 1324.7186 4293451757
-17.108257 808.9231 1324.7186 4293451757
-36.522934 815.21686 1323.4852 4288517544
-34.088074 815.21686 1323.4852 4290096047
-31.653212 815.21686 1323.4852 4290096047
-21.913761 815.21686 1323.4852 4293056245
-19.478899 815.21686 1323.4852 4293188838
-17.044037 815.21686 1323.4852 4293715182
-24.348623 817.07837 1325.0548 4288583591
-19.478899 817.07837 1325.0548 4293056999
-17.044037 817.07837 1325.0548 4293451757
-51.324772 812.6601 1327.8696 4284308075
-48.880733 812.6601 1327.8696 4284374124
-46.436699 811.72583 1327.0819 4284242795
-43.992661 811.72583 1327.0819 4284767864
-40.326607 811.72583 1327.0819 4287267738
-36.660549 810.79163 1326.2942 4289702076
-34.216515 810.79163 1326.2942 4290686149
-31.772476 810.79163 1326.2942 4291936215
-29.32844 811.72583 1327.0819 4290950333
-26.069723 812.03729 1327.3445 4290884548
-51.517429 808.22784 1330.6726 4284176489
-49.06422 808.22784 1330.6726 4284177772
-48.880733 814.52856 1329.4451 4284176237
-46.436699 814.52856 1329.4451 4284373872
-43.992661 814.52856 1329.4451 4284702070
-40.326607 814.52856 1329.4451 4287398811
-36.660549 814.52856 1329.4451 4287398295
-34.216515 814.52856 1329.4451 4286349461
-31.772476 814.52856 1329.4451 4285164931
-29.32844 814.52856 1329.4451 4283393903
-26.884403 814.52856 1329.4451 4285170314
-21.99633 814.52856 1329.4451 4292925929
-43.992661 816.39709 1331.0205 4284636277
-40.326607 816.39709 1331.0205 4287267739
-36.660549 816.39709 1331.0205 4287267481
-34.216515 816.39709 1331.0205 4286414484
-24.440367 816.39709 1331.0205 4289175728
-19.552294 816.39709 1331.0205 4293255144
-17.108257 816.39709 1331.0205 4293320937
-14.66422 816.39709 1331.0205 4293123306
-43.992661 818.26556 1332.5959 4284634991
-40.326607 818.26556 1332.5959 4287661982
-43.992661 820.13403 1334.1714 4284964208
-49.06422 815.72986 1336.998 4284700784
-46.611008 814.79211 1336.2074 4284635761
-36.798164 815.72986 1336.998 4287267481
-34.344955 815.72986 1336.998 4286479244
-31.891743 814.79211 1336.2074 4284637557
-29.438532 814.79211 1336.2074 4284572779
-26.985321 813.85437 1335.4167 4285956230
-22.078899 813.85437 1335.4167 4293386480
-49.06422 817.60535 1338.5795 4284634993
-46.611008 817.60535 1338.5795 4284766580
-40.477982 817.60535 1338.5795 4287596443
-36.798164 817.60535 1338.5795 4286741648
-34.344955 817.60535 1338.5795 4286086273
-49.06422 819.48083 1340.1609 4285031285
-44.157799 819.48083 1340.1609 4285424246
-40.477982 819.48083 1340.1609 4287464860
-36.798164 819.48083 1340.1609 4287136926
-32.011009 815.07666 1342.9875 4284704620
-27.907034 814.44916 1342.4585 4285954695
-24.623854 814.13538 1342.1938 4290030009
-22.161469 814.13538 1342.1938 4293253610
-19.699083 814.13538 1342.1938 4293123048
-17.236698 814.13538 1342.1938 4292925669
-14.774312 814.13538 1342.1938 4292795108
-40.629356 818.84167 1346.1621 4287399319
-36.93578 818.84167 1346.1621 4289438396
-34.473396 817.90045 1345.3684 4287599003
-32.011009 817.90045 1345.3684 4285691005
-28.317432 817.90045 1345.3684 4285954955
-24.623854 817.90045 1345.3684 4289767867
-19.699083 817.90045 1345.3684 4293057497
-22.244038 814.4375 1348.9886 4292925159
-17.300917 814.4375 1348.9886 4293386210
-44.322937 820.72424 1347.7494 4284768626
-41.86055 820.72424 1347.7494 4286874002
-36.93578 820.72424 1347.7494 4289831096
-34.473396 820.72424 1347.7494 4289766836
-32.011009 820.72424 1347.7494 4286740101
-28.317432 820.72424 1347.7494 4286283652
-24.623854 820.72424 1347.7494 4289768379
-36.93578 822.60675 1349.3367 4289700005
-32.011009 822.60675 1349.3367 4286280054
-28.317432 822.60675 1349.3367 4286219154
-24.623854 822.60675 1349.3367 4290097343
-44.488075 816.32703 1350.5819 4285031535
-39.544952 818.21655 1352.175 4288251807
-22.244038 817.27179 1351.3784 4292729064
-19.772476 818.21655 1352.175 4293057249
-17.300917 817.27179 1351.3784 4293518051
-14.829358 817.27179 1351.3784 4293517036
-27.086239 824.48926 1350.924 4288389530
-28.317432 826.37177 1352.5112 4286877332
-24.623854 826.37177 1352.5112 4290557633
-22.161469 826.37177 1352.5112 4293123304
-19.699083 826.37177 1352.5112 4292793828
-17.236698 826.37177 1352.5112 4292793828
-14.895412 811.4115 1354.2854 4293517035
-47.168808 813.30945 1355.8857 4285425009
-42.016514 821.05084 1354.5649 4287007388
-39.544952 821.05084 1354.5649 4289043112
-37.073395 821.99561 1355.3615 4290030787
-34.601833 821.05084 1354.5649 4289701299
-32.130276 821.99561 1355.3615 4286083205
-29.658716 821.99561 1355.3615 4284639329
-24.715597 821.99561 1355.3615 4290623428
-22.244038 821.05084 1354.5649 4292926441
-19.772476 821.05084 1354.5649 4293188332
-17.300917 821.05084 1354.5649 4293122539
-14.829358 821.05084 1354.5649 4293056492
-27.086239 829.19556 1354.8921 4290163122
-24.623854 829.19556 1354.8921 4290688463
-22.161469 829.19556 1354.8921 4293122546
-19.699083 829.19556 1354.8921 4292793316
-17.236698 829.19556 1354.8921 4292727522
-52.133945 815.2074 1357.486 4284636777
-49.651375 815.2074 1357.486 4284636777
-47.168808 815.2074 1357.486 4285031535
-37.073395 823.88513 1356.9547 4289374401
-34.601833 823.88513 1356.9547 4288849843
-32.130276 823.88513 1356.9547 4285099642
-14.829358 823.88513 1356.9547 4293122540
-34.601833 825.77466 1358.5479 4286745764
-32.130276 825.77466 1358.5479 4285298318
-29.658716 825.77466 1358.5479 4286084447
-24.623854 832.01929 1357.2731 4292662243
-22.161469 832.01929 1357.2731 4292793830
-49.651375 817.10535 1359.0863 4284899698
-32.130276 827.66418 1360.1411 4287860384
-29.658716 827.66418 1360.1411 4287991720
-28.422935 829.55371 1361.7343 4292925663
-12.504587 806.36804 1363.1133 4293451242
-54.818348 814.60468 1363.5179 4284834153
-52.326607 814.60468 1363.5179 4284899946
-47.343121 814.60468 1363.5179 4285097078
-44.851376 814.60468 1363.5179 4284769912
-42.203671 820.90125 1362.2869 4287532966
-39.7211 820.90125 1362.2869 4288519092
-37.238533 822.79913 1363.8872 4286811307
-37.073395 831.44324 1363.3275 4293648103
-34.601833 831.44324 1363.3275 4292990691
-32.130276 831.44324 1363.3275 4292924898
-28.422935 832.388 1364.124 4292662243
-24.715597 832.388 1364.124 4292595941
-44.851376 816.50964 1365.1241 4284639611
-39.7211 824.69708 1365.4874 4288910253
-37.238533 824.69708 1365.4874 4289568439
-34.755962 824.69708 1365.4874 4288649899
-39.7211 826.59503 1367.0878 4292331995
-37.238533 826.59503 1367.0878 4293055462
-34.755962 826.59503 1367.0878 4292728035
-32.273396 826.59503 1367.0878 4292728035
-37.073395 835.22229 1366.5139 4292727264
-34.601833 835.22229 1366.5139 4292727266
-32.130276 835.22229 1366.5139 4292595681
-28.422935 835.22229 1366.5139 4292596194
-57.521099 814.01599 1369.5618 4284833399
-55.020184 814.01599 1369.5618 4284769132
-52.519264 814.01599 1369.5618 4284900719
-50.018349 814.01599 1369.5618 4284704623
-47.517429 814.01599 1369.5618 4284704623
-39.867889 820.31952 1368.3365 4285955998
-42.359634 822.22449 1369.9427 4288252841
-42.203671 828.49298 1368.6881 4292396492
-39.7211 829.44196 1369.4883 4293122019
-37.238533 830.39093 1370.2883 4292596448
-34.755962 830.39093 1370.2883 4292464608
-32.273396 830.39093 1370.2883 4292596194
-37.073395 837.11182 1368.1071 4292793057
-34.601833 837.11182 1368.1071 4292858337
-60.022018 815.92798 1371.174 4284504690
-57.521099 815.92798 1371.174 4284833399
-55.020184 815.92798 1371.174 4284899948
-46.266972 815.92798 1371.174 4285098103
-60.022018 817.8399 1372.7861 4285292407
-57.521099 817.8399 1372.7861 4285292407
-55.020184 817.8399 1372.7861 4285096031
-47.517429 817.8399 1372.7861 4285360747
-42.515594 817.8399 1372.7861 4286939543
-42.359634 824.12946 1371.549 4291869629
-49.834862 826.03442 1373.1553 4286411639
-47.343121 826.03442 1373.1553 4286938239
-44.851376 826.03442 1373.1553 4288777620
-42.203671 832.28888 1371.8887 4292989669
-39.7211 832.28888 1371.8887 4292793057
-42.203671 834.18683 1373.489 4292596187
-39.7211 834.18683 1373.489 4292595935
-52.750458 812.94403 1376.5061 4285294706
-50.238533 812.94403 1376.5061 4285294704
-57.521099 820.70789 1375.2043 4285820548
-55.020184 820.70789 1375.2043 4285886568
-52.519264 820.70789 1375.2043 4285886825
-50.018349 820.70789 1375.2043 4285558894
-46.266972 820.70789 1375.2043 4286148727
-42.359634 827.93933 1374.7615 4293250256
-52.750458 814.86438 1378.1254 4285622631
-50.238533 814.86438 1378.1254 4285426540
-45.21468 814.86438 1378.1254 4285557890
-57.521099 823.57581 1377.6224 4286017930
-55.020184 823.57581 1377.6224 4285952636
-52.519264 823.57581 1377.6224 4285952636
-52.519264 825.48779 1379.2346 4285951101
-50.018349 825.48779 1379.2346 4287199598
-46.266972 825.48779 1379.2346 4290159262
-52.519264 827.39978 1380.8467 4286610317
-50.018349 827.39978 1380.8467 4288317841
-46.266972 827.39978 1380.8467 4291278788
