# .PCD v0.7 - Point Cloud Data file format
VERSION 0.7
FIELDS x y z rgb
SIZE 4 4 4 4
TYPE F F F U
COUNT 1 1 1 1
WIDTH 974
HEIGHT 1
VIEWPOINT 0 0 0 1 0 0 0
POINTS 974
DATA ascii
31.653212 753.78827 1271.6902 4289438618
50.322937 783.81885 1269.5426 4293978099
21.649542 779.26178 1272.2404 4293516015
24.055046 779.26178 1272.2404 4293319656
19.244038 781.10083 1273.791 4292727266
21.649542 781.10083 1273.791 4293648368
24.055046 781.10083 1273.791 4293384936
48.110092 781.10083 1273.791 4293912306
50.322937 787.48291 1272.6321 4293779439
52.719265 787.48291 1272.6321 4293647853
31.152294 789.31494 1274.1768 4293976831
38.341286 789.31494 1274.1768 4293582060
40.737614 789.31494 1274.1768 4293779439
43.133945 789.31494 1274.1768 4293583343
47.926605 789.31494 1274.1768 4293647853
50.322937 789.31494 1274.1768 4293713646
52.719265 789.31494 1274.1768 4293647853
28.645872 797.48694 1274.5271 4289306546
31.033028 796.57446 1273.7577 4293385970
34.613762 797.48694 1274.5271 4293581808
38.194496 796.57446 1273.7577 4293253099
40.58165 796.57446 1273.7577 4293581808
42.968807 796.57446 1273.7577 4293451501
46.549541 797.48694 1274.5271 4293319658
35.697247 803.26648 1274.1682 4293385195
38.077065 803.26648 1274.1682 4292991206
40.456882 802.35681 1273.4011 4293582830
19.31743 776.53674 1276.4828 4293384686
14.433027 782.93982 1275.3417 4288187255
16.838531 782.93982 1275.3417 4289305992
19.244038 782.93982 1275.3417 4292331952
21.649542 782.93982 1275.3417 4293713605
25.257797 782.93982 1275.3417 4293713896
28.866055 782.93982 1275.3417 4293714411
31.271559 782.93982 1275.3417 4293845998
37.285324 782.93982 1275.3417 4293845738
40.893578 782.93982 1275.3417 4293780203
43.299084 782.93982 1275.3417 4293779953
45.704586 782.93982 1275.3417 4293845746
49.312843 782.93982 1275.3417 4293912560
52.921101 782.93982 1275.3417 4293845746
14.433027 784.77881 1276.8922 4281678660
16.838531 784.77881 1276.8922 4281809989
19.244038 784.77881 1276.8922 4282860381
21.649542 784.77881 1276.8922 4285689480
25.257797 784.77881 1276.8922 4289698726
28.866055 784.77881 1276.8922 4293053402
31.271559 784.77881 1276.8922 4294171882
33.677063 784.77881 1276.8922 4293055714
37.285324 784.77881 1276.8922 4293648107
40.893578 784.77881 1276.8922 4293845487
43.299084 784.77881 1276.8922 4293845487
45.704586 784.77881 1276.8922 4293845487
48.110092 784.77881 1276.8922 4293713646
26.359632 791.14691 1275.7214 4285892502
28.755962 791.14691 1275.7214 4289897915
31.152294 791.14691 1275.7214 4293648116
34.746788 791.14691 1275.7214 4293516269
38.341286 791.14691 1275.7214 4293121255
40.737614 791.14691 1275.7214 4293647855
43.133945 791.14691 1275.7214 4293583343
46.728439 791.14691 1275.7214 4293517550
50.322937 791.14691 1275.7214 4293583343
52.719265 791.14691 1275.7214 4293647853
23.963303 792.97894 1277.2662 4283126629
26.359632 792.97894 1277.2662 4285429384
28.755962 792.97894 1277.2662 4289241525
34.746788 792.97894 1277.2662 4293581808
46.728439 792.97894 1277.2662 4293583344
50.322937 792.97894 1277.2662 4293714930
52.719265 792.97894 1277.2662 4293517037
23.871559 799.31195 1276.0659 4283650926
26.258715 799.31195 1276.0659 4286085268
28.645872 799.31195 1276.0659 4289767097
31.033028 799.31195 1276.0659 4293648885
34.613762 799.31195 1276.0659 4293582573
38.194496 799.31195 1276.0659 4293385195
42.968807 799.31195 1276.0659 4293517548
46.549541 799.31195 1276.0659 4293517549
50.130276 799.31195 1276.0659 4293714930
52.517429 799.31195 1276.0659 4293319402
23.871559 801.13696 1277.6047 4283519590
26.258715 801.13696 1277.6047 4286282896
28.645872 801.13696 1277.6047 4290423998
31.033028 801.13696 1277.6047 4293845235
33.420185 801.13696 1277.6047 4293517037
42.968807 801.13696 1277.6047 4293451244
46.549541 801.13696 1277.6047 4293648624
26.177982 805.99561 1276.4692 4287860119
28.557798 805.99561 1276.4692 4290686399
30.937614 805.99561 1276.4692 4293712877
34.507339 805.99561 1276.4692 4293450472
38.077065 805.99561 1276.4692 4293122791
40.456882 805.99561 1276.4692 4293320170
42.836697 805.08594 1275.7023 4293451757
52.154129 814.99036 1277.5132 4293451494
54.524769 814.99036 1277.5132 4293714409
47.045872 829.23596 1276.4443 4283650132
26.884403 754.737 1279.0303 4289568419
29.32844 754.737 1279.0303 4289699215
31.772476 754.737 1279.0303 4292199349
34.216515 754.737 1279.0303 4293187050
14.488073 778.38275 1278.0393 4289170583
16.902752 778.38275 1278.0393 4292591819
33.805504 778.38275 1278.0393 4293451242
37.427521 778.38275 1278.0393 4293517036
41.049541 778.38275 1278.0393 4293779953
43.464222 778.38275 1278.0393 4293583343
45.878899 778.38275 1278.0393 4293714930
9.6587152 780.22882 1279.5958 4286082691
12.073395 780.22882 1279.5958 4286477449
33.805504 780.22882 1279.5958 4293648103
13.631192 787.84393 1279.4767 4283057746
16.838531 787.53735 1279.2183 4283255381
19.244038 787.53735 1279.2183 4283254889
21.649542 787.53735 1279.2183 4284044404
24.85688 787.2309 1278.9598 4285625229
28.866055 786.61786 1278.4429 4291016149
33.677063 786.61786 1278.4429 4293779693
36.082569 786.61786 1278.4429 4293582058
45.704586 786.61786 1278.4429 4293583343
22.765137 794.81097 1278.8109 4283847786
26.359632 794.81097 1278.8109 4286085520
50.322937 794.81097 1278.8109 4293451244
52.719265 794.81097 1278.8109 4293253608
16.774311 796.64294 1280.3556 4283453022
19.170643 796.64294 1280.3556 4283781981
21.566973 796.64294 1280.3556 4284308581
55.115597 796.64294 1280.3556 4293911795
22.677982 802.96198 1279.1434 4284110692
46.549541 802.96198 1279.1434 4293714419
19.097248 804.78699 1280.6823 4284111727
22.677982 804.78699 1280.6823 4284307817
42.968807 804.78699 1280.6823 4292926183
46.549541 804.78699 1280.6823 4293254381
22.608257 808.72467 1278.7704 4283979370
26.177982 808.72467 1278.7704 4288255141
28.557798 808.72467 1278.7704 4290752959
30.937614 808.72467 1278.7704 4293384936
34.507339 808.72467 1278.7704 4293450220
38.077065 808.72467 1278.7704 4293319654
40.456882 808.72467 1278.7704 4293451240
42.836697 808.72467 1278.7704 4293122792
26.177982 810.54407 1280.3044 4289045175
28.557798 810.54407 1280.3044 4290623428
30.937614 810.54407 1280.3044 4293123306
34.507339 810.54407 1280.3044 4293122024
38.077065 810.54407 1280.3044 4293055199
40.456882 810.54407 1280.3044 4293187041
42.836697 810.54407 1280.3044 4292858591
45.216515 810.54407 1280.3044 4293384936
37.930275 816.80273 1279.0414 4293451492
42.671558 816.80273 1279.0414 4293582058
45.042202 816.80273 1279.0414 4293647851
52.154129 816.80273 1279.0414 4293188065
54.524769 816.80273 1279.0414 4293253858
47.229359 824.83875 1279.277 4285883280
21.99633 758.474 1282.1813 4291212217
9.6587152 782.07483 1281.1523 4282728791
12.073395 782.07483 1281.1523 4282531668
7.2440367 783.9209 1282.709 4282596428
9.6587152 783.9209 1282.709 4282202447
12.073395 783.9209 1282.709 4282860377
13.230275 790.2959 1281.5442 4283057755
16.838531 790.2959 1281.5442 4283320928
19.244038 790.2959 1281.5442 4283649643
21.649542 790.2959 1281.5442 4284241780
9.6220188 792.13495 1283.0947 4282793554
13.230275 792.13495 1283.0947 4282926424
16.838531 792.13495 1283.0947 4283256670
19.244038 792.13495 1283.0947 4284176237
14.377981 800.30701 1283.4451 4283320667
16.774311 799.39099 1282.6726 4283847010
19.170643 799.39099 1282.6726 4283781988
21.566973 798.47498 1281.9003 4284176489
50.322937 799.39099 1282.6726 4293648626
52.719265 799.39099 1282.6726 4293187817
55.115597 798.47498 1281.9003 4293845746
16.710093 806.61194 1282.2211 4283912551
19.097248 806.61194 1282.2211 4284506487
46.549541 806.61194 1282.2211 4293451245
50.130276 806.61194 1282.2211 4293385197
14.322936 808.43701 1283.7599 4283320917
16.710093 808.43701 1283.7599 4284505190
19.097248 808.43701 1283.7599 4284572026
22.677982 808.43701 1283.7599 4283584872
47.743118 808.43701 1283.7599 4293318888
50.130276 808.43701 1283.7599 4293647853
34.507339 812.36346 1281.8385 4292925164
38.077065 812.36346 1281.8385 4292990171
40.456882 812.36346 1281.8385 4293319392
42.836697 812.36346 1281.8385 4293253349
46.406422 812.36346 1281.8385 4293516264
49.976147 812.36346 1281.8385 4293648105
28.557798 814.18286 1283.3726 4292595161
30.937614 814.18286 1283.3726 4293516263
34.507339 814.18286 1283.3726 4293122795
40.456882 814.18286 1283.3726 4293714663
47.596329 814.18286 1283.3726 4293515750
49.976147 814.18286 1283.3726 4293844714
42.671558 820.42749 1282.0977 4288385444
46.227524 820.42749 1282.0977 4288844454
49.783485 820.42749 1282.0977 4293251301
37.930275 822.23987 1283.6259 4287599035
40.300919 822.23987 1283.6259 4286348969
42.671558 822.23987 1283.6259 4285162884
45.042202 822.23987 1283.6259 4284833919
40.144955 830.25482 1283.8436 4286079094
43.687157 830.25482 1283.8436 4284701793
47.229359 828.44946 1282.3214 4284043354
4.8293576 785.76697 1284.2655 4282727498
7.2440367 785.76697 1284.2655 4282924878
9.6587152 785.76697 1284.2655 4282925391
-2.4146788 787.61298 1285.822 4282201672
2.4146788 787.61298 1285.822 4282531135
4.8293576 787.61298 1285.822 4282793804
7.2440367 787.61298 1285.822 4282859598
9.6587152 787.61298 1285.822 4282662996
9.6220188 793.974 1284.6454 4282859348
13.230275 793.974 1284.6454 4282991703
9.6220188 795.81299 1286.196 4282860368
13.230275 795.81299 1286.196 4283189078
57.732109 795.81299 1286.196 4293846259
11.981651 803.97107 1286.5344 4283189331
14.377981 803.05505 1285.7621 4282991191
16.774311 802.13904 1284.9897 4284175207
50.322937 802.13904 1284.9897 4293385199
52.719265 803.05505 1285.7621 4293188841
55.115597 803.97107 1286.5344 4293649135
14.322936 811.17444 1286.0681 4283911768
16.710093 811.17444 1286.0681 4285622129
19.097248 811.17444 1286.0681 4285293954
22.677982 811.1745 1286.0681 4284239980
26.258715 811.17444 1286.0681 4290489286
28.645872 810.26196 1285.2987 4292070093
31.033028 810.26196 1285.2987 4293648868
28.557798 816.00226 1284.9066 4293121757
30.937614 816.91199 1285.6736 4293713895
34.507339 816.91199 1285.6736 4293647594
38.077065 816.91199 1285.6736 4292400095
40.456882 816.91199 1285.6736 4291281357
42.836697 816.00226 1284.9066 4293385708
46.406422 816.00226 1284.9066 4293450731
49.976147 816.00226 1284.9066 4294239220
52.355965 816.00226 1284.9066 4293384934
40.300919 824.05225 1285.1539 4282865538
42.671558 824.05225 1285.1539 4283781468
45.042202 824.05225 1285.1539 4283978846
37.930275 825.86462 1286.6821 4286609565
40.300919 825.86462 1286.6821 4283911795
42.671558 825.86462 1286.6821 4283913051
45.042202 825.86462 1286.6821 4284176480
40.144955 832.06018 1285.366 4285884013
42.50642 832.06018 1285.366 4284503405
2.4146788 790.38202 1288.1567 4282531155
4.8293576 790.38202 1288.1567 4282990667
7.2440367 790.38202 1288.1567 4283056717
9.6220188 797.65204 1287.7466 4282925391
12.027523 797.65204 1287.7466 4283320149
55.326607 797.65204 1287.7466 4293516783
57.732109 797.65204 1287.7466 4293583343
9.6220188 799.49109 1289.2972 4283123537
12.027523 799.49109 1289.2972 4283123537
55.326607 799.49109 1289.2972 4293517550
10.783486 805.80304 1288.0791 4283123033
52.719265 805.80304 1288.0791 4293517800
55.115597 805.80304 1288.0791 4293583593
10.783486 807.63507 1289.6239 4283123035
14.322936 814.82446 1289.1456 4283454047
19.097248 814.82446 1289.1456 4286085264
22.677982 814.82446 1289.1456 4283781226
26.258715 814.82446 1289.1456 4291083223
28.645872 815.73694 1289.915 4293582310
54.904587 813.91199 1288.3762 4293121761
57.291744 813.91199 1288.3762 4293056999
30.937614 820.55072 1288.7417 4290227376
34.507339 820.55078 1288.7417 4287074976
38.077065 821.46045 1289.5088 4282799744
35.559631 827.677 1288.2102 4292592071
37.930275 827.677 1288.2102 4291539913
35.559631 829.48938 1289.7384 4292131772
37.930275 829.48938 1289.7384 4290094765
-4.8477063 784.92993 1290.1 4282004037
0 784.92993 1290.1 4282399549
-4.8477063 786.78302 1291.6624 4282070082
-2.4238532 786.78302 1291.6624 4282464840
0 786.78302 1291.6624 4282268490
2.4146788 793.15112 1290.4916 4282531666
4.8293576 794.0741 1291.2698 4282531137
7.2440367 794.0741 1291.2698 4282859845
4.8110094 803.16913 1292.3984 4282662475
7.2165136 803.16913 1292.3984 4283056977
9.6220188 801.33008 1290.8479 4283057744
10.783486 809.46704 1291.1686 4283450970
-2.3963304 811.29907 1292.7133 4282465090
4.7926607 811.29907 1292.7133 4283385933
7.1889906 811.29907 1292.7133 4283451726
10.783486 811.29907 1292.7133 4283255124
16.774311 811.29907 1292.7133 4286019197
9.548624 817.56201 1291.4539 4283189585
14.322936 817.56201 1291.4539 4284176237
28.645872 817.56201 1291.4539 4293319138
10.742202 819.38696 1292.9927 4283518545
14.322936 819.38696 1292.9927 4284373098
26.177982 823.27979 1291.0428 4288118693
28.557798 823.27979 1291.0428 4287921270
30.937614 823.27979 1291.0428 4287789428
34.507339 823.27979 1291.0428 4288185989
33.317432 825.09918 1292.5769 4293447380
35.559631 831.30176 1291.2666 4289765553
37.930275 831.30176 1291.2666 4286610328
-4.8477063 788.63611 1293.2249 4281807691
-2.4238532 788.63611 1293.2249 4282070864
0 788.63611 1293.2249 4282333270
-4.8477063 790.48914 1294.7874 4282201670
-2.4238532 790.48914 1294.7874 4282596428
0 790.48914 1294.7874 4282400080
2.4146788 796.8432 1293.6047 4282596678
4.8293576 796.8432 1293.6047 4282794054
7.2440367 796.8432 1293.6047 4283057483
-4.8293576 798.68921 1295.1613 4281873986
-2.4146788 798.68921 1295.1613 4282729295
1.2073394 798.68921 1295.1613 4282465094
4.8293576 798.68921 1295.1613 4282530635
7.2440367 798.68921 1295.1613 4283056979
-4.8110094 806.84717 1295.4998 4282333503
-2.4055047 805.92767 1294.7244 4282399043
1.6036698 806.23419 1294.9828 4282530633
4.8110094 805.92767 1294.7244 4283122514
7.2165136 805.92767 1294.7244 4283319893
-2.3963304 814.04712 1295.0303 4282859596
2.3963304 814.04712 1295.0303 4282925643
4.7926607 814.04712 1295.0303 4282991949
7.1889906 814.04712 1295.0303 4283255378
11.182874 813.74176 1294.7728 4283320914
16.774311 814.04712 1295.0303 4286480532
19.170643 814.96313 1295.8027 4286546071
22.765137 814.96313 1295.8027 4284569719
26.359632 814.96313 1295.8027 4292988919
14.322936 821.21198 1294.5314 4284439397
16.710093 821.21198 1294.5314 4284439397
21.484404 821.21198 1294.5314 4284373854
30.937614 826.91858 1294.111 4292460765
33.317432 826.91858 1294.111 4293447376
33.317432 828.73798 1295.645 4292989409
-9.7394495 783.57184 1296.803 4282068535
-7.3045874 784.50256 1297.5878 4282003515
-7.2715597 794.19525 1297.9122 4280825398
-4.8477063 793.26868 1297.131 4281873986
-2.4238532 793.26868 1297.131 4282663502
0.80795103 792.9599 1296.8706 4282596679
-4.8293576 800.53528 1296.7178 4282136381
-2.4146788 800.53528 1296.7178 4282333503
1.2073394 800.53528 1296.7178 4282267460
-7.2440367 802.38135 1298.2743 4281349438
-4.8293576 802.38135 1298.2743 4282135875
0 802.38135 1298.2743 4282201670
-7.2165136 808.68622 1297.0503 4282268994
-4.8110094 808.68622 1297.0503 4282530883
1.2027524 808.68622 1297.0503 4282858830
-7.2165136 810.52527 1298.601 4282335039
-4.8110094 810.52527 1298.601 4282596932
0 810.52527 1298.601 4282794056
-2.3963304 817.71118 1298.1198 4283385421
2.3963304 817.71118 1298.1198 4283452751
4.7926607 817.71118 1298.1198 4283386194
7.1889906 817.71118 1298.1198 4283649366
10.783486 818.62714 1298.8921 4283847011
16.774311 816.79517 1297.3474 4285426042
19.170643 817.71118 1298.1198 4285031538
23.164526 817.40582 1297.8623 4285619836
26.359632 816.79517 1297.3474 4290551484
28.755962 816.79517 1297.3474 4289109403
26.258715 824.862 1297.609 4291870629
28.645872 824.862 1297.609 4292066007
31.033028 823.03699 1296.0702 4292263120
-7.3321099 779.02734 1299.5114 4281741623
-24.440367 780.89581 1301.0868 4281480773
-21.99633 780.89581 1301.0868 4281414980
-19.552294 780.89581 1301.0868 4282136381
-17.108257 780.89581 1301.0868 4282202174
-13.442202 780.89581 1301.0868 4282199871
-9.7394495 787.2948 1299.942 4281545271
-7.3045874 787.2948 1299.942 4281742650
-9.7394495 789.15625 1301.5116 4281481275
-7.3045874 789.15625 1301.5116 4281415482
-9.6954126 796.97485 1300.2559 4281480504
-7.2715597 796.97485 1300.2559 4281480505
-7.2440367 804.22736 1299.8308 4281808193
-7.2165136 812.36426 1300.1516 4282334005
-4.8110094 812.36426 1300.1516 4282530122
0 812.36426 1300.1516 4282925643
-7.2165136 814.20331 1301.7021 4282595131
-4.8110094 814.20331 1301.7021 4283121993
0 814.20331 1301.7021 4283584338
-2.3963304 820.45917 1300.4368 4283582803
4.7926607 820.45917 1300.4368 4283912277
7.1889906 820.45917 1300.4368 4284240985
10.783486 820.45917 1300.4368 4284439647
14.377981 820.45917 1300.4368 4285097582
16.774311 820.45917 1300.4368 4284965739
19.170643 820.45917 1300.4368 4285031784
22.765137 820.45917 1300.4368 4285623410
26.359632 820.45917 1300.4368 4288847012
28.755962 820.45917 1300.4368 4290420916
-2.3963304 822.2912 1301.9814 4284044389
2.3963304 822.2912 1301.9814 4284109399
4.7926607 822.2912 1301.9814 4284372576
7.1889906 822.2912 1301.9814 4284964456
14.377981 822.2912 1301.9814 4285097578
16.774311 822.2912 1301.9814 4284965991
19.170643 822.2912 1301.9814 4286408045
22.765137 822.2912 1301.9814 4290093464
28.645872 826.68701 1299.1478 4290816192
31.033028 826.68701 1299.1478 4292461017
28.645872 828.51196 1300.6866 4288644257
31.033028 828.51196 1300.6866 4292460252
-25.662384 782.76428 1302.6622 4281676353
-21.99633 782.76428 1302.6622 4281610818
-19.552294 782.76428 1302.6622 4282004789
-17.108257 782.76428 1302.6622 4282070838
-13.442202 782.76428 1302.6622 4281938746
-9.7761469 782.76428 1302.6622 4281741373
-25.662384 784.63281 1304.2377 4282332229
-21.99633 784.63281 1304.2377 4282070086
-19.552294 784.63281 1304.2377 4282004539
-17.108257 784.63281 1304.2377 4282070332
-13.442202 784.63281 1304.2377 4281611064
-13.391743 791.0177 1303.0812 4281481025
-9.7394495 791.0177 1303.0812 4281022520
-17.044037 792.87921 1304.6508 4281807941
-13.391743 792.87921 1304.6508 4281415232
-12.119267 799.75439 1302.5996 4281413435
-9.6954126 799.75439 1302.5996 4281152316
-12.119267 801.60742 1304.162 4281084470
-9.6954126 801.60742 1304.162 4281347642
-9.6587152 807.91943 1302.9438 4282203453
-7.2165136 816.96185 1304.0281 4283452239
-4.8110094 816.96185 1304.0281 4283517264
0.80183488 817.26837 1304.2865 4283780947
4.7926607 824.12317 1303.5262 4285227364
7.1889906 824.12317 1303.5262 4285819501
14.377981 824.12317 1303.5262 4285886843
16.774311 824.12317 1303.5262 4284965741
19.170643 824.12317 1303.5262 4287851130
23.963303 824.12317 1303.5262 4292066757
26.359632 824.12317 1303.5262 4291079862
-31.772476 788.36975 1307.3887 4282465090
-25.662384 787.43549 1306.6008 4282201923
-21.99633 787.43555 1306.6008 4282136137
-19.552294 787.43555 1306.6008 4282005569
-17.108257 787.43555 1306.6008 4281874239
-13.442202 786.50128 1305.8131 4281808443
-19.478899 794.74066 1306.2202 4281808193
-17.044037 794.74066 1306.2202 4281808193
-13.391743 794.74066 1306.2202 4281742400
-19.478899 796.60217 1307.7898 4281873986
-17.044037 796.60217 1307.7898 4281873986
-14.609175 796.60217 1307.7898 4281742400
-12.119267 803.46051 1305.7245 4281609531
-9.6954126 803.46051 1305.7245 4281808443
-12.119267 805.3136 1307.2869 4282333503
-9.6587152 813.45758 1307.6135 4283254090
-4.8110094 819.7204 1306.354 4283518045
0 819.7204 1306.354 4284175192
9.6220188 820.63989 1307.1294 4285162862
12.027523 820.63989 1307.1294 4285294191
21.649542 821.55945 1307.9047 4291601331
16.774311 825.9552 1305.0709 4284241771
19.170643 825.9552 1305.0709 4286276220
23.963303 825.9552 1305.0709 4289568167
26.359632 825.9552 1305.0709 4287857805
-31.891743 781.97083 1308.5333 4282529086
-29.438532 781.97083 1308.5333 4282528836
-31.891743 783.84631 1310.1147 4282595135
-29.438532 783.84631 1310.1147 4282333503
-31.772476 790.23828 1308.9641 4282859848
-25.662384 790.23828 1308.9641 4282267205
-21.99633 790.23828 1308.9641 4282200398
-19.552294 790.23828 1308.9641 4281807941
-25.662384 792.10675 1310.5396 4282135620
-21.99633 792.10675 1310.5396 4282200652
-17.044037 799.39435 1310.144 4282070335
-14.609175 799.39435 1310.144 4281741630
-12.119267 808.09314 1309.6306 4282333503
-9.6954126 808.09314 1309.6306 4282267446
-9.6587152 815.30359 1309.17 4283452752
-9.6587152 817.14966 1310.7266 4283518295
-7.2440367 817.14966 1310.7266 4283189331
21.649542 823.39844 1309.4553 4290223801
-34.473396 779.3089 1312.8291 4282529086
-34.344955 785.7218 1311.6962 4282465090
-29.438532 785.7218 1311.6962 4282333503
-34.344955 787.59735 1313.2775 4282530883
-29.438532 787.59735 1313.2775 4282004791
-24.440367 793.97522 1312.115 4282202174
-21.99633 793.97522 1312.115 4282070332
-21.99633 795.84375 1313.6904 4282201924
-19.552294 795.84375 1313.6904 4282004289
-17.044037 802.18652 1312.4984 4282595131
-14.609175 802.18652 1312.4984 4282333503
-12.119267 811.79932 1312.7554 4282992203
-34.473396 781.19141 1314.4164 4282595135
-31.891743 789.47284 1314.8589 4282005572
-29.438532 789.47284 1314.8589 4282004539
-26.985321 791.34833 1316.4402 4282070082
-21.99633 797.71222 1315.2659 4282136381
-19.552294 797.71222 1315.2659 4282136381
-19.552294 799.58069 1316.8413 4282529338
-17.044037 804.04803 1314.068 4282334005
-14.609175 804.97876 1314.8528 4282465090
-12.119267 814.57886 1315.0991 4283978844
-12.119267 816.43188 1316.6616 4283781972
-9.6954126 816.43188 1316.6616 4284044889
-37.073395 776.64697 1317.1246 4282201670
-37.073395 778.5365 1318.7179 4282332999
-34.473396 786.83899 1319.1782 4282071365
-25.758717 793.22382 1318.0216 4282070854
-24.53211 795.0993 1319.603 4282333503
-24.440367 802.38342 1319.2046 4282399812
-21.99633 803.31769 1319.9923 4282268742
-19.552294 802.38342 1319.2046 4282268986
-17.108257 803.31769 1319.9923 4282400832
-14.609175 808.70172 1317.9918 4283057997
-14.543119 818.28497 1318.224 4284109653
-39.7211 773.45258 1322.2794 4282332999
-39.544952 781.37079 1321.1077 4282266448
-37.073395 781.37079 1321.1077 4282332242
-32.011009 788.7215 1320.7655 4281873734
-29.548624 788.7215 1320.7655 4282004289
-25.758717 796.97485 1321.1843 4282464324
-22.078899 796.97485 1321.1843 4282529086
-26.985321 798.85034 1322.7657 4282268742
-22.078899 798.85034 1322.7657 4282333503
-24.440367 805.18616 1321.5677 4282859850
-21.99633 805.18616 1321.5677 4282794056
-19.552294 805.18616 1321.5677 4282927176
-17.108257 805.18616 1321.5677 4283190348
-14.609175 811.4939 1320.3462 4283255378
-14.609175 813.35541 1321.9156 4283452750
-24.238533 821.99109 1321.3489 4286213759
-39.7211 775.35052 1323.8798 4282201670
-42.203671 777.24847 1325.48 4282070082
-37.073395 784.20508 1323.4974 4282332236
-39.544952 786.0946 1325.0907 4281873484
-37.073395 786.0946 1325.0907 4281873484
-34.601833 786.0946 1325.0907 4281939527
-36.93578 794.36902 1325.5273 4282268240
-34.473396 794.36902 1325.5273 4282202949
-32.011009 794.36902 1325.5273 4281808191
-27.086239 792.48651 1323.9401 4282071367
-26.985321 800.72583 1324.3472 4282596932
-26.985321 802.60132 1325.9285 4282729284
-25.255045 808.30029 1324.1935 4282992207
-21.99633 807.98889 1323.9309 4282926669
-19.552294 807.98889 1323.9309 4282992717
-17.108257 807.98889 1323.9309 4283189840
-24.348623 815.21686 1323.4852 4283650132
-17.044037 815.21686 1323.4852 4283781974
-25.566055 817.07837 1325.0548 4284701027
-21.913761 817.07837 1325.0548 4284832356
-55.262386 755.33234 1327.9294 4283649602
-52.750458 755.33234 1327.9294 4283846981
-42.359634 772.69556 1328.1813 4282201924
-42.203671 779.14642 1327.0803 4282135879
-42.203671 781.04437 1328.6807 4282530633
-39.7211 781.04437 1328.6807 4282529872
-39.544952 787.98413 1326.6838 4281414478
-37.073395 787.98413 1326.6838 4281677906
-34.601833 787.98413 1326.6838 4282005574
-32.130276 787.98413 1326.6838 4282005574
-29.658716 787.98413 1326.6838 4281939527
-42.016514 789.87366 1328.2771 4281938244
-39.544952 789.87366 1328.2771 4282069843
-37.073395 789.87366 1328.2771 4282399065
-34.601833 789.87366 1328.2771 4282202949
-32.130276 789.87366 1328.2771 4282005826
-29.658716 789.87366 1328.2771 4282005574
-36.93578 796.25153 1327.1146 4282465094
-34.473396 796.25153 1327.1146 4282334787
-32.011009 796.25153 1327.1146 4282071871
-29.548624 796.25153 1327.1146 4282268742
-34.473396 798.13403 1328.7019 4282530883
-32.011009 798.13403 1328.7019 4282530883
-29.548624 798.13403 1328.7019 4282596932
-36.798164 804.47681 1327.5099 4283318602
-31.891743 804.47681 1327.5099 4283384908
-29.438532 804.47681 1327.5099 4283057742
-26.985321 804.47681 1327.5099 4283057742
-29.32844 812.6601 1327.8696 4283781974
-26.069723 811.41449 1326.8193 4283585112
-21.99633 811.72583 1327.0819 4283387731
-19.552294 811.72583 1327.0819 4283782230
-17.108257 810.79163 1326.2942 4283387729
-29.218349 818.93982 1326.6244 4286609537
-26.783485 818.93982 1326.6244 4285951351
-55.262386 757.25275 1329.5487 4286279008
-52.750458 757.25275 1329.5487 4283844666
-55.262386 759.1731 1331.168 4285424455
-52.750458 759.1731 1331.168 4283648044
-50.018349 768.12866 1330.8708 4281481275
-47.517429 768.12866 1330.8708 4281613117
-42.515594 768.12866 1330.8708 4282071365
-49.834862 776.50549 1331.3937 4282070332
-47.343121 775.55298 1330.5906 4282201146
-44.851376 775.55298 1330.5906 4282136133
-49.651375 782.94232 1330.2809 4282463827
-47.168808 782.94232 1330.2809 4282200398
-43.444954 782.94232 1330.2809 4282399297
-49.651375 784.84027 1331.8812 4282727498
-47.168808 784.84027 1331.8812 4282332740
-43.444954 784.84027 1331.8812 4281478976
-43.252296 791.76318 1329.8702 4282135875
-39.544952 791.76318 1329.8702 4282202447
-29.658716 791.76318 1329.8702 4282201670
-43.252296 793.65271 1331.4635 4282333256
-39.544952 793.65271 1331.4635 4282530887
-36.93578 800.01654 1330.2892 4283186764
-34.473396 800.01654 1330.2892 4283055944
-32.011009 800.01654 1330.2892 4283384908
-29.548624 800.01654 1330.2892 4282992199
-39.398167 801.89905 1331.8765 4283252809
-34.473396 801.89905 1331.8765 4283055944
-36.798164 806.35229 1329.0912 4283383882
-34.344955 806.35229 1329.0912 4283055946
-31.891743 806.35229 1329.0912 4283187532
-29.438532 806.35229 1329.0912 4283057744
-31.891743 808.22784 1330.6726 4284043354
-29.438532 808.22784 1330.6726 4283716442
-29.32844 814.52856 1329.4451 4284833127
-19.552294 814.52856 1329.4451 4285227114
-55.262386 761.09351 1332.7871 4281937201
-52.750458 761.09351 1332.7871 4282068787
-50.238533 761.09351 1332.7871 4281936949
-57.774311 763.01392 1334.4064 4281938244
-55.262386 763.01392 1334.4064 4281741623
-52.750458 763.01392 1334.4064 4281872952
-50.238533 763.01392 1334.4064 4281808193
-47.726604 763.01392 1334.4064 4281742400
-42.702751 763.01392 1334.4064 4282333001
-50.018349 770.04059 1332.4829 4282136883
-46.266972 770.04059 1332.4829 4282202172
-50.018349 771.95258 1334.0951 4282529338
-49.834862 778.41046 1332.9999 4282135879
-47.343121 778.41046 1332.9999 4282135879
-44.851376 778.41046 1332.9999 4282201924
-54.818348 780.31543 1334.6061 4282399047
-52.326607 780.31543 1334.6061 4282333253
-49.651375 786.73822 1333.4816 4282596680
-47.168808 786.73822 1333.4816 4282530887
-44.686237 786.73822 1333.4816 4281741121
-42.016514 796.487 1333.8533 4282660168
-39.544952 796.487 1333.8533 4282857799
-37.073395 795.54224 1333.0566 4282989641
-39.398167 803.78162 1333.4637 4283252296
-31.891743 811.04108 1333.0447 4284438625
-60.50642 757.4538 1336.2583 4283385151
-57.985321 757.4538 1336.2583 4283977032
-50.42202 756.49011 1335.4458 4283516749
-42.858715 758.41748 1337.0709 4282463293
-57.774311 764.93433 1336.0256 4282005070
-55.262386 764.93433 1336.0256 4281481025
-52.750458 764.93433 1336.0256 4281481025
-45.21468 764.93433 1336.0256 4282005572
-57.774311 766.85468 1337.6448 4282005072
-55.262386 766.85468 1337.6448 4282071365
-52.750458 766.85468 1337.6448 4281939779
-52.519264 773.86456 1335.7072 4282333253
-55.020184 775.77649 1337.3193 4282071365
-52.519264 775.77649 1337.3193 4282005572
-54.818348 782.22034 1336.2123 4282465090
-52.326607 782.22034 1336.2123 4282596932
-54.818348 784.12531 1337.8186 4282203201
-52.326607 784.12531 1337.8186 4282268994
-52.133945 788.63611 1335.0818 4282268744
-49.651375 788.63611 1335.0818 4282465094
-47.168808 788.63611 1335.0818 4282465094
-54.616512 790.53406 1336.6821 4282202949
-52.133945 790.53406 1336.6821 4282334535
-49.651375 790.53406 1336.6821 4282332999
-47.168808 790.53406 1336.6821 4282201670
-43.252296 799.32129 1336.243 4283055944
-43.252296 801.21082 1337.8363 4283187272
-39.398167 805.66412 1335.051 4283845461
-36.93578 805.66412 1335.051 4283911254
-34.473396 805.66412 1335.051 4284043354
-39.398167 807.54663 1336.6384 4284503907
-36.93578 807.54663 1336.6384 4284569700
-34.473396 807.54663 1336.6384 4284110431
-64.288071 760.34491 1338.696 4281872953
-60.50642 760.34491 1338.696 4282004037
-45.379818 760.34491 1338.696 4282004037
-64.288071 762.27234 1340.3212 4281940029
-60.50642 762.27234 1340.3212 4281939277
-57.774311 769.73523 1340.0737 4282006091
-55.262386 769.73523 1340.0737 4282399045
-52.750458 768.77509 1339.264 4282465094
-60.022018 779.60046 1340.5436 4282530883
-57.521099 779.60046 1340.5436 4282530883
-57.310093 786.03027 1339.4248 4282004539
-54.818348 786.03027 1339.4248 4282071365
-52.133945 793.38098 1339.0825 4282465094
-49.651375 793.38098 1339.0825 4282530635
-47.168808 793.38098 1339.0825 4282661964
-44.686237 793.38098 1339.0825 4282791754
-42.016514 803.10034 1339.4294 4283911254
-39.398167 809.42914 1338.2256 4285358700
-36.93578 809.42914 1338.2256 4285424494
-34.473396 809.42914 1338.2256 4285425007
-70.899086 757.14215 1343.8438 4282201924
-68.366974 757.14215 1343.8438 4282201924
-68.069725 764.19971 1341.9463 4281938746
-64.288071 764.19971 1341.9463 4281873986
-60.50642 764.19971 1341.9463 4282267988
-64.288071 766.12708 1343.5714 4281873986
-60.50642 766.12708 1343.5714 4282072144
-60.28624 772.61584 1342.5024 4282070082
-57.774311 772.61584 1342.5024 4282070082
-60.022018 781.51245 1342.1556 4282333755
-57.521099 781.51245 1342.1556 4282333755
-61.272476 783.42444 1343.7678 4282595651
-62.293579 787.93524 1341.031 4282725961
-58.555962 787.93524 1341.031 4282201670
-64.785324 789.84021 1342.6372 4282857547
-62.293579 789.84021 1342.6372 4282791754
-58.555962 789.84021 1342.6372 4282595658
-54.818348 789.84021 1342.6372 4282530887
-54.616512 796.22791 1341.483 4282794827
-52.133945 796.22791 1341.483 4282531398
-49.651375 796.22791 1341.483 4282792006
-47.168808 796.22791 1341.483 4283055434
-62.06422 798.12585 1343.0833 4283648335
-52.133945 798.12585 1343.0833 4282794575
-49.651375 798.12585 1343.0833 4283057744
-47.168808 798.12585 1343.0833 4283518295
-42.016514 805.93463 1341.8193 4285094759
-70.899086 759.07794 1345.476 4281741373
-68.366974 759.07794 1345.476 4281938496
-70.590828 769.98193 1346.8218 4282202195
-68.069725 769.01819 1346.0092 4281939530
-64.288071 769.01819 1346.0092 4282005061
-60.50642 768.0545 1345.1965 4282005574
-65.310089 776.4566 1345.741 4282332999
-61.960857 775.17645 1344.6615 4282464839
-57.774311 774.53625 1344.1217 4282530883
-65.023849 785.33636 1345.3799 4282725961
-67.524773 787.24835 1346.9921 4282727235
-64.785324 791.74518 1344.2434 4282725711
-62.293579 791.74518 1344.2434 4282791504
-58.555962 791.74518 1344.2434 4282463823
-54.818348 791.74518 1344.2434 4282662473
-64.785324 793.65015 1345.8496 4283120457
-62.293579 793.65015 1345.8496 4283054664
-58.555962 793.65015 1345.8496 4282332999
-64.546791 800.0238 1344.6836 4284371805
-62.06422 800.0238 1344.6836 4284371805
-44.686237 800.0238 1344.6836 4284437599
-64.546791 801.92175 1346.2839 4284174683
-62.06422 801.92175 1346.2839 4284174683
-59.58165 801.92175 1346.2839 4284501847
-49.651375 801.92175 1346.2839 4284569687
-47.168808 801.92175 1346.2839 4284832858
-44.686237 801.92175 1346.2839 4284832102
-73.69725 756.41602 1349.7716 4282396998
-70.899086 761.01379 1347.1082 4282004539
-70.899086 762.94958 1348.7405 4282071365
-68.366974 762.94958 1348.7405 4282005572
-73.111923 771.9093 1348.4469 4282332999
-70.590828 771.9093 1348.4469 4282463573
-68.069725 771.9093 1348.4469 4282266193
-65.548622 771.9093 1348.4469 4282201670
-65.310089 778.37701 1347.3601 4282465094
-62.798164 778.37701 1347.3601 4282333251
-67.822021 780.29742 1348.9794 4282465094
-65.310089 780.29742 1348.9794 4282792006
-67.524773 789.16034 1348.6042 4282726983
-64.785324 795.55505 1347.4558 4283516749
-59.801834 796.50757 1348.2589 4283778642
-54.818348 795.55505 1347.4558 4282860368
-52.326607 797.46002 1349.062 4284043606
-49.834862 797.46002 1349.062 4284240985
-47.343121 797.46002 1349.062 4284307034
-64.546791 803.8197 1347.8842 4284764767
-62.06422 803.8197 1347.8842 4284764767
-49.651375 803.8197 1347.8842 4285488742
-47.168808 803.8197 1347.8842 4285488742
-44.686237 803.8197 1347.8842 4285751662
-64.546791 805.71765 1349.4845 4286210412
-62.06422 805.71765 1349.4845 4286342254
-73.69725 758.35883 1351.4097 4282396998
-73.43119 764.88544 1350.3727 4282332999
-70.899086 764.88544 1350.3727 4282005574
-73.43119 766.82123 1352.0049 4282332999
-70.590828 773.83673 1350.072 4282266445
-68.069725 773.83673 1350.072 4282200652
-73.111923 775.76416 1351.6971 4282859848
-70.590828 775.76416 1351.6971 4282662471
-68.069725 775.76416 1351.6971 4282201920
-70.333946 782.21777 1350.5986 4282990150
-67.822021 782.21777 1350.5986 4282661442
-76.613762 784.13818 1352.2178 4282727488
-72.845871 784.13818 1352.2178 4283252797
-70.333946 784.13818 1352.2178 4282924357
-67.524773 791.07227 1350.2163 4282924359
-67.524773 792.98425 1351.8285 4283254090
-57.521099 792.98425 1351.8285 4282989900
-67.277061 799.36499 1350.6682 4283846481
-57.310093 799.36499 1350.6682 4284501847
-54.818348 799.36499 1350.6682 4284372307
-52.326607 799.36499 1350.6682 4284503894
-69.768806 801.26996 1352.2744 4285029988
-67.277061 801.26996 1352.2744 4284503644
-54.818348 801.26996 1352.2744 4285291361
-52.326607 801.26996 1352.2744 4285357154
-64.546791 807.6156 1351.0848 4290487211
-62.06422 807.6156 1351.0848 4290816176
-73.69725 760.30164 1353.0479 4282333251
-76.238533 762.24451 1354.686 4282332999
-75.963303 768.75708 1353.6371 4282332999
-73.43119 770.69287 1355.2694 4282857799
-88.238533 779.6189 1354.9474 4282007369
-78.994499 778.97638 1354.4056 4282530640
-75.633026 778.65521 1354.1348 4282531128
-73.111923 778.65521 1354.1348 4282728763
-70.590828 777.69153 1353.3223 4282662473
-76.613762 787.0188 1354.6466 4282991943
-72.845871 787.0188 1354.6467 4282859844
-70.333946 787.0188 1354.6467 4283055946
-70.025688 794.89624 1353.4406 4283320137
-67.524773 794.89624 1353.4406 4283385931
-57.521099 794.89624 1353.4406 4284436054
-55.020184 794.89624 1353.4406 4284043606
-72.526604 796.80823 1355.0527 4283913053
-70.025688 796.80823 1355.0527 4284043604
-69.768806 803.17493 1353.8806 4285292907
-67.277061 803.17493 1353.8806 4285556336
-54.818348 803.17493 1353.8806 4286473068
-52.326607 803.17493 1353.8806 4286670704
-76.56881 757.12415 1358.2169 4282530887
-76.238533 764.18732 1356.3242 4282332999
-88.944954 766.13013 1357.9623 4282071118
-78.779816 766.13013 1357.9623 4282726461
-88.623856 772.62866 1356.9016 4281808443
-78.495415 772.62866 1356.9016 4282333251
-75.963303 772.62866 1356.9016 4282662725
-91.15596 774.56451 1358.5338 4282467407
-88.623856 774.56451 1358.5338 4281743683
-86.091743 774.56451 1358.5338 4281809735
-82.293579 774.56451 1358.5338 4282203470
-88.238533 781.54633 1356.5725 4282530887
-85.71743 781.54633 1356.5725 4282794056
-83.196327 781.54633 1356.5725 4282794056
-80.675232 781.54633 1356.5725 4282662473
-90.759636 783.47375 1358.1978 4282794056
-88.238533 783.47375 1358.1978 4282794056
-85.71743 783.47375 1358.1978 4282859848
-83.196327 783.47375 1358.1978 4282991434
-80.675232 783.47375 1358.1978 4282860870
-87.917435 789.89935 1357.0754 4282729030
-80.381653 791.8197 1358.6947 4284107087
-76.613762 790.8595 1357.885 4283450698
-72.845871 790.8595 1357.885 4283385419
-70.333946 789.89935 1357.0754 4283254090
-72.526604 799.67615 1357.4709 4284241755
-60.022018 799.67615 1357.4709 4285881191
-57.521099 799.67615 1357.4709 4285815655
-91.882568 761.02661 1361.5074 4282005070
-89.330276 761.02661 1361.5074 4281939277
-79.121101 761.02661 1361.5074 4282399297
-96.56881 770.01581 1361.2386 4282663477
-94.027519 770.01581 1361.2386 4282926393
-91.486237 769.04443 1360.4196 4282465608
-88.944954 768.073 1359.6005 4282399049
-86.403671 770.01581 1361.2386 4282268742
-82.16819 769.36823 1360.6925 4282597192
-78.779816 768.073 1359.6005 4282465090
-76.238533 768.073 1359.6005 4282792006
-91.15596 776.50037 1360.166 4282073418
-86.091743 776.50037 1360.166 4282400332
-83.559631 776.50037 1360.166 4282400332
-91.15596 778.43616 1361.7983 4282530887
-90.759636 785.40112 1359.8229 4282991688
-88.238533 785.40112 1359.8229 4282925895
-85.71743 785.40112 1359.8229 4282859848
-83.196327 785.40112 1359.8229 4282925641
-80.675232 785.40112 1359.8229 4282992199
-90.759636 787.32855 1361.448 4282992201
-85.71743 787.32855 1361.448 4282990150
-83.196327 787.32855 1361.448 4282990150
-80.675232 787.32855 1361.448 4283254344
-76.613762 793.74011 1360.314 4283189327
-87.917435 795.66052 1361.9331 4284372828
-80.381653 795.66052 1361.9331 4284112483
-76.613762 795.66052 1361.9331 4283585111
-92.212845 756.43451 1364.1755 4281939527
-89.651375 756.43451 1364.1755 4281742148
-81.966972 756.43451 1364.1755 4282595135
-79.405502 756.43451 1364.1755 4283187016
-96.98716 764.92914 1364.798 4282662977
-94.43486 763.95349 1363.9753 4282399812
-91.882568 762.97791 1363.1527 4282334033
-85.501831 763.95349 1363.9753 4282465092
-81.673393 762.97791 1363.1527 4282463545
-96.56881 772.93005 1363.6958 4282663239
-94.027519 772.93005 1363.6958 4282794570
-93.688072 780.37195 1363.4305 4282532418
-88.238533 790.21967 1363.8857 4283582802
-85.71743 790.21967 1363.8857 4283384900
-83.196327 790.21967 1363.8857 4283385157
-80.675232 791.18335 1364.6982 4283452752
-87.917435 797.58093 1363.5524 4284635743
-80.381653 797.58093 1363.5524 4284898399
-76.613762 797.58093 1363.5524 4285161829
-94.774315 758.39276 1365.8267 4281941830
-87.089905 758.39276 1365.8267 4282202174
-84.528442 758.39276 1365.8267 4282202174
-81.966972 758.39276 1365.8267 4282333503
-97.335777 760.35107 1367.4779 4282268490
-99.539452 766.88037 1366.4431 4282727498
-96.56881 775.8443 1366.1531 4282795336
-94.027519 775.8443 1366.1531 4282466627
-96.56881 777.78717 1367.7913 4282532418
-93.688072 784.24365 1366.6949 4282860870
-85.71743 793.11072 1366.3234 4284176476
-83.196327 793.11072 1366.3234 4284176476
-85.71743 795.03815 1367.9485 4284635747
-83.196327 795.03815 1367.9485 4284372576
-105.02018 764.26758 1370.7802 4282596678
-102.45872 764.26758 1370.7802 4282727498
-99.897247 762.30933 1369.129 4282662473
-99.539452 769.80725 1368.911 4282793558
-94.027519 779.72998 1369.4293 4282532418
-91.15596 786.17944 1368.3273 4283254090
-105.02018 766.22583 1372.4314 4282794056
-102.45872 766.22583 1372.4314 4282793041
-102.09174 774.68536 1373.0242 4282729295
-99.539452 774.68536 1373.0242 4282729295
-96.56881 781.67285 1371.0675 4283057992
-96.56881 783.61566 1372.7057 4283057994
-94.027519 783.61566 1372.7057 4282860872
-105.47156 759.16541 1374.3264 4282530883
-102.89909 759.16541 1374.3264 4282530887
-105.02018 769.16321 1374.9081 4282335563
-102.45872 769.16321 1374.9081 4282597465
-99.897247 770.14233 1375.7336 4282466905
-96.98716 776.6366 1374.6694 4282466625
-99.539452 778.58789 1376.3147 4283452500
-96.56881 785.55847 1374.3438 4283189585
-94.027519 785.55847 1374.3438 4283189585
-91.486237 785.55847 1374.3438 4283582805
-96.56881 787.50134 1375.9819 4284503905
-94.027519 787.50134 1375.9819 4284372576
-91.486237 787.50134 1375.9819 4284240985
-108.04404 765.06543 1379.3011 4282663502
-105.02018 772.10065 1377.3848 4282663502
-99.897247 774.0589 1379.036 4283123535
-99.539452 781.51477 1378.7825 4283188566
-94.027519 789.44415 1377.6201 4283781722
-91.486237 789.44415 1377.6201 4284240985
-108.50642 757.99664 1381.1891 4282662471
-108.50642 759.97174 1382.8545 4282794056
-108.04404 767.0321 1380.9594 4282270540
-102.45872 776.01715 1380.6871 4283057742
-105.02018 777.9754 1382.3383 4283385177
-102.45872 777.9754 1382.3383 4283385683
-102.09174 784.44165 1381.2504 4283781974
-107.19633 786.39288 1382.8956 4284176989
-105.47156 770.96545 1384.2759 4282991184
-102.89909 770.96545 1384.2759 4282860620
-105.02018 779.93372 1383.9895 4283452770
-111.0899 765.89703 1387.8505 4282795086
-108.50642 765.89703 1387.8505 4282663502
-111.5633 760.81177 1391.4109 4282664783
-108.50642 767.87213 1389.5159 4282925391
