# .PCD v0.7 - Point Cloud Data file format
VERSION 0.7
FIELDS x y z rgb
SIZE 4 4 4 4
TYPE F F F U
COUNT 1 1 1 1
WIDTH 1172
HEIGHT 1
VIEWPOINT 0 0 0 1 0 0 0
POINTS 1172
DATA ascii
1.7431192 800.1059 817.61682 4294966271
4.3577981 799.43958 817.05493 4294832379
7.8440366 798.77325 816.49316 4293579498
10.458715 799.43958 817.05499 4294109173
13.073395 798.77325 816.49316 4294967295
15.688073 798.77325 816.49316 4294967295
20.045872 798.77325 816.49316 4294966783
22.660551 798.77325 816.49316 4294635000
25.27523 798.77325 816.49316 4294764020
28.761467 798.77325 816.49316 4294829304
31.376146 799.43958 817.05499 4294961914
33.700306 799.66168 817.24225 4294962171
36.605503 800.1059 817.61682 4294963455
-3.4862385 801.43854 818.74048 4290290111
-1.7376146 803.62488 816.65979 4291145420
0.87155962 801.43854 818.74048 4291609569
4.3495412 802.53174 817.70013 4293451771
7.8192658 803.62488 816.65979 4294966015
10.425688 803.62488 816.65979 4294967295
28.670643 803.62488 816.65979 4294829558
31.277063 803.62488 816.65979 4294961401
33.93853 802.53174 817.70013 4294896380
37.477066 801.43854 818.74048 4294699771
-1.7376146 805.61755 818.33997 4292459744
1.1584097 805.83893 818.52667 4292001753
4.3440366 804.95331 817.77991 4293118956
34.752293 804.95331 817.77991 4294962431
37.358719 805.61755 818.33997 4294765822
39.965137 806.28174 818.90002 4294701309
-1.7321101 809.78381 817.92883 4292718290
0.86605507 809.78381 817.92883 4293507052
4.0415902 808.90106 817.18439 4293049826
32.044037 808.45966 816.81226 4294962172
34.6422 809.1217 817.37054 4294830845
37.240368 809.78381 817.92883 4294832379
-1.7284404 812.55444 817.6488 4293172668
0.8642202 812.55444 817.6488 4293834206
4.6091743 812.11395 817.2774 4294304756
7.7779818 811.23303 816.53467 4293844450
10.370643 811.23303 816.53467 4293845503
25.926605 811.23303 816.53467 4294830076
28.519266 811.23303 816.53467 4294831610
31.976147 811.89374 817.0918 4294831867
34.568806 812.55444 817.6488 4294699258
37.161469 812.55444 817.6488 4294700284
-3.4568808 813.87585 818.76294 4291586692
0.8642202 813.87585 818.76294 4294353865
31.976147 813.87585 818.76294 4294831612
34.568806 813.87585 818.76294 4294502910
37.161469 813.87585 818.76294 4294832127
-3.4458716 818.01697 818.33057 4290849866
-1.7229358 817.35834 817.77521 4293156732
0.57431191 817.79736 818.14551 4291900017
4.3045874 817.05994 816.86963 4294223546
8.0342512 816.96045 816.56781 4294958843
10.337615 816.04114 816.66467 4294962431
25.816513 817.4201 816.51935 4294634231
28.413761 817.05994 816.86963 4294766077
31.874313 818.01697 818.33057 4294766334
34.458717 818.01697 818.33057 4294174199
36.181652 818.67554 818.88586 4294568957
-1.7192661 821.42786 818.59058 4292235603
1.7192661 820.77063 818.03644 4292362612
3.4385321 820.77063 818.03644 4292295781
28.654434 820.55157 817.85175 4294700024
30.946789 821.42786 818.59058 4294699773
1.7137614 824.89069 817.58618 4293220231
4.2844038 824.2356 817.03381 4293220474
25.706423 823.58051 816.48145 4294436592
28.277065 824.2356 817.03381 4294370809
-1.7137614 826.20087 818.69092 4292040279
0.85688072 826.20087 818.69092 4292431998
4.560245 827.19458 816.91278 4293681527
7.6954126 826.97668 816.729 4294006643
10.830582 826.75879 816.54523 4294466959
23.941284 826.323 816.17786 4293976305
25.651377 826.97668 816.729 4294173684
27.931498 827.19458 816.91278 4294305014
31.704586 826.20087 818.69092 4294435834
-1.7100917 828.93774 818.38257 4292499283
1.7100917 828.93774 818.38257 4292758399
4.2752295 828.93774 818.38257 4294139996
6.8403668 828.93774 818.38257 4294535807
28.216515 828.93774 818.38257 4294108404
30.781651 828.93774 818.38257 4294107639
-1.7045871 833.03253 817.91107 4291040832
1.7045871 833.68414 818.46045 4290907189
4.2614679 833.03253 817.91113 4293407044
7.8411012 832.6416 817.58148 4294402418
10.909358 832.1203 817.14197 4294864028
13.636697 831.07776 816.26294 4294790007
16.193579 831.07776 816.26294 4294866111
19.602753 831.07776 816.26294 4294963711
23.011927 831.07776 816.26294 4294175987
25.568808 831.72937 816.81232 4293977073
28.125687 832.38092 817.36169 4294174197
31.250765 833.24976 818.09424 4294042611
11.33945 835.97211 817.77368 4294525812
13.60734 835.10522 817.04272 4294925723
16.158716 835.10522 817.04272 4294930083
18.710093 835.10522 817.04272 4294944722
23.812843 835.10522 817.04272 4294436854
25.513762 835.10522 817.04272 4293976303
28.065136 835.75537 817.59094 4294240245
30.616514 836.40558 818.13916 4294174197
11.86789 839.82916 817.10168 4294914131
13.563303 839.18109 816.55524 4294925718
16.106422 839.18109 816.55518 4294934701
19.214678 838.96509 816.37305 4294876865
23.735781 838.53302 816.00879 4294699512
25.431192 838.53302 816.00879 4294304754
27.974312 839.82916 817.10168 4294305265
11.007339 841.83167 817.48212 4294792565
13.533945 842.53802 816.76965 4294921097
16.07156 842.53802 816.76965 4294925452
19.455046 842.53802 816.76965 4294941114
21.992661 842.53802 816.76965 4294953707
25.376146 842.53802 816.76965 4294631668
27.913761 842.53802 816.76965 4294172914
30.517431 841.12531 818.19458 4294305015
7.612844 845.12469 818.95068 4294201981
10.714374 844.26245 818.22363 4294727564
13.533945 843.83136 817.86011 4294923660
15.225688 843.83136 817.86011 4294263931
19.455046 843.83136 817.86011 4294939330
27.913761 843.83136 817.86011 4294304754
31.015291 844.6936 818.58716 4294305016
11.80367 847.87988 817.34967 4294928021
13.489908 847.87988 817.34967 4294931605
15.738225 847.66504 817.16846 4294860677
19.110704 847.66504 817.16846 4294801578
22.764221 847.23529 816.80615 4294758130
26.417734 847.66504 817.16846 4294238452
28.666056 847.87988 817.34967 4294238965
5.0587158 849.8136 818.9801 4293612647
7.5880733 849.8136 818.9801 4294070661
10.947706 850.51434 818.26288 4294793358
13.46055 851.21509 817.54565 4294929036
16.825687 849.92871 816.46106 4294924434
20.190826 849.92871 816.46106 4294082477
22.71468 849.92871 816.46106 4294955252
26.079817 850.5719 817.00336 4294369012
28.60367 851.21509 817.54565 4294370549
31.195412 849.8136 818.9801 4294174197
33.72477 849.8136 818.9801 4293582060
7.5715594 852.5014 818.63025 4294005635
10.900917 854.59937 816.47522 4294860183
19.28624 854.59937 816.47522 4294407340
22.640366 854.59937 816.47522 4294954225
25.994495 854.59937 816.47522 4294435315
28.510092 854.59937 816.47522 4294700025
30.286238 852.5014 818.63025 4294240242
5.0311928 857.16364 818.63733 4294401900
7.5467887 855.88147 817.55627 4294203780
10.877064 857.27728 816.11707 4294925455
13.387156 857.27728 816.11707 4294929291
15.897248 857.27728 816.11707 4294793861
19.244038 857.27728 816.11707 4294473385
22.590824 857.27728 816.11707 4294757100
25.937614 857.27728 816.11707 4294369781
28.510092 855.88147 817.55627 4294568955
31.305199 856.30884 817.91669 4294042866
5.0201836 859.83594 818.27454 4293336403
7.5302753 859.19629 817.73517 4294463336
10.040367 858.55658 817.1958 4294925962
23.427523 858.55658 817.1958 4294631155
26.216513 858.98309 817.55536 4294304497
28.447706 859.19629 817.73517 4294436853
30.6789 859.40948 817.91498 4293976816
8.3394499 863.19641 817.18384 4293801801
10.841284 862.55884 816.6463 4294860404
13.34312 862.55884 816.6463 4294925711
15.566974 862.34637 816.4671 4294925452
18.90275 862.34637 816.4671 4294671009
22.516514 862.55884 816.6463 4294822884
25.574312 862.7713 816.8255 4294698226
28.354128 863.19641 817.18384 4294371312
30.022018 863.19641 817.18384 4293976305
5.0036697 864.4715 818.25903 4294072456
7.5055046 864.4715 818.25903 4294008432
10.82844 865.16382 817.53473 4293540444
14.145872 865.85614 816.81042 4294655855
16.642202 865.85614 816.81042 4294929556
19.138531 865.85614 816.81042 4294866587
22.466972 865.85614 816.81042 4294821601
25.824772 865.16382 817.53473 4294698485
28.354128 864.4715 818.25903 4294108402
30.855965 864.4715 818.25903 4294041328
11.0948 867.97662 818.59833 4294201974
14.130276 868.4541 817.69293 4294591328
16.623854 868.4541 817.69293 4294790006
19.106421 868.79956 817.3302 4294865047
22.430275 868.79956 817.3302 4294886621
25.781652 868.10938 818.05621 4294632179
28.825689 868.43634 818.11395 4293975278
31.620184 868.40076 818.95593 4293777643
11.623854 871.04926 818.57312 4294928769
14.114679 871.04926 818.57312 4294926715
16.605505 871.04926 818.57312 4294928211
18.266054 871.04926 818.57312 4294928983
26.568808 871.04926 818.57312 4294436088
29.059633 871.04926 818.57312 4293909744
31.550459 871.04926 818.57312 4293843951
11.585321 875.64417 818.52332 4294924688
14.06789 875.64417 818.52332 4294924922
16.550459 875.64417 818.52332 4294926714
19.198532 874.63196 817.6698 4294471049
22.177616 874.12579 817.24304 4294817237
25.65321 874.37891 817.45642 4294631668
28.687462 875.22241 818.16766 4293910510
14.862386 878.27722 818.12732 4294727292
16.513762 878.27722 818.12732 4294926460
18.990826 878.27722 818.12732 4294870168
22.568808 877.85638 817.77246 4294557138
25.3211 877.85645 817.77246 4294696691
28.073395 878.27722 818.12732 4293845487
19.772476 880.90466 817.72668 4294937232
25.53945 880.90466 817.72668 4294631410
16.477064 882.16437 818.78882 4294921605
18.948624 882.16437 818.78882 4294801558
22.244038 882.16437 818.78882 4294685636
25.53945 882.16437 818.78882 4294696437
8.211009 886.71857 818.70471 4293919809
10.674313 886.71857 818.70471 4294181421
13.958715 886.71857 818.70471 4294313271
16.422018 885.46313 817.64612 4294921365
18.885323 885.46313 817.64612 4294932127
22.443426 886.30011 818.35187 4294686163
25.454128 886.09082 818.17542 4294696694
28.738533 886.71857 818.70471 4294238708
11.469725 889.32782 818.2887 4293853994
13.927523 889.32782 818.2887 4294181949
16.385321 888.70148 817.76062 4294385529
18.843121 888.70148 817.76062 4294929845
22.120182 889.32782 818.2887 4294880482
25.397247 889.32782 818.2887 4294762487
27.855045 889.32782 818.2887 4294238961
17.166054 893.18134 818.92188 4294514238
19.618349 893.18134 818.92188 4294921369
22.888073 893.18134 818.92188 4294951393
25.340366 893.18134 818.92188 4294828024
13.849541 897.69489 818.80347 4294596236
17.088074 898.36609 818.0614 4294056531
19.508257 899.03735 817.31934 4293726280
21.99633 897.69489 818.80347 4294806206
25.255047 897.69489 818.80347 4294828284
13.818348 900.28021 818.36731 4294727313
17.050459 901.57013 818.14685 4294599310
19.46422 902.23999 817.40363 4294392369
21.946789 900.28021 818.36731 4294672025
24.908869 901.14014 818.2204 4294826491
11.354129 904.10004 818.97205 4294931356
13.787156 904.10004 818.97205 4293876615
17.031193 904.10004 818.97205 4294592147
19.46422 904.10004 818.97205 4294935425
21.897247 904.10004 818.97205 4293490053
25.141285 904.10004 818.97205 4294827255
11.315597 908.57288 818.81934 4294925455
13.740367 908.57288 818.81934 4294925986
16.973394 908.57288 818.81934 4294932094
19.398165 908.57288 818.81934 4294934953
21.822937 908.57288 818.81934 4292767889
24.247707 908.57288 818.81934 4294955753
16.684402 931.89941 818.86719 4294777943
19.862385 931.89941 818.86719 4294914395
23.040367 931.89941 818.86719 4293289348
22.588074 958.41174 818.98523 4291737519
24.92477 958.41174 818.98523 4291736522
28.040367 958.41174 818.98523 4293778156
40.966358 748.75732 820.10199 4294963198
-9.609786 754.24054 820.80127 4289537333
-7.2073393 753.32227 820.02698 4290382389
40.541283 754.01099 820.60767 4294832380
43.244038 754.69977 821.18848 4294765566
-8.0834866 757.64429 819.74719 4290917198
37.722935 757.64429 819.74719 4294964223
39.519264 758.33099 820.32617 4294897918
43.111927 758.33099 820.32617 4294568703
-10.777982 759.70428 821.48401 4289542984
-8.9541283 761.95374 819.45667 4290332757
37.607338 761.95374 819.45667 4294963711
40.35688 760.82898 820.47034 4294831357
43.944038 760.82898 820.47034 4294699775
-10.744954 763.32288 820.61108 4290071123
-8.042202 764.8197 819.25708 4290201174
34.849541 764.8197 819.25708 4294896892
37.530273 764.8197 819.25708 4294963199
40.21101 764.8197 819.25708 4294700795
43.78532 764.8197 819.25708 4294831359
46.561466 764.00745 821.18829 4294830843
48.352295 764.00745 821.18829 4294897406
-10.722936 766.86914 820.98517 4289691015
-8.9357796 766.18604 820.40918 4289686377
41.104588 766.18604 820.40918 4294963709
43.78532 766.86914 820.98517 4294634235
46.466057 767.55231 821.56116 4294436856
-8.0174313 769.78912 819.52319 4289957032
35.633026 769.78912 819.52319 4294961403
37.41468 769.78912 819.52319 4294961660
40.087158 769.78912 819.52319 4294896380
-10.689908 771.83228 821.24585 4288839326
-8.9082565 771.15125 820.67163 4291273924
37.41468 771.83228 821.24585 4294895865
40.087158 771.83228 821.24585 4294961662
-10.65688 776.09961 820.9198 4287723916
-8.8807335 775.42065 820.34735 4289564328
37.299084 776.09961 820.9198 4294962943
39.07523 776.09961 820.9198 4294962431
-7.6807342 778.48578 820.31573 4290025127
35.449543 777.5824 819.55408 4294962173
37.222019 778.93744 820.69666 4294962431
-10.634862 780.29254 821.83923 4289040797
-7.951376 782.5083 819.78345 4290091943
35.339451 782.5083 819.78345 4294962687
38.108257 780.29254 821.83923 4294962431
-10.601835 783.85919 820.92236 4287724166
37.106422 783.85919 820.92236 4294962943
-10.568808 788.7641 821.13403 4289299591
-7.9266057 787.41742 819.99854 4289629583
35.229359 787.41742 819.99854 4294962942
37.871559 788.09076 820.56628 4294897662
-7.901835 790.96729 819.06763 4289955712
-5.26789 790.96729 819.06763 4291533446
35.119267 790.96729 819.06763 4294896121
36.875229 790.96729 819.06763 4294962171
-7.9018345 792.98096 820.76544 4290418819
42.14312 793.65216 821.33142 4294963455
-7.0091743 796.45496 821.07861 4291931043
-5.2568808 795.11536 819.9491 4292589730
38.550457 795.11536 819.9491 4294765051
40.302753 795.78516 820.51385 4294897662
42.055046 796.45496 821.07861 4294964479
-4.6581039 799.09064 819.37677 4292129459
0 798.64551 819.00146 4293845496
38.429359 798.64551 819.00146 4294897405
41.049541 799.98096 820.12756 4294635004
-6.9871559 801.31641 821.25354 4290484120
-4.3633027 802.04382 820.55884 4291142839
0 802.77118 819.86414 4291673813
41.007339 802.04382 820.55884 4294700542
43.669724 801.31641 821.25354 4294569468
-4.3577981 804.10382 820.98779 4291471814
41.834862 804.10382 820.98779 4294635261
-4.3440366 808.27429 820.5802 4292318904
40.833946 808.27429 820.5802 4294635001
-4.3302751 811.77014 819.6037 4291586188
40.415901 811.99091 819.78979 4294503163
-6.9284406 813.75647 821.27844 4289078827
-5.1853213 815.19727 819.8772 4289407791
37.161469 815.19727 819.8772 4294503419
40.662384 814.47687 820.57782 4294437626
43.302753 813.75647 821.27844 4294503162
-5.1853213 816.51862 820.99133 4289671992
38.025688 816.51862 820.99133 4294569466
39.754128 816.51862 820.99133 4294438137
-4.3073397 820.65137 820.55182 4291117908
0 819.99274 819.99646 4292233334
32.735779 819.99274 819.99646 4294568444
34.458717 819.99274 819.99646 4294305784
37.330276 820.43182 820.3667 4294503161
-3.4385321 823.39941 820.25293 4291579466
-1.7192661 822.74225 819.69885 4291776326
0 822.74225 819.69885 4292167543
31.806421 822.74225 819.69885 4294568442
34.385323 823.39941 820.25293 4294437369
36.677673 823.61847 820.43768 4294371319
-4.2926607 826.44104 820.85547 4290852919
0 827.51111 819.79565 4292692349
32.561466 827.51111 819.79565 4294436604
35.132111 827.51111 819.79565 4294436854
37.823853 825.37103 821.91528 4294370806
-4.2807341 829.5332 820.19257 4289923114
0.85504586 830.24512 819.48486 4291821898
32.491745 830.24512 819.48486 4294239220
35.095413 829.5332 820.19257 4294239222
37.702751 828.82129 820.90027 4294306038
-4.5602446 831.98828 820.95477 4290586958
0 832.20618 821.13843 4292492116
35.341896 831.98828 820.95477 4294304246
37.622017 831.55249 820.58728 4294371058
40.187157 832.85986 821.68958 4293976305
-3.97737 835.85614 820.29181 4290984281
-1.7045871 835.63892 820.1087 4291968609
1.1363914 835.85614 820.29181 4293156447
3.97737 835.42169 819.9256 4293018483
7.6706419 834.9873 819.55933 4293536081
32.387157 834.9873 819.55933 4294108404
34.659939 835.85614 820.29181 4293975282
37.500916 835.63892 820.1087 4294041328
-4.2577982 838.29999 821.04443 4290458704
-1.7009175 839.00635 820.33203 4292099417
0.85229355 837.59363 821.75684 4292630377
4.53578 838.57294 819.96655 4293149311
7.6541286 838.35614 819.78381 4293935459
10.205504 837.70593 819.2356 4293728829
31.750458 838.1394 819.60107 4294173941
34.907341 838.29999 821.04443 4293975280
37.500916 837.59363 821.75684 4294107121
-3.401835 840.3067 821.42847 4291578695
-1.7009175 840.3067 821.42847 4291710281
1.7009175 840.3067 821.42847 4292761449
4.2440367 841.36414 820.35791 4293217903
7.6293578 842.42151 819.28735 4294463350
32.212845 842.42151 819.28735 4294238968
34.813759 841.36414 820.35791 4293975280
-3.3908257 845.01379 821.47314 4291579208
-1.6954129 844.36572 820.9267 4291842639
1.6954129 845.01379 821.47314 4292363893
4.2385321 843.71765 820.38025 4293350252
34.755962 844.36572 820.9267 4293844976
-1.6917431 847.71143 821.13171 4291448653
1.6917431 847.71143 821.13171 4292756098
3.9474003 846.84918 820.4046 4292954211
7.612844 846.41809 820.04114 4294531469
10.150458 846.41809 820.04114 4294924421
31.297249 846.41809 820.04114 4294107634
34.680733 847.06476 820.58643 4293713646
-1.6862385 851.10272 820.06714 4291842898
4.2155962 851.10272 820.06714 4293548135
32.038532 851.10272 820.06714 4294174449
33.72477 851.10272 820.06714 4293779439
-3.3724771 852.39185 821.15405 4290521666
-1.6862385 852.39185 821.15405 4291377232
0.84311926 852.39185 821.15405 4292626806
4.2100916 853.08978 820.43445 4293352301
34.531193 853.08978 820.43445 4293845486
-3.3651376 856.36041 821.88416 4290451015
-1.6825688 855.71729 821.34186 4291701081
0.84128439 855.71729 821.34186 4291902800
3.3651376 855.0741 820.79956 4293217369
34.492661 855.0741 820.79956 4293911275
37.016514 856.36041 821.88416 4293712361
-1.6770642 859.72791 820.79944 4292293482
1.1180428 859.30048 820.43915 4291177538
3.3541284 858.44574 819.71838 4292217666
34.379814 858.44574 819.71838 4293713131
36.895412 859.72791 820.79944 4293712102
-3.3541284 861.01001 821.88049 4290248758
-1.6752293 862.34192 821.69556 4290905408
0.83669722 862.68805 821.33337 4292751433
3.9045868 861.54169 819.71271 4292617059
6.6935778 861.11523 819.35315 4293275457
31.794495 861.11523 819.35315 4293910255
34.304588 861.75488 819.89252 4293778156
37.672478 862.68805 821.33337 4293908714
4.1697249 865.74664 819.33411 4293874828
7.5055046 865.74664 819.33411 4294336118
10.007339 865.74664 819.33411 4294199671
30.855965 865.74664 819.33411 4294040814
34.191742 865.74664 819.33411 4293778156
-1.66789 867.6593 820.9469 4289862940
1.1119267 867.87183 821.12616 4290969634
4.1697249 867.6593 820.9469 4293334848
7.5009179 868.00336 820.58289 4294201487
9.985321 869.6731 820.02869 4294927483
34.173393 868.00336 820.58289 4293515497
37.249542 867.87183 821.12616 4293778928
-4.9926605 870.94537 821.10156 4290265667
4.1605506 870.94537 821.10156 4291887131
7.4889908 870.94537 821.10156 4293599342
10.793578 872.31879 819.64343 4294795404
14.114679 872.31879 819.64343 4294858875
16.605505 872.31879 819.64343 4294931059
29.889908 872.31879 819.64343 4293843949
31.550459 872.31879 819.64343 4293909998
34.116516 870.94537 821.10156 4293778156
-4.1513762 874.85779 821.7843 4290915401
-1.6605505 874.85779 821.7843 4290391886
0.83027524 874.85779 821.7843 4292952166
4.1513762 874.85779 821.7843 4293612406
8.3027525 873.58832 820.71387 4294914381
9.9633026 873.58832 820.71387 4294922889
31.550459 873.58832 820.71387 4294107889
34.041283 874.85779 821.7843 4293976303
-4.9651375 878.17474 820.65698 4290783562
-1.6550459 878.17474 820.65698 4290061610
4.1376147 878.17474 820.65698 4294400657
7.4477067 877.54211 820.12354 4292546633
10.757798 876.90948 819.59009 4294254696
13.240367 876.90948 819.59009 4294925956
29.790825 876.90948 819.59009 4294107121
31.445871 876.90948 819.59009 4294172914
33.92844 878.17474 820.65698 4294041328
-4.1376147 879.44006 821.72388 4289331230
-1.6550459 879.44006 821.72388 4289658908
0.82752293 879.44006 821.72388 4291297305
4.1376147 879.44006 821.72388 4293532530
7.4311924 880.80219 820.25635 4293081440
10.733945 880.1709 819.72412 4293923901
14.036697 880.1709 819.72412 4294854258
16.513762 879.53967 819.19177 4294924928
18.165138 879.53967 819.19177 4294933923
22.293579 879.53967 819.19177 4294621127
28.899082 880.17096 819.72406 4294107377
31.376146 880.1709 819.72406 4294107121
33.85321 880.80219 820.25635 4294107120
37.238533 879.44006 821.72388 4294304752
-3.8507645 882.93774 821.18488 4290055219
-1.6513761 882.0647 821.3208 4289986602
4.1238532 883.37421 821.11694 4291953446
7.1400609 883.84399 820.20502 4293205315
10.710092 883.42407 819.85095 4293395511
14.005505 883.42407 819.85095 4294452041
21.420183 883.42407 819.85095 4294943146
28.834862 883.42407 819.85095 4294238709
31.855658 884.26392 820.55908 4294107380
34.102753 882.93774 821.18488 4294173684
36.330276 882.0647 821.3208 4294239470
-3.2954128 885.94342 821.97522 4290783028
-1.6477064 885.94342 821.97522 4291704130
4.119266 885.94342 821.97522 4291298856
7.3899078 887.97406 819.76331 4292804662
9.8532114 887.97406 819.76331 4293853994
29.559633 887.97406 819.76331 4294238961
32.07798 886.95874 820.86926 4294107376
34.601833 885.94342 821.97522 4294042096
36.249542 885.94342 821.97522 4294042096
4.3792052 890.06647 821.52765 4293614182
7.3733945 890.58051 819.34497 4293277545
10.650459 890.58051 819.34497 4293796950
13.927523 890.58051 819.34497 4293984285
16.385321 890.58051 819.34497 4294246478
18.843121 890.58051 819.34497 4294921367
22.120182 890.58051 819.34497 4294945500
25.397247 890.58051 819.34497 4294762231
28.674313 890.58051 819.34497 4294173426
32.273396 890.09833 820.68243 4294042097
34.48624 889.8573 821.3512 4294042098
36.128441 890.48499 821.88049 4294042096
4.9155965 893.08588 821.4574 4294526594
7.100306 892.25073 820.75323 4294007940
10.37737 892.25073 820.75323 4294063484
13.927523 891.83319 820.40125 4293331235
21.300917 891.83319 820.40125 4294937559
28.947401 892.25073 820.75323 4294305011
31.678289 892.66827 821.10529 4294173682
34.409176 893.08588 821.4574 4293844462
7.6293578 895.26447 820.67822 4293877089
10.899082 895.26447 820.67822 4294861718
13.89633 894.43121 819.97571 4293939315
17.166054 894.43121 819.97571 4294772795
19.618349 894.43121 819.97571 4294321009
22.070641 894.43121 819.97571 4294942934
25.340366 894.43121 819.97571 4294828537
28.337616 895.26447 820.67822 4294305524
31.062386 895.68109 821.02954 4294306036
8.1467886 898.94055 819.85376 4294600560
10.590826 898.94055 819.85376 4294731921
28.513762 898.94055 819.85376 4294305782
4.8880734 901.43182 821.95435 4292365147
7.5914369 901.90698 820.61102 4294135162
10.296024 901.93732 819.76465 4294536074
13.818348 901.52307 819.41528 4294928017
21.946789 901.52307 819.41528 4294212482
26.011009 901.52307 819.41528 4294765566
28.466055 901.8103 820.31146 4294305783
31.453211 901.90601 820.61017 4294240245
34.216515 901.43182 821.95435 4294436854
4.8770642 904.00879 821.51111 4294336355
7.3064222 904.67444 820.76434 4293675665
10.543119 905.34009 820.01758 4294599830
13.787156 905.34009 820.01758 4293677951
17.031193 905.34009 820.01758 4294530204
19.46422 905.34009 820.01758 4294935188
21.897247 905.34009 820.01758 4292438395
25.141285 905.34009 820.01758 4294893553
28.385323 905.34009 820.01758 4294503159
31.629358 905.34009 820.01758 4294568948
34.13945 904.00879 821.51111 4294502899
7.2990828 906.58014 821.06311 4293796198
9.73211 906.58014 821.06311 4294265212
25.952293 906.58014 821.06311 4294765564
28.385323 906.58014 821.06311 4294239474
31.629358 906.58014 821.06311 4294305009
7.5437312 910.63263 820.55597 4293527859
10.507339 910.42664 820.38232 4294124884
13.740366 910.42664 820.38232 4294590343
16.973394 910.42664 820.38232 4294927743
19.398165 910.42664 820.38232 4294930614
21.822937 910.42664 820.38232 4293292959
25.055965 910.42664 820.38232 4294827503
28.28899 910.42664 820.38232 4294239731
30.713762 910.42664 820.38232 4294174705
4.0412846 912.2804 821.94543 4291362856
7.274312 912.2804 821.94543 4292411445
10.768196 913.13141 821.79102 4293657654
13.716513 913.88696 821.33801 4294053438
16.954128 913.55701 821.71375 4294654825
20.171558 913.88696 821.33801 4294929326
22.579817 914.21704 820.96222 4292907654
25.267889 914.01154 820.78888 4294697961
28.256882 913.55701 821.71375 4294108401
31.522018 912.2804 821.94543 4294306547
20.919266 917.3811 821.01404 4294925212
22.52844 917.3811 821.01404 4293302396
24.674006 916.97101 820.66827 4294825933
28.160549 917.3811 821.01404 4294239731
31.378899 917.3811 821.01404 4294240244
22.477064 919.92291 820.54126 4294088587
24.885323 919.92291 820.54126 4294893021
28.096329 919.92291 820.54126 4294041839
22.477064 921.15033 821.57617 4292506252
24.885323 921.15033 821.57617 4294892269
28.096329 921.15033 821.57617 4294041840
31.307339 921.15033 821.57617 4294173685
33.715595 921.15033 821.57617 4294174197
13.6 925.56006 821.37024 4294445900
20 925.56006 821.37024 4294913879
23.14679 926.86334 819.85303 4293563022
24.799999 924.94849 820.85455 4294958819
27.733332 925.15234 821.02643 4294041839
31.200001 925.56006 821.37024 4294305526
7.9816513 929.3042 821.91101 4292217407
10.376146 929.3042 821.91101 4293331259
13.568808 928.08374 820.88196 4294445643
17.519266 929.38422 819.36243 4294910556
19.908257 929.38422 819.36243 4294913111
23.093578 929.38422 819.36243 4293162629
25.482569 929.38422 819.36243 4294372344
28.201836 928.49054 821.22491 4293779441
30.330275 929.3042 821.91101 4294305017
7.1669722 931.81946 821.41577 4289855561
10.352293 931.81946 821.41577 4293329709
13.272171 931.00763 820.73138 4294249285
25.482569 931.21063 820.90247 4294435046
27.606117 931.41357 821.07355 4294238443
4.7669725 935.54382 821.94006 4288709265
7.4152904 935.13885 821.59863 4288372621
10.328441 934.93646 821.42792 4289943403
13.506422 934.3291 820.91577 4292025163
16.665138 934.36768 819.64038 4294647381
19.839449 934.36768 819.64038 4294846294
23.199266 934.08612 820.71094 4293487240
25.423853 934.9364 821.42792 4294371055
27.807339 934.93646 821.42792 4293976302
30.985321 935.54382 821.94006 4293976305
10.304587 938.04504 821.43298 4290881746
13.73945 937.64111 821.09229 4288295849
16.645872 937.43903 820.922 4292943940
19.816513 936.83307 820.41101 4294912602
22.722937 937.64111 821.09229 4292304505
25.365137 938.04504 821.43298 4294962943
11.07156 941.74988 821.94067 4285739351
14.234862 941.74988 821.94067 4291341180
16.60734 941.74988 821.94067 4290154149
19.928806 940.29883 820.71716 4293338989
22.670336 941.34686 821.60083 4292173935
25.306421 941.74988 821.94067 4294830063
17.337614 944.87604 820.65259 4287990448
19.439144 944.47437 820.31396 4291786400
22.85413 944.87604 820.65259 4292575628
26.006422 944.87604 820.65259 4293645802
11.033028 946.08105 821.66858 4292982993
14.185321 946.08105 821.66858 4289239986
16.549541 946.08105 821.66858 4288717214
19.701836 946.08105 821.66858 4290287506
22.828442 946.71863 820.89813 4292126114
25.945873 947.35626 820.12769 4293972959
28.304586 947.35626 820.12769 4293712615
11.007339 948.55841 821.14136 4289964488
13.366055 948.55841 821.14136 4287338932
16.511009 948.55841 821.14136 4287274434
19.655964 948.55841 821.14136 4284239454
22.800919 948.55841 821.14136 4292656329
25.945873 948.55841 821.14136 4293709017
29.090824 948.55841 821.14136 4293646570
10.981651 951.62982 821.11505 4289638606
13.327523 951.94653 820.72803 4285629589
16.472477 951.62988 821.11505 4287336138
19.610092 951.62988 821.11505 4282008881
22.486238 951.42993 820.94647 4288186028
25.885323 951.62988 821.11505 4293186266
28.238533 951.62982 821.11505 4293646568
31.376146 952.22949 821.62073 4292989921
13.30367 954.69287 821.08167 4285230721
16.413761 955.32483 820.30652 4288584900
20.299082 955.95685 819.53137 4287657024
22.641285 955.95685 819.53137 4289563570
25.764221 955.95685 819.53137 4293186271
28.92202 955.32483 820.30652 4293778410
31.229359 955.95685 819.53137 4293582058
7.8073397 958.34436 821.54443 4279107882
13.272477 957.7475 821.04114 4288322238
16.395412 957.74744 821.04114 4289503441
19.495413 958.37671 820.26355 4291205228
22.588074 959.60272 819.98938 4291868337
26.004892 958.36591 820.69061 4293382373
29.125383 958.36591 820.69061 4293909740
31.699694 958.78534 820.17218 4294042095
17.13578 960.79364 820.99353 4286413449
18.693579 960.79364 820.99353 4285939730
23.366972 960.79364 820.99353 4292522179
28.040367 960.79364 820.99353 4294107121
-12.689908 748.7981 824.06055 4288747827
-10.844037 751.06018 822.0437 4289137706
43.376148 751.06018 822.0437 4294765567
45.183487 751.75104 822.62622 4294699518
-12.651376 753.82361 824.37378 4289275971
46.990826 753.82361 824.37378 4294436856
48.798164 753.82361 824.37378 4294831357
-12.612844 758.83234 824.67297 4289023821
-10.811009 756.07733 822.34998 4289604669
41.442204 756.07733 822.34998 4294700795
45.946789 756.76611 822.93073 4294634236
48.64954 757.45483 823.51147 4294963198
-16.166973 763.82422 824.95789 4287392887
-13.472477 763.13757 824.37891 4288637548
-13.431192 766.74561 823.49701 4289167511
46.561466 767.43018 824.07422 4294766589
49.247711 766.74561 823.49707 4294700540
-13.105811 769.82941 823.4812 4287983241
43.78532 769.60168 823.28918 4294897406
-12.47156 773.87537 822.96851 4287920780
40.977982 773.87537 822.96851 4294962431
42.759632 773.87537 822.96851 4294962431
-12.47156 775.23749 824.11707 4288648087
43.650459 775.23749 824.11707 4294962685
-10.65688 777.45752 822.0647 4288514968
40.259327 777.91016 822.44635 4294962686
42.627522 778.81537 823.20972 4294962685
-13.3211 780.17322 824.35461 4287327864
38.994495 781.64758 822.98169 4294765051
40.766972 781.64758 822.98169 4294896893
43.515594 780.17322 824.35461 4294962943
-12.407339 783.00269 824.12427 4287920514
-10.601835 785.21008 822.0614 4288052105
38.873394 785.21008 822.0614 4294962431
40.766972 783.00269 824.12427 4294962173
42.539448 783.00269 824.12427 4294962943
-12.957798 787.46149 823.95978 4287855218
40.640366 786.56091 823.20044 4294896893
42.407341 787.23633 823.76996 4294963199
-12.330276 791.4574 823.40491 4288053874
-10.568808 790.78406 822.83722 4289366404
40.51376 790.11072 822.26953 4294830844
44.036697 791.4574 823.40491 4294963455
-12.330276 792.80408 824.54041 4288250481
-10.568808 792.80408 824.54041 4289168775
-8.7798166 794.99463 822.46338 4290550428
43.899082 794.99463 822.46338 4294832639
45.798164 792.80408 824.54041 4294767102
-12.291743 797.6795 824.72717 4287327586
-10.53578 797.0083 824.16119 4288640881
-7.8944955 797.0658 822.90167 4291008916
43.807339 797.79462 822.20813 4294701055
45.655045 796.33704 823.59521 4294767102
-10.513762 800.47394 824.46729 4289563288
-8.7614679 799.80408 823.90247 4289233799
46.727829 799.58081 823.71417 4294767101
-10.480734 803.98724 823.50549 4291401397
-7.8605504 803.31958 822.9425 4291468985
43.669724 803.31958 822.9425 4294832639
45.998779 803.54218 823.13019 4294503931
-10.480734 805.32269 824.63159 4288894324
-7.5535164 806.32489 822.86041 4291264925
-5.2293577 805.4364 822.11133 4293441999
41.834862 805.4364 822.11133 4294767102
43.57798 806.76904 823.23499 4294437369
46.289909 805.32269 824.63159 4294437115
-10.458715 808.10168 824.35864 4287304767
45.321102 808.10168 824.35864 4294502908
-10.425688 812.25964 823.94043 4288292416
-8.2536697 811.26331 823.10034 4288488775
43.440369 810.26697 822.26025 4294437115
-6.9284406 815.08069 822.39502 4289277234
41.570641 815.08069 822.39502 4294305784
43.302753 815.08069 822.39502 4294503162
-10.39266 817.72913 824.62805 4288492359
-7.7944956 817.06702 824.06982 4289214025
-5.1853213 817.84003 822.10547 4290133327
40.662384 817.12244 822.80853 4294305781
43.302753 817.06702 824.06982 4294437113
-7.7779818 819.82214 823.77679 4289277514
40.906422 819.60187 823.59113 4294371063
43.21101 820.48285 824.33386 4294502649
-7.4660549 823.50531 822.95819 4289076784
-5.1688075 822.62714 822.21777 4290393930
40.201832 823.50531 822.95819 4294305269
-8.0293579 826.64893 823.86481 4289010482
40.402752 826.68542 823.02356 4294108659
43.027523 826.63068 824.28546 4294042611
-6.8550458 830.13147 822.005 4289600835
40.273396 830.13147 822.005 4294239731
-7.7119265 832.09674 823.66211 4289539919
42.844036 832.75183 824.21448 4294107891
-7.410398 835.47461 823.89423 4289148493
40.187157 834.82092 823.34308 4294041584
42.752293 836.78198 824.99658 4294173164
-6.8183484 838.89679 822.85571 4289345356
-5.1137614 838.89679 822.85571 4290200665
0 838.89679 822.85571 4292695656
37.500916 838.89679 822.85571 4294041327
40.0578 838.89679 822.85571 4294238960
-7.3816514 841.10248 823.84344 4289210689
-4.53578 842.04053 822.89038 4290723403
0.56697249 842.04053 822.89038 4292364147
35.719265 841.60706 822.5249 4293910255
37.460548 841.55371 823.7879 4293778156
40.0578 840.19995 823.95447 4293778155
-6.8036699 844.20776 824.71777 4289738035
37.420185 844.20776 824.71777 4293845487
39.121101 844.20776 824.71777 4293713900
-6.7816515 848.25415 824.20538 4289403425
-4.521101 846.742 822.93036 4290461241
0 846.30994 822.56604 4291637361
37.299084 848.25415 824.20538 4293844204
-6.7669725 851.59149 824.40332 4288675885
-4.2293577 849.65143 822.76746 4290982977
0.84587157 849.00476 822.22217 4292496773
35.526604 849.00476 822.22217 4293713646
38.910091 851.59149 824.40332 4293908972
-4.4966359 854.11066 822.60333 4290646849
0 853.68103 822.24109 4291904594
37.940369 854.32556 822.78455 4293909484
-4.2119265 856.953 823.69183 4290975811
38.699081 857.64673 822.96875 4294172653
40.469727 856.25928 824.41492 4294041325
-5.0477066 858.93311 824.05334 4289855508
40.381653 858.93311 824.05334 4294106605
-3.3541284 862.29211 822.96155 4290379832
41.088074 862.93323 823.50208 4293778927
-3.3467889 865.5929 823.1286 4291310386
0 864.95325 822.58923 4291166243
38.488075 864.95325 822.58923 4293976051
40.161469 865.5929 823.1286 4293911022
-3.3357799 869.57196 822.55957 4291512929
-1.66789 869.57196 822.55957 4291447136
0.83394498 869.57196 822.55957 4290848333
37.527523 869.57196 822.55957 4293909488
40.93211 868.54193 823.65314 4293911023
-4.1660552 871.53235 822.90454 4291183439
-1.6642202 872.21771 822.17432 4291975025
0.83211011 872.21771 822.17432 4291244644
4.1605506 872.21771 822.17432 4291756069
6.6568809 872.21771 822.17432 4292280333
34.116516 872.21771 822.17432 4293976300
37.487156 871.53235 822.90454 4293844467
40.585323 871.69708 824.3515 4293911025
-7.7663612 873.91406 823.60468 4288549151
37.444954 873.48999 823.24707 4293975535
39.941284 874.76233 824.31982 4294371060
-7.472477 877.39679 823.92517 4288414742
-3.321101 876.12732 822.85474 4290522161
0.83027524 876.12732 822.85474 4293083194
37.362385 876.12732 822.85474 4294370293
39.85321 877.39679 823.92517 4293909998
-7.1718655 881.54889 823.50201 4289074990
0.82752293 880.70538 822.79077 4290969644
38.066055 880.70538 822.79077 4294239470
39.7211 881.33801 823.32422 4293976815
-7.4403667 883.91284 824.18713 4289014063
-4.9541283 883.95837 822.9176 4289999417
-1.6513761 883.32715 822.38538 4290584383
0.82568806 883.95837 822.9176 4291368767
37.431194 883.74799 822.74023 4293779182
40.504585 883.91284 824.18713 4293976305
-6.6055045 885.85217 824.51428 4289345337
-4.1247706 886.52765 823.77582 4290065223
-1.6477064 887.20312 823.03735 4291837797
0.82385319 886.52765 823.77582 4292297816
3.2954128 887.20312 823.03735 4293482860
37.073395 887.20312 823.03735 4294304752
39.633026 885.85217 824.51428 4293778410
-3.2954128 888.46283 824.09949 4291184493
-1.6477064 888.46283 824.09949 4291842423
1.6477064 888.46283 824.09949 4291642191
37.897247 888.46283 824.09949 4294042096
39.544952 888.46283 824.09949 4293976301
-1.6422018 892.99597 823.99768 4290852435
0.82110089 892.36823 823.46838 4290852689
3.2844036 891.74048 822.93909 4291829338
36.949539 892.36823 823.46838 4293976816
39.412846 892.99597 823.99768 4294042863
-3.2770643 896.84387 824.6261 4290390573
-1.6385322 896.21753 824.09796 4291444807
1.2288991 895.90442 823.83392 4291182689
4.0935783 895.2998 822.67017 4292554344
6.5394497 896.93091 822.08337 4293547871
32.176758 896.06671 822.22681 4294042610
34.409176 894.96484 823.04175 4293911024
36.866974 895.59119 823.56982 4294108145
39.324772 896.84387 824.6261 4293977840
-1.6348624 899.43066 824.19104 4291639105
0.81743121 899.43066 824.19104 4291441501
3.8146789 898.59741 823.48846 4292297052
6.5394497 898.18079 823.13721 4293082969
32.697247 898.18079 823.13721 4294239474
35.422016 898.59741 823.48846 4294305267
37.601833 899.43066 824.19104 4294371060
1.6293578 902.67749 823.00464 4290715970
3.2587156 902.67749 823.00464 4292494151
35.845871 902.67749 823.00464 4294370806
37.475231 902.67749 823.00464 4294305013
-1.6293578 903.92316 824.05493 4290773552
1.6293578 903.92316 824.05493 4290838559
4.0642204 905.25165 822.55908 4291493921
34.952293 905.25165 822.55908 4294239218
37.475231 903.92316 824.05493 4294371060
-1.6256881 907.7373 824.65491 4290709555
1.0837921 907.323 824.30566 4290838558
4.0550461 907.82019 822.10876 4291231779
6.4880733 907.82019 822.10876 4292083739
32.440369 907.82019 822.10876 4294174449
34.913761 907.15735 822.85791 4294174448
37.390827 907.11584 824.13098 4294240497
39.016514 907.7373 824.65491 4293976816
1.6220183 910.30029 824.19983 4290904097
4.0550461 909.06024 823.1543 4291493925
32.440369 909.06024 823.1543 4294240242
34.873394 909.6803 823.677 4294239985
37.306423 910.30029 824.19983 4294371058
-1.6165137 914.75208 824.02942 4289725218
1.6165137 914.75208 824.02942 4290773028
3.7718651 913.92822 823.33478 4291297315
7.5437312 913.92822 823.33478 4293002298
9.6990824 913.51624 822.98743 4293394999
31.522018 913.51624 822.98743 4294174450
34.755043 914.13416 823.50842 4294371317
37.179817 914.75208 824.02942 4294370806
4.3009171 916.88861 823.21484 4291362853
6.9889908 916.88861 823.21484 4292477490
10.214679 916.4776 822.86835 4293461047
13.440366 916.4776 822.86835 4294053185
16.934864 916.06659 822.52173 4294448201
19.354128 916.06659 822.52173 4294128243
34.676147 917.29962 823.5614 4294174452
37.095413 917.29962 823.5614 4294305784
-3.225688 918.53265 824.60107 4289791524
-1.612844 918.53265 824.60107 4289857318
1.612844 918.53265 824.60107 4290643740
4.0229359 919.84155 823.08862 4291231776
7.2412844 919.84155 823.08862 4292477233
10.727829 919.43146 822.74286 4293790015
13.946177 919.43146 822.74286 4293921604
16.896332 919.22644 822.56995 4294646351
20.114677 919.22644 822.56995 4294586725
31.378899 918.61133 822.05127 4294239732
35.401836 919.84155 823.08862 4294174197
37.095413 918.53265 824.60107 4294437369
4.0183487 922.3385 823.88593 4291362850
7.2330275 922.3385 823.88599 4292280367
10.447706 922.3385 823.88593 4293591867
13.663303 921.72479 823.36847 4294379849
16.877064 922.3385 823.88593 4294712399
20.114677 921.07178 824.12585 4294847583
22.477064 922.37781 822.61108 4292832875
25.688074 922.37781 822.61108 4294963709
28.899082 922.37781 822.61108 4293844462
31.307339 922.37781 822.61108 4294042354
34.518349 922.99152 823.12854 4294174196
36.968807 922.3385 823.88593 4294568185
-1.6055046 924.83264 824.68091 4289529120
1.6055046 924.83264 824.68091 4290445338
4 926.78326 822.40161 4291493920
7.1999998 926.78326 822.40161 4292411440
10.4 926.78326 822.40161 4293460795
16 926.78326 822.40161 4294710093
31.200001 926.78326 822.40161 4294108660
34.460548 925.80798 823.54126 4294305781
36.926605 924.83264 824.68091 4294436854
-3.2 929.22974 824.46436 4285485925
-1.6 928.61816 823.94867 4286462019
0.80000001 929.22974 824.46436 4288768373
4 928.00653 823.43298 4289200410
6.4000001 928.00653 823.43298 4290773033
32 928.00653 823.43298 4294109169
34.400002 928.00653 823.43298 4294240500
37.333332 928.82202 824.12061 4294240246
40.799999 929.22974 824.46436 4294108916
43.200001 929.22974 824.46436 4294239990
-3.1926606 932.96539 824.99805 4285027439
-1.5963303 932.35522 824.48358 4285750142
1.0642202 932.55859 824.65509 4287064448
3.9908257 930.5246 822.94006 4288561748
31.128441 930.5246 822.94006 4294108659
34.321098 930.5246 822.94006 4294108915
37.513763 932.35522 824.48358 4294437112
39.908257 932.96539 824.99805 4294502649
1.5926605 935.47223 824.49573 4285885047
3.7162082 933.44293 822.78467 4289033854
6.3706422 933.03705 822.44238 4288422550
31.056881 933.03705 822.44238 4294173684
34.242203 934.2547 823.46906 4294174194
36.631191 934.8634 823.98242 4294239731
1.5889908 937.97339 823.98865 4282398533
3.972477 937.36597 823.4765 4284371027
7.1504583 936.75861 822.96436 4288318077
27.807339 936.75861 822.96436 4294106613
31.250153 937.16351 823.30585 4294106608
34.163303 937.97339 823.98865 4294040814
36.546787 937.97339 823.98865 4294369523
4.2275229 941.27704 824.15814 4280159255
7.1339455 940.46906 823.47687 4278912773
10.040367 939.66107 822.79547 4282983010
13.078899 940.16608 823.22131 4290417559
16.645872 939.25708 822.45483 4290937756
23.779816 939.25708 822.45483 4294945983
26.422018 939.66107 822.79547 4294303985
28.53578 940.46906 823.47681 4293711590
30.75523 940.71143 823.68127 4293843177
34.348621 941.27704 824.15814 4293909486
36.462387 941.68103 824.49878 4294172403
7.908257 944.16821 823.97986 4279569686
10.017125 943.36206 823.30011 4286201181
13.444036 943.5636 823.47003 4289634220
15.816514 942.95905 822.96021 4287266981
3.9541283 945.37744 824.99939 4280882210
7.1036696 946.33173 823.84198 4279569430
9.4568806 947.28601 822.68457 4281280068
31.633028 945.37744 824.99939 4293515752
1.5761468 949.69598 824.71655 4278584588
3.9376149 949.41022 823.82159 4280488733
7.0798168 950.04431 823.0481 4279701269
9.4348621 950.36169 822.66174 4280493379
23.587156 950.96277 823.16858 4290294725
29.877064 950.36169 822.66174 4293843946
31.522936 948.49097 823.70056 4293515754
34.675228 949.69598 824.71655 4294172912
3.9311926 952.16492 824.18225 4278255620
7.0596333 953.42889 822.63196 4278652691
10.197248 953.42889 822.63196 4286080904
18.825687 953.42889 822.63196 4286999094
32.944954 953.42889 822.63196 4293976816
34.594494 952.16492 824.18225 4294042096
36.166973 952.16492 824.18225 4294502647
1.5688074 955.82764 824.65454 4290817428
3.6568806 955.44843 823.46271 4282859646
7.0431194 955.88947 822.09058 4278190095
10.173394 955.88947 822.09058 4283720265
32.944954 954.62823 823.64319 4294107889
37.651375 955.82764 824.65454 4294503162
40.266056 955.4278 824.31738 4294371574
42.880737 955.4278 824.31738 4294569208
4.6954126 957.68427 823.60394 4286207883
6.7761474 958.30225 823.25293 4287463064
10.161468 958.31207 822.82526 4287329409
13.272477 959.53815 822.55103 4284379571
15.614679 959.53815 822.55103 4288650668
20.299082 959.53815 822.55103 4287387176
21.86055 959.53815 822.55103 4289561494
25.764221 959.53815 822.55103 4293382115
29.667891 959.53815 822.55103 4293909998
32.048622 958.91034 823.32971 4293910510
35.194496 957.99817 823.2146 4294174704
37.563301 958.28253 824.1084 4294240758
42.258717 958.28253 824.1084 4294306038
9.3688078 960.73187 823.5575 4289373125
13.272477 960.73187 823.5575 4287597239
16.655657 961.12982 823.89307 4288057464
19.518349 961.3288 824.06079 4280887383
22.641285 961.32874 824.06079 4289170362
25.503977 961.12982 823.89307 4292658389
28.106422 960.73187 823.5575 4294107121
-14.049541 751.22351 826.10559 4288356667
47.133945 750.18402 825.22913 4294502397
-12.651376 755.20538 825.53882 4289149258
-18.073395 757.96881 827.8689 4286794835
-16.266054 757.96881 827.8689 4286991957
-14.458715 756.5871 826.70386 4288826441
-18.018349 761.5874 826.99597 4286932336
-14.414679 760.20984 825.83447 4288502866
-19.759632 766.57086 827.2738 4286929998
-17.065138 765.19751 826.11584 4287917954
-17.012844 769.48383 825.80579 4286798192
46.561466 768.79926 825.22864 4294897919
49.247707 768.79926 825.22864 4294700797
-21.489908 771.53748 827.53735 4287394663
-19.699083 771.53748 827.53735 4286999905
-16.977982 773.01746 826.16931 4287330681
-14.297248 772.33435 825.59326 4287396228
44.678898 771.65118 825.01721 4294962431
46.466057 772.33435 825.59326 4294897149
49.172478 771.96436 825.9353 4294897662
51.933945 771.53748 827.53735 4294963198
-21.445871 774.38379 827.32129 4288183409
-19.658716 774.38379 827.32129 4287130721
-16.977982 774.38379 827.32129 4287723889
-13.362385 776.59955 825.2655 4288908945
44.541283 776.59955 825.2655 4294962685
46.322937 776.59955 825.2655 4294831863
49.14679 774.38379 827.32129 4294897660
51.827522 774.38379 827.32129 4294897405
-21.379816 778.6427 826.98822 4287393133
-19.598166 778.6427 826.98822 4286208860
-16.925688 778.6427 826.98828 4286933343
46.322937 777.96167 826.41394 4294897403
48.104588 779.32373 827.5625 4294964477
-16.873394 782.88904 826.64441 4286997590
-14.209174 781.53113 825.49951 4286933619
44.403671 781.53113 825.49951 4294964223
46.179817 782.21008 826.07196 4294832636
-22.201836 784.24689 827.78943 4287522153
-19.537615 784.24689 827.78943 4286142561
-16.85688 784.97986 827.09943 4286473561
-14.179816 784.35773 825.26685 4287524977
44.311928 785.03528 825.83813 4294963711
47.020184 784.97986 827.09943 4294897918
-16.838531 787.06787 827.552 4287526249
47.85688 787.06787 827.552 4294963711
-16.78624 791.28894 827.18695 4287524712
-14.135779 789.93811 826.04797 4287527272
46.824768 789.93811 826.04797 4294766845
49.475231 791.96436 827.75647 4294568957
-15.853211 794.1507 825.6759 4287589991
-13.21101 794.1507 825.6759 4287657831
47.559631 794.1507 825.6759 4294767102
-19.376146 796.17065 827.37909 4286406240
-16.733946 796.17065 827.37909 4286471776
-14.091743 796.17065 827.37909 4287392105
49.321102 795.49738 826.8114 4294700543
-15.80367 800.36438 826.99097 4289036924
-13.169725 799.69318 826.42505 4289430161
49.166973 799.02197 825.85913 4294568703
-12.850154 802.7066 826.34979 4288374138
49.06422 802.4834 826.16156 4294568700
-16.64679 804.49286 827.85596 4285999166
-13.100918 806.65814 825.75757 4286716475
47.163303 806.65814 825.75757 4294568957
49.783485 806.65814 825.75757 4294437115
-16.594496 807.99359 826.88354 4286979892
-13.088074 808.71399 826.18292 4287703345
46.192661 809.43433 825.4823 4294503162
48.807339 809.43433 825.4823 4294240506
-16.559633 812.09955 827.72961 4286849583
-13.073395 811.43323 827.16779 4287638329
46.192661 811.43323 827.16779 4294371575
48.807339 811.43323 827.16779 4294371066
-13.03211 815.58069 826.74072 4288033094
-10.425688 814.25226 825.62061 4287833661
-8.6880732 814.25226 825.62061 4288491848
45.177982 815.58069 826.74072 4294437367
-19.113762 816.90906 827.86072 4286916405
-16.507339 816.90906 827.86072 4287178036
-13.03211 816.90906 827.86072 4287505714
45.177982 816.90906 827.86072 4294108404
-12.124771 821.70178 827.97778 4287307308
-10.381651 820.42883 825.59631 4288092468
43.21101 821.80426 825.448 4294503162
45.900917 821.03967 827.41949 4294174197
-10.370643 823.12567 826.56226 4288419375
44.939449 823.78638 827.11932 4294042611
46.667889 824.44708 827.67639 4294568955
-10.337615 827.2373 826.10498 4288290871
44.796329 827.89594 826.66028 4293977588
-12.060551 829.21313 827.77087 4287703360
-10.315597 830.6286 826.34839 4288292166
-8.5963306 829.31421 825.24011 4288949830
43.841286 829.97144 825.79425 4294042866
46.519264 829.21313 827.77087 4294108915
-10.315597 831.94299 827.45667 4287570494
44.700916 831.94299 827.45667 4294108402
46.420185 831.94299 827.45667 4294042609
-10.282569 836.68237 827.52856 4287700026
-8.5688076 834.06201 825.31921 4288425803
43.986542 835.37225 826.42389 4294107631
47.128441 836.68237 827.52856 4293976304
43.607338 838.7431 826.65015 4294041327
46.172478 839.39679 827.20129 4294305013
-8.5229359 842.15479 825.60266 4288885320
40.341896 841.93756 825.41949 4293712108
43.182873 842.37201 825.78583 4293975536
-10.227523 844.1095 827.25085 4288224042
-8.5045872 845.50818 825.81421 4288684593
39.971558 845.50818 825.81421 4293844461
43.466972 844.1095 827.25085 4293975534
46.023853 844.1095 827.25085 4294041327
-8.5045872 846.80853 826.91064 4288020769
39.971558 846.80853 826.91064 4293844204
42.522934 846.80853 826.91064 4294041325
-8.4770641 850.8465 826.39117 4287954966
40.689907 850.19843 825.84473 4293909998
43.233028 851.49457 826.93762 4293844974
