# .PCD v0.7 - Point Cloud Data file format
VERSION 0.7
FIELDS x y z rgb
SIZE 4 4 4 4
TYPE F F F U
COUNT 1 1 1 1
WIDTH 1155
HEIGHT 1
VIEWPOINT 0 0 0 1 0 0 0
POINTS 1155
DATA ascii
7.387156 768.95508 1304.0989 4292600063
9.8495417 768.01379 1303.3053 4292929023
-51.517429 775.40662 1302.9985 4286791521
1.2266055 775.40662 1302.9985 4292468991
4.9064221 775.40662 1302.9985 4292403199
-56.212845 782.76428 1302.6622 4286988655
-52.546791 782.76428 1302.6622 4286855783
-48.880733 782.76428 1302.6622 4286006137
-46.436699 782.76428 1302.6622 4285808758
-2.4440367 782.76428 1302.6622 4292403455
-56.212845 784.63281 1304.2377 4287060612
-52.546791 784.63281 1304.2377 4286268014
-48.880733 784.63281 1304.2377 4285808758
-46.436699 784.63281 1304.2377 4286006137
-2.4440367 784.63281 1304.2377 4292535807
0 784.63281 1304.2377 4292469247
-48.697247 791.0177 1303.0812 4288497529
-46.262386 791.0177 1303.0812 4288300406
-43.827522 791.0177 1303.0812 4286334323
-41.392662 791.0177 1303.0812 4287650183
-37.740364 791.0177 1303.0812 4287597016
-2.4348624 791.0177 1303.0812 4292403711
-51.132111 792.87921 1304.6508 4288560510
-48.697247 792.87921 1304.6508 4288892277
-46.262386 792.87921 1304.6508 4289747586
-43.827522 792.87921 1304.6508 4288960382
-41.392662 792.87921 1304.6508 4288697211
0 792.87921 1304.6508 4292206591
-46.053211 799.75439 1302.5996 4289942676
-43.629356 799.75439 1302.5996 4290334858
-41.205505 799.75439 1302.5996 4291979683
-2.4238532 799.75439 1302.5996 4292469759
-48.477066 801.60742 1304.162 4288758140
-46.053211 801.60742 1304.162 4289876622
-43.629356 801.60742 1304.162 4290203788
0 801.60742 1304.162 4292272895
-49.903362 808.53485 1303.4628 4288363639
-45.878899 807.91943 1302.9438 4289215355
0.80489296 809.15015 1303.9816 4292141055
-52.921101 817.88135 1304.8035 4288236673
-49.312843 816.96191 1304.0281 4288299894
-45.704586 816.04236 1303.2528 4289152381
-43.299084 816.04236 1303.2528 4289675134
-2.4055047 816.96185 1304.0281 4292075519
-50.322937 824.12317 1303.5262 4287317116
-46.728439 824.12317 1303.5262 4288824949
-43.133945 824.12317 1303.5262 4289675382
-40.737614 824.12317 1303.5262 4289346160
-38.341286 824.12317 1303.5262 4289675134
-34.746788 824.12317 1303.5262 4292710831
-2.3963304 824.12317 1303.5262 4291877887
-42.968807 830.33698 1302.2253 4289478513
-40.58165 830.33698 1302.2253 4289939064
-38.194496 830.33698 1302.2253 4289941897
-34.613762 830.33698 1302.2253 4293766860
-4.774312 830.33698 1302.2253 4291416574
-42.968807 832.16199 1303.7642 4289477498
-40.58165 832.16199 1303.7642 4289543291
-2.387156 832.16199 1303.7642 4291877366
-47.596329 839.6543 1304.8494 4288365179
-42.836697 838.74463 1304.0823 4289416828
-40.456882 838.74463 1304.0823 4290140038
-28.557798 837.8349 1303.3153 4293512669
-2.3798165 837.8349 1303.3153 4291351035
1.1899083 839.6543 1304.8494 4290890236
4.7596331 839.6543 1304.8494 4291153407
7.1394496 839.6543 1304.8494 4291350527
-49.783485 845.80078 1303.4917 4287448954
-46.227524 845.80078 1303.4917 4288892291
-42.671558 845.80078 1303.4917 4289286018
-40.300919 845.80078 1303.4917 4290404242
-4.7412844 845.80078 1303.4917 4291087359
-2.3706422 845.80078 1303.4917 4291021567
-43.687157 851.91919 1302.1105 4289287306
-40.144955 851.91919 1302.1105 4290865568
-37.783485 851.91919 1302.1105 4290604719
-34.241287 851.91919 1302.1105 4290078115
-14.168807 851.91919 1302.1105 4290889204
-7.0844035 851.91919 1302.1105 4290956025
-4.7229357 851.91919 1302.1105 4290430201
-47.229359 853.72449 1303.6327 4288236158
-43.687157 853.72449 1303.6327 4289288079
-40.144955 853.72449 1303.6327 4290800552
-16.530275 853.72449 1303.6327 4291477438
-14.168807 853.72449 1303.6327 4291020533
-10.626606 853.72449 1303.6327 4291021817
-7.0844035 853.72449 1303.6327 4290759416
-4.7229357 853.72449 1303.6327 4290759164
-2.3614678 853.72449 1303.6327 4290759164
-39.988991 859.80786 1302.2218 4291131567
-4.704587 859.80786 1302.2218 4290824955
-2.3522935 859.80786 1302.2218 4290824955
-43.517433 861.6062 1303.7382 4289618327
-39.988991 861.6062 1303.7382 4291000495
-2.3522935 861.6062 1303.7382 4290824955
-43.347706 869.44574 1303.8081 4290144921
-39.833027 867.65442 1302.2977 4290803114
-39.708256 874.97284 1303.2363 4290476202
-37.372478 874.97284 1303.2363 4289558182
-18.686239 874.97284 1303.2363 4287727782
-16.350458 874.97284 1303.2363 4291017432
-14.014679 874.97284 1303.2363 4291085565
-4.6715598 874.97284 1303.2363 4290891004
-2.3357799 874.97284 1303.2363 4290891004
-42.044037 876.75854 1304.7419 4290081957
-39.708256 876.75854 1304.7419 4290279337
-18.686239 876.75854 1304.7419 4288454288
-16.350458 876.75854 1304.7419 4290230699
-14.014679 876.75854 1304.7419 4289969910
-4.6715598 876.75854 1304.7419 4290825468
-2.3357799 876.75854 1304.7419 4290891518
-40.327827 883.92523 1304.2446 4289952936
-37.225689 883.62878 1303.9946 4290148263
-34.899082 883.62878 1303.9946 4290608814
-31.021408 883.33234 1303.7446 4290743747
-27.919266 882.73938 1303.2448 4289370511
-25.592661 882.73938 1303.2448 4288647045
-23.266054 882.73938 1303.2448 4288056700
-20.939449 882.73938 1303.2448 4290688419
-16.286238 882.73938 1303.2448 4290493346
-4.6532111 883.62878 1303.9946 4290824442
-2.3266056 883.62878 1303.9946 4290824443
-37.078899 890.46399 1303.2178 4290284469
-34.761467 890.46399 1303.2178 4291600073
-32.444038 890.46399 1303.2178 4291010518
-16.222019 890.46399 1303.2178 4291285172
-13.904587 890.46399 1303.2178 4290956266
-9.2697248 890.46399 1303.2178 4290956543
-6.9522934 890.46399 1303.2178 4290824959
-4.6348624 890.46399 1303.2178 4290955773
-2.3174312 890.46399 1303.2178 4291021566
-39.396332 892.23566 1304.7117 4290417073
-37.078899 892.23566 1304.7117 4290549954
-9.2697248 892.23566 1304.7117 4291087871
-6.9522934 892.23566 1304.7117 4290824703
-4.6348624 892.23566 1304.7117 4291021566
-2.3174312 892.23566 1304.7117 4291219199
-36.961468 895.90692 1302.575 4290878151
-34.651375 895.90692 1302.575 4290351807
-31.186239 895.90692 1302.575 4288446107
-16.170643 895.90692 1302.575 4290163416
-10.395412 895.90692 1302.575 4291350268
-4.6201835 895.90692 1302.575 4291086847
-40.426605 897.67303 1304.0641 4289892535
-36.961468 897.67303 1304.0641 4290812108
-34.651375 897.67303 1304.0641 4289298869
-6.9302754 897.67303 1304.0641 4290890495
-4.6201835 897.67303 1304.0641 4290889982
-2.3100917 897.67303 1304.0641 4290955775
-43.71743 905.31757 1303.9696 4290611129
-40.266056 904.43799 1303.228 4290218168
-36.814678 904.43799 1303.228 4288899237
-34.51376 903.55847 1302.4865 4287323028
-32.212845 903.55847 1302.4865 4286407548
-6.9027524 903.55847 1302.4865 4290694399
-4.6018348 904.43799 1303.228 4290825215
-2.3009174 903.55847 1302.4865 4290891263
-43.543118 911.16803 1302.3624 4290148534
-41.251377 911.16803 1302.3624 4289819260
-37.813759 911.16803 1302.3624 4288763260
-34.376148 911.16803 1302.3624 4288299654
-32.084404 911.16803 1302.3624 4287646597
-29.79266 911.16803 1302.3624 4292844500
-43.543118 912.92004 1303.8397 4288700304
-41.251377 912.92004 1303.8397 4288958600
-37.813759 912.92004 1303.8397 4288892037
-34.376148 912.92004 1303.8397 4288891523
-32.084404 912.92004 1303.8397 4287384444
1.1458715 912.92004 1303.8397 4290496506
-43.403671 920.01965 1304.5938 4285557379
-41.119267 919.14648 1303.8574 4286145691
-37.692657 919.14642 1303.8574 4287000228
-34.266056 919.14648 1303.8574 4286604700
-31.981651 919.14648 1303.8574 4286994820
-28.555046 919.14642 1303.8574 4285944964
-25.128441 919.14648 1303.8574 4290289878
-22.844036 919.14648 1303.8574 4291678971
-19.417431 919.14648 1303.8574 4290561514
4.5688071 920.01965 1304.5938 4291021567
6.8532109 920.01965 1304.5938 4290758397
-43.229359 925.80273 1302.9298 4285099667
-40.954128 925.80273 1302.9298 4285229985
-38.678898 925.80273 1302.9298 4284769434
-31.85321 925.80273 1302.9298 4284247665
-28.440367 925.80273 1302.9298 4285760417
-25.027523 925.80273 1302.9298 4283588504
-22.752293 925.80273 1302.9298 4283523733
-19.339451 925.80273 1302.9298 4290956538
-15.926605 925.80273 1302.9298 4291941119
-13.651376 925.80273 1302.9298 4290825209
0 925.80273 1302.9298 4288521160
4.5504589 925.80273 1302.9298 4284378009
6.8256879 925.80273 1302.9298 4283391113
-45.504585 927.54224 1304.3965 4281547876
-43.229359 927.54224 1304.3965 4285561506
-25.027523 927.54224 1304.3965 4283851933
-22.752293 927.54224 1304.3965 4281289335
-19.339451 927.54224 1304.3965 4286812105
1.1376147 927.54224 1304.3965 4283849102
-45.3578 932.83643 1303.6283 4281222245
-43.089909 931.96954 1302.8973 4284839066
-40.822018 931.96954 1302.8973 4286152342
-37.420181 931.10266 1302.1664 4288323271
-34.018349 931.10266 1302.1664 4287599565
-31.750458 931.10266 1302.1664 4287140309
-28.348625 931.10266 1302.1664 4286219975
-24.946789 932.83643 1303.6283 4287931608
-22.6789 932.83643 1303.6283 4287736532
-19.277065 931.96954 1302.8973 4283920806
-15.875229 931.10266 1302.1664 4290496228
-13.60734 931.10266 1302.1664 4290691822
-10.205505 931.10266 1302.1664 4286876863
-2.26789 931.10266 1302.1664 4283783310
1.133945 932.83643 1303.6283 4285029497
4.53578 931.10266 1302.1664 4284963702
6.8036699 931.10266 1302.1664 4285161337
-42.950459 938.10822 1302.8412 4285952387
-40.689907 938.10822 1302.8412 4287658627
-37.299084 938.10822 1302.8412 4287725443
-33.908257 938.10822 1302.8412 4287529343
-31.647707 938.10822 1302.8412 4286349211
-29.387156 938.10822 1302.8412 4287072678
-22.605505 938.10822 1302.8412 4284908216
-19.21468 938.10822 1302.8412 4287737062
-15.823853 938.10822 1302.8412 4287210721
-13.563303 938.10822 1302.8412 4288718298
-42.950459 939.83643 1304.2983 4284903060
-40.689907 939.83643 1304.2983 4285822072
-37.299084 939.83643 1304.2983 4285822580
-18.084404 939.83643 1304.2983 4288916960
-13.563303 939.83643 1304.2983 4289113569
-37.147705 946.38757 1303.282 4285826751
-38.148624 952.461 1303.1709 4292405503
-35.904587 952.461 1303.1709 4292668927
-37.992661 959.7998 1302.8186 4290956287
-35.757797 959.7998 1302.8186 4291614463
-37.992661 961.50836 1304.2592 4289311214
-35.757797 961.50836 1304.2592 4289246445
-4.4697247 961.50836 1304.2592 4284438641
-2.2348623 961.50836 1304.2592 4284438641
-28.957798 968.36523 1304.8086 4288456659
1.2412844 754.47314 1306.2765 4292862719
4.9651375 754.47314 1306.2765 4292534271
-58.340366 756.37109 1307.8767 4287511919
4.9651375 756.37109 1307.8767 4292929279
7.4477062 756.37109 1307.8767 4292797951
-54.374313 763.42023 1305.9723 4288229232
-51.902752 763.42023 1305.9723 4288426355
0 763.42023 1305.9723 4292534271
4.943119 763.42023 1305.9723 4292797951
7.4146791 763.42023 1305.9723 4292797951
9.8862381 763.42023 1305.9723 4292797951
-55.610092 765.30975 1307.5654 4287574631
-55.403671 771.77887 1306.4799 4287778684
-56.423855 778.21985 1305.3706 4287315317
-53.970642 778.21985 1305.3706 4286986856
0 778.21985 1305.3706 4292534271
-63.783485 780.09534 1306.952 4286265688
-61.330276 780.09534 1306.952 4286265688
-58.877064 780.09534 1306.952 4286857069
1.2266055 780.09534 1306.952 4292600063
4.9064221 780.09534 1306.952 4292600063
7.359633 780.09534 1306.952 4292600063
-56.212845 787.43555 1306.6008 4287317119
-52.546791 787.43555 1306.6008 4287838583
1.2220184 787.43549 1306.6008 4292535039
4.8880734 786.50128 1305.8131 4292666111
-51.132111 794.74066 1306.2202 4289086840
-48.697247 794.74066 1306.2202 4289350789
-46.262386 794.74066 1306.2202 4290074768
-43.827522 794.74066 1306.2202 4290467205
0 794.74066 1306.2202 4292140543
-56.001835 796.60217 1307.7898 4286986606
-52.349541 796.60217 1307.7898 4288101996
-48.697247 796.60217 1307.7898 4289153416
1.2174312 796.60217 1307.7898 4292140799
-49.688992 803.46051 1305.7245 4288299126
1.2119266 803.46051 1305.7245 4292207103
2.4238532 805.3136 1307.2869 4292337919
4.8477063 805.3136 1307.2869 4292272895
-50.708256 811.61151 1306.057 4288038261
1.2073394 811.61151 1306.057 4292075263
4.8293576 811.61151 1306.057 4292141055
7.2440367 811.61151 1306.057 4292207103
-55.537613 813.45758 1307.6135 4286991206
-53.122936 813.45758 1307.6135 4287907695
1.2073394 813.45758 1307.6135 4292075263
4.8293576 813.45758 1307.6135 4292403711
7.2440367 813.45758 1307.6135 4292667135
-55.326607 821.55945 1307.9047 4287452034
-52.921101 820.63989 1307.1294 4287842950
-50.515594 819.7204 1306.354 4287842697
1.2027524 821.55945 1307.9047 4291614463
-52.719265 826.87122 1305.8433 4287647617
-50.322937 826.87122 1305.8433 4287121272
-46.728439 826.87122 1305.8433 4288759158
-40.737614 825.9552 1305.0709 4290267768
-2.3963304 826.87122 1305.8433 4291811327
-46.549541 833.987 1305.303 4288888959
-42.968807 833.987 1305.303 4289478002
-40.58165 833.987 1305.303 4289806711
1.193578 833.987 1305.303 4291153407
4.774312 833.987 1305.303 4291350527
7.161468 833.987 1305.303 4291548159
-50.130276 835.81201 1306.8418 4287317868
-46.549541 835.81201 1306.8418 4288890760
1.193578 835.81201 1306.8418 4291087359
4.774312 835.81201 1306.8418 4291219199
7.161468 835.81201 1306.8418 4291745535
-49.976147 841.47369 1306.3834 4287579007
-46.406422 841.47369 1306.3834 4288761219
1.1899083 841.47369 1306.3834 4291087613
4.7596331 841.47369 1306.3834 4291153919
7.1394496 841.47369 1306.3834 4291219711
9.5192661 841.47369 1306.3834 4291154431
-52.355965 843.29309 1307.9175 4287777919
1.1899083 843.29309 1307.9175 4291087614
4.7596331 843.29309 1307.9175 4291153919
7.1394496 843.29309 1307.9175 4291219711
9.5192661 843.29309 1307.9175 4291023359
-49.783485 847.61316 1305.0199 4287647614
-46.227524 847.61316 1305.0199 4288761732
-42.671558 847.61316 1305.0199 4289286020
-40.300919 847.61316 1305.0199 4290733466
-4.7412844 847.61316 1305.0199 4291021566
-2.3706422 847.61316 1305.0199 4290955773
-54.524769 849.42554 1306.5481 4287387776
-52.154129 849.42554 1306.5481 4287910788
-49.783485 849.42554 1306.5481 4287713409
-47.412846 849.42554 1306.5481 4288498816
-9.4825687 849.42554 1306.5481 4291153405
-2.3706422 849.42554 1306.5481 4290758910
-49.590824 856.43256 1305.916 4287450488
-47.229359 856.43256 1305.916 4288038524
-43.687157 856.43256 1305.916 4289552021
-40.144955 855.52991 1305.1549 4291131565
-4.7229357 855.52991 1305.1549 4290694139
-2.3614678 855.52991 1305.1549 4290694139
-43.517433 863.40454 1305.2545 4289947033
-47.045872 865.20288 1306.7708 4288498299
-43.517433 865.20288 1306.7708 4290209947
0 865.20288 1306.7708 4290825720
-42.176147 871.23706 1305.3186 4290147237
-43.347706 873.02844 1306.829 4290344360
-42.044037 878.54431 1306.2477 4290214827
-39.708256 878.54431 1306.2477 4290017447
-2.3357799 878.54431 1306.2477 4290890751
-43.211929 880.33002 1307.7534 4290216107
0 880.33002 1307.7534 4290692858
-40.715595 886.29688 1306.2443 4289822631
-4.6532111 886.29688 1306.2443 4290891004
-2.3266056 886.29688 1306.2443 4290891004
-40.715595 888.07556 1307.744 4289823396
-46.348625 895.77905 1307.6993 4287848593
-44.031193 894.89319 1306.9524 4290151091
-40.555046 894.00739 1306.2054 4289957805
-6.9522934 894.00739 1306.2054 4290824703
-2.3174312 894.00739 1306.2054 4291678719
-43.891743 899.43909 1305.5532 4290151092
-41.58165 899.43909 1305.5532 4290022074
-4.6201835 899.43909 1305.5532 4291087359
-46.201836 901.2052 1307.0424 4288111765
-43.891743 901.2052 1307.0424 4290282934
-48.319267 908.83569 1306.936 4288305796
-46.018349 908.83569 1306.936 4288766881
-43.71743 907.07666 1305.4529 4289821620
-41.416515 907.07666 1305.4529 4289887145
1.1504587 908.83569 1306.936 4290759164
-45.834862 914.67212 1305.317 4287257724
-43.543118 914.67212 1305.317 4287981446
-41.251377 914.67212 1305.317 4287714956
-36.667889 914.67212 1305.317 4287713409
1.1458715 914.67212 1305.317 4290693369
4.5834861 914.67212 1305.317 4290758903
6.8752294 914.67212 1305.317 4291219454
-45.834862 916.42419 1306.7943 4286014332
-43.543118 916.42419 1306.7943 4286145918
1.1458715 916.42419 1306.7943 4290627580
4.5834861 916.42419 1306.7943 4290889467
6.8752294 916.42419 1306.7943 4291218431
9.1669722 916.42419 1306.7943 4291087864
-45.688072 923.51257 1307.5389 4283257463
-43.403671 921.76611 1306.0664 4284837004
-22.844036 921.76611 1306.0664 4285171916
1.5229357 922.34833 1306.5573 4288324818
-45.504585 929.28162 1305.8632 4281613671
-25.027523 929.28162 1305.8632 4284180905
-22.752293 929.28162 1305.8632 4283394446
-18.201836 929.28162 1305.8632 4286417062
1.1376147 929.28162 1305.8632 4284570745
-47.779816 931.02106 1307.3298 4282072927
-45.3578 934.57031 1305.0902 4282533476
-43.089909 934.57031 1305.0902 4284836231
-46.491745 936.30408 1306.5521 4282401372
-42.950459 941.56458 1305.7556 4285101464
-40.689907 941.56458 1305.7556 4283986835
-45.21101 943.29285 1307.2128 4285103015
-42.950459 943.29285 1307.2128 4285168808
-40.689907 943.29285 1307.2128 4283919788
-40.524769 950.69055 1306.9102 4291484415
-47.124771 955.89215 1306.064 4288655587
-44.880733 955.89215 1306.064 4288591089
-40.392662 955.89215 1306.064 4289576189
-47.124771 957.60773 1307.5105 4288852208
-44.880733 957.60773 1307.5105 4288786665
-40.392662 957.60773 1307.5105 4289903351
-44.697247 964.07123 1306.4202 4289180387
-40.227524 964.07123 1306.4202 4289048798
-37.992661 964.07123 1306.4202 4289048798
-35.012844 964.35596 1306.6603 4288720345
-31.288073 964.92554 1307.1404 4288522706
-29.053211 964.07123 1306.4202 4289838559
-26.073395 964.35596 1306.6602 4289640674
-22.348623 964.92554 1307.1404 4289114092
-20.113762 964.92554 1307.1404 4290363902
-16.38899 964.35596 1306.6602 4291545843
-13.409174 964.07123 1306.4202 4289836008
-11.174312 964.07123 1306.4202 4284045968
-7.8220181 964.07117 1306.42 4283847025
-4.4697247 964.07123 1306.4202 4283913587
-2.2348623 964.07123 1306.4202 4283979380
-58.340366 758.26904 1309.4771 4287310175
7.4477062 758.26904 1309.4771 4292929279
-56.845871 767.19928 1309.1587 4286788973
-59.317432 769.08881 1310.7518 4287318138
-55.403671 773.66138 1308.0671 4288041082
-64.022018 775.54388 1309.6545 4286528095
-61.559631 775.54388 1309.6545 4286725217
-59.097248 775.54388 1309.6545 4287052402
-61.330276 781.97083 1308.5333 4287715446
-58.877064 781.97083 1308.5333 4287981714
2.4532111 781.97083 1308.5333 4292666367
4.9064221 781.97083 1308.5333 4292468223
7.359633 781.97083 1308.5333 4292600063
-61.330276 783.84631 1310.1147 4288043392
-58.877064 783.84631 1310.1147 4288306578
-61.100918 790.23828 1308.9641 4286263912
-56.212845 790.23828 1308.9641 4286656358
-53.768806 790.23828 1308.9641 4287573615
2.4440367 790.23828 1308.9641 4292140799
4.8880734 790.23828 1308.9641 4292206591
-64.766968 792.10675 1310.5396 4285935717
-61.100918 792.10675 1310.5396 4286591332
-58.656879 792.10675 1310.5396 4286787676
-56.212845 792.10675 1310.5396 4286853725
-53.768806 792.10675 1310.5396 4287705187
2.4440367 792.10675 1310.5396 4292206591
4.8880734 792.10675 1310.5396 4292337919
-58.436699 800.32507 1310.9288 4288306589
-56.001835 799.39435 1310.144 4287453069
-52.755352 799.08417 1309.8824 4287580019
2.4348624 798.46362 1309.3594 4292207103
4.8697248 799.39435 1310.144 4292600575
-63.020184 809.01965 1310.4117 4286265436
-58.172478 809.01965 1310.4117 4286198369
-55.748623 808.09314 1309.6306 4286987375
-53.324772 808.09314 1309.6306 4287577201
4.8477063 807.16663 1308.8494 4292338943
7.2715597 807.16663 1308.8494 4292470271
-62.781651 815.30359 1309.17 4286202985
-57.952293 815.30359 1309.17 4287057782
-55.537613 815.30359 1309.17 4287123575
1.2073394 815.30359 1309.17 4292141823
4.8293576 815.30359 1309.17 4292601087
7.2440367 815.30359 1309.17 4292601087
-62.781651 817.14966 1310.7266 4286334323
-57.952293 817.14966 1310.7266 4287188598
-55.537613 817.14966 1310.7266 4287254391
1.2073394 817.14966 1310.7266 4292666879
4.8293576 817.14966 1310.7266 4291484415
7.2440367 817.14966 1310.7266 4290694911
-62.543118 823.39844 1309.4553 4286334584
-57.732109 823.39844 1309.4553 4286991483
-55.326607 823.39844 1309.4553 4287583876
1.2027524 823.39844 1309.4553 4291285757
4.8110094 823.39844 1309.4553 4289381104
7.2165136 823.39844 1309.4553 4281223029
-52.719265 829.61926 1308.1604 4288107400
-50.322937 829.61926 1308.1604 4287383933
-46.728439 829.61926 1308.1604 4288891012
0 829.61926 1308.1604 4291811069
-52.719265 831.45123 1309.7051 4287910788
-50.322937 831.45123 1309.7051 4287187065
-54.904587 839.46198 1309.9193 4286593908
-52.517429 838.54944 1309.1499 4287446648
-50.130276 837.63696 1308.3806 4287840378
-45.355965 837.63696 1308.3806 4289352074
10.742202 838.54944 1309.1499 4291088127
-54.735779 845.11249 1309.4515 4288109700
-52.355965 845.11249 1309.4515 4288108165
1.1899083 845.11249 1309.4515 4291021567
4.7596331 845.11249 1309.4515 4291153407
7.1394496 845.11249 1309.4515 4291613951
9.5192661 845.11249 1309.4515 4291350783
-57.115597 846.93188 1310.9856 4286993019
1.1899083 846.93188 1310.9856 4291021566
4.7596331 846.93188 1310.9856 4291284477
7.1394496 846.93188 1310.9856 4291416063
10.709174 846.93188 1310.9856 4291087098
-54.524769 851.23792 1308.0762 4287320698
-52.154129 851.23792 1308.0762 4287845247
-49.783485 851.23792 1308.0762 4287647612
1.1853211 851.23792 1308.0762 4291021566
-54.524769 853.05029 1309.6044 4287189630
-52.154129 853.05029 1309.6044 4287713407
1.1853211 853.05029 1309.6044 4290824187
-51.952293 860.94598 1309.7217 4287252345
-49.590824 860.04333 1308.9606 4287449721
-47.229359 860.04333 1308.9606 4288104570
0.78715593 860.34424 1309.2142 4290693625
-49.398167 867.90039 1309.0453 4287648128
-47.045872 867.90039 1309.0453 4288368255
-44.693577 868.79956 1309.8035 4290407843
0 867.90039 1309.0453 4290496759
-44.519264 874.8197 1308.3394 4290278820
0 874.8197 1308.3394 4290957311
-46.862385 876.61108 1309.8499 4288307080
-44.519264 876.61108 1309.8499 4290412455
0 876.61108 1309.8499 4290891004
-46.715595 883.90143 1310.7646 4288505240
-44.379818 883.00854 1310.0118 4290084269
0.7785933 883.30615 1310.2628 4290825983
4.6715598 883.90143 1310.7646 4290365951
-46.532108 889.85425 1309.2438 4288505499
-44.205505 889.85425 1309.2438 4290216374
-41.878899 889.85425 1309.2438 4289693093
-48.858715 891.63293 1310.7435 4287911038
-46.532108 891.63293 1310.7435 4288111765
-49.824768 898.43665 1309.9401 4286988914
-46.348625 897.55078 1309.1931 4287914386
1.5449542 898.73193 1310.1891 4291022591
-48.511925 902.97125 1308.5315 4288106886
-46.201836 902.97125 1308.5315 4288242581
1.1550459 902.97125 1308.5315 4291022591
-49.666969 904.73737 1310.0205 4287054964
-46.201836 904.73737 1310.0205 4288505503
1.1550459 904.73737 1310.0205 4290955775
4.6201835 904.73737 1310.0205 4290497271
-49.469727 910.59479 1308.4192 4286859365
-46.018349 910.59479 1308.4192 4288371339
4.6018348 910.59479 1308.4192 4290365944
6.9027524 910.59479 1308.4192 4290694652
-49.469727 912.35388 1309.9025 4285679723
-45.834862 919.05231 1309.0103 4284242808
1.1458715 918.17627 1308.2716 4291218430
-47.972477 925.25903 1309.0115 4282465635
-50.256882 927.00549 1310.484 4282467429
-47.972477 927.00549 1310.484 4281743963
-47.779816 932.7605 1308.7964 4282074472
1.1376147 932.7605 1308.7964 4285029499
4.5504589 932.7605 1308.7964 4284766330
-50.055046 934.49994 1310.2631 4281285210
-46.491745 938.0379 1308.014 4282205542
-46.869724 940.34967 1309.9633 4285035149
-45.21101 946.74927 1310.1271 4281553021
-42.950459 945.88513 1309.3984 4281948556
-40.689907 945.88513 1309.3984 4283525032
-45.027523 952.41174 1308.3615 4290035455
-40.524769 952.41174 1308.3615 4291876863
-42.776146 954.13293 1309.8126 4289314811
-43.758713 959.3233 1308.957 4289114344
-40.392662 959.3233 1308.957 4288982505
-49.368809 961.03894 1310.4036 4289049314
-47.124771 961.03894 1310.4036 4289049314
-42.636696 961.03894 1310.4036 4289048800
0 961.03894 1310.4036 4284175724
-67.045868 968.34265 1310.0217 4289114846
-37.992661 966.63409 1308.5811 4288917723
-34.640366 967.48834 1309.3014 4288982754
-31.288073 967.4884 1309.3014 4288851418
-29.053211 968.34265 1310.0217 4288983005
-25.700916 966.63409 1308.5811 4288325323
-22.348623 966.63409 1308.5811 4288063439
-20.113762 966.63409 1308.5811 4289247456
-16.761467 966.63409 1308.5811 4291680246
-11.174312 966.63409 1308.5811 4284571558
-7.8220181 966.63409 1308.5811 4283716465
-4.4697247 966.63409 1308.5811 4283978615
-2.2348623 966.63409 1308.5811 4283978615
-58.340366 760.16699 1311.0774 4287244652
-59.58165 762.06494 1312.6776 4287117163
-59.317432 770.97833 1312.3451 4287777667
-61.330276 785.7218 1311.6962 4286527593
-58.877064 785.7218 1311.6962 4287051127
-58.877064 787.59735 1313.2775 4286656358
-68.433029 793.97522 1312.115 4286070633
-64.766968 793.97522 1312.115 4285871965
-61.100918 793.97522 1312.115 4285936469
-58.656879 793.97522 1312.115 4286394469
4.8880734 793.97522 1312.115 4292337919
-68.433029 795.84375 1313.6904 4286072943
-64.766968 795.84375 1313.6904 4285676389
-61.100918 795.84375 1313.6904 4287451005
-58.656879 795.84375 1313.6904 4287323017
-64.523857 802.18652 1312.4984 4285938027
-60.871559 802.18652 1312.4984 4286659692
-58.436699 802.18652 1312.4984 4286987901
-56.001835 802.18652 1312.4984 4286659192
-53.566971 802.18652 1312.4984 4287246182
-64.636086 811.49048 1312.495 4285545827
-60.596329 811.79932 1312.7554 4286860140
-58.172478 810.87274 1311.9742 4286991206
-61.57431 818.99573 1312.2831 4286598008
-57.952293 818.99573 1312.2831 4286991483
4.8293576 818.99573 1312.2831 4288397311
7.2440367 818.99573 1312.2831 4281883812
-65.196327 820.84174 1313.8396 4285942390
-60.366974 820.84174 1313.8396 4286532220
-61.741283 826.46344 1312.0397 4286270075
-57.732109 826.15698 1311.7812 4286794621
-55.326607 826.15698 1311.7812 4287649930
1.6036698 825.85052 1311.5228 4291614463
4.8110094 826.15698 1311.7812 4291680255
7.2165136 826.15698 1311.7812 4291483132
-55.115597 833.28326 1311.2498 4287845258
-52.719265 833.28326 1311.2498 4287976054
-62.304588 835.1153 1312.7944 4286201449
-58.710091 835.1153 1312.7944 4286528878
-55.115597 835.1153 1312.7944 4287119223
-64.453209 841.28699 1311.4581 4285679211
-62.066055 841.28699 1311.4581 4286267498
-58.485321 841.28699 1311.4581 4286859636
-54.904587 841.28699 1311.4581 4287188346
11.93578 841.28699 1311.4581 4290957567
-66.84037 843.112 1312.9969 4286073713
-64.453209 843.112 1312.9969 4286073713
-62.066055 843.112 1312.9969 4286532722
-58.485321 843.112 1312.9969 4287057783
11.93578 843.112 1312.9969 4291153405
-66.634865 848.75128 1312.5198 4286074226
-64.255043 848.75128 1312.5198 4286074226
-61.875229 848.75128 1312.5198 4286270840
-58.305504 848.75128 1312.5198 4286861690
4.7596331 848.75128 1312.5198 4291087614
7.1394496 848.75128 1312.5198 4291153407
9.5192661 848.75128 1312.5198 4291021566
-55.710091 854.86267 1311.1324 4287057278
-52.154129 854.86267 1311.1324 4287713657
1.1853211 854.86267 1311.1324 4290692858
-55.710091 856.67505 1312.6606 4287055479
-52.154129 856.67505 1312.6606 4287515512
2.3706422 856.67505 1312.6606 4290495993
-51.952293 862.75134 1311.2439 4287055734
-49.590824 862.75134 1311.2439 4287384698
2.3614678 862.75134 1311.2439 4290694391
-54.313763 864.5567 1312.7661 4286794872
-51.952293 864.5567 1312.7661 4287318653
2.3614678 864.5567 1312.7661 4290891000
-49.398167 871.49707 1312.0779 4287385465
-47.045872 871.49707 1312.0779 4288370825
-46.862385 878.4024 1311.3602 4288505490
2.3431194 878.4024 1311.3602 4290955773
4.6862388 878.4024 1311.3602 4290889978
-49.205505 880.19373 1312.8706 4287847044
-46.862385 880.19373 1312.8706 4288505490
2.3431194 880.19373 1312.8706 4290957311
4.6862388 880.19373 1312.8706 4290693631
-49.051376 887.4729 1313.776 4288436612
-46.715595 885.68719 1312.2704 4288571548
-44.379818 885.68719 1312.2704 4290084787
1.16789 886.58008 1313.0232 4291088637
4.6715598 886.58008 1313.0232 4290760703
-51.185322 893.41168 1312.2434 4286265448
-48.858715 893.41168 1312.2434 4287976065
1.1633028 893.41168 1312.2434 4290889980
4.6532111 893.41168 1312.2434 4290562299
-53.511925 895.19043 1313.7432 4286135404
0 895.19043 1313.7432 4290956543
4.6532111 895.19043 1313.7432 4290891263
6.9798164 895.19043 1313.7432 4290891263
9.3064222 895.19043 1313.7432 4291023615
-53.300919 902.86584 1313.6747 4285545572
-50.983486 901.09418 1312.1809 4286001510
4.6348624 901.09418 1312.1809 4290694389
6.9522934 902.86584 1313.6747 4290826493
10.814679 902.27533 1313.1768 4290826493
13.904587 901.97998 1312.9277 4290562559
-53.132111 907.38647 1312.2542 4285481062
-50.822018 906.50342 1311.5096 4286003041
4.6201835 906.50342 1311.5096 4290694139
-49.469727 914.11292 1311.3856 4285420914
-52.921101 915.87201 1312.8689 4284043134
-49.469727 915.87201 1312.8689 4284306806
-52.710091 923.43243 1312.7035 4282663779
-49.654434 922.2644 1311.7186 4282795628
-50.256882 928.75195 1311.9565 4282665065
-50.256882 930.49841 1313.4292 4282206058
-52.330276 937.97876 1313.1964 4284444040
-50.055046 937.10907 1312.4631 4283456629
-46.869724 943.81732 1312.8871 4281287027
-46.718044 949.05353 1312.0699 4289181406
-42.950459 949.34155 1312.3129 4291483647
-42.776146 955.85413 1311.2639 4289444851
-49.530273 957.57532 1312.7152 4289181415
-47.2789 957.57532 1312.7152 4288984037
-49.368809 962.75452 1311.8501 4288918246
-47.124771 962.75452 1311.8501 4288984039
-42.636696 962.75452 1311.8501 4289115107
0 962.75452 1311.8501 4284175724
-49.368809 964.47009 1313.2966 4289180648
-47.124771 964.47009 1313.2966 4289114855
-43.758713 964.47009 1313.2966 4288982753
-40.392662 964.47009 1313.2966 4288786394
-13.46422 964.47009 1313.2966 4291479807
-62.293579 757.45593 1315.3315 4286393956
-62.293579 759.36084 1316.9377 4286858091
-59.58165 763.96289 1314.278 4286986608
-62.06422 765.86084 1315.8783 4287122038
-64.022018 781.19141 1314.4164 4286464359
-64.022018 783.07397 1316.0037 4286067042
-68.433029 797.71222 1315.2659 4286400879
-64.766968 797.71222 1315.2659 4286137196
-61.100918 797.71222 1315.2659 4287978632
-70.877068 799.58069 1316.8413 4286662004
-68.433029 799.58069 1316.8413 4286400379
-64.929665 804.66852 1314.5912 4286003316
-60.871559 804.97876 1314.8528 4286199395
-58.436699 804.04803 1314.068 4286394215
-65.444038 814.57886 1315.0991 4285942127
-60.596329 814.57886 1315.0991 4286860667
-65.444038 816.43188 1316.6616 4286073717
-65.196327 823.61078 1316.1746 4285876854
-60.366974 822.68774 1315.3962 4286533244
-61.340366 829.83508 1314.8826 4286335096
-57.732109 829.83508 1314.8826 4286793597
-55.326607 828.91553 1314.1072 4287452297
-64.70092 836.94727 1314.3391 4285481324
-62.304588 836.94727 1314.3391 4286069350
-58.710091 836.94727 1314.3391 4286331757
-66.84037 844.93701 1314.5358 4285877617
-64.453209 844.93701 1314.5358 4285943410
-62.066055 844.93701 1314.5358 4286336633
-59.678898 844.93701 1314.5358 4286468219
-66.634865 850.57068 1314.0537 4285877365
-64.255043 850.57068 1314.0537 4285877365
-61.875229 850.57068 1314.0537 4286204533
-58.305504 850.57068 1314.0537 4286664313
4.7596331 850.57068 1314.0537 4290429947
7.1394496 850.57068 1314.0537 4290824703
9.5192661 850.57068 1314.0537 4290889980
-66.634865 852.39001 1315.5879 4285745527
-64.255043 852.39001 1315.5879 4285679734
-61.875229 852.39001 1315.5879 4285941364
-59.495415 852.39001 1315.5879 4286204279
4.7596331 852.39001 1315.5879 4290627071
7.1394496 852.39001 1315.5879 4290956287
9.5192661 852.39001 1315.5879 4290758910
-59.266056 859.39355 1314.9529 4286136693
-55.710091 859.39355 1314.9529 4286727798
4.7412844 860.29974 1315.7169 4290759162
-54.313763 866.36206 1314.2883 4286861947
-51.952293 866.36206 1314.2883 4287385209
2.3614678 866.36206 1314.2883 4290628861
-54.313763 868.16742 1315.8105 4287059579
-51.952293 868.16742 1315.8105 4287385207
0 868.16742 1315.8105 4290891263
-51.750458 875.99298 1315.8687 4286991996
-49.398167 875.09381 1315.1106 4287781514
-49.205505 881.98505 1314.381 4288241541
-51.548622 883.77643 1315.8915 4286465130
-49.205505 883.77643 1315.8915 4288504456
7.0293579 883.77643 1315.8915 4290826239
-52.555046 889.25861 1315.2817 4286397805
1.16789 889.25861 1315.2817 4291351035
4.6715598 889.25861 1315.2817 4290826239
7.0073395 889.25861 1315.2817 4290826239
-56.058716 891.04437 1316.7874 4285936233
-53.722935 891.04437 1316.7874 4286528113
7.0073395 891.04437 1316.7874 4290957055
9.3431196 891.04437 1316.7874 4291023359
-53.511925 896.96912 1315.2429 4285872740
4.6532111 896.96912 1315.2429 4290760700
6.9798164 896.96912 1315.2429 4290760700
10.469725 896.96912 1315.2429 4290694399
-53.511925 898.7478 1316.7427 4286134891
6.9798164 898.7478 1316.7427 4290891768
9.3064222 898.7478 1316.7427 4290826493
6.9522934 904.63757 1315.1686 4291023103
10.42844 904.63757 1315.1686 4290694139
-55.618347 906.40924 1316.6624 4285283679
10.42844 906.40924 1316.6624 4290694655
-53.132111 910.91864 1315.2324 4284697454
-52.921101 917.63104 1314.3521 4282268773
-49.469727 917.63104 1314.3521 4282730608
-55.222019 919.39014 1315.8352 4282137437
-52.921101 919.39014 1315.8352 4282137437
-55.001835 926.06049 1314.9194 4282334563
-52.710091 926.06049 1314.9194 4282795371
-52.541283 932.24481 1314.9017 4282204764
-54.825687 933.99127 1316.3743 4282336867
-52.541283 933.99127 1316.3743 4282599783
-52.330276 940.58795 1315.3962 4283849086
-50.055046 940.58795 1315.3962 4283520372
-49.893578 946.70703 1315.3236 4286747322
-52.161469 948.4408 1316.7855 4288783291
-49.893578 948.4408 1316.7855 4288785872
-51.992661 953.66211 1315.9558 4288588499
-49.732109 952.79797 1315.2273 4288260578
-51.781651 959.29651 1314.1665 4289181152
2.2513762 959.29651 1314.1665 4284175724
-51.781651 961.0177 1315.6177 4288984287
2.2513762 961.0177 1315.6177 4284175724
4.5027523 961.0177 1315.6177 4284306279
-71.809174 967.90125 1316.1897 4289114846
-67.321098 967.90125 1316.1897 4288982751
-49.368809 966.18567 1314.7432 4289245158
-43.758713 966.18567 1314.7432 4288981983
-40.392662 967.04346 1315.4664 4288983260
-38.148624 967.04346 1315.4664 4288983003
-34.78257 967.90125 1316.1897 4288983017
-25.806423 966.18567 1314.7432 4288917467
-22.440367 966.18567 1314.7432 4288260309
-20.196331 966.18567 1314.7432 4287931600
-16.830275 966.18567 1314.7432 4289050606
-13.46422 966.18567 1314.7432 4291019775
-11.220183 966.18567 1314.7432 4285230254
-7.8541284 966.18567 1314.7432 4283125615
-4.4880733 966.18567 1314.7432 4283649130
-2.2440367 966.18567 1314.7432 4283780716
20.196331 967.90125 1316.1897 4283780438
-62.293579 761.26581 1318.5439 4286858854
-64.546791 767.75873 1317.4785 4286989938
-62.06422 767.75873 1317.4785 4287384696
-64.260551 776.64697 1317.1246 4286333793
-66.484406 784.95642 1317.5909 4285675891
-64.022018 784.95642 1317.5909 4286198119
-70.877068 801.44922 1318.4169 4285941616
-68.433029 802.38342 1319.2046 4286135676
-68.176147 808.70172 1317.9918 4285678959
-67.867889 818.28497 1318.224 4286008183
-65.196327 826.37988 1318.5093 4286073463
-64.948624 832.59357 1317.2084 4285547117
-66.634865 854.20941 1317.1219 4285418098
-64.255043 854.20941 1317.1219 4285352305
-61.875229 854.20941 1317.1219 4286070383
-59.495415 854.20941 1317.1219 4286201970
4.7596331 854.20941 1317.1219 4290495995
7.1394496 854.20941 1317.1219 4290627324
9.5192661 854.20941 1317.1219 4290364921
-66.634865 856.02881 1318.656 4285548657
-64.255043 856.02881 1318.656 4285548657
-61.875229 856.02881 1318.656 4285743217
4.7596331 856.02881 1318.656 4290759164
7.1394496 856.02881 1318.656 4290759164
9.5192661 856.02881 1318.656 4290759164
-61.636696 863.01837 1318.0092 4285809525
-59.266056 863.01837 1318.0092 4286401662
-56.895412 863.01837 1318.0092 4286729592
4.7412844 863.01837 1318.0092 4291022585
7.1119266 862.11218 1317.2451 4291614207
9.4825687 863.01837 1318.0092 4291087357
-54.313763 869.97278 1317.3328 4286993532
-51.952293 869.97278 1317.3328 4287385980
-54.313763 871.77814 1318.8551 4286927739
-51.952293 871.77814 1318.8551 4287320196
2.3614678 871.77814 1318.8551 4290891004
-54.102753 877.79132 1317.385 4286861430
-51.750458 877.79132 1317.385 4286991735
7.056881 877.79132 1317.385 4290956799
-54.102753 879.58966 1318.9014 4286595957
-51.750458 879.58966 1318.9014 4286728045
7.056881 879.58966 1318.9014 4290760703
-56.234863 887.35907 1318.9122 4286068589
-51.548622 885.56775 1317.4019 4286265700
7.0293579 885.56775 1317.4019 4290826751
9.3724775 886.46338 1318.157 4290826495
-56.058716 892.83008 1318.2931 4285938282
11.678899 892.83008 1318.2931 4291023615
14.014679 892.83008 1318.2931 4290760447
16.350458 892.83008 1318.2931 4291089151
-60.730274 894.61578 1319.7987 4285085283
-56.058716 894.61578 1319.7987 4285938534
14.014679 894.61578 1319.7987 4290562303
16.350458 894.61578 1319.7987 4290891007
-55.838531 901.41589 1318.9923 4285414500
-55.618347 908.18097 1318.1562 4284892517
9.2697248 908.18097 1318.1562 4291416575
-55.618347 909.95264 1319.6501 4284633978
-55.442204 913.56775 1317.4662 4284437891
-55.442204 915.33386 1318.9552 4282334567
-58.289906 922.32184 1318.3073 4282400095
-55.222019 921.14917 1317.3185 4282400864
-57.293579 928.6886 1317.1354 4282466403
-55.001835 928.6886 1317.1354 4282598238
-52.710091 928.6886 1317.1354 4282729824
-58.439449 930.44067 1318.6127 4282466403
-55.001835 930.44067 1318.6127 4282533728
-57.110092 935.73773 1317.8468 4283849857
-54.825687 935.73773 1317.8468 4283654268
-57.110092 937.48413 1319.3193 4284309635
-54.825687 937.48413 1319.3193 4284375682
-56.880733 944.93652 1319.063 4285889174
-52.330276 944.06677 1318.3296 4284638097
-50.055046 943.19708 1317.5963 4280957552
-58.965137 950.17468 1318.2474 4287401139
-56.697247 950.17468 1318.2474 4287598774
-52.161469 950.17468 1318.2474 4288192708
-61.233028 951.90851 1319.7094 4287205813
-58.965137 951.90851 1319.7094 4287140297
-55.563301 951.90851 1319.7094 4287667147
-55.383484 955.39026 1317.4131 4289179865
-51.992661 955.39026 1317.4131 4289377498
-58.774311 957.11853 1318.8702 4289377248
-55.383484 957.11853 1318.8702 4289377761
4.521101 957.11853 1318.8702 4284502892
-54.033028 962.73889 1317.069 4289115359
-51.781651 962.73889 1317.069 4289246945
1.1256881 962.73889 1317.069 4284306279
4.5027523 962.73889 1317.069 4284306012
-55.158714 964.46008 1318.5203 4288983005
-51.781651 964.46008 1318.5203 4289048798
-47.2789 964.46008 1318.5203 4289113571
1.1256881 964.46008 1318.5203 4284239715
4.5027523 964.46008 1318.5203 4284501597
-74.29541 966.18127 1319.9716 4289049048
-69.792664 966.18127 1319.9716 4289048796
-58.535778 966.18127 1319.9716 4288917725
-55.158714 966.18127 1319.9716 4289048542
-51.781651 966.18127 1319.9716 4289113823
-49.530273 966.18127 1319.9716 4289113569
-46.153214 966.18127 1319.9716 4289047776
-42.776146 966.18127 1319.9716 4289508327
-31.519266 966.18127 1319.9716 4288916958
-28.1422 966.18127 1319.9716 4288983011
-24.765137 966.18127 1319.9716 4288719845
-22.513762 966.18127 1319.9716 4288456670
-19.136696 966.18127 1319.9716 4287931344
-15.759633 966.18127 1319.9716 4289840359
-13.508257 966.18127 1319.9716 4290494457
-10.131193 966.18127 1319.9716 4284704418
-6.7541285 966.18127 1319.9716 4283322509
-4.5027523 966.18127 1319.9716 4283781481
-2.2513762 966.18127 1319.9716 4283913067
18.011009 966.18127 1319.9716 4283648596
-70.687157 969.61682 1317.6362 4288851680
-70.877068 805.18616 1321.5677 4285941875
-68.176147 811.4939 1320.3462 4286007920
-70.611008 813.35541 1321.9156 4286073976
-68.176147 813.35541 1321.9156 4286073717
-65.196327 828.22589 1320.0658 4286073717
-66.634865 857.84821 1320.1901 4285547371
-64.255043 857.84821 1320.1901 4285481578
-61.875229 857.84821 1320.1901 4285938032
7.1394496 857.84821 1320.1901 4290891004
9.5192661 857.84821 1320.1901 4290955775
-64.255043 859.6676 1321.7241 4285547621
-64.007339 865.73688 1320.3014 4285943158
-61.636696 865.73688 1320.3014 4285877113
-59.266056 865.73688 1320.3014 4286403713
-56.895412 865.73688 1320.3014 4286927737
2.3706422 865.73688 1320.3014 4290825471
-61.636696 867.54926 1321.8295 4285548151
-59.266056 867.54926 1321.8295 4286271873
-56.895412 867.54926 1321.8295 4286927739
2.3706422 867.54926 1321.8295 4290891518
-55.888073 874.1853 1320.8848 4286729847
9.4458714 875.38885 1321.8995 4290957307
-54.102753 881.38806 1320.4177 4286595192
9.409174 881.38806 1320.4177 4290891516
-55.2789 883.1864 1321.934 4286200175
11.761468 883.1864 1321.934 4290760446
-58.57798 890.04608 1321.1779 4285609318
11.715596 889.15039 1320.4226 4290957567
14.058716 889.15039 1320.4226 4290694399
-60.730274 896.40149 1321.3044 4284953696
-56.058716 896.40149 1321.3044 4285806182
-60.730274 898.18726 1322.8101 4285217634
-58.394497 898.18726 1322.8101 4285349476
-58.165138 904.97327 1321.9918 4284957545
-57.93578 911.72437 1321.1439 4284438895
-60.253212 913.49603 1322.6378 4282465621
-57.93578 913.49603 1322.6378 4282399828
-57.752293 917.09991 1320.4443 4282596441
-60.062386 918.86603 1321.9335 4282530396
-62.124771 925.54688 1321.0265 4282203482
-59.056881 925.25372 1320.7793 4282335071
-61.877064 932.19275 1320.09 4282466655
-58.439449 932.19275 1320.09 4282138723
-61.877064 933.94476 1321.5673 4283125866
-59.58532 933.94476 1321.5673 4282994548
-63.963303 940.10382 1321.5283 4282796897
-58.252296 940.10376 1321.5283 4282401634
-54.825687 940.10382 1321.5283 4282401136
-59.155964 946.67596 1320.5295 4287205272
-55.743118 946.67596 1320.5295 4288060075
-54.605503 948.41541 1321.9962 4287666364
11.376146 948.41541 1321.9962 4284176226
13.651376 948.41541 1321.9962 4284240735
-61.233028 953.64233 1321.1713 4288851919
-58.965137 953.64233 1321.1713 4289113819
13.60734 953.64233 1321.1713 4284306529
15.875229 953.64233 1321.1713 4284306529
-61.233028 955.3761 1322.6332 4289377498
6.8036699 955.3761 1322.6332 4284437099
11.33945 955.3761 1322.6332 4284437095
13.60734 955.3761 1322.6332 4284306529
15.875229 955.3761 1322.6332 4284240735
-58.774311 958.84668 1320.3274 4288917212
-55.383484 958.84668 1320.3274 4289115104
-61.034863 960.57495 1321.7845 4289048798
-58.774311 960.57495 1321.7845 4289048798
-56.51376 960.57495 1321.7845 4289114592
6.7816515 960.57495 1321.7845 4284437599
9.042202 960.57495 1321.7845 4284437601
13.563303 960.57495 1321.7845 4284371822
-46.153214 967.90247 1321.4229 4289113569
-42.776146 967.90247 1321.4229 4289311203
-40.524769 967.90247 1321.4229 4289115359
-37.147705 967.90247 1321.4229 4288917728
-33.770641 967.90247 1321.4229 4288720610
-31.519266 967.90247 1321.4229 4288917210
-28.1422 967.90247 1321.4229 4288851166
-24.765137 967.90247 1321.4229 4288587744
-22.513762 967.90247 1321.4229 4288522200
-19.136696 967.90247 1321.4229 4288193744
-69.792664 969.62372 1322.874 4288983015
-67.541283 969.62372 1322.874 4288982753
-70.877068 807.05463 1323.1432 4285679986
-68.176147 817.07837 1325.0548 4285877367
-69.227524 857.71198 1325.3073 4285416814
-66.84037 857.71198 1325.3073 4285481828
-69.014679 863.3064 1324.7922 4285549679
-66.634865 862.39673 1324.0251 4285680240
-64.255043 861.487 1323.2582 4285680238
4.7596331 863.3064 1324.7922 4291022072
7.1394496 862.39673 1324.0251 4291153915
9.5192661 863.3064 1324.7922 4290956027
-61.636696 869.36163 1323.3577 4285548151
-59.266056 869.36163 1323.3577 4286206080
-56.895412 869.36163 1323.3577 4286861945
4.7412844 869.36163 1323.3577 4290759153
7.1119266 869.36163 1323.3577 4290956275
9.4825687 869.36163 1323.3577 4291022072
-64.007339 871.17401 1324.8859 4285483113
-61.636696 871.17401 1324.8859 4285481326
-59.266056 871.17401 1324.8859 4286336635
7.1119266 871.17401 1324.8859 4291153407
9.4825687 871.17401 1324.8859 4290957309
-59.036697 878.09692 1324.1829 4285742693
-56.675228 878.09692 1324.1829 4286069359
9.4458714 877.19421 1323.4218 4290891518
-58.807339 884.98474 1323.4503 4285674342
11.761468 884.98474 1323.4503 4290760446
14.113762 884.98474 1323.4503 4290759935
-64.688072 886.78308 1324.9667 4285020512
-61.159634 886.78308 1324.9667 4285674342
-58.57798 892.73303 1323.4435 4285480041
-58.57798 894.52441 1324.9539 4285217125
-60.730274 899.97296 1324.3158 4284757858
-58.394497 899.97296 1324.3158 4285415531
-60.730274 901.75867 1325.8214 4284560989
-60.491745 907.64136 1324.2415 4284174440
-58.165138 907.64136 1324.2415 4284569198
-60.491745 909.42004 1325.7412 4283978344
-61.411926 916.15356 1324.8785 4282464859
-62.372478 920.63214 1323.4226 4282596187
-64.42569 929.94458 1324.7345 4282400862
-62.124771 928.18549 1323.2512 4282269275
-64.168808 935.69684 1323.0446 4283322214
-61.877064 935.69684 1323.0446 4283519592
-59.58532 935.69684 1323.0446 4283388533
-61.877064 937.44885 1324.5219 4283124834
-61.877064 939.20093 1325.999 4281942873
-63.963303 942.72351 1323.7371 4282931305
-61.678898 942.72351 1323.7371 4283325807
-59.394497 942.72351 1323.7371 4284507521
-54.825687 942.72351 1323.7371 4286086051
11.376146 950.15479 1323.4629 4284372578
13.651376 950.15479 1323.4629 4284306529
6.8256879 951.89429 1324.9296 4284568937
10.238532 951.89429 1324.9296 4284503394
-63.500916 957.97681 1324.826 4289049053
-61.233028 957.10992 1324.0951 4289114844
6.8036699 957.10992 1324.0951 4284306279
10.583487 957.68781 1324.5824 4284437349
13.60734 957.10992 1324.0951 4284372076
15.875229 957.97681 1324.826 4284240491
18.14312 958.84375 1325.557 4284174440
-64.42569 962.3031 1323.2417 4288983262
-61.034863 962.3031 1323.2417 4289049314
-58.774311 962.3031 1323.2417 4289245921
6.7816515 962.3031 1323.2417 4284633183
9.042202 962.3031 1323.2417 4284305758
13.563303 962.3031 1323.2417 4284174440
15.823853 962.3031 1323.2417 4284174440
18.084404 962.3031 1323.2417 4284043356
-76.858719 964.03137 1324.699 4289114842
-64.42569 964.03137 1324.699 4288983007
-61.034863 964.03137 1324.699 4288983264
1.1302752 964.03137 1324.699 4283780965
4.521101 964.03137 1324.699 4283649893
6.7816515 964.03137 1324.699 4283518564
13.563303 964.03137 1324.699 4283649632
15.823853 964.03137 1324.699 4283649632
-67.541283 971.34491 1324.3253 4288719579
-68.176147 818.93982 1326.6244 4286073463
-68.176147 820.80127 1328.1938 4286073463
-69.227524 859.53699 1326.8461 4285418098
-69.014679 865.12573 1326.3263 4285352818
-66.634865 866.03546 1327.0933 4285417582
-64.255043 866.03546 1327.0933 4285549168
4.7596331 865.12573 1326.3263 4291022072
7.1394496 865.12573 1326.3263 4291087866
9.5192661 865.12573 1326.3263 4290889978
-66.377983 872.98639 1326.4139 4285285980
-64.007339 872.98639 1326.4139 4285417566
-61.636696 872.98639 1326.4139 4285679211
-59.266056 872.98639 1326.4139 4286271092
11.853211 872.98639 1326.4139 4290891514
-66.377983 874.79877 1327.9421 4285087583
-64.007339 874.79877 1327.9421 4285351012
-61.636696 874.79877 1327.9421 4285744232
11.853211 874.79877 1327.9421 4290891518
-59.036697 880.80493 1326.4663 4285740898
-63.759632 882.61029 1327.9885 4285151582
-61.398167 882.61029 1327.9885 4285608549
-64.296021 889.78027 1327.4938 4284823646
-61.159634 888.58142 1326.4829 4285281635
-63.264221 898.10706 1327.9746 4284495964
-63.066055 905.33014 1328.8328 4284042600
-60.730274 903.54443 1327.3271 4283972448
-62.818348 912.97748 1328.7407 4282596191
-64.42569 931.70361 1326.2177 4282731108
-61.877064 942.70508 1328.9536 4285560970
6.8752294 942.70508 1328.9536 4284503405
-61.678898 946.21643 1326.6821 4286612377
6.8532109 947.0896 1327.4185 4284503910
9.1376143 947.0896 1327.4185 4284307298
9.1009178 953.63367 1326.3961 4284371301
10.583488 961.73346 1327.9935 4283846495
-81.379814 965.75952 1326.1561 4288983516
-79.119263 965.75952 1326.1561 4288786394
-76.858719 965.75952 1326.1561 4288720347
-74.598167 965.75952 1326.1561 4288720347
-67.816513 965.75952 1326.1561 4288982751
-64.42569 965.75952 1326.1561 4289049057
-61.034863 965.75952 1326.1561 4289049314
-58.774311 965.75952 1326.1561 4288194266
-55.383484 965.75952 1326.1561 4288983009
-51.992661 965.75952 1326.1561 4289245408
-49.732109 965.75952 1326.1561 4289113058
-15.823853 965.75952 1326.1561 4289707748
-13.563303 965.75952 1326.1561 4290165503
-10.172478 965.75952 1326.1561 4286085802
-6.7816515 965.75952 1326.1561 4286282642
-4.521101 965.75952 1326.1561 4285952916
-2.2605505 965.75952 1326.1561 4286216088
2.2605505 965.75952 1326.1561 4285690762
4.521101 965.75952 1326.1561 4285102472
6.7816515 965.75952 1326.1561 4284905093
9.042202 965.75952 1326.1561 4284378247
13.563303 965.75952 1326.1561 4284307577
15.823853 965.75952 1326.1561 4283847026
19.21468 965.75952 1326.1561 4284108386
-72.337616 967.48779 1327.6133 4288917221
