# .PCD v0.7 - Point Cloud Data file format
VERSION 0.7
FIELDS x y z rgb
SIZE 4 4 4 4
TYPE F F F U
COUNT 1 1 1 1
WIDTH 1160
HEIGHT 1
VIEWPOINT 0 0 0 1 0 0 0
POINTS 1160
DATA ascii
-31.033028 830.33698 1302.2253 4290133114
-2.387156 830.33698 1302.2253 4291415807
-38.194496 832.16199 1303.7642 4289874305
-34.613762 832.16199 1303.7642 4289939327
-38.077065 839.6543 1304.8494 4288952688
-34.507339 838.74463 1304.0823 4289545080
-30.937614 837.8349 1303.3153 4289412209
0.7932722 839.04785 1304.338 4291154431
4.7596331 839.6543 1304.8494 4291220991
-34.374313 845.80078 1303.4917 4289348982
-30.818348 845.80078 1303.4917 4289347699
-28.447706 845.80078 1303.4917 4290197364
1.1853211 845.80078 1303.4917 4291221247
-33.060551 851.91919 1302.1105 4289345651
-30.699083 851.91919 1302.1105 4289871995
-28.337614 851.91919 1302.1105 4290199926
-34.241287 853.72449 1303.6327 4288565130
-32.93211 859.80786 1302.2218 4290544334
-28.227524 859.80786 1302.2218 4289681055
-4.704587 859.80786 1302.2218 4291416063
-2.3522935 859.80786 1302.2218 4290889719
0 861.6062 1303.7382 4291021055
-31.632111 869.44574 1303.8081 4286593384
-28.117432 868.55005 1303.053 4288494193
-25.774311 868.55005 1303.053 4292968117
-22.259632 868.55011 1303.053 4291657909
-18.744955 867.65442 1302.2977 4290666133
-2.3431194 867.65442 1302.2977 4291020024
0.78103977 868.84863 1303.3047 4290692602
-37.372478 874.97284 1303.2363 4287331679
-32.700916 874.97284 1303.2363 4288316015
-28.029358 874.97284 1303.2363 4288167030
-25.693579 874.97284 1303.2363 4289482890
-22.189907 874.97284 1303.2363 4290332821
-18.686239 874.97284 1303.2363 4290660493
-16.350458 874.97284 1303.2363 4290989458
-14.014679 874.97284 1303.2363 4290533000
-4.6715598 874.97284 1303.2363 4290757629
0 874.97284 1303.2363 4290561269
-39.708256 876.75854 1304.7419 4287004250
-37.372478 876.75854 1304.7419 4286147923
-31.533028 876.75854 1304.7419 4287263077
-28.029358 876.75854 1304.7419 4288495450
-25.693579 876.75854 1304.7419 4289745774
-22.189907 876.75854 1304.7419 4290727565
-18.686239 876.75854 1304.7419 4291058333
-4.6715598 876.75854 1304.7419 4290626813
-2.3357799 876.75854 1304.7419 4290692606
1.16789 876.75854 1304.7419 4290429947
-31.409174 884.51813 1304.7445 4287918429
-27.919266 883.62878 1303.9946 4288035944
-25.592661 883.62878 1303.9946 4289351804
-23.266054 882.73938 1303.2448 4290070651
-19.38838 883.33234 1303.7446 4290994074
-16.286238 882.73938 1303.2448 4292836800
-4.6532111 883.62878 1303.9946 4290889469
-2.3266056 883.62878 1303.9946 4290823420
-27.809174 890.46399 1303.2178 4288757859
-25.491743 890.46399 1303.2178 4289481582
-18.53945 890.46399 1303.2178 4290797726
0 890.46399 1303.2178 4290627061
-31.285322 892.23566 1304.7117 4288563306
1.1587156 892.23566 1304.7117 4290561015
-27.721102 895.90692 1302.575 4289084528
-25.411009 895.90692 1302.575 4289676408
-23.100918 895.90692 1302.575 4289872258
-18.480734 895.90692 1302.575 4290665856
-9.2403669 895.90692 1302.575 4288641707
-6.9302754 895.90692 1302.575 4292326115
-4.6201835 895.90692 1302.575 4291152121
-2.3100917 895.90692 1302.575 4290823413
-30.031193 897.67303 1304.0641 4288626028
-27.721102 897.67303 1304.0641 4289017964
-25.411009 897.67303 1304.0641 4289675895
-23.100918 897.67303 1304.0641 4289676410
-6.9302754 897.67303 1304.0641 4292259556
-4.6201835 897.67303 1304.0641 4290888954
-2.3100917 897.67303 1304.0641 4290559732
-36.814678 905.31757 1303.9696 4289565369
-34.51376 905.31757 1303.9696 4284828272
-32.212845 905.31757 1303.9696 4287571550
-28.761467 904.43805 1303.228 4288885612
-25.310091 903.55847 1302.4865 4289937016
-23.009174 903.55847 1302.4865 4289675895
-19.557798 903.55847 1302.4865 4289938554
-6.9027524 903.55847 1302.4865 4293043930
-4.6018348 904.43799 1303.228 4291085556
-2.3009174 903.55847 1302.4865 4290691059
-32.084404 911.16803 1302.3624 4287639896
-28.64679 911.16803 1302.3624 4289085550
-25.209175 911.16803 1302.3624 4288886635
-22.917431 911.16803 1302.3624 4289279354
-18.333944 911.16803 1302.3624 4289741186
-16.042202 911.16803 1302.3624 4290464909
-4.5834861 911.16803 1302.3624 4291020274
-2.291743 911.16803 1302.3624 4290822638
-36.667889 912.92004 1303.8397 4287392948
-34.376148 912.92004 1303.8397 4285484951
-32.084404 912.92004 1303.8397 4287970660
-28.64679 912.92004 1303.8397 4288627052
-22.917431 912.92004 1303.8397 4289413239
-18.333944 912.92004 1303.8397 4289741690
-28.555046 919.14648 1303.8574 4286798223
-25.128441 919.14648 1303.8574 4287058573
-22.844036 918.27325 1303.1212 4288956022
-19.417431 918.27325 1303.1212 4289415541
0 920.01965 1304.5938 4284109431
-28.440367 925.80273 1302.9298 4285030240
-25.027523 925.80273 1302.9298 4286939243
-22.752293 925.80273 1302.9298 4288253356
-19.339451 925.80273 1302.9298 4288843951
-10.238532 925.80273 1302.9298 4286926981
-31.85321 927.54224 1304.3965 4285818752
-29.577982 927.54224 1304.3965 4284568685
1.1376147 927.54224 1304.3965 4285421175
-27.970642 932.25848 1303.141 4286146432
-24.946789 931.10266 1302.1664 4283910771
-9.0715599 931.10266 1302.1664 4287594929
-6.8036699 931.10266 1302.1664 4284962952
-4.53578 931.96954 1302.8973 4284633456
-2.26789 931.96954 1302.8973 4285028214
-29.387156 938.10822 1302.8412 4287594908
-9.042202 938.10822 1302.8412 4283979417
-6.7816515 938.10822 1302.8412 4284439968
-4.521101 938.10822 1302.8412 4284832627
-2.2605505 938.10822 1302.8412 4284700784
-33.908257 939.83643 1304.2983 4284112259
-31.647707 939.83643 1304.2983 4285819785
-29.387156 939.83643 1304.2983 4286543252
-4.521101 939.83643 1304.2983 4285030249
-2.2605505 939.83643 1304.2983 4284569698
-33.770641 945.52698 1302.5563 4286282914
-31.519266 945.52698 1302.5563 4285559205
-11.256881 945.52698 1302.5563 4282074000
-6.7541285 945.52698 1302.5563 4283913069
-35.904587 952.461 1303.1709 4284184991
-16.830275 952.461 1303.1709 4283980984
-13.46422 952.461 1303.1709 4287268776
-11.220183 952.461 1303.1709 4287137190
-7.8541284 952.461 1303.1709 4283851915
20.196331 952.461 1303.1709 4284108386
22.440367 952.461 1303.1709 4284108636
-38.148624 954.17657 1304.6174 4286483389
-4.4880733 954.17657 1304.6174 4283912297
-2.2440367 954.17657 1304.6174 4284241519
17.952293 954.17657 1304.6174 4284108134
20.196331 954.17657 1304.6174 4284108134
22.440367 954.17657 1304.6174 4284042843
-40.227524 959.7998 1302.8186 4289311955
-37.992661 959.7998 1302.8186 4289640919
-11.174312 959.7998 1302.8186 4279976919
-4.4697247 959.7998 1302.8186 4284439645
-2.2348623 959.7998 1302.8186 4283913301
20.113762 959.7998 1302.8186 4284108386
22.348623 959.7998 1302.8186 4283976800
-42.462387 961.50836 1304.2592 4288916695
-40.227524 961.50836 1304.2592 4289049050
-37.992661 961.50836 1304.2592 4289049050
-11.174312 961.50836 1304.2592 4292800255
-4.4697247 961.50836 1304.2592 4283193178
-2.2348623 961.50836 1304.2592 4283193178
22.348623 961.50836 1304.2592 4283976800
-46.777981 966.66229 1303.3727 4288656089
-33.412846 966.66229 1303.3727 4288720347
-6.682569 966.66229 1303.3727 4289837019
-49.651375 754.47314 1306.2765 4283576159
-47.168808 754.47314 1306.2765 4283641952
-49.651375 756.37109 1307.8767 4283118688
9.930275 756.37109 1307.8767 4293192959
-46.959633 763.42023 1305.9723 4283121768
-43.252296 763.42023 1305.9723 4283776881
1.2357798 763.42023 1305.9723 4293257983
4.943119 763.42023 1305.9723 4293126911
7.4146791 763.42023 1305.9723 4293192703
-46.959633 765.30975 1307.5654 4283318632
-43.252296 765.30975 1307.5654 4283451248
7.4146791 765.30975 1307.5654 4292929279
9.8862381 765.30975 1307.5654 4292797951
-44.322937 771.77887 1306.4799 4282790239
-41.86055 771.77887 1306.4799 4284106099
2.4623854 771.77887 1306.4799 4292930047
4.9247708 771.77887 1306.4799 4292600575
7.387156 771.77887 1306.4799 4292798207
-41.704586 778.21985 1305.3706 4283323258
1.2266055 778.21985 1305.3706 4293060863
4.9064221 778.21985 1305.3706 4292864255
-41.704586 780.09534 1306.952 4285295263
1.2266055 780.09534 1306.952 4293126655
4.9064221 780.09534 1306.952 4293192703
-43.992661 788.36975 1307.3887 4288652757
-41.548622 786.50128 1305.8131 4291281919
1.6293578 787.12408 1306.3383 4292403455
4.8880734 787.43555 1306.6008 4292535295
7.3321099 787.43555 1306.6008 4292666879
9.7761469 788.36975 1307.3887 4292271615
13.442202 788.36975 1307.3887 4292271359
17.108257 787.43555 1306.6008 4292732415
19.552294 787.43555 1306.6008 4292404479
-43.827522 794.74066 1306.2202 4284971695
-41.392662 794.74066 1306.2202 4284116386
-38.957798 794.74066 1306.2202 4285490091
1.2174312 794.74066 1306.2202 4291877887
4.8697248 794.74066 1306.2202 4292008447
7.3045874 794.74066 1306.2202 4292205567
14.609175 794.74066 1306.2202 4291812095
17.044037 794.74066 1306.2202 4292075007
-43.827522 796.60217 1307.7898 4288515008
-41.392662 796.60217 1307.7898 4287857079
2.4348624 796.60217 1307.7898 4292140543
4.8697248 796.60217 1307.7898 4292140543
7.3045874 796.60217 1307.7898 4292140543
14.609175 796.60217 1307.7898 4292008959
17.044037 796.60217 1307.7898 4292206335
-43.629356 803.46051 1305.7245 4288898437
-41.205505 803.46051 1305.7245 4288766851
2.4238532 803.46051 1305.7245 4292075007
4.8477063 803.46051 1305.7245 4292074751
7.2715597 803.46051 1305.7245 4291745791
14.543119 803.46051 1305.7245 4291746047
16.966972 803.46051 1305.7245 4291746047
-43.629356 805.3136 1307.2869 4288630402
4.8477063 805.3136 1307.2869 4291549439
7.2715597 805.3136 1307.2869 4291549439
12.119267 805.3136 1307.2869 4291680255
-43.464222 811.61151 1306.057 4288694914
-41.049541 811.61151 1306.057 4289418381
4.8293576 811.61151 1306.057 4290957567
7.2440367 811.61151 1306.057 4291418111
9.6587152 811.61151 1306.057 4291615231
13.280734 811.61151 1306.057 4291483647
16.902752 811.61151 1306.057 4291549439
-43.464222 813.45758 1307.6135 4288891775
7.2440367 813.45758 1307.6135 4291614463
9.6587152 813.45758 1307.6135 4291549183
13.280734 813.45758 1307.6135 4291614975
16.902752 813.45758 1307.6135 4292141055
19.31743 813.45758 1307.6135 4292074751
-45.704586 820.63989 1307.1294 4288566147
-43.299084 820.63989 1307.1294 4289221248
-40.893578 820.63989 1307.1294 4289813128
1.2027524 820.63995 1307.1294 4291088895
4.8110094 820.63989 1307.1294 4291548159
7.2165136 820.63989 1307.1294 4291811327
9.6220188 820.63989 1307.1294 4291417087
13.230275 820.63995 1307.1294 4290038014
16.838531 820.63989 1307.1294 4285698006
-43.133945 827.78723 1306.6156 4289024379
-40.737614 826.87122 1305.8433 4289419645
-38.341286 826.87122 1305.8433 4290136959
-34.746788 825.9552 1305.0709 4290464897
-31.152294 825.9552 1305.0709 4289937016
1.1981652 826.87122 1305.8433 4291219454
-38.194496 833.987 1305.303 4289348729
-35.807339 833.987 1305.303 4289348729
1.193578 833.987 1305.303 4291416575
-40.58165 835.81201 1306.8418 4289284996
-38.194496 835.81201 1306.8418 4289348729
2.387156 835.81201 1306.8418 4291351551
4.774312 835.81201 1306.8418 4291351551
7.161468 835.81201 1306.8418 4291351551
-38.077065 841.47369 1306.3834 4288952951
-35.697247 841.47369 1306.3834 4289479295
2.3798165 841.47369 1306.3834 4291286525
4.7596331 841.47369 1306.3834 4291154687
7.1394496 841.47369 1306.3834 4291417855
9.5192661 841.47369 1306.3834 4291286271
-38.077065 843.29309 1307.9175 4288823920
4.7596331 843.29309 1307.9175 4290891263
7.1394496 843.29309 1307.9175 4291088639
9.5192661 843.29309 1307.9175 4291350783
-34.374313 847.61316 1305.0199 4289149811
-28.447706 847.61316 1305.0199 4290199420
1.1853211 847.61316 1305.0199 4291548666
4.7412844 847.61316 1305.0199 4290891007
-37.930275 849.42554 1306.5481 4289083774
-35.559631 849.42554 1306.5481 4289083774
1.1853211 849.42554 1306.5481 4291086332
4.7412844 849.42554 1306.5481 4290430461
7.1119266 849.42554 1306.5481 4291022847
-37.783485 855.52991 1305.1549 4290092748
-35.42202 856.43256 1305.916 4290353100
-30.699083 857.33521 1306.6772 4289820612
1.1807339 857.33521 1306.6772 4291021820
1.1761467 863.40454 1305.2545 4291020799
-37.636696 865.20288 1306.7708 4287379286
-31.755962 865.20288 1306.7708 4288755061
2.3522935 865.20288 1306.7708 4290823420
4.704587 865.20288 1306.7708 4290627065
7.056881 865.20288 1306.7708 4290627065
-39.833027 871.23706 1305.3186 4286673765
-37.48991 871.23706 1305.3186 4286803066
-31.632111 871.23706 1305.3186 4286472305
-28.117432 871.23706 1305.3186 4287574371
-25.774311 871.23706 1305.3186 4290074248
-23.431192 871.23706 1305.3186 4290662822
1.1715597 871.23706 1305.3186 4290561015
4.6862388 871.23706 1305.3186 4290692856
-42.176147 873.02844 1306.829 4287398225
-39.833027 873.02844 1306.829 4287530067
-35.14679 873.02844 1306.829 4287858024
-30.46055 873.02844 1306.829 4285947467
2.3431194 873.02844 1306.829 4290692856
4.6862388 873.02844 1306.829 4290693108
-39.708256 878.54431 1306.2477 4287397725
-37.372478 878.54431 1306.2477 4287462755
-35.036697 878.54431 1306.2477 4287528548
-31.533028 878.54431 1306.2477 4287394393
-25.693579 878.54431 1306.2477 4289615480
-2.3357799 878.54431 1306.2477 4291021055
-39.708256 880.33002 1307.7534 4288910203
-37.372478 880.33002 1307.7534 4288910957
-35.036697 880.33002 1307.7534 4289108079
-31.533028 880.33002 1307.7534 4287263606
1.16789 880.33002 1307.7534 4290626811
-37.225689 886.29688 1306.2443 4286926914
-34.899082 886.29688 1306.2443 4287519307
-31.409174 886.29688 1306.2443 4287452008
1.1633028 886.29688 1306.2443 4290693367
-37.225689 888.07556 1307.744 4286725987
-34.899082 888.07556 1307.744 4287120745
-31.409174 888.07556 1307.744 4287842404
2.3266056 888.07556 1307.744 4290890232
4.6532111 888.07556 1307.744 4290430713
-34.761467 894.89319 1306.9524 4286990449
-31.67156 894.5979 1306.7035 4288495465
1.1587156 894.89319 1306.9524 4290298100
4.6348624 895.77905 1307.6993 4290298100
-36.961468 899.43909 1305.5532 4287785085
-34.651375 899.43909 1305.5532 4285877088
-31.186239 899.43909 1305.5532 4288361586
-18.480734 899.43909 1305.5532 4290203006
-6.9302754 899.43909 1305.5532 4292652516
-4.6201835 899.43909 1305.5532 4291151610
1.1550459 899.43909 1305.5532 4290494961
-39.271561 901.2052 1307.0424 4287924684
-36.961468 901.2052 1307.0424 4289170350
-34.651375 901.2052 1307.0424 4285025391
-32.341286 901.2052 1307.0424 4287834206
1.1550459 901.2052 1307.0424 4290757615
4.6201835 901.2052 1307.0424 4290561008
6.9302754 901.2052 1307.0424 4290626801
-39.115597 908.83569 1306.936 4288714909
-36.814678 907.95618 1306.1945 4289762754
-34.51376 907.95618 1306.1945 4285091452
-32.212845 907.07666 1305.4529 4287573085
-29.911926 907.07666 1305.4529 4288823152
-4.6018348 907.07666 1305.4529 4290954227
1.1504587 908.83569 1306.936 4290890483
-36.667889 914.67212 1305.317 4286209662
-34.376148 914.67212 1305.317 4284828009
-32.084404 914.67212 1305.317 4286661487
-29.79266 914.67212 1305.317 4286924658
0 914.67212 1305.317 4290954477
-37.813759 916.42419 1306.7943 4284899991
-34.376148 916.42419 1306.7943 4285161099
-32.084404 916.42419 1306.7943 4286470029
1.1458715 916.42419 1306.7943 4286215332
-34.266056 923.51257 1307.5389 4285028986
-31.981651 923.51257 1307.5389 4284897650
-28.555046 921.76611 1306.0664 4286016912
-25.128441 921.76611 1306.0664 4286478481
-22.844036 921.76611 1306.0664 4288447917
1.1422018 922.63934 1306.8027 4284896377
28.555046 923.51257 1307.5389 4284634730
31.981651 923.51257 1307.5389 4284569450
-31.85321 929.28162 1305.8632 4286408838
-29.577982 929.28162 1305.8632 4285882494
1.1376147 929.28162 1305.8632 4284831602
-31.85321 931.02106 1307.3298 4287065993
1.1376147 931.02106 1307.3298 4284634993
-31.750458 934.57031 1305.0902 4286803068
-29.482569 934.57031 1305.0902 4287921550
-2.26789 934.57031 1305.0902 4284634991
0 934.57031 1305.0902 4284765809
-34.018349 936.30408 1306.5521 4284966536
-31.750458 936.30408 1306.5521 4286476684
1.133945 936.30408 1306.5521 4284568685
-33.908257 941.56458 1305.7556 4283060854
-4.521101 941.56458 1305.7556 4284634991
-2.2605505 941.56458 1305.7556 4284503405
-4.521101 943.29285 1307.2128 4284503405
-2.2605505 943.29285 1307.2128 4284503405
-37.147705 949.82996 1306.1846 4283393663
-4.5027523 950.69055 1306.9102 4283649382
-2.2513762 950.69055 1306.9102 4284175726
19.136696 949.82996 1306.1846 4284239715
-44.880733 955.89215 1306.064 4287733706
-40.392662 955.89215 1306.064 4288457172
1.1220183 955.89215 1306.064 4284109933
17.952293 955.89215 1306.064 4284108386
-44.880733 957.60773 1307.5105 4288719313
1.1220183 957.60773 1307.5105 4284371826
4.4880733 957.60773 1307.5105 4284240233
8.9761467 957.60773 1307.5105 4284240485
11.220183 957.60773 1307.5105 4284306279
16.830275 957.60773 1307.5105 4284306018
-51.401836 963.21692 1305.6998 4289311453
-49.166973 964.07123 1306.4202 4288852697
-43.20734 964.35596 1306.6603 4288917724
-40.227524 964.07123 1306.4202 4288983260
-37.992661 964.07123 1306.4202 4288983260
-35.757797 964.92554 1307.1404 4288983518
-31.288073 964.07123 1306.4202 4288851166
-29.053211 964.07123 1306.4202 4288982752
-26.073395 964.35596 1306.6602 4288786130
-22.348623 964.92554 1307.1404 4288194266
-20.113762 964.92554 1307.1404 4288325852
-16.761467 964.07117 1306.4202 4291678968
-13.409174 964.07123 1306.4202 4292272382
-11.174312 964.07123 1306.4202 4293325311
-8.9394493 964.92554 1307.1404 4293521151
-4.4697247 964.92554 1307.1404 4288452023
-2.2348623 964.92554 1307.1404 4283517291
0 963.21692 1305.6998 4283845978
20.113762 964.07123 1306.4202 4283977048
22.348623 964.07123 1306.4202 4283977053
24.583487 963.21692 1305.6998 4284042593
-49.651375 758.26904 1309.4771 4282924641
9.930275 758.26904 1309.4771 4293061631
12.412844 758.26904 1309.4771 4293193215
-46.959633 767.19928 1309.1587 4282597736
-44.488075 767.19928 1309.1587 4283252087
9.8862381 767.19928 1309.1587 4292995071
12.357799 767.19928 1309.1587 4293258495
-46.959633 769.08881 1310.7518 4282597753
9.8862381 769.08881 1310.7518 4293061119
12.357799 769.08881 1310.7518 4293126911
-44.322937 773.66138 1308.0671 4282663779
-41.86055 773.66138 1308.0671 4282663779
2.4623854 773.66138 1308.0671 4293390079
4.9247708 773.66138 1308.0671 4292995071
7.387156 773.66138 1308.0671 4292929279
-44.322937 775.54388 1309.6545 4284573325
7.387156 775.54388 1309.6545 4293061375
13.543119 775.54388 1309.6545 4292863487
17.236698 775.54388 1309.6545 4292732159
-44.157799 781.97083 1308.5333 4287335625
4.9064221 781.97083 1308.5333 4292666111
7.359633 781.97083 1308.5333 4293060863
13.492661 781.97083 1308.5333 4292666879
17.172478 781.97083 1308.5333 4292863999
19.625689 781.97083 1308.5333 4292272895
-44.157799 783.84631 1310.1147 4289110758
9.8128443 783.84631 1310.1147 4292600575
13.492661 783.84631 1310.1147 4292666623
-48.880733 790.23828 1308.9641 4285690775
-46.436699 790.23828 1308.9641 4286546084
4.8880734 790.23828 1308.9641 4292403967
7.3321099 790.23828 1308.9641 4292469759
9.7761469 790.23828 1308.9641 4292337407
13.442202 790.23828 1308.9641 4292271871
-48.880733 792.10675 1310.5396 4285759662
-46.436699 792.10675 1310.5396 4285759662
9.7761469 792.10675 1310.5396 4292074751
12.220183 792.10675 1310.5396 4292074751
-48.697247 800.32507 1310.9288 4288177792
-46.262386 799.39435 1310.144 4288640155
-43.827522 798.46362 1309.3594 4289363117
7.3045874 798.46362 1309.3594 4292008959
9.7394495 799.39435 1310.144 4291680255
13.391743 799.39435 1310.144 4291746303
17.044037 798.46362 1309.3594 4291746047
-49.688992 809.01965 1310.4117 4287778431
-46.053211 808.09314 1309.6306 4288171906
-43.629356 807.16663 1308.8494 4288892555
7.2715597 807.16663 1308.8494 4291614463
9.6954126 807.16663 1308.8494 4291549439
12.119267 807.16663 1308.8494 4291549439
-45.878899 815.30359 1309.17 4288630914
7.2440367 815.30359 1309.17 4291549439
9.6587152 815.30359 1309.17 4291024127
12.073395 815.30359 1309.17 4291287039
16.902752 815.30359 1309.17 4291745535
19.31743 815.30359 1309.17 4291021567
-55.537613 817.14966 1310.7266 4286466156
-53.122936 817.14966 1310.7266 4286727282
-49.500916 817.14966 1310.7266 4287448694
-45.704586 823.39844 1309.4553 4288831111
-43.299084 823.39844 1309.4553 4289354362
4.8110094 823.39844 1309.4553 4291350527
7.2165136 823.39844 1309.4553 4291548159
9.6220188 823.39844 1309.4553 4291351039
13.230275 823.39844 1309.4553 4289117177
16.838531 823.39844 1309.4553 4282606760
-43.133945 829.61926 1308.1604 4288958080
-40.737614 829.61926 1308.1604 4289155715
1.1981652 829.61926 1308.1604 4291876607
4.7926607 829.61926 1308.1604 4291876863
-45.530273 831.45123 1309.7051 4287713144
-43.133945 831.45123 1309.7051 4288497015
-40.737614 831.45123 1309.7051 4289023360
4.7926607 831.45123 1309.7051 4291548159
7.1889906 831.45123 1309.7051 4291482367
9.5853214 831.45123 1309.7051 4291351807
-45.355965 839.46198 1309.9193 4287580792
-42.968807 838.54944 1309.1499 4288364661
-40.58165 838.54944 1309.1499 4288430198
7.161468 837.63696 1308.3806 4291220991
10.742202 838.54944 1309.1499 4291023357
14.322936 839.46198 1309.9193 4290956799
16.710093 839.46198 1309.9193 4291285759
-42.836697 845.11249 1309.4515 4288166519
-38.077065 845.11249 1309.4515 4288624492
7.1394496 845.11249 1309.4515 4291022847
10.709174 845.11249 1309.4515 4291153919
14.278899 845.11249 1309.4515 4291087871
19.038532 845.11249 1309.4515 4291350527
-42.836697 846.93188 1310.9856 4287969638
-40.456882 846.93188 1310.9856 4288101480
10.709174 846.93188 1310.9856 4291088895
14.278899 846.93188 1310.9856 4290957055
16.658716 846.93188 1310.9856 4291022847
19.038532 846.93188 1310.9856 4291153919
-37.930275 851.23792 1308.0762 4288699037
1.1853211 851.23792 1308.0762 4291152638
4.7412844 851.23792 1308.0762 4290824703
7.1119266 851.23792 1308.0762 4291219455
16.594496 851.23792 1308.0762 4291219199
-42.671558 853.05029 1309.6044 4287920548
-40.300919 853.05029 1309.6044 4289959874
1.1853211 853.05029 1309.6044 4290955774
4.7412844 853.05029 1309.6044 4290365690
7.1119266 853.05029 1309.6044 4290694654
16.594496 853.05029 1309.6044 4290955773
-42.50642 860.94598 1309.7217 4286792305
-40.144955 860.04333 1308.9606 4288372111
-37.783485 860.04333 1308.9606 4288700539
-35.42202 860.04333 1308.9606 4289490055
2.3614678 859.14062 1308.1995 4291021055
4.7229357 860.04333 1308.9606 4290889975
7.0844035 860.94598 1309.7217 4290955512
11.80734 860.94598 1309.7217 4290889978
14.168807 860.04333 1308.9606 4290824442
16.530275 860.94598 1309.7217 4291021820
-42.341286 867.90039 1309.0453 4285880665
-39.988991 867.00122 1308.2871 4285877338
-37.636696 867.00122 1308.2871 4286530932
-35.284405 867.90039 1309.0453 4286732920
4.704587 867.00122 1308.2871 4290627065
7.056881 867.90039 1309.0453 4290692857
9.409174 868.79956 1309.8035 4291021820
-42.176147 874.8197 1308.3394 4287399008
-35.14679 874.8197 1308.3394 4287332198
4.6862388 874.8197 1308.3394 4290693108
-43.347706 876.61108 1309.8499 4287463785
1.1715597 876.61108 1309.8499 4290626556
4.6862388 876.61108 1309.8499 4290429681
-42.044037 883.00854 1310.0118 4286998881
-39.708256 883.00854 1310.0118 4287788140
-37.372478 882.11572 1309.259 4289564501
-35.036697 882.11572 1309.259 4290025052
1.16789 882.11572 1309.259 4290693367
4.6715598 883.00854 1310.0118 4290298871
7.0073395 883.00854 1310.0118 4290627836
9.3431196 883.90143 1310.7646 4290495995
-39.552292 889.85425 1309.2438 4285745527
-37.225689 889.85425 1309.2438 4287578466
-34.899082 889.85425 1309.2438 4287907175
4.6532111 889.85425 1309.2438 4290102263
-39.552292 891.63293 1310.7435 4284628607
-37.225689 891.63293 1310.7435 4286527589
4.6532111 891.63293 1310.7435 4290430453
6.9798164 891.63293 1310.7435 4290627576
9.3064222 891.63293 1310.7435 4290430701
-44.031193 899.32251 1310.687 4283913069
-40.555046 898.43665 1309.9401 4286214057
4.6348624 897.55078 1309.1931 4290429427
6.9522934 897.55078 1309.1931 4290495476
10.428441 898.43665 1309.9401 4290495739
-40.426605 902.97125 1308.5315 4286019225
1.1550459 902.97125 1308.5315 4290561520
4.6201835 902.97125 1308.5315 4290693358
6.9302754 902.97125 1308.5315 4290759151
10.395412 902.97125 1308.5315 4291284979
-40.426605 904.73737 1310.0205 4285362546
1.1550459 904.73737 1310.0205 4290430960
4.6201835 904.73737 1310.0205 4290234353
6.9302754 904.73737 1310.0205 4290760698
10.395412 904.73737 1310.0205 4291153406
13.860551 904.73737 1310.0205 4289970412
-43.71743 910.59479 1308.4192 4286482858
-40.266056 910.59479 1308.4192 4287007403
1.1504587 910.59479 1308.4192 4290889967
4.6018348 910.59479 1308.4192 4289640419
-43.71743 912.35388 1309.9025 4288322511
-40.266056 912.35388 1309.9025 4287070911
2.3009174 912.35388 1309.9025 4290231010
4.6018348 912.35388 1309.9025 4289834948
-37.813759 919.05231 1309.0103 4285160582
-34.376148 919.05231 1309.0103 4286344345
-32.084404 919.05231 1309.0103 4286278039
2.291743 918.17627 1308.2716 4284241017
4.5834861 919.05231 1309.0103 4284634993
6.8752294 919.92834 1309.7489 4284700786
-34.266056 925.25903 1309.0115 4285622920
27.412844 925.25903 1309.0115 4284568937
-34.266056 927.00549 1310.484 4285885587
4.5688071 927.00549 1310.484 4284634993
-34.128441 932.7605 1308.7964 4285293717
2.2752295 932.7605 1308.7964 4284765809
4.5504589 932.7605 1308.7964 4284503151
-36.403671 934.49994 1310.2631 4283058539
4.5504589 934.49994 1310.2631 4284568685
6.8256879 934.49994 1310.2631 4284437099
-36.28624 938.0379 1308.014 4282533226
1.133945 938.0379 1308.014 4284502892
-37.042202 940.92767 1310.4506 4284507788
0.75596333 940.34967 1309.9633 4284503405
4.53578 939.77173 1309.476 4284503144
-40.689907 946.74927 1310.1271 4281550693
-37.675842 945.59711 1309.1556 4283388791
-4.521101 945.88513 1309.3984 4284240236
-2.2605505 945.88513 1309.3984 4284371822
-40.524769 952.41174 1308.3615 4286746305
0 952.41174 1308.3615 4284372076
11.256881 952.41174 1308.3615 4284437601
13.508257 952.41174 1308.3615 4284239983
15.759633 952.41174 1308.3615 4284174190
-42.776146 954.13293 1309.8126 4288325843
4.5027523 954.13293 1309.8126 4284110183
6.7541285 954.13293 1309.8126 4284110183
10.131193 954.13293 1309.8126 4284437601
13.508257 954.13293 1309.8126 4284174440
15.759633 954.13293 1309.8126 4284240233
1.1220183 959.3233 1308.957 4284371819
4.4880733 959.3233 1308.957 4284306283
7.8541284 959.3233 1308.957 4284371560
13.46422 959.3233 1308.957 4284371551
16.830275 959.3233 1308.957 4284174172
20.196331 959.3233 1308.957 4284042843
2.2440367 961.03894 1310.4036 4284306529
4.4880733 961.03894 1310.4036 4284240233
7.8541284 961.03894 1310.4036 4284240484
11.220183 961.03894 1310.4036 4284174942
13.46422 961.03894 1310.4036 4284306012
17.952293 961.03894 1310.4036 4283845461
-51.401836 966.63409 1308.5811 4289048798
-49.166973 966.63409 1308.5811 4288917723
-46.93211 967.4884 1309.3014 4288917724
-43.952297 967.20361 1309.0613 4288917725
-40.227524 967.4884 1309.3014 4288917466
-37.992661 967.4884 1309.3014 4288917466
-34.640366 967.4884 1309.3014 4288917212
-31.288073 967.4884 1309.3014 4288916955
-29.053211 966.63409 1308.5811 4288917212
-25.32844 967.20361 1309.0613 4288851160
-22.348623 967.4884 1309.3014 4288522200
-20.113762 967.4884 1309.3014 4288193235
-16.761467 967.48834 1309.3014 4288324306
-13.409174 967.4884 1309.3014 4288785108
-11.174312 967.4884 1309.3014 4290495726
-7.8220177 967.4884 1309.3014 4291087103
-4.4697247 966.63409 1308.5811 4289638108
-2.2348623 966.63409 1308.5811 4283190137
20.113762 966.63409 1308.5811 4284042593
22.348623 966.63409 1308.5811 4284043356
-54.818348 755.5509 1313.7253 4282596441
-49.651375 760.16699 1311.0774 4282990182
9.930275 760.16699 1311.0774 4293126911
12.412844 760.16699 1311.0774 4293390079
-49.651375 762.06494 1312.6776 4282858081
12.412844 762.06494 1312.6776 4293126655
-46.959633 770.97833 1312.3451 4283125116
9.8862381 770.97833 1312.3451 4292995071
12.357799 770.97833 1312.3451 4293192703
-49.431194 772.86786 1313.9382 4285100703
-46.959633 772.86786 1313.9382 4284640152
9.8862381 772.86786 1313.9382 4293061119
-46.78532 779.3089 1312.8291 4286153906
-44.322937 777.42639 1311.2418 4285229470
7.387156 777.42639 1311.2418 4293390079
9.8495417 778.36768 1312.0354 4292732415
13.543119 777.42639 1311.2418 4292732415
17.236698 777.42639 1311.2418 4292732415
-49.06422 785.7218 1311.6962 4286806691
-46.611008 785.7218 1311.6962 4288648895
-52.744034 787.59735 1313.2775 4285755555
-56.212845 793.97522 1312.115 4287595933
-52.546791 793.97522 1312.115 4287728307
-48.880733 793.97522 1312.115 4288449734
-46.436699 793.97522 1312.115 4288844492
9.7761469 793.97522 1312.115 4292008959
12.220183 793.97522 1312.115 4292008959
-56.212845 795.84375 1313.6904 4285886593
-52.546791 795.84375 1313.6904 4286411931
-48.880733 795.84375 1313.6904 4287918245
12.220183 795.84375 1313.6904 4291812095
-51.132111 802.18652 1312.4984 4287518342
-48.697247 802.18652 1312.4984 4288107904
-46.262386 802.18652 1312.4984 4288042110
9.7394495 802.18652 1312.4984 4291746047
-55.748623 812.72583 1313.5366 4286597229
-53.324772 812.72583 1313.5366 4286793075
-49.688988 811.79932 1312.7554 4287580282
-46.053211 810.87274 1311.9742 4288367744
-55.537613 818.99573 1312.2831 4286662754
-53.122936 818.99573 1312.2831 4286989938
-49.500916 818.99573 1312.2831 4287252084
-55.537613 820.84174 1313.8396 4286336092
-53.122936 820.84174 1313.8396 4286924656
-49.500916 820.84174 1313.8396 4287582072
-52.921101 827.07648 1312.5565 4286993521
-49.312843 827.07648 1312.5565 4287780725
-45.704586 826.15698 1311.7812 4288173430
4.8110094 825.23749 1311.006 4291350527
7.2165136 826.15698 1311.7812 4291745535
9.6220188 826.15698 1311.7812 4291417087
13.230275 826.15698 1311.7812 4291483391
16.838531 826.15698 1311.7812 4291352061
19.244038 827.07648 1312.5565 4291417087
-52.719265 833.28326 1311.2498 4287389295
-46.728439 833.28326 1311.2498 4287909246
-43.133945 833.28326 1311.2498 4288693115
10.783486 833.28326 1311.2498 4291286015
14.377981 833.28326 1311.2498 4291155199
-52.719265 835.1153 1312.7944 4287323769
-50.322937 835.1153 1312.7944 4287060340
-46.728439 835.1153 1312.7944 4287580794
11.981651 835.1153 1312.7944 4291155199
14.377981 835.1153 1312.7944 4291024127
16.774311 835.1153 1312.7944 4291024127
19.170643 835.1153 1312.7944 4291155199
-52.517429 841.28699 1311.4581 4286861945
-50.130276 841.28699 1311.4581 4286730616
-46.549541 841.28699 1311.4581 4287449458
-42.968807 841.28699 1311.4581 4287704685
-40.58165 841.28699 1311.4581 4288625787
11.93578 841.28699 1311.4581 4291153405
14.322936 841.28699 1311.4581 4291087359
16.710093 841.28699 1311.4581 4291218943
-52.517429 843.112 1312.9969 4286992250
-50.130276 843.112 1312.9969 4286794872
-46.549541 843.112 1312.9969 4287251309
-40.58165 843.112 1312.9969 4288166519
16.710093 843.112 1312.9969 4291153663
-45.216515 848.75128 1312.5198 4286600575
-42.836697 848.75128 1312.5198 4287253876
-40.456882 848.75128 1312.5198 4288174978
10.709174 848.75128 1312.5198 4291286010
14.278899 848.75128 1312.5198 4291219199
19.038532 848.75128 1312.5198 4291350527
-42.671558 854.86267 1311.1324 4289561271
-40.300919 854.86267 1311.1324 4291008717
-37.930275 854.86267 1311.1324 4291271637
4.7412844 854.86267 1311.1324 4290956023
7.1119266 854.86267 1311.1324 4291087866
10.667891 854.86267 1311.1324 4291284729
14.223853 854.86267 1311.1324 4291021566
16.594496 854.86267 1311.1324 4290889980
-49.783485 856.67505 1312.6606 4286600563
-45.042202 856.67505 1312.6606 4286731389
-42.671558 856.67505 1312.6606 4287583624
7.1119266 856.67505 1312.6606 4290890230
10.667891 856.67505 1312.6606 4290890234
16.594496 856.67505 1312.6606 4291021820
-43.687157 862.75134 1311.2439 4286006625
-40.144955 862.75134 1311.2439 4286398553
-35.42202 862.75134 1311.2439 4287839837
10.626606 862.75134 1311.2439 4290955514
14.168807 862.75134 1311.2439 4290495993
-61.398167 864.5567 1312.7661 4283648348
-59.036697 864.5567 1312.7661 4283319383
-44.867889 864.5567 1312.7661 4284894315
10.626606 864.5567 1312.7661 4290956027
14.168807 864.5567 1312.7661 4290693117
-54.102753 872.3963 1312.8361 4285096544
-51.750458 872.3963 1312.8361 4284964193
-49.398167 872.3963 1312.8361 4285819501
-47.045872 871.49707 1312.0779 4286543200
-44.693577 871.49707 1312.0779 4287069545
7.056881 871.49707 1312.0779 4290693108
10.585321 871.49707 1312.0779 4290890485
-43.347706 878.4024 1311.3602 4287002725
4.6862388 878.4024 1311.3602 4290298611
7.0293579 878.4024 1311.3602 4290693369
-44.519264 880.19373 1312.8706 4286411361
9.3724775 880.19373 1312.8706 4290891007
-42.044037 886.58008 1313.0232 4285548399
-39.708256 885.68719 1312.2704 4285417064
7.0073395 886.58008 1313.0232 4290430971
10.511009 886.58002 1313.0232 4290365685
-40.715595 893.41168 1312.2434 4287529911
-37.225689 893.41168 1312.2434 4286268780
6.9798164 893.41168 1312.2434 4290561015
10.469725 893.41168 1312.2434 4290496244
-41.878899 895.19043 1313.7432 4289109196
13.959633 895.19043 1313.7432 4290298359
-48.666054 902.86584 1313.6747 4283059291
-46.348625 901.97998 1312.9277 4283189336
-44.031193 901.97998 1312.9277 4283057750
13.904587 901.09418 1312.1809 4291351033
16.222019 902.86584 1313.6747 4288194257
19.311926 902.27521 1313.1768 4287403462
-48.511925 908.26953 1312.9988 4286085772
-46.201836 908.26953 1312.9988 4285758878
-43.891743 906.50342 1311.5096 4283189844
-41.58165 906.50342 1311.5096 4284372828
4.6201835 906.50342 1311.5096 4291022322
6.9302754 907.38647 1312.2542 4289574879
10.395412 907.38647 1312.2542 4287995601
13.860551 907.38647 1312.2542 4286218930
16.170643 907.38647 1312.2542 4285561257
19.250765 907.68085 1312.5024 4285296529
-43.71743 914.11292 1311.3856 4285955748
-41.416515 914.11292 1311.3856 4285823158
4.6018348 914.11292 1311.3856 4286083484
6.9027524 914.11292 1311.3856 4285951898
-43.71743 915.87201 1312.8689 4285164420
-41.416515 915.87201 1312.8689 4285623181
6.9027524 915.87201 1312.8689 4285095544
10.354128 915.87201 1312.8689 4284833401
16.106422 915.87201 1312.8689 4285292155
19.557798 915.87201 1312.8689 4285028984
23.009174 915.87201 1312.8689 4284963945
25.310091 915.87201 1312.8689 4284963945
-37.813759 922.5564 1311.9648 4283780978
4.5834861 922.5564 1311.9648 4284700532
6.8752294 922.5564 1311.9648 4284832118
9.1669722 923.43243 1312.7035 4284766834
22.917431 922.5564 1311.9648 4284174955
25.209175 922.5564 1311.9648 4284240748
29.79266 923.43243 1312.7035 4284634730
-36.550457 928.75195 1311.9565 4284042604
-34.266056 928.75195 1311.9565 4285950601
4.5688071 928.75195 1311.9565 4284241519
6.8532109 928.75195 1311.9565 4284175726
9.1376143 928.75195 1311.9565 4284241517
-37.692657 930.49841 1313.4292 4283715435
6.8532109 930.49841 1313.4292 4284306029
10.279816 930.49841 1313.4292 4284372076
-38.678898 937.10907 1312.4631 4282469732
4.5504589 936.23938 1311.7297 4284569187
6.8256879 937.10907 1312.4631 4284437604
10.238532 937.10907 1312.463 4284175455
13.651376 937.97876 1313.1964 4284240989
15.926605 937.97876 1313.1964 4284306783
19.339451 937.97876 1313.1964 4284763999
-45.3578 944.97321 1313.8617 4282140265
-43.089909 944.10632 1313.1307 4282599275
-40.822018 943.23938 1312.3998 4283715970
0.75596333 944.39526 1313.3744 4284240234
4.53578 944.97321 1313.8617 4284306012
6.8036699 944.97321 1313.8617 4284437599
10.583488 944.39526 1313.3744 4284371551
13.60734 944.10632 1313.1307 4284371298
15.875229 944.10632 1313.1307 4284371298
18.899084 943.81738 1312.8871 4284436319
22.6789 944.10632 1313.1307 4284240220
24.946789 944.10632 1313.1307 4284108635
-45.21101 950.20569 1313.0415 4286417074
-42.950459 949.34155 1312.3129 4286417586
-40.689907 948.47742 1311.5842 4284711076
1.1302752 949.34155 1312.3129 4284306026
4.521101 950.20569 1313.0415 4284240485
6.7816515 950.20569 1313.0415 4284306279
9.042202 950.20569 1313.0415 4284437601
13.563303 948.47742 1311.5842 4284437099
15.823853 948.47742 1311.5842 4284437099
-42.776146 955.85413 1311.2639 4288785363
6.7541285 955.85413 1311.2639 4284240233
13.508257 955.85413 1311.2639 4284437601
-49.530273 957.57532 1312.7152 4288720331
11.256881 957.57532 1312.7152 4284503144
1.1220183 962.75452 1311.8501 4283911520
4.4880733 962.75452 1311.8501 4284371301
7.8541284 962.75452 1311.8501 4284305505
11.220183 962.75452 1311.8501 4284305758
13.46422 962.75452 1311.8501 4284305758
16.830275 962.75452 1311.8501 4283977050
1.1220183 964.47009 1313.2966 4283648866
4.4880733 964.47009 1313.2966 4284372578
7.8541284 964.47009 1313.2966 4284240734
13.46422 964.47009 1313.2966 4284371805
16.830275 964.47009 1313.2966 4284108638
-52.326607 757.45593 1315.3315 4282859616
14.950459 757.45593 1315.3315 4293455871
-52.326607 759.36084 1316.9377 4282269023
14.950459 759.36084 1316.9377 4292930047
-49.651375 763.96289 1314.278 4282071392
14.895412 763.96289 1314.278 4292798975
-52.133945 765.86084 1315.8783 4283321460
-49.651375 765.86084 1315.8783 4283913612
14.895412 765.86084 1315.8783 4292338943
-49.431194 774.75739 1315.5315 4283389306
-46.959633 774.75739 1315.5315 4284507530
-49.247707 781.19141 1314.4164 4285690282
-46.78532 781.19141 1314.4164 4288322259
-54.172478 783.07397 1316.0037 4284637574
-51.710091 783.07397 1316.0037 4285426833
-56.423855 789.47284 1314.8589 4287398036
-52.744034 789.47284 1314.8589 4286350763
-56.212845 797.71222 1315.2659 4286210416
-52.546791 797.71222 1315.2659 4287064456
-56.212845 799.58069 1316.8413 4286403180
-53.768806 799.58069 1316.8413 4286794876
-56.001835 804.04803 1314.068 4286336883
-52.755352 804.66852 1314.5912 4287122818
-48.697247 804.04803 1314.068 4288041091
-57.952293 823.61078 1316.1746 4286404957
-55.537613 823.61078 1316.1746 4286141785
-53.122936 822.68774 1315.3962 4286793831
-49.500916 822.68774 1315.3962 4287976822
-60.137615 829.83508 1314.8826 4286012018
-57.732109 829.83508 1314.8826 4286405477
-55.326607 829.83508 1314.8826 4286800236
-52.921101 828.91553 1314.1072 4287126387
-49.71376 829.52856 1314.6241 4287321970
13.230275 828.91553 1314.1072 4291220223
16.838531 829.83508 1314.8826 4291220479
19.244038 829.83508 1314.8826 4291613951
-57.511925 836.94727 1314.3391 4286536563
-55.115597 836.94727 1314.3391 4286799734
-52.719265 836.94727 1314.3391 4287190395
-50.322937 836.94727 1314.3391 4286927479
-47.926605 836.94727 1314.3391 4287646585
-57.511925 838.7793 1315.8839 4286867578
-55.115597 838.7793 1315.8839 4286407027
-52.517429 844.93701 1314.5358 4286927225
-50.130276 844.93701 1314.5358 4286861432
-46.549541 844.93701 1314.5358 4287318133
-52.517429 846.76196 1316.0745 4286864512
-50.130276 846.76196 1316.0745 4287390857
-47.743118 846.76196 1316.0745 4287061126
-45.216515 850.57068 1314.0537 4287592608
10.709174 850.57068 1314.0537 4291153405
14.278899 850.57068 1314.0537 4291021566
-52.355965 852.39001 1315.5879 4286931584
-49.976147 852.39001 1315.5879 4287721357
-46.406422 852.39001 1315.5879 4288379307
-55.710091 860.29974 1315.7169 4284239465
-52.154129 860.29974 1315.7169 4284766309
-49.783485 859.39355 1314.9529 4284698725
-46.622631 859.09149 1314.6981 4285416543
9.4825687 858.48737 1314.1887 4290889978
16.594496 860.29974 1315.7169 4290759164
18.965137 860.29974 1315.7169 4290627574
-61.398167 866.36206 1314.2883 4284570984
-59.036697 866.36206 1314.2883 4284505190
-49.590824 866.36206 1314.2883 4285556845
-47.229359 866.36206 1314.2883 4285358952
-44.867889 866.36206 1314.2883 4285819503
11.80734 866.36206 1314.2883 4291021820
14.168807 866.36206 1314.2883 4290365690
16.530275 866.36206 1314.2883 4290562812
18.891743 866.36206 1314.2883 4290496508
-54.313763 868.16742 1315.8105 4285293157
-51.952293 868.16742 1315.8105 4285491050
-49.590824 868.16742 1315.8105 4285951601
14.168807 868.16742 1315.8105 4290825207
16.530275 868.16742 1315.8105 4290891000
18.891743 868.16742 1315.8105 4290694141
-54.102753 874.19464 1314.3524 4285359202
-49.398167 874.19464 1314.3524 4286278256
-47.045872 875.09381 1315.1106 4286411107
7.056881 874.19464 1314.3524 4290561267
10.585321 875.09381 1315.1106 4290496508
14.113762 875.09381 1315.1106 4290299897
-44.519264 881.98505 1314.381 4286276963
11.715596 881.98505 1314.381 4290627324
-46.862385 883.77643 1315.8915 4284701540
-44.519264 883.77643 1315.8915 4285622642
14.058716 883.77643 1315.8915 4290298613
16.401834 883.77643 1315.8915 4290298613
-46.715595 889.25861 1315.2817 4286410898
-42.044037 889.25861 1315.2817 4286142102
11.678899 889.25861 1315.2817 4290430701
14.014679 889.25861 1315.2817 4290101750
16.350458 889.25861 1315.2817 4290496508
-51.387157 891.04437 1316.7874 4287463842
-49.051376 891.04437 1316.7874 4287332000
-46.715595 891.04437 1316.7874 4287858848
-44.379818 891.04437 1316.7874 4289240501
14.014679 891.04437 1316.7874 4290101750
16.350458 891.04437 1316.7874 4290430715
18.686239 891.04437 1316.7874 4290430967
-51.185322 896.96912 1315.2429 4283518314
-48.858715 896.96912 1315.2429 4283123299
-46.532108 896.96912 1315.2429 4282267988
13.959633 896.96912 1315.2429 4290364406
16.286238 896.96912 1315.2429 4290956543
18.612844 896.96912 1315.2429 4291351551
-51.185322 898.7478 1316.7427 4282861913
-48.858715 898.7478 1316.7427 4282861913
16.286238 898.7478 1316.7427 4291482619
-53.300919 904.63757 1315.1686 4283452770
-49.824768 904.63757 1315.1686 4283125334
-46.348625 904.63757 1315.1686 4283453272
20.85688 904.63757 1315.1686 4282864515
-50.983486 906.40924 1316.6624 4285098876
-48.511925 910.91864 1315.2324 4286545816
-46.201836 910.91864 1315.2324 4286481072
6.9302754 910.03558 1314.4879 4287203485
10.395413 910.91864 1315.2324 4286018959
13.860551 910.91864 1315.2324 4285821079
16.170643 910.91864 1315.2324 4286150045
19.63578 910.91864 1315.2324 4286543766
23.100918 910.91864 1315.2324 4286149017
-41.416515 917.63104 1314.3521 4283054181
10.354128 917.63104 1314.3521 4284831600
13.805505 917.63104 1314.3521 4285290357
16.106422 917.63104 1314.3521 4285224564
19.557798 917.63104 1314.3521 4285027189
23.009174 917.63104 1314.3521 4284634730
25.310091 917.63104 1314.3521 4284766059
27.61101 917.63104 1314.3521 4284634730
-41.416515 919.39014 1315.8352 4283122797
10.354128 919.39014 1315.8352 4284832373
13.805505 919.39014 1315.8352 4284963189
16.106422 919.39014 1315.8352 4284897396
20.708258 919.39014 1315.8352 4284634228
-38.195717 925.76849 1314.6732 4284044924
6.8752294 925.18445 1314.1808 4284503151
10.312843 926.06049 1314.9194 4284373102
-38.834862 932.24481 1314.9017 4283715425
10.279816 932.24481 1314.9017 4284503144
13.706422 932.24481 1314.9017 4284764767
15.990826 932.24481 1314.9017 4284633181
-41.119267 933.99127 1316.3743 4284113513
13.706422 933.99127 1316.3743 4284372057
15.990826 933.99127 1316.3743 4284437850
18.275229 933.99127 1316.3743 4284633183
-45.504585 941.45764 1316.1296 4283584629
-43.229359 939.71826 1314.663 4284770959
-40.954128 939.71826 1314.663 4284705943
2.2752295 940.58795 1315.3962 4284240490
4.5504589 940.58795 1315.3962 4284240739
6.8256879 940.58795 1315.3962 4284306276
9.8593273 940.29803 1315.1519 4284306272
13.651376 939.71826 1314.663 4284371805
15.926605 939.71826 1314.663 4284371805
19.339451 939.71826 1314.663 4284567390
2.26789 946.70703 1315.3236 4284306283
4.53578 946.70703 1315.3236 4284371551
6.8036699 946.70703 1315.3236 4284503394
10.205505 946.70703 1315.3236 4284829793
24.946789 946.70703 1315.3236 4284108636
-49.732109 953.66211 1315.9558 4287338416
-47.471561 953.66211 1315.9558 4288259518
15.759633 959.29651 1314.1665 4283977048
-49.368809 967.04346 1315.4664 4288654553
-47.124771 967.90125 1316.1897 4288917725
-43.758713 967.04346 1315.4664 4288851932
-40.392662 967.90125 1316.1897 4288720599
-38.148624 967.90125 1316.1897 4288720599
-34.78257 967.90125 1316.1897 4289115104
-31.416513 967.90125 1316.1897 4288916958
-29.172478 967.04346 1315.4664 4289048287
-26.180429 967.32941 1315.7075 4288851162
-22.440367 967.90125 1316.1897 4288785372
-20.196331 967.90125 1316.1897 4288522200
-16.830275 967.90125 1316.1897 4288389851
-13.46422 967.90125 1316.1897 4288127445
-11.220183 967.90125 1316.1897 4288456409
-7.8541284 967.90125 1316.1897 4289706979
-4.4880733 967.04346 1315.4664 4289442021
-2.2440367 966.18567 1314.7432 4282336893
17.952293 967.04346 1315.4664 4283911272
20.196331 967.04346 1315.4664 4283779686
-54.818348 761.26581 1318.5439 4281414498
-52.326607 761.26581 1318.5439 4281282912
-54.616512 767.75873 1317.4785 4285954435
-52.133945 767.75873 1317.4785 4286414986
-49.651375 767.75873 1317.4785 4285756579
14.895412 767.75873 1317.4785 4292864255
17.377981 767.75873 1317.4785 4293061631
-54.616512 769.65668 1319.0789 4286282142
-52.133945 769.65668 1319.0789 4286085020
-54.374313 776.64697 1317.1246 4280499049
-51.902752 776.64697 1317.1246 4281880702
-49.431194 776.64697 1317.1246 4282995842
-54.374313 778.5365 1318.7179 4281615734
-51.902752 778.5365 1318.7179 4283918489
-53.566971 807.771 1317.207 4286793079
-60.137615 832.59357 1317.2084 4286208619
-57.732109 832.59357 1317.2084 4286537069
-55.326607 832.59357 1317.2084 4286865777
-60.137615 834.43262 1318.759 4286077547
-57.511925 841.52734 1318.2009 4286404475
-55.115597 841.52734 1318.2009 4286272889
-52.517429 848.58698 1317.6133 4286537860
-50.130276 848.58698 1317.6133 4287393168
-47.743118 848.58698 1317.6133 4286934934
-52.355965 854.20941 1317.1219 4286074219
-47.596329 854.20941 1317.1219 4286797182
-58.305504 856.02881 1318.656 4284762482
-54.735779 856.02881 1318.656 4284958575
-52.355965 856.02881 1318.656 4285156972
-55.710091 863.01837 1318.0092 4284832621
-52.154129 863.01837 1318.0092 4285359469
-49.783485 862.11218 1317.2451 4284240989
-47.412846 862.11218 1317.2451 4284960109
16.594496 862.11218 1317.2451 4290956543
18.965137 862.11218 1317.2451 4290955773
-61.398167 869.97278 1317.3328 4284571233
-59.036697 869.97278 1317.3328 4284703076
-56.675228 869.97278 1317.3328 4285096544
14.168807 869.97278 1317.3328 4290759162
16.530275 869.97278 1317.3328 4290824955
18.891743 869.97278 1317.3328 4290563838
-61.398167 871.77814 1318.8551 4284505190
-59.036697 871.77814 1318.8551 4284899948
-56.675228 871.77814 1318.8551 4285227616
-51.952293 871.77814 1318.8551 4285817705
16.530275 871.77814 1318.8551 4290628346
-47.045872 877.79132 1317.385 4286411361
11.761468 877.79132 1317.385 4290628095
14.113762 877.79132 1317.385 4290496760
16.466055 877.79132 1317.385 4290628346
-51.750458 879.58966 1318.9014 4282859348
-49.398167 879.58966 1318.9014 4283714656
-47.045872 879.58966 1318.9014 4285816412
14.113762 879.58966 1318.9014 4290364406
16.466055 879.58966 1318.9014 4290364406
-49.205505 887.35907 1318.9122 4286017678
-46.862385 885.56775 1317.4019 4284177270
-44.519264 886.46338 1318.157 4285162626
14.058716 885.56775 1317.4019 4289839348
16.401834 885.56775 1317.4019 4290299899
-49.051376 892.83008 1318.2931 4286544022
-46.715595 892.83008 1318.2931 4287333256
-44.379818 892.83008 1318.2931 4288978337
16.350458 892.83008 1318.2931 4290627324
18.686239 892.83008 1318.2931 4290496756
-53.722935 894.61578 1319.7987 4283451737
21.022018 894.61578 1319.7987 4291614719
-51.185322 900.52649 1318.2424 4283059291
-50.983486 908.18097 1318.1562 4285098626
-50.983486 909.95264 1319.6501 4285164420
-46.201836 913.56775 1317.4662 4285230213
13.860551 913.56775 1317.4662 4285226362
-46.201836 915.33386 1318.9552 4282135386
-43.891743 915.33386 1318.9552 4282595937
-41.416515 922.02869 1318.0601 4286480293
11.504587 922.02869 1318.0601 4284569968
13.805505 922.02869 1318.0601 4284766321
20.708258 921.14917 1317.3185 4284569200
-41.251377 928.6886 1317.1354 4285032046
13.750459 928.6886 1317.1354 4284503144
16.042202 928.6886 1317.1354 4284437095
-43.543118 930.44067 1318.6127 4285951090
-41.251377 930.44067 1318.6127 4285886593
19.479816 930.44067 1318.6127 4284633183
-43.403671 935.73773 1317.8468 4283194993
-41.119267 935.73773 1317.8468 4282865792
-47.779816 943.19708 1317.5963 4281614423
-47.625687 950.17468 1318.2474 4287470003
11.256881 962.73889 1317.069 4284240989
-51.781651 964.46008 1318.5203 4288916447
1.1256881 964.46008 1318.5203 4283319136
4.5027523 964.46008 1318.5203 4284108899
6.7541285 964.46008 1318.5203 4284043106
10.131193 964.46008 1318.5203 4284174940
13.508257 964.46008 1318.5203 4284109147
15.759633 964.46008 1318.5203 4284043354
-54.033028 966.18127 1319.9716 4289048808
-51.781651 966.18127 1319.9716 4288983015
-42.776146 966.18127 1319.9716 4288786140
-2.2513762 966.18127 1319.9716 4282796412
6.7541285 966.18127 1319.9716 4283322468
11.256881 966.18127 1319.9716 4283650395
