# .PCD v0.7 - Point Cloud Data file format
VERSION 0.7
FIELDS x y z rgb
SIZE 4 4 4 4
TYPE F F F U
COUNT 1 1 1 1
WIDTH 1167
HEIGHT 1
VIEWPOINT 0 0 0 1 0 0 0
POINTS 1167
DATA ascii
35.050461 944.12036 806.93506 4293581290
10.878899 946.60333 806.4126 4285033331
13.201836 946.33234 805.53003 4287273637
16.299082 946.65527 805.14838 4287066992
19.403671 946.65533 805.14832 4289953694
22.507339 946.65527 805.14838 4294103794
25.64312 946.60333 806.4126 4293843946
28.751377 946.60333 806.4126 4293580774
31.859632 946.60333 806.4126 4293779178
34.967888 946.60333 806.4126 4293581547
37.299084 946.60333 806.4126 4293713896
6.9770641 950.26611 806.88489 4280949804
10.077982 949.67346 806.38513 4284231746
13.178899 949.08075 805.88538 4293514218
16.279816 949.08075 805.88538 4290493387
19.35688 949.72534 805.12085 4285292172
22.42844 950.36993 804.35632 4292656090
25.522018 950.36993 804.35632 4293843947
28.683487 949.08075 805.88538 4293646819
31.784403 949.08075 805.88538 4293712617
34.885323 949.08075 805.88538 4293450728
37.986237 949.67346 806.38513 4293911021
7.7339449 952.73499 806.35046 4279961882
10.054129 952.14374 805.85193 4284360514
12.374312 952.14374 805.85193 4288186240
16.241283 952.14374 805.85193 4292269810
18.561468 951.55249 805.35339 4285882285
26.295412 951.55249 805.35339 4293580776
28.615597 951.55249 805.35339 4293514979
31.709175 952.14368 805.85193 4293646567
34.80275 952.14368 805.85193 4293581802
37.896332 952.14374 805.85193 4293910765
-1.5412844 955.83881 805.04346 4282384912
1.5412844 955.83881 805.04346 4280942592
3.8532109 955.24963 804.54663 4279243031
6.6788993 955.44604 804.71222 4279374109
10.275229 955.44604 804.71222 4286465373
13.357799 955.44604 804.71222 4291075171
16.183487 955.83881 805.04346 4294498976
19.266056 955.24963 804.54663 4290816737
22.348625 955.24963 804.54663 4290551734
25.174311 955.05322 804.3811 4293779439
28.513762 955.24963 804.54663 4293647075
31.596331 955.83881 805.04346 4293712615
36.990826 955.24963 804.54669 4293713387
-3.0825689 957.01715 806.03699 4288572537
-1.5394496 958.2439 805.76331 4290352026
0.77064222 957.01715 806.03699 4290023564
3.8532109 957.01715 806.03699 4286354054
6.674006 957.83496 805.85449 4280494939
10.018349 957.01715 806.03699 4284822834
13.100918 957.01715 806.03699 4292979054
16.183487 957.01715 806.03699 4291860351
19.266056 957.01715 806.03699 4292060122
22.348625 957.01715 806.03699 4290811744
25.385323 958.56342 805.37866 4293450986
28.463303 958.56335 805.37866 4293514980
31.596331 957.01715 806.03699 4293514468
34.678902 957.01715 806.03699 4293647083
37.761467 957.01715 806.03699 4293779437
-1.5376147 960.64612 806.48083 4278190080
6.1504588 960.64612 806.48083 4290614675
25.370644 960.64612 806.48083 4293516517
-10.744954 748.94727 808.48993 4290861683
37.607338 748.26276 807.91272 4293976305
39.398167 749.63184 809.06714 4294107891
-10.722936 752.52307 808.88892 4288544768
-8.9357796 751.8399 808.31287 4288479247
35.743118 751.15674 807.73682 4294041327
37.530273 751.8399 808.31287 4294107121
-10.689908 757.53033 809.18689 4290325044
-8.9082565 756.8493 808.61261 4291836490
35.633026 756.8493 808.61261 4294041585
37.41468 757.53033 809.18689 4294238707
-7.9926605 760.48401 807.75311 4293023322
34.338837 760.71027 807.94391 4294172913
-7.985321 763.27625 808.7995 4292036430
34.563301 764.03162 808.12842 4294238707
37.299084 762.52081 809.47058 4294238707
-7.9651375 766.51776 808.26263 4290859105
34.455963 767.6488 807.25427 4294238707
37.222019 765.38672 809.271 4294304500
-8.8348627 768.99963 808.39319 4292243094
35.339451 768.99963 808.39319 4294436340
37.695412 769.90021 809.15253 4294633976
40.640366 770.35052 809.53223 4294240242
42.407341 770.35052 809.53223 4293977586
-8.2201834 773.05304 807.8869 4290726740
34.348625 772.60419 807.50842 4294501621
37.871559 773.95087 808.64392 4294699769
40.51376 773.95087 808.64392 4294436852
-10.568808 775.29749 809.7793 4289593387
43.155964 775.29749 809.7793 4294371572
-10.53578 778.88519 808.88037 4289922090
-8.7798166 777.54279 807.74841 4289527850
37.753212 778.21399 808.31439 4294568183
40.387157 778.21399 808.31439 4294766330
-10.513762 781.71893 808.65356 4290920779
-8.7614679 780.37927 807.52393 4289462307
35.045872 780.37927 807.52393 4294436340
36.798164 781.71893 808.65356 4294699508
-10.480734 785.2912 807.74146 4290788399
34.93578 785.2912 807.74146 4294633715
37.616512 784.17487 808.76227 4294699768
-12.227523 787.96204 809.99353 4289412679
-10.480734 786.62659 808.86743 4290526275
-8.7155962 788.11224 807.50403 4291447377
33.990826 788.11224 807.50403 4294765303
37.847095 787.07178 809.24286 4294634231
-12.201835 790.77753 809.75134 4289671238
-10.458715 790.11121 809.18951 4290327883
-8.7155962 789.44489 808.62769 4291184468
37.186543 790.33331 809.37677 4294634229
-10.425688 794.32593 808.81921 4289865549
-8.1088686 793.44037 808.07245 4290126921
34.752293 792.9975 807.6991 4294568692
36.48991 794.32593 808.81921 4294568694
-12.163302 795.65436 809.93933 4288954960
-10.425688 795.65436 809.93933 4289800778
-8.6605501 797.86597 807.88 4289734985
34.6422 797.86597 807.88 4294174449
37.300919 796.76013 808.90967 4294502902
-10.39266 799.19012 808.99646 4290002509
-8.6422014 800.66174 807.62122 4290133838
31.976147 800.66174 807.62122 4294766840
34.568806 800.66174 807.62122 4294503160
37.240368 799.19012 808.99646 4294503416
-10.370643 803.30457 809.84961 4290196317
-8.6422014 801.98315 808.73535 4288949578
32.840366 801.98315 808.73535 4294700793
34.568806 801.98315 808.73535 4294437367
36.873394 802.86407 809.47821 4294634747
-10.337615 806.82074 808.89026 4289661249
-8.6146793 806.16211 808.33496 4289007936
31.874311 805.50354 807.77966 4294569209
34.458717 806.16211 808.33496 4294568953
37.043121 806.82074 808.89026 4294569466
-7.7366972 808.94116 808.06207 4289593624
31.806421 808.28394 807.50793 4294765818
34.385323 809.59833 808.61621 4294767354
36.964218 809.59833 808.61621 4294635257
-10.315597 810.91272 809.72449 4289799996
39.543118 810.91272 809.72449 4294438391
-10.282569 815.71942 809.85315 4289412168
-7.8803663 814.43811 808.24963 4290063417
29.07156 815.86395 807.35901 4294964223
31.636698 815.86395 807.35901 4294897918
35.094498 814.48151 807.50134 4294635257
37.662384 814.48151 807.5014 4294372340
39.987766 815.28271 809.48486 4294503670
-7.6954126 817.82501 809.01257 4289870145
32.491745 817.17133 808.46143 4294765818
35.056881 817.17133 808.46143 4294568442
37.622017 817.82501 809.01257 4294700536
40.187157 818.4787 809.56372 4294634489
-7.3865438 821.52118 808.20508 4289604413
-5.1137614 820.6524 807.47253 4293814639
28.977982 820.6524 807.47253 4294897405
31.534863 820.6524 807.47253 4294832123
35.228134 821.08673 807.83881 4294765820
37.500916 821.95557 808.57129 4294831611
39.205505 821.95557 808.57129 4294963198
-10.227523 823.25873 809.67004 4290004319
-7.6633029 823.98047 808.97064 4289800525
-4.53578 823.83539 807.54028 4291509859
28.065138 823.40192 807.1748 4294568953
31.75046 823.83539 807.54028 4294898174
34.585323 824.26886 807.90576 4294634745
37.500916 823.25873 809.67004 4294765566
39.205505 823.25873 809.67004 4294897151
-7.6541286 826.00269 809.36768 4289922611
35.719265 826.00269 809.36768 4294569466
37.420185 826.00269 809.36768 4294438137
-7.3467889 830.32397 809.0871 4290523460
-5.0862384 828.16376 807.26562 4290510890
32.212845 828.81183 807.81207 4294766844
34.755962 829.4599 808.35852 4294437880
-7.612844 833.48456 809.13599 4290594634
-5.0752292 832.19122 808.04541 4290856541
32.14312 832.19122 808.04541 4294831609
34.398777 833.05347 808.77246 4294306294
-7.5880733 836.92218 808.11035 4290196034
-4.4966359 836.06274 807.38574 4291841136
-1.6862385 835.633 807.02344 4292103783
0.56207949 836.06274 807.38574 4292952675
31.195412 835.633 807.02344 4294635511
34.56789 836.92218 808.11035 4294306551
-7.5880733 838.2113 809.19739 4290396750
-4.2064219 839.638 807.78418 4291577706
-1.6825688 839.638 807.78418 4292168045
0 839.638 807.78418 4293548653
31.127522 839.638 807.78418 4294437882
34.531193 838.92468 808.49078 4294306551
-10.095413 842.21069 809.95349 4288752185
-7.571559 841.56757 809.41113 4290200662
-4.2064219 840.92438 808.86877 4291315307
34.77309 841.35309 809.23029 4294437880
37.016514 842.21069 809.95349 4294239990
-6.7082567 845.62445 808.90771 4289735766
-4.1926603 844.34229 807.82666 4291842416
31.86422 844.34229 807.82666 4294306549
34.379814 844.9834 808.36719 4294174453
37.733944 845.62445 808.90771 4294174197
-7.5394492 847.61426 809.27753 4290263140
-4.4623852 847.46906 807.84717 4291247720
0.55779815 847.46918 807.84717 4293151861
3.3467889 847.04266 807.48755 4293277797
30.957798 847.04266 807.48755 4294240756
34.025692 847.89557 808.20673 4294108407
37.693577 847.61426 809.27753 4294305783
40.249542 846.90656 809.98877 4294174708
-6.6935778 849.60132 809.64502 4289799245
-4.1697249 851.72034 807.50757 4291841117
-1.66789 851.72034 807.50757 4292106835
0.83394498 851.72034 807.50757 4293154942
3.3357799 851.72034 807.50757 4294005105
31.689909 851.72034 807.50757 4294306549
34.249542 850.66083 808.57629 4294173427
37.651375 849.60132 809.64502 4294304498
-7.5055046 853.63306 809.1203 4289466411
-4.1660552 853.70044 807.86908 4291444016
-1.6642202 854.40533 807.1554 4292433447
0.83394498 852.99548 808.58276 4293678717
4.1605506 854.40533 807.1554 4292689228
6.6568809 854.40533 807.1554 4293986899
31.620184 854.40533 807.1554 4294174962
34.191742 852.99548 808.58276 4293977068
37.249542 853.84552 809.2995 4293978097
-6.6568809 856.31384 808.76453 4289988387
-4.1605506 856.31384 808.76453 4290577952
-1.6642202 855.67767 808.22815 4291035147
0.83211011 855.67767 808.22815 4292085047
34.116516 855.67767 808.22815 4293977070
36.612843 856.94995 809.3009 4294240756
-4.1513762 859.62372 808.93933 4291711068
-1.6605505 858.35425 807.8689 4290183199
0.83027524 858.35425 807.8689 4291559458
31.550459 858.35425 807.8689 4294042611
34.041283 858.35425 807.8689 4294239990
36.532108 859.62372 808.93933 4294240756
-3.3100917 862.99121 807.85461 4292039025
33.92844 862.99121 807.85461 4294372596
36.411011 862.99121 807.85461 4294240756
-6.6201835 864.88916 809.45496 4289867577
-4.4073396 865.60791 808.31689 4291513181
31.376146 865.65228 807.4823 4294438137
34.154129 865.60791 808.31689 4294240241
36.93578 865.56427 809.15228 4293976303
39.7211 865.52179 809.9884 4294042611
-6.6055045 868.17725 809.61133 4290131028
-4.119266 868.93768 807.63641 4290985827
32.404892 868.72772 807.45941 4294239987
34.601833 869.5675 808.16748 4294042611
37.155964 868.17725 809.61133 4294173681
-4.1137614 871.8678 808.14496 4291247717
32.844036 872.90833 807.0603 4294042098
34.48624 872.90833 807.0603 4294042098
37.073395 870.82721 809.22961 4294108658
-4.9266057 874.79156 808.64819 4290785100
34.48624 874.16382 808.1189 4293976816
37.22324 874.58234 808.47174 4294108402
39.412846 875.41931 809.17749 4294305786
47.623852 874.16382 808.1189 4294306551
-4.0963306 877.42749 808.25464 4290845750
0 877.42749 808.25464 4292224822
32.770641 876.80115 807.72656 4293845487
34.409176 877.42749 808.25464 4294043120
36.593884 877.63623 808.43066 4293977583
-3.6811929 880.33862 808.74719 4290581046
-1.6348624 880.05774 807.85638 4290641955
0.98091745 880.93262 808.59406 4292020778
4.0871563 880.05774 807.85645 4292812850
7.3568807 880.05774 807.85645 4294387273
9.8091745 879.4328 807.32947 4294918767
29.427523 879.4328 807.32947 4293911793
32.152294 879.84943 807.68073 4293714411
34.877064 881.51593 809.08588 4293976813
36.866974 879.30646 809.83899 4293977068
39.324772 879.30646 809.83899 4294174960
-1.6293578 883.99261 807.25 4291049048
4.0733948 883.99261 807.25 4292815174
7.3321099 883.99261 807.25 4294189911
9.7761469 883.99261 807.25 4294925956
31.772476 883.99261 807.25 4293779179
-3.2587156 885.86108 808.82556 4290916711
-1.6275229 886.54498 808.09418 4292891014
1.0850153 886.52466 808.513 4292368222
3.2550459 886.54498 808.09418 4293214069
32.550457 886.54498 808.09418 4293778668
34.759632 886.06866 809.00067 4293976047
-4.3327217 889.96381 808.79681 4291315556
-1.6220183 890.45953 807.4707 4292039023
0.81100917 889.77704 808.20331 4293025875
4.0550461 890.45953 807.4707 4292560257
6.4880733 890.45953 807.4707 4293461309
28.385323 890.45953 807.4707 4294042868
31.629358 890.45953 807.4707 4293911282
34.952293 889.09454 808.93591 4293976816
37.390827 890.3374 809.98376 4294108402
-3.2440367 892.31958 809.039 4291447133
-1.6220183 891.69958 808.51624 4291841894
0.54067278 892.11298 808.86475 4293024870
3.2440367 891.69958 808.51624 4293547397
31.629358 891.69958 808.51624 4293976817
34.873394 892.31958 809.03894 4294042866
37.306423 892.93964 809.56177 4294108402
-3.2330275 896.21454 808.39905 4291513429
-1.6165137 895.59662 807.87805 4291578969
1.0776758 895.80255 808.05176 4293351542
3.2330275 894.9787 807.35706 4293614205
31.791437 895.39062 807.70441 4293976561
34.755043 896.21454 808.39905 4293976818
37.179817 896.21454 808.39905 4294108404
-3.2330275 897.45038 809.44104 4291049018
-1.612844 898.80414 807.96643 4292562258
0.806422 898.12726 808.70374 4293087362
3.225688 898.80414 807.96643 4293546863
31.450459 898.80414 807.96643 4294041843
34.755043 897.45038 809.44104 4294240243
37.988075 897.45038 809.44104 4294372083
40.412846 897.45038 809.44104 4294569716
-1.612844 900.03717 809.0061 4291044932
1.6110091 901.32776 808.78625 4293543534
3.2183487 901.38812 807.52917 4293547115
28.965137 901.38812 807.52917 4293976305
31.378899 902.00323 808.04779 4294108144
34.676147 900.03717 809.0061 4293976816
-3.2183487 903.84857 809.60376 4290707500
-1.6091744 903.84857 809.60376 4290969649
0.80275232 904.52124 808.86292 4291166252
4.0137615 904.58008 807.60461 4292420925
6.4220185 903.96643 807.08716 4293073497
28.096329 903.96643 807.08716 4294107887
31.307339 905.19385 808.12207 4294042093
34.597248 903.84857 809.60376 4293845739
37.011009 903.84857 809.60376 4294042861
-1.6055046 906.42126 809.15698 4290641969
1.6055046 906.42126 809.15698 4291428391
34.518349 906.42126 809.15698 4293779692
36.926605 906.42126 809.15698 4294042863
-1.6 910.88153 808.99365 4290709031
1.6 910.88153 808.99365 4292087867
4 910.2699 808.47803 4291822649
7.1999998 909.65833 807.96228 4293737050
31.466667 910.0661 808.30609 4293844714
34.400002 910.88153 808.99365 4294173676
36.799999 910.88153 808.99365 4294042600
-1.5963303 914.6593 809.56287 4290709542
1.5963303 914.6593 809.56287 4291890741
3.9908259 914.04907 809.04834 4291561009
7.0238523 913.19482 808.328 4293339467
9.5559635 914.77301 807.04272 4294941624
27.871559 914.77301 807.04272 4293778406
30.862387 913.03204 808.19073 4293909993
34.587154 913.8457 808.87677 4293975786
36.715595 914.6593 809.56287 4294041325
3.1853211 917.20819 809.09595 4292088889
7.9633026 916.59937 808.58264 4294926214
9.5559635 915.9906 808.06934 4294941361
31.056881 915.9906 808.06934 4293976299
34.242203 916.59937 808.58264 4293778666
3.7076452 920.56134 809.30713 4292151606
7.1504583 920.35889 809.13641 4293668428
10.063609 918.94159 807.94147 4294942644
27.807339 918.53668 807.6001 4293779432
30.985321 918.53668 807.6001 4293779433
33.898472 919.3465 808.2829 4293778922
37.341286 920.96625 809.64856 4293648104
3.9633026 923.50116 809.16992 4292282166
7.3981652 923.09717 808.82928 4294063448
10.304587 921.68323 807.63702 4294944443
13.475229 921.07721 807.1261 4294960102
20.609175 921.07721 807.1261 4292641713
23.779816 921.07721 807.1261 4294958059
26.422018 921.4812 807.46674 4293713897
28.53578 921.07721 807.1261 4293648105
30.913761 921.07721 807.1261 4293779178
34.084404 922.28918 808.14795 4293713897
38.047707 923.50116 809.16992 4293648103
4.7449541 926.03046 808.68652 4291952681
6.3266053 926.03046 808.68652 4292739111
10.280734 924.82129 807.66699 4294947273
14.234862 924.82129 807.66699 4294757331
15.816514 924.82129 807.66699 4294938044
34.796329 924.82129 807.66699 4293844968
37.959633 926.03046 808.68652 4293581797
39.541283 924.82129 807.66699 4293779689
1.5816513 927.23962 809.70605 4289730858
3.9458714 928.22546 808.57526 4289990950
37.827522 929.21136 807.44446 4293778919
-1.5761468 931.62134 809.47644 4287529356
0.78623855 932.27576 808.72021 4289363099
3.1486239 931.67322 808.21222 4290801063
34.594494 932.93018 807.96399 4293778923
37.739449 932.93018 807.96399 4293582310
40.098167 932.93018 807.96399 4293648104
43.344036 931.62134 809.47644 4293845484
-1.5724771 935.33453 809.99133 4278714378
1.5724771 934.73346 809.4845 4282257207
3.6654434 934.96844 808.81061 4285082442
7.0596333 935.43835 807.46289 4288375646
12.550459 935.43835 807.46289 4292223049
19.610092 935.43835 807.46289 4293750934
22.747707 935.43835 807.46289 4293449164
25.885323 935.43835 807.46289 4293845484
29.022936 935.43835 807.46289 4293384681
32.160549 935.43835 807.46289 4293713130
34.51376 935.43835 807.46289 4293647338
37.187157 934.96844 808.81061 4293647338
40.098167 934.73346 809.4845 4293845228
43.243118 935.33453 809.99133 4294042861
4.7064219 937.23743 808.97974 4282066194
6.2752295 936.63776 808.47412 4284828020
22.747707 936.63776 808.47412 4294303455
25.885323 936.63776 808.47412 4293779692
29.022936 936.63776 808.47412 4293778410
32.160549 936.63776 808.47412 4293844201
34.51376 936.63776 808.47412 4293778156
36.866974 937.23743 808.97974 4293646569
39.220184 937.8371 809.48535 4293844203
4.6954126 941.5307 809.98364 4281083187
6.6472483 940.65857 808.59424 4281017649
23.422018 941.63184 807.45276 4294696932
25.012844 940.3847 807.70929 4293845230
28.921103 940.38477 807.70929 4293777638
32.047707 940.38477 807.70929 4293777385
35.174313 940.38477 807.70929 4293778155
7.8073397 942.82556 808.45935 4279701784
37.475231 942.82556 808.45935 4293648103
7.0018349 946.55139 807.67682 4280425257
9.3357801 946.55139 807.67682 4279369731
-1.5541284 950.16779 809.41797 4278190080
0 950.16779 809.41797 4278255619
40.407341 950.16779 809.41797 4294042861
-6.2018347 953.82208 809.88318 4286214261
-3.0935781 953.91754 807.34766 4281925641
0 953.91754 807.34766 4281073664
34.80275 953.91754 807.34766 4293713130
38.669724 953.91754 807.34766 4294042609
41.039452 953.86981 808.61542 4293911788
-6.9605503 956.28259 809.3418 4284372321
-4.640367 955.1001 808.34473 4285490539
38.669724 956.28259 809.3418 4293976816
40.216515 955.69135 808.84326 4293845995
-3.5963304 958.5882 807.36163 4283318855
0.77064222 958.78455 807.52728 4283976776
3.8532109 958.78455 807.52728 4287394899
7.7064219 958.78461 807.52728 4286735500
10.018349 958.78461 807.52722 4287655766
13.100918 958.78461 807.52722 4287069767
16.183487 958.78461 807.52722 4290611778
19.266056 958.78461 807.52722 4290948504
22.348623 958.78455 807.52728 4291152830
28.513762 959.37378 808.02405 4293253345
31.596329 958.78455 807.52728 4293449955
34.422016 958.5882 807.36163 4293515240
36.990826 958.19543 807.03052 4293647851
-3.0825689 960.55212 809.01758 4278190080
-1.5412844 960.55212 809.01758 4278190080
0.77064222 960.55212 809.01758 4278452224
3.8532109 960.55212 809.01758 4282781448
6.9357796 960.55212 809.01758 4287008600
10.018349 960.55212 809.01758 4289640904
13.100918 960.55212 809.01758 4286342588
16.183487 960.55212 809.01758 4288843296
19.266056 960.55212 809.01758 4288717103
22.348625 960.55212 809.01758 4291805169
25.400002 961.18689 808.24481 4293910757
28.513762 960.55212 809.01758 4293712869
31.596331 960.55212 809.01758 4293516004
33.908257 960.55212 809.01758 4293515752
41.315598 747.34448 811.06262 4294239220
43.111927 748.71783 812.22058 4294042609
-12.53578 752.37006 811.37598 4289014089
40.293579 751.00092 810.22156 4294305781
-12.53578 753.73914 812.53027 4290658930
-10.722936 753.88934 810.04089 4289926958
37.530273 753.88934 810.04089 4294042098
40.21101 754.57251 810.61694 4294173937
42.891743 754.57251 810.61694 4294108145
-12.510092 756.62195 812.34497 4288613690
-10.689908 758.89246 810.33533 4289793289
37.41468 758.89246 810.33533 4294304500
40.150459 757.7572 811.34015 4294436338
42.891743 756.62195 812.34497 4294371058
-12.47156 761.61658 812.63232 4291839832
-10.689908 760.25452 811.48376 4289333009
40.087158 760.25452 811.48376 4294436084
43.650459 761.61658 812.63232 4294372342
46.322937 761.61658 812.63232 4293977840
-10.65688 763.87872 810.61548 4290862442
39.963303 763.87872 810.61548 4294305266
-13.025075 766.14185 812.52362 4290982212
-10.634862 766.74182 810.41357 4291782543
38.994495 766.74182 810.41357 4294437619
40.766972 766.74182 810.41357 4294437619
43.515594 765.91553 812.33282 4294306551
-12.407339 769.4519 812.69873 4289401127
-10.634862 768.09686 811.55615 4290929280
-12.368808 773.05225 811.8103 4288679714
-10.601835 771.70142 810.67126 4290858315
43.290825 771.70142 810.67126 4294371574
-13.233027 775.52368 811.93207 4288748076
43.155964 776.64417 810.91479 4294503414
45.941284 774.40314 812.94934 4294372596
-14.091743 777.99084 812.05029 4289145396
43.155964 777.99084 812.05029 4294438391
-12.877065 781.12262 810.76685 4289607231
38.631191 780.22766 810.01221 4294765818
40.387157 780.89893 810.57819 4294700026
42.14312 782.24133 811.71014 4294503159
-13.434251 784.84473 811.28906 4289149507
40.302753 785.06799 811.47736 4294766332
42.055046 785.73785 812.04211 4294568440
-13.974312 789.96521 811.6825 4288620346
41.049541 789.96521 811.6825 4294699767
43.669724 790.63293 812.24548 4294502901
-15.688073 793.44275 811.99866 4289932878
-13.073395 792.77643 811.43683 4289084491
38.348625 792.11011 810.875 4294699510
40.963303 793.44275 811.99866 4294502904
43.57798 793.44275 811.99866 4294503160
-12.163302 796.98279 811.05945 4289810267
39.965137 796.98279 811.05945 4294568953
-13.03211 798.31122 812.17944 4289416028
-10.39266 800.51434 810.11304 4289607764
38.106422 800.51434 810.11304 4294108404
40.833946 798.31122 812.17944 4294437880
43.440369 798.31122 812.17944 4294372342
-12.990826 802.50067 811.7879 4289214539
40.704586 802.50067 811.7879 4294371575
43.302753 803.16278 812.34619 4294437367
-12.675229 805.5069 811.70654 4288419892
40.618347 805.28668 811.52081 4294372087
-12.922018 809.45514 811.11145 4288751688
-10.337615 808.13794 810.00085 4289333804
40.488991 808.79651 810.55615 4294503930
-12.909174 811.49976 811.5274 4289347668
-10.315597 812.22711 810.83264 4290067772
41.262386 812.22711 810.83264 4294372342
43.93486 810.77234 812.22217 4294372597
-12.034863 813.5415 811.94092 4289021285
42.981651 813.5415 811.94092 4294568953
-13.710092 818.33978 812.06262 4288232033
-11.13945 817.68469 811.51025 4289743458
43.700916 817.68469 811.51025 4294437880
-11.115597 820.43976 811.21729 4289742183
41.042202 820.43976 811.21729 4294635002
42.752293 820.43976 811.21729 4294503417
-11.099083 823.48132 811.81989 4288874560
40.0578 824.56189 810.76892 4294569466
43.607338 822.40082 812.87085 4294437880
46.172478 822.40082 812.87085 4294372344
-11.363914 826.2995 812.23389 4288550960
-8.5045872 827.30304 810.46411 4289138987
37.420185 827.30304 810.46411 4294438137
39.773701 826.2995 812.23389 4294372087
-11.055964 829.25354 812.10876 4289280312
37.420185 828.60339 811.56055 4294240242
39.121101 829.90375 812.65698 4294240756
-11.020184 832.70032 811.09076 4289214250
37.299084 832.05225 810.54431 4294174962
40.689907 833.34839 811.63721 4293846259
-10.714374 835.64014 810.95343 4289081131
38.06422 835.42456 810.77173 4294306294
40.689907 834.64453 812.7301 4294240758
-10.979816 838.4325 811.34595 4288556857
37.940369 839.50043 810.2843 4294239990
40.601833 837.36462 812.40759 4294174197
-13.489908 842.07874 812.45825 4287570996
-11.80367 841.4342 811.91479 4287768627
38.783485 840.78961 811.37134 4294108404
40.469727 840.78961 811.37134 4294174199
42.155964 842.07874 812.45825 4294503162
-10.656269 844.35455 811.76117 4288357692
-8.4128437 843.49701 811.03809 4289540935
40.381653 843.49701 811.03809 4294174197
42.06422 844.78339 812.12268 4294438137
-10.062386 848.18872 811.06982 4288682043
-8.3853207 848.18872 811.06982 4289997902
40.249542 848.18872 811.06982 4294305265
-10.900917 849.47083 812.15088 4287891503
-8.3669729 850.88068 810.72363 4290257495
38.488075 850.88068 810.72363 4294372342
41.044037 850.17578 811.43726 4294372596
-13.387156 853.43933 812.88098 4287305759
-11.155963 852.58643 812.16193 4288023066
41.277065 852.58643 812.16193 4294307316
-10.563302 856.39575 811.44971 4288620331
-8.3394499 856.18323 811.27057 4289473842
38.361469 855.54572 810.73303 4294372342
40.863304 856.18323 811.27057 4294372084
-13.34312 858.09595 812.8833 4287569449
-10.548623 859.45245 812.28302 4289017391
-7.4853215 859.84424 811.08728 4289871925
-4.9816513 860.89325 810.00977 4291646282
38.234863 859.55774 810.19171 4294240756
40.773392 859.49463 811.44647 4294305782
43.317432 859.4314 812.70129 4294437365
45.033028 858.09595 812.8833 4294503414
-8.3027525 863.43225 812.15063 4289082911
38.192661 862.16272 811.0802 4294042096
40.683487 862.79749 811.61542 4294174197
43.174313 863.43225 812.15063 4294437365
40.548622 866.78711 811.05518 4294108405
43.031193 866.78711 811.05518 4294438391
-7.4403667 868.74609 811.39893 4290789977
40.458717 869.43976 810.67578 4294371574
43.031193 868.05237 812.12207 4294372596
-7.701529 871.58466 811.6123 4289995082
40.368805 872.08691 810.29175 4294108918
42.93578 870.70227 811.74036 4293910507
-7.4146786 873.97644 811.88495 4289270318
41.192661 873.34656 811.35388 4294108406
42.840366 873.97644 811.88495 4293977583
47.783485 873.97644 811.88495 4294240757
-6.5688071 877.30249 810.76538 4289594662
40.507648 877.09326 810.58893 4294174451
42.697247 877.93024 811.29468 4294174962
49.266056 877.30249 810.76538 4294306550
-6.5614681 880.49878 812.15234 4290132784
-4.9155965 880.55914 810.89526 4290592833
37.686237 880.55914 810.89526 4294042863
40.144035 881.18549 811.42334 4294174707
42.697247 879.18573 812.35327 4294240756
-6.5394497 884.43225 811.5448 4290264897
-4.9045873 883.80737 811.01788 4290133299
0 883.18243 810.49097 4293023072
35.966972 883.18243 810.49097 4293845233
37.601833 883.80737 811.01788 4294107890
39.236698 884.43225 811.5448 4293976816
-7.3458714 886.70587 811.49982 4289608519
37.475231 887.72961 810.401 4294174451
39.988075 886.70587 811.49982 4294437369
-6.5174313 889.59814 811.97644 4289342540
39.919266 888.97528 811.45129 4294239990
-6.5027523 892.82312 812.07971 4289409870
-4.8770642 891.58026 811.03174 4290923372
39.829357 891.58026 811.03174 4294239988
-7.2990828 896.03979 812.17572 4289342019
-4.866055 894.79968 811.13019 4289934927
38.92844 894.17969 810.60742 4294042609
40.550457 894.17969 810.60742 4294503160
42.172478 896.65979 812.69849 4294371060
-6.4660549 899.30408 811.00409 4289862969
-4.3107033 899.09814 810.83038 4290322494
0 898.68622 810.48303 4291636318
37.988075 898.68622 810.48303 4294043120
40.412846 898.68622 810.48303 4294372596
-7.274312 901.15784 812.56714 4289070633
-4.0321102 901.88672 810.56561 4290319663
-1.612844 901.2702 810.04578 4291176761
0 901.2702 810.04578 4292029516
34.676147 901.2702 810.04578 4293911276
38.170639 901.68121 810.39233 4293977582
40.321102 901.88672 810.56561 4294372339
42.029358 901.15784 812.56714 4293978101
-6.451376 903.73627 812.12512 4289332259
-4.0284405 904.40753 811.38306 4289921321
0 905.0788 810.64099 4291166243
38.620182 905.0788 810.64099 4293912045
41.08165 904.40753 811.38306 4294043375
-6.4220185 908.87616 811.22681 4289331237
-4.0165138 907.92749 811.08093 4290184492
-1.6055046 907.64874 810.19189 4290970163
0.53516823 908.05786 810.53687 4291561263
34.518349 907.64874 810.19189 4293844970
37.996937 908.05786 810.53687 4293779689
40.735168 907.57477 811.87354 4294174447
43.447708 907.53925 812.71558 4294042861
-6.4220185 910.10358 812.26172 4289200152
-4.8165135 910.10358 812.26172 4290184232
40.940369 910.10358 812.26172 4293844971
-6.4000001 913.93958 811.57208 4289266213
-3.7333333 912.92023 810.71259 4290250280
-1.6 912.10474 810.02502 4290711080
0.40000001 913.02209 810.79858 4291495985
37.866665 912.51245 810.36884 4293910251
40.533333 914.14337 811.74396 4293844973
-3.9908257 916.48987 811.10632 4289857314
-1.5963303 916.48987 811.10632 4290710566
0.79816514 916.48987 811.10632 4291562030
4.788991 915.8797 810.5918 4290970152
6.3853211 915.8797 810.5918 4292542501
37.779819 916.28644 810.93481 4293647594
40.706421 917.1001 811.62085 4293779692
-3.9862385 919.59076 812.4129 4289595688
-1.5926605 919.64343 811.14929 4290710578
1.0617737 919.23755 810.80713 4291824685
4.7779818 918.42578 810.12268 4292021559
6.3706422 918.42578 810.12268 4292476955
36.631191 918.42578 810.12268 4294042096
40.612846 919.64343 811.14929 4293779690
-3.1779816 923.39587 811.69714 4290117663
-1.5889908 922.18103 810.67285 4291235388
0.52966362 922.58594 811.01434 4291495722
41.313763 922.18103 810.67285 4293713898
-3.9688072 925.26794 811.96759 4285926943
-1.5853211 925.31915 810.70282 4288481310
0.79266053 925.31915 810.70282 4290316577
3.1706421 924.71313 810.19189 4292216110
41.218349 924.71313 810.19189 4293844716
42.803669 924.71313 810.19189 4293844716
-3.6966362 927.97748 812.0722 4287001726
-1.5816513 928.44885 810.72559 4287330944
0.79082566 927.79297 811.48065 4290675600
-3.9486239 931.84674 811.62866 4279502628
-1.5761468 932.82629 810.49255 4279437596
0 932.82629 810.49255 4282189625
43.344036 932.82629 810.49255 4293845739
46.49633 932.82629 810.49255 4293779690
-6.3045874 935.23627 812.52454 4280228380
-3.677676 934.83466 812.18585 4279898647
0 934.63379 812.01654 4280618525
46.233639 934.43292 811.84717 4293845485
-3.9311926 937.73889 812.01855 4280489762
-1.5724771 937.13782 811.51172 4280818467
1.048318 937.33813 811.68066 4280950054
3.1449542 936.53668 811.00488 4280357903
40.884403 937.13782 811.51172 4293779432
43.243118 937.13776 811.51172 4293911019
47.174313 937.13782 811.51172 4293845232
-1.5688074 941.43524 812.51917 4280556581
3.9220185 939.93604 811.25513 4280818991
37.651375 939.0365 810.4967 4293713896
39.612385 940.53577 811.76074 4293845739
39.128441 943.92383 812.00146 4293845485
-6.2458715 947.60059 812.48547 4278782217
-4.6844039 947.60059 812.48547 4278782217
40.598164 946.4068 811.479 4293977068
-7.788991 950.07513 811.95593 4280619794
42.839447 949.47961 811.45386 4294108910
-10.101835 953.13818 811.92255 4285290832
-6.993578 951.95001 810.92072 4283317571
-4.6623855 951.35596 810.4198 4279962897
41.961468 951.35596 810.4198 4294174447
43.515594 953.13818 811.92255 4293976815
45.691376 952.78162 811.62195 4294240243
-9.3027525 955.00745 810.88269 4284043356
41.862385 955.6001 811.38239 4293911533
46.51376 956.19281 811.88208 4294174708
-9.3027525 957.37811 812.88159 4280614994
-6.8095412 958.15723 811.44568 4281148981
-4.640367 958.0564 810.8374 4278190080
35.576145 958.64764 811.33594 4293778922
37.760002 958.15723 811.44568 4293713645
40.796944 957.40717 812.034 4294108656
-3.5963304 962.12323 810.34229 4291739341
-1.5412844 962.31958 810.50787 4291476682
1.0275229 962.12323 810.34229 4292462286
3.8532109 962.31958 810.50787 4291672256
6.9357796 962.31958 810.50793 4286222494
9.7614679 962.12323 810.34229 4279048085
13.100918 961.73041 810.01111 4284435591
16.183487 961.73041 810.01111 4287595883
19.522936 962.12323 810.34229 4284051998
22.091743 962.12323 810.34229 4290552440
25.688074 962.12323 810.34229 4293779430
28.513762 962.31958 810.50787 4293647076
31.596329 962.31958 810.50787 4293713639
33.908257 961.73041 810.01111 4293844968
-16.765749 752.38007 815.30835 4287956243
-14.370643 750.77777 813.95746 4289408856
44.908257 750.77777 813.95746 4294239731
-14.326606 755.10828 813.68469 4288613690
44.770641 755.10828 813.68469 4294502901
46.561466 755.10828 813.68469 4294174197
-16.117432 757.84644 815.99353 4287235089
-13.418348 757.23279 814.16803 4288349216
43.78532 757.98822 813.49695 4294569205
46.466057 757.98822 813.49695 4294108915
-16.084404 760.72083 815.80103 4287365146
-14.297248 759.35455 814.64905 4288615975
-16.034863 764.34082 814.9292 4287496476
-14.253211 762.9787 813.78076 4288417832
44.541283 762.9787 813.78076 4294372344
46.322937 762.9787 813.78076 4294306803
-19.537615 767.95233 814.05029 4286912550
-15.985321 767.95233 814.05029 4287433247
-14.209174 767.95233 814.05029 4288282647
-22.201836 769.31024 815.19519 4287505720
-19.537615 769.31024 815.19519 4287637563
-16.85688 770.05859 814.51819 4288358708
-14.179816 770.80701 813.84119 4289140265
-19.497248 772.16211 814.98376 4287442238
-16.838531 772.16211 814.98376 4288227892
-19.436697 775.75397 814.08838 4287573306
-16.78624 775.75397 814.08838 4288227376
45.941284 775.75397 814.08838 4294174962
-22.087156 777.10486 815.22729 4287245364
-19.436697 777.10486 815.22729 4287377459
-16.733946 779.33746 813.18579 4287770160
44.036697 779.33746 813.18579 4294897916
45.941284 777.10486 815.22729 4294240756
-19.376146 780.68414 814.32117 4287048497
-17.027525 781.13306 814.69971 4288097854
44.036697 780.68414 814.32117 4294437367
46.678898 782.03082 815.45667 4294306038
-16.681652 784.92627 813.97394 4288095548
43.899082 784.255 813.40796 4294436854
-16.366972 787.47821 814.38165 4287764020
43.807339 787.07751 813.17175 4294633717
46.533028 786.93988 815.67188 4294503673
49.166973 786.93988 815.67188 4294372596
-17.46789 791.96838 813.37146 4286775326
46.43578 789.75677 815.43079 4294306549
-16.874619 794.23944 814.41449 4287829538
-13.944954 794.77539 813.12231 4289547096
41.834862 794.77539 813.12231 4294438391
43.57798 794.77539 813.12231 4294372342
46.289909 793.30377 814.49756 4294240755
48.910091 794.63922 815.62354 4294109169
-16.559633 796.77435 814.80774 4288356138
46.192661 796.77435 814.80774 4294306292
48.807339 797.44067 815.36951 4294174962
-15.638532 800.30383 813.85962 4288948017
-13.900917 799.63959 813.29956 4289481041
41.702751 799.63959 813.29956 4294437367
43.440369 799.63959 813.29956 4294306038
46.046791 800.96802 814.41968 4294306036
-17.376146 802.29645 815.53979 4286972683
46.915596 802.29645 815.53979 4294305784
-16.455046 805.14911 814.02094 4287302163
43.302753 804.487 813.46265 4294306038
45.900917 805.14911 814.02094 4294371574
-15.997248 808.22656 814.65369 4288683821
44.07523 807.2688 813.19214 4294371830
46.667889 809.25092 814.86334 4294241267
-13.783486 812.08954 813.33276 4288560734
44.796329 812.08954 813.33276 4294307316
-16.367889 814.06531 814.99866 4287962671
-12.894495 814.8559 813.04919 4288889699
44.700916 814.8559 813.04919 4294175735
46.519264 813.40674 814.44336 4294109686
-15.473394 816.82751 814.71161 4288556857
46.420185 816.17029 814.15747 4294306551
-13.710092 820.30505 813.71973 4288289871
44.557796 819.64996 813.16736 4294372346
46.271561 819.64996 813.16736 4294569468
-15.423853 822.27032 815.37671 4286843171
-13.680734 823.70819 813.97314 4287758375
43.607338 823.70819 813.97314 4294635259
46.172478 823.70819 813.97314 4294569466
-13.680734 825.01556 815.07544 4288558395
41.042202 825.01556 815.07544 4294240758
42.752293 825.01556 815.07544 4294701309
-13.636697 829.12305 814.61469 4288622386
40.910091 828.47144 814.06531 4294240504
42.614677 829.7746 815.16406 4294175481
-13.60734 832.50452 814.84985 4288358965
42.522934 833.80487 815.94629 4294437369
47.625687 833.80487 815.94629 4294569466
-13.563303 835.94067 813.823 4288358715
-15.242202 838.59412 814.75226 4287176502
-13.533945 838.65796 813.49805 4287966515
42.293579 838.65796 813.49805 4294568957
-15.225688 841.24463 815.67908 4287637565
43.985321 841.24463 815.67908 4294372855
-15.176147 845.94617 815.71924 4287568175
-13.489908 844.01245 814.08875 4287569456
43.842201 845.30164 815.17572 4294503674
-13.46055 847.35602 814.29187 4287630888
-11.777982 846.0697 813.20728 4287173671
42.905502 847.35608 814.29187 4294568952
-13.416513 850.75299 813.23193 4287299586
-15.093578 853.31726 815.39404 4287046696
-13.387156 854.71863 813.95972 4287373603
43.555962 853.37683 814.13635 4294240498
46.069725 854.01794 814.67688 4294043119
46.855045 855.99799 815.03845 4293977588
-13.34312 860.00861 814.49597 4287895072
-11.675229 859.37103 813.95837 4288421928
45.866974 859.37103 813.95837 4294108658
48.368809 860.64618 815.03357 4294635002
-11.0948 862.46332 813.94965 4288423206
44.933945 862.03918 813.59204 4294240242
46.598164 862.03918 813.59204 4294240244
-13.313762 864.5838 815.73767 4288160032
-10.51682 865.5481 813.93457 4288620074
-8.3027525 864.70178 813.22095 4290002238
44.834862 865.33655 813.75616 4294569719
46.495415 865.33655 813.75616 4294306296
-10.777064 868.27924 814.27539 4287628575
44.686237 869.31769 813.18896 4294502901
46.341286 869.31769 813.18896 4294372344
-11.033639 871.0047 814.61151 4287300128
44.686237 870.58301 814.25586 4294306549
46.341286 870.58301 814.25586 4294306549
-10.733945 874.48975 814.93384 4287564581
-8.2385321 875.86597 813.47815 4289009209
44.537613 874.54663 813.67377 4294241011
46.753521 874.52765 814.09375 4294306551
-9.8862381 877.75549 815.07135 4289084971
-8.2385321 877.12561 814.54028 4289741633
44.488075 877.75549 815.07135 4294306549
46.959633 877.12561 814.54028 4294437367
49.431194 877.12561 814.54028 4294306297
-9.8532114 881.69666 814.47046 4289349444
-8.211009 881.06897 813.94116 4289415220
42.697247 880.44122 813.41187 4294240756
-9.831193 884.31714 814.06384 4288887355
40.963303 883.06445 813.00769 4294437367
43.181042 883.44458 814.2002 4294503926
-9.831193 885.56982 815.12012 4288291130
-8.1743116 886.93201 813.65259 4288883523
42.601833 885.56982 815.12012 4294108915
-9.8091745 888.80682 815.23334 4287964484
-8.1743116 888.18188 814.70642 4289280344
43.323853 888.80682 815.23334 4294306036
-9.7761469 892.71222 814.60217 4288159805
-8.1467886 891.46655 813.55188 4289082965
43.177982 892.08936 814.07703 4294371571
-9.7541285 895.93018 814.69952 4288024367
-8.1284399 894.06592 813.12756 4289014858
43.351685 895.30878 814.17554 4294305524
-9.73211 899.13983 814.78967 4287627293
-8.1100922 897.89984 813.74414 4288810551
42.983486 898.51984 814.26691 4294043124
-9.6990824 902.39368 813.60913 4287627291
-8.0825691 902.39368 813.60913 4288679466
43.64587 902.39368 813.60913 4293911791
45.416515 900.37988 815.83533 4293977586
-10.507339 904.24744 815.17224 4287234838
-7.2577982 904.9693 813.16479 4289137451
41.933945 904.9693 813.16479 4293780205
43.546787 904.9693 813.16479 4293911791
46.070641 904.24744 815.17224 4294108659
-10.214679 907.02435 814.89764 4287430938
-8.0550461 907.4859 813.9787 4288348963
43.447708 908.76947 813.75293 4293713898
45.108257 907.4859 813.9787 4293976819
-10.191437 910.81982 815.48175 4287497502
-8.0458717 909.99969 814.79016 4288415013
41.743118 911.33099 813.29675 4293713900
43.348625 911.33099 813.29675 4293647851
45.056881 909.99969 814.79016 4293713646
-9.6330271 913.78583 815.36658 4287627298
-8.027523 913.17212 814.84912 4288285226
44.418961 912.96753 814.67657 4293647850
-6.9333329 916.58984 813.8067 4288874532
43.200001 916.38599 813.63483 4293713897
-9.6000004 918.22083 815.18188 4287104292
-7.1880732 919.82104 814.56915 4287760417
43.950459 918.88086 814.43042 4293582055
-9.5779819 921.98175 815.73694 4285534752
-7.1761465 922.63898 814.98309 4285271329
-4.7779818 922.07861 813.20264 4288348186
-7.1596327 925.16962 814.50079 4287656562
-9.5339451 928.25507 815.79431 4278583808
-7.1431189 928.30139 814.52539 4282989116
-4.7559633 928.34912 813.25757 4286674047
-9.5119267 930.77313 815.30139 4279043592
-7.1266055 931.4248 814.54285 4278912010
-4.7449541 932.07642 813.7843 4279109135
-9.4899082 933.89014 815.3136 4280030234
-7.908257 933.89014 815.3136 4280161820
-9.4568806 938.8512 815.57251 4280096030
-6.6986246 937.94745 814.81055 4280096031
-3.9311926 938.94104 813.03223 4280359456
-1.5724771 938.94104 813.03223 4280623138
0.78623855 938.94104 813.03223 4280820521
40.884403 938.94104 813.03223 4293714409
43.293579 938.89612 814.30237 4293779435
46.233639 937.24457 814.21783 4293845230
48.86055 937.0437 814.04852 4293976818
-3.9311926 940.14325 814.0459 4280227617
0.78623855 940.74432 814.55273 4280819495
3.6691132 940.94464 814.72162 4281147948
43.243118 941.3454 815.05945 4293845484
46.388073 940.14325 814.0459 4293910255
-6.2752295 943.23425 814.03613 4279964694
-3.9220183 943.23425 814.03613 4280293149
-1.5688074 943.23425 814.03613 4280752934
40.78899 942.63458 813.53052 4293648105
43.142204 943.83392 814.54175 4294042861
-10.184403 946.27344 815.29059 4280026652
-7.8256879 945.71863 813.51483 4279241491
-3.1302752 946.31696 814.01929 4278321416
43.823853 946.31696 814.01929 4294109167
-9.3688078 948.79431 813.49207 4280882966
-10.360856 955.31641 813.75928 4280817715
43.515594 955.5144 813.92621 4294108912
45.587769 955.7124 814.0932 4294174705
48.177982 956.10852 814.42712 4294569466
-10.077982 959.15613 814.38068 4292197820
-7.7522936 958.56348 813.88098 4291870148
35.660549 959.74878 814.88037 4293977068
38.244648 959.3537 814.54718 4293911020
41.087158 959.15613 814.38062 4294042350
43.515594 957.29663 815.42896 4293976814
46.032413 958.53632 814.73016 4294174707
48.618958 958.9314 815.06323 4294438137
51.165138 959.74878 814.88037 4294898687
-6.9688072 960.97345 814.60498 4292199895
-4.1308866 960.96039 815.02997 4293252591
-1.5467891 962.19525 814.32715 4293713396
0.51559633 961.38068 814.51239 4294767865
3.8669724 962.19525 814.32715 4294966015
6.9605503 962.19525 814.32715 4294967295
10.320489 961.38068 814.51239 4289374940
13.163303 960.97345 814.60498 4289573782
16.26055 960.97345 814.60498 4291282140
19.107645 960.96039 815.02997 4292335274
22.703363 961.38068 814.51239 4293122751
25.264221 961.80109 813.99481 4293450980
28.683487 960.93414 815.87988 4293844198
31.784403 960.93414 815.87988 4293911275
34.029358 961.01276 813.33008 4293845739
-18.919266 749.1897 816.54248 4286386219
-21.622019 751.94476 818.86548 4286580768
-19.820183 751.25598 818.28473 4285991984
-19.759632 755.58435 818.01025 4286842658
-17.364527 754.66876 817.23828 4287300379
-19.699083 759.21558 817.14783 4286843171
-17.908257 759.21558 817.14783 4287430683
-22.339451 762.0871 816.95312 4287241520
-19.658716 762.0871 816.95312 4286779424
-17.871559 762.0871 816.95312 4287693855
-22.270641 765.70288 816.07776 4287176751
-17.816513 765.70288 816.07776 4287696420
-22.201836 770.66809 816.34009 4287376444
-24.866055 772.026 817.48499 4287047734
-22.179817 772.77161 816.80566 4287310391
-24.737616 779.80658 817.50537 4286916145
-22.087158 779.13116 816.93579 4287179828
-19.436697 779.80658 817.50537 4286587685
45.941284 778.45575 816.36633 4294240756
-19.436697 781.15747 818.64441 4286911017
-19.376146 784.72412 817.72766 4286582050
46.678898 783.37744 816.59216 4294437365
49.321102 783.37744 816.59216 4294306549
-19.376146 786.0708 818.86304 4286318110
-19.315596 789.62482 817.93567 4286382620
49.06422 791.09644 816.56042 4294240244
-19.275229 793.10583 818.2547 4286055206
-19.21468 797.31006 817.87549 4286581030
-19.174313 800.1059 817.61682 4286713122
-17.431192 798.77325 816.49316 4286842893
48.807339 798.77325 816.49316 4294306038
-19.113762 803.62488 816.65979 4286713118
-19.692966 805.83893 818.52667 4286384671
-19.053211 809.78381 817.92883 4286383137
-17.3211 808.45966 816.81226 4286775568
-19.012844 812.55444 817.6488 4286910522
-17.284403 811.23303 816.53467 4286645528
-19.012844 813.87585 818.76294 4287769933
-18.952293 818.01697 818.33057 4286519072
-16.644037 817.39948 816.93799 4287238172
-17.192661 820.77063 818.03644 4287372333
-15.423853 824.2356 817.03381 4287638577
44.557796 823.58051 816.48145 4294635513
46.271561 823.58051 816.48145 4294701307
-15.390825 827.63037 817.28015 4287244341
43.892353 826.75879 816.54523 4294372601
46.742508 826.75879 816.54523 4294504185
-15.390825 828.93774 818.38257 4287241013
-15.341285 832.38092 817.36169 4287437622
43.751068 831.51221 816.62921 4294241012
46.592045 831.51221 816.62921 4294504185
44.223854 835.10522 817.04272 4294438391
46.77523 835.10522 817.04272 4294438137
-16.954128 839.82916 817.10168 4286913843
44.080734 838.53302 816.00879 4294372855
46.623856 839.18109 816.55518 4294241527
-16.089909 841.83167 817.48212 4286847275
46.522934 842.53802 816.76965 4293911794
49.166973 841.12531 818.19458 4294306810
-16.917431 844.47803 818.4054 4286514962
46.80489 844.26245 818.22363 4293977332
49.060551 844.47803 818.4054 4294306297
-16.019266 847.87988 817.34967 4286448140
46.371559 847.87988 817.34967 4294108657
-16.002752 849.87115 817.72058 4287372840
45.429359 849.92871 816.46106 4294174960
48.794495 851.21509 817.54565 4294174960
-15.093578 854.59937 816.47522 4286981409
-15.93211 856.52258 818.0968 4286780959
48.528439 857.27728 816.11707 4294240244
-15.060551 858.55658 817.1958 4287108646
-15.011009 862.55884 816.6463 4287042856
-13.34312 861.92126 816.10876 4288094510
48.368809 863.19641 817.18384 4294306551
-15.011009 864.4715 818.25903 4287173669
-13.313762 865.85614 816.81042 4287565347
-13.84893 868.89697 817.63031 4286710804
-13.792048 874.37891 817.45636 4286912035
-13.761468 877.85638 817.77246 4287440172
-11.559633 877.01471 817.06287 4287636518
47.339447 877.43555 817.41766 4294306807
49.541283 877.646 817.59509 4294372092
51.192661 877.646 817.59509 4294108919
-13.181651 880.90466 817.72668 4287174964
-11.533945 880.27484 817.19562 4287505461
44.488075 879.64502 816.66455 4294372342
46.685017 880.4848 817.37262 4294438391
49.431194 880.90466 817.72668 4294174712
-14.005505 882.16437 818.78882 4286843943
-11.495413 884.20764 816.58752 4288093237
44.339451 884.20764 816.58752 4294306551
46.959633 882.16437 818.78882 4294503927
49.431194 882.16437 818.78882 4293912308
-13.958715 886.09082 818.17542 4287373116
-11.495413 885.46313 817.64612 4288229443
44.339451 885.46313 817.64612 4294174708
47.623852 886.71857 818.70471 4294372342
49.266056 886.71857 818.70471 4294306551
-13.108257 889.32782 818.2887 4287044661
-11.456881 889.37842 817.02332 4287637054
46.425076 888.91022 817.93671 4294437620
49.155964 889.32782 818.2887 4294306803
-13.89633 893.18134 818.92188 4286711583
-11.444036 891.93146 817.86792 4287633970
46.593578 892.5564 818.3949 4294305260
49.045872 893.18134 818.92188 4294174449
-11.405504 895.82642 817.22797 4286513432
46.436699 895.82642 817.22797 4294108653
-13.034863 897.69489 818.80347 4286644749
-11.379816 899.03735 817.31934 4286710542
46.385323 897.74469 817.53748 4293912047
-12.976147 902.85999 817.92639 4286842643
-11.354129 901.61993 816.88086 4286447883
47.144955 900.28021 818.36731 4293977586
48.660549 902.85999 817.92639 4293977066
-12.93211 907.3371 817.77728 4286711324
-11.289908 908.6684 816.28381 4286578972
46.878895 907.3371 817.77728 4293910768
48.89954 907.02808 817.51672 4293911277
-12.902752 911.13446 818.36304 4286711321
46.772476 911.13446 818.36304 4294240242
48.385323 911.13446 818.36304 4294042861
-11.26422 913.07526 817.38342 4286579735
-10.703364 916.24066 817.43634 4286711322
-10.4 920.05566 816.729 4285861399
-10.376146 923.20215 816.76599 4286206792
-10.6263 925.70099 817.12891 4283448626
-11.122936 929.46985 816.8186 4279043592
-12.711926 931.89941 818.86719 4279701523
-11.097248 931.98511 816.32336 4280162074
-10.552905 934.86835 817.01044 4280030233
-7.908257 935.70392 816.8429 4280096030
-11.07156 936.91315 817.86255 4280030237
-9.4568806 940.05615 816.5885 4279571483
-7.880734 940.05615 816.5885 4279768862
1.048318 942.94824 816.41095 4279833883
3.9311926 942.54755 816.07312 4281344812
-10.101835 959.67297 817.4325 4290555055
34.967888 959.67297 817.4325 4293977068
38.076149 959.67297 817.4325 4293977838
41.184402 959.67297 817.4325 4294043631
43.515594 959.07886 816.93158 4294174705
45.587769 959.27686 817.09857 4294372084
48.955048 959.67297 817.4325 4294438134
52.186241 958.41174 818.98523 4294833406
-10.101835 960.86108 818.43433 4290817204
-6.993578 960.86108 818.43433 4291541196
-3.8761468 962.11951 816.87927 4293251310
-1.5504587 962.11951 816.87927 4294106619
0.7770642 960.86108 818.43433 4294766847
3.8761468 962.11951 816.87927 4294967039
6.9770641 962.11951 816.87927 4294967295
10.090826 961.4903 817.6568 4294967295
13.210092 960.86108 818.43433 4294967295
16.318348 960.86108 818.43433 4294967295
19.426605 960.86108 818.43433 4294967295
22.507339 961.4903 817.6568 4293059298
25.582569 962.11951 816.87927 4293122276
28.751377 960.86108 818.43433 4294041829
