# .PCD v0.7 - Point Cloud Data file format
VERSION 0.7
FIELDS x y z rgb
SIZE 4 4 4 4
TYPE F F F U
COUNT 1 1 1 1
WIDTH 1164
HEIGHT 1
VIEWPOINT 0 0 0 1 0 0 0
POINTS 1164
DATA ascii
0 922.43353 1294.8568 4291746303
-36.922325 928.89111 1295.0696 4284963710
-20.344954 927.73895 1294.0981 4287398327
-13.563303 927.73895 1294.0981 4286938030
-9.042202 928.60303 1294.8267 4292007161
-6.7816515 927.73895 1294.0981 4291283964
-4.521101 927.73895 1294.0981 4289574891
-2.2605505 927.73895 1294.0981 4287403721
0 928.60303 1294.8267 4284837036
-33.770641 935.19983 1293.8488 4286346359
-31.519266 935.19983 1293.8488 4286938752
-9.0055046 935.19983 1293.8488 4285293717
-6.7541285 935.19983 1293.8488 4284899215
-4.5027523 935.19983 1293.8488 4284505229
-2.2513762 935.19983 1293.8488 4284768658
0 935.19983 1293.8488 4285358980
-36.022018 936.92102 1295.3 4287267479
-33.770641 936.92102 1295.3 4287004307
-31.519266 936.92102 1295.3 4287267729
2.2513762 936.92102 1295.3 4285425286
-29.172478 940.4519 1293.045 4287465887
-25.806423 940.4519 1293.045 4286545818
-22.440367 940.4519 1293.045 4286086328
-20.196331 940.4519 1293.045 4283783573
-2.2440367 940.4519 1293.045 4285294218
-58.344955 943.88306 1295.9382 4283651971
-33.660549 943.88306 1295.9382 4284904353
-31.416513 943.02527 1295.215 4283981965
-29.172478 942.16748 1294.4917 4284573064
2.2440367 943.02527 1295.215 4285031043
4.4880733 943.02527 1295.215 4285030781
6.73211 943.88306 1295.9382 4284964987
-31.288073 949.54834 1294.1748 4285104830
-29.053211 949.54834 1294.1748 4285170623
-24.583487 949.54834 1294.1748 4287277782
-13.409174 949.54834 1294.1748 4283585926
-11.174312 949.54834 1294.1748 4284638614
-7.8220181 949.54834 1294.1748 4284965505
-4.4697247 949.54834 1294.1748 4284637572
-2.2348623 949.54834 1294.1748 4284571778
0 949.54834 1294.1748 4285031544
4.4697247 949.54834 1294.1748 4284899192
7.8220181 949.54834 1294.1748 4284899191
-33.522934 951.25696 1295.6155 4290038505
-31.288073 951.25696 1295.6155 4290697727
2.2348623 951.25696 1295.6155 4285030781
4.4697247 951.25696 1295.6155 4285095544
7.8220181 951.25696 1295.6155 4284963957
-33.412846 956.44452 1294.7573 4292867071
-31.185322 954.74158 1293.3215 4292142079
-16.706421 954.74158 1293.3215 4285893324
-13.365138 954.74158 1293.3215 4285955244
-11.137614 955.59302 1294.0394 4284442264
-7.7963305 955.59302 1294.0394 4284833664
-4.4550457 955.59302 1294.0394 4284768127
-2.2275229 955.59302 1294.0394 4284702078
0 955.59302 1294.0394 4284899196
4.4550457 956.44452 1294.7573 4284833401
7.7963305 956.44452 1294.7573 4284833400
-33.302753 961.60974 1293.8804 4290894079
-31.082569 961.60974 1293.8804 4291091711
-13.321101 961.60974 1293.8804 4286428147
-7.7706423 961.60974 1293.8804 4283652462
-4.4403667 961.60974 1293.8804 4284964735
-2.2201834 961.60974 1293.8804 4284898942
0 961.60974 1293.8804 4284833401
7.7706423 961.60974 1293.8804 4284832634
-34.412842 963.30707 1295.3115 4290563066
-31.082569 963.30707 1295.3115 4291024889
-13.321101 963.30707 1295.3115 4292470015
-7.7706423 963.30707 1295.3115 4282994809
-2.2201834 963.30707 1295.3115 4284833668
1.1100917 963.30707 1295.3115 4284702585
4.4403667 963.30707 1295.3115 4284702070
-28.766972 968.44415 1294.4109 4290234355
-26.554129 968.44415 1294.4109 4289839355
-54.172478 760.48376 1296.9562 4286812111
2.4623854 760.48376 1296.9562 4294180863
4.9247708 762.36627 1298.5435 4294180863
-52.744034 768.84229 1297.4637 4285958074
2.4532111 768.84229 1297.4637 4294311935
4.9064221 768.84229 1297.4637 4294049023
7.359633 768.84229 1297.4637 4294115071
-52.546791 775.29034 1296.3604 4287997909
-48.880733 775.29034 1296.3604 4289246943
-46.436699 775.29034 1296.3604 4289575908
2.4440367 775.29034 1296.3604 4294246399
4.8880734 775.29034 1296.3604 4294115071
7.3321099 775.29034 1296.3604 4294115071
9.7761469 775.29034 1296.3604 4294049023
-56.212845 777.15887 1297.9358 4288522454
-52.546791 777.15887 1297.9358 4289182710
-48.880733 777.15887 1297.9358 4290037503
2.4440367 777.15887 1297.9358 4293786367
4.8880734 777.15887 1297.9358 4293851903
7.3321099 777.15887 1297.9358 4293851903
9.7761469 777.15887 1297.9358 4293786623
-51.132111 785.43329 1298.3726 4286593397
-48.697247 784.50256 1297.5878 4288501149
-46.262386 784.50256 1297.5878 4288698528
-43.827522 783.57184 1296.803 4291069397
2.4348624 784.50256 1297.5878 4293852159
7.3045874 783.57184 1296.803 4294048511
9.7394495 783.57184 1296.803 4293720063
-49.285015 793.57758 1297.3915 4289488808
-46.053211 792.34216 1296.3497 4289157541
-43.629356 792.34216 1296.3497 4289154720
0 792.34216 1296.3497 4293786623
-49.500916 800.53528 1296.7178 4289290653
0 800.53528 1296.7178 4293259775
-57.952293 802.38135 1298.2743 4287123085
-53.122936 802.38135 1298.2743 4287976334
-50.708256 802.38135 1298.2743 4288173456
-55.326607 808.68622 1297.0503 4287321479
-49.312843 808.68622 1297.0503 4288698005
-45.704586 808.68622 1297.0503 4289485722
-57.732109 810.52527 1298.601 4287255688
-55.326607 810.52527 1298.601 4286992517
-52.921101 810.52527 1298.601 4287580544
-49.312843 810.52527 1298.601 4288631179
-62.304588 818.62714 1298.8921 4286469003
-57.511925 818.62714 1298.8921 4287189132
-55.115597 818.62714 1298.8921 4287649427
-52.719265 818.62714 1298.8921 4288698246
-50.322937 817.71118 1298.1198 4288698504
-47.127827 817.40582 1297.8623 4289683092
0 816.79517 1297.3474 4292799743
-50.130276 824.862 1297.609 4288567964
-46.947399 823.64532 1296.5831 4289553045
-2.387156 823.94946 1296.8396 4293128703
0 823.94946 1296.8396 4292733951
-46.406422 830.55737 1297.1791 4289029019
-42.836697 830.55737 1297.1791 4290210461
-2.3798165 830.55737 1297.1791 4293194495
-49.976147 832.37677 1298.7131 4288701084
-46.406422 832.37677 1298.7131 4288963488
-2.3798165 832.37677 1298.7131 4293129215
-46.227524 838.55127 1297.3792 4288892039
-42.671558 838.55127 1297.3792 4289416332
-2.3706422 838.55127 1297.3792 4292866047
-46.227524 840.36365 1298.9072 4288498046
-42.671558 840.36365 1298.9072 4289219473
0 840.36365 1298.9072 4293128447
-40.144955 844.69769 1296.0215 4289617574
-37.783485 844.69769 1296.0215 4290402214
-4.7229357 844.69769 1296.0215 4292799743
-2.3614678 844.69769 1296.0215 4292799743
0 844.69769 1296.0215 4293193215
-40.144955 846.50305 1297.5438 4289684662
-37.783485 846.50305 1297.5438 4290339499
-35.42202 846.50305 1297.5438 4290668464
-30.699083 846.50305 1297.5438 4291259068
0 846.50305 1297.5438 4292930559
-42.341286 854.41278 1297.6729 4289882547
-39.988991 852.61444 1296.1565 4289554094
-37.636696 852.61444 1296.1565 4290539165
-35.284405 852.61444 1296.1565 4291065509
-2.3522935 853.51361 1296.9147 4292734207
0 853.51361 1296.9147 4292405247
-43.347706 860.48901 1296.2561 4289488301
-39.833027 860.48901 1296.2561 4289552551
-25.774311 860.48901 1296.2561 4291725260
-23.431192 860.48901 1296.2561 4291395533
-2.3431194 860.48901 1296.2561 4292405247
0 860.48901 1296.2561 4292668415
-44.519264 862.2804 1297.7666 4288830607
0 862.2804 1297.7666 4292142591
-43.211929 868.72278 1297.9664 4288366722
-39.708256 867.82996 1297.2136 4289878670
-7.0073395 869.61566 1298.7192 4292339199
-4.6715598 867.82996 1297.2136 4292405247
-2.3357799 867.82996 1297.2136 4292339455
0 867.82996 1297.2136 4292405247
-37.225689 875.62457 1297.2457 4290343317
-34.899082 875.62457 1297.2457 4290474903
-31.409174 875.62457 1297.2457 4290736585
-27.919266 875.62457 1297.2457 4291002046
-25.592661 875.62457 1297.2457 4291857099
-6.9798164 875.62457 1297.2457 4292339199
-2.3266056 875.62457 1297.2457 4292536063
0 875.62457 1297.2457 4292273407
-44.205505 877.40332 1298.7455 4288176331
-40.715595 877.40332 1298.7455 4288566170
-37.225689 877.40332 1298.7455 4290080649
-34.899082 877.40332 1298.7455 4290804372
-31.409174 877.40332 1298.7455 4290802125
-25.592661 877.40332 1298.7455 4292579275
0 877.40332 1298.7455 4292405247
-44.031193 883.3772 1297.2424 4286402680
-40.555046 883.3772 1297.2424 4288106886
-37.078899 883.3772 1297.2424 4289817752
-4.6348624 883.3772 1297.2424 4292010751
-2.3174312 883.3772 1297.2424 4292142335
-44.031193 885.14893 1298.7362 4286537596
-40.555046 885.14893 1298.7362 4288174471
-37.078899 885.14893 1298.7362 4289423261
-2.3174312 885.14893 1298.7362 4292339711
0 885.14893 1298.7362 4292142591
-36.961468 890.60864 1298.1077 4288824965
-34.651375 889.72559 1297.363 4289814168
-32.341286 889.72559 1297.363 4289879724
-6.9302754 888.84259 1296.6185 4291944447
-4.6201835 889.72559 1297.363 4292076543
-43.71743 896.52222 1296.5536 4286925681
-40.266056 896.52222 1296.5536 4288038261
-36.814678 896.52222 1296.5536 4288956031
-34.51376 896.52222 1296.5536 4288890238
-32.212845 896.52222 1296.5536 4289020293
-28.761467 896.52222 1296.5536 4290073747
-25.310091 896.52222 1296.5536 4290008721
-23.009174 896.52222 1296.5536 4290073496
-16.106422 896.52222 1296.5536 4291001540
-10.354128 896.52222 1296.5536 4292991999
-6.9027524 896.52222 1296.5536 4292141055
-52.921101 898.28125 1298.0369 4284831856
-49.469727 898.28125 1298.0369 4286271869
-46.018349 898.28125 1298.0369 4287254141
-43.71743 898.28125 1298.0369 4287122555
-40.266056 898.28125 1298.0369 4288103802
-36.814678 898.28125 1298.0369 4288759172
-34.51376 898.28125 1298.0369 4288824965
-32.212845 898.28125 1298.0369 4289020813
-29.911926 898.28125 1298.0369 4290073244
-9.2036695 898.28125 1298.0369 4292535807
-6.9027524 898.28125 1298.0369 4292206847
-4.6018348 898.28125 1298.0369 4292272895
-43.543118 905.91187 1297.9307 4287123071
-41.251377 905.91187 1297.9307 4288038524
-37.813759 905.03583 1297.192 4288300159
-34.376148 905.03583 1297.192 4289022345
-32.084404 905.91187 1297.9307 4289152644
-29.79266 905.03583 1297.192 4289482122
-25.209175 904.15979 1296.4534 4290402716
-22.917431 905.03583 1297.192 4290402713
-20.625689 904.15979 1296.4534 4290731679
-10.312843 904.15979 1296.4534 4293056767
-6.8752294 904.15979 1296.4534 4291877119
-4.5834861 905.03583 1297.192 4290628095
-2.291743 905.91187 1297.9307 4290234111
0 905.91187 1297.9307 4290365183
-34.266056 911.28748 1297.231 4288827266
-31.981651 911.28748 1297.231 4289284996
-29.697248 911.28748 1297.231 4289350789
-25.128441 911.28748 1297.231 4290401432
-22.844036 911.28748 1297.231 4290402196
-6.8532109 911.28748 1297.231 4290757375
-4.5688071 911.28748 1297.231 4290429947
-2.2844036 911.28748 1297.231 4290693119
-41.119267 913.03394 1298.7036 4286663038
-37.692657 913.03394 1298.7036 4287318913
-2.2844036 913.03394 1298.7036 4290562303
0 913.03394 1298.7036 4290496511
-40.954128 920.58447 1298.5299 4285687193
-36.403671 919.71472 1297.7966 4287264949
1.1376147 919.71472 1297.7966 4290957055
9.1009178 920.58447 1298.5299 4286940860
13.651376 920.58447 1298.5299 4285823408
-43.089909 925.90118 1297.7806 4285952148
-40.822018 925.0343 1297.0497 4285491589
-37.798164 924.7453 1296.806 4284569971
0 924.16736 1296.3187 4291548671
-40.689907 932.05945 1297.7411 4286543246
-37.299084 932.05945 1297.7411 4286872718
0 931.19537 1297.0125 4285293702
-33.770641 938.64221 1296.7512 4286414482
-31.519266 938.64221 1296.7512 4286742421
2.2513762 938.64221 1296.7512 4285162369
4.5027523 938.64221 1296.7512 4285096324
-58.535778 940.3634 1298.2025 4283388802
-36.022018 940.3634 1298.2025 4283984786
-33.770641 940.3634 1298.2025 4283984786
-58.344955 945.59863 1297.3848 4283849605
-33.660549 946.45642 1298.108 4285496470
2.2440367 946.45642 1298.108 4284900476
6.73211 945.59863 1297.3848 4285031035
-33.522934 952.96552 1297.056 4291814911
2.2348623 952.96552 1297.056 4284833147
4.4697247 952.96552 1297.056 4284963706
7.8220181 952.96552 1297.056 4284963704
11.174312 952.96552 1297.056 4284832373
-42.462387 954.67407 1298.4967 4290366463
-35.757797 954.67407 1298.4967 4291288319
2.2348623 954.67407 1298.4967 4284833147
-42.322937 959.85046 1297.6292 4290103549
-40.095413 959.85046 1297.6292 4290103039
-37.867889 959.85046 1297.6292 4290629375
-35.640366 958.99896 1296.9111 4291024383
-11.137614 958.99896 1296.9111 4282477221
2.2275229 958.99896 1296.9111 4284767608
4.4550457 958.99896 1296.9111 4284701818
-34.412842 965.00439 1296.7427 4290431228
-31.082569 965.00439 1296.7427 4290365171
-24.422018 965.00439 1296.7427 4290103295
-22.201836 965.00439 1296.7427 4290759679
-19.981651 965.00439 1296.7427 4291154431
-16.651375 965.00439 1296.7427 4293060863
-13.321101 965.00439 1296.7427 4293982207
-7.7706423 965.00439 1296.7427 4285163927
-4.4403667 965.00439 1296.7427 4284045434
-2.2201834 965.00439 1296.7427 4284571778
0 965.00439 1296.7427 4284899194
7.7706423 965.00439 1296.7427 4284636024
11.100918 965.00439 1296.7427 4284570234
-37.743118 966.70178 1298.1738 4290431487
-34.412842 966.70178 1298.1738 4290431743
-31.082569 966.70178 1298.1738 4290168306
-24.422018 966.70178 1298.1738 4289642233
-22.201836 966.70178 1298.1738 4289642482
-19.981651 966.70178 1298.1738 4290366205
-16.651375 966.70178 1298.1738 4292142079
-13.321101 966.70178 1298.1738 4294113791
-4.4403667 966.70178 1298.1738 4283518584
-2.2201834 966.70178 1298.1738 4284505735
0 966.70178 1298.1738 4284636540
-56.845871 755.86212 1299.5995 4288520135
2.4715595 755.86212 1299.5995 4294443007
-56.845871 757.75165 1301.1926 4287072178
4.943119 757.75165 1301.1926 4293916927
-56.634861 764.24878 1300.1307 4285498541
7.387156 764.24878 1300.1307 4293983999
-56.634861 766.13135 1301.718 4285432232
9.8495417 766.13135 1301.718 4294115071
-56.423855 770.71783 1299.0452 4285826988
-53.970642 770.71783 1299.0452 4286615489
9.8128443 770.71783 1299.0452 4294048511
-58.877064 772.59332 1300.6265 4286352053
-56.423855 772.59332 1300.6265 4286944190
-56.212845 779.02734 1299.5114 4290162387
-52.546791 779.02734 1299.5114 4291475709
2.4440367 779.02734 1299.5114 4293786367
4.8880734 779.02734 1299.5114 4293983231
7.3321099 779.02734 1299.5114 4293851903
-56.212845 780.89581 1301.0868 4287785626
-52.546791 780.89581 1301.0868 4288113075
4.8880734 780.89581 1301.0868 4294311679
-52.349541 787.2948 1299.942 4288172425
-48.697247 787.2948 1299.942 4289222555
2.4348624 787.2948 1299.942 4293523711
-52.349541 789.15625 1301.5116 4288700568
2.4348624 789.15625 1301.5116 4293786623
12.174312 789.15625 1301.5116 4293523455
-58.172478 797.90137 1301.0371 4287452299
-55.748623 797.90137 1301.0371 4287583886
-53.324772 797.90137 1301.0371 4288172943
-50.900917 796.04828 1299.4746 4289292973
2.4238532 797.90137 1301.0371 4293259775
-61.57431 805.15039 1300.6091 4286467965
-57.952293 805.15039 1300.6091 4287058565
-55.537613 804.22736 1299.8308 4287387788
-53.122936 805.15039 1300.6091 4288041872
-50.708256 804.22736 1299.8308 4288436885
2.4146788 805.15039 1300.6091 4293259775
-62.543118 812.36426 1300.1516 4286008454
-57.732109 812.36426 1300.1516 4287057030
-55.326607 812.36426 1300.1516 4287122824
-52.921101 812.36426 1300.1516 4288040071
-50.515594 812.36426 1300.1516 4288435086
2.4055047 812.36426 1300.1516 4293259775
-61.340366 814.20331 1301.7021 4286336898
-57.732109 814.20331 1301.7021 4287057026
-55.326607 814.20331 1301.7021 4287517577
-52.921101 814.20331 1301.7021 4288830348
2.4055047 814.20331 1301.7021 4292997119
4.8110094 814.20331 1301.7021 4293062399
7.2165136 814.20331 1301.7021 4293391359
-55.115597 820.45917 1300.4368 4287584147
-52.719265 820.45917 1300.4368 4288369806
-50.322937 820.45917 1300.4368 4288698771
2.3963304 820.45917 1300.4368 4292800255
-55.115597 822.2912 1301.9814 4287583638
-52.719265 822.2912 1301.9814 4287976084
2.3963304 822.2912 1301.9814 4292931071
-50.130276 826.68701 1299.1478 4288502939
-47.743118 826.68701 1299.1478 4288831638
0 826.68701 1299.1478 4292800255
-62.066055 828.51196 1300.6866 4286402960
-58.485321 828.51196 1300.6866 4286927760
-54.904587 828.51196 1300.6866 4287387025
-52.517429 828.51196 1300.6866 4288042388
-50.130276 828.51196 1300.6866 4288766111
0 828.51196 1300.6866 4292997119
-52.355965 834.19617 1300.2472 4288437135
-49.976147 835.10583 1301.0142 4288370058
-47.596329 834.19617 1300.2472 4289290656
-2.3798165 834.19617 1300.2472 4293325567
0 835.10583 1301.0142 4292734207
-49.783485 842.17603 1300.4354 4287777667
-46.227524 842.17603 1300.4354 4289025170
-42.671558 842.17603 1300.4354 4289814954
-52.154129 843.9884 1301.9636 4288044175
-49.783485 843.9884 1301.9636 4288504726
-46.227524 843.9884 1301.9636 4289227179
-42.671558 843.9884 1301.9636 4290342592
2.3706422 843.9884 1301.9636 4292930559
-47.229359 848.30841 1299.066 4288176034
-43.687157 848.30841 1299.066 4289753018
-40.144955 848.30841 1299.066 4289619385
0 848.30841 1299.066 4292733951
-43.687157 850.11377 1300.5883 4289621939
-44.693577 856.21118 1299.1892 4289556172
0 856.21118 1299.1892 4292668415
-47.045872 858.00952 1300.7056 4288568997
2.3522935 858.00952 1300.7056 4292471295
-46.862385 864.96741 1300.0322 4287906678
2.3431194 864.96741 1300.0322 4292602879
-43.211929 871.40137 1300.225 4288698524
2.3357799 871.40137 1300.225 4293194495
11.678899 871.40137 1300.225 4292405503
14.014679 871.40137 1300.225 4292471295
-43.211929 873.18713 1301.7306 4288040859
-39.708256 873.18713 1301.7306 4289486224
2.3357799 873.18713 1301.7306 4292668159
7.0073395 873.18713 1301.7306 4292339967
10.511009 873.18713 1301.7306 4292406015
14.014679 873.18713 1301.7306 4292339967
16.350458 873.18713 1301.7306 4292339967
-44.205505 879.18201 1300.2452 4286728859
-41.878899 879.18201 1300.2452 4287708015
-37.225689 879.18201 1300.2452 4289948309
0 880.07135 1300.9951 4292207871
-44.031193 886.92059 1300.2301 4286735725
-40.555046 886.92059 1300.2301 4288371339
-37.078899 886.92059 1300.2301 4289816219
-2.3174312 886.92059 1300.2301 4292471295
0 886.92059 1300.2301 4292667903
-44.031193 888.69226 1301.7239 4286209903
-40.555046 888.69226 1301.7239 4287777910
-2.3174312 888.69226 1301.7239 4292142335
0 888.69226 1301.7239 4292535551
-43.891743 892.37476 1299.5967 4286864473
-40.426605 892.37476 1299.5967 4287777923
-36.961468 892.37476 1299.5967 4288824447
-32.341286 892.37476 1299.5967 4288953732
-4.6201835 892.37476 1299.5967 4292076799
-2.3100917 892.37476 1299.5967 4292076799
-48.511925 894.14087 1301.0858 4286666616
-46.201836 894.14087 1301.0858 4287320439
-4.6201835 894.14087 1301.0858 4291944703
-2.3100917 894.14087 1301.0858 4292076543
0 894.14087 1301.0858 4292273407
-57.522934 900.91992 1300.2616 4286217894
-55.222019 900.91992 1300.2616 4286676387
-52.921101 900.91992 1300.2616 4286742180
-49.086243 900.62671 1300.0144 4285682814
-46.018349 900.91992 1300.2616 4286989946
-43.71743 900.91992 1300.2616 4287384448
-40.64954 900.62671 1300.0144 4288038265
-36.814678 900.04034 1299.52 4288693379
-32.212845 900.91992 1300.2616 4289087110
-6.9027524 900.04034 1299.52 4291942911
-4.6018348 900.04034 1299.52 4291614207
-2.3009174 900.91992 1300.2616 4291285503
0 900.91992 1300.2616 4290825471
-45.834862 907.66394 1299.408 4286728829
-43.543118 907.66394 1299.408 4286992000
-41.251377 907.66394 1299.408 4287905921
-37.813759 907.66394 1299.408 4288498051
-34.376148 907.66394 1299.408 4288760959
-32.084404 907.66394 1299.408 4289152644
-29.79266 907.66394 1299.408 4289350024
0 907.66394 1299.408 4290693631
-43.543118 909.41602 1300.8851 4286992000
-41.251377 909.41602 1300.8851 4287905912
-37.813759 909.41602 1300.8851 4288761475
0 909.41602 1300.8851 4290561791
-43.403671 914.78033 1300.1761 4285294232
-41.119267 914.78033 1300.1761 4286274967
-38.834862 914.78033 1300.1761 4286011795
-43.403671 916.52679 1301.6487 4287070379
-41.119267 916.52679 1301.6487 4287463340
-38.834862 916.52679 1301.6487 4287660720
2.2844036 916.52679 1301.6487 4291944447
9.1376143 916.52679 1301.6487 4291810559
13.706422 916.52679 1301.6487 4289575896
-45.504585 922.32391 1299.9966 4283649382
-43.229359 922.32391 1299.9966 4284833399
2.2752295 922.32391 1299.9966 4288983005
4.5504589 922.32391 1299.9966 4286811348
9.1009178 922.32391 1299.9966 4283849355
13.651376 922.32391 1299.9966 4285031314
15.926605 922.32391 1299.9966 4285360279
-46.6422 924.06335 1301.4633 4283585146
2.2752295 924.06335 1301.4633 4283718307
4.5504589 924.06335 1301.4633 4284569757
15.926605 924.06335 1301.4633 4285620369
18.201836 924.06335 1301.4633 4285817736
-46.491745 929.36877 1300.7045 4283323265
-43.089909 928.50189 1299.9735 4285821344
-40.822018 927.63501 1299.2426 4286542729
2.26789 928.50189 1299.9735 4284703631
-42.950459 934.65179 1299.9269 4284771999
-40.689907 934.65179 1299.9269 4286346640
-38.429359 934.65179 1299.9269 4287267742
-42.950459 936.38 1301.384 4284245907
-40.689907 936.38 1301.384 4284770959
-37.299084 936.38 1301.384 4286086296
-56.284405 942.94519 1300.3794 4283981192
-37.147705 942.94519 1300.3794 4285823655
-47.124771 950.74536 1301.7244 4285628855
-43.758713 950.74536 1301.7244 4286944215
-40.392662 950.74536 1301.7244 4287012825
-38.148624 950.74536 1301.7244 4287210203
-35.904587 949.88757 1301.0011 4287867336
-46.93211 956.38263 1299.9373 4289642214
-43.579819 956.38263 1299.9373 4290759666
-40.227524 956.38263 1299.9373 4290694399
-37.992661 956.38263 1299.9373 4291286527
-46.93211 958.09119 1301.3779 4290037492
-44.697247 958.09119 1301.3779 4290037755
-43.436699 961.55334 1299.0651 4290431998
-40.095413 961.55334 1299.0651 4290233855
-37.867889 961.55334 1299.0651 4290036735
-11.137614 961.55334 1299.0651 4284377479
-46.777981 964.95929 1301.9368 4290103295
-43.436699 964.10779 1301.2189 4290233855
-40.095413 964.10779 1301.2189 4290234111
-37.867889 963.25635 1300.501 4290299903
-11.137614 964.10779 1301.2189 4289771476
-7.7963305 964.95929 1301.9368 4285889449
2.2275229 963.25635 1300.501 4284833401
4.4550457 963.25635 1300.501 4284636277
8.9100914 964.95929 1301.9368 4284569980
13.365138 963.25635 1300.501 4284700534
15.592661 963.25635 1300.501 4284700534
-34.412842 968.39911 1299.605 4290234878
-31.082569 968.39911 1299.605 4289971958
-28.862385 968.39911 1299.605 4290037751
-26.642202 968.39911 1299.605 4290103035
-59.317432 761.5307 1304.379 4285103783
-56.845871 759.64117 1302.7859 4286416309
7.4146791 759.64117 1302.7859 4294443007
-59.097248 768.01379 1303.3053 4285366437
-58.877064 775.40662 1302.9985 4287730364
-58.656879 782.76428 1302.6622 4286008715
-56.212845 782.76428 1302.6622 4284956027
-53.768806 782.76428 1302.6622 4286659190
4.8880734 782.76428 1302.6622 4293852415
7.3321099 782.76428 1302.6622 4293720575
9.7761469 782.76428 1302.6622 4293785855
-56.212845 784.63281 1304.2377 4286929287
4.8880734 784.63281 1304.2377 4293195263
7.3321099 784.63281 1304.2377 4293458687
9.7761469 784.63281 1304.2377 4293720575
-53.566971 791.0177 1303.0812 4288373147
2.4348624 791.0177 1303.0812 4293457919
-56.001835 792.87921 1304.6508 4287781792
-53.566971 792.87921 1304.6508 4288240285
2.4348624 792.87921 1304.6508 4293720575
-63.020184 799.75439 1302.5996 4286335629
-60.596329 799.75439 1302.5996 4286599058
-55.748623 799.75439 1302.5996 4287517843
2.4238532 799.75439 1302.5996 4293128447
4.8477063 799.75439 1302.5996 4293259775
4.8477063 801.60742 1304.162 4293128447
7.2715597 801.60742 1304.162 4293325567
14.543119 801.60742 1304.162 4293195263
-61.171864 808.53485 1303.4628 4286337155
2.4146788 807.91943 1302.9438 4293194751
4.8293576 808.84247 1303.7222 4293325823
7.2440367 809.7655 1304.5005 4293325567
9.6587152 809.7655 1304.5005 4293325567
13.683181 809.15015 1303.9816 4293457407
-60.137615 816.04236 1303.2528 4286469003
-57.732109 817.88135 1304.8035 4287255438
2.4055047 816.04236 1303.2528 4292997119
4.8110094 816.96185 1304.0281 4292996863
7.2165136 816.96185 1304.0281 4293457407
9.6220188 816.96185 1304.0281 4293064447
13.230275 816.96185 1304.0281 4291290879
-55.115597 824.12317 1303.5262 4287452818
-52.719265 824.12317 1303.5262 4287845009
2.3963304 824.12317 1303.5262 4292866047
-62.066055 830.33698 1302.2253 4286403212
-58.485321 830.33698 1302.2253 4286862222
-54.904587 830.33698 1302.2253 4287913369
-52.517429 830.33698 1302.2253 4288108946
0 830.33698 1302.2253 4292800255
-58.485321 832.16199 1303.7642 4286993550
-54.904587 832.16199 1303.7642 4288044948
-57.115597 839.6543 1304.8494 4287122572
-54.735779 839.6543 1304.8494 4287253901
-52.355965 838.74463 1304.0823 4287579773
-49.976147 837.8349 1303.3153 4287184501
2.3798165 838.74463 1304.0823 4293127935
4.7596331 839.6543 1304.8494 4292864767
7.1394496 839.6543 1304.8494 4292996607
10.709174 839.6543 1304.8494 4292734463
14.278899 839.6543 1304.8494 4292866047
-55.710091 845.80078 1303.4917 4287059602
-52.154129 845.80078 1303.4917 4286928018
-49.783485 845.80078 1303.4917 4287849120
2.3706422 845.80078 1303.4917 4292667903
-49.590824 851.91919 1302.1105 4287650712
-47.229359 851.91919 1302.1105 4287977390
-44.867889 851.91919 1302.1105 4289293249
2.3614678 851.91919 1302.1105 4292405247
-54.313763 853.72449 1303.6327 4287783579
-51.952293 853.72449 1303.6327 4287452818
-49.590824 853.72449 1303.6327 4288044698
-47.229359 853.72449 1303.6327 4288569277
2.3614678 853.72449 1303.6327 4292799999
-49.398167 859.80786 1302.2218 4288174238
-47.045872 859.80786 1302.2218 4288501642
2.3522935 859.80786 1302.2218 4292405759
-49.398167 861.6062 1303.7382 4287712392
4.704587 861.6062 1303.7382 4292667903
7.056881 861.6062 1303.7382 4292667903
10.585321 861.6062 1303.7382 4292601599
-46.862385 868.55005 1303.053 4288699560
2.3431194 867.65442 1302.2977 4292931071
4.6862388 868.55005 1303.053 4292536831
7.0293579 868.55005 1303.053 4292471039
10.153518 868.25146 1302.8013 4292471295
2.3357799 874.97284 1303.2363 4292668415
4.6715598 874.97284 1303.2363 4292733951
7.0073395 874.97284 1303.2363 4292799743
10.511009 874.97284 1303.2363 4292865279
14.014679 874.97284 1303.2363 4292471039
-46.715595 876.75854 1304.7419 4287913132
2.3357799 876.75854 1304.7419 4292405247
4.6715598 876.75854 1304.7419 4292536063
7.0073395 876.75854 1304.7419 4292733695
10.511009 876.75854 1304.7419 4292405247
14.014679 876.75854 1304.7419 4292339967
-46.532108 883.62878 1303.9946 4287196029
2.3266056 883.62878 1303.9946 4292602367
-48.666054 890.46399 1303.2178 4288579727
-46.348625 890.46399 1303.2178 4288246126
0 890.46399 1303.2178 4292338943
-55.618347 892.23566 1304.7117 4286538352
2.3174312 892.23566 1304.7117 4292273407
4.6348624 892.23566 1304.7117 4291812607
-57.752293 895.90692 1302.575 4283979387
-55.442204 895.90692 1302.575 4284963443
-2.3100917 895.90692 1302.575 4292470015
0 895.90692 1302.575 4292338687
-48.319267 904.43799 1303.228 4285818789
-46.018349 903.55847 1302.4865 4286859899
2.3009174 905.31757 1303.9696 4291022591
4.6018348 905.31757 1303.9696 4290760952
-43.543118 911.16803 1302.3624 4285682053
2.291743 911.16803 1302.3624 4290957055
-48.126606 912.92004 1303.8397 4285559207
-45.834862 912.92004 1303.8397 4285228439
2.291743 912.92004 1303.8397 4291154687
4.5834861 912.92004 1303.8397 4291549439
6.8752294 912.92004 1303.8397 4291878399
10.312843 912.92004 1303.8397 4292008703
13.750459 912.92004 1303.8397 4289971967
-46.830276 919.14648 1303.8574 4283650428
-43.403671 918.27325 1303.1212 4285030794
4.5688071 918.27325 1303.1212 4289312752
6.8532109 919.14648 1303.8574 4285890753
11.422018 919.14648 1303.8574 4285427876
-50.055046 925.80273 1302.9298 4283323006
-46.6422 925.80273 1302.9298 4283519614
4.5504589 925.80273 1302.9298 4284637068
6.8256879 925.80273 1302.9298 4285163668
-56.880733 927.54224 1304.3965 4284906138
-52.330276 927.54224 1304.3965 4283326102
-50.055046 927.54224 1304.3965 4282996094
4.5504589 927.54224 1304.3965 4285358728
-55.563301 932.83643 1303.6283 4283718033
-52.161469 932.83643 1303.6283 4283257495
-49.893578 931.96954 1302.8973 4282732670
-46.491745 931.96954 1302.8973 4283258246
-43.089909 931.10266 1302.1664 4285559720
2.26789 931.10266 1302.1664 4285687945
4.53578 932.83643 1303.6283 4284899463
-55.383484 938.10822 1302.8412 4283456139
-47.471561 938.10822 1302.8412 4283194761
-42.950459 938.10822 1302.8412 4283916954
-40.689907 938.10822 1302.8412 4282670223
-38.429359 938.10822 1302.8412 4283459739
-54.253212 939.83643 1304.2983 4283916942
-51.992661 939.83643 1304.2983 4284574872
-49.732109 939.83643 1304.2983 4284705945
-46.341286 939.83643 1304.2983 4285363367
-42.950459 939.83643 1304.2983 4286217912
-40.689907 939.83643 1304.2983 4285627573
-46.153214 947.24817 1304.0076 4283852698
-42.776146 946.38757 1303.282 4283392395
-40.524769 947.24817 1304.0076 4284841903
-37.522934 946.10077 1303.04 4283591310
-47.124771 952.461 1303.1709 4289051110
-44.880733 952.461 1303.1709 4289511411
-40.392662 952.461 1303.1709 4290234111
-38.148624 952.461 1303.1709 4291023871
-49.368809 954.17657 1304.6174 4288984541
-46.93211 959.7998 1302.8186 4290562815
-49.166973 961.50836 1304.2592 4290169087
-46.93211 961.50836 1304.2592 4290169087
-42.322937 966.66229 1303.3727 4290299903
-40.095413 967.51379 1304.0906 4290431486
-37.867889 967.51379 1304.0906 4290299901
-34.526604 968.36523 1304.8086 4290563327
-31.185322 968.36523 1304.8086 4290300412
-28.957798 968.36523 1304.8086 4290234363
-25.24526 967.79761 1304.33 4289840122
-22.275229 967.51379 1304.0906 4289576953
-20.047707 967.51379 1304.0906 4289379573
-16.706421 967.51379 1304.0906 4289250042
-13.365138 967.51379 1304.0906 4291023615
-11.137614 967.51379 1304.0906 4290365695
-7.7963305 967.51379 1304.0906 4286218430
-4.4550457 967.51379 1304.0906 4283387505
-2.2275229 967.51379 1304.0906 4284440192
0 967.51379 1304.0906 4284636540
7.4477062 754.47314 1306.2765 4294114303
-59.58165 756.37109 1307.8767 4286218929
-59.317432 763.42023 1305.9723 4285366439
-64.022018 771.77887 1306.4799 4288257483
-61.559631 771.77887 1306.4799 4287862725
-63.783485 778.21985 1305.3706 4288586712
-61.330276 778.21985 1305.3706 4286547129
-58.877064 778.21985 1305.3706 4287259281
-63.783485 780.09534 1306.952 4288913367
-61.330276 780.09534 1306.952 4286544819
-63.544952 788.36975 1307.3887 4286867365
-61.100918 787.43555 1306.6008 4287131820
-58.656879 787.43555 1306.6008 4287061399
-56.212845 787.43555 1306.6008 4287258778
4.8880734 787.43555 1306.6008 4293326591
7.3321099 787.43555 1306.6008 4293457919
9.7761469 787.43555 1306.6008 4293391615
12.220183 788.36975 1307.3887 4293588991
-63.306423 794.74066 1306.2202 4286335870
-60.871559 794.74066 1306.2202 4286730628
4.8697248 794.74066 1306.2202 4293325567
7.3045874 794.74066 1306.2202 4293391615
9.7394495 794.74066 1306.2202 4293062911
13.391743 794.74066 1306.2202 4293458175
7.3045874 796.60217 1307.7898 4293588991
9.7394495 796.60217 1307.7898 4293195263
13.391743 796.60217 1307.7898 4293458431
4.8477063 803.46051 1305.7245 4293259775
7.2715597 803.46051 1305.7245 4293325567
9.6954126 803.46051 1305.7245 4293128959
14.543119 803.46051 1305.7245 4293195263
7.2715597 805.3136 1307.2869 4293325567
9.6954126 805.3136 1307.2869 4293128447
12.119267 805.3136 1307.2869 4293325567
9.6587152 811.61151 1306.057 4293457407
13.280734 811.61151 1306.057 4293391615
12.073395 813.45758 1307.6135 4293195263
-61.340366 821.55945 1307.9047 4286600082
-57.732109 820.63989 1307.1294 4287255184
4.8110094 820.63989 1307.1294 4292997119
7.2165136 820.63989 1307.1294 4293326335
9.6220188 820.63989 1307.1294 4293128959
12.027523 820.63989 1307.1294 4292997375
2.3963304 826.87122 1305.8433 4293063167
4.7926607 827.78723 1306.6156 4293325567
-57.291744 833.987 1305.303 4287253640
-54.904587 833.987 1305.303 4287253640
-52.517429 833.987 1305.303 4287711358
2.387156 833.987 1305.303 4292800255
-57.291744 835.81201 1306.8418 4286924936
-54.904587 835.81201 1306.8418 4286859143
4.774312 835.81201 1306.8418 4293062399
7.161468 835.81201 1306.8418 4293062399
10.742202 835.81201 1306.8418 4293260287
-58.305504 841.47369 1306.3834 4286796419
-54.735779 841.47369 1306.3834 4288044702
4.7596331 841.47369 1306.3834 4292733951
7.1394496 841.47369 1306.3834 4293062911
10.709174 841.47369 1306.3834 4292799743
14.278899 841.47369 1306.3834 4292997119
16.658716 841.47369 1306.3834 4293128703
4.7596331 843.29309 1307.9175 4292602111
7.1394496 843.29309 1307.9175 4292667903
10.709174 843.29309 1307.9175 4292602111
14.278899 843.29309 1307.9175 4292733951
16.658716 843.29309 1307.9175 4292733951
-55.710091 847.61316 1305.0199 4287257237
-52.154129 847.61316 1305.0199 4287585434
-49.783485 847.61316 1305.0199 4288243365
-47.412846 847.61316 1305.0199 4288307875
2.3706422 847.61316 1305.0199 4292471295
4.7412844 847.61316 1305.0199 4292536319
-55.710091 849.42554 1306.5481 4287257237
-52.154129 849.42554 1306.5481 4287190161
4.7412844 849.42554 1306.5481 4292010495
-55.494495 856.4325 1305.916 4286860936
-51.952293 856.43256 1305.916 4287254158
-49.590824 855.52991 1305.1549 4288044185
4.7229357 856.43256 1305.916 4292208127
7.0844035 857.33521 1306.6772 4292667903
10.626606 857.33521 1306.6772 4292536319
-49.398167 863.40454 1305.2545 4287121540
4.704587 863.40454 1305.2545 4292602111
7.056881 863.40454 1305.2545 4292602111
9.409174 863.40454 1305.2545 4292602111
-49.398167 865.20288 1306.7708 4287321491
-46.862385 871.23706 1305.3186 4288897736
4.6862388 871.23706 1305.3186 4292339967
-46.862385 873.02844 1306.829 4289294813
-46.715595 878.54431 1306.2477 4286600059
2.3357799 878.54431 1306.2477 4292339967
4.6715598 878.54431 1306.2477 4292471295
7.0073395 878.54431 1306.2477 4292734207
10.511009 878.54431 1306.2477 4292274175
14.014679 878.54431 1306.2477 4292208895
-49.051376 880.33002 1307.7534 4286277504
4.6715598 880.33002 1307.7534 4292274943
7.0073395 880.33002 1307.7534 4292274943
10.511009 880.33002 1307.7534 4292208383
-46.532108 886.29688 1306.2443 4287854471
2.3266056 886.29688 1306.2443 4292667391
4.6532111 886.29688 1306.2443 4292470271
2.3266056 888.07556 1307.744 4292470271
4.6532111 888.07556 1307.744 4292470271
6.9798164 888.07556 1307.744 4292733439
2.3174312 894.89319 1306.9524 4291549183
4.6348624 894.89319 1306.9524 4290892287
6.9522934 895.77905 1307.6993 4290564095
9.2697248 895.77905 1307.6993 4290696191
-50.822018 899.43909 1305.5532 4287921563
2.3100917 899.43909 1305.5532 4290562559
4.6201835 899.43909 1305.5532 4290234879
6.9302754 899.43909 1305.5532 4290695423
-57.752293 901.2052 1307.0424 4285292424
-55.442204 901.2052 1307.0424 4284965773
-53.132111 901.2052 1307.0424 4287202479
-50.822018 901.2052 1307.0424 4288055489
2.3100917 901.2052 1307.0424 4290562559
4.6201835 901.2052 1307.0424 4290497019
6.9302754 901.2052 1307.0424 4290497019
10.395412 901.2052 1307.0424 4290562815
-49.086243 908.24933 1306.4417 4286017703
-46.018349 907.95618 1306.1945 4286336899
2.3009174 907.07666 1305.4529 4291022335
4.6018348 907.95618 1306.1945 4291023103
6.9027524 907.95618 1306.1945 4291088895
9.9706421 908.24933 1306.4417 4291352831
13.805505 908.83569 1306.936 4292009727
-48.126606 914.67212 1305.317 4285822627
-45.834862 914.67212 1305.317 4286215071
4.5834861 914.67212 1305.317 4292008959
6.8752294 914.67212 1305.317 4292140543
11.458715 914.67212 1305.317 4290889467
-49.272476 916.42419 1306.7943 4283585926
-57.110092 923.51257 1307.5389 4286021019
-52.541283 923.51257 1307.5389 4283324546
-50.256882 921.76611 1306.0664 4283323006
6.8532109 921.76611 1306.0664 4284832929
9.8990822 922.34833 1306.5573 4284964493
13.706422 922.63934 1306.8027 4285489298
15.990826 923.51257 1307.5389 4285490069
-59.155964 929.28162 1305.8632 4284837004
-55.743118 929.28162 1305.8632 4285494943
-52.330276 929.28162 1305.8632 4283784591
4.5504589 929.28162 1305.8632 4285226894
-59.155964 931.02106 1307.3298 4284112522
-58.965137 934.57031 1305.0902 4283849605
-55.563301 934.57031 1305.0902 4283455368
-52.161469 934.57031 1305.0902 4282995852
-49.893578 934.57031 1305.0902 4282668408
-46.491745 934.57031 1305.0902 4282930813
-52.161469 936.30408 1306.5521 4282997389
-49.893578 936.30408 1306.5521 4282997639
-45.3578 936.30408 1306.5521 4283654038
6.8036699 936.30408 1306.5521 4284964989
-54.253212 941.56458 1305.7556 4284046214
-51.992661 941.56458 1305.7556 4284112007
-49.732109 941.56458 1305.7556 4284046477
-46.341286 941.56458 1305.7556 4284637844
-42.950459 941.56458 1305.7556 4285097882
-40.689907 941.56458 1305.7556 4285690273
9.042202 941.56458 1305.7556 4285031033
-55.383484 943.29285 1307.2128 4282996090
-51.992661 943.29285 1307.2128 4282930549
-49.732109 943.29285 1307.2128 4282864767
-46.341286 943.29285 1307.2128 4282668154
-40.689907 943.29285 1307.2128 4283196038
-56.284405 948.96936 1305.4589 4285695150
-49.530273 949.82996 1306.1846 4286747846
-49.368809 955.89215 1306.064 4289905906
-56.100918 957.60773 1307.5105 4290825207
-49.368809 957.60773 1307.5105 4290562815
-60.341286 964.92554 1307.1404 4290366203
-58.106422 964.92554 1307.1404 4290169340
-55.871559 964.07123 1306.4202 4290300410
-52.519268 964.07123 1306.4202 4290037503
-49.166973 964.07123 1306.4202 4289708797
-46.93211 964.92554 1307.1404 4289906943
-44.697247 964.92554 1307.1404 4290233855
2.2348623 964.07123 1306.4202 4284504954
4.4697247 964.07123 1306.4202 4284439153
7.4495411 964.35596 1306.6603 4284570742
11.174312 964.07123 1306.4202 4284570235
13.409174 963.21692 1305.6998 4284504438
17.133944 963.78644 1306.1801 4284438642
20.113762 964.92554 1307.1404 4284241519
-37.867889 970.06824 1306.2445 4290365951
-34.526604 970.06824 1306.2445 4290235135
-2.2275229 970.06824 1306.2445 4284111479
-64.022018 773.66138 1308.0671 4288651464
-61.559631 773.66138 1308.0671 4288453829
-61.330276 781.97083 1308.5333 4287200196
-58.877064 781.97083 1308.5333 4286929287
-63.783485 783.84631 1310.1147 4288317634
-64.766968 790.23828 1308.9641 4286537874
-61.100918 790.23828 1308.9641 4286273407
-58.656879 790.23828 1308.9641 4287124118
4.8880734 790.23828 1308.9641 4293457407
7.3321099 790.23828 1308.9641 4293325823
9.7761469 790.23828 1308.9641 4293128959
12.220183 790.23828 1308.9641 4293655295
9.7394495 798.46362 1309.3594 4292997887
12.174312 799.39435 1310.144 4293129215
-61.57431 815.30359 1309.17 4286534289
-61.57431 817.14966 1310.7266 4286469527
4.8110094 823.39844 1309.4553 4293259775
7.2165136 823.39844 1309.4553 4293523199
9.6220188 823.39844 1309.4553 4293588223
-62.304588 829.61926 1308.1604 4286467982
2.3963304 829.61926 1308.1604 4293128959
4.7926607 829.61926 1308.1604 4293259775
7.1889906 829.61926 1308.1604 4293259775
9.5853214 829.61926 1308.1604 4293391615
-62.304588 831.45123 1309.7051 4286205567
-59.908257 831.45123 1309.7051 4286402689
4.7926607 831.45123 1309.7051 4292997119
7.1889906 831.45123 1309.7051 4292997119
10.783486 831.45123 1309.7051 4292866303
-59.678898 837.63696 1308.3806 4286402941
7.1394496 845.11249 1309.4515 4292667903
10.709174 845.11249 1309.4515 4292602111
14.278899 845.11249 1309.4515 4292733951
-59.495415 846.93188 1310.9856 4286666118
7.1394496 846.93188 1310.9856 4292273407
10.709174 846.93188 1310.9856 4292601855
14.278899 846.93188 1310.9856 4292668415
-59.266056 851.23792 1308.0762 4286600332
-56.895412 851.23792 1308.0762 4286994063
4.7412844 851.23792 1308.0762 4292207615
7.1119266 851.23792 1308.0762 4292207615
9.4825687 851.23792 1308.0762 4292470271
-59.266056 853.05029 1309.6044 4286469507
7.1119266 853.05029 1309.6044 4291945983
10.667891 853.05029 1309.6044 4292207615
-55.100918 859.74243 1308.7069 4286532224
-51.952293 860.04333 1308.9606 4287186562
-54.102753 868.79956 1309.8035 4286868637
-51.750458 867.90039 1309.0453 4287916454
-49.398167 867.90039 1309.0453 4288377005
-49.205505 874.8197 1308.3394 4287451532
-49.205505 876.61108 1309.8499 4285746813
-56.058716 883.90143 1310.7646 4286018680
-52.555046 883.90143 1310.7646 4287004548
-49.051376 883.00854 1310.0118 4287265662
4.6715598 882.11572 1309.259 4292471295
7.0073395 883.00854 1310.0118 4292470783
10.511009 883.00854 1310.0118 4292142591
-58.165138 889.85425 1309.2438 4284700784
-52.348625 889.85425 1309.2438 4286339183
6.9798164 889.85425 1309.2438 4291746559
9.3064222 889.85425 1309.2438 4291417599
6.9798164 891.63293 1310.7435 4291483391
9.3064222 891.63293 1310.7435 4291154943
10.42844 897.55078 1309.1931 4290892287
13.904587 899.32251 1310.687 4290562559
-57.752293 902.97125 1308.5315 4283846522
-55.442204 902.97125 1308.5315 4283519090
-53.132111 902.97125 1308.5315 4286019224
-50.822018 902.97125 1308.5315 4287068862
6.9302754 902.97125 1308.5315 4290826745
10.395412 902.97125 1308.5315 4291023359
-57.752293 904.73737 1310.0205 4283585135
-55.442204 904.73737 1310.0205 4283126118
-53.132111 904.73737 1310.0205 4285099908
-50.822018 904.73737 1310.0205 4286608311
11.550459 904.73737 1310.0205 4291221503
13.860551 904.73737 1310.0205 4291549695
-55.222019 910.59479 1308.4192 4286744230
-52.921101 910.59479 1308.4192 4286283679
-50.620182 910.59479 1308.4192 4286216880
-52.921101 912.35388 1309.9025 4285889703
-50.620182 912.35388 1309.9025 4286085799
-57.293579 919.92834 1309.7489 4285560211
-55.001835 919.92834 1309.7489 4285493912
-52.710091 919.05231 1309.0103 4282928243
-50.41835 918.17627 1308.2716 4282994298
-59.394497 925.25903 1309.0115 4284116365
-54.825687 925.25903 1309.0115 4284839341
6.8532109 925.25903 1309.0115 4285424777
9.1376143 925.25903 1309.0115 4285620369
6.8532109 927.00549 1310.484 4285160845
6.8256879 932.7605 1308.7964 4284964737
9.1009178 932.7605 1308.7964 4284964735
9.1009178 934.49994 1310.2631 4285030781
9.0715599 938.0379 1308.014 4284965239
11.33945 940.63867 1310.2069 4284899446
-55.006725 945.59717 1309.1556 4284839073
-51.992661 945.88513 1309.3984 4285233325
-49.732109 945.02106 1308.6699 4283720856
-51.781651 952.41174 1308.3615 4288654317
-51.781651 954.13293 1309.8126 4289775097
-56.100918 959.3233 1308.957 4290563066
-52.734863 959.3233 1308.957 4290234111
-58.344955 961.03894 1310.4036 4290497273
-61.086239 967.77313 1309.5415 4289906941
-58.106422 966.63409 1308.5811 4290235387
-55.871559 966.63409 1308.5811 4290169594
-51.401836 966.63409 1308.5811 4290563839
-49.166973 967.4884 1309.3014 4290104063
-46.93211 967.4884 1309.3014 4290367231
-43.579815 967.4884 1309.3014 4290235135
-40.227524 968.34265 1310.0217 4290497791
-31.288073 968.34265 1310.0217 4290169342
-29.053211 968.34265 1310.0217 4290169342
-25.700916 968.34265 1310.0217 4289775358
-22.348623 968.34265 1310.0217 4289644029
-20.113762 968.34265 1310.0217 4289512443
-16.761467 968.34265 1310.0217 4289577466
-13.409174 968.34265 1310.0217 4289905919
-11.174312 968.34265 1310.0217 4290234879
-7.8220181 968.34265 1310.0217 4286153920
-4.4697247 968.34265 1310.0217 4282927206
1.1174312 967.4884 1309.3014 4284307576
4.4697247 966.63409 1308.5811 4284439416
6.704587 966.63409 1308.5811 4284439416
17.878899 966.63409 1308.5811 4284241519
20.113762 966.63409 1308.5811 4284241519
22.348623 967.4884 1309.3014 4284241518
-62.293579 755.5509 1313.7253 4287008711
9.9669724 754.59845 1312.9222 4294049535
-66.484406 779.3089 1312.8291 4287598018
-64.022018 779.3089 1312.8291 4288384470
-64.948624 825.23749 1311.006 4286207110
7.2165136 825.23749 1311.006 4293522943
9.6220188 825.23749 1311.006 4293588991
12.027523 827.07648 1312.5565 4293391615
-62.304588 833.28326 1311.2498 4286402689
-59.908257 833.28326 1311.2498 4286402689
-62.304588 835.1153 1312.7944 4286402941
-59.678898 841.28699 1311.4581 4286600321
-59.678898 843.112 1312.9969 4286600325
11.899082 848.75128 1312.5198 4292470271
-64.007339 854.86267 1311.1324 4286009478
-61.636696 854.86267 1311.1324 4286140535
-59.266056 854.86267 1311.1324 4286272121
-61.636696 856.67505 1312.6606 4285811322
-59.266056 856.67505 1312.6606 4286140287
-59.036697 862.75134 1311.2439 4286408088
-55.494495 862.75134 1311.2439 4286997661
-51.952293 862.75134 1311.2439 4287387540
-59.036697 864.5567 1312.7661 4286867869
-55.494495 864.5567 1312.7661 4287196587
-51.750458 871.49707 1312.0779 4287190670
-49.398167 870.5979 1311.3197 4289956029
-52.720184 878.4024 1311.3602 4286146944
14.058716 878.4024 1311.3602 4292143103
-56.234863 880.19373 1312.8706 4286346096
-52.720184 880.19373 1312.8706 4286871412
14.058716 880.19373 1312.8706 4292208383
-58.394497 885.68719 1312.2704 4286017650
-56.058716 885.68719 1312.2704 4286674036
-52.555046 885.68719 1312.2704 4287462271
10.900306 886.28241 1312.7723 4291878399
11.633027 893.41168 1312.2434 4290761983
13.959633 895.19043 1313.7432 4290826495
-60.253212 902.86584 1313.6747 4283190377
13.904587 901.09418 1312.1809 4291089151
-57.752293 907.38647 1312.2542 4285296017
-55.442204 906.50342 1311.5096 4284045701
-53.132111 906.50342 1311.5096 4285558683
-52.921101 914.11292 1311.3856 4282798209
-58.673393 915.87201 1312.8689 4283125116
-55.222019 915.87201 1312.8689 4282928501
-55.001835 921.68036 1311.2262 4285298079
11.458715 922.5564 1311.9648 4285489300
13.750459 923.43243 1312.7035 4285490319
16.042202 923.43243 1312.7035 4285621648
19.09786 922.84839 1312.2111 4285424777
22.917431 923.43243 1312.7035 4285162371
6.8532109 928.75195 1311.9565 4284702083
11.422018 930.49841 1313.4292 4285030785
13.706422 930.49841 1313.4292 4285226879
15.990826 930.49841 1313.4292 4285292672
11.376146 936.23938 1311.7297 4284899446
-54.253212 949.34155 1312.3129 4288062177
-51.992661 948.47742 1311.5842 4288259296
-54.033028 955.85413 1311.2639 4290562814
-51.781651 955.85413 1311.2639 4290562814
13.46422 962.75452 1311.8501 4284439416
15.708257 962.75452 1311.8501 4284373622
-53.85688 964.47009 1313.2966 4290169343
8.9761467 964.47009 1313.2966 4284570997
11.220183 964.47009 1313.2966 4284570997
13.46422 964.47009 1313.2966 4284373618
15.708257 964.47009 1313.2966 4284307825
-60.341286 970.05127 1311.4623 4290563839
-40.227524 970.05127 1311.4623 4290366205
-37.992661 970.05127 1311.4623 4290366205
-34.267887 970.62079 1311.9425 4290169343
-31.288073 970.05127 1311.4623 4290366203
-29.053211 970.05127 1311.4623 4290300410
-22.348623 970.05127 1311.4623 4289709304
-17.878899 970.05127 1311.4623 4289117695
-4.4697247 970.05127 1311.4623 4282929257
-2.2348623 970.05127 1311.4623 4283784565
0 970.05127 1311.4623 4283979641
-62.293579 757.45593 1315.3315 4287402954
-62.293579 759.36084 1316.9377 4287205072
-62.06422 763.96289 1314.278 4287008196
-62.066055 844.93701 1314.5358 4286600325
-64.453209 846.76196 1316.0745 4286402958
-62.066055 846.76196 1316.0745 4286403210
-64.255043 850.57068 1314.0537 4286206860
-61.875229 850.57068 1314.0537 4286469507
-64.007339 858.48737 1314.1887 4285484167
-61.636696 859.39355 1314.9529 4286077328
-59.266056 858.48737 1314.1887 4285812104
-56.895412 858.48737 1314.1887 4286270338
-59.036697 866.36206 1314.2883 4286144139
-56.675228 866.36206 1314.2883 4286408086
-59.036697 868.16742 1315.8105 4285289340
-55.494495 868.16742 1315.8105 4286867580
-58.807339 875.99298 1315.8687 4285359743
-55.2789 875.09381 1315.1106 4285224821
-51.750458 874.19464 1314.3524 4285417848
-58.57798 881.98505 1314.381 4286018680
14.058716 881.98505 1314.381 4291484927
14.058716 883.77643 1315.8915 4291419135
11.678899 889.25861 1315.2817 4291023359
14.014679 891.04437 1316.7874 4290827007
16.286238 896.96912 1315.2429 4290957311
-60.253212 904.63757 1315.1686 4284243068
-60.253212 906.40924 1316.6624 4285888670
-57.752293 910.91864 1315.2324 4284902037
-55.442204 910.91864 1315.2324 4284442774
-59.823853 917.63104 1314.3521 4284770438
-59.823853 919.39014 1315.8352 4284837002
10.312844 926.06049 1314.9194 4285030023
13.750459 926.06049 1314.9194 4285293187
16.042202 926.06049 1314.9194 4285358979
11.422018 932.24481 1314.9017 4285030781
13.706422 932.24481 1314.9017 4285227133
-54.253212 951.9339 1314.4987 4289906683
-58.344955 966.18567 1314.7432 4290432255
-56.100918 967.04346 1315.4664 4290169343
-52.734863 967.04346 1315.4664 4290169343
-49.368809 967.90125 1316.1897 4290431743
-47.124771 967.90125 1316.1897 4290563583
-43.758713 967.90125 1316.1897 4290432250
-25.806423 967.90125 1316.1897 4289709052
-20.196331 967.90125 1316.1897 4289709304
-15.708257 967.90125 1316.1897 4288920574
-13.46422 967.90125 1316.1897 4290037240
-11.220183 967.90125 1316.1897 4290694911
-7.8541284 967.90125 1316.1897 4286284723
2.2440367 967.04346 1315.4664 4283913333
4.4880733 966.18567 1314.7432 4284175989
7.8541284 966.18567 1314.7432 4284307574
11.220183 966.18567 1314.7432 4284307573
16.830275 966.18567 1314.7432 4284307568
20.196331 967.04346 1315.4664 4284241519
22.440367 967.90125 1316.1897 4284109683
-64.948624 834.43262 1318.759 4286141568
-62.543118 834.43262 1318.759 4286403189
-64.70092 840.61133 1317.4286 4286469255
-62.304588 840.61133 1317.4286 4286600325
