# .PCD v0.7 - Point Cloud Data file format
VERSION 0.7
FIELDS x y z rgb
SIZE 4 4 4 4
TYPE F F F U
COUNT 1 1 1 1
WIDTH 1169
HEIGHT 1
VIEWPOINT 0 0 0 1 0 0 0
POINTS 1169
DATA ascii
43.142204 946.23267 816.56433 4293515753
49.155964 947.03229 817.23846 4293713899
7.0596333 948.63141 818.58691 4284238968
10.173394 949.30835 816.54156 4285425258
46.954128 948.71008 816.03711 4293582312
49.36055 949.26904 817.81647 4293779436
7.816514 952.3363 817.78656 4286740336
9.3688078 952.37561 816.51172 4282925182
46.844036 952.37561 816.51172 4293713898
49.244957 951.73938 817.28333 4293515752
51.528439 953.56934 817.51819 4293778156
7.0266056 954.76312 818.52478 4285679652
10.125689 956.02985 816.97681 4287724936
12.462385 956.02985 816.97681 4288189094
45.955048 956.02985 816.97681 4293516520
49.070641 956.02985 816.97681 4293582057
51.528439 954.76312 818.52478 4293778923
7.788991 958.41174 818.98523 4283710766
10.125689 957.81628 818.48315 4283645707
13.217432 958.76355 817.31982 4282534004
16.318348 959.07892 816.93158 4283392882
19.167585 959.27692 817.09857 4286675886
31.082569 959.67297 817.4325 4291995583
34.967888 959.67297 817.4325 4293975535
38.076149 959.07886 816.93164 4293647079
41.184402 959.07886 816.93164 4293516004
43.515594 959.07886 816.93158 4293252836
45.873394 958.76355 817.31982 4293516007
49.012848 958.44824 817.70795 4293647078
51.407341 957.81628 818.48309 4293844458
16.318348 960.86108 818.43433 4278204672
19.426605 960.86108 818.43433 4279517748
22.481651 962.11951 816.87927 4289307064
25.582569 962.11951 816.87927 4289431262
28.718349 961.4903 817.6568 4288641091
31.859632 960.86108 818.43433 4291931883
34.190826 960.86108 818.43433 4294041327
41.961468 960.86108 818.43433 4294042346
43.515594 960.86108 818.43433 4293647590
23.25688 963.30481 817.87878 4278190192
49.701836 748.98761 820.29614 4294566900
-10.811009 753.32227 820.02698 4287833650
50.451378 753.32227 820.02698 4294567156
52.253212 753.32227 820.02698 4294698999
54.055046 753.32227 820.02698 4294567670
-10.777982 757.64429 819.74719 4288235860
52.991745 756.95764 819.16821 4294698742
55.686237 756.95764 819.16821 4294435570
-10.744954 761.95374 819.45667 4289428086
51.933945 761.95374 819.45667 4294697972
-12.53578 764.69196 821.7655 4287851641
-10.722936 764.8197 819.25708 4289099383
50.040367 764.8197 819.25708 4294830067
51.827522 764.8197 819.25708 4294961653
51.827522 766.18604 820.40918 4294896371
-12.47156 769.78912 819.52319 4289496202
49.886238 769.78912 819.52319 4294764020
52.558716 769.78912 819.52319 4294698998
-16.034863 772.51331 821.82007 4288118913
-13.362385 771.83228 821.24585 4288578954
-15.985321 776.09961 820.9198 4288774269
-13.3211 775.42065 820.34735 4288644492
52.396332 775.42065 820.34735 4294699513
55.060551 775.42065 820.34735 4294699513
-15.952293 778.93744 820.69666 4288046958
-13.293577 778.25989 820.12537 4288443776
-13.293577 780.29254 821.83923 4287784067
-10.601835 782.5083 819.78345 4288244350
-12.368808 783.85919 820.92236 4289102478
-10.601835 783.85919 820.92236 4289827469
-10.568808 788.7641 821.13403 4288909199
-8.8073397 788.09076 820.56628 4290158741
-7.0238533 790.96729 819.06763 4289827482
-8.7798166 792.98096 820.76544 4288841108
-7.8853211 795.78516 820.51385 4288312959
-7.8605504 799.31323 819.56451 4288771452
54.150459 798.64551 819.00146 4294699512
-7.8440366 802.77118 819.86414 4288898645
52.293579 802.77118 819.86414 4294567156
54.036697 802.77118 819.86414 4294567156
-8.7155962 804.10382 820.98779 4287508012
55.779816 804.10382 820.98779 4294435570
-8.6880732 808.27429 820.5802 4287375169
52.128441 807.61011 820.02014 4294436338
55.603668 808.27429 820.5802 4294501619
-7.7944956 811.77014 819.6037 4287701815
50.231194 811.10803 819.04541 4294567922
52.829357 811.10803 819.04541 4294304754
55.427525 812.43225 820.16199 4294304754
-15.588991 813.75647 821.27844 4286785843
-12.990826 813.75647 821.27844 4286850866
-10.39266 813.75647 821.27844 4286846766
-7.7779818 815.19727 819.8772 4288163394
52.71743 815.19727 819.8772 4294172400
55.310093 815.19727 819.8772 4294172914
-12.963303 816.51862 820.99133 4287508017
-10.370643 816.51862 820.99133 4287572540
-8.6422014 816.51862 820.99133 4288033091
53.58165 816.51862 820.99133 4294107121
55.310093 816.51862 820.99133 4294172914
57.038532 816.51862 820.99133 4294436342
-12.922018 821.30994 821.10718 4286383372
-10.337615 820.65137 820.55182 4286973734
-8.0403671 820.43182 820.3667 4287433763
52.549541 820.65131 820.55188 4294172913
55.995415 821.30994 821.10718 4294106606
-7.4501534 823.61847 820.43768 4287766562
49.858715 822.74225 819.69885 4293977068
52.437614 824.05664 820.80701 4294107889
-7.725688 826.44104 820.85547 4287767594
49.699081 827.51111 819.79565 4294437619
52.437614 825.37103 821.91528 4294108658
-6.8550458 828.82129 820.90027 4288425010
49.592659 830.24512 819.48486 4294239472
51.412846 828.82129 820.90027 4293911793
-7.410398 832.42407 821.32208 4287966526
49.592659 831.55249 820.58728 4294239472
52.157799 832.85986 821.68958 4294108656
-5.1137614 835.63892 820.1087 4288098874
49.433029 834.9873 819.55933 4294370806
51.137615 836.29047 820.65808 4294108404
-6.8183484 837.59363 821.75684 4286912548
-5.1027522 839.00635 820.33203 4288359994
51.93486 838.29999 821.04443 4293976816
54.546787 837.59363 821.75684 4294371058
-5.1027522 840.3067 821.42847 4288359996
50.862385 842.42151 819.28735 4294174449
52.557796 842.42151 819.28735 4294108656
54.429359 840.3067 821.42847 4294239470
-5.0862384 844.36572 820.9267 4287567147
52.557796 843.71765 820.38025 4294371060
54.818348 844.58173 821.10889 4294502645
57.644035 845.01379 821.47314 4294568692
-5.0752292 847.71143 821.13171 4286775309
52.444038 846.41809 820.04114 4294305013
54.981651 847.71143 821.13171 4294174451
-5.0587158 851.10272 820.06714 4286578714
53.959633 851.10272 820.06714 4294174197
-6.7449541 852.39185 821.15405 4287376433
-5.0477066 853.78772 819.71484 4287047211
53.959633 852.39185 821.15405 4294042609
55.64587 852.39185 821.15405 4294174451
-6.7302752 855.0741 820.79956 4287111712
53.842201 855.0741 820.79956 4293976564
55.524769 856.36041 821.88416 4294042098
-5.0311928 859.08679 820.25891 4286979113
53.666054 859.08679 820.25891 4293910255
-4.4623852 862.39453 820.43188 4287371573
50.201836 861.11523 819.35315 4294108654
52.544586 862.65039 820.64764 4294042351
55.28257 862.34192 821.69556 4294305010
-3.3357799 865.74664 819.33411 4287763258
50.036697 865.74664 819.33411 4294042609
-4.1660552 868.98499 820.75659 4287498806
49.926605 869.6731 820.02869 4294042611
52.538532 867.6593 820.9469 4294108145
55.596333 867.87183 821.12616 4294437622
-4.1568809 871.63208 820.3725 4286775307
49.816513 872.31879 819.64343 4294042609
52.422935 870.94537 821.10156 4293976816
54.919266 870.94537 821.10156 4294503160
-4.1513762 874.22302 821.24908 4288820014
52.584095 874.01147 821.07062 4293845999
55.628441 874.22302 821.24902 4294240501
59.226299 874.43457 821.42749 4294042352
-3.8617737 877.75299 820.30133 4289882463
51.858105 877.75299 820.30133 4293911278
55.444038 878.17474 820.65698 4294042609
58.754128 878.17474 820.65698 4294305780
-4.133945 880.12109 820.99011 4288962638
-1.6513761 879.53967 819.19177 4290015108
0 880.1709 819.72406 4289554286
49.541283 880.1709 819.72406 4293977069
52.133945 879.44006 821.72388 4294042862
55.444038 879.44006 821.72388 4293976816
-3.3027523 882.0647 821.3208 4288040771
-1.6477064 884.05396 820.38202 4287311400
0 884.05396 820.38202 4288689213
49.431194 883.42407 819.85095 4293845739
51.7052 882.93774 821.18488 4293976812
-3.2954128 885.94342 821.97522 4284284928
-1.6422018 887.97406 819.76331 4284350464
0 887.97406 819.76331 4285399040
51.078899 885.94342 821.97522 4293977068
-3.2844036 890.48499 821.88049 4287062298
-1.6385322 890.58051 819.34497 4285222442
0.81926608 890.58051 819.34497 4285085440
50.032112 889.90503 820.08344 4293977068
52.550457 890.48499 821.88049 4294042861
54.192661 890.48499 821.88049 4294108654
57.477066 890.48499 821.88049 4294108654
-1.6385322 891.83319 820.40125 4286469904
0 891.83319 820.40125 4287523072
50.248318 892.25073 820.75323 4293977067
-1.6348624 895.05615 820.50262 4288839464
0.54495412 894.84784 820.32697 4289366613
49.863304 895.05615 820.50262 4294108400
1.6293578 898.94055 819.85376 4287462986
48.880733 898.94055 819.85376 4293977586
-1.6293578 900.80896 821.4292 4284295175
0.54189605 901.04706 820.75787 4284820493
50.453209 901.47607 820.68365 4293977329
52.954128 901.43182 821.95435 4294173679
0.81100917 904.67444 820.76434 4285206297
50.28257 905.34009 820.01758 4294042350
52.022018 904.00879 821.51111 4294107889
1.6165137 910.42664 820.38232 4287718264
51.728439 911.04456 820.90332 4293779439
0 913.55701 821.71375 4283832850
49.998165 912.36749 819.40271 4293845998
51.669724 913.55701 821.71375 4294239473
1.6091744 916.15088 819.97668 4282976768
51.49358 917.3811 821.01404 4293976816
-11.238532 919.92291 820.54126 4287383402
1.6055046 919.3092 820.02374 4285615422
51.376148 919.92291 820.54126 4293845485
-14.449541 921.15033 821.57617 4283498496
1.6055046 921.15033 821.57617 4291341443
4 923.11365 819.3075 4293510073
51.200001 923.11365 819.3075 4293846252
1.6 925.56006 821.37024 4291211922
3.1963303 925.6001 820.09595 4293182159
52.227524 925.58673 820.52069 4294108145
54.400002 925.56006 821.37024 4294042861
1.5963303 928.69397 821.39648 4279762944
3.9816513 929.38422 819.36243 4281139975
6.3706422 929.38422 819.36243 4283440384
50.965137 929.38422 819.36243 4293844716
52.678898 928.69397 821.39648 4293975788
54.27523 929.3042 821.91101 4293778669
1.5926605 931.81946 821.41577 4289959572
3.7162082 931.00763 820.73138 4283183669
50.965137 930.60181 820.38916 4294041323
52.557796 931.81946 821.41577 4293844716
54.150459 931.81946 821.41577 4293778410
3.972477 934.32904 820.91577 4289173422
6.8746181 934.78546 819.55664 4290424515
9.5119267 935.62109 819.38916 4290885594
47.559631 935.62109 819.38916 4293713900
50.240978 934.78546 819.55664 4293779181
52.436699 934.32904 820.91577 4293910255
54.820183 934.9364 821.42792 4294041839
58.79266 935.54382 821.94006 4293845487
60.381653 935.54382 821.94006 4293648103
3.9633026 937.43909 820.922 4288254133
6.3412843 936.83307 820.41101 4288587716
49.144955 936.83307 820.41101 4293779693
53.108257 936.83307 820.41101 4293844716
55.48624 938.04504 821.43298 4294042863
4.2177367 940.54071 820.92114 4287398563
6.3266053 939.33148 819.90161 4289635779
41.122936 939.33148 819.90161 4293778669
52.985321 939.33148 819.90161 4293911021
56.939449 941.14526 821.43091 4293976813
4.7284403 943.67108 819.6366 4285621888
6.3045874 943.67108 819.6366 4285685367
55.690521 944.47437 820.31396 4293975529
58.317432 944.87604 820.65259 4293975017
1.5761468 946.08105 821.66858 4278976512
4.1957188 946.53046 820.30341 4282068497
6.2899084 946.15411 819.11401 4284565092
52.677982 946.75519 819.62085 4293778410
55.953209 946.08105 821.66858 4293778410
58.317432 946.08105 821.66858 4293844203
0.78440368 949.83081 819.59814 4284438368
3.925688 949.19458 820.36975 4284109392
6.2752295 949.83081 819.59814 4283648096
52.617432 949.19458 820.36975 4293844461
55.036697 948.55841 821.14136 4293778923
-1.5688074 952.22949 821.62073 4279107586
0.78348625 951.94653 820.72803 4281347396
3.9165137 952.26392 820.34167 4284169561
6.2605505 952.29974 819.06384 4287200600
53.339451 951.62982 821.11505 4293450729
1.5651376 954.69287 821.08167 4278190080
3.9073396 955.32483 820.30652 4278190080
7.0266056 955.95685 819.53137 4281272320
53.21468 954.69287 821.08167 4293713896
4.6844039 957.7475 821.04114 4286539621
6.755352 958.7854 820.17218 4288448138
10.125689 959.60272 819.98938 4289829559
13.241284 959.60272 819.98938 4285288392
35.829357 959.60272 819.98938 4294041327
38.166054 959.60272 819.98938 4293647338
40.50275 959.60272 819.98938 4293516002
45.955048 959.60272 819.98938 4293712870
49.070641 959.60272 819.98938 4293778919
52.529053 958.36591 820.69061 4293647845
59.335781 958.34436 821.54443 4293581547
60.897247 958.34436 821.54443 4293449960
7.788991 960.79364 820.99353 4293779441
9.8660555 961.19067 821.32831 4294502650
13.241284 961.38916 821.49561 4294966783
16.337614 962.01697 820.71692 4292466395
19.449541 962.01691 820.71692 4284376462
21.757797 962.04926 819.43616 4278190195
25.673393 962.01697 820.71692 4287525731
28.559633 961.19067 821.32831 4288247970
31.934862 960.79364 820.99353 4290161605
35.050461 960.79364 820.99353 4293713133
38.166054 960.79364 820.99353 4293516519
41.232109 961.42145 820.21484 4293515232
43.099079 961.58765 821.6629 4293516005
45.695415 961.19067 821.32831 4293581285
48.291744 960.79364 820.99353 4293778406
22.534863 963.23737 820.43799 4282067836
-13.555046 752.44189 823.20874 4286785089
-14.458715 753.82361 824.37378 4287779941
-13.213455 756.99567 823.12433 4288309109
-16.166973 761.07764 822.64197 4288051321
-13.472477 761.07764 822.64197 4288246402
-16.166973 762.45093 823.79993 4288181115
-14.370643 762.45093 823.79993 4288115070
-16.117432 766.06104 822.9198 4287982968
-14.326606 766.06104 822.9198 4288706687
-16.084404 768.91858 822.71313 4287657081
-14.297248 768.91858 822.71313 4288249216
-15.985321 778.81537 823.20972 4287784303
-15.952293 781.64758 822.98169 4288575621
-14.179816 781.64758 822.98169 4288576134
-15.952293 783.00269 824.12427 4288314761
-13.252294 785.21008 822.0614 4288249988
-10.601835 785.21008 822.0614 4289500286
54.776146 785.21008 822.0614 4294829561
-15.902752 787.23633 823.76996 4288118662
-13.546788 787.01123 823.58008 4287988090
-12.917432 791.00848 823.02643 4287984233
-10.568808 790.78406 822.83722 4288117384
-15.853211 792.80408 824.54041 4287523964
-13.21101 792.80408 824.54041 4287390824
-10.53578 794.99463 822.46338 4287127139
-16.681652 797.6795 824.72717 4287782001
-13.169725 797.6795 824.72717 4287058271
-10.53578 796.33704 823.59521 4287192149
-15.770642 800.47394 824.46729 4285931061
-14.018349 800.47394 824.46729 4286256948
-10.513762 799.80408 823.90247 4287249205
-10.480734 803.98724 823.50549 4287111492
-13.100918 805.32269 824.63159 4286851895
-10.458715 806.76904 823.23499 4287375931
-19.692966 812.48102 824.12714 4286719798
-16.507339 810.93115 822.82031 4286785843
-13.03211 810.26697 822.26025 4287115825
-10.425688 810.26697 822.26025 4287440954
-16.455046 815.08069 822.39502 4286916398
-19.053211 817.72913 824.62805 4285863975
-16.743731 816.84637 823.88379 4286385699
-12.963303 817.84003 822.10547 4286713622
55.310093 817.84003 822.10547 4294107121
57.038532 817.84003 822.10547 4294041327
-15.555964 819.82214 823.77679 4285991454
-12.922018 823.28577 822.77307 4286716962
-10.337615 823.28577 822.77307 4287505715
55.995415 823.28577 822.77307 4294436080
-18.952293 825.26154 824.43909 4286653487
-17.229359 825.26154 824.43909 4286393129
-12.908257 826.63068 824.28546 4286587953
-10.315597 827.34265 823.5777 4287109937
-8.5963306 826.68542 823.02356 4287307056
53.297249 826.68542 823.02356 4293977586
56.162689 827.12354 823.39301 4294174962
-8.5688076 830.13147 822.005 4287176503
52.269726 830.13147 822.005 4294043376
54.840366 830.13147 822.005 4294174449
-10.282569 832.09674 823.66211 4286716991
55.982876 831.87842 823.47803 4294173682
-10.26055 836.1283 824.44543 4286454059
-8.1229362 835.14777 823.61865 4287309369
53.012844 834.16724 822.79187 4293976818
55.57798 834.82092 823.34308 4294371059
-6.8183484 838.89679 822.85571 4287241515
56.251377 838.89679 822.85571 4294437106
57.955963 838.89679 822.85571 4294304500
-6.8183484 840.19995 823.95447 4286844190
56.130276 841.60706 822.5249 4294699508
57.831192 841.60706 822.5249 4294304500
-6.8036699 844.20776 824.71777 4286709772
-7.6293578 848.25415 824.20538 4287040802
57.644035 846.30994 822.56604 4294108915
-8.4587154 851.59149 824.40332 4286912548
55.827522 849.00476 822.22217 4294239990
57.519268 850.29816 823.31274 4294240245
-6.7449541 854.97015 823.328 4287241515
55.64587 853.68103 822.24109 4293845235
-7.5807338 856.953 823.69183 4286980148
55.524769 857.64673 822.96875 4294239220
57.332111 856.25928 824.41492 4294174451
-6.7302752 858.93311 824.05334 4286648619
57.20734 858.93311 824.05334 4294174451
57.858715 862.93323 823.50208 4294240245
-5.0201836 864.95325 822.58923 4287042362
56.895412 864.95325 822.58923 4294306549
58.568806 866.23254 823.66797 4294174960
56.708256 869.57196 822.55957 4294438391
58.376148 869.57196 822.55957 4294240756
-6.6715598 872.12219 824.70984 4286981396
-4.9926605 872.21771 822.17432 4286783262
58.247707 872.21771 822.17432 4294109169
-6.6568809 874.76233 824.31982 4287445504
-6.6422019 878.66632 824.99561 4286927377
58.949539 877.39679 823.92517 4293910253
-4.9651375 881.33801 823.32422 4284295433
55.444038 881.33801 823.32422 4293845231
58.478287 881.12714 823.14642 4293779181
-4.1284404 883.95837 822.9176 4283630354
52.844036 883.95837 822.9176 4293713901
55.321102 884.58966 823.44983 4293911022
57.798164 884.58966 823.44983 4294108656
-4.1247706 886.52765 823.77582 4286602817
52.726604 887.20312 823.03735 4294042863
55.260551 886.52765 823.77582 4294043119
57.669724 887.20312 823.03735 4293977838
56.022018 888.46283 824.09949 4294108654
-3.2844036 891.74048 822.93909 4287128350
52.550457 891.74048 822.93909 4293647338
55.013763 891.74048 822.93909 4294173680
58.298164 892.36823 823.46838 4294108143
-3.2770643 894.96484 823.04175 4286010624
-1.6348624 896.93091 822.08337 4286602758
0 896.93091 822.08337 4286410555
50.680733 896.93091 822.08337 4293977586
52.938839 895.62018 822.72235 4294108913
55.300461 895.27795 823.30579 4294108915
58.167892 895.59119 823.56982 4294042864
60.625687 895.59119 823.56982 4294042609
-3.2697248 898.80573 823.66412 4285413653
53.133026 898.18079 823.13721 4294240497
55.58532 899.43066 824.19104 4294042098
57.765137 899.01398 823.83978 4294042353
61.034866 899.01398 823.83978 4293976559
-3.2587156 902.67749 823.00464 4284758607
-1.6293578 902.67749 823.00464 4281732129
53.768806 902.67749 823.00464 4294436854
55.398167 902.67749 823.00464 4294305263
-3.2587156 903.92316 824.05493 4283645257
-1.6256881 905.25165 822.55908 4284237394
0 905.25165 822.55908 4288439154
52.834862 905.25165 822.55908 4294108658
55.398167 903.92316 824.05493 4293976303
-3.2513762 907.7373 824.65491 4282851596
-1.6256881 907.11584 824.13098 4283575853
0 907.82019 822.10876 4287125874
52.776146 907.15735 822.85791 4294108402
55.273396 907.11584 824.13098 4293910769
-1.6220183 910.30029 824.19983 4283440903
0 909.06024 823.1543 4281073681
53.526604 909.6803 823.67706 4294108659
-3.2330275 914.75208 824.02942 4283642372
-1.6165137 913.51624 822.98743 4285145095
53.344955 914.13416 823.50842 4294371059
56.57798 914.75208 824.02942 4293976564
-3.225688 917.29962 823.5614 4287331948
-1.612844 916.68311 823.04156 4284302633
0 916.68311 823.04156 4284562728
53.223854 917.29962 823.5614 4294174449
54.836697 917.29962 823.5614 4293911793
-4.0321102 918.53265 824.60107 4288973694
-1.6091744 919.84155 823.08862 4287724909
0 919.84155 823.08862 4289696875
53.102753 919.84155 823.08862 4294174960
54.836697 918.53265 824.60107 4293912045
-3.2183487 921.07178 824.12585 4287323737
-1.6073395 922.3385 823.88593 4288116071
0.53516823 922.35156 823.46094 4290945684
55.700306 922.35156 823.46094 4293846252
61.009174 923.60522 823.646 4293975021
-3.2110093 924.83264 824.68091 4279435264
-1.6055046 924.83264 824.68091 4280026372
0 924.83264 824.68091 4279631872
55.200001 926.78326 822.40161 4293582058
58.499084 925.80798 823.54126 4293648103
61.009174 924.83264 824.68091 4293647338
-1.6 928.61816 823.94867 4280161810
0 928.61816 823.94867 4283116073
56 928.00653 823.43298 4293976305
-1.5963303 932.35522 824.48358 4281409306
0 932.35522 824.48358 4285486946
55.871559 930.5246 822.94006 4294238961
57.467892 932.96539 824.99805 4293845487
1.5926605 933.64587 822.95575 4289237403
55.743118 933.03705 822.44238 4294370547
61.317429 935.47223 824.49573 4293911275
1.5889908 937.36597 823.4765 4286936991
58.262997 937.16357 823.30585 4293977070
60.381653 937.97339 823.98865 4293582310
1.5853211 941.07507 823.98779 4283515993
3.1706421 939.25708 822.45483 4285687691
3.1633027 942.95905 822.96021 4283117875
56.741283 947.28601 822.68457 4293317857
58.317432 947.28601 822.68457 4293646822
55.822937 950.36169 822.66174 4293582314
58.797558 949.71753 823.86261 4293647850
0 953.42889 822.63196 4278190080
55.758713 952.79688 823.4071 4293779436
58.898163 952.79688 823.4071 4293713131
61.183487 953.42889 822.63196 4294238961
-1.5651376 955.88947 822.09058 4286473307
0.52171254 955.44843 823.46271 4286474610
3.1302752 955.88947 822.09058 4284433472
55.692661 954.62823 823.64319 4293581544
58.760551 955.25885 822.86688 4293843949
61.896332 955.25885 822.86688 4293647081
-1.5651376 958.28253 824.1084 4291079598
1.5651376 957.68427 823.60394 4289567142
3.6519878 957.88373 823.77216 4290882223
6.2458715 959.53815 822.55103 4292989669
49.966972 959.53815 822.55103 4293581026
52.309174 959.53815 822.55103 4293647333
55.562386 957.68427 823.604 4293384677
58.385319 958.30225 823.25293 4293647596
62.036083 958.30225 823.25293 4293450214
-6.2458715 961.92566 824.56409 4292392378
7.28685 961.12982 823.89307 4293647086
10.149542 961.32874 824.06079 4294174711
13.272477 961.92566 824.56409 4294637567
16.395412 961.92566 824.56409 4294967295
19.518349 961.92566 824.56409 4294967295
24.983486 961.92566 824.56409 4293455337
29.667891 960.73187 823.5575 4283188629
32.790825 960.73187 823.5575 4293448953
35.913761 960.73187 823.5575 4293909994
37.475231 960.73187 823.5575 4293582310
39.817429 960.73187 823.5575 4293714152
42.940369 961.92566 824.56409 4293713898
46.323547 961.52777 824.22852 4293713383
49.186241 960.73187 823.5575 4293712869
51.528439 960.73187 823.5575 4293580774
59.335781 960.73187 823.5575 4293582058
60.897247 961.32874 824.06079 4293713644
22.588074 963.17554 823.00183 4294967295
-16.315596 751.56995 826.39771 4287912017
-18.073395 755.20538 825.53882 4287782741
-16.266054 755.20538 825.53882 4288506464
-18.073395 756.5871 826.70386 4288183163
-17.080734 789.71295 825.85815 4287522676
-16.733946 794.1507 825.6759 4287327098
-13.21101 794.1507 825.6759 4287195765
-17.559633 799.69318 826.42505 4286258995
-12.291743 799.02197 825.85913 4286388534
-15.770642 801.81354 825.5968 4286323756
-13.142202 801.81354 825.5968 4286520354
-20.272171 814.69507 825.99396 4286258477
-19.909174 820.07214 825.94965 4286194217
-16.731499 820.41168 826.01788 4286455585
-15.555964 823.12567 826.56226 4286327336
-19.813763 827.2373 826.10498 4286325806
-16.367889 827.2373 826.10498 4286195248
-18.911926 830.6286 826.34839 4286193983
-16.367889 829.21313 827.77087 4286194735
-12.894495 829.97144 825.79431 4286388779
-18.911926 831.94299 827.45667 4286194735
-17.192661 831.94299 827.45667 4286260780
-13.754128 831.94299 827.45667 4286194987
-11.99633 835.37225 826.42389 4286063399
-10.26055 838.08942 826.099 4286385952
-8.5504589 838.7431 826.65015 4286713381
-6.8183484 841.50317 825.05322 4286974243
-8.5229359 844.1095 827.25085 4286578698
59.339451 850.8465 826.39117 4294240244
-8.4587154 852.88483 825.49377 4286519591
58.365135 853.53149 826.03906 4294108658
-8.4311924 857.54846 825.50195 4285666081
59.018349 857.54846 825.50195 4294240244
-10.117432 860.12671 827.6759 4286585897
-7.5807338 860.1731 826.40692 4286518065
58.889908 860.21942 825.13794 4294568955
-6.7302752 862.14893 826.76483 4286580272
-6.7082567 866.13855 826.20471 4286578703
-6.7082567 867.42065 827.28577 4287243813
-10.007339 875.94757 827.9353 4285938974
-8.3394499 874.03491 826.32263 4286394704
-7.7663612 877.30688 826.46539 4284952344
-6.6422019 880.57056 826.60114 4281926161
59.779816 879.93579 826.06592 4293780207
-6.6201835 884.50122 825.99133 4284693284
-7.4477062 885.76654 827.05823 4285351177
-4.9541283 887.11462 825.57886 4286929694
-7.1559634 889.21881 827.35303 4285417993
-4.943119 890.35229 825.69269 4286470425
-6.5908256 892.24188 827.28589 4283109120
-6.5688071 896.76239 827.17346 4286007086
-4.9266057 894.87915 825.58557 4286134570
-4.9155965 898.7229 826.21039 4286206790
-4.9045873 901.93042 826.29883 4285027158
58.037613 901.30548 825.77191 4294107886
61.342205 900.97333 826.14587 4294041581
-4.0816517 904.17456 826.22894 4283709507
57.941284 904.17456 826.22894 4293976303
61.307343 903.1803 827.35266 4293976815
63.759632 903.1803 827.35266 4294108402
-4.069725 908.32019 826.45441 4283177986
56.086239 908.98016 825.70288 4293911278
58.113758 906.82977 826.50568 4293845485
60.28624 907.66016 827.20593 4294042861
-11.379816 911.46588 827.79883 4284629333
-6.5027523 911.46588 827.79883 4285810777
-4.0605507 911.50311 826.52216 4284491303
56.023853 910.88171 825.99817 4294173427
58.524769 910.22302 826.75085 4293977068
60.150459 910.22302 826.75085 4294108654
55.148624 912.7804 826.29102 4294108406
-12.93211 917.22375 826.11353 4283373065
-10.23792 916.81183 825.76611 4287521883
-7.0048928 916.81183 825.76611 4288380019
-4.8495412 915.98792 825.07141 4288970876
56.57798 916.60583 825.59247 4293845998
58.194496 917.22375 826.11353 4293845739
-16.165138 918.45959 827.15552 4284026371
-12.93211 918.45959 827.15552 4282581760
-10.507339 918.45959 827.15552 4282124044
-7.2651377 919.72913 826.91797 4282261281
-4.838532 920.3822 826.16058 4285616699
58.062386 919.76569 825.64075 4293778919
-4.0284405 922.26685 826.44165 4282920997
58.734863 922.302 825.16321 4293779176
-4.0192661 925.41125 826.47681 4279370503
58.600918 926.06006 825.71582 4293977325
61.009174 926.06006 825.71582 4294042861
-4.0137615 927.90118 827.26825 4280223500
59.403671 927.28748 826.75073 4293910507
61.009174 927.28748 826.75073 4293714411
-7.1999998 932.89935 827.55847 4284956978
-3.5999999 931.98193 826.78491 4282000405
58.400002 930.45294 825.49573 4293844714
60.799999 930.45294 825.49573 4293713898
-1.5963303 934.79602 826.54163 4280027648
0 934.18579 826.0271 4283251305
-1.5926605 937.90747 826.54907 4278845447
0 937.29865 826.03571 4281016641
-1.5926605 939.12506 827.57568 4279173123
0 939.12506 827.57568 4279238667
58.79266 939.18823 825.01294 4293844968
60.381653 939.79565 825.52509 4293647338
-1.5853211 942.89301 825.52063 4280614916
0 942.89301 825.52063 4279765253
64.471558 953.36713 825.19592 4293778921
64.471558 954.56927 826.20947 4293647338
-3.6605504 957.82648 826.3399 4290485416
-1.5651376 959.47913 825.11731 4291274428
0.62678897 958.7168 826.56738 4291737027
3.9128439 959.47913 825.11731 4292789966
31.874617 959.44354 826.83136 4290223535
34.473396 959.45239 826.40283 4294172911
53.277065 959.45239 826.40283 4293581546
55.344341 959.46136 825.9743 4293713131
57.910091 959.47913 825.11731 4293516265
62.605503 959.47913 825.11731 4293383911
64.321098 957.62665 826.17139 4293449959
-7.0431194 961.87225 827.13501 4293183952
-3.9128439 961.27399 826.63062 4292788939
-1.5651376 961.27393 826.63062 4292658128
4.1737003 961.07452 826.46246 4292921049
6.7822633 961.47339 826.79877 4292989406
10.434251 961.47339 826.79877 4293779440
13.30367 961.87225 827.13501 4294833657
16.433945 961.87225 827.13501 4294967295
19.56422 961.87225 827.13501 4294967295
22.694496 961.87225 827.13501 4294967295
25.824772 961.27393 826.63062 4291941586
28.955048 960.67566 826.12622 4278676167
35.998165 961.27393 826.63062 4293976561
37.563301 960.67566 826.12622 4293318888
39.911011 960.67566 826.12622 4293976815
43.041283 961.87225 827.13501 4293779438
45.388992 961.87225 827.13501 4293647853
49.562695 961.07452 826.46246 4293845225
51.64954 960.67566 826.12622 4293778406
56.344955 960.67566 826.12622 4293778923
58.692661 960.67566 826.12622 4293844973
61.822937 961.27393 826.63062 4293845229
64.170639 961.27393 826.63062 4293779691
62.458717 963.11938 825.57056 4293845485
-15.506422 830.53033 828.88159 4286194987
-18.911926 833.25739 828.56494 4286194735
-16.333027 833.25739 828.56494 4286129194
-13.754128 833.25739 828.56494 4286522151
-18.911926 835.229 830.22729 4286129199
-16.333027 835.229 830.22729 4286128936
-13.754128 835.229 830.22729 4286325290
-11.13945 838.64764 829.18567 4285793042
-13.710092 840.61292 830.84277 4286125344
-11.13945 840.61292 830.84277 4285464840
-8.5504589 840.70416 828.30371 4286578699
-10.26055 843.31891 830.50842 4286516507
-13.636697 848.01898 830.54724 4286586429
-11.068808 848.06396 829.27716 4286453292
-10.205504 849.40924 829.10339 4286519591
-10.172477 853.43884 828.57697 4285928490
-11.009174 856.07397 829.49084 4286323753
-8.4587154 856.76489 828.76538 4286190887
-10.99633 858.7049 830.40112 4286585380
-8.4587154 859.35156 830.94641 4285990930
-10.117432 863.99414 830.93677 4286192128
-8.4311924 862.70502 829.84985 4286382080
-10.095413 866.65112 830.56091 4286660165
-8.4128437 865.36475 829.47632 4287310849
-10.062386 869.98492 829.44788 4287118949
-8.3853207 868.70276 828.36682 4285804856
-10.889908 871.94812 829.79517 4286262849
-10.841284 877.86023 829.54803 4284098568
-10.540061 880.69971 829.32617 4284890911
-8.3211012 879.85156 828.61096 4280877056
-14.145872 882.39618 830.75647 4286141200
-10.793578 883.74432 829.27722 4285812238
-8.3027525 882.47485 828.20679 4283775517
-13.284404 885.01385 830.34766 4285091876
-10.793578 885.01385 830.34766 4286141733
-8.2752295 887.03186 828.12512 4286270745
-9.9192657 889.59961 828.98212 4284494853
-8.2568808 890.9021 828.77234 4282124032
-13.211009 892.7959 830.36908 4284485401
-10.733945 893.42712 830.90137 4283629571
-7.4238529 892.83307 829.09241 4282450950
-11.533945 896.02094 830.47229 4284221978
-8.2385321 894.76123 829.41016 4284418048
-11.495413 899.27338 829.29065 4286997075
-7.3899078 898.64563 828.76135 4286078029
-13.137614 900.52881 830.34924 4285553461
-10.661469 901.19165 829.6001 4286803553
-7.3825688 901.19165 829.6001 4283974219
-10.650459 903.73358 830.4353 4281805356
-7.3697248 904.0636 830.05957 4280616706
-4.9045873 904.43011 828.40649 4282916637
61.307343 904.43011 828.40649 4293911534
63.759632 904.43011 828.40649 4293911793
-9.8091745 906.92987 830.51416 4282785536
-7.3458714 907.91785 829.38519 4284824867
-4.8880734 908.90576 828.25623 4282653453
-9.7761469 910.15143 829.30652 4286142518
-8.1467886 910.15143 829.30652 4286866240
-8.1284399 912.70874 828.84668 4288838777
-14.631192 915.19446 830.94263 4284092164
-8.1284399 915.19446 830.94263 4281271830
-16.165138 919.69543 828.19751 4283703309
-12.93211 919.69543 828.19751 4283774737
-10.507339 920.31335 828.71857 4281276696
-6.4660549 920.31335 828.71857 4280815875
-6.451376 923.46478 828.75977 4280093713
-6.451376 925.31433 830.31915 4280749849
-4.8275228 925.99268 828.27502 4279504143
57.930275 925.99268 828.27502 4293976301
-7.2247705 929.74231 828.82068 4285022782
-4.8165135 929.74231 828.82068 4284105011
-6.9333329 934.53027 828.93359 4283051298
-4.2666669 934.53027 828.93359 4281804573
-6.4000001 936.56903 830.65271 4278978048
-3.7247705 937.44025 828.77118 4279305227
-3.9871559 939.70508 829.37274 4280483842
-3.9220183 961.82446 829.71094 4293120478
-1.5688074 961.82446 829.71094 4292923614
0.78440368 961.22473 829.20532 4292988380
3.6605504 961.42462 829.37384 4292659677
7.0596333 961.82446 829.71094 4292658648
10.197248 961.82446 829.71094 4292526038
13.334863 961.82446 829.71094 4292592083
16.472477 961.82446 829.71094 4293250279
19.610092 961.82446 829.71094 4294965756
22.747707 961.82446 829.71094 4294967295
25.885323 961.22473 829.20526 4293519594
29.022936 960.62506 828.69958 4287728126
32.422016 961.02484 829.03668 4291611091
34.51376 961.22473 829.20526 4292728805
37.128441 961.42462 829.37384 4293385454
40.004585 961.22473 829.20532 4293713389
43.142204 961.82446 829.71094 4293647851
46.541286 961.42462 829.37384 4293384936
49.155964 961.42462 829.37384 4293713901
52.555046 961.22473 829.20532 4293911277
55.692665 961.22479 829.20526 4293844974
58.830276 961.22479 829.20526 4294041839
61.183487 961.82446 829.71094 4294370545
-7.0513763 963.04633 829.43311 4293580260
-1.5688074 963.0238 830.72217 4292923360
36.082569 963.0238 830.72217 4293517289
54.908257 963.0238 830.72217 4293647853
62.131496 963.45264 829.33966 4293911022
64.245865 963.04626 829.43304 4293713387
-18.911926 837.85779 832.44379 4286126883
-16.333027 837.85773 832.44385 4286060580
-13.754128 837.20056 831.88965 4286189343
-15.423853 841.9231 831.94751 4286063398
-13.710092 841.9231 831.94751 4286585657
-11.99633 841.9231 831.94751 4286256948
-15.390825 844.62628 831.61072 4286326573
-13.680734 844.62628 831.61072 4286652485
-11.970642 844.62628 831.61072 4286257727
-11.93211 849.32214 831.64612 4286455856
-11.906422 852.01001 831.29626 4285931563
-15.258716 857.32727 831.85565 4285930808
-13.563303 857.32727 831.85565 4286521896
-11.86789 857.97534 832.4021 4285863705
-13.563303 859.27155 833.49487 4285793299
-11.009174 859.95825 832.76587 4285399045
-11.842202 861.93829 833.12744 4285136905
-15.176147 866.57245 833.11072 4284813091
-13.489908 866.57245 833.11072 4284616973
-11.80367 865.28333 832.0238 4287112493
-15.143119 869.22382 832.73022 4282781696
-13.46055 869.22382 832.73022 4283696917
-11.777982 867.93744 831.64563 4287116850
-15.093578 872.54919 831.60999 4281995008
-13.416513 872.54919 831.60999 4283239456
-11.73945 872.54919 831.60999 4283831849
-15.093578 873.8313 832.69104 4281144576
-13.416513 873.8313 832.69104 4282712576
-11.713761 875.18781 831.21887 4284094212
-13.387156 876.46716 832.29749 4284425728
-15.011009 879.77289 831.16077 4286993200
-13.34312 879.77289 831.16077 4286401561
-14.977982 883.66846 831.82935 4284632611
-13.284404 886.91809 831.95325 4285351724
-11.623854 886.91809 831.95325 4284693794
-10.757798 890.82776 831.32568 4283500304
-14.036697 894.68958 831.96582 4283892243
-9.9082565 894.68958 831.96582 4284626948
-14.417431 898.22534 832.33105 4285474862
-9.8862381 897.28058 831.53442 4287461230
-13.137614 901.7843 831.40784 4285492589
-13.137614 903.03979 832.46631 4286409342
-11.469725 905.61255 832.01965 4281411400
-14.089297 917.26587 832.68915 4284300329
-8.1100922 919.60059 832.04169 4280159776
-8.1100922 921.46069 833.61011 4280159507
63.852295 923.40295 831.32361 4293648107
-8.0825691 924.63879 832.3656 4282061080
63.852295 924.63879 832.3656 4293911021
-8.027523 933.42456 831.92542 4281079060
-9.4348621 961.78235 832.29138 4293580263
-7.8623853 962.9845 833.30505 4293120994
-3.6691132 962.18311 832.62921 4292988896
-1.5724771 962.9845 833.30505 4292857567
0.78623855 961.78235 832.29138 4292857819
3.9311926 961.78235 832.29138 4292593881
7.0761471 961.78235 832.29138 4292527323
10.221101 961.78235 832.29138 4292526296
13.366055 961.78235 832.29138 4292263885
16.511009 961.78235 832.29138 4292067792
19.655964 961.78235 832.29138 4294373870
22.800919 961.78235 832.29138 4294967295
26.207952 961.38159 831.95343 4294967295
29.090824 961.18127 831.78455 4294967295
31.449541 961.78241 832.29132 4294967295
33.808258 962.38342 832.79822 4294241779
37.21529 962.5838 832.9671 4293515242
39.836086 962.18311 832.62921 4293647340
43.243118 961.78235 832.29138 4293713129
46.388073 961.78235 832.29138 4293581803
49.795105 962.18311 832.62921 4293779694
52.940063 962.18311 832.62921 4293648108
56.085018 962.5838 832.9671 4293713644
58.967888 962.38342 832.79822 4293911278
64.471558 962.9845 833.30505 4293713646
66.044037 962.9845 833.30505 4293845487
62.229359 964.62299 832.0705 4293779437
-15.423853 844.54346 834.15686 4286653741
-17.045872 854.53485 836.04126 4286128190
-15.308257 857.21143 835.68201 4285337127
-16.133945 859.53973 835.68311 4285467932
-13.563303 860.56769 834.58777 4285727506
-15.258716 861.86383 835.68066 4285664797
-13.533945 863.23163 834.2179 4285533205
-14.829358 901.05963 834.72083 4288040530
-13.849541 917.62537 835.60828 4283513376
-9.7761469 917.62537 835.60828 4280488486
-13.034863 918.87103 836.65869 4283579963
-10.853824 918.88837 835.80127 4280553739
-9.7541285 921.40869 836.18237 4281205771
-9.4568806 962.34827 835.38464 4293055202
-6.8299694 962.54907 835.55402 4292923618
-4.2030582 962.54907 835.55402 4292791776
-1.5761468 962.95074 835.8927 4292923360
4.7284403 961.74573 834.87659 4292528604
7.0926609 961.74573 834.87659 4292659420
10.244954 961.74573 834.87659 4292461785
13.397247 961.74573 834.87659 4292527827
16.549541 961.74573 834.87659 4291608268
19.701836 961.74573 834.87659 4291016387
22.85413 961.74573 834.87659 4293254372
26.006422 961.74573 834.87659 4294967295
29.421408 962.14746 835.21533 4294967295
31.522936 962.95074 835.8927 4294967295
33.887154 962.95074 835.8927 4294967295
36.251377 962.95074 835.8927 4293123296
40.979816 961.74573 834.87659 4293777895
43.344036 961.74573 834.87659 4293975531
46.49633 961.74573 834.87659 4293646825
49.648624 962.34827 835.38464 4293778923
52.538227 962.54907 835.55402 4293647594
55.165138 962.95074 835.8927 4293976816
58.317432 962.95074 835.8927 4293713898
66.198166 962.95074 835.8927 4293845485
-3.1522937 964.1557 836.90869 4292923360
-1.5761468 964.1557 836.90869 4292857567
56.675228 964.17114 835.61365 4293648105
59.321716 964.16602 836.04535 4293647849
61.850769 964.9881 834.99438 4293713643
64.546783 964.17114 835.61365 4293845230
66.198166 964.1557 836.90869 4293647853
-18.811008 853.77795 839.32715 4285732387
-19.602753 857.14117 838.23889 4285533223
-17.045872 855.83801 837.14014 4285797678
-19.602753 858.4444 839.33765 4285402138
-17.009174 859.81219 837.87488 4285532955
-17.009174 861.11255 838.97131 4284550176
-14.713761 916.92877 838.94507 4283906868
-13.874311 919.14771 838.85394 4284565837
-11.405504 920.1167 837.70898 4280751644
63.401836 922.65155 837.23022 4294042861
0.79082566 959.88763 837.23401 4292857819
3.1633027 959.88763 837.23401 4292594398
-12.653211 962.30603 839.27307 4292989155
-10.544343 961.90302 838.93329 4293120997
-7.1174312 962.30603 839.27307 4292857825
-4.7449541 962.30603 839.27307 4292857569
1.0544342 961.49994 838.59344 4292792028
3.9541283 961.09686 838.25354 4292462811
7.1174312 961.09686 838.25354 4292791260
10.280734 961.09686 838.25354 4292527321
13.444036 961.09686 838.25354 4292593620
16.60734 961.09686 838.25354 4292264665
19.770641 961.70148 838.76331 4292001231
22.933945 961.09686 838.25354 4292593616
26.360855 961.49994 838.59344 4293846763
28.469725 961.70142 838.76331 4294635505
30.842201 962.30603 839.27307 4294967295
34.005505 962.30603 839.27307 4294967295
37.959633 961.09686 838.25354 4293449960
40.332108 961.09686 838.25354 4293909997
43.495415 961.09686 838.25354 4293910254
46.658714 961.09686 838.25354 4293581547
49.031193 961.09686 838.25354 4293778669
52.985321 962.30603 839.27307 4293582312
55.3578 962.30603 839.27307 4293582312
68.011009 962.30603 839.27307 4293582060
69.592659 962.30603 839.27307 4293647342
61.469727 965.36066 837.92468 4293844462
63.833946 965.36066 837.92468 4294041326
-18.750458 859.74756 840.43652 4284678684
-12.682569 962.28491 841.87134 4292989157
-11.097248 962.28491 841.87134 4293054951
0.52844036 961.88086 841.53076 4292792027
3.9633026 961.67889 841.36041 4292397018
7.133945 961.67883 841.36047 4292594138
10.304587 961.67883 841.36047 4292527322
13.211009 961.47687 841.19012 4292659413
16.645872 961.07288 840.84949 4292395988
19.816513 962.28491 841.87134 4292592085
23.251375 961.47687 841.19012 4291605443
26.157799 961.67889 841.36041 4290947260
28.53578 962.28491 841.87134 4291868896
30.913761 962.28491 841.87134 4294967295
34.084404 962.28491 841.87134 4294967295
37.255047 961.07288 840.84949 4293123045
40.42569 961.07288 840.84949 4293779182
43.596329 961.07288 840.84949 4293778669
46.766972 961.07288 840.84949 4293713388
50.201832 961.47687 841.19012 4293779434
53.108257 962.28491 841.87134 4293713127
-9.5009174 963.50604 841.59302 4292989154
-7.1256881 963.50604 841.59302 4292923361
-3.9587154 963.50604 841.59302 4292726239
-1.5834862 963.50604 841.59302 4292792031
56.148624 963.5152 840.29272 4293582055
58.083179 963.50299 842.02643 4294042861
60.676453 963.91217 841.49945 4293976302
63.793274 965.12744 841.6521 4294435567
67.259636 963.81293 841.19775 4294041068
69.592659 963.5152 840.29272 4293844716
-11.122936 962.26935 844.47437 4292989157
0.7944954 962.26935 844.47437 4292792796
3.972477 962.26935 844.47437 4292594398
7.1504583 962.26935 844.47437 4292725470
10.328441 962.26935 844.47437 4292593116
13.771255 961.86444 844.133 4292658645
16.684402 961.66199 843.96228 4292526804
19.862385 962.26935 844.47437 4292591572
22.775536 961.86444 844.133 4292264146
25.423853 961.66199 843.96222 4291342020
27.807339 962.26935 844.47437 4291210690
30.985321 962.26935 844.47437 4292988384
37.341286 961.05457 843.45007 4293123043
40.519264 961.05457 843.45007 4293778669
43.69725 961.05457 843.45007 4293778412
46.875229 961.66193 843.96222 4293975789
49.78838 961.86444 844.133 4294239471
52.436699 962.26935 844.47437 4294305006
54.820183 962.26935 844.47437 4294370799
-7.1504583 963.48413 845.49854 4293054432
-3.9688072 964.0965 844.70685 4292857567
-1.5853211 964.70886 843.91516 4292923362
0.7944954 963.48413 845.49854 4292857819
7.9449539 963.48413 845.49854 4292725216
9.5339451 963.48413 845.49854 4292791011
50.847706 963.48413 845.49854 4294699508
54.820183 963.48413 845.49854 4294567922
57.998165 963.48413 845.49854 4294699508
61.104588 964.0965 844.70685 4294370797
64.205505 965.31482 844.42615 4291472054
66.583488 964.70886 843.91516 4294632429
69.915596 963.48413 845.49854 4294501613
-12.770642 959.81439 847.63647 4292923364
41.504585 959.81439 847.63647 4294567670
-12.770642 961.03479 848.66541 4292923364
-10.365137 961.64716 847.87372 4292923107
3.9816513 962.25952 847.08203 4292791263
6.3706422 962.25952 847.08203 4292725216
11.148623 962.25952 847.08203 4292527839
13.537615 962.25952 847.08203 4292659416
16.722935 962.25952 847.08203 4292592603
19.908257 962.25952 847.08203 4292723669
23.093578 962.25952 847.08203 4292395219
25.482569 962.25952 847.08203 4292000466
27.871559 962.25952 847.08203 4291408583
31.128441 961.03479 848.66541 4291540184
34.534557 961.03955 846.92548 4294967295
37.470642 961.03833 847.36047 4293780974
40.409786 961.03711 847.79541 4294239478
43.822937 961.34448 846.96454 4294567928
46.983486 962.25952 847.08203 4294699257
49.372478 962.25952 847.08203 4294897405
52.557796 962.25952 847.08203 4294699508
68.642204 961.03479 848.66541 4294698478
-7.1504583 964.69897 846.52283 4293251556
-3.972477 964.69897 846.52283 4292988385
-1.5889908 964.69897 846.52283 4292856802
0.79633027 963.47711 848.10876 4292725720
3.9816513 963.47711 848.10876 4292593370
7.1669722 963.47711 848.10876 4292528607
10.352293 963.47711 848.10876 4292463073
50.168808 963.47711 848.10876 4290023840
54.946789 963.47711 848.10876 4289496982
58.132111 963.47711 848.10876 4289431189
61.440979 965.10394 846.86426 4287652455
64.354126 965.3064 847.03497 4286664002
66.737617 964.69897 846.52283 4288772993
33.599998 959.81006 850.2489 4294967295
-13.6 961.03326 851.28027 4292989158
-10.38899 961.64423 850.48737 4293186278
13.568808 962.25519 849.69446 4292330708
16.761467 962.25519 849.69446 4292395222
19.954128 962.25519 849.69446 4292592853
22.348623 962.25519 849.69446 4292395992
24.799999 961.03326 851.28027 4292264147
28 961.03326 851.28027 4291869132
31.200001 961.03326 851.28027 4290488767
34.400002 961.03326 851.28027 4294967295
37.599998 961.03326 851.28027 4292596960
40.799999 961.03326 851.28027 4289894316
43.899082 962.25519 849.69446 4290746284
47.091743 962.25519 849.69446 4290220711
52.678898 962.25519 849.69446 4289760922
68.642204 962.25519 849.69446 4288444284
70.238533 962.25519 849.69446 4288179577
-9.5779819 964.08582 851.23798 4293053926
-7.1752291 964.69537 850.44391 4293053667
-3.9889908 964.39056 850.84094 4292922594
-1.5944954 964.69531 850.44391 4292857060
0.79816514 963.47559 850.72351 4292725719
3.9908257 963.47559 850.72351 4292658909
7.183486 963.47559 850.72351 4292593627
46.293579 963.47559 850.72351 4287388789
55.073395 963.47559 850.72351 4285743160
57.910706 964.69513 850.00775 4285017643
60.521099 964.6947 849.13538 4285214504
64.867271 964.69556 850.88007 4284819476
67.68808 964.6947 849.13538 4284491017
-13.6 962.25647 852.31165 4293186279
-11.2 962.25647 852.31165 4293449960
10.4 962.25647 852.31165 4292528604
13.6 962.25647 852.31165 4292593879
16.799999 962.25647 852.31165 4292659413
20 962.25647 852.31165 4292462035
22.4 962.25647 852.31165 4292395738
24.799999 962.25647 852.31165 4292132564
28 962.25647 852.31165 4291738061
31.307339 960.42786 854.69385 4290554552
34.518349 960.42786 854.69385 4294965244
37.729355 960.42786 854.69385 4290622684
40.868805 961.34216 853.50275 4286608267
44 962.25647 852.31165 4287524213
48.799999 962.25647 852.31165 4286664539
52 962.25647 852.31165 4286401605
-12.8 964.09131 853.8587 4292989152
-10.4 964.09131 853.8587 4293054433
-7.1999998 964.70288 854.37439 4292988642
-4 964.70288 854.37439 4293185763
-1.6 964.70288 854.37439 4292988894
0.80000001 963.47968 853.34302 4292725468
4 963.47968 853.34302 4292659163
6.4000001 963.47968 853.34302 4292593116
44 963.47968 853.34302 4285276445
46.400002 963.47968 853.34302 4284425249
55.466663 963.88739 853.68683 4284950292
58.666668 964.29517 854.03058 4285346339
61.599998 964.09131 853.8587 4285478180
63.85321 965.91638 852.78149 4285807669
-14.482569 960.43903 857.31934 4293053917
-11.238532 962.88269 856.76379 4292989409
0.80275232 962.88269 856.76379 4292724702
4.0137615 962.88269 856.76379 4292855518
7.2247705 962.26898 856.24634 4292658908
10.43578 961.65527 855.72888 4292528604
13.64679 961.65527 855.72888 4292724953
16.876148 961.04712 856.52411 4292856022
20.114677 960.43903 857.31934 4292396757
22.52844 960.43903 857.31934 4292264919
24.885323 961.65527 855.72888 4292133075
28.096329 961.65527 855.72888 4291803852
31.307339 961.65527 855.72888 4290358201
34.518349 961.65527 855.72888 4294177272
37.729355 961.65527 855.72888 4289510613
40.940369 962.26904 856.24634 4280682261
44.151375 962.88269 856.76379 4285017626
46.559631 962.88269 856.76379 4285279777
49.235474 962.06445 856.07391 4284818457
52.178898 962.26904 856.24634 4285016347
54.587154 962.88269 856.76379 4285347105
65.825691 962.88269 856.76379 4285807669
67.43119 961.65527 855.72888 4284952609
69.571869 962.06445 856.07391 4285083941
-12.8 965.92615 855.40576 4292989409
-9.6330271 964.11011 857.79871 4293119971
-7.2247705 964.11011 857.79871 4292857313
-4.0137615 964.11011 857.79871 4293055204
-1.6055046 964.11011 857.79871 4292923360
49.770641 964.11011 857.79871 4285743147
55.389908 964.11011 857.79871 4285743147
58.600918 964.11011 857.79871 4285809192
61.811928 964.11011 857.79871 4285874728
64.220184 964.11011 857.79871 4286070322
-12.8 967.14935 856.43726 4292988642
-11.26422 962.89948 859.39392 4292989409
0.80458719 962.89948 859.39392 4292593629
4.0229359 962.89948 859.39392 4292790750
7.2486238 961.67902 859.67291 4292593372
10.47156 961.67902 859.67291 4292265177
13.693579 961.67902 859.67291 4292462550
16.934864 961.07227 860.46948 4292395992
20.429358 960.86676 860.29614 4292330710
22.579817 961.07227 860.46942 4292264659
24.955963 961.98169 859.27405 4292264659
28.177065 961.98169 859.27405 4291869902
31.378899 962.28436 858.87524 4290948540
34.597248 962.28436 858.87524 4294173423
37.575535 961.67578 859.23413 4291477473
40.321102 961.68878 860.98926 4281604934
43.546787 961.68878 860.98926 4286923041
45.159634 961.68878 860.98926 4286006064
48.330276 961.67902 859.67291 4285478693
52.298164 962.89948 859.39392 4285873713
65.976151 962.89948 859.39392 4286070322
67.58532 962.28436 858.87524 4285807926
69.352295 961.68878 860.98926 4285676597
-10.448624 964.73364 859.63245 4293053922
-7.23211 964.73364 859.63245 4292988129
-4.0174313 964.73364 859.63245 4293120485
-1.6091744 964.1297 860.43127 4292857569
56.321102 964.1297 860.43127 4285808169
58.734863 964.1297 860.43127 4285808422
61.883484 964.73364 859.63245 4285808421
65.098167 964.73364 859.63245 4285808170
64.220184 966.56494 859.86853 4285808421
0.80825686 962.31787 862.8277 4292790498
4.0412846 961.71393 863.62646 4292660445
8.0825691 960.47809 862.58447 4292462300
10.507339 961.71393 863.62646 4292395740
13.740367 961.71393 863.62646 4292330712
16.973394 961.71393 863.62646 4292592865
19.398165 961.09601 863.10547 4292330965
