# .PCD v0.7 - Point Cloud Data file format
VERSION 0.7
FIELDS x y z rgb
SIZE 4 4 4 4
TYPE F F F U
COUNT 1 1 1 1
WIDTH 1164
HEIGHT 1
VIEWPOINT 0 0 0 1 0 0 0
POINTS 1164
DATA ascii
31.805504 778.45575 816.36633 4294963967
33.572475 779.80658 817.50537 4294964223
-19.436697 781.15747 818.64441 4282523428
-17.669725 781.15747 818.64441 4281866025
-19.376146 784.72412 817.72766 4284038205
-16.733946 784.05078 817.15991 4281734696
-19.376146 786.0708 818.86304 4287922567
-16.681652 788.28235 816.80371 4288319651
34.296333 787.17657 817.83337 4294964479
-19.315596 789.62482 817.93567 4288382864
-16.665138 790.3606 817.24805 4289697718
-14.018349 791.09644 816.56042 4290423496
35.119267 789.62482 817.93567 4294965247
36.875229 789.62482 817.93567 4294965247
-16.938837 792.88257 818.06641 4287989382
35.045872 792.43604 817.68994 4294964735
37.674309 793.10583 818.2547 4294964991
40.302753 793.7757 818.81946 4294965247
42.055046 793.7757 818.81946 4294964735
-16.303364 796.86493 817.50018 4285749579
-13.974312 795.97467 816.74951 4287528339
34.93578 795.97467 816.74951 4294963967
37.555962 796.64233 817.3125 4294965503
-15.688073 800.1059 817.61682 4287648620
-13.073395 798.77325 816.49316 4283710780
34.862385 799.43958 817.05499 4294964223
36.605503 799.43958 817.05499 4294964479
-16.534863 802.53174 817.70013 4289228381
-13.900917 803.62488 816.65979 4290473551
34.752293 803.62488 816.65979 4294963199
37.477066 801.43854 818.74048 4294897407
-16.796942 805.39618 818.15332 4288963650
34.752293 805.61755 818.33997 4294700283
36.48991 805.61755 818.33997 4294766077
-16.455046 809.1217 817.37054 4288437052
32.910091 808.45966 816.81226 4294897151
34.6422 809.78381 817.92883 4294831609
36.374313 809.78381 817.92883 4294964479
-16.420183 811.89374 817.09174 4288503099
32.264221 811.67352 816.90607 4294897406
34.568806 812.55444 817.6488 4294963452
-17.284403 813.87585 818.76294 4290542894
34.568806 813.87585 818.76294 4294964222
-16.195597 817.62177 817.99738 4290737727
-12.894495 818.79907 816.37402 4290730327
29.227524 818.79907 816.37402 4294701309
31.857798 817.05994 816.86963 4294832382
34.458717 818.01697 818.33057 4294964223
-15.473394 821.42786 818.59058 4289353509
-13.754128 820.11346 817.4823 4291253838
32.666054 820.77063 818.03644 4294833406
34.385323 821.42786 818.59058 4294634748
-13.710092 824.2356 817.03381 4290394163
-11.99633 823.58051 816.48145 4290129952
31.704586 824.2356 817.03381 4294701309
-15.423853 826.20087 818.69092 4289748515
-13.680734 827.63037 817.28015 4290859301
-11.970642 826.323 816.17786 4289408050
29.07156 826.97668 816.729 4294700540
31.351683 827.19458 816.91278 4294568953
34.27523 826.20087 818.69092 4294568694
-13.680734 828.93774 818.38257 4290598684
32.491745 828.93774 818.38257 4294502901
34.201836 828.93774 818.38257 4294502901
-15.341285 833.68414 818.46045 4289420597
-13.636697 832.38092 817.36169 4290470446
-11.93211 831.07776 816.26294 4288427520
28.977982 831.07776 816.26294 4294240244
31.108717 832.70673 817.63635 4294239217
-13.60734 835.75537 817.59094 4290272277
-11.906422 835.10522 817.04272 4290403606
28.915596 835.10522 817.04272 4294502901
31.466972 836.40558 818.13916 4294041328
-13.563303 839.82916 817.10168 4289747207
-11.302752 838.96509 816.37305 4292245048
28.822018 838.53302 816.00879 4293976305
31.365139 839.82916 817.10168 4294107634
-13.563303 841.12531 818.19458 4289090304
-10.99633 842.53802 816.76965 4292181303
31.297249 842.53802 816.76965 4293975534
33.908257 841.12531 818.19458 4293909994
-13.533945 843.83136 817.86011 4289285120
-11.842202 843.83136 817.86011 4291785243
32.14312 843.83136 817.86011 4293910509
34.398777 844.6936 818.58716 4293778923
-13.489908 847.87988 817.34967 4288758528
-10.96055 847.23529 816.80615 4291653919
0 847.23529 816.80615 4294928508
31.47645 847.66504 817.16846 4293910255
33.72477 848.52448 817.89319 4293844716
-15.176147 849.8136 818.9801 4288430080
-13.46055 851.21509 817.54565 4289945344
-11.217125 850.35748 816.82257 4291062801
-8.4128437 849.92871 816.46106 4294156358
0 849.92871 816.46106 4294927212
30.847094 850.78632 817.18408 4293975021
34.56789 849.8136 818.9801 4293910512
-15.143119 852.5014 818.63025 4288892945
-13.416513 854.59937 816.47522 4290012194
-11.73945 854.59937 816.47522 4291262260
31.077982 853.55042 817.55273 4294107889
33.651375 852.5014 818.63025 4293976305
-15.093578 857.16364 818.63733 4291332229
-13.416513 855.88147 817.55627 4291265127
-11.713761 857.27728 816.11707 4292778623
23.427523 857.27728 816.11707 4293713898
25.937614 857.27728 816.11707 4293910765
28.447706 857.27728 816.11707 4294239472
31.28318 856.77411 817.43683 4294042867
34.379814 857.16364 818.63733 4293975789
-15.060551 859.83594 818.27454 4291462020
-13.387156 858.55658 817.1958 4292053389
23.427523 858.55658 817.1958 4293845485
26.216513 858.98309 817.55536 4293976814
28.447706 859.19629 817.73517 4294042863
30.6789 859.40948 817.91498 4293976046
-13.34312 862.55884 816.6463 4291788683
-11.675229 861.92126 816.10876 4291593357
22.794495 862.34637 816.4671 4294042095
25.574312 862.7713 816.8255 4294108401
28.354128 863.19641 817.18384 4293977068
-15.011009 864.4715 818.25903 4289352285
-13.34312 864.4715 818.25903 4290463321
-10.81743 865.85614 816.81042 4289930302
-8.3211012 865.85614 816.81042 4293805415
23.299082 865.85614 816.81042 4293845487
25.824772 865.16382 817.53473 4294239730
28.354128 864.4715 818.25903 4294108143
30.855965 864.4715 818.25903 4294107373
-13.313762 868.40076 818.95593 4289797687
-10.811926 868.10938 818.05621 4290322485
-7.7492356 868.93341 816.78906 4294601595
23.273396 868.45551 817.69409 4293976817
25.781652 868.10938 818.05621 4294240245
28.846481 867.97662 818.59833 4294174194
-11.623854 871.04926 818.57312 4289999677
26.568808 871.04926 818.57312 4294306551
29.059633 871.04926 818.57312 4294240248
-13.240367 875.64417 818.52332 4285535776
-10.344036 874.69519 817.72314 4287303448
-7.4477067 873.74622 816.92297 4290198612
-4.9651375 873.11359 816.38953 4292644766
0 873.11359 816.38953 4294948332
23.170643 873.11359 816.38953 4294305267
25.65321 873.74622 816.92297 4294503415
29.239143 874.8006 817.81201 4294043378
-9.9082565 878.27722 818.12732 4284554752
-7.4311929 877.646 817.59509 4287245075
-4.9541283 877.01471 817.06287 4290721837
26.422018 877.01471 817.06287 4294438389
28.899082 877.646 817.59509 4294240755
31.376146 878.27722 818.12732 4294240758
-7.4146786 880.90466 817.72668 4288769820
-4.943119 879.64502 816.66455 4290935106
0 879.64502 816.66455 4289462272
28.834862 880.27484 817.19562 4294371830
-10.710092 882.16437 818.78882 4291468347
-7.3899078 884.20764 816.58752 4288246302
29.559633 884.20764 816.58752 4294372344
32.130276 882.16437 818.78882 4294174709
34.601833 882.16437 818.78882 4294503162
-10.400612 886.30005 818.35187 4291011881
-7.3825688 886.14282 816.91119 4290353694
29.493578 886.82251 816.17627 4294306038
32.296635 885.88159 817.99902 4294306038
34.48624 886.71857 818.70471 4294108404
36.128441 886.71857 818.70471 4294042611
-10.650459 889.32782 818.2887 4291273757
-7.3651381 889.37842 817.02332 4290881098
28.610092 890.68164 816.81409 4294174965
31.678289 888.91022 817.93671 4294502907
34.409176 889.32782 818.2887 4294042361
-13.078899 893.18134 818.92188 4285733391
-10.899083 892.34808 818.21924 4288504086
-7.3568807 891.93146 817.86792 4290352438
31.60734 892.76471 818.57056 4294174963
34.332111 893.18134 818.92188 4294109169
-9.7761469 895.20355 816.70276 4287984640
-7.3321104 895.82642 817.22791 4285811471
-4.8880734 895.82642 817.22797 4291798879
28.785322 895.61884 817.05292 4294240500
30.957798 896.44922 817.75317 4294042611
-9.7761469 897.69489 818.80347 4283236352
-7.3155961 899.03735 817.31934 4283435776
-4.0642204 898.41589 816.79541 4290350417
27.636698 897.79449 816.27148 4294569720
31.737614 898.36609 818.0614 4293911284
-7.5755348 901.58673 817.72485 4289824138
-4.866055 901.61993 816.88086 4282978560
29.196331 901.61993 816.88086 4293713648
31.647705 901.90503 817.77527 4293713647
-9.73211 904.10004 818.97205 4292260290
32.440369 904.10004 818.97205 4293581547
34.062386 904.10004 818.97205 4293976305
-10.507339 907.95496 818.29828 4285942601
-7.532722 907.81268 816.43427 4294961654
-4.0321102 908.6684 816.28381 4293117946
0.806422 908.6684 816.28381 4285876827
25.805504 908.6684 816.28381 4293778921
28.537615 907.3689 816.93213 4293647081
31.360367 907.58417 817.98566 4293647337
33.946789 907.95496 818.29828 4293713387
-10.214679 910.72345 818.01654 4281403661
-8.0642204 909.90143 817.32349 4287790202
29.031193 910.51794 817.84326 4293647847
30.644037 911.13446 818.36304 4293713896
-9.6550455 914.30554 818.42072 4283709209
-7.4022017 913.44434 817.69464 4283773492
25.74679 912.46014 816.86475 4293385188
27.892355 913.69043 817.90204 4293582312
-6.4220185 916.24066 817.4364 4281670144
-4.8165135 915.01324 816.40149 4288439937
0.80275232 915.01324 816.40149 4291216067
3.2110093 915.01324 816.40149 4294967295
22.477064 915.01324 816.40149 4293582312
24.885321 915.62695 816.91895 4293516263
28.096329 916.85437 817.95386 4293582313
-6.4000001 919.44403 816.21326 4281868103
-4.8000002 919.44403 816.21326 4279631910
0.80000001 919.44403 816.21326 4285741568
3.2 919.44403 816.21326 4286927280
24.799999 920.0556 816.729 4293647593
27.200001 920.05566 816.729 4293713642
-6.4000001 921.89044 818.27612 4294305791
-4.788991 923.20215 816.76599 4291937247
0.79816514 923.20215 816.76599 4286851328
23.14679 923.20215 816.76599 4293713130
25.541285 923.20215 816.76599 4293580774
28 921.89044 818.27612 4293515494
-7.183486 925.03271 818.30945 4294633213
-4.7779818 925.73145 816.28247 4293448943
0.79633027 925.73145 816.28247 4286466560
23.10734 926.013 817.17395 4293845741
25.511927 925.68579 817.55206 4293647338
27.93578 925.03278 818.30945 4293646823
30.330275 925.64294 818.82397 4294040810
-6.3559632 929.46985 816.8186 4294567158
0.7944954 929.46985 816.8186 4294966015
3.1779816 929.46985 816.8186 4294634495
23.040367 929.46985 816.8186 4293845482
25.423853 929.46985 816.8186 4293713896
27.807339 929.46985 816.8186 4293713129
30.985321 929.46985 816.8186 4293975790
-7.4103971 931.52301 817.6778 4288905332
-3.9633026 931.98511 816.32336 4290483878
-1.5853211 931.98511 816.32336 4294962912
0.79266053 931.98511 816.32336 4294967295
3.9633026 931.98511 816.32336 4294833407
7.133945 931.98511 816.32336 4292063188
23.040367 930.68463 817.8429 4293976300
26.187157 931.33484 817.08313 4293648105
28.53578 931.98511 816.32336 4293449958
30.913761 931.98511 816.32336 4293909997
34.163303 931.29199 818.35504 4293910254
36.546787 931.89941 818.86719 4294240244
-6.3412843 933.8031 817.85626 4283254568
-3.9587154 934.4505 817.09412 4283648571
-1.5834862 934.4505 817.09412 4284832347
0.79266053 933.80304 817.8562 4286017639
3.9587157 934.4505 817.09412 4290421186
6.8587155 934.86835 817.01044 4291264927
11.07156 935.70392 816.8429 4294911780
23.251375 933.60107 817.68597 4293845227
26.157797 933.8031 817.85626 4293648105
28.469725 935.70392 816.8429 4293713900
30.649542 934.00507 818.02655 4293647852
33.820187 934.00507 818.02655 4293647342
-7.1174312 937.5177 818.37231 4283717744
-3.9541283 936.91315 817.86255 4278452234
-1.5816513 936.91315 817.86255 4279173120
0.52721709 937.31622 818.20239 4282135089
3.9541283 936.91315 817.86255 4285821554
26.888073 937.5177 818.37231 4293779691
28.469725 937.5177 818.37231 4293779693
33.21468 937.5177 818.37231 4293713389
-6.8299694 940.85944 817.26581 4289635252
-3.940367 940.05615 816.5885 4288119694
-1.5761468 940.05615 816.5885 4290222238
1.0507646 940.85944 817.26581 4291802043
3.9403672 940.65869 817.0965 4283716997
6.3045874 940.05615 816.5885 4284305288
-9.4458714 943.70898 818.36041 4284039692
-7.0761471 943.74976 817.08679 4285882704
-4.1932721 942.94824 816.41095 4288383121
-1.5724771 942.54755 816.07312 4292789714
0.78623855 943.74976 817.08679 4293708240
3.9311926 943.74976 817.08679 4292325581
7.0761471 942.54755 816.07312 4283916058
10.221101 942.54755 816.07312 4291332093
29.090824 943.74976 817.08673 4293976043
31.449541 944.9519 818.10034 4294106867
33.022018 944.9519 818.10034 4294106867
-9.4128437 947.43207 817.57556 4287591494
-7.0596328 946.8324 817.06995 4286077986
-4.7064219 946.8324 817.06995 4289301076
0.78440368 946.23267 816.56433 4292525997
4.1834865 946.63251 816.90137 4294430639
7.0596333 946.23267 816.56433 4285814387
10.197248 946.8324 817.06995 4288441464
13.073395 946.63251 816.90137 4289359255
22.747707 946.8324 817.06995 4293582055
26.14679 946.63251 816.90137 4293911020
28.238533 946.8324 817.06995 4293975787
-9.4128437 948.63141 818.58691 4285423908
-7.0596333 948.63141 818.58691 4284106262
-3.6519878 949.50781 816.70972 4289960028
-1.5651376 948.71008 816.03711 4286605383
0.78256881 948.71008 816.03711 4287003455
3.1302752 948.71008 816.03711 4290480215
7.3039756 949.10889 816.37335 4288048783
9.3908253 948.71008 816.03711 4288374394
14.086239 948.71008 816.03711 4288109689
15.651376 948.71008 816.03711 4292387512
22.694496 949.30835 816.54156 4293647338
25.042202 948.71008 816.03711 4293778923
-9.3798161 952.3363 817.78656 4280419109
-7.0348625 952.3363 817.7865 4280680461
21.86055 952.37561 816.51172 4293647592
-12.491743 954.76312 818.52478 4286666058
-9.3688078 954.76312 818.52478 4287914332
-7.0192661 955.39648 817.75079 4288838790
0.77889907 956.02985 816.97681 4284180325
32.71376 956.02985 816.97681 4293844714
35.050461 956.02985 816.97681 4293778669
-6.2311926 957.81628 818.48309 4282465684
-3.8853211 959.07886 816.93158 4282334852
-1.5541284 959.07886 816.93158 4283981208
0.7770642 958.44763 817.70734 4286476980
3.8853211 959.07892 816.93158 4288770711
6.993578 959.07886 816.93158 4285161068
9.8428144 959.27692 817.09857 4285092259
13.210092 959.67297 817.4325 4290612578
15.541285 959.67297 817.4325 4289432851
29.010399 959.27692 817.09857 4293845482
31.859632 959.07886 816.93164 4293712875
35.050461 957.81628 818.48315 4293778411
37.387157 958.41174 818.98523 4293713900
-3.8853211 960.86108 818.43433 4286084265
-1.5541284 960.86108 818.43433 4279840311
1.5541284 960.86108 818.43433 4281483898
3.8853211 960.86108 818.43433 4289832070
6.993578 960.86108 818.43433 4290292428
10.101835 960.86108 818.43433 4286735786
13.210092 960.86108 818.43433 4289825347
16.318348 960.86108 818.43433 4291866727
19.404587 961.4903 817.6568 4293777895
22.534863 960.86108 818.43433 4293779941
25.64312 960.86108 818.43433 4293845736
28.751377 960.86108 818.43433 4293910762
31.859632 960.86108 818.43433 4293778410
-25.302752 749.67847 820.87866 4285600299
37.954128 748.98761 820.29614 4294765818
40.363911 749.21796 820.4903 4294700025
-22.222631 754.24054 820.80127 4284224032
37.838531 754.01099 820.60773 4294897405
40.240978 754.24054 820.80127 4294831611
43.244038 754.69977 821.18848 4294699258
-21.555964 758.33099 820.32617 4282783002
-19.759632 757.64429 819.74719 4283372063
-17.963303 756.95764 819.16821 4284485414
35.327831 757.41534 819.5542 4294765562
37.722935 758.33099 820.32617 4294962943
40.417431 758.33099 820.32617 4294897405
44.010094 758.33099 820.32617 4294765818
-22.421101 760.82898 820.47034 4282387737
-19.699083 761.95374 819.45667 4282585109
34.921101 761.95374 819.45667 4294765052
37.722935 759.70428 821.48401 4294962943
40.417431 759.70428 821.48401 4294831612
43.875229 761.95374 819.45667 4294830844
-28.653212 764.69196 821.7655 4282976803
-26.265442 763.7793 820.99591 4282911524
-22.339451 764.8197 819.25708 4282256668
32.168808 764.8197 819.25708 4294963199
35.21957 763.7793 820.99591 4294831357
37.607338 764.69196 821.7655 4294964223
43.875229 764.69196 821.7655 4294831359
-25.020184 766.86914 820.98517 4282981417
-23.233028 766.86914 820.98517 4282915368
34.551682 767.09686 821.17719 4294897661
-21.379816 769.78912 819.52319 4282719524
32.069725 769.78912 819.52319 4294765051
-28.506422 772.51331 821.82007 4282651462
-25.833946 771.83228 821.24585 4284363341
-23.161469 771.15125 820.67163 4282851364
34.742203 771.83228 821.24585 4294964222
-28.418348 776.09961 820.9198 4282062405
-25.458105 775.64697 820.53815 4284498505
-22.497858 775.19434 820.15656 4283774768
35.522934 776.09961 820.9198 4294964223
37.299084 776.09961 820.9198 4294964223
-21.269724 778.25989 820.12537 4282852908
-24.814678 780.29254 821.83923 4283313973
-22.155964 780.29254 821.83923 4283708985
35.449543 780.29254 821.83923 4294964479
38.108257 780.29254 821.83923 4294964223
-24.737616 783.85919 820.92236 4285551185
-21.203671 783.85919 820.92236 4287330174
37.989906 783.85919 820.92236 4294964479
40.640366 783.85919 820.92236 4294964479
-24.660551 788.7641 821.13403 4278190080
-22.018349 788.7641 821.13403 4281738784
38.752293 788.7641 821.13403 4294963967
40.51376 788.7641 821.13403 4294964735
42.27523 788.7641 821.13403 4294964735
-19.315596 790.96729 819.06763 4288249470
-21.949543 792.98096 820.76544 4281939754
-19.315596 792.30969 820.19946 4285819447
-21.027523 796.45496 821.07861 4284369253
-19.275229 795.78516 820.51385 4282924363
40.302753 795.11536 819.9491 4294965247
42.055046 795.78516 820.51385 4294832638
-19.21468 799.98096 820.12756 4286407027
-17.46789 798.64551 819.00146 4285674831
38.429359 798.64551 819.00146 4294964223
40.758411 799.53583 819.7522 4294897917
-22.708258 801.31641 821.25354 4283518034
-20.06789 802.04382 820.55884 4286208629
38.348625 802.77118 819.86414 4294897663
40.963303 802.77118 819.86414 4294898174
43.57798 802.77118 819.86414 4294963455
-19.174313 804.10382 820.98779 4286932086
38.348625 804.10382 820.98779 4294766335
40.963303 804.10382 820.98779 4294634492
43.57798 804.10382 820.98779 4294897407
-19.113762 808.27429 820.5802 4288308076
38.227524 807.61011 820.02014 4294897918
40.833946 808.93854 821.14026 4294633977
43.440369 808.93854 821.14026 4294831611
-19.053211 812.43225 820.16199 4288965457
37.240368 811.77014 819.6037 4294832125
-19.053211 813.75647 821.27844 4289294669
37.161469 815.19727 819.8772 4294701051
39.838531 813.75647 821.27844 4294569207
37.161469 816.51862 820.99133 4294700793
-18.952293 821.30994 821.10718 4288306225
-17.229359 819.99274 819.99646 4289550889
37.043121 820.65137 820.55182 4294568695
39.627522 821.30994 821.10718 4294502647
-16.619574 823.18036 820.06818 4289221918
34.385323 822.74225 819.69885 4294569207
36.964218 824.05664 820.80701 4294502390
-18.911926 825.37103 821.91528 4288107551
-16.308258 826.44104 820.85547 4289223720
35.988991 827.51111 819.79565 4294568694
37.823853 825.37103 821.91528 4294370549
39.543118 825.37103 821.91528 4294304500
-16.264221 829.5332 820.19257 4289026859
32.491745 830.24512 819.48486 4294238961
35.095413 829.5332 820.19257 4294304500
37.702751 828.82129 820.90027 4294239220
-17.100918 831.55249 820.58728 4288236580
35.341896 831.98828 820.95477 4294304245
37.622017 832.85986 821.68958 4294106607
-16.477676 835.42169 819.9256 4288236569
34.944038 835.63892 820.1087 4294107121
37.500916 836.29047 820.65808 4294041327
-15.887463 838.10199 820.44147 4288367392
34.868805 838.35614 819.78381 4294107119
37.420185 839.00635 820.33203 4293976303
39.205505 837.59363 821.75684 4293976303
-16.133945 841.36414 820.35791 4287906577
35.603668 842.42151 819.28735 4294238959
37.299084 842.42151 819.28735 4293977068
39.971558 840.3067 821.42847 4294108398
-16.106422 844.36572 820.9267 4287774218
37.299084 844.36572 820.9267 4293713898
-16.07156 847.06476 820.58643 4287773190
35.526604 846.41809 820.04114 4294107889
37.218349 847.71143 821.13171 4293976305
-16.862385 851.10272 820.06714 4287247872
35.411011 851.10272 820.06714 4293910255
-16.002752 853.08978 820.43445 4289753171
34.492661 853.78772 819.71484 4293910512
37.097248 852.39185 821.15405 4293777897
-16.825687 855.71729 821.34186 4289489255
37.016514 856.36041 821.88416 4293844203
-16.770641 859.72791 820.79944 4289421661
34.659328 858.87311 820.0788 4293909228
36.895412 859.72791 820.79944 4293975021
-18.447706 861.01001 821.88049 4289219398
-16.188379 861.93304 820.91473 4290141798
30.957798 861.11523 819.35315 4293909224
34.304588 862.39453 820.43188 4294172653
37.672478 862.68811 821.33344 4294173678
-15.011009 865.74664 819.33411 4289415511
-13.34312 865.74664 819.33411 4290328137
30.855965 865.74664 819.33411 4294239474
33.3578 865.74664 819.33411 4294305006
-15.844954 867.6593 820.9469 4288031788
-14.145872 869.6731 820.02869 4288162087
31.655046 868.34741 820.21899 4294174199
34.173393 868.00336 820.58289 4294239473
37.249542 867.87183 821.12616 4294305523
-14.131193 871.63208 820.3725 4286122512
-11.623854 872.31879 819.64343 4288024871
31.550459 872.31879 819.64343 4294174710
34.116516 870.94537 821.10156 4294370545
36.612843 870.94537 821.10156 4294371058
-14.944954 874.22302 821.24908 4284299294
31.550459 873.58832 820.71387 4294635513
34.041283 874.22302 821.24908 4294371316
36.532108 874.85779 821.7843 4294240242
-13.792049 877.75299 820.30133 4286009365
-11.585321 876.90948 819.59009 4282852864
33.100918 876.90948 819.59009 4294306036
36.411011 878.17474 820.65698 4294370808
-16.550459 879.44006 821.72388 4287189798
-14.036697 880.80219 820.25635 4288438041
-10.733945 879.53967 819.19177 4287783936
31.376146 879.53967 819.19177 4294306038
33.85321 879.53967 819.19177 4294305783
37.198166 880.12109 820.99011 4294437367
39.7211 879.44006 821.72388 4294370806
-13.741897 883.39087 820.69501 4289362971
-11.533945 883.42407 819.85095 4291729681
34.601833 883.42407 819.85095 4294700795
37.403057 882.93774 821.18488 4294240501
-13.983486 886.95874 820.86926 4290481465
36.949539 887.97406 819.76331 4294042611
39.544952 885.94342 821.97522 4293911791
-13.944036 889.90503 820.08344 4286005760
32.770641 890.58051 819.34497 4293977334
34.409176 890.58051 819.34497 4293977334
37.196331 890.09839 820.68243 4293976816
39.412846 889.8573 821.3512 4293780202
-14.746789 892.45953 820.92932 4284683520
34.409176 893.08588 821.4574 4293976816
36.047707 892.45953 820.92932 4293977326
-13.623853 895.26447 820.67822 4285137665
-10.899082 894.84784 820.32697 4283891712
32.697247 894.43121 819.97571 4293976816
34.332111 895.68109 821.02954 4293779953
-10.590826 898.94055 819.85376 4290483621
34.216515 898.94055 819.85376 4293779439
-13.568195 901.46124 821.10724 4284563533
-10.846484 901.4917 820.26093 4291207863
35.250153 901.4917 820.26093 4293976816
-13.005505 904.00879 821.51111 4282720000
-11.354129 905.34009 820.01758 4286799151
35.684402 905.34009 820.01758 4293910507
37.390827 904.00879 821.51111 4293976301
-12.976147 906.58014 821.06311 4282913280
35.684402 906.58014 821.06311 4293582060
-12.93211 910.42664 820.38232 4285541416
32.330276 910.42664 820.38232 4293648102
34.755043 910.42664 820.38232 4293713128
-13.461162 913.13141 821.79102 4284753419
-11.289908 913.60052 820.44238 4285541656
29.031193 912.36749 819.40271 4293648105
31.289175 913.84717 820.65027 4293647850
34.755043 912.2804 821.94543 4293844716
-10.191437 916.97101 820.66827 4282716416
-8.0458717 916.15088 819.97668 4282453760
30.574312 917.3811 821.01404 4293713898
-9.6330271 919.92291 820.54126 4291998383
-7.4923549 919.10468 819.85126 4289562248
28.899082 918.6955 819.50623 4293648105
30.504587 919.92291 820.54126 4293581799
-10.419266 922.13196 820.44183 4293052377
-8 923.11365 819.3075 4294829813
31.255047 922.13196 820.44183 4293778666
33.715595 921.15033 821.57617 4293778921
-10.394495 925.27429 820.47522 4293249248
-7.9816513 926.86334 819.85303 4294960895
32 924.33685 820.33887 4293909996
34.400002 925.56006 821.37024 4293909740
37.513763 926.86334 819.85303 4294107887
-9.5779819 928.69397 821.39648 4285418796
35.038532 929.38422 819.36243 4294107889
37.427521 929.38422 819.36243 4293844972
-9.5559635 931.81946 821.41577 4283126047
38.223854 930.60181 820.38916 4293912045
39.816513 930.60181 820.38916 4294109167
-10.328441 935.54382 821.94006 4289175972
-7.9357796 934.36768 819.64032 4280164382
30.913761 935.62109 819.38916 4293779181
34.877064 935.62109 819.38916 4293844462
37.327217 934.54437 820.66132 4293976558
-11.097248 938.04504 821.43298 4289439148
30.913761 937.43909 820.922 4293844973
34.084404 937.43909 820.922 4293975532
-10.280734 939.9361 820.41138 4285101419
31.633028 940.54071 820.92114 4294041327
34.269115 940.13763 820.5813 4293910252
34.675228 943.67108 819.6366 4293977068
-12.579817 947.35626 820.12769 4286209037
-11.007339 946.75519 819.62085 4289559614
29.877064 946.15411 819.11401 4294238961
31.449541 946.15411 819.11401 4294172912
33.808258 946.75519 819.62085 4293910765
-13.351376 949.19458 820.36975 4278190080
-10.981651 949.83081 819.59814 4279640340
31.449541 948.55841 821.14136 4293845485
33.022018 948.55841 821.14136 4293976814
-15.688073 951.62982 821.11505 4282728516
-13.564527 952.69855 819.40015 4282990906
-10.955963 952.89807 819.5683 4286341196
37.563301 953.49634 820.07275 4293778410
-16.415596 955.32483 820.30652 4280487431
-13.272477 955.95685 819.53137 4282200856
-10.149542 955.95685 819.53137 4285621570
-7.8073397 955.95685 819.53137 4286211908
37.475231 955.95685 819.53137 4293778923
40.693577 954.69287 821.08167 4293778410
42.258717 954.69287 821.08167 4293778410
-15.614679 957.7475 821.04114 4282521438
-13.272477 957.74744 821.04114 4279042080
-10.149542 957.7475 821.04114 4278321153
-7.2819571 958.36591 820.69061 4286080132
0 959.60272 819.98938 4281483898
35.050461 959.60272 819.98938 4293843949
37.387157 959.60272 819.98938 4293845233
39.036697 957.7475 821.04114 4293647852
-3.8944955 961.38916 821.49561 4293320952
-1.5541284 962.04926 819.43616 4283126379
0.77889907 961.38916 821.49561 4284834684
3.8899083 962.01691 820.71692 4279566484
7.0018349 962.01697 820.71692 4282592130
10.120184 961.70306 821.1062 4289895066
13.233945 961.70306 821.1062 4289956787
16.337616 962.01697 820.71692 4292192910
19.449541 962.01697 820.71692 4293843172
22.561468 962.01697 820.71692 4293187037
25.673393 962.01697 820.71692 4293253090
28.785322 962.01697 820.71692 4293515237
31.67523 961.19067 821.32831 4293580262
35.050461 960.79364 820.99353 4293843433
37.387157 960.79364 820.99353 4293779693
-1.5541284 963.83142 820.9389 4291477479
-23.495413 751.06018 822.0437 4284748581
41.568806 751.06018 822.0437 4294765818
43.376148 751.06018 822.0437 4294436342
-27.110092 753.82361 824.37378 4283501860
-25.302752 753.82361 824.37378 4282978848
-25.225689 757.45483 823.51147 4282782500
-23.423853 756.07733 822.34998 4282847262
37.722935 761.07764 822.64197 4294962943
40.417431 761.07764 822.64197 4294963455
44.010094 761.07764 822.64197 4294831359
40.417431 763.13757 824.37891 4294832381
43.111927 763.82422 824.95789 4294830844
-28.653212 766.06104 822.9198 4285155925
-26.862385 766.06104 822.9198 4283050806
37.607338 766.06104 822.9198 4294897916
39.398167 767.43018 824.07422 4294766589
-28.594496 768.91858 822.71313 4284959305
-26.807339 768.91858 822.71313 4283248430
35.743118 768.91858 822.71313 4294964220
37.530273 769.60175 823.28918 4294963963
-28.418348 778.13647 822.63721 4280486970
-26.050154 777.91016 822.44635 4281934914
-23.089909 777.45752 822.0647 4281541410
37.299084 777.45752 822.0647 4294964479
-28.418348 780.17322 824.35461 4283121739
-26.642202 780.17322 824.35461 4283055946
-23.042202 781.64758 822.98169 4287591024
-28.359632 783.00269 824.12427 4282662725
-25.662386 784.10638 823.09283 4283384884
-22.087156 785.21008 822.0614 4287067495
38.873394 785.21008 822.0614 4294963967
40.640366 785.21008 822.0614 4294964223
42.407341 785.21008 822.0614 4294964735
-26.504587 787.9118 824.33948 4280884038
-28.183487 790.11072 822.26953 4281541969
-25.247705 791.00848 823.02643 4282860871
-24.660551 792.80408 824.54041 4284504940
-22.827522 794.99463 822.46338 4284110183
-28.973394 797.6795 824.72717 4281937704
-25.461468 796.33704 823.59521 4282530363
-21.903669 797.79462 822.20813 4284238932
-25.116209 799.58081 823.71417 4282728255
-22.708258 803.31958 822.9425 4284897115
-20.961468 803.31958 822.9425 4286601066
-24.455046 805.32269 824.63159 4286991694
-22.660551 806.76904 823.23499 4287254866
-20.917431 806.76904 823.23499 4287648593
40.963303 805.4364 822.11133 4294634746
43.57798 805.4364 822.11133 4294963198
-25.27523 808.10168 824.35864 4286990154
-22.660551 808.10168 824.35864 4286925899
-20.917431 808.10168 824.35864 4288241477
-22.588991 812.25964 823.94043 4288374600
-20.851376 812.25964 823.94043 4288965951
41.123547 810.70978 822.63361 4294568185
43.440369 811.5954 823.38037 4294700026
-19.053211 815.08069 822.39502 4289031733
40.704586 815.08069 822.39502 4294831865
-24.249542 817.72913 824.62805 4288178744
-22.517431 817.72913 824.62805 4287652399
-19.053211 816.40491 823.5116 4288372263
40.662384 817.12244 822.80853 4294568182
43.302753 816.40491 823.5116 4294699258
-22.469725 820.48285 824.33386 4287387693
-20.741285 819.16144 823.21973 4288372275
41.482571 819.16144 823.21973 4294699006
44.07523 819.16144 823.21973 4294568188
-20.10092 823.06622 822.58795 4287910431
40.77615 823.06622 822.58795 4294370294
43.647705 823.06622 822.58795 4294370808
-22.398165 825.26154 824.43909 4287254308
-20.072783 826.64893 823.86481 4287778330
40.689297 827.12354 823.39301 4294107891
43.585323 827.0871 824.23419 4294305525
-18.851376 830.13147 822.005 4287712541
37.702751 830.13147 822.005 4294304754
39.416515 830.13147 822.005 4294238961
-19.708256 832.09674 823.66211 4287186446
40.273396 831.44165 823.10974 4294106865
44.557796 832.75183 824.21448 4294042611
-19.381041 835.47461 823.89423 4286856455
40.472172 834.60303 823.15936 4293975792
42.752293 834.82092 823.34308 4294173428
-18.750458 838.89679 822.85571 4286659338
42.614677 838.89679 822.85571 4294239472
-18.730274 841.55371 823.7879 4286592512
-17.009174 841.60706 822.5249 4287445508
39.971558 842.25726 823.07312 4293713387
42.614677 840.19995 823.95447 4293976818
-18.710093 844.20776 824.71777 4286526208
40.822018 844.20776 824.71777 4293844462
-18.649542 847.60608 823.65894 4286268681
38.994495 846.30994 822.56604 4293844462
40.689907 848.25415 824.20538 4293975793
-18.609175 850.2981 823.31274 4287851098
38.487156 849.97479 823.0401 4293975534
-18.548624 854.32556 822.78455 4288702302
37.940369 854.32556 822.78455 4294041069
-21.921101 856.25928 824.41492 4287246138
-19.371559 856.953 823.69183 4287839040
38.699081 857.64673 822.96875 4294238194
-20.190826 858.93311 824.05334 4286916643
-18.447706 862.93323 823.50208 4288759883
-18.407339 866.23254 823.66797 4285873703
-16.733946 864.95325 822.58923 4289212736
38.488075 864.95325 822.58923 4294042863
40.719265 865.80615 823.30841 4294305520
43.508255 866.23254 823.66797 4294437619
-18.407339 867.5119 824.7467 4281668619
-16.6789 869.57196 822.55957 4283498496
38.361469 869.57196 822.55957 4294371058
40.93211 868.54193 823.65314 4294371829
43.508255 867.5119 824.7467 4294503412
-18.346788 871.48462 824.1723 4284696376
-16.642202 872.21771 822.17432 4283768323
34.948624 872.21771 822.17432 4294305265
37.778595 871.729 823.50635 4294174448
40.029358 871.48462 824.1723 4294174449
-18.306421 874.76233 824.31982 4285288728
-16.642202 873.48999 823.24707 4286080331
40.773392 874.76233 824.31982 4294239990
-18.266054 878.03156 824.46039 4284960020
-16.605505 876.12732 822.85474 4286930496
38.192661 876.12732 822.85474 4294239222
-16.550459 880.70538 822.79077 4286861600
40.548622 880.70538 822.79077 4294108915
-18.205505 883.23596 824.92444 4284235264
-16.513762 883.95837 822.9176 4286466323
-14.862386 883.32715 822.38538 4290676561
40.733944 883.74799 822.74023 4293912305
42.93578 884.58966 823.44983 4293911793
-16.477064 887.20312 823.03735 4285873408
41.192661 887.20312 823.03735 4293977838
43.664223 887.20312 823.03735 4293977070
-16.477064 888.46283 824.09949 4284620288
41.192661 888.46283 824.09949 4294108654
-18.06422 892.99597 823.99768 4284167515
-16.422018 892.36823 823.46838 4283957248
37.770641 891.74048 822.93909 4293912045
40.233948 892.99597 823.99768 4293778923
45.981651 892.99597 823.99768 4293844716
-18.843121 896.84387 824.6261 4287195773
-16.385321 895.59119 823.56982 4285878341
-13.89633 896.93091 822.08337 4287917425
35.966972 896.93091 822.08337 4293582312
37.276604 895.27808 823.30579 4293911277
46.425079 896.42627 824.27399 4293910508
-19.618349 899.43066 824.19104 4280877335
-16.893578 899.01398 823.83978 4282523684
-14.713761 898.18079 823.13721 4287196516
37.601833 899.43066 824.19104 4294108143
46.593578 899.43066 824.19104 4293845484
-16.293577 902.67749 823.00464 4281992457
-14.66422 902.67749 823.00464 4281466881
-17.108257 903.92316 824.05493 4284296475
-14.631192 905.25165 822.55908 4283177997
37.390827 905.25165 822.55908 4293779439
39.104588 903.92316 824.05493 4293778669
-16.798777 907.323 824.30566 4284688915
-14.598166 907.82019 822.10876 4284492050
37.306423 907.82019 822.10876 4294304500
39.016514 907.7373 824.65491 4293647340
-17.031193 910.30029 824.19983 4283507203
-14.598166 909.06024 823.1543 4285739801
37.306423 909.6803 823.67706 4293844203
-16.973394 914.13416 823.50842 4285881446
-14.548624 914.13416 823.50842 4283314253
35.024464 913.92822 823.33478 4293844203
-13.709174 916.68311 823.04156 4287058757
32.256882 916.06659 822.52173 4293647851
34.676147 916.68311 823.04156 4293778923
-16.934864 918.53265 824.60107 4286142008
-13.420795 918.99518 823.24701 4291340702
-11.26422 918.61133 822.05127 4290686391
32.183487 918.61133 822.05127 4293647851
34.597248 919.22644 822.56995 4293778923
-13.390214 922.35156 823.46094 4291668908
34.518349 922.37781 822.61108 4293844203
36.926605 922.37781 822.61108 4294304754
-12.844037 924.83264 824.68091 4281925634
-11.2 926.78326 822.40161 4284950575
-12.8 929.22974 824.46436 4286145613
-11.2 928.00653 823.43298 4280221696
-12.770642 931.745 823.96912 4286868832
-11.174312 930.5246 822.94006 4285685062
39.908257 931.745 823.96906 4294041836
-12.741284 934.25464 823.46912 4287593850
-10.352293 933.03705 822.44238 4285687146
40.347401 933.84882 823.12677 4293976813
-12.711926 936.75861 822.96436 4287070600
37.606117 937.16357 823.30585 4293647594
-12.682569 939.25708 822.45483 4278193664
37.096516 940.71155 823.68127 4293845228
45.974312 941.07507 823.98779 4293648105
47.449543 944.16821 823.97986 4293844716
46.576149 946.33173 823.84198 4293713899
36.953209 949.76062 822.15491 4293844463
40.191742 949.69598 824.71655 4293778154
46.49633 949.09351 824.20862 4293647594
48.746788 949.76062 822.15491 4293976818
39.220184 953.42889 822.63196 4293647338
-18.825687 955.82764 824.65454 4287326330
-17.216515 955.88947 822.09058 4283771194
40.693577 955.88947 822.09058 4293910248
43.041283 955.88947 822.09058 4293909994
-16.694801 957.88373 823.77216 4291143865
-13.272477 959.53815 822.55103 4290817727
-10.149542 959.53815 822.55103 4291736757
-7.0266056 959.53815 822.55103 4294965748
40.141281 958.30225 823.25293 4293516518
43.041283 957.68427 823.604 4293911789
45.388992 957.086 823.09949 4294109167
-10.149542 960.73187 823.5575 4292988889
-7.0266056 961.3288 824.06079 4294634491
1.5614679 961.92566 824.56409 4294967295
4.6844039 961.92566 824.56409 4294967295
7.0266056 961.92566 824.56409 4289117390
9.3688078 961.92566 824.56409 4278190161
13.272477 961.92566 824.56409 4291070860
17.176147 961.92566 824.56409 4293046363
20.299082 961.92566 824.56409 4293581810
22.641285 961.92566 824.56409 4293580514
25.764221 961.92566 824.56409 4293317857
28.887157 961.92566 824.56409 4293450213
32.010094 961.32874 824.06079 4293514984
35.393272 961.12982 823.89307 4293514981
37.475231 960.73187 823.5575 4293647592
39.036697 960.73187 823.5575 4293844714
-3.8944955 963.17554 823.00183 4294965759
0 963.17554 823.00183 4294967295
3.1155963 963.17554 823.00183 4294967295
-25.379816 750.18402 825.22913 4283766819
41.315598 765.19751 826.11584 4294963711
43.111927 765.88416 826.69482 4294963710
40.293579 769.48376 825.80585 4294898428
-28.359632 784.35773 825.26685 4280163372
-26.587156 784.35773 825.26685 4279308064
-30.038532 789.93811 826.04797 4284635489
-28.271559 789.93811 826.04797 4284767330
-26.504587 790.61353 826.61743 4284964706
-29.06422 794.1507 825.6759 4281673512
-29.06422 796.84399 827.94678 4284110418
-26.339449 799.02197 825.85913 4283782737
-25.700304 802.26007 825.97333 4286337110
-25.27523 809.43433 825.4823 4287515964
-25.56575 811.21118 826.98047 4287977276
-24.326605 814.25226 825.62061 4288507466
-22.588991 814.25226 825.62061 4287849792
-20.851376 814.25226 825.62061 4288503593
-22.469725 821.80426 825.448 4287584558
-24.198166 823.12567 826.56226 4287320357
-24.695414 827.45685 826.29004 4286596644
-22.398165 827.2373 826.10498 4287187493
-24.982569 829.21313 827.77087 4286267945
-22.350458 830.6286 826.34839 4286990379
-20.631193 829.31421 825.24011 4287318290
43.841286 829.31421 825.24011 4294107890
-22.350458 831.94299 827.45667 4286397719
-22.278898 836.68237 827.52856 4286265879
-20.565138 834.06201 825.31921 4286854656
44.557796 834.7171 825.87158 4294108147
-20.521101 838.08942 826.099 4286788864
44.462387 838.7431 826.65015 4293844973
-20.455046 842.15479 825.60266 4286592512
43.182873 842.37189 825.78583 4294042097
-20.411009 845.50818 825.81421 4286466061
43.373394 845.50818 825.81421 4293910257
46.023853 844.1095 827.25085 4294172914
-20.411009 846.80853 826.91064 4288114527
43.373394 846.80853 826.91064 4293844203
-23.735781 851.49457 826.93762 4287449424
-20.344954 850.19843 825.84473 4289231986
40.689907 850.19843 825.84473 4293976301
42.385323 851.49457 826.93762 4293976301
-22.838531 853.53149 826.03906 4286920255
-20.300917 852.88483 825.49377 4288304461
40.601833 853.53149 826.03906 4294042350
42.293579 854.17816 826.58435 4294239472
-25.293577 857.54846 825.50195 4287178287
-22.764221 857.54846 825.50195 4286981159
40.469727 857.54846 825.50195 4293976816
42.293579 855.47156 827.6748 4293976816
-25.837311 859.72797 826.46759 4284882469
-23.029358 859.72784 826.46759 4285735730
-20.190826 860.21942 825.13794 4287245878
40.381653 860.21942 825.13794 4294042350
42.999084 859.48218 827.13239 4294108144
45.528439 860.12671 827.6759 4294239474
-21.873394 862.14893 826.76483 4285937715
-20.190826 862.14893 826.76483 4286988084
42.06422 861.50574 826.22253 4294238959
-20.124771 866.13855 826.20471 4282458135
-21.801834 867.42065 827.28577 4283442970
-20.080734 868.7912 825.82532 4283511340
41.834862 868.7912 825.82532 4294306290
43.508255 868.7912 825.82532 4294306803
-21.754128 871.34985 827.98279 4286074880
-20.080734 870.07056 826.90405 4286670672
41.834862 870.07056 826.90405 4294174451
43.508255 870.71021 827.44342 4293977073
-21.68257 875.94757 827.9353 4286472194
-20.014679 874.67242 826.86017 4285551900
-19.970642 878.57922 827.53821 4285156096
41.605503 876.03461 825.39258 4294305013
-18.266054 879.93579 826.06592 4284169216
-18.205505 884.50122 825.99133 4285941515
-18.990826 887.11462 825.57886 4284696576
43.761467 887.11462 825.57886 4293845482
46.238533 887.11462 825.57886 4293844462
-24.770641 889.63965 827.70789 4286133805
-22.293579 889.00842 827.1756 4284233255
-19.223242 890.14233 825.51562 4284761425
40.368805 889.72247 825.16162 4293582310
43.712845 889.67963 826.43347 4293647849
46.238533 888.37714 826.64331 4293713900
-21.420183 892.24188 827.28589 4289300613
42.840366 892.24188 827.28589 4293779691
-24.633028 896.76239 827.17346 4280358685
-21.348623 895.5069 826.11487 4287395706
-18.885323 894.25146 825.05627 4288182673
40.233948 894.87915 825.58557 4293976305
43.518349 895.5069 826.11487 4293779692
-21.847094 898.51416 826.03436 4280224261
40.417126 898.51416 826.03436 4293910256
43.14801 898.51416 826.03436 4293779946
-21.300917 900.60187 827.79468 4283376393
-19.618349 901.30548 825.77191 4282782215
-17.983486 900.68054 825.245 4282124034
40.054131 901.30548 825.77191 4293844463
43.596329 901.51385 825.94757 4293779691
46.593582 901.30548 825.77191 4293911532
-21.25321 903.1803 827.35266 4283507985
-19.618349 903.1803 827.35266 4283903002
-17.922935 905.16882 825.10522 4284626982
39.988075 904.17456 826.22894 4293844462
43.323853 903.1803 827.35266 4293977072
46.593578 903.1803 827.35266 4294239470
-21.181652 907.66016 827.20593 4283311413
-19.530275 907.69733 825.9292 4283507467
40.130886 908.12494 825.85376 4293910250
43.177986 907.03735 826.68073 4293779178
45.622017 907.66016 827.20593 4294041323
-21.133945 911.46588 827.79883 4288711552
-19.46422 911.54034 825.24548 4287066993
37.306423 911.54034 825.24548 4293909996
39.829357 910.22302 826.75085 4294041577
43.080734 911.46588 827.79883 4293910255
-21.086239 914.02045 827.33655 4288580246
-19.46422 912.7804 826.29102 4288646524
38.117432 912.7804 826.29102 4293844203
40.550457 913.40039 826.81378 4293975787
-21.014679 917.22375 826.11353 4288777359
-19.398165 916.60583 825.59247 4288842644
-16.973394 915.98792 825.07141 4286077278
37.179817 916.60583 825.59247 4294041582
-21.014679 918.45959 827.15552 4286009178
-19.376146 919.72913 826.91797 4286602081
-17.203672 920.1767 825.9873 4287391583
-19.354128 922.23175 827.72009 4280549376
-16.641592 922.68866 826.36127 4283116069
-14.482569 922.91711 825.68182 4286009673
-16.091743 924.76245 827.23779 4280287232
-13.663303 925.41125 826.47681 4280680448
-14.449541 927.28748 826.75073 4285949265
41.743118 927.28748 826.75073 4294042863
43.348625 927.90118 827.26825 4294306034
-16 930.45294 825.49573 4287262291
-14.4 931.06458 826.01141 4288183920
41.599998 931.67615 826.5271 4293910248
44 931.67615 826.5271 4293844201
41.504585 934.18579 826.0271 4293647590
43.633026 934.59259 826.37012 4293713385
40.612846 936.68982 825.52234 4293582312
43.798164 937.29865 826.03571 4293647850
46.187157 936.68982 825.52234 4293582058
40.519268 940.40302 826.03711 4293647850
43.995106 939.57208 826.20868 4293648105
36.990826 943.29706 825.86133 4293845231
44.388992 943.49902 826.03162 4293845482
45.974312 942.89301 825.52063 4293714150
40.379814 945.95178 826.79169 4293910767
44.28624 947.19116 826.52869 4293910765
-19.453211 958.22638 826.67706 4290814882
-16.433945 959.47913 825.11731 4291934911
-13.30367 959.47913 825.11731 4291804872
40.693577 959.47913 825.11731 4293516263
43.041283 959.47913 825.11731 4293911789
46.225689 958.25305 825.39148 4293648618
-16.433945 961.27393 826.63062 4291539390
-13.30367 961.27393 826.63062 4291935176
-10.173394 961.27399 826.63062 4292527829
-7.0431194 961.87225 827.13501 4294042095
-4.6954126 961.87225 827.13501 4294965503
0.78256881 961.87225 827.13501 4294967295
3.9128439 961.87225 827.13501 4294967295
7.0431194 961.87225 827.13501 4293454056
10.955963 960.67566 826.12622 4282403494
15.651376 960.67566 826.12622 4287388165
18.781651 960.67566 826.12622 4292068315
22.694496 961.87225 827.13501 4293646306
25.824772 961.87225 827.13501 4293448673
28.955048 961.87225 827.13501 4293515749
32.346176 961.47339 826.79877 4293186276
34.954742 961.47339 826.79877 4293317601
37.563301 961.27393 826.63062 4293383652
39.911011 961.27399 826.63062 4293515493
43.041283 961.27393 826.63062 4293713127
46.171562 960.67566 826.12622 4293581284
-3.1229358 963.11938 825.57056 4294966015
-1.5614679 963.11938 825.57056 4294967295
-29.06422 798.19067 829.08228 4286338391
-28.680735 802.1543 828.50024 4286990154
-27.566973 830.53033 828.88159 4286334250
-24.982569 830.53033 828.88159 4286069788
-27.566973 831.84753 829.99219 4286531116
-24.956881 832.55249 829.27856 4286332450
-22.350458 833.25739 828.56494 4286397213
-24.642813 835.44806 830.41193 4286398495
-22.278898 837.99255 828.6333 4286134811
46.271561 837.99255 828.6333 4294174449
-22.231194 841.35785 828.85486 4285875220
-23.050459 844.36578 829.42908 4288249454
46.172478 843.31891 830.50842 4294173166
-22.988073 847.41235 828.72778 4289429119
43.373394 848.10889 828.00708 4293844713
46.023853 848.01898 830.54724 4293845739
44.223854 849.40924 829.10339 4293977068
44.080734 853.43884 828.57697 4293779435
43.985321 856.76489 828.76538 4294042609
45.677063 856.76489 828.76538 4294108402
-27.913761 858.70483 830.40112 4283307554
-28.666056 863.99414 830.93677 4282524672
-26.136696 862.70508 829.84985 4284037151
-23.60734 861.41589 828.76282 4283703059
-25.238533 866.00793 830.01862 4284632602
-23.135321 865.04315 829.2052 4283181322
-22.640366 869.34387 828.90735 4286140424
-22.616512 871.94812 829.79517 4286929687
-25.018349 878.4978 830.08557 4282977817
-22.516514 877.86023 829.54803 4283508498
-22.189604 880.69971 829.32617 4284554266
-19.970642 879.85156 828.61096 4285156104
-22.417431 883.74432 829.27722 4283374082
-19.926605 882.47485 828.20679 4286336017
-23.170643 887.03186 828.12512 4281798144
-24.770641 890.9021 828.77234 4288969080
-22.317432 889.59961 828.98212 4287721326
44.587154 890.9021 828.77234 4293779691
47.889908 890.9021 828.77234 4293910507
-24.715597 893.50153 828.34802 4287723905
-23.06789 893.50153 828.34802 4287461499
-24.633028 898.64563 828.76135 4281012510
-22.990826 898.64563 828.76135 4281734916
-24.633028 900.52881 830.34924 4281801517
-22.939449 901.85455 828.85095 4283113228
-22.360245 904.40576 829.258 4283178004
46.593578 904.43011 828.40649 4294041580
-24.522936 906.92987 830.51416 4287922565
-21.99633 908.90576 828.25623 4287790711
43.177982 908.90576 828.25623 4293975789
45.622017 908.90576 828.25623 4294173166
-24.440367 911.39709 830.35681 4286999401
-22.811008 910.15143 829.30652 4288119415
-24.385321 913.9516 829.89465 4286079035
-22.759632 912.70874 828.84668 4287132799
39.016514 912.70874 828.84668 4293844455
43.080734 913.3302 829.37061 4293977323
-24.385321 915.19446 830.94263 4280550144
-22.708258 916.50049 829.42773 4284367164
38.92844 915.88049 828.90497 4294108393
40.550457 916.50049 829.42773 4294108394
43.032112 916.46753 830.70795 4294239730
-21.014679 920.31335 828.71857 4282066196
40.412846 920.93127 829.23962 4293845485
-21.014679 922.16711 830.28162 4279304192
-19.354128 923.46478 828.75977 4279959552
-17.741285 923.46478 828.75977 4279566336
-20.160549 925.31433 830.31915 4283647279
-16.916515 925.34521 829.03717 4283910958
-19.310091 927.2229 829.31238 4285814570
-17.700918 927.2229 829.31238 4285814570
43.001835 940.95142 829.11566 4293845484
38.13578 942.83258 828.08569 4293779693
40.519264 942.83258 828.08569 4293779692
42.902752 944.04742 829.10999 4294174449
42.902752 945.26221 830.13428 4293844203
-22.066055 956.92584 830.81262 4290615967
-20.442202 956.97363 828.23682 4290486164
-20.442202 959.37799 830.26404 4291734466
47.174313 959.37799 830.26404 4293646820
-18.825687 960.62506 828.69958 4291407296
-16.472477 961.82446 829.71094 4293185245
-13.334863 961.82446 829.71094 4293119195
0 961.82446 829.71094 4294963967
3.9220183 961.82446 829.71094 4294967295
7.0596333 961.82446 829.71094 4294967295
9.9357796 961.02484 829.03668 4287391716
13.334863 960.62506 828.69958 4289240948
16.472477 960.62506 828.69958 4287599511
19.871559 961.02484 829.03668 4293251559
22.747707 961.82446 829.71094 4293908711
25.885323 961.82446 829.71094 4293646306
29.022936 961.82446 829.71094 4293515749
32.160549 961.82446 829.71094 4293318120
34.51376 961.82446 829.71094 4293055199
36.866974 961.82446 829.71094 4293318371
40.004585 961.82446 829.71094 4293318114
43.142204 961.82446 829.71094 4293515237
46.018353 961.42462 829.37384 4293383650
49.155964 961.42462 829.37384 4293449184
-15.688073 963.0238 830.72217 4292987872
-13.334863 963.0238 830.72217 4292922076
-10.185321 963.04626 829.43304 4292461524
-7.0513763 963.04626 829.43304 4292395736
-3.9128439 963.06879 828.14392 4293710826
-1.5651376 963.06879 828.14392 4294631668
26.669725 963.0238 830.72217 4293647590
29.022936 963.0238 830.72217 4293582310
32.160549 963.0238 830.72217 4293581549
34.51376 963.0238 830.72217 4293449956
36.866974 963.0238 830.72217 4293449957
40.004585 963.0238 830.72217 4293317860
43.142204 963.0238 830.72217 4293514983
45.495415 963.0238 830.72217 4293317859
51.770641 963.0238 830.72217 4293252064
-28.42844 833.16467 831.10278 4286466599
-25.844036 833.16467 831.10278 4286201632
-31.012844 835.1405 832.76874 4287059764
-28.42844 835.1405 832.7688 4286467111
-27.508257 838.51495 832.99792 4287060510
-24.929356 837.85773 832.44385 4286796576
47.078899 843.92981 832.33142 4293976300
46.023853 849.32214 831.64612 4293713898
45.92477 852.01001 831.29626 4293844716
