# .PCD v0.7 - Point Cloud Data file format
VERSION 0.7
FIELDS x y z rgb
SIZE 4 4 4 4
TYPE F F F U
COUNT 1 1 1 1
WIDTH 1160
HEIGHT 1
VIEWPOINT 0 0 0 1 0 0 0
POINTS 1160
DATA ascii
2.4238532 790.48914 1294.7874 4292600575
4.8477063 790.48914 1294.7874 4292076287
7.2715597 790.48914 1294.7874 4292273407
19.390825 790.48914 1294.7874 4291812095
-31.390825 796.8432 1293.6047 4292328191
-28.976147 796.8432 1293.6047 4291543807
1.2073394 796.8432 1293.6047 4292534271
4.8293576 796.8432 1293.6047 4292337919
-31.390825 798.68921 1295.1613 4292522726
-28.976147 798.68921 1295.1613 4292391667
1.2073394 798.68921 1295.1613 4292337407
4.8293576 798.68921 1295.1613 4292403455
-33.677063 806.84717 1295.4998 4290342315
-31.271559 805.92767 1294.7244 4290538923
-28.866055 805.92767 1294.7244 4290537400
-26.46055 805.00818 1293.9491 4290668223
0.80183488 806.23419 1294.9828 4292075519
21.649542 805.92767 1294.7244 4291943935
-34.746788 814.04712 1295.0303 4289745815
-31.152294 814.04712 1295.0303 4290600095
-28.755962 813.1311 1294.2579 4291062440
-26.359632 813.1311 1294.2579 4291588784
-22.765137 813.1311 1294.2579 4292050896
1.5975536 813.74176 1294.7728 4292272639
4.7926607 814.96313 1295.8027 4292140543
21.566973 814.96313 1295.8027 4292797951
-33.420185 821.21198 1294.5314 4290407095
-31.033028 821.21198 1294.5314 4290077873
-28.645872 821.21198 1294.5314 4290535077
-26.258715 821.21198 1294.5314 4290929834
2.387156 821.21198 1294.5314 4292075263
4.774312 821.21198 1294.5314 4292141055
7.161468 821.21198 1294.5314 4292601599
-28.557798 826.91858 1294.111 4290733738
-26.177982 826.91858 1294.111 4290931118
-23.798164 826.91858 1294.111 4291060658
1.1899083 826.91858 1294.111 4291746815
-28.557798 828.73798 1295.645 4290733738
1.1899083 828.73798 1295.645 4291286271
4.7596331 828.73798 1295.645 4291746559
-33.188992 836.73889 1295.851 4289749401
-30.818348 835.8327 1295.0869 4290276009
-28.447706 835.8327 1295.0869 4290470568
-2.3706422 835.8327 1295.0869 4292137727
-30.699083 842.89233 1294.4993 4289549465
-7.0844035 842.89233 1294.4993 4292456175
-4.7229357 842.89233 1294.4993 4291217663
-2.3614678 842.89233 1294.4993 4292007167
-32.93211 849.91693 1293.8821 4289550990
-22.34679 849.91693 1293.8821 4291128490
-7.056881 849.01776 1293.1239 4292454632
-4.704587 849.01776 1293.1239 4291414271
-2.3522935 849.91693 1293.8821 4291809023
-31.632111 856.90637 1293.2354 4289683604
-28.117432 856.90637 1293.2354 4290273958
-25.774311 856.90637 1293.2354 4290997680
-22.259632 856.90637 1293.2354 4291260837
-18.744955 856.90637 1293.2354 4291721152
-35.14679 858.69775 1294.7457 4288892034
-32.803669 858.69775 1294.7457 4289418881
-28.117432 858.69775 1294.7457 4290271909
0 858.69775 1294.7457 4291417087
-37.372478 866.04419 1295.708 4288034918
-35.036697 865.15137 1294.9551 4288562288
-31.922323 864.8537 1294.7042 4289283708
-28.029358 865.15137 1294.9551 4290005658
-25.693579 864.25848 1294.2023 4291783617
-22.189907 864.25848 1294.2023 4291720861
-18.686239 864.25848 1294.2023 4291721404
-16.350458 864.25848 1294.2023 4291655611
1.16789 866.04419 1295.708 4290890751
-30.245872 872.06714 1294.2462 4289154682
-27.919266 872.06714 1294.2462 4289937536
-25.592661 872.06714 1294.2462 4289740157
-23.266054 872.06714 1294.2462 4290395772
-20.939449 872.06714 1294.2462 4290922116
-4.6532111 872.06714 1294.2462 4291281913
-2.3266056 872.06714 1294.2462 4291742463
-31.409174 873.84589 1295.746 4289486463
-27.919266 873.84589 1295.746 4289942163
-25.592661 873.84589 1295.746 4289744783
-13.959633 873.84589 1295.746 4290005643
-10.469725 873.84589 1295.746 4290933164
-6.9798164 873.84589 1295.746 4292519128
-4.6532111 873.84589 1295.746 4291216372
-27.809174 880.71967 1295.0016 4289615526
-25.491743 879.8338 1294.2546 4290273969
-23.174313 879.8338 1294.2546 4290733464
-6.9522934 881.60553 1295.7485 4291076841
-4.6348624 881.60553 1295.7485 4290491114
-2.3174312 881.60553 1295.7485 4291609594
-27.721102 886.19348 1294.3848 4289221791
-25.411009 886.19348 1294.3848 4290603444
-23.100918 886.19348 1294.3848 4290603669
-6.9302754 887.07654 1295.1294 4291543286
-4.6201835 886.19348 1294.3848 4291085296
-2.3100917 886.19348 1294.3848 4291414260
-25.310091 893.00409 1293.5872 4289612169
-23.009174 893.00409 1293.5872 4290007688
-19.557798 893.00409 1293.5872 4288630655
-16.106422 893.00409 1293.5872 4291793595
-13.805505 893.00409 1293.5872 4291017639
-10.354128 893.00409 1293.5872 4288583562
-6.9027524 893.00409 1293.5872 4289899941
-4.6018348 893.00409 1293.5872 4289509099
-2.3009174 893.00409 1293.5872 4290758910
-25.310091 894.76312 1295.0704 4289546107
-23.009174 894.76312 1295.0704 4289481586
-19.557798 894.76312 1295.0704 4288958329
-16.106422 894.76312 1295.0704 4291987894
-9.2036695 894.76312 1295.0704 4289374347
-4.6018348 894.76312 1295.0704 4289245660
-2.3009174 894.76312 1295.0704 4290890484
-25.209175 901.53168 1294.2374 4288954743
-22.917431 901.53168 1294.2374 4289216636
-19.479816 901.53174 1294.2374 4289546880
-16.042202 901.53168 1294.2374 4289943172
-13.750459 900.65564 1293.4988 4289560447
-9.9308863 901.23969 1293.9912 4289959817
-6.8752294 901.53168 1294.2374 4291080861
-4.5834861 901.53168 1294.2374 4290232029
-2.291743 901.53168 1294.2374 4290889702
-25.128441 907.79456 1294.2859 4288956022
-22.844036 907.79456 1294.2859 4289084793
-20.559633 907.79456 1294.2859 4289676930
-9.1376143 907.79456 1294.2859 4290492383
-6.8532109 907.79456 1294.2859 4289439439
-4.5688071 907.79456 1294.2859 4288130247
-2.2844036 907.79456 1294.2859 4290235366
-28.555046 909.54102 1295.7584 4288363893
-25.128441 909.54102 1295.7584 4289217406
-9.1376143 909.54102 1295.7584 4289900543
-4.5688071 909.54102 1295.7584 4288128702
-2.2844036 909.54102 1295.7584 4290694373
-28.061163 916.52582 1295.1078 4287906679
-9.1009178 915.36621 1294.13 4285230797
-6.8256879 915.36621 1294.13 4288388860
-4.5504589 915.36621 1294.13 4289113321
-2.2752295 916.2359 1294.8633 4290889471
-27.21468 920.69971 1293.3949 4286599819
-24.946789 920.69971 1293.3949 4286205317
-18.14312 920.69971 1293.3949 4287123573
-10.205505 920.69971 1293.3949 4289111249
-6.8036699 920.69971 1293.3949 4287733161
-4.53578 920.69971 1293.3949 4289704675
-2.26789 920.69971 1293.3949 4290757619
-27.21468 922.43353 1294.8568 4286215572
-18.14312 922.43353 1294.8568 4288316319
-10.205505 922.43353 1294.8568 4289704939
-6.8036699 922.43353 1294.8568 4285890468
-4.53578 922.43353 1294.8568 4286148766
-2.26789 922.43353 1294.8568 4286806440
-27.126606 928.60303 1294.8267 4284380591
-24.866055 928.60303 1294.8267 4282143629
-22.605505 928.60303 1294.8267 4281551743
-19.21468 928.60309 1294.8267 4283787180
-15.823853 928.60303 1294.8267 4285298894
-13.563303 928.60303 1294.8267 4286678438
-11.302752 928.60303 1294.8267 4288323263
-4.521101 929.46716 1295.5553 4289111511
-27.016514 935.19983 1293.8488 4286154158
-24.765137 935.19983 1293.8488 4286154158
-22.513762 935.19983 1293.8488 4284840819
-13.508257 935.19983 1293.8488 4286286521
-11.256881 935.19983 1293.8488 4282799493
-31.519266 936.92102 1295.3 4284971179
-28.1422 936.92102 1295.3 4285825977
-24.765137 936.92102 1295.3 4285430708
-10.131193 936.92102 1295.3 4283590532
-6.7541285 936.92102 1295.3 4285564302
-4.5027523 936.92102 1295.3 4284576437
-26.92844 940.4519 1293.045 4285956554
-22.440367 940.4519 1293.045 4283064686
-20.196331 940.4519 1293.045 4285564819
-16.830275 940.4519 1293.045 4287206590
-13.46422 940.4519 1293.045 4286219963
-11.220183 940.4519 1293.045 4285430447
-29.172478 943.02527 1295.215 4284837790
-25.806423 942.16748 1294.4917 4283325852
-15.708257 942.16748 1294.4917 4287535307
-13.46422 942.16748 1294.4917 4286876358
-11.220183 942.16748 1294.4917 4286350013
-2.2440367 942.16748 1294.4917 4284504718
1.1220183 943.88306 1295.9382 4284437865
4.4880733 943.88306 1295.9382 4284569198
6.73211 943.88306 1295.9382 4284634991
-25.700916 949.54834 1294.1748 4284643241
-4.4697247 949.54834 1294.1748 4287072928
-2.2348623 949.54834 1294.1748 4283980913
-29.053211 951.25696 1295.6155 4281031819
-26.818348 951.25696 1295.6155 4280966306
0 951.25696 1295.6155 4284569450
4.4697247 951.25696 1295.6155 4284634991
6.704587 951.25696 1295.6155 4284634991
-25.616514 955.59302 1294.0394 4289511155
-22.275229 955.59302 1294.0394 4289382377
-20.047707 954.74158 1293.3215 4283594680
-15.592661 954.74158 1293.3215 4286555867
-13.365138 954.74158 1293.3215 4286815191
-11.137614 955.59302 1294.0394 4285892275
-7.7963305 954.74158 1293.3215 4284642759
-4.4550457 955.59302 1294.0394 4286018447
-2.2275229 954.74158 1293.3215 4284439666
-24.422018 961.60974 1293.8804 4290762239
-22.201836 961.60974 1293.8804 4291024383
-19.981651 961.60974 1293.8804 4292866559
-16.651375 961.60974 1293.8804 4293262591
22.201836 961.60974 1293.8804 4284109149
-24.422018 963.30707 1295.3115 4290168801
-22.201836 963.30707 1295.3115 4291088627
-19.981651 963.30707 1295.3115 4292470271
-16.651375 963.30707 1295.3115 4293785599
-13.321101 963.30707 1295.3115 4294311167
-7.7706423 963.30707 1295.3115 4290101222
-4.4403667 963.30707 1295.3115 4284709048
19.981651 963.30707 1295.3115 4284174179
-40.629356 760.48376 1296.9562 4289376255
-44.322937 762.36627 1298.5435 4288719849
-40.629356 762.36627 1298.5435 4290100733
-40.477982 768.84229 1297.4637 4290560754
9.8128443 768.84229 1297.4637 4293456127
12.266055 768.84229 1297.4637 4293192959
17.172478 768.84229 1297.4637 4293061631
19.625689 768.84229 1297.4637 4292864255
-36.660549 775.29034 1296.3604 4289113569
-34.216515 775.29034 1296.3604 4290100718
4.8880734 775.29034 1296.3604 4292995071
7.3321099 775.29034 1296.3604 4292797951
9.7761469 775.29034 1296.3604 4292798975
13.442202 775.29034 1296.3604 4292864767
17.108257 775.29034 1296.3604 4292535551
19.552294 775.29034 1296.3604 4292732415
-36.660549 777.15887 1297.9358 4291548415
-34.216515 777.15887 1297.9358 4291877887
7.3321099 777.15887 1297.9358 4292797695
9.7761469 777.15887 1297.9358 4292602111
13.442202 777.15887 1297.9358 4292536063
17.108257 777.15887 1297.9358 4292338943
19.552294 777.15887 1297.9358 4292403967
-34.088074 784.50256 1297.5878 4290562303
-31.653212 783.57184 1296.803 4290563327
7.3045874 783.57184 1296.803 4292536319
9.7394495 785.43329 1298.3726 4292207103
13.797554 784.81281 1297.8494 4292272639
17.044037 783.57184 1296.803 4292337919
-33.933945 793.26868 1297.131 4291080951
4.8477063 792.34216 1296.3497 4292601599
7.2715597 793.26868 1297.131 4292535551
16.966972 794.19525 1297.9122 4292272895
19.390825 793.26868 1297.131 4291943679
21.814678 793.26868 1297.131 4292009471
-33.805504 800.53528 1296.7178 4289552299
-31.390825 800.53528 1296.7178 4290407608
-28.976147 800.53528 1296.7178 4290535873
2.4146788 800.53528 1296.7178 4292337919
4.8293576 800.53528 1296.7178 4292271615
7.2440367 800.53528 1296.7178 4292271615
19.31743 800.53528 1296.7178 4292207103
21.732111 800.53528 1296.7178 4292009471
-36.220184 802.38135 1298.2743 4289094297
-33.805504 802.38135 1298.2743 4289485720
2.4146788 802.38135 1298.2743 4292470015
4.8293576 802.38135 1298.2743 4292272895
7.2440367 802.38135 1298.2743 4292075519
16.902752 802.38135 1298.2743 4292338687
19.31743 802.38135 1298.2743 4292141055
-36.082569 808.68622 1297.0503 4290738343
-33.677063 808.68622 1297.0503 4290802099
2.4055047 808.68622 1297.0503 4292272895
4.8110094 808.68622 1297.0503 4292338943
-40.893578 810.52527 1298.601 4288172159
-38.488075 810.52527 1298.601 4288891786
4.8110094 810.52527 1298.601 4291877887
7.2165136 810.52527 1298.601 4292141055
14.433027 810.52527 1298.601 4291680255
16.838531 810.52527 1298.601 4292009215
19.244038 810.52527 1298.601 4291615231
21.649542 810.52527 1298.601 4291878399
-40.737614 818.62714 1298.8921 4288371871
-38.341286 817.71118 1298.1198 4288827548
-35.146175 817.40582 1297.8623 4290011307
4.7926607 816.79517 1297.3474 4292271615
7.1889906 816.79517 1297.3474 4292468991
10.783486 818.62714 1298.8921 4292732927
14.377981 818.62714 1298.8921 4292995839
21.566973 817.71118 1298.1198 4291547639
-38.194496 824.862 1297.609 4288437137
-34.613762 823.94946 1296.8396 4289685675
-31.033028 823.94946 1296.8396 4290210743
2.387156 823.03699 1296.0702 4291878655
4.774312 823.94946 1296.8396 4292207103
7.161468 823.94946 1296.8396 4292141311
9.548624 824.862 1297.609 4290498815
-30.937614 830.55737 1297.1791 4290079157
1.1899083 830.55737 1297.1791 4291286015
4.7596331 830.55737 1297.1791 4291417855
7.1394496 830.55737 1297.1791 4291878399
-34.507339 832.37677 1298.7131 4289421980
1.1899083 832.37677 1298.7131 4291089151
4.7596331 832.37677 1298.7131 4291614463
7.1394496 832.37677 1298.7131 4291746303
9.5192661 832.37677 1298.7131 4292074751
-33.188992 838.55127 1297.3792 4289089418
-30.818348 838.55127 1297.3792 4289944727
-34.374313 840.36365 1298.9072 4288958350
1.1853211 840.36365 1298.9072 4291284991
-30.699083 844.69769 1296.0215 4289748881
-37.636696 854.41278 1297.6729 4288102012
-35.284405 854.41278 1297.6729 4289351822
-32.93211 852.61444 1296.1565 4289420431
1.1761467 853.51361 1296.9147 4291220479
-37.48991 860.48901 1296.2561 4288235126
-35.14679 860.48901 1296.2561 4288235126
1.1715597 860.48901 1296.2561 4291351295
-37.48991 862.2804 1297.7666 4288431472
1.1715597 862.2804 1297.7666 4291219711
4.6862388 862.2804 1297.7666 4291022847
-37.372478 868.72278 1297.9664 4288103796
-35.036697 868.72278 1297.9664 4288432761
-31.922323 868.42511 1297.7155 4288890234
1.16789 868.72284 1297.9664 4291218943
4.6715598 869.61566 1298.7192 4291086847
-31.409174 875.62457 1297.2457 4289224851
-27.919266 875.62457 1297.2457 4289813409
-9.3064222 875.62457 1297.2457 4290874051
-6.9798164 875.62457 1297.2457 4292518877
-4.6532111 875.62457 1297.2457 4290822388
-2.3266056 875.62457 1297.2457 4291480575
1.1633028 875.62457 1297.2457 4290956799
-34.899082 877.40332 1298.7455 4288961650
-31.409174 877.40332 1298.7455 4289685403
-6.9798164 877.40332 1298.7455 4291468768
-4.6532111 877.40332 1298.7455 4290755567
-2.3266056 877.40332 1298.7455 4291742718
1.1633028 877.40332 1298.7455 4291022847
-30.126606 883.3772 1297.2424 4288698255
1.1587156 883.3772 1297.2424 4290627324
-31.285322 885.14893 1298.7362 4288766612
1.1587156 885.14893 1298.7362 4290495992
4.6348624 885.14893 1298.7362 4290167795
-31.186239 890.60864 1298.1077 4288559996
-27.721102 889.72559 1297.363 4289350799
1.1550459 890.60864 1298.1077 4290891257
4.6201835 890.60864 1298.1077 4290628598
-27.61101 896.52222 1296.5536 4288955251
-25.310091 896.52222 1296.5536 4289152631
-23.009174 896.52222 1296.5536 4289283188
-19.557798 896.52222 1296.5536 4289154427
-16.106422 896.52222 1296.5536 4291460265
-4.6018348 896.52222 1296.5536 4289311707
-2.3009174 896.52222 1296.5536 4290693360
0 896.52222 1296.5536 4290628346
-28.761467 898.28125 1298.0369 4288758648
1.1504587 898.28125 1298.0369 4290825207
-28.264832 905.32782 1297.4382 4288561522
-25.209175 904.15979 1296.4534 4288822648
-22.917431 904.15979 1296.4534 4289085052
-2.291743 904.15979 1296.4534 4290627803
0 905.91187 1297.9307 4290628598
-29.697248 911.28748 1297.231 4288037230
-4.5688071 911.28748 1297.231 4289047767
-2.2844036 911.28748 1297.231 4290758129
-29.697248 913.03394 1298.7036 4287579250
-31.85321 920.58447 1298.5299 4286083723
-29.577982 919.71472 1297.7966 4286277770
1.1376147 920.58447 1298.5299 4286543522
-31.750458 925.90118 1297.7806 4286023840
-28.726606 924.7453 1296.806 4285561486
-9.8275232 924.7453 1296.806 4289836270
-6.8036699 925.0343 1297.0497 4287007942
-4.53578 925.0343 1297.0497 4285430921
-2.26789 925.0343 1297.0497 4284049267
-31.647707 932.92358 1298.4697 4285101995
-28.633638 931.77148 1297.4982 4285430961
-24.866055 931.19537 1297.0125 4284181409
-9.7957191 931.77142 1297.4982 4283653770
-6.7816515 932.05945 1297.7411 4287864013
-4.521101 932.05945 1297.7411 4288518588
-2.2605505 932.05945 1297.7411 4284373629
-31.519266 938.64221 1296.7512 4286285224
-29.267889 938.64221 1296.7512 4286416810
-24.765137 938.64221 1296.7512 4284180144
-9.0055046 938.64221 1296.7512 4285496460
-2.2513762 938.64221 1296.7512 4284702344
4.5027523 938.64221 1296.7512 4284504438
-33.770641 940.3634 1298.2025 4285033122
-31.519266 940.3634 1298.2025 4284509597
1.1256881 940.3634 1298.2025 4284635244
4.5027523 940.3634 1298.2025 4284700784
6.7541285 940.3634 1298.2025 4284700784
-31.416513 947.31421 1298.8313 4283458694
-29.172478 946.45642 1298.108 4285035671
-2.2440367 945.59863 1297.3848 4284110723
1.1220183 946.45642 1298.108 4284503907
4.4880733 946.45642 1298.108 4284569711
7.8541284 946.45642 1298.108 4284569452
-33.522934 952.96552 1297.056 4286088895
-31.288073 952.96552 1297.056 4285301689
-29.053211 952.96552 1297.056 4285894082
1.1174312 952.96552 1297.056 4284569198
4.4697247 952.96552 1297.056 4284373102
6.704587 952.96552 1297.056 4284373102
-33.522934 954.67407 1298.4967 4289512182
-31.288073 954.67407 1298.4967 4289643511
-29.053211 954.67407 1298.4967 4290301439
-2.2348623 954.67407 1298.4967 4284702079
1.1174312 954.67407 1298.4967 4284503657
4.4697247 954.67407 1298.4967 4284438641
7.8220181 954.67407 1298.4967 4284372845
20.113762 954.67407 1298.4967 4283913053
22.348623 954.67407 1298.4967 4284043356
-28.957798 959.85046 1297.6292 4289710335
-24.502752 958.14746 1296.1932 4293127679
-22.275229 958.14746 1296.1932 4293982719
-20.047707 958.14746 1296.1932 4294180095
-13.365138 958.99896 1296.9111 4293983999
-11.137614 958.99896 1296.9111 4289049801
-7.7963305 958.99902 1296.9111 4284187329
-4.4550457 958.99896 1296.9111 4283917459
-2.2275229 958.99896 1296.9111 4283325578
7.7963305 959.85046 1297.6292 4284438376
11.137614 959.85046 1297.6292 4284372576
20.047707 959.85046 1297.6292 4284240989
22.275229 958.14746 1296.1932 4284043356
-24.422018 965.00439 1296.7427 4288851419
-22.201836 965.00439 1296.7427 4288719845
-16.651375 965.00439 1296.7427 4289313015
-4.4403667 965.00439 1296.7427 4290826495
22.201836 965.00439 1296.7427 4283781218
-43.252296 755.86212 1299.5995 4289639159
-46.959633 757.75165 1301.1926 4287074266
-44.488075 757.75165 1301.1926 4286876889
-44.322937 764.24878 1300.1307 4289772269
-41.86055 764.24878 1300.1307 4290364406
19.699083 764.24878 1300.1307 4292667391
-44.322937 766.13135 1301.718 4289770972
-44.157799 770.71783 1299.0452 4287794879
-41.704586 770.71783 1299.0452 4288321479
9.8128443 770.71783 1299.0452 4292864767
-44.157799 772.59332 1300.6265 4287466430
-40.477982 772.59332 1300.6265 4288323024
-39.104588 779.02734 1299.5114 4290627583
-36.660549 779.02734 1299.5114 4292272127
9.7761469 779.02734 1299.5114 4292667391
13.442202 779.02734 1299.5114 4292732927
-39.104588 780.89581 1301.0868 4288787198
-36.660549 780.89581 1301.0868 4290234623
9.7761469 780.89581 1301.0868 4292535551
12.220183 780.89581 1301.0868 4292469759
-36.522934 787.2948 1299.942 4291150335
-34.088074 787.2948 1299.942 4291218175
9.7394495 787.2948 1299.942 4292010751
13.391743 787.2948 1299.942 4292076031
17.044037 787.2948 1299.942 4292207103
-37.740364 789.15625 1301.5116 4291147245
9.7394495 789.15625 1301.5116 4292272895
13.391743 789.15625 1301.5116 4292207103
17.044037 789.15625 1301.5116 4292470271
-37.165752 797.28369 1300.5162 4289753510
-33.933945 796.04828 1299.4746 4291338452
7.2715597 796.04828 1299.4746 4292469247
9.6954126 797.90137 1301.0371 4292139775
13.331193 797.90137 1301.0371 4292140543
16.966972 796.97485 1300.2559 4292141311
19.390825 796.04828 1299.4746 4292009471
21.814678 796.04828 1299.4746 4291877887
-43.464222 806.07336 1301.3873 4288175243
-41.049541 806.07336 1301.3873 4288964759
-37.427521 805.15039 1300.6091 4289620632
4.8293576 804.22736 1299.8308 4292470271
7.2440367 805.15039 1300.6091 4292338687
9.6587152 805.15039 1300.6091 4291878143
13.683181 805.45801 1300.8685 4292141055
16.902752 805.15039 1300.6091 4292338175
19.31743 805.15039 1300.6091 4291943935
-40.893578 812.36426 1300.1516 4287515499
-38.488075 812.36426 1300.1516 4288759955
7.2165136 812.36426 1300.1516 4292206335
9.6220188 812.36426 1300.1516 4292074751
13.230275 812.36426 1300.1516 4292009215
16.838531 812.36426 1300.1516 4292141055
19.244038 812.36426 1300.1516 4292403199
-45.704586 814.20331 1301.7021 4287452299
-43.299084 814.20331 1301.7021 4287713155
-40.893578 814.20331 1301.7021 4287713155
9.6220188 814.20331 1301.7021 4292140543
13.230275 814.20331 1301.7021 4292403967
16.838531 814.20331 1301.7021 4292733183
19.244038 814.20331 1301.7021 4292994559
-52.719265 820.45917 1300.4368 4286008183
-46.728439 820.45917 1300.4368 4287190409
-43.133945 820.45917 1300.4368 4287583384
-40.737614 820.45917 1300.4368 4288043935
-38.341286 820.45917 1300.4368 4288371099
10.783486 820.45917 1300.4368 4291417853
14.377981 820.45917 1300.4368 4290495487
-52.719265 822.2912 1301.9814 4286139259
-50.322937 822.2912 1301.9814 4286796932
-46.728439 822.2912 1301.9814 4287189380
-43.133945 822.2912 1301.9814 4287648143
-40.737614 822.2912 1301.9814 4288372123
11.981651 822.2912 1301.9814 4288196081
14.377981 822.2912 1301.9814 4281494780
16.774311 822.2912 1301.9814 4280442349
-34.613762 826.68701 1299.1478 4289225377
-31.033028 826.68701 1299.1478 4289948087
7.161468 826.68701 1299.1478 4291878143
9.548624 826.68701 1299.1478 4288989951
-34.613762 828.51196 1300.6866 4289356190
10.742202 828.51196 1300.6866 4288262382
16.710093 828.51196 1300.6866 4278800059
-38.077065 835.10583 1301.0142 4288761736
-35.697247 835.10583 1301.0142 4289354130
1.1899083 835.10583 1301.0142 4291351295
4.7596331 835.10583 1301.0142 4291482623
7.1394496 835.10583 1301.0142 4291482623
10.312538 835.409 1301.2699 4291351807
14.278899 836.0155 1301.7812 4291811839
16.658716 836.0155 1301.7812 4291811839
19.038532 836.0155 1301.7812 4292009471
-45.042202 842.17603 1300.4354 4287124602
-40.300919 842.17603 1300.4354 4288372606
-37.930275 842.17603 1300.4354 4288894853
-34.374313 842.17603 1300.4354 4289420429
1.1853211 842.17603 1300.4354 4291416575
4.7412844 842.17603 1300.4354 4290957055
7.1119266 842.17603 1300.4354 4291351807
-49.783485 843.9884 1301.9636 4286793592
-46.227524 843.9884 1301.9636 4287123823
-42.671558 843.9884 1301.9636 4288108403
-40.300919 843.9884 1301.9636 4288634748
-37.930275 843.9884 1301.9636 4288960903
-35.559631 843.9884 1301.9636 4289289611
1.1853211 843.9884 1301.9636 4291417342
4.7412844 843.9884 1301.9636 4291417343
7.1119266 843.9884 1301.9636 4291417343
9.4825687 843.9884 1301.9636 4291351807
-37.783485 848.30841 1299.066 4289025419
-35.42202 848.30841 1299.066 4289288848
1.1807339 848.30841 1299.066 4291155199
-40.144955 850.11377 1300.5883 4287909475
-37.783485 850.11377 1300.5883 4288432267
-35.42202 850.11377 1300.5883 4289353369
4.7229357 850.11377 1300.5883 4291351551
-37.636696 856.21118 1299.1892 4288102775
2.3522935 856.21118 1299.1892 4291219455
4.704587 856.21118 1299.1892 4291219455
4.704587 858.00952 1300.7056 4290825215
-39.833027 865.86304 1300.7874 4287382900
4.6862388 864.96741 1300.0322 4291088639
7.0293579 864.96741 1300.0322 4291286015
-39.708256 871.40137 1300.225 4287910511
-37.372478 871.40137 1300.225 4288961132
-35.036697 871.40137 1300.225 4288961132
1.16789 871.40137 1300.225 4291022335
4.6715598 871.40137 1300.225 4291021567
7.0073395 871.40137 1300.225 4291087359
11.678899 871.40137 1300.225 4291087359
16.350458 871.40137 1300.225 4291088639
-39.708256 873.18713 1301.7306 4287845495
-37.372478 873.18713 1301.7306 4288830066
-35.036697 873.18713 1301.7306 4289092982
4.6715598 873.18713 1301.7306 4290890750
7.0073395 873.18713 1301.7306 4290956543
10.511009 873.18713 1301.7306 4290825471
14.014679 873.18713 1301.7306 4290628095
16.350458 873.18713 1301.7306 4290628095
18.686239 873.18713 1301.7306 4290496510
21.022018 873.18713 1301.7306 4290628095
-37.225689 880.07135 1300.9951 4288700027
-34.899082 880.07135 1300.9951 4288831613
-31.796942 879.7749 1300.7451 4288828815
1.1633028 879.18201 1300.2452 4290496767
4.6532111 880.96069 1301.745 4290430201
6.9798164 880.96069 1301.745 4290495995
10.081958 880.36786 1301.2451 4290234108
13.959633 880.96069 1301.745 4290299899
-31.285322 886.92059 1300.2301 4289487254
1.1587156 886.92059 1300.2301 4290824437
4.6348624 886.92059 1300.2301 4290759151
9.2697248 886.92059 1300.2301 4290628346
-34.761467 888.69226 1301.7239 4287905910
6.9522934 888.69226 1301.7239 4290562805
9.2697248 888.69226 1301.7239 4290233853
-31.186239 892.37476 1299.5967 4288230263
-27.721102 892.37476 1299.5967 4288756592
1.1550459 892.37476 1299.5967 4290825723
4.6201835 892.37476 1299.5967 4290562551
6.9302754 892.37476 1299.5967 4290628344
-31.186239 894.14087 1301.0858 4288559991
2.3100917 894.14087 1301.0858 4290628346
4.6201835 894.14087 1301.0858 4290103287
6.9302754 894.14087 1301.0858 4290431996
9.2403669 894.14087 1301.0858 4290562815
-34.51376 901.79944 1301.0032 4287251300
-32.212845 901.79944 1301.0032 4288035183
-29.144953 900.62671 1300.0144 4288429172
1.1504587 900.91992 1300.2616 4290429936
4.6018348 900.91992 1300.2616 4290233333
6.9027524 901.79944 1301.0032 4290299126
-32.084404 907.66394 1299.408 4287838831
1.1458715 907.66394 1299.408 4290562289
-34.376148 909.41602 1300.8851 4287316852
-32.084404 909.41602 1300.8851 4287774314
1.1458715 909.41602 1300.8851 4290430713
4.5834861 909.41602 1300.8851 4290563064
-31.981651 914.78033 1300.1761 4286726260
1.1422018 914.78033 1300.1761 4290231271
4.5688071 914.78033 1300.1761 4288457441
13.706422 914.78033 1300.1761 4284445598
-34.266056 916.52679 1301.6487 4286538123
-31.981651 916.52679 1301.6487 4286735245
1.1422018 916.52679 1301.6487 4289966550
4.5688071 916.52679 1301.6487 4288651710
13.706422 916.52679 1301.6487 4286020256
15.990826 916.52679 1301.6487 4286743978
-31.85321 922.32391 1299.9966 4285625473
1.1376147 922.32391 1299.9966 4284374400
4.5504589 922.32391 1299.9966 4285031035
-34.128441 924.06335 1301.4633 4286018972
1.1376147 924.06335 1301.4633 4283979642
4.5504589 924.06335 1301.4633 4284701818
6.8256879 924.06335 1301.4633 4284701818
9.1009178 924.06335 1301.4633 4284833401
-31.750458 928.50189 1299.9735 4285825193
-29.482569 927.63501 1299.2426 4286547878
-9.0715599 927.63501 1299.2426 4289440963
-6.8036699 927.63501 1299.2426 4290953945
-2.26789 927.63501 1299.2426 4284769173
1.133945 929.36877 1300.7045 4284373368
4.53578 929.36877 1300.7045 4284963452
6.8036699 929.36877 1300.7045 4284963452
-33.908257 934.65179 1299.9269 4285168295
-2.2605505 934.65179 1299.9269 4283391906
1.1302752 934.65179 1299.9269 4284439411
4.521101 934.65179 1299.9269 4284504438
-36.168808 936.38 1301.384 4283127692
-33.908257 936.38 1301.384 4286219963
1.1302752 936.38 1301.384 4284438646
6.7816515 936.38 1301.384 4284438645
9.042202 936.38 1301.384 4284634993
-33.770641 942.94519 1300.3794 4284966552
-31.519266 942.94519 1300.3794 4285231514
10.131193 942.94519 1300.3794 4284700266
-33.660549 949.02979 1300.2778 4282406281
-31.416513 949.02979 1300.2778 4279913595
2.2440367 949.02979 1300.2778 4284635243
8.9761467 949.88757 1301.0011 4284503659
11.220183 949.88757 1301.0011 4284503403
13.46422 949.88757 1301.0011 4284503654
16.830275 949.88757 1301.0011 4284437861
20.196331 950.74536 1301.7244 4284174942
22.440367 950.74536 1301.7244 4284108899
-33.522934 956.38263 1299.9373 4290496758
-31.288073 956.38263 1299.9373 4290299903
-29.053211 956.38263 1299.9373 4290957823
-26.818348 956.38263 1299.9373 4291351295
1.1174312 956.38263 1299.9373 4284307055
4.4697247 956.38263 1299.9373 4284372848
7.8220181 956.38263 1299.9373 4284438377
11.174312 956.38263 1299.9373 4284503907
13.409174 956.38263 1299.9373 4284503907
16.761467 956.38263 1299.9373 4284438367
20.113762 956.38263 1299.9373 4284240985
-34.640366 958.09119 1301.3779 4289509613
-31.288073 958.09119 1301.3779 4289183993
-26.818348 958.09119 1301.3779 4290038783
1.1174312 958.09119 1301.3779 4284110446
4.4697247 958.09119 1301.3779 4284372848
13.409174 958.09119 1301.3779 4284306529
16.761467 958.09119 1301.3779 4284306528
-28.957798 961.55334 1299.0651 4289511144
-26.730276 961.55334 1299.0651 4290168801
-11.137614 961.55334 1299.0651 4293521919
-2.2275229 961.55334 1299.0651 4282209170
4.4550457 961.55334 1299.0651 4284241267
7.7963305 961.55334 1299.0651 4284307047
11.137614 961.55334 1299.0651 4284372828
13.365138 961.55334 1299.0651 4284240485
17.820183 961.55334 1299.0651 4284305508
-31.185322 963.25635 1300.501 4289180900
-28.957798 964.10779 1301.2189 4289312486
-25.987768 964.3916 1301.4581 4288851419
-22.275229 964.95929 1301.9368 4288720099
-20.047707 964.10779 1301.2189 4289114602
-16.706421 964.95929 1301.9368 4288720347
-13.365138 964.10779 1301.2189 4290364908
-11.137614 964.10779 1301.2189 4291220213
-7.7963305 964.10779 1301.2189 4292469247
-4.4550457 964.95929 1301.9368 4292270335
-2.2275229 964.10779 1301.2189 4285429680
7.7963305 963.25635 1300.501 4284307047
11.137614 964.10779 1301.2189 4284438113
20.047707 963.25635 1300.501 4284108899
-46.959633 760.58594 1303.5825 4288720109
-46.78532 768.95508 1304.0989 4287136949
-44.157799 775.40662 1302.9985 4289639658
-40.886852 775.09399 1302.735 4290561016
-40.326607 782.76428 1302.6622 4289311477
-36.660549 782.76428 1302.6622 4290297855
-43.992661 784.63281 1304.2377 4288258272
-40.326607 784.63281 1304.2377 4289901811
-41.392662 791.0177 1303.0812 4289171907
-37.740364 791.0177 1303.0812 4289893330
9.7394495 791.0177 1303.0812 4292470271
13.391743 791.0177 1303.0812 4292470271
-56.001835 792.87921 1304.6508 4286474633
-53.566971 792.87921 1304.6508 4286866572
-46.262386 792.87921 1304.6508 4287721357
-43.827522 792.87921 1304.6508 4288507286
-41.392662 792.87921 1304.6508 4289165473
-38.957798 792.87921 1304.6508 4289823666
9.7394495 792.87921 1304.6508 4292469759
13.391743 792.87921 1304.6508 4292404479
-41.205505 799.75439 1302.5996 4288568984
-38.781651 799.75439 1302.5996 4288765332
9.6954126 799.75439 1302.5996 4291877887
13.331193 799.75439 1302.5996 4292272895
-48.477066 801.60742 1304.162 4287123587
-46.053211 801.60742 1304.162 4287715724
-43.629356 801.60742 1304.162 4287978382
-41.205505 801.60742 1304.162 4288701849
-38.781651 801.60742 1304.162 4288963729
12.119267 801.60742 1304.162 4292009983
-48.293579 809.7655 1304.5005 4286662784
-45.878899 808.84247 1303.7222 4287122820
-43.464222 808.84247 1303.7222 4287514736
9.6587152 807.91943 1302.9438 4292207103
12.073395 807.91943 1302.9438 4291878143
-52.921101 816.04236 1303.2528 4286204533
-49.71376 816.65533 1303.7697 4286993542
-45.704586 816.04236 1303.2528 4287913371
-43.299084 816.04236 1303.2528 4288240285
16.838531 816.96185 1304.0281 4290298090
19.244038 816.96185 1304.0281 4288524261
21.649542 817.88135 1304.8035 4281487008
-50.322937 824.12317 1303.5262 4286731139
-46.728439 824.12317 1303.5262 4287058305
-43.133945 824.12317 1303.5262 4287713159
-40.737614 824.12317 1303.5262 4288765847
-38.341286 824.12317 1303.5262 4288568205
11.981651 824.12317 1303.5262 4284713424
14.377981 824.12317 1303.5262 4278213045
16.774311 824.12317 1303.5262 4278212788
-38.194496 830.33698 1302.2253 4288764299
11.93578 830.33698 1302.2253 4292206335
14.322936 830.33698 1302.2253 4292141055
16.710093 830.33698 1302.2253 4289772519
19.097248 830.33698 1302.2253 4284913359
21.484404 830.33698 1302.2253 4281228951
-50.130276 832.16199 1303.7642 4286730628
-46.549541 832.16199 1303.7642 4287386497
-42.968807 832.16199 1303.7642 4288238720
-40.58165 832.16199 1303.7642 4288370306
11.93578 832.16199 1303.7642 4292207103
14.322936 832.16199 1303.7642 4292469759
16.710093 832.16199 1303.7642 4291088127
19.097248 832.16199 1303.7642 4287538687
21.484404 832.16199 1303.7642 4284117712
-52.355965 839.6543 1304.8494 4286399596
-49.976147 839.6543 1304.8494 4286794354
-46.406422 838.74463 1304.0823 4287124088
-42.836697 838.74463 1304.0823 4287844986
-40.456882 837.8349 1303.3153 4287777917
-38.077065 837.8349 1303.3153 4288498564
4.7596331 837.8349 1303.3153 4291088383
7.1394496 837.8349 1303.3153 4291548927
10.709173 838.74463 1304.0824 4291417599
14.278899 838.74463 1304.0823 4291483391
16.658716 838.74463 1304.0823 4291352063
19.038532 838.74463 1304.0823 4291287292
22.211622 839.04785 1304.338 4291813375
-54.524769 845.80078 1303.4917 4285940591
-52.154129 845.80078 1303.4917 4286201701
-49.783485 845.80078 1303.4917 4286267494
-46.227524 845.80078 1303.4917 4286726515
-42.671558 845.80078 1303.4917 4287647341
-40.300919 845.80078 1303.4917 4288305015
4.7412844 845.80078 1303.4917 4291417855
7.1119266 845.80078 1303.4917 4291154943
10.667891 845.80078 1303.4917 4291220223
-56.675228 851.91919 1302.1105 4286072943
-42.50642 851.91919 1302.1105 4287510885
-40.144955 851.91919 1302.1105 4287840107
4.7229357 851.91919 1302.1105 4291285503
7.0844035 851.91919 1302.1105 4291548415
-43.687157 853.72449 1303.6327 4287186039
-40.144955 853.72449 1303.6327 4287447670
7.0844035 853.72449 1303.6327 4291614207
9.4458714 853.72449 1303.6327 4291614463
-39.988991 859.80786 1302.2218 4288042349
7.056881 859.80786 1302.2218 4291022847
-42.341286 861.6062 1303.7382 4287644261
-39.988991 861.6062 1303.7382 4287710054
10.585321 861.6062 1303.7382 4291022847
-43.347706 869.44574 1303.8081 4287319408
-39.833027 867.65442 1302.2977 4287779443
7.0293579 867.65442 1302.2977 4291283967
10.153518 868.25146 1302.8013 4291087359
14.058716 868.55005 1303.053 4290891519
16.401834 867.65442 1302.2977 4290957567
18.744955 869.44574 1303.8081 4290891518
-39.708256 874.97284 1303.2363 4287714163
-37.372478 874.97284 1303.2363 4288764271
4.6715598 874.97284 1303.2363 4290891004
7.0073395 874.97284 1303.2363 4290956798
10.511009 874.97284 1303.2363 4290694141
14.014679 874.97284 1303.2363 4290562559
16.350458 874.97284 1303.2363 4290496767
18.686239 874.97284 1303.2363 4290497023
21.022018 874.97284 1303.2363 4290562815
-42.044037 876.75854 1304.7419 4287451255
-39.708256 876.75854 1304.7419 4287846012
4.6715598 876.75854 1304.7419 4290496508
7.0073395 876.75854 1304.7419 4290496508
11.678899 876.75854 1304.7419 4290103035
14.014679 876.75854 1304.7419 4290365951
16.350458 876.75854 1304.7419 4290365951
18.686239 876.75854 1304.7419 4290562814
21.022018 876.75854 1304.7419 4290497021
-37.225689 883.62878 1303.9946 4288108413
-34.899082 883.62878 1303.9946 4288700549
6.9798164 883.62878 1303.9946 4290627827
9.3064222 882.73938 1303.2448 4290628348
-34.761467 890.46399 1303.2178 4287771773
10.42844 890.46399 1303.2178 4290233854
-34.761467 892.23566 1304.7117 4287970421
11.587156 892.23566 1304.7117 4290299645
13.904587 892.23566 1304.7117 4290299645
-34.651375 895.90692 1302.575 4287970934
-32.341286 895.90692 1302.575 4288101237
4.6201835 895.90692 1302.575 4290496758
6.9302754 895.90692 1302.575 4290628344
9.2403669 895.90692 1302.575 4290563066
-36.961468 897.67303 1304.0641 4287315821
-34.651375 897.67303 1304.0641 4287447407
-32.341286 897.67303 1304.0641 4288100976
6.9302754 897.67303 1304.0641 4290430199
10.395412 897.67303 1304.0641 4290299645
-39.115597 905.31757 1303.9696 4286659944
-36.814678 904.43799 1303.228 4287052908
-34.51376 904.43799 1303.228 4287316080
-32.212845 903.55847 1302.4865 4287971434
2.3009174 903.55847 1302.4865 4290299376
4.6018348 904.43799 1303.228 4290233584
6.9027524 904.43799 1303.228 4290430963
9.2036695 904.43799 1303.228 4290561525
-36.667889 911.16803 1302.3624 4286265450
-34.376148 911.16803 1302.3624 4286988916
-32.084404 911.16803 1302.3624 4286986856
1.1458715 911.16803 1302.3624 4290758649
4.5834861 911.16803 1302.3624 4290891002
-37.813759 912.92004 1303.8397 4285678193
-34.376148 912.92004 1303.8397 4286072434
6.8752294 912.92004 1303.8397 4286549444
10.312843 912.92004 1303.8397 4285954738
16.042202 912.92004 1303.8397 4284906149
19.479816 912.92004 1303.8397 4285822363
-34.266056 919.14648 1303.8574 4284833677
4.5688071 918.27325 1303.1212 4286213785
6.8532109 920.01965 1304.5938 4285425792
10.279816 920.01965 1304.5938 4284701568
13.706422 920.01965 1304.5938 4285029245
15.990826 920.01965 1304.5938 4285029245
18.275229 920.01965 1304.5938 4285094777
-34.128441 925.80273 1302.9298 4286086301
1.1376147 925.80273 1302.9298 4284110976
4.5504589 925.80273 1302.9298 4284833151
6.8256879 925.80273 1302.9298 4284833151
10.238532 925.80273 1302.9298 4285029497
13.651376 925.80273 1302.9298 4285161335
15.926605 925.80273 1302.9298 4285227129
-34.128441 927.54224 1304.3965 4285626265
10.238532 927.54224 1304.3965 4284963706
13.651376 927.54224 1304.3965 4285095031
15.926605 927.54224 1304.3965 4284963189
-37.420181 932.83643 1303.6283 4282798973
-34.018349 931.10266 1302.1664 4285167513
1.133945 931.10266 1302.1664 4284373366
4.53578 931.10266 1302.1664 4284570234
6.8036699 931.96954 1302.8973 4284438646
9.0715599 932.83643 1303.6283 4284438641
-37.299084 938.10822 1302.8412 4283059831
9.042202 938.10822 1302.8412 4284701036
-37.299084 939.83643 1304.2983 4283980675
11.302752 939.83643 1304.2983 4284634730
-36.022018 947.24817 1304.0076 4282472331
-33.770641 945.52698 1302.5563 4283917446
11.256881 945.52698 1302.5563 4284568937
13.508257 945.52698 1302.5563 4284568937
15.759633 945.52698 1302.5563 4284568937
19.511925 946.10077 1303.04 4284371301
22.513762 947.24817 1304.0076 4284371301
11.220183 952.461 1303.1709 4284373098
13.46422 952.461 1303.1709 4284373098
16.830275 952.461 1303.1709 4284241766
-35.904587 954.17657 1304.6174 4289707242
-34.640366 959.7998 1302.8186 4289180900
-31.288073 959.7998 1302.8186 4289379558
1.1174312 959.7998 1302.8186 4283650676
15.644036 959.7998 1302.8186 4284306279
-34.640366 961.50836 1304.2592 4289246693
1.1174312 961.50836 1304.2592 4283585640
4.4697247 961.50836 1304.2592 4284175726
13.409174 961.50836 1304.2592 4284306279
16.761467 961.50836 1304.2592 4284372071
-33.412846 966.66229 1303.3727 4289443302
-31.185322 966.66229 1303.3727 4289378276
-28.957798 967.51379 1304.0906 4289180899
-25.616514 966.66229 1303.3727 4289180380
-22.275229 966.66229 1303.3727 4289245421
-20.047707 966.66229 1303.3727 4289245421
-16.706421 967.51379 1304.0906 4288917220
-13.365138 967.51379 1304.0906 4288326363
-11.137614 967.51379 1304.0906 4288194777
-7.7963305 967.51379 1304.0906 4289247467
-4.4550457 967.51379 1304.0906 4291218687
-2.2275229 967.51379 1304.0906 4287336911
-49.651375 754.47314 1306.2765 4285824199
-52.133945 756.37109 1307.8767 4286678185
-49.651375 756.37109 1307.8767 4286745555
-49.431194 763.42023 1305.9723 4288256977
-46.959633 763.42023 1305.9723 4289441508
-49.431194 765.30975 1307.5654 4286741426
-44.157799 778.21985 1305.3706 4287732702
-41.704586 778.21985 1305.3706 4289114355
-49.06422 780.09534 1306.952 4286810818
-46.611008 780.09534 1306.952 4287665871
-44.157799 780.09534 1306.952 4287798495
-52.546791 788.36975 1307.3887 4286345375
-48.880733 788.36975 1307.3887 4287200171
-46.436699 788.36975 1307.3887 4288384188
-43.992661 787.43555 1306.6008 4289107663
-41.548622 786.50128 1305.8131 4290359277
-56.001835 794.74066 1306.2202 4285612912
-53.566971 794.74066 1306.2202 4286200434
-48.697247 794.74066 1306.2202 4287057280
-46.262386 794.74066 1306.2202 4287452038
-43.827522 794.74066 1306.2202 4287975813
-41.392662 794.74066 1306.2202 4288896915
-56.001835 796.60217 1307.7898 4285547121
-53.566971 796.60217 1307.7898 4286070133
-48.697247 796.60217 1307.7898 4286991746
-46.262386 796.60217 1307.7898 4287452297
-43.827522 796.60217 1307.7898 4287845261
-48.477066 803.46051 1305.7245 4287124098
-46.053211 803.46051 1305.7245 4287650442
-48.477066 805.3136 1307.2869 4286793341
-53.122936 811.61151 1306.057 4286400883
-49.500916 811.61151 1306.057 4286860670
19.244038 820.63989 1307.1294 4279585929
-52.719265 825.9552 1305.0709 4286139259
-50.322937 827.78723 1306.6156 4286468221
-46.728439 826.87122 1305.8433 4287123842
-43.133945 826.87122 1305.8433 4288172680
-40.737614 826.87122 1305.8433 4288830610
-38.341286 825.9552 1305.0709 4288764553
14.377981 825.9552 1305.0709 4280444883
19.170643 825.9552 1305.0709 4280179089
21.566973 825.9552 1305.0709 4281429155
-46.549541 833.987 1305.303 4286924661
-42.968807 833.987 1305.303 4287709552
-40.58165 833.987 1305.303 4288301433
21.484404 833.987 1305.303 4291812351
-50.130276 835.81201 1306.8418 4286596207
-47.743118 835.81201 1306.8418 4286860147
-54.735779 841.47369 1306.3834 4285678708
-52.355965 841.47369 1306.3834 4286266992
11.899082 841.47369 1306.3834 4291417599
14.278899 841.47369 1306.3834 4291483647
16.658716 841.47369 1306.3834 4291615487
19.038532 841.47369 1306.3834 4291418110
22.608257 841.47369 1306.3834 4291549695
14.278899 843.29309 1307.9175 4291549439
16.658716 843.29309 1307.9175 4291351807
19.038532 843.29309 1307.9175 4291089407
22.608257 843.29309 1307.9175 4291418111
-54.524769 847.61316 1305.0199 4285678185
-52.154129 847.61316 1305.0199 4286069854
-49.783485 847.61316 1305.0199 4286333026
-46.227524 847.61316 1305.0199 4286725497
-42.671558 847.61316 1305.0199 4287448924
7.1119266 847.61316 1305.0199 4291285503
10.667891 847.61316 1305.0199 4291220223
-54.524769 849.42554 1306.5481 4286204785
-52.154129 849.42554 1306.5481 4286531438
-49.783485 849.42554 1306.5481 4286597231
-46.227524 849.42554 1306.5481 4286858362
10.667891 849.42554 1306.5481 4291482623
14.223853 849.42554 1306.5481 4291351807
-49.590824 857.33521 1306.6772 4286204279
-47.229359 857.33521 1306.6772 4286794102
-43.687157 856.4325 1305.916 4287648632
-40.144955 855.52991 1305.1549 4287779702
7.0844035 855.52991 1305.1549 4291088639
10.233027 856.7334 1306.1698 4291154431
-43.517433 863.40454 1305.2545 4287120496
10.585321 863.40454 1305.2545 4291087871
14.113762 863.40454 1305.2545 4290956799
16.466055 863.40454 1305.2545 4291154431
-43.517433 865.20288 1306.7708 4287187823
18.818348 865.20288 1306.7708 4290957567
-43.347706 871.23706 1305.3186 4287188854
-43.347706 873.02844 1306.829 4287188854
-42.044037 878.54431 1306.2477 4287385207
-39.708256 878.54431 1306.2477 4287648636
16.350458 878.54431 1306.2477 4290497021
18.686239 878.54431 1306.2477 4290496506
21.022018 878.54431 1306.2477 4290496506
-42.044037 880.33002 1307.7534 4287320185
-39.708256 880.33002 1307.7534 4287649149
11.678899 880.33002 1307.7534 4290496506
14.014679 880.33002 1307.7534 4289904887
16.350458 880.33002 1307.7534 4290233851
18.686239 880.33002 1307.7534 4290102004
21.022018 880.33002 1307.7534 4290364919
-39.552292 886.29688 1306.2443 4287051629
-37.225689 886.29688 1306.2443 4288103288
-39.552292 888.07556 1307.744 4286854770
-37.225689 888.07556 1307.744 4287508857
20.939449 888.07556 1307.744 4290167291
-39.396332 895.77905 1307.6993 4286725737
-37.078899 894.00739 1306.2054 4287510383
11.587156 894.00739 1306.2054 4290299895
13.904587 894.89319 1306.9524 4290430971
16.222019 894.89319 1306.9524 4290365434
-36.961468 899.43909 1305.5532 4287251300
10.395412 899.43909 1305.5532 4290364921
-39.271561 901.2052 1307.0424 4286726251
11.550459 901.2052 1307.0424 4290627578
13.860551 901.2052 1307.0424 4290496506
-39.882568 908.24933 1306.4417 4286068592
-36.814678 907.07666 1305.4529 4286790508
6.9027524 907.95618 1306.1945 4290759929
10.354129 907.95618 1306.1945 4290363880
13.805505 907.95618 1306.1945 4288917211
16.106422 908.83569 1306.936 4286417074
18.407339 908.83569 1306.936 4284310696
-37.813759 914.67212 1305.317 4286472839
6.8752294 914.67212 1305.317 4286743713
10.312843 914.67212 1305.317 4286349218
19.479816 914.67212 1305.317 4287530912
-41.251377 916.42419 1306.7943 4284110196
-37.813759 916.42419 1306.7943 4285096837
6.8752294 916.42419 1306.7943 4286213785
10.312843 916.42419 1306.7943 4285951882
13.750459 916.42419 1306.7943 4285950601
16.042202 916.42419 1306.7943 4286016394
18.333944 916.42419 1306.7943 4286082187
-36.550457 921.76611 1306.0664 4283189873
11.422018 921.76611 1306.0664 4284899194
13.706422 921.76611 1306.0664 4285357947
15.990826 921.76611 1306.0664 4285292153
18.275229 922.63934 1306.8027 4284963187
-37.541283 929.28162 1305.8632 4282863994
10.238532 929.28162 1305.8632 4284766328
13.651376 929.28162 1305.8632 4284766580
15.926605 929.28162 1305.8632 4284700786
18.201836 929.28162 1305.8632 4284634228
-45.504585 931.02106 1307.3298 4282729574
-43.229359 931.02106 1307.3298 4282663781
-40.954128 931.02106 1307.3298 4281942891
11.376146 931.02106 1307.3298 4284504690
13.651376 931.02106 1307.3298 4284700786
15.926605 931.02106 1307.3298 4284700786
18.201836 931.02106 1307.3298 4284569200
-43.089909 934.57031 1305.0902 4282728809
-40.822018 934.57031 1305.0902 4282139500
-38.554127 934.57031 1305.0902 4282797429
11.33945 934.57031 1305.0902 4284634993
15.875229 934.57031 1305.0902 4284634993
18.14312 934.57031 1305.0902 4284371826
-43.089909 936.30408 1306.5521 4282861415
-40.822018 936.30408 1306.5521 4282336863
11.33945 936.30408 1306.5521 4284701036
13.60734 936.30408 1306.5521 4284634993
15.875229 936.30408 1306.5521 4284634993
18.14312 936.30408 1306.5521 4284241267
-37.299084 941.56458 1305.7556 4284770182
13.563303 941.56458 1305.7556 4284634478
15.823853 941.56458 1305.7556 4284634478
18.084404 941.56458 1305.7556 4284372076
-37.299084 943.29285 1307.2128 4283259768
22.605505 943.29285 1307.2128 4284371301
24.866055 943.29285 1307.2128 4284371301
-36.022018 949.82996 1306.1846 4287405780
-38.148624 955.89215 1306.064 4289049314
-38.148624 957.60773 1307.5105 4289443804
-40.227524 964.92554 1307.1404 4289181415
-37.992661 964.07123 1306.4202 4289247208
-35.012844 963.78644 1306.1801 4289377764
-31.288073 963.21692 1305.6998 4289246693
1.1174312 964.07123 1306.4202 4284306806
4.4697247 964.07123 1306.4202 4284043624
7.8220177 964.07123 1306.4202 4284372329
11.174312 964.92554 1307.1404 4284372072
20.113762 963.21692 1305.6998 4284042854
22.348623 963.21692 1305.6998 4284042854
-52.133945 758.26904 1309.4771 4287270071
-49.651375 758.26904 1309.4771 4287602649
-49.431194 767.19928 1309.1587 4286151076
-49.431194 769.08881 1310.7518 4288060868
-46.959633 769.08881 1310.7518 4289376728
-46.78532 773.66138 1308.0671 4289902311
-49.247707 775.54388 1309.6545 4286745796
-46.78532 775.54388 1309.6545 4287666642
-52.744034 781.97083 1308.5333 4286939311
-49.06422 781.97083 1308.5333 4287138755
-46.611008 781.97083 1308.5333 4288322772
-56.423855 783.84631 1310.1147 4286545580
-52.744034 783.84631 1310.1147 4287135918
-49.06422 783.84631 1310.1147 4287727042
-46.611008 783.84631 1310.1147 4289503196
-51.324772 790.23828 1308.9641 4287195794
-48.880733 790.23828 1308.9641 4287984272
-51.324772 792.10675 1310.5396 4287253378
-56.001835 799.39435 1310.144 4286007923
-52.349541 799.39435 1310.144 4286467708
-50.900917 807.16663 1308.8494 4286597240
-50.515594 823.39844 1309.4553 4286599809
-50.322937 831.45123 1309.7051 4286662002
14.278899 845.11249 1309.4515 4291351807
16.658716 845.11249 1309.4515 4291154431
19.038532 845.11249 1309.4515 4291286015
21.418348 845.11249 1309.4515 4291614975
16.658716 846.93188 1310.9856 4291154431
19.038532 846.93188 1310.9856 4291089151
22.608257 846.93188 1310.9856 4291023359
-55.710091 851.23792 1308.0762 4286074226
-52.154129 851.23792 1308.0762 4286466676
-49.783485 851.23792 1308.0762 4286466676
-47.412846 851.23792 1308.0762 4286990200
11.853211 851.23792 1308.0762 4291548415
14.223853 851.23792 1308.0762 4291286015
16.594496 851.23792 1308.0762 4291088895
-55.710091 853.05029 1309.6044 4285877365
-52.154129 853.05029 1309.6044 4286138740
-49.783485 853.05029 1309.6044 4286270326
-47.412846 853.05029 1309.6044 4286925690
11.853211 853.05029 1309.6044 4291154431
14.223853 853.05029 1309.6044 4291023359
16.594496 853.05029 1309.6044 4291154943
18.965137 853.05029 1309.6044 4290958079
-54.313763 860.94598 1309.7217 4285220968
-49.590824 860.04333 1308.9606 4285678442
-47.229359 860.04333 1308.9606 4286200163
-44.867889 859.14062 1308.1995 4286989166
14.168807 859.14062 1308.1995 4291022847
16.530275 859.14062 1308.1995 4291088639
18.891743 860.94598 1309.7217 4290957055
-44.519264 874.8197 1308.3394 4286533242
-46.862385 876.61108 1309.8499 4286204279
-44.519264 876.61108 1309.8499 4286730879
-42.822632 883.30615 1310.2628 4286856813
-39.708256 882.11572 1309.259 4287779450
11.678899 883.00854 1310.0118 4290365179
14.014679 883.00854 1310.0118 4290233338
16.350458 883.00854 1310.0118 4290364668
18.686239 883.00854 1310.0118 4290036210
21.022018 883.00854 1310.0118 4290430711
