# .PCD v0.7 - Point Cloud Data file format
VERSION 0.7
FIELDS x y z rgb
SIZE 4 4 4 4
TYPE F F F U
COUNT 1 1 1 1
WIDTH 1160
HEIGHT 1
VIEWPOINT 0 0 0 1 0 0 0
POINTS 1160
DATA ascii
4.8477063 790.48914 1294.7874 4291017680
7.2715597 790.48914 1294.7874 4291346645
9.6954126 790.48914 1294.7874 4291281874
-43.464222 796.8432 1293.6047 4288766851
-41.049541 796.8432 1293.6047 4289424782
0 796.8432 1293.6047 4290887889
-45.878899 798.68921 1295.1613 4288305003
1.2073394 798.68921 1295.1613 4291084754
14.488073 798.68921 1295.1613 4291084504
-45.704586 805.92767 1294.7244 4288831094
-43.299084 805.00818 1293.9491 4289553521
0.80183488 806.23419 1294.9829 4290952661
4.8110094 806.84717 1295.4998 4291018193
9.6220188 805.92767 1294.7244 4291150545
13.631192 806.23419 1294.9828 4291150801
-45.530273 814.96313 1295.8027 4287776611
-43.133945 814.04712 1295.0303 4288628833
-40.737614 813.1311 1294.2579 4289089638
0.79877681 814.35248 1295.2877 4290821071
14.377981 814.04712 1295.0303 4291216087
-40.58165 821.21198 1294.5314 4289486181
0 821.21198 1294.5314 4290886607
-40.456882 826.91858 1294.111 4288961134
-38.077065 826.91858 1294.111 4289946734
0 826.91858 1294.111 4291018443
14.278899 826.91858 1294.111 4290953425
-40.456882 828.73798 1295.645 4289486965
1.1899083 828.73798 1295.645 4290887629
7.1394496 828.73798 1295.645 4290821834
10.709174 828.73798 1295.645 4290951887
14.278899 828.73798 1295.645 4290689231
-42.671558 835.8327 1295.0869 4288765811
-40.300919 835.8327 1295.0869 4289555327
-37.930275 834.92651 1294.3229 4289420659
-2.3706422 834.92651 1294.3229 4290819786
16.594496 836.73889 1295.851 4290821586
-40.144955 842.89233 1294.4993 4288036939
-37.783485 842.89233 1294.4993 4289023323
-35.42202 842.89233 1294.4993 4289352031
-2.3614678 842.89233 1294.4993 4291214280
-37.636696 850.8161 1294.6403 4289289854
-35.284405 849.01776 1293.1239 4290342281
-31.755962 849.01776 1293.1239 4290143598
-28.227524 849.01776 1293.1239 4290338429
-25.875229 849.01776 1293.1239 4290996102
-22.34679 849.01776 1293.1239 4290206320
-2.3522935 849.91693 1293.8821 4291082955
-35.14679 856.90637 1293.2354 4289947275
-31.632111 856.90637 1293.2354 4290275964
-28.117432 856.90637 1293.2354 4290999436
-4.6862388 856.90637 1293.2354 4290557635
-39.833027 858.69775 1294.7457 4289160301
-37.48991 858.69775 1294.7457 4289354877
-35.14679 858.69775 1294.7457 4290473358
-4.6862388 858.69775 1294.7457 4290753729
-2.3431194 858.69775 1294.7457 4290885058
-39.708256 866.04419 1295.708 4287847014
-37.372478 865.15137 1294.9551 4288432232
-35.036697 865.15137 1294.9551 4289221748
-31.922323 864.85376 1294.7041 4289880937
-28.029358 864.25848 1294.2023 4290933128
-25.693579 864.25848 1294.2023 4290998921
-23.357798 864.25848 1294.2023 4290932096
-7.0073395 864.25848 1294.2023 4290556098
-4.6715598 865.15137 1294.9551 4290490051
-2.3357799 866.04419 1295.708 4290687688
-39.552292 872.06714 1294.2462 4290544795
-37.225689 872.06714 1294.2462 4289629072
-34.899082 872.06714 1294.2462 4290155416
-31.409174 872.06714 1294.2462 4290221209
-4.6532111 872.06714 1294.2462 4290425545
-2.3266056 872.06714 1294.2462 4290425545
-40.715595 873.84589 1295.746 4290084253
-34.899082 873.84589 1295.746 4291664796
-32.572475 873.84589 1295.746 4290943898
0 873.84589 1295.746 4290623939
13.959633 873.84589 1295.746 4290821836
-40.168808 881.01495 1295.2506 4286208584
-37.078899 879.8338 1294.2546 4287319642
-34.761467 880.71967 1295.0016 4287783268
-31.285322 879.8338 1294.2546 4288573025
-25.491743 879.8338 1294.2546 4291667106
-4.6348624 879.8338 1294.2546 4290556361
-2.3174312 879.8338 1294.2546 4290227396
0 881.60553 1295.7485 4290295490
-36.961468 886.19348 1294.3848 4287460712
-34.651375 886.19348 1294.3848 4288184436
-31.571253 885.89911 1294.1366 4287921004
-27.721102 886.19348 1294.3848 4287788652
-25.411009 886.19348 1294.3848 4286867550
-23.100918 885.31042 1293.6403 4289756767
-10.010398 886.48779 1294.6329 4291143860
-6.9302754 886.19348 1294.3848 4291081408
-4.6201835 886.19348 1294.3848 4290558150
-2.3100917 886.19348 1294.3848 4290492357
-28.761467 893.00409 1293.5872 4289237879
-25.310091 893.00409 1293.5872 4289501557
-23.009174 893.00409 1293.5872 4289893495
-19.557798 893.00409 1293.5872 4288245849
-16.106422 893.00409 1293.5872 4290479220
-13.805505 893.00409 1293.5872 4289822603
-10.354128 893.00409 1293.5872 4291208111
-32.212845 894.76312 1295.0704 4288447864
-28.761467 894.76312 1295.0704 4290355584
-25.310091 894.76312 1295.0704 4290355050
-23.009174 894.76312 1295.0704 4289762648
-19.557798 894.76312 1295.0704 4288509007
-16.106422 894.76312 1295.0704 4290347893
-10.354128 894.76312 1295.0704 4291207595
-6.9027524 894.76312 1295.0704 4291079862
-4.6018348 894.76312 1295.0704 4290360002
-2.3009174 894.76312 1295.0704 4290491588
-28.64679 902.40771 1294.9761 4289436841
-25.209175 901.53168 1294.2374 4287922294
-22.917431 901.53168 1294.2374 4288244045
-19.861773 901.23969 1293.9912 4288834649
-16.042202 900.65564 1293.4988 4289357412
-13.750459 901.53168 1294.2374 4288831076
-10.694801 901.23969 1293.9912 4291664032
-6.8752294 901.53168 1294.2374 4291145917
-4.5834861 901.53168 1294.2374 4290425793
-2.291743 902.40771 1294.9761 4290754757
-28.555046 907.79456 1294.2859 4289433245
-25.128441 907.79456 1294.2859 4290353828
-28.555046 909.54102 1295.7584 4287267433
0 909.54102 1295.7584 4288250753
-36.403671 917.10559 1295.5967 4290553506
-34.128441 917.10559 1295.5967 4291540401
-31.85321 916.2359 1294.8633 4288979390
-28.819572 915.94598 1294.6189 4287005844
-25.027523 915.36621 1294.13 4287006844
1.1376147 917.10559 1295.5967 4286803321
-31.750458 920.69971 1293.3949 4290754504
-28.348625 920.69971 1293.3949 4290886093
-24.946789 920.69971 1293.3949 4290425545
-22.6789 920.69971 1293.3949 4289960606
-20.411009 920.69971 1293.3949 4285881183
-6.8036699 920.69971 1293.3949 4289230982
-4.53578 920.69971 1293.3949 4288118911
-40.822018 922.43353 1294.8568 4283579208
-37.420181 922.43353 1294.8568 4283844171
-34.018349 922.43353 1294.8568 4284438100
-31.750458 922.43353 1294.8568 4284766059
0 922.43353 1294.8568 4287067258
-37.675842 928.89111 1295.0695 4285426025
-33.908257 927.73895 1294.0981 4288713883
-31.647707 927.73895 1294.0981 4288059814
-24.866055 927.73895 1294.0981 4286019193
-20.344954 927.73895 1294.0981 4283585383
-9.042202 927.73895 1294.0981 4285684322
-6.7816515 927.73895 1294.0981 4285355357
-4.521101 928.60303 1294.8267 4285092948
-2.2605505 928.60303 1294.8267 4285355864
-33.770641 935.19983 1293.8488 4288059310
-31.519266 935.19983 1293.8488 4288320937
-28.1422 935.19983 1293.8488 4289176496
-24.765137 935.19983 1293.8488 4286150268
-9.0055046 935.19983 1293.8488 4285749348
-6.7541285 935.19983 1293.8488 4285683555
-4.5027523 935.19983 1293.8488 4285617498
-2.2513762 935.19983 1293.8488 4285617498
-33.770641 936.92102 1295.3 4285164668
-31.519266 936.92102 1295.3 4285559679
-29.267889 936.92102 1295.3 4285888388
-4.5027523 936.92102 1295.3 4285551957
-2.2513762 936.92102 1295.3 4285486164
-25.806423 940.4519 1293.045 4284507518
-4.4880733 940.4519 1293.045 4285550935
-33.660549 943.02527 1295.215 4285494391
-31.416513 943.02527 1295.215 4284969334
-29.172478 943.02527 1295.215 4284969590
-26.92844 943.02527 1295.215 4284376447
-4.4880733 942.16748 1294.4917 4285549908
-2.2440367 943.88306 1295.9382 4285550935
-33.522934 949.54834 1294.1748 4283189844
-31.288073 949.54834 1294.1748 4283716692
-29.053211 949.54834 1294.1748 4283387727
-4.4697247 949.54834 1294.1748 4285355609
-35.757797 951.25696 1295.6155 4286350227
-35.640366 955.59302 1294.0394 4289176498
-2.2275229 954.74158 1293.3215 4285355861
-35.522934 961.60974 1293.8804 4288979630
-13.321101 961.60974 1293.8804 4292467690
-11.100918 961.60974 1293.8804 4292007139
-35.522934 963.30707 1295.3115 4289176241
-16.651375 963.30707 1295.3115 4292860374
-13.321101 963.30707 1295.3115 4292795628
-11.100918 963.30707 1295.3115 4293058544
-8.8807335 963.30707 1295.3115 4292531696
-28.766972 968.44415 1294.4109 4289110700
2.4715595 753.9726 1298.0062 4292267234
-51.710091 760.48376 1296.9562 4289897402
4.9247708 760.48376 1296.9562 4292069598
-51.710091 762.36627 1298.5435 4290227650
7.387156 762.36627 1298.5435 4292003805
-51.517429 768.84229 1297.4637 4290161844
-49.06422 768.84229 1297.4637 4290425534
7.359633 768.84229 1297.4637 4291872989
9.8128443 768.84229 1297.4637 4291741923
12.266055 768.84229 1297.4637 4291610081
-48.880733 775.29034 1296.3604 4289765560
-46.436699 775.29034 1296.3604 4290555333
-43.992661 775.29034 1296.3604 4290620355
-41.548622 775.29034 1296.3604 4291278542
2.4440367 775.29034 1296.3604 4292202976
4.8880734 775.29034 1296.3604 4292005340
7.3321099 775.29034 1296.3604 4291742425
9.7761469 775.29034 1296.3604 4291610333
12.220183 775.29034 1296.3604 4291610333
-51.324772 777.15887 1297.9358 4290162877
-48.880733 777.15887 1297.9358 4290162885
-46.436699 777.15887 1297.9358 4291018193
-41.548622 777.15887 1297.9358 4291938784
-48.697247 784.50256 1297.5878 4289633459
-46.262386 784.50256 1297.5878 4290752197
-43.827522 784.50256 1297.5878 4290883784
-41.392662 784.50256 1297.5878 4292068314
-38.957798 783.57184 1296.803 4293187565
1.6232415 784.19232 1297.3262 4291544280
4.8697248 784.50256 1297.5878 4291478998
7.3045874 784.50256 1297.5878 4291478998
9.7394495 784.50256 1297.5878 4291478995
12.174312 784.50256 1297.5878 4291676374
-48.477066 793.26868 1297.131 4288704910
-46.053211 793.26868 1297.131 4289494683
-43.629356 792.34216 1296.3497 4291274428
-41.205505 792.34216 1296.3497 4293050583
1.6159021 792.9599 1296.8706 4291085011
4.8477063 793.26868 1297.131 4291150036
7.2715597 793.26868 1297.131 4291216085
9.6954126 793.26868 1297.131 4291215829
-48.293579 800.53528 1296.7178 4287976552
-45.878899 800.53528 1296.7178 4288766068
1.2073394 800.53528 1296.7178 4291412438
4.8293576 800.53528 1296.7178 4291215827
7.2440367 800.53528 1296.7178 4291215827
9.6587152 800.53528 1296.7178 4291084754
13.280734 800.53528 1296.7178 4291018962
-49.500916 802.38135 1298.2743 4287846248
2.4146788 802.38135 1298.2743 4291149784
4.8293576 802.38135 1298.2743 4291083987
7.2440367 802.38135 1298.2743 4291215829
12.073395 802.38135 1298.2743 4291676632
-48.110092 808.68622 1297.0503 4288369002
-45.704586 808.68622 1297.0503 4288960882
2.4055047 808.68622 1297.0503 4290755539
4.8110094 808.68622 1297.0503 4290953422
7.2165136 808.68622 1297.0503 4291348180
9.6220188 808.68622 1297.0503 4291084752
12.027523 808.68622 1297.0503 4290887629
-48.110092 810.52527 1298.601 4287841885
-45.704586 810.52527 1298.601 4287973472
2.4055047 810.52527 1298.601 4290755791
4.8110094 810.52527 1298.601 4291018447
7.2165136 810.52527 1298.601 4291018447
9.6220188 810.52527 1298.601 4290755530
12.027523 810.52527 1298.601 4291150032
-46.329052 818.01642 1298.3772 4288304237
-43.133945 817.71118 1298.1198 4289157220
1.5975536 817.40582 1297.8623 4290886094
4.7926607 817.71118 1298.1198 4290821584
7.1889906 818.62714 1298.8921 4291347928
10.384098 818.01642 1298.3772 4291018710
14.377981 817.71118 1298.1198 4291084756
-45.355965 824.862 1297.609 4288765818
-42.968807 823.94946 1296.8396 4289158507
1.5914373 823.64532 1296.5831 4291018446
4.774312 823.94946 1296.8396 4290887116
7.161468 823.94946 1296.8396 4291281874
10.742202 823.94952 1296.8396 4290952916
14.322936 823.03699 1296.0702 4291084500
-42.836697 830.55737 1297.1791 4288633714
1.1899083 830.55737 1297.1791 4290756041
7.1394496 830.55737 1297.1791 4290755789
11.899082 830.55737 1297.1791 4290755791
14.278899 830.55737 1297.1791 4290821332
-45.216515 832.37677 1298.7131 4287847794
1.1899083 832.37677 1298.7131 4290492101
14.278899 832.37677 1298.7131 4290821586
-42.671558 838.55127 1297.3792 4288497238
-40.300919 838.55127 1297.3792 4288694873
0 838.55127 1297.3792 4290950853
16.594496 838.55127 1297.3792 4290690768
-54.524769 840.36365 1298.9072 4286464857
-45.042202 840.36365 1298.9072 4287317847
-42.671558 840.36365 1298.9072 4288102732
0 840.36365 1298.9072 4290952139
16.594496 840.36365 1298.9072 4290755791
-40.144955 844.69769 1296.0215 4288369502
-37.783485 844.69769 1296.0215 4289089640
-42.50642 846.50305 1297.5438 4288568164
-40.144955 846.50305 1297.5438 4288896872
-37.783485 846.50305 1297.5438 4289289850
-39.988991 852.61444 1296.1565 4288701028
-37.636696 853.51361 1296.9147 4288960635
-28.227524 852.61444 1296.1565 4291131024
-2.3522935 853.51361 1296.9147 4290886088
-39.833027 860.48901 1296.2561 4288500059
-37.48991 860.48901 1296.2561 4289023861
-35.14679 860.48901 1296.2561 4290471564
-4.6862388 860.48901 1296.2561 4290752709
-39.833027 862.2804 1297.7666 4288106327
-2.3431194 862.2804 1297.7666 4290687686
-42.822632 869.02045 1298.2174 4288505723
-39.708256 867.82996 1297.2136 4288964987
-35.036697 867.82996 1297.2136 4288306539
-4.6715598 867.82996 1297.2136 4290359237
-2.3357799 867.82996 1297.2136 4290622152
0 869.61566 1298.7192 4290227648
11.678899 869.61566 1298.7192 4290689994
14.014679 869.61566 1298.7192 4290755789
-40.715595 875.62457 1297.2457 4287845734
-34.899082 875.62457 1297.2457 4289881708
0 875.62457 1297.2457 4290623941
-41.878899 877.40332 1298.7455 4286599752
1.1633028 877.40332 1298.7455 4290755525
-40.555046 883.3772 1297.2424 4286606415
0 883.3772 1297.2424 4290164672
-40.555046 885.14893 1298.7362 4287462489
0 885.14893 1298.7362 4290230978
-36.961468 888.84259 1296.6185 4288316015
-34.651375 889.72559 1297.363 4289432953
-32.341286 889.72559 1297.363 4288908398
-9.2403669 888.84259 1296.6185 4290883516
-6.9302754 889.72559 1297.363 4291146431
-4.6201835 889.72559 1297.363 4290360768
-2.3100917 889.72559 1297.363 4290492098
-32.212845 896.52222 1296.5536 4286404697
-28.761467 896.52222 1296.5536 4288772710
-25.310091 896.52222 1296.5536 4290482793
-23.009174 896.52222 1296.5536 4290090347
-19.557798 896.52222 1296.5536 4288705365
-4.6018348 896.52222 1296.5536 4290425795
-2.3009174 896.52222 1296.5536 4290754504
-39.115597 898.28125 1298.0369 4286803600
-36.814678 898.28125 1298.0369 4286802315
-34.51376 898.28125 1298.0369 4288315554
-32.212845 898.28125 1298.0369 4287723907
-28.761467 898.28125 1298.0369 4287592045
-2.3009174 898.28125 1298.0369 4291017930
-37.813759 905.91187 1297.9307 4284697668
-34.376148 905.03583 1297.192 4287986553
-32.084404 905.03583 1297.192 4288710815
-28.64679 904.15979 1296.4534 4290290113
-2.291743 904.15979 1296.4534 4291148489
1.1458715 905.91187 1297.9307 4289105817
-36.550457 911.28748 1297.231 4286149486
-34.266056 911.28748 1297.231 4286346609
-31.981651 911.28748 1297.231 4286283148
1.1422018 911.28748 1297.231 4286011738
-41.119267 913.03394 1298.7036 4288908956
-37.692657 913.03394 1298.7036 4288318085
-34.266056 913.03394 1298.7036 4289569162
1.1422018 913.03394 1298.7036 4285683543
-43.229359 920.58447 1298.5299 4282860872
-40.954128 918.84503 1297.0632 4286476123
-37.541283 918.84503 1297.0632 4288911231
-34.128441 918.84503 1297.0632 4290819997
1.5168196 919.4248 1297.5521 4287856774
4.5504589 919.71472 1297.7966 4287135881
-43.089909 925.90118 1297.7806 4282992201
-40.822018 925.0343 1297.0497 4283319116
-37.042202 924.7453 1296.806 4284766053
0 924.16736 1296.3187 4286211168
4.53578 925.90118 1297.7806 4285683277
-37.299084 932.05945 1297.7411 4285164138
1.1302752 932.92358 1298.4697 4285683540
4.521101 932.92358 1298.4697 4285551957
6.7816515 932.92358 1298.4697 4285617750
9.042202 932.92358 1298.4697 4285551187
-36.022018 938.64221 1296.7512 4283257954
-33.770641 938.64221 1296.7512 4284310385
-31.519266 938.64221 1296.7512 4284310385
-29.267889 938.64221 1296.7512 4284968572
-2.2513762 938.64221 1296.7512 4285682521
-36.022018 940.3634 1298.2025 4284377452
-2.2513762 940.3634 1298.2025 4285813080
-34.78257 946.45642 1298.108 4283780953
-31.416513 945.59863 1297.3848 4285751400
-2.2440367 946.45642 1298.108 4285354840
2.2440367 947.31421 1298.8313 4284961103
-37.992661 952.96552 1297.056 4288781988
-40.227524 954.67407 1298.4967 4289045425
-37.992661 954.67407 1298.4967 4289571770
0 954.67407 1298.4967 4285224019
-40.095413 959.85046 1297.6292 4289174956
-37.867889 958.99896 1296.9111 4289504435
0.74250764 959.28278 1297.1505 4284830800
-37.743118 965.00439 1296.7427 4289241775
-35.522934 965.00439 1296.7427 4289176495
-24.422018 965.00439 1296.7427 4289044131
-22.201836 965.00439 1296.7427 4288780454
-19.981651 965.00439 1296.7427 4288714405
-17.761467 965.00439 1296.7427 4288780454
-7.7706423 965.00439 1296.7427 4290031819
-4.4403667 965.00439 1296.7427 4286146917
-2.2201834 965.00439 1296.7427 4284897107
-34.412842 966.70178 1298.1738 4288716204
-31.082569 966.70178 1298.1738 4288781736
-25.53211 966.70178 1298.1738 4289175210
-6.6605506 966.70178 1298.1738 4288649645
-4.4403667 966.70178 1298.1738 4286475900
-2.2201834 966.70178 1298.1738 4284304732
-66.385323 973.51935 1298.6902 4289242287
-64.172478 973.51935 1298.6902 4289242287
-54.374313 755.86212 1299.5995 4289237419
-51.902752 755.86212 1299.5995 4290158521
-54.374313 757.75165 1301.1926 4288844458
7.4146791 757.75165 1301.1926 4292069598
-51.710091 764.24878 1300.1307 4289834941
7.387156 764.24878 1300.1307 4291938012
9.8495417 764.24878 1300.1307 4291676128
-51.517429 770.71783 1299.0452 4289830062
7.359633 770.71783 1299.0452 4291742938
9.8128443 770.71783 1299.0452 4291610335
12.266055 770.71783 1299.0452 4291676128
-52.744034 772.59332 1300.6265 4289041327
-51.324772 779.02734 1299.5114 4290688188
-48.880733 779.02734 1299.5114 4290818250
-46.436699 779.02734 1299.5114 4291871194
-41.548622 779.02734 1299.5114 4292397802
-52.546791 780.89581 1301.0868 4289306280
-51.132111 787.2948 1299.942 4288847783
-48.697247 787.2948 1299.942 4288976300
-46.262386 787.2948 1299.942 4289831609
-52.349541 789.15625 1301.5116 4289302923
-50.092968 796.66602 1299.9955 4287517019
4.8477063 796.04828 1299.4746 4291150547
7.2715597 796.04828 1299.4746 4291216340
9.6954126 796.04828 1299.4746 4291150549
12.119267 796.04828 1299.4746 4291413722
-49.903362 804.84271 1300.3496 4287977063
7.2440367 804.22736 1299.8308 4291281622
-57.732109 812.36426 1300.1516 4286137162
-49.312843 812.36426 1300.1516 4287514208
4.8110094 812.36426 1300.1516 4290755789
7.2165136 812.36426 1300.1516 4290755789
9.6220188 812.36426 1300.1516 4290689481
12.027523 812.36426 1300.1516 4291150032
-60.137615 814.20331 1301.7021 4285810514
-57.732109 814.20331 1301.7021 4286400590
-55.326607 814.20331 1301.7021 4286597713
-52.921101 814.20331 1301.7021 4287122012
-49.312843 814.20331 1301.7021 4287778404
7.2165136 814.20331 1301.7021 4290821584
12.027523 814.20331 1301.7021 4291216342
-46.728439 820.45917 1300.4368 4288107373
-57.511925 822.2912 1301.9814 4286400852
-55.115597 822.2912 1301.9814 4286598231
-52.719265 822.2912 1301.9814 4286990942
-50.322937 822.2912 1301.9814 4287056735
-47.926605 822.2912 1301.9814 4287581544
-45.355965 826.68701 1299.1478 4288239471
-42.968807 826.68701 1299.1478 4288631656
4.774312 826.68701 1299.1478 4290690248
-57.291744 828.51196 1300.6866 4286400852
-46.549541 828.51196 1300.6866 4287780973
4.774312 828.51196 1300.6866 4290624203
9.548624 828.51196 1300.6866 4290821584
-58.305504 836.0155 1301.7812 4285414724
-54.735779 836.0155 1301.7812 4286728797
-46.009785 835.409 1301.2699 4287778913
1.5865444 834.80255 1300.7584 4291017671
4.7596331 836.0155 1301.7812 4290689733
7.1394496 835.10583 1301.0142 4290952904
10.709173 835.10583 1301.0142 4290821584
14.278899 835.10583 1301.0142 4290690512
-59.266056 842.17603 1300.4354 4285940801
-55.710091 842.17603 1300.4354 4286400084
-52.154129 842.17603 1300.4354 4286926164
-49.783485 842.17603 1300.4354 4286991957
-46.227524 842.17603 1300.4354 4287844702
-42.671558 842.17603 1300.4354 4288500831
1.1853211 842.17603 1300.4354 4290755530
16.594496 842.17603 1300.4354 4290624203
-59.266056 843.9884 1301.9636 4285613900
-55.710091 843.9884 1301.9636 4286467160
-52.154129 843.9884 1301.9636 4286927698
-49.783485 843.9884 1301.9636 4286861904
-46.227524 843.9884 1301.9636 4287976806
1.1853211 843.9884 1301.9636 4290754758
16.594496 843.9884 1301.9636 4290689483
-47.229359 848.30841 1299.066 4287451745
-43.687157 848.30841 1299.066 4288240741
-40.144955 848.30841 1299.066 4288701028
-49.590824 850.11377 1300.5883 4287060051
-47.229359 850.11377 1300.5883 4287517790
-43.687157 850.11377 1300.5883 4288175202
-42.341286 856.21118 1299.1892 4288436321
-42.341286 858.00952 1300.7056 4288368216
-2.3522935 858.00952 1300.7056 4290818502
-43.738224 864.66888 1299.7804 4288636533
1.1715597 864.96735 1300.0322 4290491588
4.6862388 865.86304 1300.7874 4290557892
11.715596 865.86304 1300.7874 4290689994
14.058716 864.96741 1300.0322 4290756043
-44.379818 871.40137 1300.225 4288377733
2.3357799 871.40137 1300.225 4290689733
4.6715598 871.40137 1300.225 4290557892
7.0073395 871.40137 1300.225 4290623941
10.511009 871.40137 1300.225 4290624203
-44.379818 873.18713 1301.7306 4285812574
2.3357799 873.18713 1301.7306 4290755528
4.6715598 873.18713 1301.7306 4290230467
7.0073395 873.18713 1301.7306 4290493383
10.511009 873.18713 1301.7306 4290690250
14.014679 873.18713 1301.7306 4290822095
16.350458 873.18713 1301.7306 4290887889
-44.205505 880.07135 1300.9951 4286474319
2.3266056 880.07135 1300.9951 4290493381
4.6532111 880.96069 1301.745 4290296522
9.3064222 880.07135 1300.9951 4290624972
-40.555046 886.92059 1300.2301 4287593291
0 886.92059 1300.2301 4290362050
-40.555046 888.69226 1301.7239 4286078269
-37.078899 888.69226 1301.7239 4288049245
0 888.69226 1301.7239 4290361796
-39.271561 892.37476 1299.5967 4285683527
-36.961468 892.37476 1299.5967 4285683027
-34.651375 892.37476 1299.5967 4287985526
-40.426605 894.14087 1301.0858 4286803834
-36.961468 894.14087 1301.0858 4284830812
-34.651375 894.14087 1301.0858 4285093984
1.1550459 894.14087 1301.0858 4290427076
-43.71743 901.79944 1301.0032 4283714128
-40.266056 900.91986 1300.2616 4284237396
-36.814678 900.91992 1300.2616 4286537063
-34.51376 900.04034 1299.52 4290878383
-32.212845 900.04034 1299.52 4290818243
2.3009174 901.79944 1301.0032 4291214280
-41.251377 907.66394 1299.408 4285881683
-37.813759 907.66394 1299.408 4285159499
-34.376148 907.66394 1299.408 4284371011
-32.084404 907.66394 1299.408 4285491554
2.291743 907.66394 1299.408 4288184960
-43.543118 909.41602 1300.8851 4289171867
-41.251377 909.41602 1300.8851 4288450456
-38.959633 909.41602 1300.8851 4286805887
4.5834861 909.41602 1300.8851 4285749333
-43.403671 914.78033 1300.1761 4285753204
-41.119267 914.78033 1300.1761 4287459463
-38.834862 914.78033 1300.1761 4288578201
4.5688071 914.78033 1300.1761 4286675583
10.279816 914.78033 1300.1761 4286610039
-43.403671 916.52679 1301.6487 4284570204
6.8532109 916.52679 1301.6487 4287201423
10.279816 916.52679 1301.6487 4287333513
-43.229359 922.32391 1299.9966 4282860872
2.2752295 922.32391 1299.9966 4286079326
4.5504589 922.32391 1299.9966 4285948246
6.8256879 922.32391 1299.9966 4285816660
10.238532 922.32391 1299.9966 4286013521
-45.504585 924.06335 1301.4633 4283057994
1.1376147 924.06335 1301.4633 4285355605
6.8256879 924.06335 1301.4633 4285749070
10.238532 924.06335 1301.4633 4286010958
-43.089909 928.50189 1299.9735 4284832865
-40.822018 928.50189 1299.9735 4284373324
1.133945 928.50183 1299.9735 4285552216
4.53578 928.50189 1299.9735 4285551957
6.8036699 928.50189 1299.9735 4285551957
10.205505 928.50189 1299.9735 4285617493
-37.299084 934.65179 1299.9269 4283781980
1.1302752 934.65179 1299.9269 4285551187
4.521101 934.65179 1299.9269 4285288015
6.7816515 934.65179 1299.9269 4285288015
-42.950459 936.38 1301.384 4282991951
-40.689907 936.38 1301.384 4282730076
-38.429359 936.38 1301.384 4283519592
1.1302752 936.38 1301.384 4285551187
4.521101 936.38 1301.384 4285353812
9.042202 936.38 1301.384 4285484367
-37.147705 942.94519 1300.3794 4284504675
1.1256881 942.94519 1300.3794 4285289036
-43.758713 950.74536 1301.7244 4287729547
-40.392662 950.74536 1301.7244 4288781988
-38.148624 949.02979 1300.2778 4286807695
1.1220183 950.74536 1301.7244 4284961365
-43.579819 956.38263 1299.9373 4288780970
-40.227524 956.38263 1299.9373 4289109935
2.2348623 956.38263 1299.9373 4284961364
-49.166973 958.09119 1301.3779 4289701291
-46.93211 958.09119 1301.3779 4289701291
-43.579819 958.09119 1301.3779 4289569450
4.4697247 958.09119 1301.3779 4285093203
6.704587 958.09119 1301.3779 4285158996
-43.436699 961.55334 1299.0651 4289372841
-40.095413 961.55334 1299.0651 4289241775
-37.867889 961.55334 1299.0651 4289175982
1.1137614 961.55334 1299.0651 4285291081
4.4550457 961.55334 1299.0651 4285159250
-55.688072 964.95929 1301.9368 4289110446
-52.718044 963.82397 1300.9796 4288979375
-43.436699 964.10779 1301.2189 4289175987
-40.095413 964.10779 1301.2189 4289110703
-37.867889 964.95929 1301.9368 4288979630
-22.275229 964.95929 1301.9368 4288715177
-20.047707 964.95929 1301.9368 4288649384
-16.335167 964.3916 1301.4581 4288846761
-13.365138 964.10779 1301.2189 4289833650
-11.137614 964.10779 1301.2189 4291741647
-8.9100914 964.95929 1301.9368 4291544538
0.74250764 963.82397 1300.9796 4285158730
4.4550457 963.25635 1300.501 4284961101
-54.374313 760.58594 1303.5825 4288912814
9.8862381 759.64117 1302.7859 4291938784
-55.403671 768.95508 1304.0989 4288316570
-56.423855 775.40662 1302.9985 4288713892
-53.970642 775.40662 1302.9985 4288977830
-56.212845 782.76428 1302.6622 4287859850
-52.546791 782.76428 1302.6622 4288911007
-56.212845 784.63281 1304.2377 4287137676
-53.768806 784.63281 1304.2377 4287729045
-52.349541 791.0177 1303.0812 4287189852
-56.001835 792.87921 1304.6508 4286006609
-53.566971 792.87921 1304.6508 4287254612
-53.324772 799.75439 1302.5996 4287518304
-53.324772 801.60742 1304.162 4287123805
-55.537613 809.7655 1304.5005 4286137162
-53.122936 809.7655 1304.5005 4286857305
-50.708256 807.91943 1302.9438 4287384415
-60.939449 817.26837 1304.2865 4285811278
-57.732109 816.96185 1304.0281 4286335059
-55.326607 816.96185 1304.0281 4286598231
-52.921101 816.96185 1304.0281 4287056476
-50.515594 816.96185 1304.0281 4287122269
-58.710091 824.12317 1303.5262 4286139214
-55.115597 824.12317 1303.5262 4286795609
-52.719265 824.12317 1303.5262 4287254112
-50.322937 824.12317 1303.5262 4287319905
-47.926605 824.12317 1303.5262 4287647591
-62.066055 830.33698 1302.2253 4285417289
-57.291744 830.33698 1302.2253 4286270036
-54.904587 830.33698 1302.2253 4286664793
-52.517429 830.33698 1302.2253 4286203729
-50.130276 830.33698 1302.2253 4287256160
-47.743118 830.33698 1302.2253 4287321450
4.774312 830.33698 1302.2253 4290164674
7.161468 830.33698 1302.2253 4290625225
10.742202 830.33698 1302.2253 4290821586
-57.291744 832.16199 1303.7642 4286204242
-54.904587 832.16199 1303.7642 4286862173
-52.517429 832.16199 1303.7642 4286993491
-50.130276 832.16199 1303.7642 4287322455
-47.743118 832.16199 1303.7642 4287780454
4.774312 832.16199 1303.7642 4290755526
-58.305504 837.8349 1303.3153 4285677383
-52.355965 837.8349 1303.3153 4286794583
-49.976147 837.8349 1303.3153 4286925912
-47.596329 837.8349 1303.3153 4287317847
2.3798165 837.8349 1303.3153 4290886346
4.7596331 838.74463 1304.0823 4290690247
7.1394496 838.74463 1304.0823 4290756040
10.709173 838.74463 1304.0823 4290623690
14.278899 838.74463 1304.0823 4290755790
-61.636696 845.80078 1303.4917 4285679691
-59.266056 845.80078 1303.4917 4285811533
-55.710091 845.80078 1303.4917 4286074199
-52.154129 845.80078 1303.4917 4286664789
-49.783485 845.80078 1303.4917 4286730839
1.1853211 845.80078 1303.4917 4290951369
4.7412844 845.80078 1303.4917 4290426047
7.1119266 845.80078 1303.4917 4290820549
-49.590824 851.91919 1302.1105 4287125858
-47.229359 851.91919 1302.1105 4287517790
-43.687157 851.91919 1302.1105 4288109409
-40.144955 851.91919 1302.1105 4288503650
1.1807339 851.91919 1302.1105 4290688969
-49.590824 853.72449 1303.6327 4287256412
-47.229359 853.72449 1303.6327 4287517790
-44.867889 853.72449 1303.6327 4287912548
1.1807339 853.72449 1303.6327 4290820037
-43.517433 859.80786 1302.2218 4287712859
1.1761467 859.80786 1302.2218 4290622404
4.704587 859.80786 1302.2218 4290689735
4.704587 861.6062 1303.7382 4290756043
7.056881 861.6062 1303.7382 4290624201
10.585321 861.6062 1303.7382 4290427596
-46.862385 869.44574 1303.8081 4287062129
2.3431194 867.65442 1302.2977 4290425028
4.6862388 867.65442 1302.2977 4290293439
7.0293579 867.65442 1302.2977 4290820040
9.3724775 867.65442 1302.2977 4290624201
-46.715595 874.97284 1303.2363 4285222222
-44.379818 874.97284 1303.2363 4284893257
4.6715598 874.97284 1303.2363 4290690246
7.0073395 874.97284 1303.2363 4290690246
10.511009 874.97284 1303.2363 4290559178
14.014679 874.97284 1303.2363 4290691020
16.350458 874.97284 1303.2363 4290691020
-46.715595 876.75854 1304.7419 4286013775
4.6715598 876.75854 1304.7419 4290625225
7.0073395 876.75854 1304.7419 4290625225
11.678899 876.75854 1304.7419 4290624971
14.014679 876.75854 1304.7419 4290494670
-46.532108 883.62878 1303.9946 4286671693
-44.205505 883.62878 1303.9946 4286935122
2.3266056 883.62878 1303.9946 4290493893
4.6532111 884.51813 1304.7445 4290362315
6.9798164 884.51813 1304.7445 4290757073
9.3064222 883.62878 1303.9946 4290690507
-41.71376 890.46399 1303.2178 4285749320
1.1587156 890.46399 1303.2178 4290624453
-44.031193 892.23566 1304.7117 4287132799
4.6348624 892.23566 1304.7117 4290492869
6.9522934 892.23566 1304.7117 4290492869
-41.58165 895.90692 1302.575 4287264151
1.1550459 895.90692 1302.575 4290360770
-46.201836 897.67303 1304.0641 4285553000
-43.891743 897.67303 1304.0641 4284566105
1.1550459 897.67303 1304.0641 4290294722
4.6201835 897.67303 1304.0641 4290754755
6.9302754 897.67303 1304.0641 4290623426
-48.319267 905.31757 1303.9696 4285290355
-46.018349 905.31757 1303.9696 4285685594
-43.71743 904.43799 1303.228 4284569172
-41.416515 903.55847 1302.4865 4284960322
4.6018348 904.43799 1303.228 4288513418
6.9027524 904.43799 1303.228 4288513418
-45.834862 911.16803 1302.3624 4287659396
-43.543118 911.16803 1302.3624 4289303964
4.5834861 911.16803 1302.3624 4285356374
6.8752294 911.16803 1302.3624 4286014305
-48.126606 912.92004 1303.8397 4283517250
-45.834862 912.92004 1303.8397 4283845207
6.8752294 912.92004 1303.8397 4286609789
-45.688072 919.14648 1303.8574 4282992201
6.8532109 918.27325 1303.1212 4286609789
10.279816 918.27325 1303.1212 4286280304
-45.504585 925.80273 1302.9298 4283648848
-50.055046 927.54224 1304.3965 4283649882
-45.504585 927.54224 1304.3965 4283977300
-45.3578 932.83643 1303.6283 4282792776
-43.089909 931.96954 1302.8973 4284043096
-40.822018 931.96954 1302.8973 4283715400
10.583488 932.25848 1303.141 4285551187
-42.950459 938.10822 1302.8412 4284440166
-40.689907 938.10822 1302.8412 4284244072
-38.429359 938.10822 1302.8412 4284638573
1.1302752 938.10822 1302.8412 4285683277
4.521101 938.10822 1302.8412 4285419858
-42.950459 939.83643 1304.2983 4284834655
-40.689907 939.83643 1304.2983 4284899948
4.521101 939.83643 1304.2983 4285419858
6.7816515 939.83643 1304.2983 4285419858
-45.027523 947.24817 1304.0076 4284899946
-42.776146 947.24817 1304.0076 4285952634
-40.524769 947.24817 1304.0076 4286347144
-38.273396 945.52698 1302.5563 4283055444
0.75045872 946.6745 1303.5238 4284895567
-43.758713 952.461 1303.1709 4288386975
2.2440367 952.461 1303.1709 4285158226
-47.124771 954.17657 1304.6174 4288714405
4.4880733 954.17657 1304.6174 4285027156
-49.166973 959.7998 1302.8186 4289439402
-46.93211 959.7998 1302.8186 4289373352
6.704587 959.7998 1302.8186 4285159250
-49.166973 961.50836 1304.2592 4289308595
-46.93211 961.50836 1304.2592 4289045423
6.704587 961.50836 1304.2592 4285158224
-60.14312 968.36523 1304.8086 4289109933
-57.915596 967.51379 1304.0906 4289176495
-37.867889 966.66229 1303.3727 4289110700
-34.526604 967.51379 1304.0906 4288585384
-31.185322 967.51379 1304.0906 4288716708
-28.957798 967.51379 1304.0906 4288914087
-25.616514 966.66229 1303.3727 4289175980
-11.137614 966.66229 1303.3727 4288980134
-7.425077 967.22998 1303.8512 4288913077
-4.4550457 966.66229 1303.3727 4287463300
-2.2275229 966.66229 1303.3727 4284502358
9.930275 754.47314 1306.2765 4291938782
-58.340366 756.37109 1307.8767 4287989403
-55.610092 763.42023 1305.9723 4289568419
-56.845871 765.30975 1307.5654 4288447122
-59.097248 771.77887 1306.4799 4287201423
-63.783485 778.21985 1305.3706 4285951351
-61.330276 778.21985 1305.3706 4287004295
-58.877064 778.21985 1305.3706 4287463559
-56.423855 778.21985 1305.3706 4288911005
-61.330276 780.09534 1306.952 4286937735
-58.877064 780.09534 1306.952 4286807162
-64.766968 786.50128 1305.8131 4286278765
-61.100918 787.43555 1306.6008 4286736489
-58.656879 787.43555 1306.6008 4286998646
-56.212845 787.43555 1306.6008 4286998646
-56.001835 794.74066 1306.2202 4286533723
-53.566971 794.74066 1306.2202 4287584347
-63.306423 796.60217 1307.7898 4285874006
-60.871559 796.60217 1307.7898 4286466143
-58.436699 796.60217 1307.7898 4286402137
-56.001835 796.60217 1307.7898 4286862688
-60.596329 803.46051 1305.7245 4285811279
-58.172478 803.46051 1305.7245 4286203736
-55.748623 803.46051 1305.7245 4286730337
-53.324772 803.46051 1305.7245 4287385437
-58.172478 805.3136 1307.2869 4286203475
-55.748623 805.3136 1307.2869 4286071889
-53.324772 805.3136 1307.2869 4286726741
-60.137615 819.7204 1306.354 4285811783
-59.908257 826.87122 1305.8433 4285614412
-55.115597 825.9552 1305.0709 4286927196
-52.719265 825.9552 1305.0709 4286860637
-50.322937 825.9552 1305.0709 4287321188
-52.517429 833.987 1305.303 4286927194
-50.130276 833.987 1305.303 4286664278
4.7596331 841.47369 1306.3834 4290623939
7.1394496 841.47369 1306.3834 4291084490
10.709174 841.47369 1306.3834 4290623688
14.278899 841.47369 1306.3834 4290755276
10.709174 843.29309 1307.9175 4290688711
14.278899 843.29309 1307.9175 4290820299
16.658716 843.29309 1307.9175 4290754506
-59.266056 847.61316 1305.0199 4285811533
-55.710091 847.61316 1305.0199 4285877077
-52.154129 847.61316 1305.0199 4286994258
1.1853211 847.61316 1305.0199 4290886348
4.7412844 847.61316 1305.0199 4290755526
7.1119266 847.61316 1305.0199 4290887111
-59.266056 849.42554 1306.5481 4285811279
-55.710091 849.42554 1306.5481 4285876820
-52.154129 849.42554 1306.5481 4286994272
4.7412844 849.42554 1306.5481 4290755526
7.1119266 849.42554 1306.5481 4290887111
10.667891 849.42554 1306.5481 4290491847
14.223853 849.42554 1306.5481 4290755789
16.594496 849.42554 1306.5481 4290821582
-49.590824 856.43256 1305.916 4286860121
-47.229359 856.43256 1305.916 4287121753
-44.867889 855.52991 1305.1549 4287450460
1.1807339 855.52991 1305.1549 4290817732
4.7229357 855.52991 1305.1549 4290491588
7.0844035 856.43256 1305.916 4290886601
9.4458714 856.43256 1305.916 4290755789
14.168807 856.43256 1305.916 4290820810
7.056881 863.40454 1305.2545 4290623941
9.409174 863.40454 1305.2545 4290624201
-47.045872 865.20288 1306.7708 4287454835
-46.862385 871.23706 1305.3186 4285418072
-46.715595 878.54431 1306.2477 4286803277
7.0073395 878.54431 1306.2477 4290559693
11.678899 878.54431 1306.2477 4290690766
14.014679 878.54431 1306.2477 4290822095
16.350458 878.54431 1306.2477 4290690766
-52.555046 880.33002 1307.7534 4285881431
-49.051376 880.33002 1307.7534 4286804057
4.6715598 880.33002 1307.7534 4290034119
7.0073395 880.33002 1307.7534 4290428877
11.678899 880.33002 1307.7534 4290691020
14.014679 880.33002 1307.7534 4290953422
16.350458 880.33002 1307.7534 4290953422
-46.532108 886.29688 1306.2443 4284104481
-44.205505 886.29688 1306.2443 4285025583
2.3266056 886.29688 1306.2443 4290427589
4.6532111 886.29688 1306.2443 4289902018
6.9798164 886.29688 1306.2443 4290296776
9.3064222 886.29688 1306.2443 4290689481
-46.532108 888.07556 1307.744 4284300872
-44.205505 888.07556 1307.744 4285221974
4.6532111 888.07556 1307.744 4290492872
6.9798164 888.07556 1307.744 4290492872
-49.438534 895.18848 1307.2013 4286669922
-46.348625 894.00739 1306.2054 4287132801
-44.031193 894.00739 1306.2054 4287198595
4.6348624 894.00739 1306.2054 4290557892
6.9522934 894.00739 1306.2054 4290623941
-49.666969 899.43909 1305.5532 4285160279
-46.201836 899.43909 1305.5532 4283977300
0 899.43909 1305.5532 4290951107
4.6201835 899.43909 1305.5532 4291016901
6.9302754 899.43909 1305.5532 4290951107
-49.666969 901.2052 1307.0424 4283979101
-46.201836 901.2052 1307.0424 4282860870
10.395412 901.2052 1307.0424 4288909208
-49.086239 908.24933 1306.4417 4285487438
-46.018349 907.07666 1305.4529 4287921800
6.9027524 907.07666 1305.4529 4286078299
10.354128 907.95618 1306.1945 4285357143
-48.126606 914.67212 1305.317 4282992201
-45.834862 914.67212 1305.317 4283385931
-48.126606 916.42419 1306.7943 4282729543
-50.256882 923.51257 1307.5389 4283781468
-47.972477 922.63934 1306.8027 4283451988
13.706422 923.51257 1307.5389 4285749333
-50.055046 929.28162 1305.8632 4283846232
-45.504585 929.28162 1305.8632 4283780434
13.651376 929.28162 1305.8632 4285815628
15.926605 929.28162 1305.8632 4285749835
-47.779816 931.02106 1307.3298 4283516499
13.651376 931.02106 1307.3298 4285420106
15.926605 931.02106 1307.3298 4285420106
-45.3578 934.57031 1305.0902 4283057744
6.8036699 934.57031 1305.0902 4285288019
11.33945 934.57031 1305.0902 4285681490
-49.893578 936.30408 1306.5521 4283781468
-46.491745 936.30408 1306.5521 4284176481
6.8036699 936.30408 1306.5521 4285288015
10.205505 936.30408 1306.5521 4285813332
15.875229 936.30408 1306.5521 4285353812
-42.950459 941.56458 1305.7556 4283123787
-40.689907 941.56458 1305.7556 4283582805
4.521101 941.56458 1305.7556 4285420369
6.7816515 941.56458 1305.7556 4285420369
-45.21101 943.29285 1307.2128 4282465094
-42.950459 943.29285 1307.2128 4282530887
-40.689907 943.29285 1307.2128 4283055444
4.521101 943.29285 1307.2128 4284961101
4.5027523 950.69055 1306.9102 4285223506
6.7541285 950.69055 1306.9102 4285223506
11.220183 955.89215 1306.064 4285289812
8.9761467 957.60773 1307.5105 4285485912
11.220183 957.60773 1307.5105 4285420119
13.46422 957.60773 1307.5105 4285551185
-55.871559 964.92554 1307.1404 4289110446
-52.14679 964.35596 1306.6602 4288913584
-49.166973 964.07123 1306.4202 4288979631
-46.93211 964.07123 1306.4202 4288913838
-43.579819 964.92554 1307.1404 4288978864
-40.227524 964.92554 1307.1404 4289176493
-22.348623 964.92554 1307.1404 4288913074
-20.113762 964.92554 1307.1404 4288847281
-16.761467 964.92554 1307.1404 4288321189
-13.409174 964.92554 1307.1404 4287861397
1.4899082 964.35596 1306.6602 4285157704
4.4697247 964.07123 1306.4202 4285222992
7.4495411 963.78644 1306.1801 4285222991
11.174312 963.21692 1305.6998 4285354576
16.38899 964.35596 1306.6603 4285092430
20.113762 964.07123 1306.4202 4284960588
22.348623 964.07123 1306.4202 4284698696
24.583487 964.07123 1306.4202 4284764488
-62.370644 970.06824 1306.2445 4288781736
25.616514 970.06824 1306.2445 4284697933
-58.340366 758.26904 1309.4771 4288845214
-59.317432 767.19928 1309.1587 4286868871
-59.097248 773.66138 1308.0671 4287660690
-61.330276 781.97083 1308.5333 4286937985
-58.877064 781.97083 1308.5333 4286479746
-63.544952 790.23828 1308.9641 4285877088
-61.100918 790.23828 1308.9641 4285679709
-58.656879 790.23828 1308.9641 4286072402
-63.544952 792.10675 1310.5396 4285940051
-61.100918 792.10675 1310.5396 4286400602
-58.656879 792.10675 1310.5396 4286336088
-63.306423 798.46362 1309.3594 4285613648
-60.871559 798.46362 1309.3594 4285811027
-58.436699 798.46362 1309.3594 4286203988
-56.001835 798.46362 1309.3594 4286664539
-59.908257 829.61926 1308.1604 4285680211
-64.255043 845.11249 1309.4515 4285744984
-61.875229 845.11249 1309.4515 4285679691
10.709174 845.11249 1309.4515 4290557383
14.278899 845.11249 1309.4515 4290756043
16.658716 845.11249 1309.4515 4290887629
-64.255043 846.93188 1310.9856 4285745238
-61.875229 846.93188 1310.9856 4285745486
-54.524769 851.23792 1308.0762 4286072402
-52.154129 851.23792 1308.0762 4286861655
4.7412844 851.23792 1308.0762 4290689735
7.1119266 851.23792 1308.0762 4290755528
10.667891 851.23792 1308.0762 4290689481
14.223853 851.23792 1308.0762 4290689485
16.594496 851.23792 1308.0762 4290886607
-59.266056 853.05029 1309.6044 4285613648
-55.710091 853.05029 1309.6044 4286006096
-52.154129 853.05029 1309.6044 4286334032
11.853211 853.05029 1309.6044 4290624203
-51.952293 860.94598 1309.7217 4285415753
-49.590824 860.04333 1308.9606 4286533207
-47.229359 860.04333 1308.9606 4287386724
-54.102753 868.79956 1309.8035 4285418833
-51.750458 868.79956 1309.8035 4285027144
-49.398167 867.90039 1309.0453 4285223757
-51.548622 874.8197 1308.3394 4286013262
-49.205505 874.8197 1308.3394 4286210384
-52.720184 876.61108 1309.8499 4285947219
-49.205505 876.61108 1309.8499 4286738001
-60.730274 883.00854 1310.0118 4284759363
-58.394497 883.00854 1310.0118 4284693827
-56.058716 883.00854 1310.0118 4284628293
-52.555046 883.00854 1310.0118 4285418565
-49.051376 883.00854 1310.0118 4285551421
11.678899 883.00854 1310.0118 4290755530
14.014679 883.00854 1310.0118 4291149004
16.350458 882.11572 1309.259 4291347149
18.686239 882.11572 1309.259 4291150538
-48.858715 889.85425 1309.2438 4286404695
-46.532108 889.85425 1309.2438 4286408820
9.3064222 889.85425 1309.2438 4290623941
-55.838531 891.63293 1310.7435 4284627525
-52.348625 891.63293 1310.7435 4284694597
9.3064222 891.63293 1310.7435 4290754757
-55.618347 898.43665 1309.9401 4284037698
-53.300919 898.43665 1309.9401 4285353815
9.2697248 897.55078 1309.1931 4291082694
13.904587 899.32251 1310.687 4288646039
-55.442204 902.97125 1308.5315 4284168519
-53.132111 902.97125 1308.5315 4285352536
-50.822018 902.97125 1308.5315 4284764011
10.395412 902.97125 1308.5315 4287725693
-53.132111 904.73737 1310.0205 4284628808
-50.822018 904.73737 1310.0205 4284564810
13.860551 904.73737 1310.0205 4285881435
-52.921101 910.59479 1308.4192 4283975501
-50.620182 910.59479 1308.4192 4283977801
13.805505 910.59479 1308.4192 4286410607
-52.921101 912.35388 1309.9025 4284306262
-50.620182 912.35388 1309.9025 4283452752
13.805505 912.35388 1309.9025 4287529341
16.106422 912.35388 1309.9025 4287726719
18.407339 912.35388 1309.9025 4287726215
-52.710091 919.92834 1309.7489 4284109140
-49.272476 919.05231 1309.0103 4283583571
13.750459 919.05231 1309.0103 4285748561
-52.541283 925.25903 1309.0115 4283977297
-47.972477 925.25903 1309.0115 4283452502
13.706422 925.25903 1309.0115 4285684560
-52.541283 927.00549 1310.484 4283845711
-50.055046 932.7605 1308.7964 4283911525
-47.779816 932.7605 1308.7964 4283385181
-52.330276 934.49994 1310.2631 4283781974
13.651376 934.49994 1310.2631 4285550935
18.201836 934.49994 1310.2631 4285027156
-58.965137 938.0379 1308.014 4283057992
-49.893578 938.0379 1308.014 4283453270
-46.491745 938.0379 1308.014 4284110938
10.205505 938.0379 1308.014 4285616980
13.60734 938.0379 1308.014 4285551455
-49.893578 939.77173 1309.476 4283190625
-46.869724 940.34967 1309.9633 4282795095
6.8036699 941.50555 1310.9379 4284961101
10.205505 940.63867 1310.2069 4285354573
13.60734 940.63867 1310.2069 4285420372
15.875229 941.50555 1310.9379 4285288782
4.521101 945.88513 1309.3984 4284895310
6.7816515 945.88513 1309.3984 4285026896
11.302752 945.88513 1309.3984 4285289036
6.7541285 952.41174 1308.3615 4285093205
9.0055046 954.13293 1309.8126 4285224019
13.508257 954.13293 1309.8126 4285419856
15.759633 954.13293 1309.8126 4285288269
8.9761467 959.3233 1308.957 4285486164
11.220183 959.3233 1308.957 4285486164
13.46422 959.3233 1308.957 4285354576
15.708257 959.3233 1308.957 4285288782
20.196331 959.3233 1308.957 4285091404
24.684404 959.3233 1308.957 4284501567
13.46422 961.03894 1310.4036 4285354576
17.952293 961.03894 1310.4036 4285091917
-60.341286 968.34265 1310.0217 4289110700
-58.106422 968.34265 1310.0217 4289438896
-55.871559 966.63409 1308.5811 4289505458
-49.166973 966.63409 1308.5811 4289111471
-46.93211 966.63409 1308.5811 4289045677
-43.579819 967.4884 1309.3014 4288979626
-40.227524 967.4884 1309.3014 4289110440
-37.992661 967.4884 1309.3014 4289176233
-34.640366 968.34265 1310.0217 4289044903
-31.288073 968.34265 1310.0217 4288848042
-25.700916 966.63409 1308.5811 4289176493
-22.348623 966.63409 1308.5811 4289044151
-20.113762 966.63409 1308.5811 4288912822
-16.761467 966.63409 1308.5811 4288781483
-13.409174 966.63409 1308.5811 4288321950
-11.174312 966.63409 1308.5811 4288782501
-8.1944952 967.77313 1309.5415 4288848043
-4.4697247 966.63409 1308.5811 4287397764
-2.2348623 966.63409 1308.5811 4284437335
17.878899 967.4884 1309.3014 4284895310
22.348623 968.34265 1310.0217 4284698193
24.583487 966.63409 1308.5811 4284829778
-59.58165 760.16699 1311.0774 4288514956
-59.58165 762.06494 1312.6776 4287131518
-66.484406 777.42639 1311.2418 4285950849
-64.022018 777.42639 1311.2418 4286082426
-64.255043 848.75128 1312.5198 4285613396
-61.875229 848.75128 1312.5198 4285679441
-58.305504 848.75128 1312.5198 4285875793
-59.266056 854.86267 1311.1324 4285417039
-55.710091 854.86267 1311.1324 4285874260
-52.154129 854.86267 1311.1324 4286267987
11.853211 854.86267 1311.1324 4290755789
-54.524769 856.67505 1312.6606 4286135633
-52.154129 856.67505 1312.6606 4286005581
-51.952293 862.75134 1311.2439 4284695363
-49.590824 862.75134 1311.2439 4285879636
-54.313763 864.5567 1312.7661 4284629318
-51.952293 864.5567 1312.7661 4284630855
-54.102753 871.49707 1312.0779 4285813080
-51.750458 870.5979 1311.3197 4285224010
-49.398167 870.5979 1311.3197 4285092167
16.466055 872.3963 1312.8361 4290428877
-60.921101 878.4024 1311.3602 4284827468
-58.57798 878.4024 1311.3602 4284300868
-56.234863 878.4024 1311.3602 4283905860
-63.066055 887.4729 1313.776 4284759363
-60.730274 886.58008 1313.0232 4284759102
-58.394497 886.58008 1313.0232 4285022274
-56.058716 886.58008 1313.0232 4284891206
-52.555046 886.58008 1313.0232 4284759619
-49.051376 885.68719 1312.2704 4284693831
10.900306 886.28241 1312.7723 4290689481
14.014679 887.4729 1313.776 4290623178
-55.838531 893.41168 1312.2434 4284561478
-53.511925 893.41168 1312.2434 4285219664
10.469725 893.41168 1312.2434 4290885830
-58.165138 895.19043 1313.7432 4284627273
11.633027 895.19043 1313.7432 4291411658
13.959633 895.19043 1313.7432 4291082694
-55.618347 902.86584 1313.6747 4284365380
13.904587 901.09418 1312.1809 4287330174
16.222019 902.86584 1313.6747 4286013021
18.53945 901.97998 1312.9277 4286802798
-55.442204 907.38647 1312.2542 4283973962
-53.132111 906.50342 1311.5096 4283972423
13.860551 906.50342 1311.5096 4285553752
16.170643 908.26953 1312.9988 4287265916
18.480734 908.26953 1312.9988 4286938748
-52.921101 914.11292 1311.3856 4283582031
-50.620182 914.11292 1311.3856 4282992971
13.805505 914.11292 1311.3856 4286212199
-52.921101 915.87201 1312.8689 4283714382
-50.620182 915.87201 1312.8689 4283452752
16.106422 915.87201 1312.8689 4285551957
18.407339 915.87201 1312.8689 4285815127
-52.710091 921.68036 1311.2262 4284109140
18.333944 921.68036 1311.2262 4285749079
-52.541283 928.75195 1311.9565 4284109140
-50.256882 928.75195 1311.9565 4284042843
-54.825687 930.49841 1313.4292 4283451474
-52.541283 930.49841 1313.4292 4284240989
13.706422 930.49841 1313.4292 4285419856
15.990826 930.49841 1313.4292 4285354062
18.275229 930.49841 1313.4292 4285158226
-52.330276 936.23938 1311.7297 4283452750
15.926605 937.10907 1312.4631 4285354073
9.0715599 944.10632 1313.1307 4285288779
13.60734 944.10632 1313.1307 4285354576
15.875229 944.10632 1313.1307 4285354576
20.411009 944.97321 1313.8617 4285354062
22.6789 944.97321 1313.8617 4285157712
10.172478 949.34155 1312.3129 4285355089
13.563303 950.20569 1313.0415 4285420369
15.823853 950.20569 1313.0415 4285288782
20.344954 949.34155 1312.3129 4285419855
22.605505 950.20569 1313.0415 4285026126
15.759633 955.85413 1311.2639 4285354062
20.262384 955.85413 1311.2639 4285157703
18.011009 957.57532 1312.7152 4285157453
8.9761467 962.75452 1311.8501 4285288782
11.220183 962.75452 1311.8501 4285288782
13.46422 962.75452 1311.8501 4285026894
-52.734863 964.47009 1313.2966 4289045680
1.1220183 964.47009 1313.2966 4285026894
4.4880733 964.47009 1313.2966 4285223506
7.8541284 964.47009 1313.2966 4285157707
11.220183 964.47009 1313.2966 4285157703
13.46422 964.47009 1313.2966 4285288782
15.708257 964.47009 1313.2966 4285157453
20.196331 964.47009 1313.2966 4284961103
