# .PCD v0.7 - Point Cloud Data file format
VERSION 0.7
FIELDS x y z rgb
SIZE 4 4 4 4
TYPE F F F U
COUNT 1 1 1 1
WIDTH 1168
HEIGHT 1
VIEWPOINT 0 0 0 1 0 0 0
POINTS 1168
DATA ascii
31.737614 898.36609 818.0614 4293779691
11.379816 900.28021 818.36731 4291275387
13.802752 901.57007 818.14685 4294961824
17.040367 901.90503 817.77527 4293510236
19.46422 902.23999 817.40363 4291335772
21.897247 902.23999 817.40356 4293050802
25.141285 902.23999 817.40356 4293516271
28.385323 902.23999 817.40356 4293319401
31.700916 900.28021 818.36731 4293188072
11.354129 904.10004 818.97205 4293436776
13.787156 904.10004 818.97205 4294696597
17.031193 904.10004 818.97205 4294961300
19.46422 904.10004 818.97205 4294894744
21.897247 904.10004 818.97205 4292132002
25.141285 904.10004 818.97205 4293647343
28.385323 904.10004 818.97205 4292924903
30.818348 904.10004 818.97205 4293187817
10.507339 908.57288 818.81934 4292202964
13.470947 907.74902 818.12457 4291408723
16.973394 907.95496 818.29834 4294168708
19.398165 907.95496 818.29828 4294763945
22.092356 907.74902 818.12457 4291672489
25.055964 907.95496 818.29828 4293580780
28.28899 908.57288 818.81934 4293121509
30.713762 908.57288 818.81934 4293121509
13.977982 910.72345 818.01654 4289363069
16.934864 911.13446 818.36304 4291922558
20.160549 910.51794 817.84326 4293053348
22.579817 911.13446 818.36304 4293187802
24.730276 910.72345 818.01654 4293384668
11.26422 914.92065 818.93933 4293582049
13.409786 914.10052 818.24786 4292389812
16.896332 914.30554 818.42072 4291133989
20.275595 913.9364 818.1095 4293579436
22.52844 914.30554 818.42072 4293844444
24.137615 914.30554 818.42072 4293647064
11.238532 917.46808 818.47131 4283774022
13.914372 917.0589 818.12628 4289823131
16.8578 917.46808 818.47131 4291610305
20.068806 917.46808 818.47131 4292197717
22.477064 917.46808 818.47131 4294107357
24.082569 917.46808 818.47131 4293449427
14.4 921.89044 818.27612 4291733641
16.799999 921.89044 818.27612 4294305279
20 921.89044 818.27612 4293122763
22.4 921.89044 818.27612 4292335827
24.799999 921.89044 818.27612 4292926175
20.656881 931.89941 818.86719 4294966527
23.040367 931.89941 818.86719 4294109431
25.423853 931.89941 818.86719 4292991206
20.609175 934.40906 818.36719 4294959837
22.987156 934.40906 818.36719 4293848056
17.398165 936.91315 817.86255 4285354353
22.066055 941.26111 817.60449 4291015365
17.337614 942.46613 818.62048 4294967295
20.466055 943.70898 818.36041 4291019715
22.538839 944.15045 817.42462 4291871930
29.090824 944.9519 818.10034 4292793830
23.53211 947.43207 817.57556 4292794591
17.25688 948.63141 818.58691 4294967232
19.610092 948.63141 818.58691 4294374648
22.747707 948.63141 818.58691 4293648629
25.100918 948.63141 818.58691 4292662755
22.694496 951.10321 818.05493 4293914097
22.641285 954.76312 818.52478 4282465908
25.764221 954.76312 818.52478 4284174667
4.6733947 958.41174 818.98523 4283913278
7.2697244 958.01483 818.65045 4287263296
9.8660555 958.01483 818.65045 4291132219
13.241284 958.41174 818.98523 4293380765
15.577982 958.41174 818.98523 4288583830
22.847708 958.01483 818.65045 4282137149
24.92477 958.41174 818.98523 4278190080
-10.844037 748.98761 820.29614 4287303458
40.665138 748.98761 820.29614 4293583344
-10.811009 754.01099 820.60773 4288170292
41.442204 754.01099 820.60773 4293450732
43.244038 754.69977 821.18848 4293187302
-10.777982 758.33099 820.32617 4289632669
-8.9816513 756.95764 819.16821 4289821781
40.417431 757.64429 819.74719 4293318379
-10.744954 761.95374 819.45667 4290092455
41.188992 761.95374 819.45667 4293186798
43.111927 759.70428 821.48401 4293317866
-10.722936 764.8197 819.25708 4289043377
35.743118 764.8197 819.25708 4293846000
37.530273 764.8197 819.25708 4293780207
41.188992 764.00745 821.18829 4293516014
43.875229 764.69196 821.7655 4293975787
-12.510092 766.86914 820.98517 4289085005
35.743118 766.18604 820.40918 4294174962
37.530273 766.18604 820.40918 4294174962
41.104588 767.55231 821.56116 4294042609
42.891743 767.55231 821.56116 4294238957
46.466057 767.55231 821.56116 4294438137
48.253212 767.55231 821.56116 4294438137
-10.689908 769.78912 819.52319 4287307084
35.633026 769.78912 819.52319 4294043892
37.41468 769.78912 819.52319 4293912306
39.196331 769.78912 819.52319 4293976816
-12.47156 771.83228 821.24585 4287505713
-10.689908 771.15125 820.67163 4287437863
40.087158 771.15125 820.67163 4294043122
46.322937 771.83228 821.24585 4294504696
48.104588 771.83228 821.24585 4294373110
-12.433027 776.09961 820.9198 4288230204
-10.65688 775.42065 820.34735 4288360254
37.299084 774.7417 819.7749 4294305267
39.963303 774.7417 819.7749 4294240504
43.515594 774.7417 819.7749 4294701307
-10.634862 778.93744 820.69666 4288297283
-8.8623857 777.5824 819.55408 4288689220
40.766972 777.5824 819.55408 4294504443
43.42569 777.5824 819.55408 4294570491
46.970642 778.25989 820.12537 4294570492
49.629356 778.93744 820.69666 4293978101
-10.601835 782.5083 819.78345 4288757834
43.290825 782.5083 819.78345 4294372090
46.896332 781.40039 820.81134 4294438137
-10.601835 783.85919 820.92236 4289087832
44.174313 783.85919 820.92236 4294372346
45.941284 783.85919 820.92236 4294372342
-10.568808 788.09076 820.56628 4286794327
40.51376 787.41742 819.99854 4294173945
43.449543 787.86627 820.37701 4294306040
45.798164 788.7641 821.13403 4294306551
-8.7798166 790.96729 819.06763 4285021768
38.631191 790.96729 819.06763 4294107891
40.387157 790.96729 819.06763 4294370806
42.14312 790.96729 819.06763 4294437367
-10.53578 792.98096 820.76544 4283642166
40.387157 792.30969 820.19946 4294635000
42.14312 792.30969 820.19946 4294437369
-10.513762 796.45496 821.07861 4283710516
-8.7614679 795.11536 819.9491 4286143578
43.807339 795.11536 819.9491 4294634748
-8.1516819 799.09064 819.37677 4287527797
40.176147 798.64551 819.00146 4294963711
43.669724 798.64551 819.00146 4294898431
-10.480734 801.31641 821.25354 4285089607
-7.8440366 802.77118 819.86414 4288644748
-10.458715 804.10382 820.98779 4286005562
-8.7155962 804.10382 820.98779 4286531906
-8.1088686 808.05292 820.39355 4288564823
43.440369 808.93854 821.14026 4294701309
45.757187 808.49579 820.76691 4294438137
-6.9284406 811.77014 819.6037 4290865004
-5.1963301 811.10803 819.04541 4291852931
40.704586 811.77014 819.60376 4294833150
-10.39266 813.75647 821.27844 4289215818
-7.7871561 814.47687 820.57782 4290399834
38.025688 815.19727 819.8772 4294964735
40.662384 814.47687 820.57782 4294833406
-6.9137616 816.51862 820.99133 4290661202
38.025688 816.51862 820.99133 4294833406
39.754128 816.51862 820.99133 4294965247
-10.337615 821.30994 821.10718 4288819264
-7.4660549 820.87085 820.737 4290858331
-5.1688075 819.99274 819.99646 4291054940
34.458717 819.99274 819.99646 4294570237
37.043121 820.65137 820.55182 4294372600
-6.8770642 824.05664 820.80701 4289867077
-4.2981653 822.74225 819.69885 4290922590
34.385323 823.39941 820.25293 4294240501
36.964218 824.05664 820.80701 4294240248
-10.315597 825.37103 821.91528 4288752185
-7.7366972 825.37103 821.91528 4289605701
-5.1412845 827.51111 819.79565 4291248989
34.27523 827.51111 819.79565 4294173945
36.964218 825.37103 821.91528 4294371834
-7.7119265 828.82129 820.90027 4289407548
-5.1302752 830.24512 819.48486 4291050063
32.491745 830.24512 819.48486 4293911793
35.095413 829.5332 820.19257 4294043122
37.702751 828.82129 820.90027 4294306551
-7.410398 832.42407 821.32208 4289670203
-5.1302752 831.55249 820.58728 4290522954
35.056881 831.55249 820.58728 4294042609
37.622017 832.20618 821.13843 4294241270
-6.8183484 836.29047 820.65808 4289936693
-4.5455661 835.42169 819.9256 4293426286
0 834.9873 819.55933 4294954664
32.387157 834.9873 819.55933 4293648105
35.228134 835.42169 819.9256 4294174197
37.500916 836.29047 820.65808 4294373109
-7.6706419 837.59363 821.75684 4289872202
-3.9688072 838.57294 819.96655 4293436557
-1.7009175 837.70593 819.2356 4294952613
0.56697249 838.1394 819.60107 4294429090
34.868805 838.35614 819.78381 4294174197
37.420185 839.00635 820.33203 4294175733
39.205505 837.59363 821.75684 4294109940
-6.8036699 840.3067 821.42847 4290733938
-4.2522936 840.3067 821.42847 4293699479
-1.6954129 842.42151 819.28735 4294034068
0.84770644 842.42151 819.28735 4293903529
35.603668 842.42151 819.28735 4294569468
37.299084 842.42151 819.28735 4294307316
39.121101 840.3067 821.42847 4294307316
-3.9559631 844.58173 821.10889 4293242263
0 843.71765 820.38025 4293771689
35.603668 843.71765 820.38025 4294372346
37.864223 844.58173 821.10889 4293847027
-3.3834863 847.71143 821.13171 4292851886
0.84587157 846.41809 820.04114 4294298544
31.297249 846.41809 820.04114 4293517044
34.962688 846.84918 820.4046 4294043892
38.06422 847.71143 821.13171 4293517553
-3.3724771 851.10272 820.06714 4293113546
0 851.10272 820.06714 4294036926
28.666056 851.10272 820.06714 4294174708
31.195412 851.10272 820.06714 4293978097
34.56789 851.10272 820.06714 4293912560
-4.2119265 853.08978 820.43445 4293304242
0 853.78772 819.71484 4294498522
28.60367 853.78772 819.71484 4293846000
31.127522 853.78772 819.71484 4293649136
34.56789 852.39185 821.15405 4293780207
-6.7302752 856.36041 821.88416 4290990951
-5.0477066 855.71729 821.34186 4292439681
34.77309 855.50287 821.16113 4293714414
37.016514 856.36041 821.88416 4293451757
-4.1926603 859.08679 820.25891 4291388798
33.541283 858.44574 819.71838 4293714930
36.895412 859.72791 820.79944 4293517298
-6.7082567 861.01001 821.88049 4290207601
-4.4623852 862.39453 820.43188 4289418344
-1.6733944 861.11523 819.35315 4292309639
0.41834861 862.07471 820.16217 4292310684
3.3467889 861.11523 819.35315 4294959073
34.304588 861.11523 819.35315 4293517550
37.958408 862.35944 821.27435 4293253869
-3.3357799 865.74664 819.33411 4287973962
-1.66789 865.74664 819.33411 4287710534
1.66789 865.74664 819.33411 4293553059
4.1697249 865.74664 819.33411 4294688460
6.6715598 865.74664 819.33411 4294967295
35.025688 865.74664 819.33411 4293517548
36.693577 865.74664 819.33411 4293384684
-3.8917434 867.87183 821.12616 4286995022
-1.6660551 868.34741 820.21899 4286272832
0.83302754 868.00336 820.58289 4289743673
4.1605506 869.6731 820.02869 4292827247
7.4889908 869.6731 820.02869 4294289625
37.486237 868.34741 820.21899 4293450218
40.029358 868.29688 821.4845 4293319402
-3.3284404 870.94537 821.10156 4289628259
-1.6642202 870.94537 821.10156 4289760101
0.83211011 870.94537 821.10156 4289224992
4.1605506 870.94537 821.10156 4292566646
7.4798164 871.63208 820.3725 4294344866
9.9633026 872.31879 819.64343 4294947544
34.041283 872.31879 819.64343 4293253861
37.404587 871.63208 820.3725 4293186534
39.941284 870.94537 821.10156 4293318888
-4.1513762 874.85779 821.7843 4288766809
-1.6605505 873.58832 820.71387 4291337057
1.6605505 873.58832 820.71387 4287976448
4.1513762 873.58832 820.71387 4289945199
7.472477 873.58832 820.71387 4293226389
37.362385 874.22302 821.24908 4293187048
39.85321 874.22302 821.24908 4293122534
-4.1376147 878.17474 820.65698 4288043857
-1.6550459 876.90948 819.59009 4291860853
0.82752293 877.54211 820.12354 4288834836
4.1376147 876.90948 819.59009 4285613371
7.4477062 876.90948 819.59009 4291322475
9.930275 876.90948 819.59009 4294939826
31.445871 877.54211 820.12354 4293188070
33.92844 877.54211 820.12354 4293188066
37.238533 878.17474 820.65698 4293253095
39.7211 878.17474 820.65698 4293122794
-4.133945 880.12109 820.99011 4287386957
-1.6513761 880.1709 819.72406 4294427299
0.82568806 880.80219 820.25635 4291140430
4.1284404 880.1709 819.72412 4288503322
7.4311924 879.53967 819.19177 4289947264
10.733945 879.53967 819.19177 4294290898
13.211009 879.53967 819.19177 4294959600
29.174311 879.96051 819.54663 4293319655
31.376146 880.80219 820.25635 4292924644
33.92844 879.44006 821.72388 4293056230
37.238533 879.44006 821.72388 4293319656
39.7211 879.44006 821.72388 4293122792
-3.8507645 882.93774 821.18488 4288107348
-1.6477064 884.05396 820.38202 4294950839
0.82477063 883.37427 821.11694 4292060467
3.8446484 883.84399 820.20502 4292195358
29.131498 883.39087 820.69501 4293318891
31.341284 883.37427 821.11694 4293187302
33.85321 882.0647 821.3208 4293582060
-4.119266 885.94342 821.97522 4287250237
-1.6422018 887.97406 819.76331 4294951357
0.82110089 886.95874 820.86926 4291468586
4.1055045 887.97406 819.76331 4293842806
31.201836 887.97406 819.76331 4293253095
34.601833 885.94342 821.97522 4294108402
-3.2844036 889.8573 821.3512 4288826441
-1.6422018 889.22955 820.8219 4293367691
0.54740059 889.64801 821.1748 4292063047
4.0999999 889.90503 820.08344 4293450894
7.3733945 890.58051 819.34497 4291215477
10.650459 890.58051 819.34497 4293508238
28.674313 890.58051 819.34497 4293187557
32.273396 890.09833 820.68243 4293384937
34.48624 890.48499 821.88049 4293582060
36.949539 890.48499 821.88049 4293385199
39.412846 890.48499 821.88049 4293254379
-1.6385322 892.45953 820.92932 4291851121
1.0923548 892.66827 821.10529 4292189014
3.8232419 892.25073 820.75323 4292528255
7.3733945 891.83319 820.40125 4292133472
9.831193 891.83319 820.40125 4294301570
31.951376 892.45953 820.92932 4293318372
34.409176 893.08588 821.4574 4293647340
36.866974 893.08588 821.4574 4293450474
4.359633 895.26447 820.67822 4288700723
7.3568811 895.05615 820.50256 4291134267
10.626606 894.43121 819.97571 4294499235
13.89633 894.43121 819.97571 4292723590
29.427523 894.43121 819.97571 4293646822
31.062386 894.43121 819.97571 4293580772
35.149544 895.68109 821.02954 4293713899
37.601833 895.68109 821.02954 4293845485
8.1467886 898.94055 819.85376 4289941822
9.7761469 898.94055 819.85376 4286406705
35.031193 898.94055 819.85376 4293253863
37.475231 898.94055 819.85376 4293319140
-1.6293578 901.43182 821.95435 4291264659
1.6293578 901.43182 821.95435 4286920272
4.0733948 901.43182 821.95435 4288157234
7.3229361 901.47675 820.6842 4288818783
10.296024 901.93732 819.76465 4290149743
31.971863 901.93732 819.76465 4293253864
34.992661 901.47681 820.68427 4293188069
37.475231 900.80896 821.4292 4293187810
39.104588 901.43182 821.95435 4293253349
4.0587158 904.67444 820.76434 4287369240
7.3064222 904.67444 820.76434 4286386985
10.543119 905.34009 820.01758 4288970038
25.952293 905.34009 820.01758 4293581806
28.385323 905.34009 820.01758 4293055720
31.629358 905.34009 820.01758 4293122025
34.952293 904.00879 821.51111 4293187814
37.390827 904.00879 821.51111 4293385449
4.0550461 906.58014 821.06311 4294832891
7.2990828 906.58014 821.06311 4294967295
32.440369 906.58014 821.06311 4292858853
34.873394 906.58014 821.06311 4293121765
4.3107033 910.63263 820.55597 4293453806
7.274312 910.42664 820.38232 4293189865
10.23792 910.2207 820.20868 4293715948
25.86422 911.04456 820.90332 4293121759
28.558411 910.2207 820.20868 4292924641
31.2526 910.63263 820.55597 4293056485
-3.2330275 912.2804 821.94543 4286526489
-1.6165137 912.2804 821.94543 4293171582
4.0412846 912.2804 821.94543 4288650706
6.9889908 914.01154 820.78888 4285425507
10.483486 912.98401 819.92255 4292727006
25.86422 912.2804 821.94543 4293121761
27.998777 912.30939 821.09784 4292990433
31.522018 912.2804 821.94543 4293122791
8.0458717 916.76599 820.49536 4285284663
9.6550455 916.76599 820.49536 4284494383
25.74679 916.15088 819.97668 4292858851
27.355963 917.3811 821.01404 4293055462
8.027523 919.92291 820.54126 4288167771
10.703364 919.51373 820.19629 4287251758
13.379205 919.10468 819.85126 4289038718
16.8578 918.6955 819.50623 4293319147
20.068806 918.6955 819.50623 4292460926
22.477064 918.6955 819.50623 4293254614
24.885323 918.6955 819.50623 4293056221
27.293577 919.92291 820.54126 4293187302
7.2247705 921.15033 821.57617 4287848839
10.43578 921.15033 821.57617 4288697910
13.622019 922.13196 820.44183 4288043589
16.799999 923.11365 819.3075 4292261347
20 923.11365 819.3075 4292333275
22.4 923.11365 819.3075 4291545545
24.799999 923.11365 819.3075 4293386727
28.096329 921.15033 821.57617 4293253351
30.504587 921.15033 821.57617 4293253095
4.8000002 925.56006 821.37024 4294967295
7.1999998 925.56006 821.37024 4294967295
10.4 925.56006 821.37024 4290491575
13.591743 925.27429 820.47522 4289028651
16.780733 925.6001 820.09595 4291734425
19.977064 925.6001 820.09595 4293058021
22.89786 926.02118 820.01495 4291938762
25.047094 925.17902 820.17694 4293057249
28 925.56006 821.37024 4293056741
7.9816513 929.3042 821.91101 4294967295
10.376146 929.3042 821.91101 4294967295
13.302752 928.49054 821.22491 4291406217
16.761467 928.08374 820.88196 4290880600
19.930275 928.73401 820.12219 4294835711
23.093578 929.38422 819.36243 4293714664
25.541285 928.08374 820.88196 4292860388
6.3706422 931.81946 821.41577 4278656553
10.352293 931.81946 821.41577 4294967295
14.333945 930.60181 820.38916 4286934343
16.722935 930.60181 820.38916 4291204142
19.111927 930.60181 820.38916 4294965503
28.667891 931.81946 821.41577 4293451757
30.26055 931.81946 821.41577 4293254379
3.972477 935.54382 821.94006 4285556598
6.8856263 935.13885 821.59863 4280299562
10.063609 934.73395 821.25714 4292335071
13.498165 934.04468 820.02197 4292006097
16.407339 933.94989 819.72406 4289558121
19.566973 934.78546 819.55664 4289565773
22.987156 935.62109 819.38916 4293451251
25.423853 934.32904 820.91577 4292925414
27.648441 934.57208 821.12061 4292728034
30.985321 935.54382 821.94006 4292859622
7.133945 938.04504 821.43298 4279771428
10.568808 937.64111 821.09229 4289567922
13.475229 936.83307 820.41101 4294967295
16.645872 936.83307 820.41101 4294967295
19.816513 936.83307 820.41101 4289380773
22.987156 936.83307 820.41101 4292331494
26.157799 938.04504 821.43298 4293123042
28.53578 938.04504 821.43298 4292793828
10.280734 940.54071 820.92114 4279374092
13.444037 940.54071 820.92108 4292070327
16.449175 940.54071 820.92108 4294967295
19.375229 940.2384 820.66626 4293651177
23.724771 939.33148 819.90161 4293976051
26.097248 940.54071 820.92114 4293254374
28.469725 940.54071 820.92114 4292925157
31.10581 940.94379 821.26099 4292727779
33.21468 941.74988 821.94067 4292728035
14.185321 944.87604 820.65259 4279057262
23.642202 943.67108 819.6366 4292795082
26.269114 944.07275 819.97528 4292991459
28.370642 944.87604 820.65259 4292990693
14.185321 946.08105 821.66858 4282912667
16.511009 946.75519 819.62085 4289767540
19.655964 946.15411 819.11401 4293980400
22.014679 946.15411 819.11401 4293518313
25.945873 946.75519 819.62085 4292794083
28.304586 947.35626 820.12769 4292794082
31.449541 946.75519 819.62085 4292728289
33.022018 946.75519 819.62085 4292596446
16.511009 948.55841 821.14136 4290428345
19.610092 949.83081 819.59814 4292070877
25.885323 949.83081 819.59814 4292861413
29.090824 948.55841 821.14136 4292531171
31.449541 948.55841 821.14136 4292794082
33.808258 948.55841 821.14136 4292727775
-1.5688074 952.22949 821.62073 4282526728
13.334863 952.22949 821.62073 4291669157
16.708258 952.67432 820.25165 4291077586
19.587156 952.26331 820.34106 4290883991
22.694496 952.29974 819.06384 4292137944
25.855965 951.66492 819.83661 4291875285
29.022938 951.62988 821.11505 4293119451
4.6844039 955.95685 819.53137 4285489201
6.2458715 955.95685 819.53137 4286738253
10.930275 955.95685 819.53137 4291728259
13.272477 955.95685 819.53137 4291867009
16.395412 955.95685 819.53137 4293583607
19.518349 955.95685 819.53137 4289108188
21.86055 955.95685 819.53137 4285496171
25.764221 955.95685 819.53137 4281677367
28.106422 955.95685 819.53137 4289569421
3.6397552 958.36591 820.69061 4286610018
7.0100918 959.60272 819.98938 4285422404
10.125689 959.60272 819.98938 4288902741
13.241284 959.60272 819.98938 4292659300
16.629969 958.7854 820.17218 4293580180
19.495413 958.37671 820.26355 4292462818
22.588074 959.60272 819.98938 4284768888
25.984098 958.7854 820.17218 4278190080
28.626913 957.94647 821.20892 4278977796
4.6733947 961.38916 821.49561 4287394914
7.0100918 961.38916 821.49561 4289701289
10.125689 961.38916 821.49561 4287271871
13.241285 961.38916 821.49561 4288644705
16.097248 961.19067 821.32831 4292721245
19.472477 960.79364 820.99353 4293115588
22.847708 961.19067 821.32831 4283189584
24.92477 960.79364 820.99353 4278190080
45.321102 748.7981 824.06055 4293384682
-12.651376 751.75104 822.62622 4287702566
43.376148 751.06018 822.0437 4293187302
45.183487 752.44189 823.20874 4293516267
-14.458715 753.82361 824.37378 4285924106
45.183487 753.82361 824.37378 4293186789
-13.213455 757.45483 823.51147 4289876312
43.244038 756.07733 822.34998 4293055203
-12.574312 761.07764 822.64197 4291064184
43.111927 761.07764 822.64197 4293581545
-14.370643 763.13757 824.37891 4286387492
-14.326606 767.43018 824.07422 4287044398
44.770641 766.06104 822.9198 4294436592
-14.297248 770.28491 823.86523 4287506736
43.78532 768.91858 822.71313 4294768123
-14.253211 773.87537 822.96851 4287835447
-21.379816 775.23749 824.11707 4286064432
-19.598166 775.23749 824.11707 4286196018
-16.925688 775.23749 824.11707 4287376692
-14.253211 775.23749 824.11707 4287902009
-22.201836 778.81537 823.20972 4286063407
-19.537615 778.81537 823.20972 4286327084
-13.025075 778.36279 822.82806 4288559427
-22.201836 780.17322 824.35461 4285800995
-19.537615 780.17322 824.35461 4286392870
-16.873394 780.17322 824.35461 4287379261
-13.308256 780.9104 823.66815 4289149775
47.85688 781.64758 822.98169 4294569720
-22.155964 783.00269 824.12427 4285341728
-19.497248 783.00269 824.12427 4285013273
-13.274312 784.10638 823.09283 4287512907
45.941284 785.21008 822.0614 4294306549
-19.436697 787.9118 824.33948 4283896868
-15.902752 787.9118 824.33948 4282588719
-13.252294 787.23633 823.76996 4284494146
-12.917432 791.00848 823.02643 4283641406
44.036697 790.11072 822.26953 4294305784
-15.853211 792.80408 824.54041 4283311924
-13.21101 792.80408 824.54041 4283312440
-15.80367 797.6795 824.72717 4284883000
-13.169725 797.0083 824.16119 4284098364
-10.513762 797.79462 822.20813 4284368449
-15.770642 800.47394 824.46729 4286987329
-13.142202 799.80408 823.90247 4285936710
-15.721101 803.98724 823.50549 4287314744
-12.809787 803.54218 823.13019 4287118407
-15.688073 806.76904 823.23499 4287052092
-13.073395 806.76904 823.23499 4288232269
-10.458715 806.10272 822.67316 4288628041
-15.688073 808.10168 824.35864 4287182645
-13.073395 808.10168 824.35864 4288100687
47.06422 808.10168 824.35864 4294306810
-15.638532 812.92383 824.50049 4287244091
-13.03211 812.25964 823.94043 4288295751
-10.425688 810.26697 822.26025 4289348172
-8.6880732 810.26697 822.26025 4290729569
43.440369 811.5954 823.38037 4294767101
45.177982 810.26697 822.26025 4294372859
-10.39266 815.08069 822.39502 4289085513
-8.6605501 815.08069 822.39502 4289809493
41.570641 815.08069 822.39502 4294899455
-15.588991 817.72913 824.62805 4286455079
-12.990826 817.06702 824.06982 4287899964
-10.370643 817.84003 822.10547 4288952647
-8.6422014 817.84003 822.10547 4290202713
40.662384 817.12244 822.80853 4294833663
43.302753 817.72913 824.62805 4294307582
-15.555964 820.48285 824.33386 4286191651
-12.963303 819.82214 823.77679 4287636534
40.906422 819.60187 823.59113 4294504444
-12.060551 823.28577 822.77307 4288294462
-10.337615 822.62714 822.21777 4288817717
-8.6146793 822.62714 822.21777 4289607233
40.201832 823.50531 822.95819 4294109428
-16.367889 825.26154 824.43909 4286456106
-12.6263 826.17432 824.33667 4287637299
-10.315597 827.34265 823.5777 4288685369
40.718655 826.64893 823.86481 4294175223
-8.5688076 830.13147 822.005 4289211460
39.416515 830.13147 822.005 4294240758
-10.853824 832.31512 823.84619 4288619836
39.416515 831.44165 823.10974 4294176246
-10.26055 836.1283 824.44543 4288618286
-8.5504589 834.16724 822.79187 4289211460
40.472172 834.60303 823.15936 4293978098
42.752293 836.78198 824.99658 4293978612
-8.5229359 838.89679 822.85571 4290197571
40.910091 838.89679 822.85571 4293978612
-7.6587152 841.90546 823.43048 4290466916
-5.1027522 841.60706 822.5249 4294091441
40.255047 842.04053 822.89038 4293782004
42.568806 841.55371 823.7879 4293650674
-7.6541286 844.20776 824.71777 4289611864
-7.9119263 848.03815 824.02325 4289479760
-5.0862384 846.30994 822.56604 4294484147
40.689907 846.30994 822.56604 4293715184
42.385323 847.60614 823.65894 4293780464
-7.612844 850.94482 823.85803 4289742166
-5.0752292 849.00476 822.22217 4294747057
38.06422 849.65143 822.76746 4293714161
40.601833 850.29816 823.31274 4293648879
42.293579 851.59149 824.40332 4293583343
-7.5880733 854.32556 822.78455 4290006619
38.221409 854.11066 822.60333 4293517034
-10.117432 856.25928 824.41492 4289153105
-7.5807338 856.953 823.69183 4290600297
38.699081 857.64673 822.96875 4293451505
40.469727 856.25928 824.41492 4293451503
-8.4128437 858.93311 824.05334 4290207590
40.381653 858.93311 824.05334 4293188588
-7.2672782 863.14691 823.68231 4289028463
41.088074 862.93323 823.50208 4293253353
-6.6935778 866.23254 823.66797 4288505451
-5.0201836 864.95325 822.58923 4286466134
40.998165 865.5929 823.1286 4293253352
-6.6935778 867.5119 824.7467 4288108905
-5.0036697 869.57196 822.55957 4287516768
41.697247 869.57196 822.55957 4293384682
-7.5055046 871.48462 824.1723 4289092456
-4.1605506 872.21771 822.17432 4288571219
0 872.21771 822.17432 4290805512
41.697247 871.48462 824.1723 4293385707
-6.6568809 874.12616 823.78345 4288371048
41.605503 874.76233 824.31982 4293385710
-7.472477 878.03156 824.46039 4289553774
41.51376 877.39679 823.92517 4293385708
43.174313 878.66632 824.99561 4293253608
-6.6201835 881.33801 823.32422 4288500832
37.238533 880.70538 822.79077 4293648103
40.824463 881.12714 823.14642 4293451241
-7.4403667 883.91284 824.18713 4289353047
-4.9541283 883.32715 822.38538 4284618267
33.577984 883.74799 822.74023 4293516010
37.155964 883.95837 822.9176 4293384936
40.214066 883.71759 823.58661 4293517037
-7.4311924 885.85217 824.51428 4290141794
-4.943119 887.20312 823.03735 4287839294
34.601833 887.20312 823.03735 4293517037
37.073395 887.20312 823.03735 4293385451
40.41468 886.52765 823.77582 4293516780
-6.5908256 888.46283 824.09949 4290402143
-4.943119 888.46283 824.09949 4289941592
-4.3792052 892.159 823.29199 4291850092
40.233948 892.36823 823.46838 4293254379
-7.3733945 896.84387 824.6261 4290670191
-3.8232419 895.59113 823.56982 4293104018
-1.6366973 895.6347 822.29852 4293432983
0.81834865 895.2998 822.67017 4292838807
4.0871563 896.93091 822.08337 4294079606
6.5394497 896.93091 822.08337 4291850075
40.122017 895.92609 823.19824 4293254378
42.601833 896.84387 824.6261 4293451753
-6.5394497 899.43066 824.19104 4291658881
-3.8146791 899.01398 823.83978 4292843168
-1.6348624 898.18079 823.13721 4293961139
0.54495412 898.59741 823.48846 4291392909
4.0871563 898.18079 823.13721 4292243845
40.054131 898.80573 823.66412 4293253607
-4.0733948 902.67749 823.00464 4291790741
-1.6293578 902.67749 823.00464 4289290102
0.81467891 902.67749 823.00464 4286523954
39.104588 902.67749 823.00464 4293187815
-6.5174313 903.92316 824.05493 4291465618
-4.0733948 903.92316 824.05493 4290805643
-1.6293578 903.92316 824.05493 4287974755
0.81284404 904.5874 823.30701 4291394426
37.390827 905.25165 822.55908 4293253347
39.875229 904.5874 823.30701 4293187816
42.363304 903.92316 824.05493 4293254631
-3.2513762 907.11584 824.13098 4287970886
-1.6256881 906.49445 823.60706 4285010473
0.54067278 907.35065 823.45685 4292656826
3.2440367 907.82019 822.10876 4294967295
32.440369 907.82019 822.10876 4292925157
34.873394 907.82019 822.10876 4292991204
37.390827 906.49445 823.60706 4292991202
39.829357 907.11584 824.13098 4293123049
-1.6220183 909.06024 823.1543 4289943891
1.0813456 909.88696 823.85132 4294110968
34.873394 909.6803 823.67706 4293122790
37.847095 909.88696 823.85132 4293123048
-3.7718656 914.34015 823.68213 4287310367
-1.6165137 914.13416 823.50842 4293365105
1.6165137 914.75208 824.02942 4292723169
4.0412846 913.51624 822.98743 4283586180
28.558411 913.92822 823.33478 4292727523
31.522018 914.13416 823.50842 4292925414
33.946789 914.75208 824.02942 4293583343
4.0321102 916.68311 823.04163 4285095004
6.451376 916.06659 822.52173 4280879107
32.256882 917.29962 823.5614 4293188067
-4.0321102 918.53265 824.60107 4289274941
-1.612844 918.53265 824.60107 4288551729
1.612844 918.53265 824.60107 4294951423
4.0229359 919.84155 823.08862 4289826994
6.4366975 918.61133 822.05127 4285075499
28.965137 918.61133 822.05127 4293186789
31.378899 919.22644 822.56995 4293187299
33.869724 918.53265 824.60107 4293517287
-1.6073395 922.3385 823.88593 4288682024
1.0715597 921.91626 823.96588 4292109197
3.7461774 922.78693 822.95605 4294369782
7.2247705 922.37781 822.61108 4294967295
10.43578 922.37781 822.61108 4288844703
28.096329 922.37781 822.61108 4293122535
31.325687 922.66498 823.5072 4293385705
-1.6055046 924.83264 824.68091 4289998382
0.80275232 924.83264 824.68091 4289275704
4 926.78326 822.40161 4291463867
7.1999998 926.78326 822.40161 4294967295
10.4 926.78326 822.40161 4293717228
28 926.78326 822.40161 4292728547
31.255047 925.80798 823.54126 4293122796
-3.2 929.22974 824.46436 4286211168
-1.6 928.00653 823.43298 4287575854
1.0666667 928.82202 824.12061 4286530388
4 928.00653 823.43298 4288631099
6.4000001 928.00653 823.43298 4292661989
28 928.00653 823.43298 4293188327
31.200001 928.00653 823.43298 4293254124
34.400002 929.22974 824.46436 4293253352
-3.1926606 932.96539 824.99805 4279376670
-1.5963303 931.74506 823.96906 4284767573
0.79816514 932.35522 824.48358 4286078082
4.2568808 930.9314 823.28302 4279500800
7.9816513 930.5246 822.94006 4294967295
31.926605 930.5246 822.94006 4293056234
34.587154 932.15179 824.31207 4292925155
36.715595 932.96539 824.99805 4292991204
-1.5926605 935.47223 824.49573 4282392875
0.79633027 934.8634 823.98242 4286144887
3.1853211 933.03705 822.44238 4284105554
7.9633026 933.03705 822.44238 4293391077
31.056881 933.03705 822.44238 4293188329
33.445873 934.8634 823.98242 4292925413
-1.5889908 937.97339 823.98865 4287983741
1.0593272 937.56842 823.64722 4287394947
3.972477 936.75861 822.96436 4285886859
30.985321 936.75861 822.96436 4292859364
-1.5853211 941.68103 824.49878 4290152601
1.5853211 941.68103 824.49878 4287660702
3.9633029 940.46906 823.47675 4287074213
7.1339455 940.46906 823.47687 4284375173
10.304587 941.07507 823.98779 4282469451
-1.5816513 944.16821 823.97986 4288315024
10.280734 944.16821 823.97986 4291145434
12.653211 943.5636 823.47003 4283254951
15.816514 942.95905 822.96021 4286211888
30.051376 943.5636 823.47003 4293122535
-3.1633027 945.37744 824.99939 4285294954
-1.5761468 947.28601 822.68457 4283189835
0.79082566 945.37744 824.99939 4288313216
3.9541283 945.37744 824.99939 4289628025
7.1174312 945.37744 824.99939 4288181626
10.280734 945.37744 824.99939 4294960117
13.397247 947.28601 822.68457 4294963711
-3.677676 949.29437 824.37793 4284895023
-1.5724771 949.76062 822.15491 4280818695
0.78623855 950.04431 823.0481 4288907841
3.9339449 950.04425 823.04822 4288907872
7.0807343 950.04425 823.04822 4288052257
10.227523 950.04431 823.0481 4291277238
13.366055 949.76062 822.15491 4294967295
15.724771 949.76062 822.15491 4294634751
31.522936 949.69598 824.71655 4292925159
33.887154 949.69598 824.71655 4292728033
36.953209 950.96277 823.16858 4292661980
40.144035 950.32935 823.94257 4292660698
42.456882 950.96277 823.16858 4292923614
-3.9275229 952.79688 823.4071 4282586112
-1.5688074 953.42889 822.63196 4281078016
0.78440368 953.42889 822.63196 4287529545
3.1376147 953.42889 822.63196 4290160504
40.884403 952.16492 824.18225 4292726751
42.456882 952.16492 824.18225 4293055716
-7.0596333 955.22791 824.14886 4290751619
-3.9165137 955.25885 822.86688 4290550955
-1.5651376 955.88947 822.09058 4286999944
0.78256881 955.25885 822.86688 4287799456
29.807339 954.62823 823.64319 4280032795
32.160549 955.22791 824.14886 4289961120
34.51376 955.82764 824.65454 4293188586
36.866974 955.82764 824.65454 4292662240
40.78899 955.82764 824.65454 4292596187
-6.2605505 958.28253 824.1084 4294967295
-3.9128439 957.68427 823.604 4294966779
-1.5633028 958.31207 822.82526 4287400077
0.78165138 957.99817 823.2146 4286871984
3.1229358 959.53815 822.55103 4286804059
26.544954 959.53815 822.55103 4278190336
28.887157 959.53815 822.55103 4288177719
31.799997 958.30225 823.25293 4291603119
35.215599 958.28253 824.1084 4292859620
-1.5614679 961.32874 824.06079 4281288557
1.5614679 961.32874 824.06079 4286739106
3.1229358 961.32874 824.06079 4289830552
6.2458715 961.92566 824.56409 4290496746
10.930275 961.92566 824.56409 4287726274
13.272477 961.92566 824.56409 4291737278
16.655657 961.52765 824.22852 4287141481
19.518349 961.32874 824.06079 4291937402
22.381041 961.52765 824.22852 4290095279
24.983486 960.73187 823.5575 4278190080
28.106422 960.73187 823.5575 4290025084
4.6733947 963.17554 823.00183 4293254110
7.788991 963.17554 823.00183 4283654018
9.3467894 963.17554 823.00183 4283778694
-18.128441 752.95593 827.56628 4286455331
-16.315596 751.57001 826.39771 4285860379
-14.502752 750.18402 825.22913 4285728258
47.133945 751.56995 826.39771 4293121509
-14.458715 755.20538 825.53882 4285732637
46.087158 755.20538 825.53882 4293450216
-18.977064 757.96881 827.8689 4286128939
-16.266054 756.5871 826.70386 4285668127
46.388382 757.04767 827.09222 4294174451
-18.018349 761.5874 826.99597 4286260780
-16.216515 760.89862 826.41522 4285602850
-21.555964 766.57086 827.2738 4286324776
-19.759632 766.57086 827.2738 4286258983
-16.166973 765.19751 826.11584 4286258463
-19.699083 770.16833 826.38306 4286194735
-17.012844 768.79926 825.22864 4286586661
-16.977982 771.65118 825.01721 4286982704
-16.925688 776.59955 825.2655 4287377462
-16.873394 781.53113 825.49951 4285543983
-21.86055 784.80939 825.64771 4284882734
-19.497248 784.35773 825.26685 4283502616
-17.133944 784.80939 825.64771 4282324776
-14.179816 784.35773 825.26685 4283571499
-21.203671 789.26263 825.47852 4284489261
-19.436697 789.93811 826.04797 4284028714
-17.080734 789.71289 825.85815 4282983216
-16.733946 794.1507 825.6759 4283112749
-14.091743 794.1507 825.6759 4283246131
-17.46789 806.65814 825.75757 4287314231
-19.21468 807.99359 826.88354 4286325551
-16.559633 809.43433 825.4823 4287047731
46.192661 809.43433 825.4823 4294176248
-19.755352 811.65533 827.35504 4286063913
-17.431192 811.43323 827.16779 4286586671
46.192661 811.43323 827.16779 4294176504
-16.507339 814.9165 826.18066 4286455337
-13.900917 814.25226 825.62061 4287308341
43.440369 814.25226 825.62061 4294702591
46.046791 815.58069 826.74072 4294439164
-19.113762 816.90906 827.86072 4285932069
45.177982 816.90906 827.86072 4294109686
-19.053211 820.37756 826.86121 4286062885
-16.72049 820.88727 825.54688 4286390056
-13.827523 821.80426 825.448 4287242028
43.302753 819.71545 826.30292 4294109939
45.900917 821.03967 827.41949 4294043894
-19.012844 823.12567 826.56226 4286062885
44.3633 823.56616 826.93359 4294043894
46.667889 824.44708 827.67639 4294043896
-22.398165 826.57874 825.54968 4285473061
-19.813763 827.23737 826.10498 4285997356
-16.367889 826.57874 825.54968 4286586665
-13.783486 826.57874 825.54968 4287307821
43.647705 827.45685 826.29004 4294109686
46.519264 827.89594 826.66028 4294109686
-19.793579 829.9209 827.05963 4286063912
-16.333027 829.97144 825.79425 4286586923
-13.181039 829.75238 825.60956 4287766834
41.262386 829.31421 825.24011 4294175735
43.888992 829.9209 827.05963 4293978099
46.519264 829.21313 827.77087 4294044146
48.242203 829.21313 827.77087 4293978099
-18.911926 831.94299 827.45667 4285211170
-16.333027 831.94299 827.45667 4286783260
-13.754128 831.94299 827.45667 4287701299
44.700916 831.94299 827.45667 4293977840
48.13945 831.94299 827.45667 4293583343
-18.851376 836.68237 827.52856 4285800740
-16.566362 836.24561 827.16034 4286455843
-13.710092 836.02728 826.97626 4287701807
-11.99633 834.7171 825.87158 4287832626
43.700916 835.37219 826.42389 4293847283
47.128441 836.68237 827.52856 4293716211
-18.811008 839.39679 827.20129 4286062635
-16.245872 839.39679 827.20129 4286782506
-13.680734 839.39679 827.20129 4287438894
-11.400612 838.52521 826.46649 4288029231
44.462387 839.39679 827.20129 4293782003
47.027523 839.39679 827.20129 4293847027
-10.795719 842.37201 825.78583 4288161076
44.319267 842.80634 826.1521 4293978099
-16.193579 844.1095 827.25085 4287047470
-13.636697 844.1095 827.25085 4287573042
-11.068808 844.80884 826.53253 4288294969
44.223854 845.50818 825.81421 4293846513
46.023853 844.1095 827.25085 4293517548
-11.055964 846.80853 826.91064 4288558143
44.223854 846.80853 826.91064 4293517550
-11.302752 850.63043 826.20898 4289083208
44.080734 850.8465 826.39117 4293451503
-10.99633 853.53149 826.03906 4289282636
40.601833 852.88483 825.49377 4293451503
42.293579 853.53149 826.03906 4293385710
-13.533945 855.47156 827.6748 4287243048
-10.96055 857.54846 825.50195 4288889673
43.070641 856.51001 826.58838 4293254636
-13.489908 860.12671 827.6759 4287376433
-11.23425 859.72797 826.46759 4288889674
-8.4128437 860.21942 825.13794 4290273385
42.953209 859.5285 825.8634 4293385708
-10.095413 862.14893 826.76483 4289353827
43.746788 861.50574 826.22253 4293122794
-8.3853207 865.49744 825.66418 4290273649
43.603668 865.49744 825.66418 4293385197
-10.062386 867.42065 827.28577 4289813349
-8.3669729 868.7912 825.82532 4290076522
43.508255 868.7912 825.82532 4293517289
-10.877064 870.71021 827.44342 4289419100
43.508255 870.07056 826.90405 4293517037
45.181652 871.34985 827.98279 4293450992
-10.563302 874.24738 826.50177 4289090648
-8.3394499 873.39734 825.78503 4289945699
43.365139 873.39734 825.78503 4293450992
-10.81743 877.94305 827.00183 4289287257
-8.3211012 876.03461 825.39258 4290472045
43.269726 876.03461 825.39258 4293385708
-10.793578 881.20532 827.13635 4289550684
-8.3027525 879.93579 826.06592 4290141284
43.174313 880.57056 826.60114 4293582576
-10.757798 884.50122 825.99133 4289353566
-10.746789 886.44055 826.31854 4289287772
-8.2568808 887.11462 825.57886 4290075493
41.284405 887.11462 825.57886 4293517550
43.031193 885.76654 827.05823 4293517550
-10.451376 889.66632 826.85834 4289287775
-7.4146791 890.35229 825.69269 4290601319
41.192661 889.72247 825.16162 4293254379
43.737614 889.34406 826.80457 4293254379
46.753521 889.66632 826.85834 4293122795
49.431194 890.98218 826.22375 4293188586
-9.8862381 892.24188 827.28589 4289485150
-8.2385321 892.24188 827.28589 4290406252
-9.8532114 896.13464 826.64417 4289553506
-6.5688071 894.25146 825.05627 4290604135
-4.9266057 894.25146 825.05627 4292841097
43.792049 894.66992 825.40918 4293451755
46.529053 895.5069 826.11493 4293254636
-9.831193 899.34918 826.73853 4289753451
-8.1926603 898.09656 825.68225 4291068028
43.694187 898.51416 826.03436 4293517035
45.878899 898.7229 826.21039 4293385965
-10.650459 900.60187 827.79468 4289819245
-7.6293578 901.09717 825.59625 4291464331
40.871559 900.68054 825.245 4293385195
43.323853 901.30548 825.77191 4293320168
45.878899 900.60187 827.79468 4293188586
-9.8091745 903.1803 827.35266 4290215551
-7.3458714 904.17456 826.22894 4291596686
-4.8880734 905.16882 825.10522 4290675066
43.252296 904.17456 826.22894 4293385960
45.776146 903.1803 827.35266 4293122792
-7.0605507 907.24493 826.85577 4290737279
-4.8825688 907.69733 825.9292 4289091176
40.6422 908.98016 825.70288 4293123308
42.874619 907.685 826.3548 4293056999
45.622017 907.66016 827.20593 4292793830
-6.5027523 911.46588 827.79883 4289806409
-4.866055 911.54034 825.24548 4288624710
0.81100917 911.54034 825.24548 4292070636
34.873394 911.54034 825.24548 4293057255
38.117432 911.54034 825.24548 4292925413
40.550457 911.54034 825.24548 4293056999
43.080734 910.84448 827.27484 4292990689
-6.4880733 914.02045 827.33655 4289867073
0 912.7804 826.29102 4292723169
35.684402 912.7804 826.29102 4293056745
38.387768 913.19379 826.63947 4293122279
40.550457 913.40039 826.81378 4293122278
42.172478 913.40039 826.81378 4292989662
-6.4660549 917.22375 826.11353 4289734983
-4.0412846 915.98792 825.07141 4288881710
-1.6165137 915.98792 825.07141 4291317583
0.53883791 916.3999 825.41876 4291134407
35.024464 916.3999 825.41876 4293319914
37.718655 916.81183 825.76611 4293385706
40.412846 917.22375 826.11353 4293121759
-6.4587154 919.72913 826.91797 4289603644
-4.3009171 920.1767 825.9873 4289734973
34.676147 920.3822 826.16058 4293320168
37.923851 920.05566 826.53925 4293451241
40.412846 918.45959 827.15552 4293056484
-7.2504587 922.88196 826.96027 4289013041
-3.75474 923.12213 825.85468 4289998134
0 922.302 825.16321 4288548648
34.597248 923.53223 826.20044 4293122024
37.901833 922.23175 827.72009 4292923874
-6.4366975 924.76245 827.23779 4286850341
-4.0137615 926.06006 825.71582 4286982950
0 926.06006 825.71582 4287575091
34.558716 925.41125 826.47681 4293122025
37.815598 924.76245 827.23779 4292989924
-7.2247705 927.90118 827.26825 4285884010
-4.8165135 927.28748 826.75073 4284961114
37.996941 927.69659 827.0957 4292990180
40.940369 928.51489 827.78577 4293122533
43.348625 928.51489 827.78577 4293385960
-9.6000004 932.89935 827.55847 4284043604
-7.1999998 931.67615 826.5271 4282661189
-4.2666669 930.86066 825.83954 4283187271
0 930.45294 825.49573 4287458973
37.599998 931.98193 826.78497 4292859618
44 932.89935 827.55847 4292794081
46.400002 932.89935 827.55847 4292464606
-6.9174309 934.99945 826.71313 4285884271
-3.9908257 934.18579 826.0271 4282065967
35.119267 934.18579 826.0271 4292728035
47.889908 934.79602 826.54163 4292727263
49.48624 934.79602 826.54163 4292793056
-4.2470946 937.0957 825.86456 4286539376
-6.8966355 939.95599 827.4043 4286341465
-3.7076452 939.99811 825.6958 4287325553
-1.5889908 939.18823 825.01294 4289823896
0.52966362 939.5932 825.35431 4288646315
-6.3412843 944.10504 826.5426 4286208588
-4.2275229 943.29706 825.86133 4287130476
0.79266053 942.89301 825.52063 4286540428
3.9633026 942.89301 825.52063 4291804870
7.133945 942.89301 825.52063 4292398817
-6.8648319 946.14325 827.38916 4285288241
-4.7449541 946.58661 826.01892 4289894025
34.005505 946.58661 826.01892 4292727520
36.377983 946.58661 826.01892 4292727262
29.946789 950.90094 825.73254 4292201398
31.522936 950.90094 825.73254 4292530149
34.675228 950.90094 825.73254 4292925663
37.039452 950.90094 825.73254 4292728286
39.403671 950.90094 825.73254 4292794080
33.808258 953.36713 825.19592 4293187292
36.953209 953.36713 825.19592 4292596958
40.098167 953.36713 825.19592 4292727517
42.456882 953.36713 825.19592 4293055712
-15.724771 955.77148 827.22314 4278190080
-13.366055 955.77148 827.22314 4283252536
-10.221101 954.56927 826.20947 4285752365
39.311928 954.56927 826.20947 4292925411
43.243118 954.56927 826.20947 4292925156
45.601833 955.77148 827.22314 4292662241
-10.040367 957.98645 826.47479 4292329935
-7.4481649 958.53955 826.28711 4294439164
-3.9128439 959.47913 825.11731 4294573055
0 959.47913 825.11731 4278911059
26.60734 959.47913 825.11731 4284046425
29.737616 959.47913 825.11731 4293906871
32.371864 959.46124 825.9743 4293383662
34.981651 959.46124 825.9743 4292793825
37.259174 958.52618 826.92993 4292661985
40.004585 958.22632 826.67706 4292661984
42.75 957.92651 826.42426 4292925413
-6.2605505 961.27393 826.63062 4292139234
-3.6519878 961.07452 826.46246 4286683822
-1.5651376 961.87225 827.13501 4285301366
0.52171254 961.47339 826.79877 4291150012
3.1302752 961.87225 827.13501 4294967295
17.216515 961.87225 827.13501 4282991214
19.56422 961.87225 827.13501 4291203716
22.694496 961.87225 827.13501 4290486398
25.824772 961.27399 826.63062 4290884002
28.694191 961.07452 826.46246 4293909731
31.302752 960.67566 826.12622 4293254379
4.6844039 963.11938 825.57056 4294967295
7.0266056 963.11938 825.57056 4290164154
10.149542 963.11938 825.57056 4282933086
13.272477 963.11938 825.57056 4289707467
15.614679 963.11938 825.57056 4289044170
-20.001835 751.40149 830.17981 4286062384
-18.128441 754.34186 828.73486 4286128678
-19.880733 759.35059 829.03394 4286128940
-21.622019 762.9649 828.15735 4286062885
-18.919266 762.9649 828.15735 4286193699
-22.660551 814.76483 829.97681 4285668125
-20.336391 813.8764 829.22778 4285932069
47.06422 814.76483 829.97681 4294372857
-22.588991 818.23749 828.98083 4285997092
-20.851376 818.23749 828.98083 4286062885
46.915596 818.23749 828.98083 4294438652
-22.588991 819.56592 830.10095 4285866020
-20.851376 819.56592 830.10095 4286062885
-22.469725 825.76849 828.79053 4285868352
48.396332 825.76849 828.79053 4294109688
-22.398165 830.53033 828.88159 4285934659
-20.67523 830.53033 828.88159 4285737514
46.519264 830.53033 828.88159 4293911791
-22.350458 833.25739 828.56494 4285868850
-19.771561 833.25739 828.56494 4285735717
-15.473394 833.25739 828.56494 4286850339
44.700916 833.25739 828.56494 4293978099
46.420185 833.25739 828.56494 4293715184
48.13945 833.25739 828.56494 4293714932
49.858715 835.88617 830.78137 4293517550
-18.811008 841.35785 828.85486 4286063402
-16.245872 840.70416 828.30371 4286782756
-13.680734 840.70416 828.30371 4287439921
47.312542 841.13995 828.67114 4293451753
49.699081 840.61292 830.84277 4293452007
51.412846 840.61292 830.84277 4293517548
-16.221102 844.36578 829.42908 4286981421
-13.636697 845.41266 828.34973 4287769402
46.876144 845.41266 828.34973 4293583342
49.592659 843.31891 830.50842 4293517548
-16.193579 847.36743 829.99786 4286783790
-13.60734 848.10889 828.00708 4287702073
47.127216 847.61456 829.33429 4293517298
-16.158716 850.70959 830.19995 4286717997
-13.60734 849.40924 829.10339 4287438894
45.92477 850.05945 829.65167 4293254381
-13.563303 852.79077 828.03052 4287308591
44.080734 852.79077 828.03052 4293254894
45.776146 854.08691 829.12341 4292926183
-15.258716 855.38306 830.21631 4287179815
-13.533945 856.76489 828.76538 4287440172
45.677063 856.76489 828.76538 4293517548
-15.225688 858.7049 830.40112 4286983215
46.80489 858.48932 830.21942 4293385708
-15.176147 863.99414 830.93677 4287707444
-13.489908 862.06042 829.30634 4287706683
-11.80367 861.41589 828.76282 4289548885
45.528439 862.06042 829.30634 4293648369
-13.46055 866.00793 830.01862 4288168776
-11.217125 864.50714 828.75323 4289483613
46.551071 865.79352 829.83789 4293648106
-13.416513 869.98492 829.44788 4288301130
-11.73945 868.70276 828.36682 4289222232
46.119267 869.34387 828.90735 4293648877
-13.387156 872.62915 829.0614 4288366670
46.119267 871.26703 830.52893 4293517551
-13.387156 873.90851 830.14014 4288235596
45.181652 873.90851 830.14014 4293451244
-16.6789 878.4978 830.08557 4287051077
-13.34312 878.4978 830.08557 4288236367
45.866974 877.22266 829.0105 4293517038
-13.313762 881.12384 829.68372 4288236628
44.933945 879.85156 828.61096 4294108919
46.598164 879.85156 828.61096 4293912045
-13.313762 882.39618 830.75647 4288236880
44.281345 882.89801 828.56366 4293648625
46.495415 883.10962 828.742 4293450731
-13.284404 885.01385 830.34766 4288236880
-11.585321 887.03186 828.12512 4288829273
-13.240367 888.92981 829.72534 4288368977
-11.559633 890.9021 828.77234 4288829784
47.889908 890.9021 828.77234 4293123308
49.651375 889.56244 830.25879 4293188840
51.306423 889.56244 830.25879 4293188840
-13.211009 892.7959 830.36908 4288108115
-11.533945 893.50153 828.34802 4288961886
47.783485 893.50153 828.34802 4293451757
49.541283 893.42712 830.90137 4293188840
51.192661 893.42712 830.90137 4293188840
-13.181651 896.02094 830.47229 4288370769
-11.533945 894.76123 829.41016 4288701276
49.431194 896.02094 830.47229 4293188586
-13.137614 899.27338 829.29065 4288370254
-11.495413 898.01788 828.23206 4289226078
47.623852 898.64563 828.76135 4293122792
-13.137614 900.52881 830.34924 4288304974
-11.469725 901.85455 828.85095 4289818213
47.517429 901.85455 828.85095 4293122792
49.266056 900.52881 830.34924 4293122792
-13.108257 904.35992 830.96338 4288832353
-10.633027 904.72437 829.30859 4290477690
-8.1743116 904.43011 828.40649 4290478721
44.141285 904.43011 828.40649 4292926181
46.901531 904.40576 829.258 4292728036
49.975227 904.35992 830.96338 4292991206
-13.078899 906.92987 830.51416 4288898660
-10.610092 907.91785 829.38519 4289356902
-7.3321099 908.90576 828.25623 4289680735
43.992661 908.90576 828.25623 4292925411
46.516514 907.91785 829.38519 4292859364
-10.862386 910.56665 829.65656 4288764509
-8.1467886 910.15143 829.30652 4289352283
45.622017 910.77429 829.83167 4293056229
-9.7541285 913.3302 829.37067 4289084744
-8.1284399 912.70874 828.84668 4289085513
43.893578 913.3302 829.37067 4293252579
-10.543119 917.12048 829.9505 4288294967
