# .PCD v0.7 - Point Cloud Data file format
VERSION 0.7
FIELDS x y z rgb
SIZE 4 4 4 4
TYPE F F F U
COUNT 1 1 1 1
WIDTH 1167
HEIGHT 1
VIEWPOINT 0 0 0 1 0 0 0
POINTS 1167
DATA ascii
-10.007339 847.89502 804.2821 4292638324
-8.3394499 847.89502 804.2821 4292638324
1.66789 847.89502 804.2821 4294939053
10.841284 847.89502 804.2821 4294691547
13.34312 847.89502 804.2821 4294967295
15.844954 847.89502 804.2821 4294967295
-10.563302 850.0202 806.07404 4292702834
-7.4889908 851.86072 805.00977 4293162109
-3.3284404 851.86072 805.00977 4294208656
13.878288 850.96387 805.12567 4294967295
16.122936 849.59515 805.71564 4294967295
18.902752 850.0202 806.07404 4294967295
22.516514 850.44525 806.43237 4294967295
-9.985321 853.13306 806.08264 4292966267
-7.4816513 853.83936 805.37018 4293096321
-4.1513762 854.54572 804.65771 4293947790
-1.6605505 854.54572 804.65771 4294932634
1.6605505 854.54572 804.65771 4294939553
4.1513762 854.54572 804.65771 4294940583
8.3027525 854.54572 804.65771 4294942897
10.793578 854.54572 804.65771 4294623447
14.145872 853.13306 806.08264 4294967295
16.642202 853.13306 806.08264 4294967295
18.306421 853.13306 806.08264 4294967295
-9.9633026 857.08472 806.79846 4291638357
-7.472477 855.81525 805.72815 4293687680
-3.321101 855.81525 805.72815 4294672792
14.114679 855.81525 805.72815 4294967295
16.605505 855.81525 805.72815 4294967295
19.096329 856.44995 806.26331 4294967039
21.587156 857.08472 806.79846 4294967295
-10.757798 860.46063 805.72095 4290851387
-7.7235475 859.61713 805.0097 4291901774
1.6550459 859.19531 804.65405 4294937253
4.1376147 859.19531 804.65405 4294942389
14.06789 859.19531 804.65405 4294966783
16.550459 859.828 805.1875 4294967295
18.757187 860.03888 805.3653 4294967295
-10.746789 862.42664 806.0705 4292636540
-7.1559634 862.70654 804.99847 4292172124
-4.1284404 861.86481 804.28882 4293090639
-1.6513761 861.86481 804.28882 4294933104
1.6513761 862.49609 804.82104 4294933911
4.1284404 862.49609 804.82104 4294939573
7.4311924 861.86481 804.28882 4294943916
10.733945 861.86481 804.28882 4294755790
14.036697 861.86481 804.28882 4294966783
16.513762 863.12732 805.35327 4294967039
19.012844 862.42664 806.0705 4294967295
21.515596 861.72589 806.78772 4294967295
-10.733945 864.38983 806.41785 4293294992
-7.4146786 865.78845 804.98108 4292240255
-4.119266 865.78845 804.98108 4292630121
-1.6477064 865.78845 804.98108 4291376982
1.6477064 865.78845 804.98108 4294928719
4.119266 865.78845 804.98108 4294936491
7.4146786 865.78845 804.98108 4294946218
9.8862381 865.78845 804.98108 4294751420
16.477064 865.78845 804.98108 4294967295
18.970642 865.08911 805.69946 4294967295
21.46789 864.38983 806.41785 4294967295
-9.8862381 867.04816 806.04321 4291780496
-7.4146786 867.04816 806.04321 4292702347
19.772476 867.04816 806.04321 4294967295
21.420183 867.04816 806.04321 4294967295
-7.1162076 871.23438 805.64886 4292832895
-4.9266057 871.02515 805.47241 4293424769
3.2844036 870.3974 804.94312 4294402404
19.706423 870.3974 804.94312 4294967295
21.896025 871.23438 805.64886 4294967295
-3.9324768 874.54639 805.82538 4293687690
-1.6348624 875.68323 804.16785 4294081920
1.0923548 874.34064 804.77997 4294804125
4.091743 874.36316 804.36292 4294936228
7.0892968 874.80322 804.29785 4294870401
10.644955 874.01624 804.72443 4294818013
13.911926 874.36316 804.36292 4294966271
16.385321 873.66943 805.086 4294967295
18.843121 873.66943 805.086 4294967039
22.120182 874.92212 806.14221 4294967039
24.577982 875.54846 806.67029 4294967039
-1.6348624 877.55798 805.7486 4294214029
0.81743121 877.55798 805.7486 4294541712
4.0871563 877.55798 805.74854 4294938791
7.3568811 877.55798 805.7486 4294938779
10.626606 877.55798 805.74854 4294486712
13.89633 877.55798 805.74854 4294964987
17.166054 877.55798 805.7486 4294967295
19.618349 877.55798 805.7486 4294967295
21.25321 878.18292 806.27551 4294967295
8.1467886 881.50134 805.14941 4294940324
11.405504 881.50134 805.14941 4294951894
13.849541 881.50134 805.14941 4294898681
16.293577 881.50134 805.14941 4294967295
0 882.74695 806.19971 4294472848
4.0733948 882.74695 806.19971 4294940066
7.3321099 882.74695 806.19971 4294941602
10.590826 882.74695 806.19971 4294947024
13.849541 882.74695 806.19971 4294766836
17.108257 882.74695 806.19971 4294967295
19.552294 882.74695 806.19971 4294967295
21.181652 882.74695 806.19971 4294967295
-10.566973 886.60883 806.83997 4290326089
-1.6220183 887.97943 805.37952 4293882483
0.81100917 887.97943 805.37952 4294008688
4.3314986 886.65143 806.00385 4294935686
7.586544 886.19452 806.49066 4294942397
10.829358 886.65137 806.00385 4294947543
13.802752 886.67267 805.58575 4294766067
17.050459 886.67273 805.58569 4294967295
19.508257 885.98743 806.31598 4294967295
21.133945 885.98743 806.31598 4294967295
-10.543119 889.21948 806.42505 4289342801
-8.1100922 889.21948 806.42505 4294463091
3.2440367 889.21948 806.42505 4294934677
7.2990828 889.21948 806.42505 4294934689
9.73211 889.21948 806.42505 4294942662
14.598166 889.21948 806.42505 4294966271
17.031193 889.21948 806.42505 4294967295
19.46422 889.21948 806.42505 4294967295
21.086239 889.21948 806.42505 4294967295
-12.93211 893.74286 806.31494 4292971187
-10.23792 893.33087 805.96759 4289603127
-7.274312 891.8891 804.75195 4293944183
1.0776758 891.68311 804.57831 4294537345
4.0412841 892.50702 805.27295 4294935972
7.274312 892.50702 805.27295 4294933647
10.776759 892.09503 804.9256 4294947033
13.578715 892.75421 805.48132 4294765042
16.973394 893.12494 805.79395 4294967295
19.398165 893.12494 805.79395 4294967295
21.014679 893.74286 806.31494 4294967295
-7.2577982 895.72156 805.36737 4293550966
-4.838532 895.72156 805.36737 4293291408
-1.612844 895.10504 804.84753 4294148231
1.612844 895.72156 805.36737 4294940320
4.3009171 895.92706 805.54071 4294874535
7.2577982 895.10504 804.84753 4294933898
10.483486 895.10504 804.84753 4294877630
14.515596 896.33807 805.88721 4294966527
16.934864 896.33807 805.88721 4294967295
-9.6770639 897.57111 806.92688 4289799958
-7.2504587 898.24939 806.19073 4293289071
-3.75474 898.51758 805.10883 4293685383
-1.6091744 897.69745 804.41724 4294278786
1.6091744 898.92767 805.45459 4294935180
4.0229359 898.92767 805.45459 4294938802
6.9730887 898.10748 804.763 4294875805
11.26422 897.69745 804.41724 4294943168
12.873395 897.69745 804.41724 4294103262
16.916515 898.24939 806.19073 4294967295
20.160549 897.57111 806.92688 4290758355
-7.2330275 901.44843 806.27197 4293685123
-4.2813454 901.92072 805.36212 4292831623
-1.6055046 901.5116 805.01721 4294011791
1.0703365 901.92072 805.36212 4294738570
3.7522936 901.01831 806.34521 4294938285
7.4972477 901.46954 805.8537 4294943662
10.43578 902.12531 805.53467 4294610593
13.646789 902.12531 805.53467 4293314267
16.8578 902.12531 805.53467 4287531683
19.815901 901.87866 806.19873 4281546081
-7.1999998 905.98865 804.86816 4292896104
-4 905.98865 804.86816 4293422460
-1.6 905.98865 804.86816 4294935976
-9.6000004 907.82349 806.41522 4289669173
-7.4666667 907.61963 806.24335 4291180872
-3.9908257 908.55725 804.41772 4292625497
-1.5963303 908.55725 804.41772 4293547369
0.80000001 907.88452 805.15863 4294408329
3.2 907.21185 805.89954 4294939814
7.1999998 907.82349 806.41522 4294940862
17.066666 908.02734 806.5871 4286345574
20 908.43512 806.93091 4278190080
22.4 908.43512 806.93091 4279836204
24.799999 908.43512 806.93091 4280362543
-7.183486 910.38782 805.9613 4291441984
-3.7247708 910.18439 805.78979 4292425285
-1.5963303 909.77765 805.44678 4294004827
1.5963303 909.77765 805.44678 4294938277
3.1926606 909.77765 805.44678 4294940080
7.183486 910.99805 806.47583 4294940612
9.5779819 909.77765 805.44678 4294943670
17.559633 910.99805 806.47583 4293056734
19.954128 910.99805 806.47583 4283977546
-6.3633027 913.61499 804.7583 4291900999
-4.2409787 914.04077 804.68134 4292096840
1.5908257 913.61499 804.7583 4294397282
3.712538 913.59515 805.17755 4294535023
7.1669722 913.55542 806.01599 4294936509
10.346788 913.28082 805.13049 4294940854
13.537615 913.55542 806.01599 4294825196
-6.3412843 917.44122 804.0603 4291964992
-3.9633026 917.44122 804.0603 4292358983
-1.5853211 917.44122 804.0603 4293147731
1.0593272 916.95673 805.39581 4294002775
3.9669724 916.77417 804.80591 4294663009
7.1504583 916.10706 805.55151 4294732429
10.304587 917.44122 804.0603 4294941371
13.506422 916.10706 805.55151 4294626528
-6.8697248 919.46118 805.76349 4291836739
-3.9633026 919.25916 805.5932 4292491851
-1.5853211 918.6532 805.08228 4292752973
0.52844036 919.46118 805.76349 4294004570
3.9633026 919.25922 805.59314 4294660451
7.133945 919.25922 805.59314 4294730083
9.5119267 919.25916 805.5932 4294867366
13.73945 919.05719 805.42285 4294628065
15.853211 919.86517 806.10413 4294569720
-6.3266053 923.61206 806.64734 4292163657
-3.9541283 923.00751 806.13757 4292557131
-1.5816513 921.79834 805.11804 4293214292
0.79082566 923.00745 806.13757 4294135386
3.9541283 923.61206 806.64734 4294399333
7.1174312 923.00745 806.13757 4294793063
10.544343 921.99982 805.2879 4294673047
13.180428 921.99982 805.2879 4294230488
16.60734 923.00745 806.13757 4294635767
19.770641 923.61206 806.64734 4294635509
-3.1522937 926.80139 805.41248 4292951371
-1.5761468 926.19891 804.90448 4292950860
0.52538228 926.39972 805.07379 4293739604
3.940367 926.80139 805.41248 4294399333
7.0926609 926.80139 805.41248 4294858604
10.244954 926.19891 804.90448 4294601079
13.397248 926.19891 804.90448 4293834694
15.761468 926.19891 804.90448 4294504182
20.489908 926.80139 805.41248 4294635765
-3.1522937 928.00635 806.42847 4293279569
-1.5724771 929.32367 804.9231 4293279569
0.78623855 929.32367 804.9231 4293871192
3.9311926 929.32367 804.9231 4294398302
7.0761471 929.32367 804.9231 4294857061
10.221101 929.32367 804.9231 4294863215
13.366055 929.32367 804.9231 4293701306
16.531193 928.66504 805.67578 4294438389
19.677982 928.66504 805.67578 4294241778
22.85413 928.00635 806.42847 4294175728
26.006422 928.00635 806.42847 4294899709
-3.1449542 931.72803 806.95032 4290849357
-1.5724771 930.52588 805.93677 4292952666
1.048318 931.36475 805.77197 4293937753
3.9311926 930.52588 805.93677 4294661212
7.3382263 930.92657 806.2746 4294856294
10.208257 931.18311 805.18286 4294730858
13.628135 930.92657 806.2746 4294031813
16.511009 931.12695 806.44354 4294767100
19.655964 931.12695 806.44354 4294504690
22.800919 931.12695 806.44354 4294241263
25.159634 931.12695 806.44354 4294372592
-3.1376147 934.23901 806.45154 4290801039
-1.5688074 933.63934 805.94592 4290660716
0.52293581 934.27557 805.61035 4292231502
3.9192662 933.96655 805.56787 4294070877
6.7932725 934.27557 805.61035 4294725222
10.197248 933.63934 805.94592 4294665068
13.073395 933.83917 806.11444 4293170854
-3.1302752 937.94104 806.95691 4288512385
-1.5651376 937.34277 806.45245 4291603121
0.78256881 937.34277 806.45251 4292912555
3.6519878 937.14331 806.28436 4292834477
7.3039756 937.14331 806.28436 4293740636
10.173394 937.34277 806.45251 4294534005
13.30367 937.94104 806.95691 4293894323
-3.1229358 940.43805 806.44629 4280554785
-1.5614679 940.43805 806.44629 4282331196
0.78073394 940.43805 806.44629 4286008158
4.1639142 940.0401 806.11078 4291856057
6.7663612 940.0401 806.11078 4292182683
10.149542 940.43805 806.44629 4293811529
12.491743 940.43805 806.44629 4293297562
-7.0100918 944.12036 806.93506 4291006584
-3.8944955 943.5249 806.43298 4286534459
-1.5577981 942.92938 805.93091 4285088072
0.77889907 944.12036 806.93506 4284169770
3.8944955 944.12036 806.93506 4281086228
7.0100918 944.12036 806.93506 4288312499
9.3467894 943.5249 806.43298 4293498770
-6.993578 946.60333 806.4126 4291071339
-3.8853211 946.60333 806.4126 4288770367
-1.5541284 946.00928 805.91168 4288112969
0.7770642 946.60333 806.4126 4285943619
3.8853211 946.60333 806.4126 4284431148
7.7706423 946.60333 806.4126 4290747008
10.101835 946.60333 806.4126 4292321261
12.433027 946.60333 806.4126 4291333255
-13.178899 950.26611 806.88489 4283119690
-6.2018347 949.08075 805.88538 4291400804
-3.8761468 949.08075 805.88538 4290350938
-1.5504587 949.08075 805.88538 4287787833
0 949.08075 805.88538 4288312392
7.7522936 949.08075 805.88538 4286539326
10.077982 949.08075 805.88538 4290020287
12.403669 950.26611 806.88489 4291407320
-12.374312 952.73499 806.35046 4282526038
-10.827523 951.55249 805.35339 4286014336
-3.8669724 951.55249 805.35339 4290616148
-1.5467891 951.55249 805.35339 4288315444
1.5467891 951.55249 805.35339 4291143004
3.0935781 951.55249 805.35339 4292455554
6.9605503 951.55249 805.35339 4288380747
10.054129 951.55249 805.35339 4288185207
21.655046 952.73499 806.35046 4294176498
-12.330276 955.83881 805.04346 4283053145
-10.788991 955.24963 804.54669 4282394705
-7.7064219 954.66046 804.04993 4281149482
-3.5963304 955.44604 804.71222 4289369966
1.5412844 955.24963 804.54669 4290221675
3.0825689 954.66046 804.04993 4293639338
6.9357796 954.66046 804.04993 4289103746
13.100918 954.66046 804.04993 4291871202
16.183487 955.24963 804.54669 4294108141
19.266056 955.24963 804.54669 4294044144
21.577982 955.83881 805.04346 4294176498
-13.100918 957.01715 806.03699 4289170072
-9.746789 958.26099 805.34174 4287925150
-6.9192657 958.88287 804.99408 4288452506
-3.8440366 958.88287 804.99414 4288582557
-1.5376147 958.88287 804.99408 4284633456
1.5376147 958.88287 804.99408 4287329361
3.8440366 958.88287 804.99408 4283651948
6.9192657 958.88287 804.99414 4283845755
9.9944954 958.88287 804.99408 4284635254
12.834251 957.83496 805.85449 4288710308
16.183487 957.01715 806.03699 4294174449
19.266056 957.01715 806.03699 4293779946
22.348625 957.01715 806.03699 4293780459
-9.225688 960.64612 806.48083 4278190084
-6.9192657 960.64612 806.48083 4279960339
-3.8440366 960.64612 806.48083 4285476648
-1.5376147 960.64612 806.48083 4291394392
0.76880735 961.28235 805.70923 4290946454
3.8440366 960.64612 806.48083 4284181663
6.9192657 960.64612 806.48083 4283845750
9.9944954 960.64612 806.48083 4285357181
13.069725 960.64612 806.48083 4288581801
-21.489908 749.63184 809.06714 4287443269
28.653212 748.94727 808.48993 4294967039
30.444036 748.94727 808.48993 4294967295
-21.445871 752.52307 808.88892 4287505704
-19.658716 751.8399 808.31287 4287375925
-17.871559 751.15674 807.73682 4287708224
23.233028 751.15674 807.73682 4294966527
26.211618 751.61212 808.12085 4294967039
28.594496 752.52307 808.88892 4294967295
-21.379816 757.53033 809.18689 4289291106
-19.598166 756.8493 808.61261 4289286998
-16.925688 756.16827 808.03833 4288952383
21.379816 756.16827 808.03833 4294965501
26.130888 756.62231 808.4212 4294966527
28.506422 757.53033 809.18689 4294967295
-19.537615 761.16296 808.32556 4292785602
-17.169418 760.25763 807.56232 4289551210
-14.209174 759.80505 807.18066 4288675840
22.201836 759.80505 807.18066 4294967295
25.458105 760.71027 807.94391 4294967295
28.418348 761.16296 808.32556 4294967295
-21.313761 762.52081 809.47058 4292329426
-19.537615 762.52081 809.47058 4293776872
-17.724771 764.03162 808.12842 4293711327
25.700916 764.03162 808.12842 4294967295
28.359632 764.03162 808.12842 4294967295
-19.497248 765.38672 809.271 4288648880
-16.78624 767.6488 807.25427 4289504189
25.621101 767.6488 807.25427 4294967295
28.359632 765.38672 809.271 4294967295
30.132111 765.38672 809.271 4294967295
-21.203671 770.35052 809.53223 4288848294
26.504587 768.99963 808.39319 4294967295
28.271559 769.67505 808.96271 4294967295
-21.137615 773.95087 808.64392 4288913826
-19.376146 773.27753 808.07617 4290164151
-16.733946 772.60419 807.50842 4290491584
25.834862 773.05304 807.8869 4294967295
28.183487 773.95087 808.64392 4294967295
-21.137615 775.29749 809.7793 4286086271
26.422018 775.29749 809.7793 4294967295
28.183487 775.29749 809.7793 4294967295
-19.315596 778.21399 808.31439 4287532692
-16.681652 778.21399 808.31445 4288322210
25.461468 778.21399 808.31439 4294967295
28.095413 778.88519 808.88037 4294967295
-16.64679 781.71893 808.65356 4287007386
-14.018349 780.37927 807.52393 4288848546
25.408257 781.04907 808.08875 4294967295
-19.275229 783.05853 809.78308 4287136645
-16.594496 785.2912 807.74146 4287730862
25.328442 785.2912 807.74146 4294967295
28.036697 783.05853 809.78308 4294967295
-19.21468 787.96204 809.99353 4289109933
-16.577982 787.36938 808.18573 4288058276
-13.944954 788.11224 807.50403 4289241255
20.917431 788.11224 807.50403 4294967295
22.660551 788.11224 807.50403 4294967295
25.302753 787.36938 808.18573 4294967295
28.530886 787.51691 809.61816 4294967295
-16.850153 789.8891 809.00226 4289439399
26.14679 789.44489 808.62769 4294967295
28.761467 790.77753 809.75134 4294967295
-16.507339 793.66174 808.25916 4291607754
25.485016 793.44037 808.07245 4294967295
27.801834 794.32593 808.81921 4294967295
-19.113762 795.65436 809.93933 4290746787
-17.376146 795.65436 809.93933 4291404468
25.115597 797.86597 807.88 4294967295
28.626606 796.76013 808.90967 4294967295
-16.438532 799.9259 808.30884 4292517775
20.741285 800.66174 807.62122 4285484940
22.469725 800.66174 807.62122 4294498303
25.062386 800.66174 807.62122 4294967295
28.579817 799.19012 808.99646 4294967295
-19.012844 803.30457 809.84961 4289349451
-16.420183 802.64386 809.29248 4289278535
22.469725 801.98315 808.73535 4294967295
25.062386 801.98315 808.73535 4294967295
28.231194 802.86407 809.47821 4294967295
-16.367889 806.16211 808.33496 4289544014
20.67523 805.50354 807.77966 4294967295
22.398165 805.50354 807.77966 4294967295
24.982571 806.16211 808.33496 4294967295
27.566973 806.82074 808.89026 4294967295
-16.333027 808.94116 808.06207 4290665828
-13.754128 808.28394 807.50793 4291122019
20.631193 808.28394 807.50793 4294899455
22.350458 808.94116 808.06207 4294967295
24.929358 809.59833 808.61621 4294967295
-18.911926 810.91272 809.72449 4289945699
25.78899 810.91272 809.72449 4294967295
27.508257 810.91272 809.72449 4294967295
-19.708256 815.06433 809.30078 4289548116
-16.543119 814.94232 807.45392 4291126890
20.521101 815.86395 807.35901 4294967295
23.11101 814.48151 807.50134 4294967295
25.706423 814.40924 808.74841 4294967039
27.420183 815.71942 809.85315 4294967295
-19.381039 818.04291 809.19629 4288823368
-17.100918 817.17133 808.46143 4290661202
23.941284 817.17133 808.46143 4294966783
25.651377 817.82501 809.01257 4294967295
27.361467 818.4787 809.56372 4294967295
-16.477676 821.08673 807.83881 4290333258
23.86422 820.6524 807.47253 4294967295
25.568808 821.95557 808.57129 4294967039
-18.750458 823.25873 809.67004 4290404444
-15.887463 823.7876 808.37207 4290992759
-13.60734 823.40192 807.1748 4290989413
-11.055964 823.40192 807.1748 4291449692
22.962385 823.40192 807.1748 4294966783
25.513762 824.70227 808.27124 4294967039
27.273394 823.25873 809.67004 4294966015
-17.009174 826.00269 809.36768 4289937756
27.21468 826.00269 809.36768 4294966015
-15.823853 829.4599 808.35858 4290134611
-13.563303 828.16376 807.26562 4291055192
25.431192 828.81183 807.81207 4294967039
27.126606 830.10797 808.90497 4294967039
-16.07156 832.83789 808.5907 4290861397
23.684404 832.19122 808.04541 4294967295
25.376146 832.83789 808.5907 4294967295
27.06789 833.48456 809.13599 4294967295
-15.738225 836.49243 807.74805 4290863199
-13.489908 835.633 807.02344 4291388285
23.045259 836.06274 807.38574 4294967295
25.293577 836.92218 808.11035 4294967295
-18.548624 838.2113 809.19739 4289876814
-16.002752 838.92468 808.49078 4290534499
-13.46055 839.638 807.78418 4290926700
23.555964 839.638 807.78418 4294967295
26.136696 838.2113 809.19739 4294967295
-18.508257 842.21069 809.95349 4289418326
-16.264832 841.35309 809.23029 4290468449
26.079817 841.5675 809.41113 4294967039
-15.652599 845.19708 808.54736 4290732132
-13.416513 844.34229 807.82666 4291057018
23.478899 844.34229 807.82666 4294967295
25.994495 844.9834 808.36719 4294967039
-15.915596 847.61426 809.27753 4291190889
-13.387156 847.68237 808.02692 4291320174
-11.713761 847.04266 807.48755 4292044667
20.080734 847.04266 807.48755 4294967295
22.590824 847.04266 807.48755 4294967295
25.658716 847.89557 808.20673 4294967295
28.510092 846.90656 809.98877 4294967295
30.187157 846.90656 809.98877 4294967295
-15.060551 849.60132 809.64502 4291119968
-13.34312 851.72034 807.50757 4291317585
-11.675229 851.72034 807.50757 4292304480
20.014679 851.72034 807.50757 4294967295
22.516514 851.72034 807.50757 4294967295
25.852295 851.72034 807.50757 4294967039
28.447706 849.60132 809.64502 4294967295
-15.011009 854.27057 809.65784 4289870670
-13.34312 853.63306 809.1203 4290788407
-10.81743 854.40533 807.1554 4292436322
19.970642 854.40533 807.1554 4294967295
22.492661 853.70044 807.86908 4294967295
25.852295 852.99548 808.58276 4294967295
28.354128 854.27057 809.65784 4294967295
-14.145872 856.94995 809.3009 4290331460
-11.649541 855.67767 808.22815 4290654510
23.299082 856.31384 808.76453 4294967295
25.795414 856.31378 808.76453 4294967295
-14.114679 859.62372 808.93933 4291453285
22.417431 858.98901 808.40411 4294967295
24.908257 859.62372 808.93933 4294967295
-13.240367 862.99121 807.85461 4291716958
23.170643 862.99121 807.85461 4294967295
24.825687 862.99121 807.85461 4294967295
-14.053211 865.58636 808.73474 4290795355
-11.559633 865.65228 807.4823 4293098107
23.119267 865.65228 807.4823 4294967295
25.624771 865.58563 808.73419 4294967039
28.963303 865.52179 809.9884 4294967295
-14.036697 868.17725 809.61133 4291188325
-10.710092 868.93762 807.63641 4292504195
-8.2385321 868.30786 807.10535 4292306568
23.06789 868.30786 807.10535 4294967295
25.53945 869.5675 808.16748 4294967295
28.073395 868.17725 809.61133 4294967295
-13.181651 870.82721 809.22961 4292241276
-10.710092 870.82721 809.22961 4292702597
-7.3899078 872.90833 807.0603 4292438144
25.454128 872.90833 807.0603 4294967039
28.011009 870.82721 809.22961 4294967295
-7.3899083 874.79163 808.64819 4293229452
26.275229 874.16382 808.1189 4294967295
27.917431 874.79156 808.64819 4294967295
-3.8232419 877.21875 808.07861 4293420929
22.939449 876.80115 807.72656 4294967295
25.397247 877.42749 808.25464 4294967295
27.855045 878.05377 808.78271 4294967295
-13.911009 880.61951 809.63806 4289670195
-10.63945 880.61951 809.63806 4290981706
-7.3568807 881.93256 809.43713 4294077822
-3.8146791 881.51593 809.08588 4292761957
-1.6348624 880.05774 807.85638 4294664822
1.0899082 879.84943 807.68073 4294806179
4.0871563 879.4328 807.32947 4294941092
6.5394497 879.4328 807.32947 4294938267
9.8091745 879.4328 807.32947 4294943156
17.983486 879.4328 807.32947 4294967295
19.618349 879.4328 807.32947 4294967295
22.343119 879.84943 807.68073 4294967295
25.340366 881.30762 808.91016 4294967295
27.855045 879.30646 809.83899 4294967295
-13.034863 883.99261 807.25 4289995843
-11.405504 883.99261 807.25 4290588236
-1.6293578 883.99261 807.25 4293616747
0.81467891 883.99261 807.25 4294335096
3.2587156 883.99261 807.25 4294932087
6.5174313 883.99261 807.25 4294941876
9.7761469 883.99261 807.25 4294942144
22.811008 883.99261 807.25 4294967295
-13.842202 886.203 808.4599 4291588986
-8.1467886 885.23828 808.30042 4293939827
22.78532 886.54498 808.09418 4294967295
25.241285 886.20306 808.45984 4294967295
-16.25688 890.3374 809.98376 4289479286
-13.803669 889.77704 808.20331 4292445886
-11.354129 890.45953 807.4707 4288298619
21.897247 890.45953 807.4707 4294967295
25.198166 889.09454 808.93591 4294967295
27.636698 890.3374 809.98376 4290627285
-14.598166 892.31958 809.039 4291980700
22.708258 891.69958 808.51624 4294967295
25.411621 892.11298 808.86475 4292929264
27.574312 892.93964 809.56177 4285298055
-12.93211 895.59662 807.87805 4288431194
-10.776759 895.39062 807.70441 4287966015
19.398165 894.9787 807.35706 4294967295
22.092356 895.39062 807.70441 4291679457
24.786545 895.80255 808.05176 4283124585
-13.740367 897.45038 809.44104 4288966191
-10.483486 898.80414 807.96643 4287834904
20.966972 898.80414 807.96643 4283849855
22.579817 898.80414 807.96643 4278190162
25.055964 897.45038 809.44104 4278190116
27.480734 897.45038 809.44104 4278190085
-12.888073 901.32776 808.78625 4290413153
-10.736392 901.3479 808.36719 4286984994
4.8275228 901.38812 807.52917 4294936222
6.4366975 901.38812 807.52917 4294938801
22.52844 901.38812 807.52917 4279110176
24.970644 901.32776 808.78625 4280163882
-12.873395 903.84857 809.60376 4289558891
-10.43578 904.58014 807.60461 4287377454
1.6055046 903.96643 807.08716 4294475134
4.2813454 904.37555 807.43213 4294934933
7.2247705 903.96643 807.08716 4294940085
10.43578 904.58014 807.60461 4294942120
13.646789 904.58008 807.60461 4293700312
16.590216 904.37555 807.43213 4286015566
20.068806 904.58008 807.60461 4278651146
22.477064 904.58014 807.60461 4280426543
24.91468 904.52124 808.86292 4280493362
-11.238532 906.42126 809.15698 4285870090
11.238532 906.42126 809.15698 4294940072
13.64679 906.42126 809.15698 4294893034
27.293577 906.42126 809.15698 4279968035
-12.8 910.88153 808.99365 4289474877
-10.666667 910.0661 808.30609 4289803064
13.6 909.65833 807.96228 4294695148
16 909.65833 807.96228 4294967295
22.4 909.65833 807.96228 4278190080
24.799999 909.65833 807.96228 4280165160
27.200001 910.88153 808.99365 4279902763
-12.770642 914.6593 809.56287 4289867073
-10.216513 913.68292 808.73962 4290721857
-7.9816513 913.4389 808.53387 4291116095
16.751375 913.16223 807.64648 4294966271
19.931192 913.49573 807.2738 4289701281
22.987156 913.19482 808.328 4282859067
25.541285 913.43878 808.53387 4278585612
16.722935 915.9906 808.06934 4294965502
19.908257 915.9906 808.06934 4294242547
23.093578 916.59937 808.58264 4286545791
-10.328441 919.75146 808.62433 4291246146
17.478899 918.53668 807.6001 4294898942
19.862385 918.53668 807.6001 4294834685
23.834862 918.53668 807.6001 4287531405
25.423853 919.14404 808.11218 4286478173
27.807339 920.35889 809.13641 4280615690
-9.5119267 922.28912 808.14795 4291377216
-7.5302753 921.98621 807.89252 4291770948
1.5853211 921.07721 807.1261 4294267483
3.9633026 921.07721 807.1261 4294463843
17.438532 921.07721 807.1261 4294965759
19.816513 921.07721 807.1261 4294966268
22.987156 921.68323 807.63702 4294044400
26.157799 922.28918 808.14795 4288648857
28.53578 923.50116 809.16992 4285289573
-9.4899082 926.03046 808.68652 4291639872
-6.8538227 925.62744 808.34668 4292098372
-4.7449541 925.4259 808.17676 4292492105
17.398165 924.82129 807.66699 4294174960
18.979816 924.82129 807.66699 4294372594
22.933945 924.82129 807.66699 4294769146
26.097248 924.82129 807.66699 4292004564
28.469725 926.03046 808.68652 4293452007
-9.4899082 927.23962 809.70605 4288430137
-7.1174312 927.23962 809.70605 4289148474
-3.940367 929.21136 807.44446 4290784834
26.794495 929.21136 807.44446 4294967295
28.370642 929.21136 807.44446 4294964479
30.051376 927.23962 809.70605 4287003528
-10.244954 931.62134 809.47644 4288778652
-7.084404 931.67322 808.21216 4289433242
-4.7229357 931.67322 808.21222 4288903557
16.511009 932.93018 807.96399 4294701558
19.655964 932.93018 807.96399 4294372848
22.800919 932.93018 807.96399 4294306803
26.249542 931.65594 808.63361 4294503925
28.370642 931.0188 808.96844 4294768634
-9.9590216 934.93384 809.6535 4286012010
-7.0688076 934.7854 808.22028 4283650656
-3.9220183 935.43835 807.46289 4288712343
13.334863 935.43835 807.46289 4293631406
16.492661 934.7854 808.22028 4294502899
19.655964 934.13239 808.97766 4294241005
22.800919 934.73346 809.4845 4294307058
25.683792 934.93384 809.6535 4294241519
-10.197248 937.8371 809.48535 4290085769
-7.3211007 937.03754 808.81122 4283446315
-4.7064219 936.63776 808.47412 4282989848
16.733944 937.03754 808.81122 4294503155
19.610092 937.23743 808.97974 4294175984
22.747707 937.8371 809.48535 4294175730
-12.521101 941.5307 809.98364 4286800255
-10.173394 940.33417 808.97473 4289953926
-6.7712541 940.80048 807.62378 4286666809
-4.6954126 939.13757 807.96582 4282987520
0.78073394 941.63184 807.45276 4285023282
3.9036698 941.63184 807.45276 4291143553
7.0266056 941.63184 807.45276 4292784862
10.930275 941.63184 807.45276 4293493088
13.543732 940.80048 807.62378 4294160067
16.173088 940.33417 808.97479 4294437362
-12.491743 944.01935 809.46594 4286011254
-10.149542 942.82556 808.45935 4289033859
10.930275 942.82556 808.45935 4291925163
13.272477 942.82556 808.45935 4293239967
15.614679 942.82556 808.45935 4294502899
-12.462385 946.50226 808.94336 4285090415
-10.113762 946.55139 807.67682 4288048248
-7.7706423 947.7915 807.41443 4291533455
1.5541284 947.7915 807.41443 4290680940
3.8853211 947.7915 807.41443 4291010184
6.2238531 946.55139 807.67682 4287129928
13.480123 946.96478 807.58936 4294233548
16.347706 946.22906 808.05908 4294372082
19.196943 946.53497 808.09894 4293978351
22.588074 947.09778 809.44543 4294175983
23.311926 948.97968 808.41626 4294110189
24.866055 948.97968 808.41626 4294175983
-16.525993 953.4588 808.7049 4285420887
-13.937614 952.68445 807.61597 4282394429
23.229359 952.68445 807.61597 4294044912
25.304588 952.66852 808.03857 4294044911
27.908257 953.82208 809.88318 4293780203
-15.46789 955.69135 808.84326 4285815898
25.522018 955.1001 808.34473 4293977836
-13.100918 958.19543 807.03052 4286873220
-10.788991 958.78461 807.52728 4282729059
13.87156 958.19543 807.03052 4292922597
16.183487 958.78461 807.52722 4293846254
19.266056 958.78461 807.52722 4293779943
22.348623 958.78455 807.52728 4293911789
25.431194 958.78461 807.52722 4293978604
28.256882 958.98096 807.69287 4293715179
-13.100918 960.55212 809.01758 4282003795
-10.018349 960.55212 809.01758 4278779923
-6.9357796 960.55212 809.01758 4278190080
-3.8495412 961.18689 808.24481 4282065920
-1.5376147 961.82166 807.47205 4291600967
0.51376146 961.79034 808.31757 4290954683
3.8532109 960.55212 809.01758 4284771753
6.9192657 961.82166 807.47205 4284570495
9.746789 961.79034 808.31757 4283061627
13.100918 960.55212 809.01758 4288253606
16.183487 960.55212 809.01758 4293780456
19.266056 960.55212 809.01758 4294043111
22.348625 960.55212 809.01758 4293779944
25.431194 960.55212 809.01758 4294175215
27.74312 960.55212 809.01758 4294044396
-3.0752294 964.17267 809.45435 4294967295
-1.5376147 964.17267 809.45435 4294967295
0 964.17267 809.45435 4294967295
9.225688 964.17267 809.45435 4285160876
32.333946 748.03113 811.6416 4294966783
-23.280733 751.68549 810.79877 4287835706
30.444036 751.68549 810.79877 4294966783
-25.07156 753.73914 812.53027 4288700513
-22.339451 754.57251 810.61694 4289287770
28.594496 753.88934 810.04089 4294966015
31.308258 754.49738 811.86163 4294967295
-25.020184 756.62195 812.34497 4290751666
-22.270641 758.89246 810.33533 4291604152
30.288073 758.89246 810.33533 4294967295
-23.161469 760.93555 812.05804 4289502890
31.178898 760.93555 812.05804 4294967295
-21.313761 763.87872 810.61548 4287333276
-22.201836 765.91553 812.33282 4288253083
-19.497248 766.74182 810.41357 4288056997
31.051376 765.9892 811.08698 4294967295
31.313761 768.54858 811.93701 4294967039
-22.970642 772.37683 811.24078 4287925135
30.627523 772.60199 811.43066 4294967295
-22.054129 775.52368 811.93207 4286807430
29.944954 776.64417 810.91479 4294967295
31.805504 774.40314 812.94934 4294967295
33.572475 774.40314 812.94934 4294967295
-22.899082 777.99084 812.05029 4286806900
29.944954 777.99084 812.05029 4294967295
31.706423 777.99084 812.05029 4294967295
-21.949543 781.57007 811.14417 4286872442
-19.315596 780.22766 810.01221 4287596685
28.973394 780.89893 810.57819 4294967295
31.60734 782.91254 812.27612 4294966527
33.363304 782.91254 812.27612 4294967295
-21.61162 785.29126 811.66559 4287859601
-19.275229 784.39819 810.9126 4287464844
29.78899 784.39819 810.9126 4294967295
31.541285 785.73785 812.04211 4294967039
33.293579 785.73785 812.04211 4294967295
-20.088074 789.96521 811.6825 4290687416
31.442202 789.96521 811.6825 4294967039
33.188992 790.63293 812.24548 4294967295
-19.174313 792.11011 810.875 4291672251
29.633028 792.11011 810.875 4294967295
31.376146 793.44275 811.99866 4294966271
-19.113762 796.98279 811.05945 4290476411
-19.053211 800.51434 810.11304 4289479495
-17.3211 800.51434 810.11304 4289608014
29.445871 800.51434 810.11304 4294967295
31.277063 798.31122 812.17944 4294967295
-20.78532 803.16278 812.34619 4289746260
31.75535 802.72137 811.97394 4294967295
34.6422 803.16278 812.34619 4294967295
-19.012844 804.62598 810.96375 4290338397
29.383486 805.28668 811.52081 4294967295
31.111927 805.94739 812.07788 4294967295
-19.813763 808.79651 810.55615 4289813340
28.42844 808.79651 810.55615 4294967295
-22.398165 810.77234 812.22217 4288432719
-20.631193 812.22711 810.83264 4289483603
28.367889 812.22711 810.83264 4294967295
31.012844 810.77234 812.22217 4294967295
-22.350458 813.5415 811.94092 4287707454
29.227524 813.5415 811.94092 4294967295
29.133945 817.0296 810.95789 4294967295
30.847706 818.33978 812.06262 4294967295
-19.951071 820.22186 811.03351 4289089099
28.501532 820.22186 811.03351 4294966527
-22.231194 822.40082 812.87085 4287901744
-19.602753 824.56189 810.76892 4289411135
28.977982 824.56189 810.76892 4294966271
31.636698 822.40082 812.87085 4294967039
-19.873396 826.77881 811.76611 4289282640
-17.009174 827.30304 810.46411 4290001484
28.977982 825.86511 811.86768 4294967295
31.250765 826.73389 812.60016 4294967295
-22.111927 829.90375 812.65698 4288432969
-18.710093 828.60339 811.56055 4289613906
28.915596 828.60339 811.56055 4294967295
30.616514 829.90375 812.65698 4294967295
-22.040367 833.34839 811.63721 4288695371
-19.779816 832.48431 810.90863 4289548109
28.822018 832.05225 810.54431 4294967295
30.517431 833.34839 811.63721 4294967295
-22.040367 834.64453 812.7301 4288827725
-19.455046 835.42456 810.77173 4289679437
28.195719 835.20898 810.59003 4294967295
31.332111 835.35791 812.02356 4294967295
-21.992661 837.36462 812.40759 4288893518
-19.391743 839.50043 810.2843 4289680467
26.979816 839.50043 810.2843 4294967295
28.666056 839.50043 810.2843 4294967295
30.451376 837.36462 812.40759 4294967295
-21.921101 841.4342 811.91479 4288236361
-20.234863 841.4342 811.91479 4288891728
28.666056 840.78961 811.37134 4294967295
31.195412 841.4342 811.91479 4294967295
-21.873394 844.78339 812.12268 4288368720
-19.069113 844.35455 811.76117 4289418332
28.60367 843.49701 811.03809 4294967295
30.286238 843.49701 811.03809 4294967295
-18.447706 848.18872 811.06982 4289217617
-16.770641 848.18872 811.06982 4290067280
30.187157 848.18872 811.06982 4294967295
-18.447706 849.47083 812.15088 4288887889
-15.897248 850.88068 810.72363 4290397022
28.447706 850.88068 810.72363 4294967295
30.992661 850.17578 811.43726 4294967039
-18.407339 852.79968 812.34167 4289347669
-16.733946 852.15997 811.80237 4289541706
30.6789 853.01288 812.52148 4294901247
-18.346788 856.8208 811.80811 4289548383
-16.6789 855.54572 810.73303 4289940048
28.354128 855.54572 810.73303 4294967295
30.022018 856.8208 811.80811 4294967295
-18.889296 858.98627 812.76196 4289419101
-16.642202 858.8584 810.9101 4290401630
-14.944954 860.89325 810.00977 4290534243
26.598166 859.55774 810.19171 4294967039
29.123852 859.49457 811.44647 4294967295
31.655046 859.4314 812.70129 4294967295
-18.266054 863.43225 812.15063 4289218635
-16.605505 862.79749 811.61542 4290138448
28.229359 862.16272 811.0802 4294967295
31.550459 863.43225 812.15063 4294967295
-18.205505 866.78711 811.05518 4289481291
-16.550459 866.78711 811.05518 4290464854
29.790825 866.78711 811.05518 4294967295
31.445871 866.78711 811.05518 4294967295
-19.033028 868.05237 812.12207 4289284426
-16.513762 869.43976 810.67578 4290596454
-14.862386 869.43976 810.67578 4292833416
29.724771 869.43976 810.67578 4294967295
31.445871 868.05237 812.12207 4294967295
33.100918 868.05237 812.12207 4294967039
-18.715597 871.54395 812.45001 4289017928
-16.513762 871.3335 812.27258 4290268237
-14.022018 871.39459 811.01605 4291120990
-10.710092 872.08691 810.29175 4293360264
29.658716 872.08691 810.29175 4294967295
31.376146 871.3335 812.27258 4294967295
-14.005505 873.97644 811.88501 4290395972
-10.710092 873.97644 811.88501 4291513684
29.658716 873.34656 811.35388 4294967295
31.306421 874.60626 812.41602 4294967295
-14.779817 877.93024 811.29468 4289474377
-7.3899083 877.30249 810.76538 4292561253
-4.9266057 877.30249 810.76538 4291772515
29.559633 877.30249 810.76538 4294967295
31.201836 877.93024 811.29468 4294967295
-16.422018 879.18573 812.35327 4289015069
28.947401 880.97675 811.24731 4294967295
31.166973 880.49878 812.15234 4294967295
-16.348623 883.80737 811.01788 4290868070
28.337616 884.01562 811.19354 4294967295
-17.138531 886.70587 811.49982 4291856018
28.563303 886.70587 811.49982 4294967295
31.062386 885.68213 812.59863 4293849332
-17.922935 889.59814 811.97644 4288228380
29.32844 888.97528 811.45129 4286291134
-16.25688 892.20166 811.55573 4285146155
29.262384 891.58026 811.03174 4278201448
30.888073 892.20166 811.55573 4278190128
-16.220184 896.03979 812.17572 4287521066
-14.598166 894.17969 810.60742 4285876782
28.655657 894.59302 810.95587 4278257193
31.359022 896.2464 812.34991 4278323475
-16.165138 899.922 811.52515 4288639543
-14.548624 898.68622 810.48303 4290414922
28.558411 899.09814 810.83038 4280229163
30.713762 899.922 811.52515 4279042840
-16.955046 901.83057 811.82629 4289565017
-14.515596 901.88672 810.56561 4290219857
27.955963 902.09222 810.73895 4280294183
31.522018 901.15784 812.56714 4286073685
-16.128441 903.73627 812.12512 4290810420
-13.677982 905.0788 810.64099 4290609985
28.965137 905.0788 810.64099 4279963938
31.450459 903.73627 812.12512 4284695653
-16.091743 906.92413 812.19696 4287900438
-13.925382 907.61133 811.03241 4288491807
28.363913 908.05786 810.53687 4279442469
31.343119 907.59259 811.45251 4278781467
33.79266 907.53925 812.71558 4282532168
-16.055046 910.10358 812.26172 4288685097
31.307339 910.10358 812.26172 4280032811
-16 913.93958 811.57208 4288034875
-14 913.02216 810.79852 4289148991
28 912.71631 810.54071 4279769380
30.4 914.55115 812.08777 4280360495
-13.302752 916.6933 811.27783 4288822330
-11.174312 915.8797 810.5918 4289869624
27.93578 915.8797 810.5918 4278584333
30.330275 917.1001 811.62085 4279832602
-15.944954 919.59076 812.4129 4290217110
-13.814068 919.60834 811.9917 4287379787
-11.148623 918.42578 810.12268 4290328376
28.667891 918.42578 810.12268 4278190080
30.330275 918.3205 812.6499 4281008128
-15.889908 923.39587 811.69714 4286066020
-13.506422 922.78845 811.185 4287899729
-11.122936 922.18103 810.67285 4291378263
30.190826 922.18103 810.67285 4278321152
-16.684402 924.61066 812.72144 4285480271
-13.211009 925.52118 810.87311 4287637305
-11.097248 925.31915 810.70282 4288752951
30.913761 925.31915 810.70282 4280357166
33.368809 924.61066 812.72144 4278190107
-16.369419 927.97748 812.0722 4286341986
-13.452293 928.72552 811.61292 4288974474
-10.280734 928.44885 810.72559 4288515733
30.842201 929.05341 811.23535 4293847787
34.084404 927.13715 812.23572 4278650633
-15.816514 930.86719 812.76477 4281804318
-13.397247 932.82629 810.49255 4282395177
-11.033028 932.82629 810.49255 4285551707
26.794495 932.82629 810.49255 4294372848
29.158714 932.82629 810.49255 4294702072
31.633028 930.86719 812.76477 4294966527
33.21468 930.86719 812.76477 4292266963
-13.659939 934.43292 811.84717 4282589486
29.421408 934.43292 811.84717 4294504694
31.522936 935.23627 812.52454 4294833147
-12.579817 936.53668 811.00488 4286925399
26.207952 936.93744 811.34277 4294373107
28.828745 937.3382 811.68066 4294175730
-15.688073 941.43524 812.51917 4281476398
-13.727064 939.93604 811.25513 4283580486
17.25688 939.0365 810.4967 4294437619
19.610092 939.63617 811.00232 4294044143
22.747707 939.63623 811.00232 4294109937
25.623856 940.23584 811.508 4294175728
29.022936 941.43524 812.51917 4294044147
-15.651376 943.92383 812.00146 4281475616
20.346788 942.72729 810.99255 4294175731
22.694496 942.72729 810.99255 4294176750
25.824772 943.32556 811.49701 4294044142
28.955048 943.92383 812.00146 4294175217
-16.395412 947.00366 811.98224 4281804328
-14.053211 945.21307 810.47241 4281936167
21.86055 945.21307 810.47241 4294175983
25.764221 945.80994 810.97571 4293978605
28.887157 946.4068 811.479 4294175731
32.010094 947.00366 811.98224 4293978606
34.352295 947.60059 812.48547 4294175985
-15.577982 948.88416 810.95178 4281147433
26.482569 948.88416 810.95178 4294176498
29.078901 949.28107 811.28644 4294109937
31.67523 949.67816 811.62128 4293912306
34.271561 950.07513 811.95593 4294110191
-18.649542 952.54413 811.42163 4284699976
28.751377 951.95001 810.92072 4294043887
31.859632 953.13818 811.92255 4294175216
34.231194 952.49915 812.69177 4294110445
-18.605505 956.19281 811.88208 4278190080
-17.055046 955.6001 811.38239 4281347369
29.458715 955.00745 810.88269 4294175733
31.784403 956.19281 811.88208 4294044145
34.110092 956.19281 811.88208 4294176496
-18.605505 957.37811 812.88159 4283189625
-15.996942 957.83032 811.5188 4280493116
-13.147707 958.64771 811.33594 4286084740
-10.827523 959.8302 812.33301 4294572287
29.38899 959.23889 811.83447 4294109676
31.47584 958.61865 812.18353 4294043374
34.029358 959.23889 811.83447 4294174959
-9.2477064 961.73041 810.01111 4293913851
-7.1926599 962.12323 810.34229 4290757313
-4.1100917 962.12323 810.34229 4294441972
-1.5412844 961.73041 810.01111 4294967289
1.5412844 962.31958 810.50787 4293060327
3.8532109 962.31958 810.50793 4289969112
6.93578 962.31958 810.50793 4288977601
10.788991 962.31958 810.50787 4282667150
12.844037 962.12323 810.34229 4287134092
16.183487 961.73041 810.01111 4293385447
19.266056 962.31958 810.50793 4293780198
22.091743 962.12323 810.34229 4293779943
25.431194 961.73041 810.01111 4294108906
27.74312 961.73041 810.01111 4294175212
34.234863 747.81219 815.3811 4294967295
-28.741285 752.83777 815.69434 4286989895
-26.346176 750.54889 813.76447 4287970874
32.333946 750.09113 813.37854 4294967295
34.130276 752.15112 815.11536 4294967039
-26.862385 755.10828 813.68469 4291924370
32.234863 755.10828 813.68469 4294966783
-30.444036 757.84644 815.99353 4287191899
-28.653212 757.16187 815.41632 4286535779
-25.913761 757.98822 813.49695 4291142579
32.168808 757.98822 813.49695 4294967295
34.025688 757.84644 815.99353 4294967295
-28.594496 760.72083 815.80103 4286735475
-25.913761 760.03772 815.22504 4286869882
33.955963 760.72083 815.80103 4294967295
-24.943119 764.34082 814.9292 4288186253
-23.161469 762.9787 813.78076 4287003780
33.851376 764.34082 814.9292 4294967295
-24.866055 767.95233 814.05029 4287662476
33.746788 767.95233 814.05029 4294967295
-24.866055 769.31024 815.19519 4285556332
34.563301 770.80701 813.84119 4294967295
37.299084 769.31024 815.19519 4294967295
35.449543 772.16211 814.98376 4294967295
34.455963 775.75397 814.08838 4294967295
-30.922018 777.10486 815.22729 4289565591
-28.271559 777.10486 815.22729 4288119426
-25.582569 778.22119 814.20654 4285555552
31.706423 779.33746 813.18579 4294967295
34.403671 778.22119 814.20654 4294967295
37.106422 777.10486 815.22729 4294967295
-31.706423 781.35748 814.88892 4288971663
-29.06422 781.35748 814.88892 4288183174
-25.834862 781.13306 814.69971 4286737521
35.229359 781.35748 814.88892 4294967295
-24.583487 784.255 813.40796 4287595651
-22.827522 785.59747 814.53992 4289174436
35.119267 785.59747 814.53992 4294967295
-24.583487 786.93988 815.67188 4290552234
-21.903669 787.74731 813.73651 4290291635
34.206421 787.00867 814.42181 4294967295
-22.779816 789.75677 815.43079 4289626772
-20.961468 791.96838 813.37146 4289759892
34.117432 790.86255 814.40112 4294966783
-22.708258 794.63922 815.62354 4288824906
-20.917431 794.77539 813.12231 4289621102
31.376146 794.77539 813.12231 4294967295
34.027523 794.03955 813.80994 4294967295
37.555962 793.9715 815.06055 4294966783
-22.660551 797.44067 815.36951 4288891201
-20.917431 796.10803 814.24597 4289216066
33.990826 796.10803 814.24597 4294967295
37.186543 796.9964 814.99493 4294967295
-20.851376 799.63959 813.29956 4289217865
33.883484 799.63959 813.29956 4294967295
36.48991 800.96802 814.41968 4294967295
-22.588991 802.29645 815.53979 4288629337
38.227524 802.29645 815.53979 4294967295
-22.517431 805.81122 814.57922 4288432719
-20.78532 804.487 813.46265 4289549396
32.910091 804.487 813.46265 4294967295
34.6422 804.487 813.46265 4294967295
36.951683 805.36981 814.20703 4294967295
-24.223854 808.52356 815.55811 4288102983
32.264221 807.70929 813.56348 4294966783
34.568806 808.59015 814.30634 4294967039
37.240368 807.13544 815.6958 4294967295
31.874311 812.08954 813.33276 4294967295
-24.121101 814.06531 814.99866 4288104522
-22.350458 814.8559 813.04919 4287510844
31.841284 814.13135 813.74628 4294967295
34.458717 813.40674 814.44336 4294967295
-24.069725 817.48468 815.26575 4288565066
-22.350458 816.17029 814.15747 4288303440
32.666054 816.17029 814.15747 4294967295
34.385323 816.17029 814.15747 4294967295
-23.13578 820.30505 813.71973 4288233277
31.704586 819.64996 813.16736 4294967295
34.846485 820.52344 813.90381 4294967039
-23.111927 822.98926 814.67493 4288100169
32.491745 823.70819 813.97314 4294967295
35.095413 822.98926 814.67493 4294967295
-22.231194 825.01556 815.07544 4288432717
35.056881 825.01556 815.07544 4294967295
-25.568808 829.12305 814.61469 4287840836
-23.86422 828.47144 814.06531 4288301126
32.387157 828.47144 814.06531 4294967295
34.091743 829.12305 814.61469 4294966783
-25.513762 833.80487 815.94629 4287841863
-23.812843 831.85431 814.30164 4288235332
32.317432 831.2041 813.75342 4294967295
34.018349 833.15466 815.39807 4294966527
-23.735781 835.94067 813.823 4288761931
32.212845 835.94067 813.823 4294967295
-23.684404 839.30463 814.04333 4288236361
32.14312 838.65796 813.49805 4294967039
33.871559 838.59412 814.75226 4294900223
35.526604 841.24463 815.67908 4294967295
-23.60734 844.01245 814.08875 4287774535
32.038532 843.36786 813.54529 4294967295
34.84893 844.65704 814.63226 4294966783
37.097248 845.94617 815.71924 4294967295
-22.546423 847.61328 814.50879 4287902281
-20.190826 847.35602 814.29181 4288689481
31.968807 846.0697 813.20728 4294967295
34.212231 847.35602 814.29181 4294966526
31.86422 850.75299 813.23193 4294967295
33.541283 850.75299 813.23193 4294967295
-22.640366 853.31726 815.39404 4288036423
-20.102753 853.37683 814.13635 4288363596
31.794495 854.71863 813.95972 4294967295
34.361469 853.02649 814.49493 4294966527
-21.754128 855.99799 815.03845 4288697172
34.304588 855.99799 815.03845 4294900222
-21.68257 860.64618 815.03357 4288301380
-20.014679 859.37103 813.95837 4288497226
34.191742 860.00861 814.49597 4294966015
36.693577 860.64618 815.03357 4294966271
-21.634863 863.31152 814.66479 4288696138
-19.970642 862.03918 813.59204 4288758084
34.116516 862.67535 814.12842 4294966783
36.612843 863.31152 814.66479 4294967039
39.941284 863.31152 814.66479 4294965244
-22.466972 864.5838 815.73767 4288694853
-19.926605 864.70178 813.22095 4289349705
34.041283 865.33655 813.75616 4294966527
36.532108 865.97125 814.29138 4294966271
39.941284 864.5838 815.73767 4294834682
-22.417431 867.24078 815.36182 4287967032
-19.86055 869.31769 813.18896 4288689472
33.986237 868.27924 814.27539 4294967039
37.301834 868.27924 814.27539 4294965502
39.85321 867.24078 815.36182 4294967039
-24.825687 871.84827 815.32263 4286456094
-22.343121 871.21564 814.78925 4287965237
34.204281 871.0047 814.61151 4294967295
36.962692 871.42651 814.96704 4294967039
40.548622 871.21558 814.78931 4294900734
-22.293577 875.12097 815.46606 4287183169
-18.980734 874.20258 814.03766 4288358451
-16.495413 874.54663 813.67377 4289013821
-9.8862381 875.86597 813.47815 4291046203
32.954128 875.86597 813.47815 4294967295
33.85321 873.85852 814.40161 4294900991
36.880733 875.33136 815.64349 4294967295
41.284405 875.7522 815.99829 4293651185
-21.420183 878.38531 815.60242 4289292916
-18.948624 877.12561 814.54028 4288358962
32.954128 877.75549 815.07135 4294967295
34.601833 877.75549 815.07135 4294967295
-21.348623 881.69666 814.47046 4290016639
-19.159021 880.85968 813.76471 4289487470
32.844036 881.69666 814.47046 4294967295
34.48624 881.69666 814.47046 4292335589
-22.14587 883.63464 814.79639 4289622619
-18.843121 883.6908 813.53577 4290739306
31.951376 883.6908 813.53577 4293388785
34.409176 884.31714 814.06384 4287138973
36.128441 882.95215 815.52893 4279711625
-21.25321 886.93201 813.65259 4286587933
-19.618349 886.93201 813.65259 4287830016
31.879816 886.93201 813.65259 4278785356
