# .PCD v0.7 - Point Cloud Data file format
VERSION 0.7
FIELDS x y z rgb
SIZE 4 4 4 4
TYPE F F F U
COUNT 1 1 1 1
WIDTH 1163
HEIGHT 1
VIEWPOINT 0 0 0 1 0 0 0
POINTS 1163
DATA ascii
-6.5174313 879.01001 803.04883 4289471797
-4.0669727 880.66986 802.48633 4290062398
35.845871 879.01001 803.04883 4294965759
37.433029 880.32373 802.84851 4294833917
39.016514 881.63745 802.64819 4294899455
-4.0605507 883.56976 802.96948 4289340201
-1.6220183 883.01929 801.19727 4289796916
1.6220183 883.01929 801.19727 4291048787
35.684402 883.01929 801.19727 4294965503
38.117432 884.25928 802.2428 4294899455
40.6422 882.88025 803.69617 4294899455
-4.0550461 885.49933 803.28833 4289211174
-1.6165137 887.56366 801.10486 4292037195
1.6165137 887.56366 801.10486 4286915353
38.054131 886.53149 802.19659 4294833406
40.550457 885.49933 803.28833 4294899455
-6.4660549 890.03534 803.18896 4290862190
-4.0412846 889.41742 802.66791 4288556080
37.988075 889.41742 802.66791 4294899453
40.412846 890.03534 803.18896 4294965246
-6.451376 893.87201 803.80786 4290466149
-4.3009171 892.63898 802.76825 4288952394
37.633026 893.461 803.46124 4294899966
-3.75474 895.237 802.34259 4288297005
1.6091744 894.00677 801.3053 4293305721
34.865444 894.41681 801.65106 4294636282
37.815598 896.46722 803.38 4294965759
-4.0137615 898.44305 802.42993 4288556337
34.518349 897.82935 801.91248 4294570489
37.729355 899.05676 802.94739 4294965757
-4.0082569 901.30164 802.87811 4289603903
1.6 902.31903 801.77393 4294216073
37.599998 902.31903 801.77393 4294966271
-6.4000001 904.76544 803.83667 4289276982
-4.2666669 903.94995 803.14911 4289670711
-1.5963303 904.896 801.33069 4289999410
0.79816514 904.896 801.33069 4291315770
3.1926606 904.896 801.33069 4294424141
37.513763 904.896 801.33069 4294967295
40.799999 904.15381 803.32098 4294967295
-3.7247705 906.92999 803.04572 4289867324
-1.5944954 907.4007 802.13458 4290392129
1.5926605 908.685 801.90942 4290786882
38.223854 908.685 801.90942 4294967295
40.660549 908.01093 802.64911 4294967295
-6.3706422 911.12018 803.96277 4289408821
-3.7162077 910.71429 803.62054 4289867828
-1.5889908 911.24786 801.45435 4290524987
0.7944954 911.24786 801.45435 4289998656
3.1779816 911.24786 801.45435 4288745728
37.341286 911.24786 801.45435 4294967295
39.72477 911.24786 801.45435 4294967295
-3.972477 913.67749 803.50293 4289933876
-1.5889908 912.46271 802.47864 4290590010
1.5889908 912.46271 802.47864 4287040021
3.1779816 912.46271 802.47864 4290931456
38.13578 912.46271 802.47864 4294967295
41.313763 913.07007 802.99078 4294966271
-1.5853211 915.62317 802.52747 4289669414
0.79266053 915.62317 802.52747 4291054410
3.9587154 916.29163 801.78308 4294633198
37.233948 915.95746 802.15527 4294967295
39.587154 916.29169 801.78308 4294967039
-1.5816513 919.9845 803.58875 4290063155
0.79082566 918.77533 802.56921 4291256152
37.432415 919.17841 802.909 4294967295
39.541283 919.9845 803.58875 4294967295
0.52538228 922.38312 801.68707 4290990413
37.039452 922.58398 801.85645 4294966527
-3.1449542 926.91931 802.89575 4288637563
-1.574312 925.6554 803.13812 4288695641
1.048318 926.11786 802.22003 4287771968
36.72049 925.67596 802.71948 4294966783
39.403671 924.39142 803.38049 4294967039
-3.9311926 928.12152 803.90942 4288446608
-1.5688074 929.44153 802.40649 4289759388
0.52293581 929.04175 802.06934 4287977100
3.1376147 928.24219 801.39514 4285145379
32.944954 928.24219 801.39514 4294834943
34.51376 928.84186 801.90082 4294965758
36.953209 928.12152 803.90942 4294768382
-3.1376147 930.64093 803.41772 4284431955
-1.5688074 930.64093 803.41772 4285879401
0.78440368 931.29956 802.66504 4288704890
3.1302752 931.95819 801.91235 4290752698
32.08532 931.95819 801.91235 4294703357
34.433029 931.95819 801.91235 4294571002
36.866974 930.64093 803.41772 4294571002
-3.1302752 934.35132 803.93018 4283181090
-1.5633028 934.40894 802.67065 4286798941
0.78165138 934.40894 802.67065 4287399534
3.1229358 935.06616 801.91681 4288126902
32.010094 934.4693 801.41357 4294768637
35.421406 934.42902 802.25165 4294768380
37.563301 934.35132 803.93018 4294569205
-3.1229358 936.85681 803.42664 4283907127
-1.5577981 938.16559 801.91418 4290684063
0.78073394 937.51123 802.67041 4287468467
3.8944955 938.16559 801.91418 4287995576
32.71376 938.16559 801.91418 4294965503
35.829357 938.16559 801.91418 4294570488
37.475231 936.85681 803.42664 4294569720
39.036697 936.85681 803.42664 4294438391
-3.8944955 940.54749 803.92249 4284895294
-1.5577981 939.95203 803.42041 4290422156
0.77889907 940.27783 803.04114 4284774026
3.887156 940.93024 802.2832 4288980674
6.2165136 940.66266 801.40356 4285946476
32.636696 940.66266 801.40356 4294636795
35.255047 940.62335 802.24243 4294505465
38.121101 940.6037 802.66187 4294834172
-4.6623855 943.03894 803.4071 4280491286
-1.5541284 943.03894 803.4071 4290685296
0.7770642 943.03894 803.4071 4284243818
3.8798165 943.68921 802.64734 4289764517
6.2018347 944.33942 801.88757 4286936674
37.986237 944.33942 801.88757 4294110707
-3.8761468 946.71008 803.88647 4280753669
-1.5504587 946.11743 803.38678 4290882706
0 945.52472 802.88708 4288190616
3.8706422 946.17352 802.1261 4290425239
6.1871562 946.82233 801.36511 4291276132
37.896332 946.82233 801.36511 4294110189
-1.5467891 949.18738 803.35925 4289036651
0 948.00488 802.36218 4288391609
40.216515 948.00488 802.36218 4293781488
0.77064222 951.12549 801.06934 4288454574
3.0825689 951.71466 801.5661 4285232773
38.532108 951.12549 801.06934 4294438389
40.844036 952.30383 802.06287 4294438646
43.926605 953.48218 803.0564 4294175217
47.009174 953.48218 803.0564 4293846252
-6.1504588 955.35632 802.02063 4282398777
-3.8440366 955.35632 802.02063 4283321185
-1.5376147 954.76855 801.52502 4285953683
1.0250765 955.1604 801.85547 4285365155
41.515594 955.94403 802.51624 4294957794
43.822018 955.94403 802.51624 4294372596
46.897247 955.94403 802.51624 4294174963
-10.763303 957.11957 803.50732 4282788873
-6.9192657 957.11957 803.50732 4283246918
-3.8376145 958.66663 802.84961 4287793048
-1.533945 958.98676 802.46558 4287006349
0.51253825 958.36432 802.81281 4290424011
3.8348622 958.98682 802.46558 4292002779
19.941284 959.57312 802.95996 4289575617
34.513763 959.57312 802.95996 4290750399
41.416515 959.57312 802.95996 4278718471
43.71743 958.40039 801.97119 4293518315
46.842201 957.76001 802.73926 4294241271
49.203671 957.11957 803.50732 4294438650
-3.8348622 960.74585 803.94885 4294571517
-1.533945 960.74585 803.94885 4292267999
0 960.74585 803.94885 4294242289
4.6018348 960.74585 803.94885 4294967295
6.8944955 960.79852 802.68518 4285305250
9.9522934 961.11731 802.29993 4282869632
13.007339 961.4361 801.91473 4290753702
16.087154 960.79846 802.68518 4288716989
18.903976 960.78094 803.10645 4288651669
22.215595 960.79846 802.68518 4290687701
25.014069 960.81598 802.26398 4288253859
28.344036 960.79846 802.68518 4280028253
31.388992 961.11725 802.29999 4287784292
33.746788 960.74585 803.94885 4294105072
37.536697 960.79846 802.68518 4282403933
39.834862 960.79846 802.68518 4278190080
-19.658716 749.79047 806.58484 4289030507
40.21101 748.42413 805.43286 4294967295
-17.816513 752.08203 804.5929 4289952395
37.41468 752.08203 804.5929 4294967295
39.196331 752.08203 804.5929 4294967295
-21.379816 754.80615 806.88989 4287649619
-19.598166 754.12512 806.31567 4289427059
-17.816513 753.44409 805.74146 4290480295
37.41468 753.44409 805.74146 4294967039
40.087158 754.12512 806.31567 4294967295
-19.537615 758.44714 806.03577 4287846990
-17.761467 757.76819 805.46332 4289553541
39.963303 758.44714 806.03577 4294967295
-16.838531 760.64392 805.27197 4289292158
38.108257 760.64392 805.27197 4294967295
40.766972 761.32147 805.84326 4294967295
-24.814678 762.67657 806.98584 4288708224
-22.155964 762.67657 806.98584 4288840835
-19.497248 762.67657 806.98584 4290091670
-16.78624 764.94708 804.9762 4290356141
37.989906 764.94708 804.9762 4294967295
40.766972 762.67657 806.98584 4294967295
42.539448 762.67657 806.98584 4294967295
-21.203671 766.29791 806.11523 4289104277
-19.436697 766.29791 806.11523 4290485674
-17.669725 766.29791 806.11523 4290550956
38.873394 766.29791 806.11523 4294967295
40.640366 766.29791 806.11523 4294967295
42.407341 766.29791 806.11523 4294967295
-16.440367 769.46198 804.85895 4290945199
-14.091743 768.56421 804.10205 4291865530
35.229359 768.56421 804.10205 4294967295
37.577984 769.46198 804.85895 4294967295
40.51376 769.91089 805.23743 4294967295
42.27523 769.91089 805.23743 4294967295
-24.660551 771.25757 806.37292 4288513160
-22.018349 771.25757 806.37292 4288052356
-19.376146 771.25757 806.37292 4289433756
-16.709175 772.38647 805.36279 4290091947
-14.047707 773.51544 804.35266 4290749102
35.119267 773.51544 804.35266 4294967295
37.813759 772.38647 805.36279 4294967295
40.51376 771.25757 806.37292 4294967295
42.27523 771.25757 806.37292 4294967295
-25.461468 775.52905 806.05054 4289302934
-21.656881 775.30536 805.86188 4288777356
-19.315596 776.20032 806.61646 4290356895
-16.665138 775.60913 804.80994 4290819258
-14.018349 776.36035 804.13525 4291542209
35.045872 776.36035 804.13525 4294967295
37.753212 774.85785 805.48462 4294967295
40.387157 776.20032 806.61646 4294967295
42.14312 776.20032 806.61646 4294967295
-25.408257 779.03961 806.39441 4287988876
-22.195719 778.59302 806.01788 4288381832
-19.275229 779.03961 806.39441 4289302160
-16.64679 777.69995 805.26489 4291278512
37.674309 777.69995 805.26489 4294967295
42.055046 779.03961 806.39441 4294967295
-22.708258 782.6203 805.4895 4287921800
-20.088074 782.6203 805.4895 4289038481
-16.885628 781.72998 804.73883 4289171357
37.847095 781.72998 804.73883 4294967295
40.758411 782.17511 805.1142 4294967295
-25.328442 783.95575 806.61548 4287725190
-22.708258 783.95575 806.61548 4287987847
-20.06789 784.70142 805.93616 4289367697
-16.269114 785.00275 804.88232 4289895339
-13.944954 784.11438 804.13318 4289963949
37.186543 785.00275 804.88232 4294967295
41.049541 783.95575 806.61548 4294967295
-22.660551 786.7796 806.38049 4288778124
-20.045872 786.7796 806.38049 4289238675
-17.431192 786.7796 806.38049 4289503398
38.348625 786.7796 806.38049 4294967295
40.091743 786.7796 806.38049 4294967295
-16.333578 790.60632 805.68298 4288584867
-13.900917 789.01227 804.33887 4290292676
37.648319 790.34064 805.45898 4294967295
39.965137 791.66907 806.57898 4294967295
-13.856881 793.89331 804.5304 4289306294
-16.455046 795.87964 806.20514 4288319371
-13.827523 796.69751 804.27869 4289238943
37.201836 795.95752 804.96277 4294967295
40.415901 796.10034 806.3913 4294967295
-15.555964 798.67963 805.94995 4289830814
37.449543 798.45941 805.76422 4294967295
39.754128 799.34033 806.50708 4294967295
-15.506422 802.86914 805.55835 4292325820
-13.783486 801.55194 804.44775 4290817718
37.043121 802.21057 805.00305 4294967295
-15.489908 805.57794 806.5343 4288829018
-13.754128 804.99792 804.73724 4290740634
36.677677 805.21698 804.92194 4294967295
39.627522 804.18634 806.66895 4294967295
-13.710092 809.16846 804.32959 4288957787
37.702751 809.16846 804.32959 4294967295
-15.423853 811.78882 806.53906 4288762974
-13.680734 811.94177 804.052 4289025371
-11.970642 811.94177 804.052 4289485666
37.702751 810.47864 805.43433 4294967295
-15.390825 814.55658 806.25671 4288829280
-13.680734 813.24915 805.1543 4289420640
39.332111 813.24915 805.1543 4294967295
-15.341285 818.04608 805.2749 4288827736
-13.636697 816.74292 804.17603 4289684580
-11.93211 816.74292 804.17603 4289684580
40.910091 818.04608 805.2749 4294967295
-15.341285 819.34924 806.37366 4288034888
-13.60734 820.80121 804.98193 4288884805
-11.906422 820.80121 804.98193 4290266458
40.910091 819.34924 806.37366 4294967295
-13.60734 822.10156 806.07837 4288557141
40.822018 822.10156 806.07837 4294967295
-13.563303 826.21948 805.62628 4288891229
40.689907 826.21948 805.62628 4294967295
-13.533945 830.25116 806.40967 4288496714
-11.842202 828.31116 804.77393 4289878889
40.601833 830.25116 806.40967 4294967295
-11.80367 833.05475 804.84949 4288496454
38.783485 833.05475 804.84949 4294967295
-13.489908 834.34387 805.9364 4289417808
-11.777982 835.77899 804.5304 4289286479
38.699081 835.77899 804.5304 4294967295
-13.46055 837.7085 806.15729 4289416770
40.381653 838.35168 806.69958 4294965759
-13.416513 841.77808 805.66455 4289285447
-11.73945 840.49591 804.5835 4289678916
38.572475 840.49591 804.5835 4294967295
-13.387156 845.12366 805.86957 4288891462
-11.155963 843.63116 804.61102 4289350987
37.651375 843.20471 804.25146 4294967295
40.205505 844.41174 806.57727 4294966271
-11.675229 847.89502 804.2821 4289220684
37.527523 847.89502 804.2821 4294966015
-13.34312 850.44525 806.43237 4288298060
-11.111926 850.492 805.59979 4288691791
38.277065 851.86072 805.00977 4294966783
40.555965 850.492 805.59979 4294966527
-10.806421 853.83936 805.37018 4289218648
38.192661 854.54572 804.65771 4294967039
40.729355 853.83936 805.37018 4294966783
-11.623854 855.81525 805.72815 4289945953
40.960243 856.23834 806.08496 4294966783
43.174313 857.08472 806.79846 4294966783
-10.757798 859.19531 804.65405 4288955474
38.066055 859.19531 804.65405 4294966783
40.272781 860.03888 805.3653 4294966527
-13.240367 861.72589 806.78772 4288036423
-10.733945 862.49603 804.82104 4289285716
-8.2568808 861.86481 804.28882 4290468961
37.431194 862.28564 804.64362 4294967039
40.548622 861.72589 806.78772 4294967295
43.031193 861.72589 806.78772 4294967295
-10.722936 865.08911 805.69946 4289351496
-8.2385321 865.78845 804.98108 4290337102
37.115597 865.08911 805.69946 4294967039
39.633026 864.38983 806.41785 4294967295
-10.710092 867.04816 806.04321 4289549136
36.249542 867.04816 806.04321 4294965759
-9.8532114 871.02515 805.47241 4289346366
36.128441 871.02515 805.47241 4294966271
-10.37737 875.13086 806.31818 4288358961
-7.6415901 874.34064 804.77997 4289342005
34.370644 874.36316 804.36285 4294965246
36.866974 874.29578 805.61414 4294966015
39.324772 875.54846 806.67029 4294899455
49.155964 875.54846 806.67029 4294373879
-9.8091745 878.18292 806.27551 4288689472
-8.1743116 876.93311 805.22168 4288161581
40.871559 878.18292 806.27551 4294833406
-7.3321099 880.87854 804.62427 4289477958
42.363304 881.50134 805.14941 4294636797
-9.7761469 882.74695 806.19971 4289614158
-7.3247705 883.43506 805.47192 4290006343
43.130276 883.43506 805.47192 4294571004
-9.7541285 886.60883 806.83997 4289681750
-7.3082566 886.67407 805.58698 4290863718
-4.866055 886.73938 804.33398 4288492609
40.550457 886.73938 804.33398 4294833660
42.746174 887.10919 805.51782 4294899198
-9.73211 889.21948 806.42505 4289284955
-8.1100922 889.21948 806.42505 4289877092
43.794495 889.21948 806.42505 4294966015
-9.6990824 893.12494 805.79395 4289152352
-7.5437312 892.50702 805.27295 4290006892
38.796329 891.27118 804.23096 4294636284
40.412846 891.8891 804.75195 4294966527
42.433487 892.81598 805.53345 4294965759
-7.2577982 895.72156 805.36737 4290269024
40.321102 895.72156 805.36737 4294966270
-9.6770639 897.57111 806.92688 4288750138
-6.9792047 898.06543 805.59961 4289672522
41.08165 898.24939 806.19073 4294966783
-7.4984708 901.46954 805.8537 4288948541
-7.1999998 905.98865 804.86816 4288686388
-9.6000004 907.82349 806.41522 4288357681
-7.1926603 907.88452 805.15863 4289146425
-4.788991 908.55725 804.41772 4289146680
41.504585 908.55725 804.41772 4294967295
44 907.82349 806.41522 4294966783
46.400002 908.43512 806.93091 4294966783
48 908.43512 806.93091 4294965503
-9.5779819 910.99805 806.47583 4288094771
-7.9816513 910.38782 805.9613 4288884541
43.899082 910.38782 805.9613 4294966527
47.091743 910.99805 806.47583 4294966271
-6.8966355 913.59515 805.17755 4288882994
-3.972477 914.89227 804.52722 4290064691
41.313763 914.89227 804.52722 4294967039
43.001835 912.94659 805.50269 4294966527
-6.3559632 916.71448 806.06366 4289210676
-3.9633026 917.44122 804.0603 4290131258
-1.5853211 917.44122 804.0603 4289604137
40.42569 917.44122 804.0603 4294967295
42.902752 916.71448 806.06366 4294966271
-6.3412843 919.86517 806.10413 4289406256
-4.2275229 919.05719 805.42285 4290130235
41.218349 919.25916 805.5932 4294965503
-6.3266053 923.61206 806.64734 4287000180
-3.6905196 921.99982 805.2879 4288687921
-1.5816513 921.19373 804.60828 4290588986
40.595718 922.40283 805.62775 4294899967
-4.7284403 925.59644 804.39648 4287329401
37.827522 925.59644 804.39648 4294767613
39.403671 926.19891 804.90448 4294899199
-4.7174311 929.32367 804.9231 4282530887
40.145874 928.66504 805.67578 4294570489
-10.221101 931.72803 806.95032 4281148196
-7.3382263 930.92657 806.2746 4281149987
-3.9220183 931.84027 804.42896 4282131497
37.651375 931.84027 804.42896 4294833660
40.052292 931.78418 805.68964 4294767354
-9.4128437 934.23901 806.45154 4282656561
-6.7981648 933.83917 806.11444 4283513411
-4.7009172 934.29382 805.1897 4282132528
40.004585 933.63934 805.94592 4294503925
-7.0431194 937.34277 806.45245 4286406242
-3.9036698 938.05054 804.43323 4285222728
40.693577 936.74445 805.948 4294373109
43.041283 937.94104 806.95691 4294307829
-6.7614684 940.47363 805.60419 4285355861
-3.1155963 941.73846 804.92664 4282263808
40.550457 940.49139 805.18317 4294242293
42.159634 940.43805 806.44629 4294110451
-6.2165136 944.22705 804.40894 4283121207
-3.8853211 944.22705 804.40894 4282131493
1.5541284 944.22705 804.40894 4279703319
40.407341 944.22705 804.40894 4294110451
42.839447 943.5249 806.43298 4294242293
45.176147 944.12036 806.93506 4294242293
-6.2165136 946.00928 805.91168 4282065691
-3.8761468 947.89539 804.88599 4283049239
41.911926 946.65527 805.14838 4294373367
43.515594 946.60333 806.4126 4294242291
45.846786 946.60333 806.4126 4294242291
-6.2018347 949.08075 805.88538 4286471260
-3.8761468 949.08075 805.88538 4287988866
41.862385 949.08075 805.88538 4294569718
43.412846 949.08075 805.88538 4294044144
-7.7064219 954.66046 804.04993 4278190108
-9.225688 958.88287 804.99408 4292266698
-6.9192657 958.88287 804.99408 4294635508
1.5376147 958.88287 804.99408 4294967295
3.0752294 959.47064 805.48962 4294967295
26.13945 959.47064 805.48962 4289500357
35.365139 959.47064 805.48962 4292460503
41.515594 959.47064 805.48962 4278190080
43.822018 958.88287 804.99408 4282406457
46.897247 958.88287 804.99414 4293253326
-9.225688 960.64612 806.48083 4291675335
-6.9192657 960.64612 806.48083 4292794593
-3.8403668 961.28235 805.70923 4293452529
-1.533945 961.91852 804.93762 4293188586
0.76880735 961.28235 805.70923 4294572026
3.8440366 960.64612 806.48083 4294967295
6.9100919 961.28235 805.70923 4294704123
9.9706421 961.91852 804.93762 4289442495
13.038532 961.91852 804.93762 4282807969
16.126606 961.28235 805.70923 4287793839
19.220184 960.64612 806.48083 4291936969
22.295414 960.64612 806.48083 4289834675
25.370644 960.64612 806.48083 4294566645
28.445873 960.64612 806.48083 4294105837
31.521101 960.64612 806.48083 4294172382
34.596329 960.64612 806.48083 4293710581
37.671562 960.64612 806.48083 4284829552
40.746788 960.64612 806.48083 4279111949
43.053211 960.64612 806.48083 4287457315
46.897247 960.64612 806.48083 4294832111
49.203671 960.64612 806.48083 4294307062
-25.07156 749.63184 809.06714 4286724395
43.875229 748.94727 808.48987 4294967295
-25.020184 752.52307 808.88892 4287515723
-22.637308 751.61212 808.12085 4288042833
43.78532 752.52307 808.88892 4294967295
-24.943119 756.16827 808.03833 4288370517
-22.270641 756.16827 808.03833 4287582281
43.650459 756.16827 808.03833 4294967295
-24.866055 759.80505 807.18066 4287454296
-22.201836 759.80505 807.18066 4287585879
-19.537615 759.80505 807.18066 4288836199
43.515594 759.80505 807.18066 4294967295
-24.814678 764.03162 808.12842 4289104527
-23.042202 764.03162 808.12842 4289038733
-24.737616 767.6488 807.25427 4288775562
-22.087156 767.6488 807.25427 4288577155
-19.436697 767.6488 807.25427 4290418075
-19.376146 772.60419 807.50842 4290093470
40.51376 772.60419 807.50842 4294967295
42.27523 772.60419 807.50842 4294967295
-25.408257 780.37927 807.52393 4287988620
-25.328442 785.2912 807.74146 4287988363
41.922935 785.2912 807.74146 4294967295
-25.27523 788.11224 807.50403 4288515472
-22.660551 788.11224 807.50403 4288318604
-20.045872 788.11224 807.50403 4287860106
40.963303 788.11224 807.50403 4294967295
45.416515 787.96204 809.99353 4294967295
-25.27523 790.11121 809.18951 4287922819
-22.660551 790.11121 809.18951 4287593339
-20.336391 789.8891 809.00226 4287792007
41.834862 789.44489 808.62769 4294967295
43.57798 789.44489 808.62769 4294967295
46.192661 790.77753 809.75134 4294967295
-22.588991 794.32593 808.81921 4287133301
-19.692966 793.88312 808.4458 4287790973
-17.376146 792.9975 807.6991 4287662726
41.702751 792.9975 807.6991 4294967295
43.440369 793.66174 808.25916 4294967295
45.177982 794.32593 808.81921 4294967295
-22.588991 795.65436 809.93933 4288118924
-19.982569 795.65436 809.93933 4288974485
-17.3211 797.86597 807.88 4289370009
41.570641 797.86597 807.88 4294967295
43.302753 797.86597 807.88 4294967295
45.975227 796.76013 808.90967 4294967295
-17.3211 799.19012 808.99646 4290746787
40.618347 800.66174 807.62122 4294967295
44.07523 800.66174 807.62122 4294967295
46.766972 799.19012 808.99646 4294967295
-17.284403 802.64386 809.29248 4288302674
41.482571 801.98315 808.73535 4294967295
44.07523 802.64386 809.29248 4294967295
46.667889 803.30457 809.84961 4294967295
48.396332 803.30457 809.84961 4294967295
-17.229359 806.82074 808.89026 4287707202
40.77615 805.94263 808.1499 4294967295
43.93486 806.82074 808.89026 4294967295
-16.333027 808.94116 808.06207 4288564310
40.402752 808.94116 808.06207 4294967295
-17.192661 810.91272 809.72449 4288105814
44.700916 810.91272 809.72449 4294966783
-17.137615 815.06433 809.30078 4288234061
41.130276 813.09906 807.6438 4294967295
43.352905 814.94232 807.45392 4294967295
47.985321 815.06433 809.30078 4294967295
-17.100918 818.4787 809.56372 4287837257
43.607338 817.17133 808.46143 4294967295
46.742508 818.04291 809.19629 4294967039
-16.193579 821.30396 808.02191 4287641416
43.751068 821.08673 807.83881 4294967295
-15.887463 823.7876 808.37207 4288104783
43.089905 824.26886 807.90576 4294967295
46.023853 823.25873 809.67004 4294967295
44.223854 826.00269 809.36768 4294967295
-15.258716 828.81183 807.81207 4288367951
42.385323 828.16376 807.26562 4294967295
-15.225688 832.19122 808.04541 4288433230
40.601833 832.19122 808.04541 4294967039
42.293579 833.48456 809.13599 4294967295
-15.176147 836.27759 807.56689 4288431429
40.469727 835.633 807.02344 4294967295
42.155964 836.92218 808.11035 4294967039
-16.002752 838.92468 808.49078 4288100681
40.381653 839.638 807.78418 4294966527
42.155964 838.2113 809.19739 4294967295
-15.984404 841.5675 809.41113 4287973191
42.06422 840.92438 808.86877 4294966783
-15.093578 844.9834 808.36719 4287513924
41.926605 844.34229 807.82666 4294967039
-15.915596 847.61426 809.27753 4287643208
-13.387156 847.04266 807.48755 4288429896
41.834862 847.04266 807.48755 4294966783
43.508255 848.32202 808.56628 4294965757
45.280735 846.90656 809.98877 4294966271
-15.060551 849.60132 809.64502 4288038222
-13.34312 851.72034 807.50757 4288495952
43.365139 851.72034 807.50757 4294966271
45.181652 849.60132 809.64502 4294966271
48.528439 849.60132 809.64502 4294967039
-15.011009 854.27057 809.65784 4287837509
-13.34312 852.99548 808.58276 4288893266
43.269726 854.40533 807.1554 4294966783
45.866974 853.63306 809.1203 4294967039
-14.145872 856.31384 808.76453 4288101708
44.933945 855.67767 808.22815 4294967295
46.598164 856.94995 809.3009 4294967039
-14.114679 858.98901 808.40411 4287906377
44.281345 858.7774 808.22577 4294967295
46.495415 859.62372 808.93933 4294965503
-14.06789 862.99121 807.85461 4288299337
41.376148 862.99121 807.85461 4294967039
43.858715 862.99121 807.85461 4294967295
-14.053211 865.58636 808.73474 4288561733
37.981651 865.65228 807.4823 4294967295
40.481651 865.93457 808.37439 4294967295
43.833946 865.23737 809.0946 4294967039
47.1422 865.23737 809.0946 4294966783
49.541283 866.91479 808.54688 4294965244
-14.022018 868.87238 808.8894 4287503917
-11.533945 868.93768 807.63641 4288362547
37.897247 868.93768 807.63641 4294967039
40.41468 868.87238 808.8894 4294966527
43.761467 868.17725 809.61133 4294966015
47.011009 868.87238 808.8894 4294899710
49.431194 869.5675 808.16748 4294833658
-13.181651 870.82721 809.22961 4287635255
-11.495413 872.90833 807.0603 4287964220
40.368805 870.82721 809.22961 4294966015
44.488075 870.82721 809.22961 4294966271
46.879814 871.8678 808.14496 4294834683
49.266056 872.90833 807.0603 4294833660
-13.137614 875.41931 809.17749 4288166460
41.055046 874.16382 808.1189 4294833406
44.339451 874.16382 808.1189 4294965503
46.529053 874.58234 808.47174 4294768635
-13.108257 878.05377 808.78271 4288299845
-11.469725 876.80115 807.72656 4288298046
43.694187 877.21875 808.07861 4294768382
46.971252 877.63623 808.43066 4294768380
49.155964 877.42749 808.25464 4294767611
-13.093578 880.61951 809.63806 4288168775
-11.035322 880.37018 808.11987 4288694347
46.645874 880.61951 809.63806 4294768636
49.66544 880.18182 809.70508 4294966782
-9.7761469 883.99261 807.25 4289681498
-8.1467886 883.99261 807.25 4290207842
43.992661 883.99261 807.25 4294832893
-13.034863 886.48395 809.35071 4287838531
-11.39266 886.54498 808.09418 4289219419
46.095409 886.98053 808.02539 4294966271
48.880733 886.48395 809.35071 4294966783
-13.005505 889.71594 809.45984 4287708999
-11.354129 890.45953 807.4707 4288827988
43.794495 890.45953 807.4707 4294965759
46.280735 889.77704 808.20331 4294966527
49.583488 889.71594 809.45984 4294967295
-14.598166 892.93964 809.56177 4287511615
-11.354129 891.69958 808.51624 4287708489
46.227524 892.31958 809.03894 4294966783
49.471558 892.93964 809.56177 4294967295
-12.93211 895.59662 807.87805 4287507511
-10.776759 895.39062 807.70441 4288032572
43.107037 895.39062 807.70441 4294966783
45.262386 896.21454 808.39905 4294967295
-12.902752 898.80414 807.96643 4287044911
-10.49633 898.12726 808.70374 4288029754
41.933945 898.80414 807.96643 4294967295
43.546787 898.80414 807.96643 4294967295
46.070641 897.45038 809.44104 4294967295
-12.888073 901.32776 808.78625 4287176238
-10.472477 900.71265 808.26764 4288162364
43.546787 900.03717 809.0061 4294967295
45.108257 901.32776 808.78625 4294967295
-12.873395 903.84857 809.60376 4287175466
-10.43578 904.58014 807.60461 4288161588
44.151375 904.58014 807.60461 4294966527
46.666054 903.84857 809.60376 4294966783
48.27523 903.84857 809.60376 4294965503
-11.238532 906.42126 809.15698 4287571248
-11.2 910.2699 808.47797 4287637042
-9.5779819 913.43878 808.53387 4288292908
-7.9633026 914.77301 807.04272 4288029480
44.64587 913.49573 807.27374 4294966015
47.091747 913.4389 808.53375 4294834686
49.48624 912.21844 807.50476 4294967295
-7.9633026 916.59937 808.58264 4288292645
44.594494 916.59937 808.58264 4294964990
46.187157 917.20819 809.09595 4294964733
-9.5339451 920.96625 809.64856 4287004293
-7.9449539 919.75146 808.62427 4285934877
43.962082 919.75146 808.62433 4294899710
46.080734 920.35889 809.13641 4294702076
-9.5119267 923.50116 809.16992 4286871951
-7.3981652 922.28925 808.14795 4286405474
43.332108 922.28912 808.14795 4294833661
-7.1174312 925.4259 808.17676 4284568679
41.122936 924.82129 807.66699 4294833406
43.231808 925.62744 808.34668 4294833661
40.979816 929.21136 807.44446 4294899451
43.495415 927.23962 809.70605 4294965503
46.658714 927.23962 809.70605 4294702332
-11.007339 932.93018 807.96399 4282065716
43.293579 931.67322 808.21216 4294701305
46.49633 931.62134 809.47644 4294504696
-10.475841 934.96844 808.81061 4284171077
-7.8440366 935.43835 807.46289 4286603093
43.193581 934.7854 808.22028 4294504695
46.65015 934.53314 809.31561 4294438902
48.746788 935.33453 809.99133 4294438902
-9.9357796 937.43732 809.14825 4282460717
46.279816 937.23743 808.97974 4294438903
-12.521101 941.5307 809.98364 4285425248
-10.173394 941.5307 809.98364 4280950817
-7.8073397 941.63184 807.45276 4283318352
43.772476 940.3847 807.70929 4294307577
45.388992 939.73584 808.47028 4294570749
-7.8073397 942.82556 808.45935 4281542191
-7.7798166 946.55139 807.67682 4282989898
45.846786 947.7915 807.41443 4294043631
-10.788991 958.78461 807.52728 4292330173
44.697247 959.37378 808.02405 4293707906
49.321102 958.19543 807.03052 4294636282
-12.330276 960.55212 809.01758 4291805638
-10.018349 960.55212 809.01758 4292397778
-6.6629968 962.21356 807.80243 4293385188
-3.8440366 962.40942 807.96765 4293977840
-1.5376147 962.40942 807.96759 4294833149
0.51376146 961.79034 808.31757 4294637821
3.8440366 961.82166 807.47205 4294967295
6.9192657 961.82166 807.47205 4294967295
9.7382269 962.21356 807.80243 4294440697
13.069725 961.82166 807.47205 4286545654
16.144955 961.82166 807.47205 4286024285
19.244038 961.18689 808.24481 4291084508
22.321102 961.18689 808.24481 4290362262
25.431194 960.55212 809.01758 4294110190
28.513762 960.55212 809.01758 4294963454
31.557798 961.18689 808.24481 4294966271
34.638535 961.18689 808.24481 4290818274
37.71743 961.18689 808.24481 4282661680
40.844036 960.55212 809.01758 4285482269
43.926605 960.55212 809.01758 4293053122
47.153515 962.21356 807.80243 4294438136
49.321102 960.55212 809.01758 4294109940
-3.8440366 964.17267 809.45435 4294570743
-1.5376147 964.17267 809.45435 4294373877
-27.889908 792.77643 811.43683 4287396739
-25.27523 792.77643 811.43683 4287198844
47.06422 792.11011 810.875 4294967295
-27.801834 796.98279 811.05945 4288118663
-22.588991 796.98279 811.05945 4289696673
-19.982569 796.98279 811.05945 4290155681
-22.588991 798.31122 812.17944 4287456624
-19.982569 798.31122 812.17944 4287388001
46.766972 800.51434 810.11304 4294967295
-19.919266 802.50067 811.78784 4287316557
-19.012844 805.94739 812.07788 4288170583
46.667889 805.28668 811.52081 4294967295
48.396332 805.28668 811.52081 4294967295
-18.952293 809.45514 811.11145 4287712853
43.93486 808.13794 810.00085 4294967295
46.519264 809.45514 811.11145 4294967295
48.242203 809.45514 811.11145 4294967295
-18.952293 810.77234 812.22217 4287711821
46.420185 812.22711 810.83264 4294967295
47.312542 820.22186 811.03351 4294966527
-18.811008 822.40082 812.87085 4287776329
-17.045872 824.56189 810.76892 4287908171
46.876144 824.56189 810.76892 4294967295
-18.750458 827.16827 812.96643 4287382077
-17.009174 827.30304 810.46411 4288104265
43.373394 827.30304 810.46411 4294967295
46.876144 826.51672 812.41705 4294966783
-17.009174 828.60339 811.56055 4288235594
43.373394 828.60339 811.56055 4294967295
45.92477 829.90375 812.65698 4294966527
-18.649542 833.34839 811.63721 4287053112
-16.954128 832.05225 810.54431 4288169540
44.080734 832.05225 810.54431 4294967039
45.776146 833.34839 811.63721 4294965759
-19.477064 835.35791 812.02356 4286593341
-16.917431 834.77789 810.22644 4287903288
43.985321 835.42456 810.77173 4294966271
46.522934 836.07123 811.31702 4294966271
-19.42477 838.4325 811.34595 4286792003
-16.862385 839.50043 810.2843 4287906373
43.842201 839.50043 810.2843 4294965759
46.522934 837.36462 812.40759 4294966527
-21.921101 842.07874 812.45825 4287116087
-19.391743 841.43414 811.91479 4286854972
43.842201 840.78961 811.37134 4294965503
46.371559 842.07874 812.45825 4294966527
-25.238533 844.78339 812.12268 4285999668
-19.349541 844.78339 812.12268 4286919214
-16.825687 843.49701 811.03809 4287448904
43.746788 843.49701 811.03809 4294833147
47.111927 844.78339 812.12268 4294967295
-16.770641 848.18872 811.06982 4287577671
46.957798 848.18872 811.06982 4294966527
-15.915596 850.17578 811.43726 4288235349
46.855045 850.88068 810.72363 4294966783
48.528439 850.88068 810.72363 4294967295
-16.733946 853.43933 812.88098 4287445318
48.528439 852.15997 811.80237 4294967295
-16.6789 856.8208 811.80811 4287841609
48.368809 855.54572 810.73303 4294967039
-18.889296 858.98627 812.76196 4286588984
-16.642202 860.13074 811.98291 4286916406
46.495415 860.89325 810.00977 4294967295
48.209175 859.55774 810.19171 4294966271
-16.605505 863.43225 812.15063 4287045944
-16.550459 866.78711 811.05518 4287241263
-16.550459 868.05237 812.12207 4287109159
-14.862386 869.43976 810.67578 4287372331
42.93578 869.43976 810.67578 4294834430
-16.513762 871.3335 812.27258 4287309868
-14.005505 872.08691 810.29175 4287570989
42.840366 872.08691 810.29175 4294767867
-16.477064 874.60626 812.41602 4287646278
-14.829358 873.97644 811.88495 4287775041
-14.779817 877.93024 811.29468 4287777083
-16.403669 880.49878 812.15234 4286853695
-14.746789 880.55914 810.89526 4286985271
50.794495 881.18549 811.42334 4294967039
-14.168807 883.59906 810.84229 4286852929
47.411011 883.18243 810.49097 4294967039
49.863304 883.80737 811.01788 4294967295
-16.348623 885.68213 812.59863 4286723657
-14.66422 887.72961 810.401 4287644759
-16.293577 890.22095 812.50159 4286919477
-14.66422 888.97528 811.45129 4287053635
-16.25688 892.82312 812.07971 4286255649
50.396332 892.82312 812.07971 4294967295
-17.031193 896.65979 812.69849 4285799970
-14.598166 894.79968 811.13019 4286454569
47.038532 894.17969 810.60742 4294967295
49.471558 895.41974 811.65295 4294901247
-16.165138 899.922 811.52515 4286258200
-14.548624 898.68622 810.48303 4286128158
46.878899 898.68622 810.48303 4294967295
49.034252 899.51007 811.17773 4294900479
-16.165138 901.15784 812.56714 4286585114
-14.515596 901.88672 810.56561 4286586139
-11.289908 901.2702 810.04578 4288228410
46.772476 901.2702 810.04578 4294967295
-16.128441 903.73627 812.12512 4286388768
-13.677982 905.0788 810.64099 4286782757
-13.646789 908.26245 810.70935 4286848545
-13.64679 910.10358 812.26172 4286520606
-11.2 913.32794 811.0564 4287702829
-10.376146 916.48987 811.10632 4287046434
47.889908 915.8797 810.5918 4294965246
49.48624 916.48987 811.10632 4294899453
51.082569 916.48987 811.10632 4294570236
-12.770642 918.3205 812.6499 4285485119
-10.365137 918.37317 811.38629 4286269495
47.779816 919.03461 810.63599 4294767868
49.372478 920.2522 811.6626 4294767613
52.557796 920.86102 812.1759 4294964991
-11.122936 923.39587 811.69714 4281216279
46.875229 922.18103 810.67285 4294570490
50.318043 922.99091 811.35571 4294438649
52.436699 923.39587 811.69714 4294833406
-12.711926 924.61066 812.72144 4282594098
-10.040367 925.52118 810.87311 4281213992
-6.3412843 924.71313 810.19189 4282530887
46.766972 924.71313 810.19189 4294636027
49.937614 925.92517 811.21375 4294373368
-16.357187 928.41473 811.56885 4284169791
-13.459633 928.39758 811.99048 4286604651
46.658714 928.44885 810.72559 4294570233
49.850456 928.72552 811.61292 4294175989
-16.60734 930.86719 812.76477 4281148451
-13.397247 932.82629 810.49255 4285291609
49.648624 932.82629 810.49255 4294307317
-12.609175 934.63379 812.01654 4284831320
-12.579817 937.73889 812.01855 4285884756
49.270947 937.33813 811.68066 4294175731
-13.334863 941.43524 812.51917 4284698428
-10.197248 939.0365 810.4967 4281410593
47.06422 939.63617 811.00232 4294241780
48.633026 941.43524 812.51917 4293781740
-10.434251 943.12616 811.32886 4282726201
-15.504587 956.19281 811.88208 4290949029
-16.009172 958.1955 812.69873 4292001982
-13.921101 958.64771 811.33594 4292199871
24.748625 959.8302 812.33301 4285488242
35.576145 959.8302 812.33301 4278196566
38.669724 959.8302 812.33301 4280362530
40.989906 959.8302 812.33301 4292387420
44.85688 959.8302 812.33301 4294896871
-12.330276 961.73041 810.01111 4293847015
-10.018349 961.73041 810.01111 4294109674
-7.1926608 962.51593 810.67352 4294504691
0.77064222 962.31958 810.50787 4294637819
3.8532109 962.31958 810.50793 4294967295
6.9357796 962.31958 810.50787 4294967295
10.275229 962.51593 810.67352 4294967295
12.844037 962.12323 810.34229 4294967295
16.440367 962.12323 810.34229 4293519847
19.009176 962.12323 810.34229 4287666127
22.348625 961.73041 810.01111 4286417800
26.201836 961.73041 810.01111 4287724948
28.513762 961.73041 810.01111 4292195524
31.596331 961.73041 810.01111 4292334308
33.908257 961.73041 810.01111 4283266482
36.990826 961.73041 810.01111 4278190080
43.155964 961.73041 810.01111 4294964719
46.752293 962.51593 810.67352 4294175475
49.834866 962.51593 810.67352 4294109940
-4.6238532 964.0871 811.99817 4294570488
-25.27523 794.77539 813.12231 4288249995
-27.889908 796.10803 814.24597 4287131264
-25.27523 796.10803 814.24597 4287458170
-28.670643 799.63959 813.29956 4287915888
-25.195412 800.30377 813.85962 4286989136
-22.588991 800.30383 813.85962 4286856771
-25.195412 802.29645 815.53979 4287120197
-22.588991 802.29645 815.53979 4286989125
-22.517431 805.81122 814.57922 4287252554
-20.78532 805.14911 814.02094 4287382605
-20.763302 808.52356 815.55811 4287315005
-18.952293 812.08954 813.33276 4287312948
-22.398165 814.72394 815.55396 4286921535
-19.793579 814.78992 814.30157 4287182124
-22.350458 817.48468 815.26575 4286790206
-19.771561 816.82751 814.71161 4287446584
-19.708256 820.30505 813.71973 4287579203
-19.688072 822.98926 814.67493 4287315778
-20.521101 825.01556 815.07544 4287316028
-22.159634 829.7746 815.16406 4287185225
-19.602753 828.47144 814.06531 4287382329
-22.111927 832.50452 814.84985 4286792003
-20.411009 831.2041 813.75342 4287316028
-22.040367 835.94067 813.823 4286727493
-27.06789 839.95129 814.58862 4286856513
-22.838531 839.30463 814.04333 4287184446
46.522934 838.65796 813.49805 4294966527
-22.764221 844.65704 814.63226 4287052091
-25.91156 847.61328 814.50879 4286856267
-19.349541 847.35602 814.29193 4287315261
-16.770641 850.75299 813.23193 4287442751
-19.265139 853.37683 814.13635 4287313985
-20.014679 860.00861 814.49597 4286587442
-19.138531 862.67535 814.12842 4286652463
-18.834249 865.08563 814.41669 4286717996
-19.066055 868.27924 814.27539 4286718766
-19.033028 870.58301 814.25586 4286720046
-18.165138 873.85852 814.40161 4287053375
-16.477064 875.86597 813.47815 4287513911
-21.420183 878.38531 815.60242 4287581255
-19.223242 877.54547 814.89435 4286790980
-18.06422 881.06897 813.94116 4286331464
-18.06422 882.95215 815.52893 4286396223
-16.385321 883.06445 813.00769 4286459706
-16.348623 886.93201 813.65259 4286856513
-16.25688 894.06592 813.12756 4285863973
52.022018 895.30878 814.17554 4294834943
50.28257 899.13983 814.78967 4294965503
51.904587 898.51984 814.26691 4294899454
50.28257 900.37988 815.83533 4294965503
-16.128441 904.9693 813.16479 4286389018
-16.916515 908.10242 814.49854 4286389535
-16.896332 910.61481 815.30884 4285798173
-13.936391 910.85352 814.63818 4286388769
-16.055046 913.78583 815.36658 4285079329
-13.64679 913.17212 814.84912 4285996064
-16 916.99756 814.15051 4284954941
-13.6 916.38599 813.63483 4285937208
-16.521101 919.06763 815.02393 4283185211
-13.855657 919.06769 815.02393 4284830277
-11.174312 919.54089 813.67896 4286408772
-16.743118 922.63898 814.98309 4282328873
-13.537615 922.68738 813.71594 4282330408
-17.438532 928.34912 813.25757 4282857019
-19.023853 930.77313 815.30139 4284372828
-16.60734 932.07642 813.7843 4282133035
-14.234862 932.07642 813.7843 4286143576
-15.816514 933.89014 815.3136 4282723844
-14.234862 933.89014 815.3136 4286342450
49.533028 938.94104 813.03223 4293978609
-12.550459 942.63458 813.53052 4285753458
48.633026 942.63458 813.53052 4293977838
-16.279816 959.15613 814.38068 4294107874
-13.178899 959.74878 814.88037 4294570482
35.660549 959.74878 814.88037 4278190080
37.986237 959.74878 814.88037 4285026608
41.862385 959.74878 814.88037 4294967283
-10.066055 960.97345 814.60498 4294505206
-6.9605503 962.19525 814.32715 4294307828
-3.0935781 962.19525 814.32715 4294636282
-1.5467891 962.19525 814.32715 4294570488
1.0324159 961.38068 814.51239 4294439671
3.8761468 960.93414 815.87988 4294307316
6.9678898 961.5647 815.10352 4294176752
10.066973 961.5647 815.10352 4294967295
13.4263 960.96039 815.02997 4294967295
16.009172 960.96039 815.02997 4294967295
19.623241 960.96039 815.02997 4293123571
22.704588 960.98657 814.17999 4287200931
25.552294 960.97345 814.60498 4282073397
28.615597 961.01276 813.33008 4288448645
31.992661 960.98657 814.17999 4284832634
34.069725 960.97345 814.60498 4280295452
40.79694 960.96039 815.02997 4294306276
44.13578 960.97345 814.60498 4294570743
47.177063 962.19525 814.32715 4294109939
49.49725 962.19525 814.32715 4293649389
-28.761467 799.43958 817.05493 4286987073
-28.670643 803.62488 816.65979 4287120967
-25.195412 803.62488 816.65979 4287186761
-27.801834 804.95331 817.77991 4287252554
-25.195414 805.61755 818.33997 4286988612
-22.588991 804.95331 817.77991 4287581516
-24.249542 809.78381 817.92883 4286921535
-22.517431 809.1217 817.37054 4286921023
-20.741285 811.23303 816.53467 4287050534
-24.121101 817.35834 817.77521 4286790977
-22.350458 818.79907 816.37402 4287053635
-24.069725 821.42786 818.59058 4286924618
-22.350458 820.11346 817.4823 4286792003
-23.13578 824.2356 817.03381 4286792269
-25.706423 826.20087 818.69092 4286857796
-23.086239 826.97668 816.729 4286791243
-22.764219 847.87988 817.34961 4286855231
-25.799387 850.35748 816.82257 4287051835
-22.71468 851.21509 817.54565 4286982965
-22.71468 852.5014 818.63025 4286785334
-21.801834 856.52258 818.0968 4286718514
-21.68257 862.55884 816.6463 4286653234
-21.68257 864.4715 818.25903 4286653741
-22.157799 868.89697 817.63031 4287048243
-19.926605 869.77979 817.50269 4287710536
-21.587156 871.04926 818.57312 4286989114
-19.926605 871.04926 818.57312 4286922558
-21.515596 874.37891 817.45642 4286792766
-21.420183 880.27484 817.19562 4286594865
-19.772476 880.27484 817.19562 4286396740
-21.420183 882.16437 818.78882 4286792766
-18.918348 883.18604 817.68817 4286529344
-18.865139 886.14282 816.91119 4286594094
-18.023853 888.70148 817.76062 4285864478
-17.922935 895.20355 816.70276 4285865770
-17.882568 897.79449 816.27148 4286323493
-22.631193 908.57288 818.81934 4286392879
-19.354128 908.6684 816.28381 4286455842
-24.192661 911.13446 818.36304 4285407783
-22.579817 911.13446 818.36304 4285276463
-20.160549 910.51794 817.84326 4285407530
-20.114677 914.30554 818.42072 4284562754
-17.700918 912.46014 816.86475 4284884015
-19.266054 916.24066 817.4364 4284237392
-17.660551 915.01324 816.40149 4284560965
-19.200001 919.44403 816.21326 4282794823
-17.6 919.44403 816.21326 4281215790
-19.06789 931.89941 818.86719 4284503894
-17.438532 931.98511 816.32336 4282200650
-16.910093 934.00507 818.02655 4283910208
-14.234862 935.70392 816.8429 4286278215
-18.649542 959.07886 816.93158 4294505201
-16.57737 959.27692 817.09857 4294833655
-13.210092 959.67297 817.4325 4294504950
21.757797 959.67297 817.4325 4293913855
28.751377 959.67297 817.4325 4279570958
31.082569 959.67297 817.4325 4280488538
35.744953 959.67297 817.4325 4283316792
38.076149 959.67297 817.4325 4293179792
52.125687 959.04236 818.20886 4294110195
54.522934 958.41174 818.98523 4294373879
-19.402752 961.4903 817.6568 4294966783
-16.318348 960.86108 818.43433 4294899453
-10.101835 960.86108 818.43433 4294505209
-6.9770641 962.11951 816.87927 4294439672
-3.8761468 962.11951 816.87927 4294571002
-1.5504587 962.11951 816.87927 4294571002
0.7770642 961.4903 817.6568 4294307062
3.8761468 962.11951 816.87927 4293977838
6.9770641 962.11951 816.87927 4293912812
10.090826 961.4903 817.6568 4294967295
13.195413 961.4903 817.6568 4294967295
16.318348 960.86108 818.43433 4294967295
19.426605 960.86108 818.43433 4294967295
22.534863 960.86108 818.43433 4292269782
25.64312 960.86108 818.43433 4283845949
32.636696 960.86108 818.43433 4278779904
34.190826 960.86108 818.43433 4283974656
38.076149 960.86108 818.43433 4294306543
41.184402 960.86108 818.43433 4294767604
43.515594 960.86108 818.43433 4294504697
45.79174 961.4903 817.6568 4294307318
48.839447 962.11951 816.87927 4294109939
-1.5504587 963.30481 817.87878 4294373879
0 963.30481 817.87878 4294306803
-31.376146 802.77118 819.86414 4287121481
-29.633028 802.77118 819.86414 4287187274
-31.376146 804.10382 820.98779 4286792516
-28.761467 804.10382 820.98779 4286989382
-31.277063 808.93854 821.14026 4286328370
-28.381041 808.49579 820.76691 4286263349
-26.06422 807.61011 820.02014 4286397245
-31.177982 812.43225 820.16199 4286392879
-28.579817 812.43225 820.16199 4286327609
-25.404282 811.5495 819.41766 4286855235
-31.177982 813.75647 821.27844 4287053637
-28.550459 814.47687 820.57782 4287118404
-25.926605 815.19727 819.8772 4287249220
-27.655046 816.51862 820.99133 4287054405
-25.926605 816.51862 820.99133 4286922819
-27.566973 821.30994 821.10718 4286792003
-25.844036 819.99274 819.99646 4286727493
-27.508257 824.05664 820.80701 4286857796
-25.78899 822.74225 819.69885 4286989125
-27.420183 827.51111 819.79565 4287053887
-25.706423 827.51111 819.79565 4287053887
-23.992661 827.51111 819.79565 4286792003
-27.420183 828.82129 820.90027 4287054657
-25.238533 856.36041 821.88416 4286195766
-23.555964 855.71729 821.34186 4286587187
-21.420183 883.42407 819.85095 4286791751
-19.772476 884.68378 820.91309 4286390049
-19.772476 885.94342 821.97522 4286062885
-34.755043 911.04456 820.90332 4285606698
-37.179817 912.2804 821.94543 4286722344
-34.755043 912.2804 821.94543 4285738016
-31.486238 912.32397 820.67407 4285341995
-28.536392 912.30939 821.09784 4284882729
-24.999081 912.98401 819.92255 4284688175
-22.579817 912.98401 819.92255 4284035122
-20.966972 912.36749 819.40271 4284031788
-17.438532 935.62109 819.38916 4284109892
-17.438532 937.43909 820.922 4284765789
-13.241284 959.60272 819.98938 4294768380
28.819267 959.60272 819.98938 4278257937
31.155964 959.60272 819.98938 4280025610
35.829357 959.60272 819.98938 4291146075
52.186241 959.60272 819.98938 4294439416
54.522934 959.60272 819.98938 4294308086
-21.809174 961.38916 821.49561 4294965759
-19.182264 962.02777 820.29004 4294965759
-16.35688 961.3891 821.49561 4294768379
-13.241284 961.3891 821.49561 4294636793
-10.120184 961.70306 821.1062 4294505208
-7.0018349 962.01691 820.71692 4294373622
-4.1480122 962.02777 820.29004 4294110451
1.5559633 962.01697 820.71692 4294240755
3.8899083 962.01697 820.71692 4294306547
7.0018349 962.01697 820.71692 4293977322
9.858716 961.60919 820.80908 4293517285
13.241284 960.79364 820.99353 4294110189
16.35688 960.79364 820.99353 4294967295
19.472477 960.79364 820.99353 4294967295
22.588074 960.79364 820.99353 4294967295
25.703671 960.79364 820.99353 4285425517
28.819267 960.79364 820.99353 4278190080
31.155964 960.79364 820.99353 4280549376
35.050461 961.38916 821.49561 4294371762
38.166054 960.79364 820.99353 4294966251
40.50275 960.79364 820.99353 4294373357
42.839447 961.38916 821.49561 4294110186
45.927525 961.70306 821.1062 4294241265
49.012848 962.01691 820.71692 4294307315
52.445873 961.19061 821.32831 4294373622
55.236698 962.01697 820.71692 4294307575
-21.757797 964.42554 821.43982 4294833406
-19.685627 964.02948 821.1059 4294833661
-3.1082568 963.23737 820.43799 4294373109
-1.5541284 963.23737 820.43799 4294438902
0 963.83142 820.9389 4294240755
-31.376146 805.4364 822.11133 4286661448
-29.633028 805.4364 822.11133 4286924364
-31.277063 812.92383 824.50049 4287252815
-29.445871 815.08069 822.39502 4287187022
-28.550459 817.12244 822.80853 4286661701
-29.383486 819.16144 823.21973 4286857026
-29.289907 823.28577 822.77307 4286791226
-24.825687 883.23596 824.92444 4286195248
-22.035475 883.71759 823.58661 4286129199
-21.46789 885.85217 824.51428 4286194723
-19.816513 885.85217 824.51428 4286063919
-37.179817 914.13416 823.50842 4286195755
-31.791437 913.92822 823.33478 4284557874
-29.097248 913.51624 822.98743 4284627525
-17.438532 939.25708 822.45483 4282262316
32.790825 959.53815 822.55103 4288707177
-12.491743 961.92566 824.56409 4294571002
-9.3688078 961.92566 824.56409 4294767867
-7.8073397 961.92566 824.56409 4294767867
1.5614679 961.92566 824.56409 4294240754
7.0266056 961.92566 824.56409 4294240494
10.930275 960.73187 823.5575 4293517285
13.272477 960.73187 823.5575 4293649638
16.395412 960.73187 823.5575 4294967295
19.518349 960.73187 823.5575 4294967295
22.641285 960.73187 823.5575 4294967295
25.764221 960.73187 823.5575 4286545791
29.667891 960.73187 823.5575 4279370241
31.229359 960.73187 823.5575 4288511011
37.475231 960.73187 823.5575 4294967238
39.817429 960.73187 823.5575 4294966492
42.940369 961.92566 824.56409 4294241774
46.063301 961.92566 824.56409 4294241522
48.405506 961.92566 824.56409 4294307316
51.528439 961.32874 824.06079 4294570999
54.651375 961.92566 824.56409 4294242039
