# .PCD v0.7 - Point Cloud Data file format
VERSION 0.7
FIELDS x y z rgb
SIZE 4 4 4 4
TYPE F F F U
COUNT 1 1 1 1
WIDTH 1159
HEIGHT 1
VIEWPOINT 0 0 0 1 0 0 0
POINTS 1159
DATA ascii
-34.613762 823.94946 1296.8396 4289414999
-31.033028 823.03699 1296.0702 4291323245
0.79571867 824.25366 1297.0961 4290818760
-42.836697 830.55737 1297.1791 4288233289
-40.456882 830.55737 1297.1791 4288167239
-38.077065 830.55737 1297.1791 4288624208
-34.507339 830.55737 1297.1791 4289282900
-30.937614 830.55737 1297.1791 4290928488
-28.557798 830.55737 1297.1791 4290733186
-49.976147 832.37677 1298.7131 4286463563
-46.406422 832.37677 1298.7131 4287184208
-42.836697 832.37677 1298.7131 4288036685
-38.077065 832.37677 1298.7131 4288689994
-34.507339 832.37677 1298.7131 4289085263
-30.937614 832.37677 1298.7131 4290928236
19.038532 832.37677 1298.7131 4291148239
-55.710091 838.55127 1297.3792 4286003275
-52.154129 838.55127 1297.3792 4286067512
-49.783485 838.55127 1297.3792 4286528063
-46.227524 838.55127 1297.3792 4287182148
-42.671558 838.55127 1297.3792 4288100937
-40.300919 838.55127 1297.3792 4288429646
-37.930275 838.55127 1297.3792 4289018190
-34.374313 838.55127 1297.3792 4289214284
-30.818348 838.55127 1297.3792 4290397274
-28.447706 838.55127 1297.3792 4290006111
-2.3706422 838.55127 1297.3792 4291016647
-59.266056 840.36365 1298.9072 4285938765
-55.710091 840.36365 1298.9072 4285937487
-52.154129 840.36365 1298.9072 4286263860
-49.783485 840.36365 1298.9072 4286527032
-46.227524 840.36365 1298.9072 4287116355
-42.671558 840.36365 1298.9072 4288034888
-40.300919 840.36365 1298.9072 4288100937
-37.930275 840.36365 1298.9072 4288754765
-34.374313 840.36365 1298.9072 4289149010
-30.818348 840.36365 1298.9072 4290069599
-28.447706 840.36365 1298.9072 4290071123
-2.3706422 840.36365 1298.9072 4291016647
-42.50642 844.69769 1296.0215 4287904072
-40.144955 844.69769 1296.0215 4288233037
-37.783485 844.69769 1296.0215 4288494158
-34.241287 844.69769 1296.0215 4289152083
-30.699083 844.69769 1296.0215 4289743959
-28.337614 844.69769 1296.0215 4290136920
-25.976147 844.69769 1296.0215 4290268506
-23.614679 844.69769 1296.0215 4290334304
-10.626606 844.69769 1296.0215 4291601082
-7.0844035 844.69769 1296.0215 4291408843
-4.7229357 844.69769 1296.0215 4291148489
-42.50642 846.50305 1297.5438 4287838027
-40.144955 846.50305 1297.5438 4288298578
-37.783485 846.50305 1297.5438 4288494926
-34.241287 846.50305 1297.5438 4289217620
-30.699083 846.50305 1297.5438 4289743448
-28.337614 846.50305 1297.5438 4289940057
-25.976147 846.50305 1297.5438 4290137692
-4.7229357 846.50305 1297.5438 4291016649
-2.3614678 846.50305 1297.5438 4290885062
-37.636696 854.41278 1297.6729 4288363351
-35.284405 852.61444 1296.1565 4289020002
-31.755962 852.61444 1296.1565 4289478491
-28.227524 852.61444 1296.1565 4290006363
-25.875229 852.61444 1296.1565 4290401121
-23.522936 852.61444 1296.1565 4290530148
-7.056881 852.61444 1296.1565 4291343301
-4.704587 853.51361 1296.9147 4290228160
-2.3522935 853.51361 1296.9147 4290622662
-37.48991 860.48901 1296.2561 4290347401
-22.259632 860.48901 1296.2561 4290600315
-16.401834 860.48901 1296.2561 4291258747
-14.058716 860.48901 1296.2561 4290276229
-11.715596 860.48901 1296.2561 4292710570
-4.6862388 860.48901 1296.2561 4290685889
-2.3431194 860.48901 1296.2561 4291014854
-39.833027 862.2804 1297.7666 4288768105
-37.48991 862.2804 1297.7666 4289422957
-35.14679 862.2804 1297.7666 4289159529
-25.774311 862.2804 1297.7666 4291130491
-23.431192 862.2804 1297.7666 4291063181
1.1715597 862.2804 1297.7666 4290752972
-37.372478 868.72278 1297.9664 4288693094
-35.036697 868.72278 1297.9664 4288429921
-31.922323 868.42523 1297.7155 4289088085
-28.029358 867.82996 1297.2136 4289811301
-25.693579 868.72278 1297.9664 4290401896
-22.189907 867.82996 1297.2136 4291061879
-16.350458 867.82996 1297.2136 4291258747
-11.678899 867.82996 1297.2136 4292646312
-4.6715598 867.82996 1297.2136 4290884549
1.16789 869.61566 1298.7192 4290555843
-34.899082 875.62457 1297.2457 4288428364
-31.409174 875.62457 1297.2457 4289940827
-27.919266 875.62457 1297.2457 4290735735
-25.592661 875.62457 1297.2457 4290472563
-13.959633 875.62457 1297.2457 4289619578
-10.469725 875.62457 1297.2457 4291336366
-6.9798164 875.62457 1297.2457 4291079364
-4.6532111 875.62457 1297.2457 4290556613
-39.552292 877.40332 1298.7455 4287316812
-37.225689 877.40332 1298.7455 4288428364
-9.3064222 877.40332 1298.7455 4290420662
-6.9798164 877.40332 1298.7455 4291078849
-4.6532111 877.40332 1298.7455 4290622404
-2.3266056 877.40332 1298.7455 4290622404
16.286238 877.40332 1298.7455 4288122027
-37.078899 883.3772 1297.2424 4288297546
-9.2697248 883.3772 1297.2424 4290748082
-6.9522934 883.3772 1297.2424 4291471806
-4.6348624 883.3772 1297.2424 4290686403
-40.555046 885.14893 1298.7362 4286920525
-9.2697248 885.14893 1298.7362 4290815159
-6.9522934 885.14893 1298.7362 4291144123
-4.6348624 885.14893 1298.7362 4290357440
-36.961468 889.72559 1297.363 4288036169
-34.651375 888.84259 1296.6185 4288166730
-20.790825 888.84259 1296.6185 4290603643
-13.860551 888.84259 1296.6185 4290015367
-10.395412 888.84259 1296.6185 4291467948
-6.9302754 888.84259 1296.6185 4291143862
-4.6201835 889.72559 1297.363 4290554817
-2.3100917 890.60864 1298.1077 4290357438
-39.115597 896.52222 1296.5536 4287906636
-36.814678 896.52222 1296.5536 4288233037
-18.407339 896.52222 1296.5536 4290468202
-16.106422 896.52222 1296.5536 4291060339
-13.805505 896.52222 1296.5536 4289489023
-10.354128 896.52222 1296.5536 4290941869
-6.9027524 896.52222 1296.5536 4290946756
-4.6018348 896.52222 1296.5536 4290620609
-2.3009174 896.52222 1296.5536 4290752196
-40.266056 898.28125 1298.0369 4286855492
-36.814678 898.28125 1298.0369 4288034888
-34.51376 898.28125 1298.0369 4288166730
-32.212845 898.28125 1298.0369 4288820560
-10.354128 898.28125 1298.0369 4291138477
-6.9027524 898.28125 1298.0369 4291077828
-4.6018348 898.28125 1298.0369 4290620607
-2.3009174 898.28125 1298.0369 4290752194
-37.431805 905.32782 1297.4382 4287772489
-34.376148 905.03583 1297.192 4288298832
-32.084404 905.03583 1297.192 4288757070
-29.79266 905.03583 1297.192 4288954448
-9.1669722 904.15979 1296.4534 4290484913
-6.8752294 904.15979 1296.4534 4291734979
-4.5834861 905.03583 1297.192 4290818501
-2.291743 905.03583 1297.192 4290555329
-34.266056 911.28748 1297.231 4288298578
-31.981651 911.28748 1297.231 4288429646
-28.555046 911.28748 1297.231 4288692049
-6.8532109 911.28748 1297.231 4291012285
-4.5688071 911.28748 1297.231 4290226111
-2.2844036 911.28748 1297.231 4290357953
-36.550457 913.03394 1298.7036 4287574352
-34.266056 913.03394 1298.7036 4288627041
-2.2844036 913.03394 1298.7036 4290554560
-40.954128 920.58447 1298.5299 4285748570
-37.162079 920.00464 1298.041 4286272861
-34.128441 919.71472 1297.7966 4286600542
-31.85321 919.71472 1297.7966 4286996065
-18.201836 918.84503 1297.0632 4289155422
-15.926605 918.84503 1297.0632 4289352544
-13.651376 918.84503 1297.0632 4288564566
-6.8256879 918.84503 1297.0632 4291076268
-4.5504589 918.84503 1297.0632 4290357438
-2.2752295 919.71472 1297.7966 4290555844
-36.28624 925.90118 1297.7806 4283709764
-34.018349 925.0343 1297.0497 4284894289
-31.750458 925.0343 1297.0497 4285223003
-28.348625 925.0343 1297.0497 4285749865
-24.946789 925.0343 1297.0497 4286671227
-22.6789 925.0343 1297.0497 4286865787
-19.277065 925.0343 1297.0497 4288048004
-15.875229 925.0343 1297.0497 4288177531
-13.60734 925.0343 1297.0497 4288109149
-10.205505 925.03424 1297.0497 4290153361
-6.8036699 925.0343 1297.0497 4292328903
-4.53578 925.0343 1297.0497 4291609044
-2.26789 925.0343 1297.0497 4291674838
-40.689907 932.92358 1298.4697 4286077531
-37.675842 932.34747 1297.984 4285551187
-33.908257 932.05945 1297.7411 4286472028
-31.647707 931.19537 1297.0125 4286275414
-28.25688 932.05945 1297.7411 4286933610
-24.866055 932.05945 1297.7411 4285091932
-22.605505 932.05945 1297.7411 4283449418
-19.21468 932.05945 1297.7411 4284502622
-15.823853 932.05945 1297.7411 4286279805
-13.563303 932.05945 1297.7411 4287265659
-10.549236 932.34747 1297.984 4288647308
-6.7816515 932.05945 1297.7411 4291672762
-33.770641 938.64221 1296.7512 4286407266
-15.759633 938.64221 1296.7512 4283582292
-13.508257 938.64221 1296.7512 4283645518
-10.131193 938.64221 1296.7512 4285553502
-6.7541285 938.64221 1296.7512 4287790450
-36.022018 940.3634 1298.2025 4284107591
-33.770641 940.3634 1298.2025 4284370763
-13.508257 940.3634 1298.2025 4284237396
-10.131193 940.3634 1298.2025 4285487712
-6.7541285 940.3634 1298.2025 4285553754
-33.660549 945.59863 1297.3848 4286213755
-6.73211 946.45642 1298.108 4285553508
-33.522934 952.96552 1297.056 4284570995
-31.288073 952.96552 1297.056 4283714934
-29.053211 952.96552 1297.056 4282201695
-26.818348 952.96552 1297.056 4282071367
-15.644036 952.96552 1297.056 4286481029
-13.409174 952.96552 1297.056 4285030531
-11.174312 952.96552 1297.056 4284504187
-7.8220181 952.96552 1297.056 4285487456
-35.757797 954.67407 1298.4967 4289702588
-4.4697247 954.67407 1298.4967 4285748570
-2.2348623 954.67407 1298.4967 4285880157
4.4697247 954.67407 1298.4967 4285748820
-33.412846 958.99896 1296.9111 4291215060
-31.185322 958.99896 1296.9111 4291084503
-26.730276 958.99896 1296.9111 4291609560
-15.592661 958.14746 1296.1932 4284307103
-13.365138 958.99896 1296.9111 4285628293
-11.137614 958.99896 1296.9111 4284772983
-7.425077 958.71515 1296.6719 4284767333
-4.4550457 958.14746 1296.1932 4285551455
-2.2275229 958.14746 1296.1932 4285748577
2.2275229 959.85046 1297.6292 4285617750
4.4550457 958.14746 1296.1932 4285616980
6.682569 959.85046 1297.6292 4285551957
-28.862385 965.00439 1296.7427 4289304998
-24.422018 965.00439 1296.7427 4289767088
-22.201836 965.00439 1296.7427 4290554562
-19.981651 965.00439 1296.7427 4290817991
-16.651375 965.00439 1296.7427 4292658660
-11.100918 965.00439 1296.7427 4291544278
-7.7706423 965.00439 1296.7427 4286611082
4.4403667 965.00439 1296.7427 4285749333
-28.862385 966.70178 1298.1738 4288780454
-24.422018 966.70178 1298.1738 4289175208
-22.201836 966.70178 1298.1738 4289766052
-19.981651 966.70178 1298.1738 4290160810
-4.4403667 966.70178 1298.1738 4284499017
-2.2201834 966.70178 1298.1738 4285288532
-51.902752 755.86212 1299.5995 4285215812
7.4146791 755.86212 1299.5995 4292332259
-54.374313 757.75165 1301.1926 4284362046
-51.902752 757.75165 1301.1926 4284954439
9.8862381 757.75165 1301.1926 4291543258
-51.710091 764.24878 1300.1307 4283380804
-49.247707 764.24878 1300.1307 4283511368
-46.78532 764.24878 1300.1307 4283840332
9.8495417 764.24878 1300.1307 4291938014
12.311927 766.13135 1301.718 4291806685
-51.517429 770.71783 1299.0452 4284430412
2.4532111 770.71783 1299.0452 4292267745
4.9064221 770.71783 1299.0452 4292267486
7.359633 770.71783 1299.0452 4292135643
9.8128443 770.71783 1299.0452 4291938014
12.266055 770.71783 1299.0452 4292003807
-53.970642 772.59332 1300.6265 4282523708
4.9064221 772.59332 1300.6265 4292004827
9.8128443 772.59332 1300.6265 4292136160
13.492661 772.59332 1300.6265 4292069597
-58.656879 779.02734 1299.5114 4283582805
-56.212845 779.02734 1299.5114 4283648598
-52.546791 779.02734 1299.5114 4284895821
2.4440367 779.02734 1299.5114 4291938266
4.8880734 779.02734 1299.5114 4292004057
7.3321099 779.02734 1299.5114 4291806935
9.7761469 779.02734 1299.5114 4291806681
12.220183 779.02734 1299.5114 4291938266
-58.656879 780.89581 1301.0868 4283711563
-56.212845 780.89581 1301.0868 4286211697
-53.768806 780.89581 1301.0868 4286935670
4.8880734 780.89581 1301.0868 4292135382
7.3321099 780.89581 1301.0868 4292003796
9.7761469 780.89581 1301.0868 4291804888
12.220183 780.89581 1301.0868 4292002010
-51.132111 787.2948 1299.942 4287726735
-48.697247 787.2948 1299.942 4289035166
-46.262386 787.2948 1299.942 4287521927
-43.827522 787.2948 1299.942 4288629337
-41.392662 787.2948 1299.942 4288892766
4.8697248 787.2948 1299.942 4291413205
-58.436699 789.15625 1301.5116 4285491050
-56.001835 789.15625 1301.5116 4285885808
-51.132111 789.15625 1301.5116 4287988619
-48.697247 789.15625 1301.5116 4289363347
-46.262386 789.15625 1301.5116 4287784572
-43.827522 789.15625 1301.5116 4288891494
-41.392662 789.15625 1301.5116 4289417838
-49.688992 796.97485 1300.2559 4288042589
-46.053211 796.97485 1300.2559 4288434521
-43.629356 796.04828 1299.4746 4289023334
-41.205505 796.04828 1299.4746 4289089127
-38.781651 796.04828 1299.4746 4289283940
-49.500916 806.07336 1301.3873 4288106331
-45.878899 804.22736 1299.8308 4288303961
4.8293576 804.22736 1299.8308 4291017680
7.2440367 805.15039 1300.6091 4290951887
12.073395 805.15039 1300.6091 4291083473
-49.312843 812.36426 1300.1516 4287843411
-45.704586 812.36426 1300.1516 4288236628
-43.299084 812.36426 1300.1516 4288694869
2.4055047 812.36426 1300.1516 4290950856
4.8110094 812.36426 1300.1516 4290819786
7.2165136 812.36426 1300.1516 4291148750
9.6220188 812.36426 1300.1516 4291017930
13.230275 812.36426 1300.1516 4290952140
-57.732109 814.20331 1301.7021 4286593869
-55.326607 814.20331 1301.7021 4287120214
-52.921101 814.20331 1301.7021 4287186509
-49.312843 814.20331 1301.7021 4287843154
7.2165136 814.20331 1301.7021 4291149002
9.6220188 814.20331 1301.7021 4290952137
13.230275 814.20331 1301.7021 4290886346
16.838531 814.20331 1301.7021 4291280850
-46.728439 820.45917 1300.4368 4287839307
-43.133945 820.45917 1300.4368 4288296009
-40.737614 820.45917 1300.4368 4288493644
2.3963304 820.45917 1300.4368 4290884810
4.7926607 820.45917 1300.4368 4291148487
-52.719265 822.2912 1301.9814 4287054922
-50.322937 822.2912 1301.9814 4286988873
-46.728439 822.2912 1301.9814 4287643464
4.7926607 822.2912 1301.9814 4291082696
7.1889906 822.2912 1301.9814 4291214282
14.377981 822.2912 1301.9814 4290886094
16.774311 822.2912 1301.9814 4290754508
-46.549541 826.68701 1299.1478 4287577932
-42.968807 826.68701 1299.1478 4288233037
-40.58165 826.68701 1299.1478 4288101450
-38.194496 826.68701 1299.1478 4288361806
-34.613762 826.68701 1299.1478 4289349720
1.193578 826.68701 1299.1478 4291147213
4.774312 826.68701 1299.1478 4291212745
16.710093 826.68701 1299.1478 4290754508
-57.291744 828.51196 1300.6866 4286266703
-54.904587 828.51196 1300.6866 4286332497
-52.517429 828.51196 1300.6866 4286659915
-50.130276 828.51196 1300.6866 4286725708
-46.549541 828.51196 1300.6866 4287446097
1.193578 828.51196 1300.6866 4290885583
4.774312 828.51196 1300.6866 4291016651
16.710093 828.51196 1300.6866 4290886094
-57.115597 834.19617 1300.2472 4286069322
-54.735779 834.19617 1300.2472 4286266701
-52.355965 834.19617 1300.2472 4286461768
-49.976147 834.19617 1300.2472 4286527561
-46.406422 834.19617 1300.2472 4287051852
0.7932722 835.409 1301.2699 4290951115
-59.266056 842.17603 1300.4354 4285939017
-55.710091 842.17603 1300.4354 4285937741
-52.154129 842.17603 1300.4354 4286395710
-49.783485 842.17603 1300.4354 4286790467
-46.227524 842.17603 1300.4354 4287248706
-2.3706422 842.17603 1300.4354 4291082696
-59.266056 843.9884 1301.9636 4285545543
-55.710091 843.9884 1301.9636 4285741127
-52.154129 843.9884 1301.9636 4286133818
-49.783485 843.9884 1301.9636 4286528576
-46.227524 843.9884 1301.9636 4287249220
1.1853211 843.9884 1301.9636 4291015885
4.7412844 843.9884 1301.9636 4291082444
7.1119266 843.9884 1301.9636 4291608788
-47.229359 848.30841 1299.066 4287249733
-43.687157 848.30841 1299.066 4287774283
-40.144955 848.30841 1299.066 4288364371
-37.783485 848.30841 1299.066 4288626259
-2.3614678 848.30841 1299.066 4290885060
-42.50642 850.11377 1300.5883 4287969876
-40.144955 850.11377 1300.5883 4288035926
-37.783485 850.11377 1300.5883 4288493658
-39.988991 856.21118 1299.1892 4288303459
-37.636696 856.21118 1299.1892 4288630371
-2.3522935 856.21118 1299.1892 4290621639
-39.988991 858.00952 1300.7056 4289295994
1.1761467 858.00952 1300.7056 4290687949
-43.347706 865.86304 1300.7874 4286199101
-39.833027 864.96741 1300.0322 4289090911
-37.48991 864.07172 1299.277 4289356408
-35.14679 864.07172 1299.277 4288435306
-25.774311 864.07172 1299.277 4290733182
-23.431192 864.07172 1299.277 4290472064
1.1715597 864.96741 1300.0321 4290687434
4.6862388 864.96741 1300.0322 4290555330
7.0293579 864.96741 1300.0322 4290686659
-39.708256 871.40137 1300.225 4287184458
-37.372478 871.40137 1300.225 4288230216
-35.036697 871.40137 1300.225 4288362058
-32.700916 871.40137 1300.225 4289020240
-2.3357799 871.40137 1300.225 4290556098
1.16789 871.40137 1300.225 4290490555
10.511009 871.40137 1300.225 4290556100
14.014679 871.40137 1300.225 4290688197
-43.211929 873.18713 1301.7306 4286463806
-39.708256 873.18713 1301.7306 4287709771
-37.372478 873.18713 1301.7306 4288494158
-2.3357799 873.18713 1301.7306 4290556613
7.0073395 873.18713 1301.7306 4290752196
10.511009 873.18713 1301.7306 4290753477
14.014679 873.18713 1301.7306 4290820047
16.350458 873.18713 1301.7306 4289504443
-44.205505 880.07135 1300.9951 4285023291
-40.715595 880.07135 1300.9951 4287052621
-4.6532111 879.18201 1300.2452 4290423746
-2.3266056 880.07135 1300.9951 4290686661
-40.555046 886.92059 1300.2301 4286921036
-2.3174312 886.92059 1300.2301 4290620355
-40.555046 888.69226 1301.7239 4287380553
1.1587156 888.69226 1301.7239 4290029501
-39.271561 892.37476 1299.5967 4287972177
0 892.37476 1299.5967 4290556096
-41.58165 894.14087 1301.0858 4287051327
1.1550459 894.14087 1301.0858 4290753479
4.6201835 894.14087 1301.0858 4289832890
-52.921101 901.79944 1301.0032 4286012004
-49.469727 901.79944 1301.0032 4285352028
-43.71743 901.79944 1301.0032 4287053135
-40.266056 900.91986 1300.2616 4286987073
-36.814678 900.04034 1299.52 4288099400
-4.6018348 900.04034 1299.52 4290357951
-2.3009174 900.04034 1299.52 4290555587
0 901.79944 1301.0032 4290424257
-43.543118 907.66394 1299.408 4286329930
-41.251377 907.66394 1299.408 4287049278
-37.813759 907.66394 1299.408 4287904329
-4.5834861 907.66394 1299.408 4290686916
-2.291743 907.66394 1299.408 4290423744
-43.543118 909.41602 1300.8851 4286395975
-41.251377 909.41602 1300.8851 4287115337
-37.813759 909.41602 1300.8851 4287706958
-41.119267 914.78033 1300.1761 4286593867
-36.550457 914.78033 1300.1761 4287181130
-34.266056 914.78033 1300.1761 4288430941
-29.697248 914.78033 1300.1761 4287907919
0 914.78033 1300.1761 4290358205
-43.403671 916.52679 1301.6487 4285286986
-41.119267 916.52679 1301.6487 4286466897
-38.834862 916.52679 1301.6487 4286532690
1.1422018 916.52679 1301.6487 4289963707
-40.954128 922.32391 1299.9966 4285420369
-37.541283 922.32391 1299.9966 4285881178
0 922.32391 1299.9966 4290885590
-43.229359 924.06335 1301.4633 4283447347
-40.954128 924.06335 1301.4633 4283511872
-38.678898 924.06335 1301.4633 4283906374
-45.3578 929.36877 1300.7045 4285158224
-43.089909 928.50189 1299.9735 4284369220
-40.822018 928.50189 1299.9735 4284695892
-37.042202 928.21289 1299.7299 4284432716
-34.018349 927.63501 1299.2426 4283906374
-27.21468 927.63501 1299.2426 4284171351
-24.946789 927.63501 1299.2426 4284171351
-22.6789 927.63501 1299.2426 4284828250
-19.277065 927.63501 1299.2426 4288117643
-15.875229 927.63501 1299.2426 4288775573
-13.60734 927.63501 1299.2426 4288182139
-9.8275232 928.21289 1299.7299 4289171605
-6.8036699 927.63501 1299.2426 4292330697
-4.53578 928.50189 1299.9735 4291609556
-2.26789 928.50189 1299.9735 4291346640
-42.950459 934.65179 1299.9269 4286011986
-40.689907 934.65179 1299.9269 4286012508
-37.299084 934.65179 1299.9269 4285879894
-15.823853 934.65179 1299.9269 4283254094
-13.563303 934.65179 1299.9269 4283384397
-10.172478 934.65179 1299.9269 4285882217
-6.7816515 934.65179 1299.9269 4288972173
-4.521101 934.65179 1299.9269 4289302169
-2.2605505 934.65179 1299.9269 4290354858
-42.950459 936.38 1301.384 4285026896
-40.689907 936.38 1301.384 4285815376
-37.299084 936.38 1301.384 4285618002
-4.521101 936.38 1301.384 4288908665
-2.2605505 936.38 1301.384 4289303423
-37.147705 942.94519 1300.3794 4284700252
-6.7541285 942.08459 1299.6538 4285553502
-4.5027523 942.94519 1300.3794 4285684315
-2.2513762 942.94519 1300.3794 4285618522
-34.78257 949.88757 1301.0011 4283584874
-31.416513 949.02979 1300.2778 4283120735
-6.73211 949.02979 1300.2778 4285617761
-4.4880733 949.88757 1301.0011 4285485651
-2.2440367 949.88757 1301.0011 4285617237
2.2440367 950.74536 1301.7244 4285617750
4.4880733 949.88757 1301.0011 4285749591
-40.227524 956.38263 1299.9373 4289897652
-37.992661 956.38263 1299.9373 4290226617
-35.757797 956.38263 1299.9373 4290096580
1.1174312 956.38263 1299.9373 4285617750
6.704587 956.38263 1299.9373 4285682773
-37.992661 958.09119 1301.3779 4289504180
-35.757797 958.09119 1301.3779 4289899199
0 958.09119 1301.3779 4285617750
-34.526604 961.55334 1299.0651 4290030006
-13.365138 961.55334 1299.0651 4290293707
0 961.55334 1299.0651 4285617748
-33.412846 963.25635 1300.501 4288911007
-31.185322 964.10779 1301.2189 4288713633
-26.730276 964.10779 1301.2189 4288911780
-16.706421 964.95929 1301.9368 4291741373
-13.365138 964.10779 1301.2189 4292794088
-11.137614 964.95929 1301.9368 4292267486
-7.7963305 964.95929 1301.9368 4288186016
1.1137614 964.10779 1301.2189 4285355596
4.4550457 964.95929 1301.9368 4285289299
7.7963305 964.95929 1301.9368 4285486423
11.137614 964.95929 1301.9368 4285551705
15.592661 964.95929 1301.9368 4285616978
-4.4403667 968.39911 1299.605 4285289032
-2.2201834 968.39911 1299.605 4285354826
-54.374313 760.58594 1303.5825 4283445311
-51.902752 759.64117 1302.7859 4283970370
12.357799 761.5307 1304.379 4291938014
-55.403671 768.95508 1304.0989 4282393911
-56.423855 774.46881 1302.2079 4281611068
-53.970642 774.46881 1302.2079 4282067754
-58.656879 782.76428 1302.6622 4284503644
-56.212845 782.76428 1302.6622 4287003778
-53.768806 782.76428 1302.6622 4287593352
-58.656879 784.63281 1304.2377 4285885295
-56.212845 784.63281 1304.2377 4286806397
-53.768806 784.63281 1304.2377 4287068805
-51.132111 791.0177 1303.0812 4286014316
-48.697247 791.0177 1303.0812 4288373375
-46.262386 791.0177 1303.0812 4288175995
-43.827522 791.0177 1303.0812 4288957278
-58.436699 792.87921 1304.6508 4285223004
-56.001835 792.87921 1304.6508 4285223004
-53.566971 792.87921 1304.6508 4286270549
-49.688992 799.75439 1302.5996 4288172890
-49.688992 801.60742 1304.162 4288303965
-57.952293 808.84247 1303.7222 4286463056
-55.537613 809.7655 1304.5005 4287186520
-53.122936 809.7655 1304.5005 4287252815
-49.500916 807.91943 1302.9438 4287645522
-55.326607 816.96185 1304.0281 4286726228
-52.921101 816.96185 1304.0281 4287120454
-49.71376 816.65533 1303.7697 4287579466
7.2165136 816.96185 1304.0281 4291148487
9.6220188 816.96185 1304.0281 4290754247
13.230275 816.96185 1304.0281 4290951628
16.838531 816.96185 1304.0281 4291083217
-57.511925 824.12317 1303.5262 4286332495
-55.115597 824.12317 1303.5262 4286398288
-52.719265 824.12317 1303.5262 4286791501
-50.322937 824.12317 1303.5262 4286857294
7.1889906 824.12317 1303.5262 4291475916
10.783486 824.12317 1303.5262 4291148237
14.377981 824.12317 1303.5262 4290951887
-57.291744 830.33698 1302.2253 4286135883
-54.904587 830.33698 1302.2253 4286135883
-52.517429 830.33698 1302.2253 4286463563
1.193578 830.33698 1302.2253 4290754508
4.774312 830.33698 1302.2253 4290754504
2.387156 832.16199 1303.7642 4290885579
4.774312 832.16199 1303.7642 4290754757
7.161468 832.16199 1303.7642 4291017930
16.710093 832.16199 1303.7642 4290755024
1.1899083 838.74463 1304.0824 4291081931
4.7596331 838.74463 1304.0823 4291081931
7.1394496 839.6543 1304.8494 4291673811
10.709174 839.6543 1304.8494 4290886346
14.278899 839.6543 1304.8494 4290951887
16.658716 838.74463 1304.0823 4290886351
-55.710091 845.80078 1303.4917 4285740871
-52.154129 845.80078 1303.4917 4285937209
-49.783485 845.80078 1303.4917 4286331967
1.1853211 845.80078 1303.4917 4290950603
4.7412844 845.80078 1303.4917 4290952141
7.1119266 845.80078 1303.4917 4290952141
10.667891 845.80078 1303.4917 4291017162
-43.687157 851.91919 1302.1105 4287447632
-40.144955 851.91919 1302.1105 4287905100
0 851.91919 1302.1105 4290623178
-47.229359 853.72449 1303.6327 4288045161
-43.687157 853.72449 1303.6327 4288239975
1.1807339 853.72449 1303.6327 4290951119
4.7229357 853.72449 1303.6327 4290687947
7.0844035 853.72449 1303.6327 4290753740
-43.517433 859.80786 1302.2218 4288308585
4.704587 859.80786 1302.2218 4290423748
7.056881 859.80786 1302.2218 4291015886
-43.517433 861.6062 1303.7382 4286724168
10.585321 861.6062 1303.7382 4290619842
-43.347706 868.55005 1303.053 4285675059
-39.833027 867.65442 1302.2977 4287905352
4.6862388 868.55005 1303.053 4290687172
7.0293579 868.55005 1303.053 4290686915
10.544037 867.65442 1302.2977 4290490053
14.058716 867.65442 1302.2977 4290490053
-43.211929 874.97284 1303.2363 4286202171
0 874.97284 1303.2363 4290688201
7.0073395 874.97284 1303.2363 4290950853
10.511009 874.97284 1303.2363 4290951621
14.014679 874.97284 1303.2363 4290095560
-46.715595 876.75854 1304.7419 4286142027
0 876.75854 1304.7419 4290621641
11.678899 876.75854 1304.7419 4289767099
14.014679 876.75854 1304.7419 4288451239
16.350458 876.75854 1304.7419 4288517033
-44.205505 883.62878 1303.9946 4285677891
-2.3266056 882.73938 1303.2448 4290686149
0 884.51813 1304.7445 4290292930
10.469725 884.51813 1304.7445 4290556865
13.959633 884.51813 1304.7445 4290621639
-41.71376 890.46399 1303.2178 4287116868
2.3174312 890.46399 1303.2178 4290687938
4.6348624 890.46399 1303.2178 4290030787
6.9522934 890.46399 1303.2178 4290491338
-55.618347 892.23566 1304.7117 4284304465
-53.300919 892.23566 1304.7117 4283514950
-46.348625 892.23566 1304.7117 4286133818
-44.031193 892.23566 1304.7117 4286133818
6.9522934 892.23566 1304.7117 4290556613
11.587156 892.23566 1304.7117 4290557381
-49.666969 895.90692 1302.575 4284954439
-46.201836 895.90692 1302.575 4286000704
-43.891743 895.90692 1302.575 4286592584
1.1550459 895.90692 1302.575 4290555846
4.6201835 895.90692 1302.575 4290227898
-55.442204 897.67303 1304.0641 4285353812
-53.132111 897.67303 1304.0641 4285090384
-49.666969 897.67303 1304.0641 4285481812
-46.201836 897.67303 1304.0641 4286001206
-43.891743 897.67303 1304.0641 4286790465
1.1550459 897.67303 1304.0641 4290425282
4.6201835 897.67303 1304.0641 4290293945
6.9302754 897.67303 1304.0641 4290425532
-55.222019 904.43799 1303.228 4283905612
-52.921101 904.43799 1303.228 4285484643
-49.469727 904.43799 1303.228 4285089101
-46.018349 904.43799 1303.228 4286131779
-43.71743 903.55847 1302.4865 4286525764
-41.416515 903.55847 1302.4865 4286917692
1.1504587 904.43805 1303.228 4290161596
4.6018348 904.43799 1303.228 4290359997
6.9027524 903.55847 1302.4865 4290491840
-48.126606 911.16803 1302.3624 4285022281
-45.834862 911.16803 1302.3624 4285740598
-43.543118 911.16803 1302.3624 4286135356
-41.251377 911.16803 1302.3624 4286723657
-38.959633 911.16803 1302.3624 4286723657
1.1458715 911.16803 1302.3624 4290292926
4.5834861 911.16803 1302.3624 4290161855
-52.710091 912.92004 1303.8397 4284500300
-49.272476 912.92004 1303.8397 4284695113
-45.834862 912.92004 1303.8397 4284756792
-43.543118 912.92004 1303.8397 4285349186
-38.959633 912.92004 1303.8397 4286593867
2.291743 912.92004 1303.8397 4290226363
4.5834861 912.92004 1303.8397 4290095547
-43.403671 919.14648 1303.8574 4284632130
1.5229357 918.85541 1303.6119 4290359498
4.5688071 919.14648 1303.8574 4290162107
6.8532109 920.01965 1304.5938 4290227900
-45.504585 925.80273 1302.9298 4284501063
1.1376147 925.80273 1302.9298 4292266966
4.5504589 925.80273 1302.9298 4291806683
6.8256879 925.80273 1302.9298 4291740890
-50.055046 927.54224 1304.3965 4283711563
-47.779816 927.54224 1304.3965 4284830045
1.1376147 927.54224 1304.3965 4291411406
-54.429359 931.96954 1302.8973 4283384643
-46.113766 932.25848 1303.141 4285354578
-43.089909 931.10266 1302.1664 4286143828
-4.53578 931.10266 1302.1664 4291212745
-2.26789 931.10266 1302.1664 4291081158
1.133945 932.83643 1303.6283 4291276731
4.53578 932.83643 1303.6283 4291146952
-42.950459 938.10822 1302.8412 4284302665
-40.689907 938.10822 1302.8412 4284763216
-38.429359 938.10822 1302.8412 4284763216
-4.521101 938.10822 1302.8412 4285618777
-2.2605505 938.10822 1302.8412 4285289812
-45.21101 939.83643 1304.2983 4283186502
-42.950459 939.83643 1304.2983 4283778640
-40.689907 939.83643 1304.2983 4284436052
-37.147705 946.38757 1303.282 4283716453
-4.5027523 945.52698 1302.5563 4285946715
-2.2513762 945.52698 1302.5563 4286012508
1.1256881 947.24817 1304.0076 4285486162
-42.636696 952.461 1303.1709 4290291363
-40.392662 952.461 1303.1709 4289702072
-38.148624 952.461 1303.1709 4289636279
1.1220183 952.461 1303.1709 4285748566
-42.636696 954.17657 1304.6174 4290028968
-37.992661 959.7998 1302.8186 4289831605
-51.401836 961.50836 1304.2592 4289305002
-49.166973 961.50836 1304.2592 4289567917
-46.93211 961.50836 1304.2592 4289436588
-44.697247 961.50836 1304.2592 4289174436
-37.992661 961.50836 1304.2592 4289305515
-35.757797 961.50836 1304.2592 4289174436
-34.15535 967.22998 1303.8512 4289044131
-31.185322 967.51379 1304.0906 4288912804
-28.957798 967.51379 1304.0906 4288781217
-25.987768 967.22998 1303.8513 4288518561
-22.275229 966.66229 1303.3727 4288845212
-20.047707 966.66229 1303.3727 4288582296
-17.820183 966.66229 1303.3727 4288057236
-11.137614 966.66229 1303.3727 4290819786
-7.7963305 966.66229 1303.3727 4288909739
-4.4550457 968.36523 1304.8086 4285289553
-2.2275229 968.36523 1304.8086 4285157710
0 966.66229 1303.3727 4285027408
4.4550457 966.66229 1303.3727 4284961616
17.820183 966.66229 1303.3727 4285420371
20.047707 968.36523 1304.8086 4285354322
22.275229 968.36523 1304.8086 4285288528
-57.099083 756.37109 1307.8767 4283116862
12.412844 756.37109 1307.8767 4291938014
-54.374313 763.42023 1305.9723 4283247426
-56.845871 765.30975 1307.5654 4282788664
-58.656879 788.36975 1307.3887 4282796623
-56.212845 788.36975 1307.3887 4282862417
-53.768806 787.43555 1306.6008 4285356900
-60.871559 794.74066 1306.2202 4285618273
-58.436699 794.74066 1306.2202 4286665307
-56.001835 794.74066 1306.2202 4286796893
-53.566971 794.74066 1306.2202 4287714649
-60.871559 796.60217 1307.7898 4285945420
-58.436699 796.60217 1307.7898 4286795861
-56.001835 796.60217 1307.7898 4286795861
-53.566971 796.60217 1307.7898 4287450964
-58.172478 803.46051 1305.7245 4286462801
-55.748623 803.46051 1305.7245 4286857559
-53.324772 803.46051 1305.7245 4287054420
-63.020184 805.3136 1307.2869 4285739592
-60.596329 805.3136 1307.2869 4286397521
-55.748623 805.3136 1307.2869 4286989146
-53.324772 805.3136 1307.2869 4286989394
-61.57431 811.61151 1306.057 4286133834
-57.952293 813.45758 1307.6135 4286462801
-55.326607 819.7204 1306.354 4286858322
9.6220188 819.7204 1306.354 4291082955
12.027523 819.7204 1306.354 4291148748
7.1889906 826.87122 1305.8433 4290951627
10.783485 826.87122 1305.8433 4290951631
14.377981 826.87122 1305.8433 4290886094
16.774311 827.78723 1306.6156 4290886094
4.774312 833.987 1305.303 4290820553
7.161468 833.987 1305.303 4291017932
9.548624 833.987 1305.303 4290689744
16.710093 833.987 1305.303 4290689998
7.161468 835.81201 1306.8418 4291477202
10.742202 835.81201 1306.8418 4290820812
14.322936 835.81201 1306.8418 4290886607
10.709174 841.47369 1306.3834 4291017160
14.278899 841.47369 1306.3834 4290886094
16.658716 841.47369 1306.3834 4290886094
19.038532 841.47369 1306.3834 4291017682
14.278899 843.29309 1307.9175 4291082703
16.658716 843.29309 1307.9175 4291082703
-55.710091 847.61316 1305.0199 4285413194
-52.154129 847.61316 1305.0199 4286071359
-49.783485 847.61316 1305.0199 4286334532
-46.227524 847.61316 1305.0199 4286989125
1.1853211 847.61316 1305.0199 4290688201
4.7412844 847.61316 1305.0199 4290819786
7.1119266 847.61316 1305.0199 4290885579
10.667891 847.61316 1305.0199 4290885579
-52.154129 849.42554 1306.5481 4286998122
-49.783485 849.42554 1306.5481 4286077020
-47.412846 849.42554 1306.5481 4287319642
2.3706422 849.42554 1306.5481 4290623178
4.7412844 849.42554 1306.5481 4290490055
7.1119266 849.42554 1306.5481 4290753227
9.4825687 849.42554 1306.5481 4290688199
-47.229359 857.33521 1306.6772 4287980651
-43.687157 855.52991 1305.1549 4288769914
4.7229357 855.52991 1305.1549 4290424259
7.0844035 855.52991 1305.1549 4290753481
10.233027 856.13165 1305.6622 4290687432
10.585321 863.40454 1305.2545 4290686151
1.1715597 871.23706 1305.3186 4290687684
4.6862388 871.23706 1305.3186 4290752196
-46.862385 873.02844 1306.829 4286469184
2.3431194 873.02844 1306.829 4290885581
4.6862388 873.02844 1306.829 4290885060
-46.715595 878.54431 1306.2477 4286338638
1.16789 878.54431 1306.2477 4290490307
11.678899 878.54431 1306.2477 4289240503
14.014679 878.54431 1306.2477 4289043356
16.350458 878.54431 1306.2477 4289503907
-46.715595 880.33002 1307.7534 4286534223
1.16789 880.33002 1307.7534 4290752196
4.6715598 880.33002 1307.7534 4290554562
-44.205505 886.29688 1306.2443 4286134854
4.6532111 886.29688 1306.2443 4289702336
6.9798164 886.29688 1306.2443 4290426058
10.469725 886.29688 1306.2443 4290557635
-58.165138 888.07556 1307.744 4283054660
-55.838531 888.07556 1307.744 4284102726
-53.511925 888.07556 1307.744 4284300105
-46.532108 888.07556 1307.744 4286068296
-44.205505 888.07556 1307.744 4286068296
10.469725 888.07556 1307.744 4290557635
16.286238 888.07556 1307.744 4290687947
-57.93578 895.77905 1307.6993 4285223004
-55.618347 894.00739 1306.2054 4284763216
-53.300919 894.00739 1306.2054 4283579198
6.9522934 894.00739 1306.2054 4290556863
10.42844 894.89325 1306.9524 4290556613
13.904587 895.77905 1307.6993 4290687436
-55.442204 899.43909 1305.5532 4284959316
-46.201836 899.43909 1305.5532 4286000704
2.3100917 899.43909 1305.5532 4290556100
4.6201835 899.43909 1305.5532 4290425534
6.9302754 899.43909 1305.5532 4290425534
10.395412 899.43909 1305.5532 4290556613
13.860551 899.43909 1305.5532 4290687949
10.395412 901.2052 1307.0424 4290491586
13.860551 901.2052 1307.0424 4290491588
-55.222019 907.95618 1306.1945 4284368460
-52.921101 907.95618 1306.1945 4284895060
-49.85321 907.66302 1305.9473 4285219406
-46.018349 907.07666 1305.4529 4286395975
1.1504587 907.07666 1305.4529 4290030267
4.6018348 907.07666 1305.4529 4289767097
6.9027524 907.95618 1306.1945 4290293441
9.2036695 908.83569 1306.936 4289898434
-48.126606 914.67212 1305.317 4284630603
-45.834862 914.67212 1305.317 4285220937
4.5834861 914.67212 1305.317 4290095549
-48.126606 916.42419 1306.7943 4284500048
-45.834862 916.42419 1306.7943 4284566343
6.8752294 916.42419 1306.7943 4290227900
-47.972477 923.51257 1307.5389 4284960861
1.1422018 921.76611 1306.0664 4291938521
4.5688071 921.76611 1306.0664 4291544276
6.8532109 921.76611 1306.0664 4291478483
9.1376143 923.51257 1307.5389 4291543254
-50.055046 929.28162 1305.8632 4283907659
-47.779816 929.28162 1305.8632 4285157726
1.1376147 929.28162 1305.8632 4291541961
4.5504589 929.28162 1305.8632 4291739343
6.8256879 931.02106 1307.3298 4291212745
10.238532 931.02106 1307.3298 4291148232
13.651376 931.02106 1307.3298 4291215829
15.926605 931.02106 1307.3298 4291215829
-46.491745 934.57031 1305.0902 4284829270
1.133945 934.57031 1305.0902 4290751133
4.53578 934.57031 1305.0902 4291145153
15.875229 934.57031 1305.0902 4291609038
-46.491745 936.30408 1306.5521 4283251523
1.133945 936.30408 1306.5521 4286274910
4.53578 936.30408 1306.5521 4287590009
15.875229 936.30408 1306.5521 4291606210
-45.21101 941.56458 1305.7556 4284176730
-42.950459 941.56458 1305.7556 4284242523
-40.689907 941.56458 1305.7556 4284767585
2.2605505 941.56458 1305.7556 4285750363
4.521101 941.56458 1305.7556 4285684824
-45.21101 943.29285 1307.2128 4283913303
-42.950459 943.29285 1307.2128 4284176476
-40.689907 943.29285 1307.2128 4284242525
1.1302752 943.29285 1307.2128 4285552988
4.521101 943.29285 1307.2128 4285684311
15.823853 943.29285 1307.2128 4285748570
-40.524769 948.96936 1305.4589 4286543504
-38.273396 948.96936 1305.4589 4285491072
0 948.96936 1305.4589 4285617750
6.7541285 949.82996 1306.1846 4285749077
-47.124771 955.89215 1306.064 4288384663
-43.758713 955.89215 1306.064 4289238689
-40.392662 955.89215 1306.064 4288977836
-47.124771 957.60773 1307.5105 4288844451
-43.758713 957.60773 1307.5105 4289041575
-40.392662 957.60773 1307.5105 4289108138
-55.871559 963.21692 1305.6998 4289305249
-51.401836 963.21692 1305.6998 4289435818
-49.166973 963.21692 1305.6998 4289371308
-46.93211 963.21692 1305.6998 4289568687
-43.95229 964.35596 1306.6603 4288977827
-40.227524 964.92554 1307.1404 4288847010
-37.992661 964.07123 1306.4202 4288912549
-34.640366 963.21692 1305.6998 4288715159
-15.644036 964.92554 1307.1404 4288846495
-13.409174 964.92554 1307.1404 4289701304
2.2348623 964.92554 1307.1404 4284961614
7.8220181 964.92554 1307.1404 4285158741
11.174312 964.92554 1307.1404 4285289816
13.409174 964.92554 1307.1404 4285289812
15.644036 964.92554 1307.1404 4285224019
22.275229 970.06824 1306.2445 4285288528
-57.099083 758.26904 1309.4771 4283249215
-59.317432 769.08881 1310.7518 4283124051
-64.11805 799.70459 1310.4056 4285611086
-60.871559 799.39435 1310.144 4286070096
-58.436699 798.46362 1309.3594 4286528847
-56.001835 798.46362 1309.3594 4286791762
-53.566971 798.46362 1309.3594 4287119952
-60.596329 807.16663 1308.8494 4286463313
-59.908257 829.61926 1308.1604 4285807436
10.783486 829.61926 1308.1604 4290755539
14.377981 829.61926 1308.1604 4290689231
11.981651 831.45123 1309.7051 4290623951
14.377981 831.45123 1309.7051 4290755791
19.097248 837.63696 1308.3806 4290886357
-61.875229 845.11249 1309.4515 4285283920
-59.495415 845.11249 1309.4515 4285283920
14.278899 845.11249 1309.4515 4291082444
16.658716 845.11249 1309.4515 4291214030
-64.255043 846.93188 1310.9856 4285484115
-61.875229 846.93188 1310.9856 4285877590
-58.305504 846.93188 1310.9856 4285548114
-54.735779 846.93188 1310.9856 4287060842
11.899082 846.93188 1310.9856 4290819786
14.278899 846.93188 1310.9856 4291147467
16.658716 846.93188 1310.9856 4291279053
-52.154129 851.23792 1308.0762 4287521897
-49.783485 851.23792 1308.0762 4286535002
9.4825687 851.23792 1308.0762 4290753227
14.223853 851.23792 1308.0762 4290819788
-49.783485 853.05029 1309.6044 4286730846
-47.412846 853.05029 1309.6044 4288045942
14.223853 853.05029 1309.6044 4290622154
-49.590824 860.94598 1309.7217 4285021518
-47.229359 860.04333 1308.9606 4286069320
-49.398167 868.79956 1309.8035 4286340676
-47.045872 867.90039 1309.0453 4286731844
-49.205505 874.8197 1308.3394 4286012224
2.3431194 874.8197 1308.3394 4290555848
4.6862388 874.8197 1308.3394 4290490053
7.0293579 874.8197 1308.3394 4290424259
9.3724775 874.8197 1308.3394 4290227650
-49.205505 876.61108 1309.8499 4286143046
4.6862388 876.61108 1309.8499 4290292678
7.0293579 876.61108 1309.8499 4290292678
9.3724775 876.61108 1309.8499 4290227398
-56.058716 883.90143 1310.7646 4284101431
-52.555046 883.90143 1310.7646 4284889922
-49.051376 883.00854 1310.0118 4285284679
-46.715595 883.00854 1310.0118 4286070343
2.3357799 882.11572 1309.259 4290490053
4.6715598 882.11572 1309.259 4290227650
7.0073395 882.11572 1309.259 4290622152
14.014679 883.90143 1310.7646 4290556361
16.350458 883.00854 1310.0118 4290753482
-58.165138 889.85425 1309.2438 4284372828
-51.185322 889.85425 1309.2438 4285478212
-48.858715 889.85425 1309.2438 4285741641
9.3064222 889.85425 1309.2438 4290491588
13.959633 889.85425 1309.2438 4290491851
16.286238 889.85425 1309.2438 4290491851
-58.165138 891.63293 1310.7435 4285488740
13.959633 891.63293 1310.7435 4290622154
16.286238 891.63293 1310.7435 4290622154
-57.93578 898.43665 1309.9401 4284498253
16.222019 898.43665 1309.9401 4290490823
6.9302754 902.97125 1308.5315 4290622656
10.395412 902.97125 1308.5315 4290491838
13.860551 902.97125 1308.5315 4290557111
10.395412 904.73737 1310.0205 4290095546
13.860551 904.73737 1310.0205 4290228150
-55.222019 910.59479 1308.4192 4284566093
6.9027524 910.59479 1308.4192 4290293182
10.354128 910.59479 1308.4192 4290030018
13.805505 910.59479 1308.4192 4290228150
-55.222019 912.35388 1309.9025 4284237646
-52.921101 912.35388 1309.9025 4283777095
-50.620182 912.35388 1309.9025 4284564810
6.9027524 912.35388 1309.9025 4290556100
10.354128 912.35388 1309.9025 4290293703
13.805505 912.35388 1309.9025 4290096562
-48.126606 919.05231 1309.0103 4284302929
-45.834862 919.05231 1309.0103 4284368444
9.1669722 919.05231 1309.0103 4290360258
13.750459 919.92834 1309.7489 4290359998
16.042202 919.92834 1309.7489 4289965496
4.5688071 925.25903 1309.0115 4291411155
6.8532109 925.25903 1309.0115 4291805912
9.1376143 925.25903 1309.0115 4292003796
13.706422 925.25903 1309.0115 4292069850
15.990826 925.25903 1309.0115 4291938264
-57.110092 927.00549 1310.484 4284238668
-52.541283 927.00549 1310.484 4282990906
6.8532109 927.00549 1310.484 4292068307
10.279816 927.00549 1310.484 4291872205
13.706422 927.00549 1310.484 4292004575
15.990826 927.00549 1310.484 4292004575
-54.605503 932.7605 1308.7964 4283054912
6.8256879 932.7605 1308.7964 4291605704
10.238532 932.7605 1308.7964 4291672530
13.651376 932.7605 1308.7964 4291543245
-54.605503 934.49994 1310.2631 4283186498
-50.055046 934.49994 1310.2631 4283186764
6.8256879 934.49994 1310.2631 4288839820
10.238532 934.49994 1310.2631 4290089639
13.651376 934.49994 1310.2631 4291013816
-54.429359 938.0379 1308.014 4283186502
-47.625687 938.0379 1308.014 4283055946
1.133945 938.0379 1308.014 4285749334
4.53578 938.0379 1308.014 4286339935
6.8036699 938.0379 1308.014 4287853175
13.60734 938.0379 1308.014 4290357147
15.875229 938.0379 1308.014 4290751905
-49.893578 940.63867 1310.2069 4283583570
-47.625687 940.63867 1310.2069 4283912792
0 939.77173 1309.476 4285158226
6.8036699 940.63867 1310.2069 4285552725
10.583487 940.92767 1310.4506 4285551705
13.60734 940.63867 1310.2069 4285682778
15.875229 939.77173 1309.476 4286012256
-47.471561 945.02106 1308.6699 4281938746
-42.950459 945.88513 1309.3984 4285555805
-40.689907 945.02106 1308.6699 4283585383
6.7816515 945.02106 1308.6699 4285750104
13.563303 945.02106 1308.6699 4286077531
-42.636696 959.3233 1308.957 4289174436
-40.392662 959.3233 1308.957 4288910757
-53.85688 961.03894 1310.4036 4289435818
-42.636696 961.03894 1310.4036 4289240994
-40.392662 961.03894 1310.4036 4288912292
-43.20734 967.20361 1309.0613 4289043619
-40.227524 967.4884 1309.3014 4288911521
-37.992661 967.4884 1309.3014 4289043365
-35.012844 967.77313 1309.5415 4289305507
-31.288073 968.34265 1310.0217 4289371306
-29.053211 968.34265 1310.0217 4289305513
-25.700916 967.4884 1309.3014 4288847011
-22.348623 966.63409 1308.5811 4288713631
-20.113762 966.63409 1308.5811 4288582044
-16.761467 966.63409 1308.5811 4288254360
-13.409174 966.63409 1308.5811 4288320151
-11.174312 966.63409 1308.5811 4290425784
-7.8220177 967.4884 1309.3014 4288647855
-4.4697247 968.34265 1310.0217 4285356622
-2.2348623 968.34265 1310.0217 4284830278
1.1174312 966.63409 1308.5811 4285027158
4.4697247 966.63409 1308.5811 4285158226
6.704587 966.63409 1308.5811 4285158226
17.878899 967.4884 1309.3014 4285222736
20.113762 968.34265 1310.0217 4285157199
-57.099083 760.16699 1311.0774 4283182909
-59.58165 762.06494 1312.6776 4282854458
14.895412 762.06494 1312.6776 4291871703
-63.020184 810.87274 1311.9742 4285937741
-60.596329 810.87274 1311.9742 4286069070
-58.172478 812.72583 1313.5366 4286595153
-62.066055 841.28699 1311.4581 4285284424
-59.678898 841.28699 1311.4581 4285152582
-57.115597 848.75128 1312.5198 4285942618
-54.735779 848.75128 1312.5198 4287653235
11.899082 848.75128 1312.5198 4291016399
16.658716 848.75128 1312.5198 4291148752
-52.154129 854.86267 1311.1324 4286204744
-49.783485 854.86267 1311.1324 4286796882
11.853211 854.86267 1311.1324 4291147985
14.223853 854.86267 1311.1324 4291083209
-52.154129 856.67505 1312.6606 4285675334
-49.783485 856.67505 1312.6606 4285938250
14.223853 856.67505 1312.6606 4290884808
-49.590824 862.75134 1311.2439 4284891976
-47.229359 862.75134 1311.2439 4285220414
-49.590824 864.5567 1312.7661 4286012492
-51.750458 872.3963 1312.8361 4285683516
-49.398167 870.5979 1311.3197 4286142779
-51.548622 878.4024 1311.3602 4285220664
-49.205505 878.4024 1311.3602 4285549629
7.0293579 878.4024 1311.3602 4290554562
10.544037 878.4024 1311.3602 4290292160
14.058716 878.4024 1311.3602 4290292662
16.401834 878.4024 1311.3602 4290753213
-56.234863 880.19373 1312.8706 4284299325
-52.720184 880.19373 1312.8706 4284956997
-51.387157 885.68719 1312.2704 4285346883
-49.051376 885.68719 1312.2704 4285610054
14.014679 885.68719 1312.2704 4290753740
16.286238 893.41168 1312.2434 4290621643
16.222019 901.97998 1312.9277 4290293941
18.53945 901.97998 1312.9277 4290227649
11.550459 906.50342 1311.5096 4290161605
13.860551 906.50342 1311.5096 4290293945
16.170643 907.38647 1312.2542 4290293944
18.480734 907.38647 1312.2542 4290096063
-52.921101 914.11292 1311.3856 4283577926
-50.620182 914.11292 1311.3856 4284368462
10.354128 914.11292 1311.3856 4290031296
13.805505 914.11292 1311.3856 4289767599
16.106422 914.11292 1311.3856 4289964979
-52.921101 915.87201 1312.8689 4282857286
-50.620182 915.87201 1312.8689 4283447623
11.504587 915.87201 1312.8689 4289965242
13.805505 915.87201 1312.8689 4289898934
16.106422 915.87201 1312.8689 4289964983
-50.41835 921.68036 1311.2262 4283711050
11.458715 922.5564 1311.9648 4291609042
13.750459 921.68036 1311.2262 4290688199
16.042202 921.68036 1311.2262 4290622406
-50.256882 928.75195 1311.9565 4283513416
-50.256882 930.49841 1313.4292 4283579212
-56.880733 937.97876 1313.1964 4283384647
-52.330276 936.23938 1311.7297 4283120709
-50.055046 936.23938 1311.7297 4283055946
9.8593273 936.81915 1312.2186 4287986292
-49.893578 943.23938 1312.3998 4282136381
-45.3578 943.23938 1312.3998 4281608992
10.205505 944.10632 1313.1307 4285815129
-51.612843 962.75452 1311.8501 4288977061
-49.368809 962.75452 1311.8501 4289108136
-47.124771 962.75452 1311.8501 4289173930
-49.368809 964.47009 1313.2966 4289043106
-47.124771 964.47009 1313.2966 4289108900
8.9761467 964.47009 1313.2966 4285420371
11.220183 964.47009 1313.2966 4285420371
13.46422 964.47009 1313.2966 4285420369
15.708257 964.47009 1313.2966 4285420369
-2.2348623 970.05127 1311.4623 4285485912
20.113762 970.05127 1311.4623 4284828748
22.348623 970.05127 1311.4623 4285025361
-59.801834 757.45593 1315.3315 4282985274
14.950459 757.45593 1315.3315 4291937499
-59.58165 763.96289 1314.278 4281870906
-58.172478 814.57886 1315.0991 4286660944
19.097248 844.93701 1314.5358 4291016138
-54.735779 850.57068 1314.0537 4286074717
-52.355965 850.57068 1314.0537 4286270295
16.658716 850.57068 1314.0537 4291148498
-54.735779 852.39001 1315.5879 4286074199
-52.154129 859.39355 1314.9529 4284627525
14.223853 858.48737 1314.1887 4290753479
-51.952293 866.36206 1314.2883 4285287988
-51.952293 868.16742 1315.8105 4285550642
-54.102753 875.99298 1315.8687 4285154619
-51.750458 874.19464 1314.3524 4285945668
18.612844 896.96912 1315.2429 4290556613
-55.442204 911.8017 1315.9771 4283577926
16.170643 910.03558 1314.4879 4290228148
18.480734 910.03558 1314.4879 4289964992
-52.921101 917.63104 1314.3521 4282463808
-50.620182 917.63104 1314.3521 4283249725
11.504587 917.63104 1314.3521 4290492101
-52.710091 926.93652 1315.6581 4282660154
-52.541283 932.24481 1314.9017 4283120705
-58.535778 961.0177 1315.6177 4288712608
-55.158714 961.0177 1315.6177 4289108134
-56.100918 967.90125 1316.1897 4288844712
-49.368809 966.18567 1314.7432 4289174697
-47.124771 966.18567 1314.7432 4289240490
-44.132721 967.32941 1315.7075 4289108643
-40.392662 967.90125 1316.1897 4289042593
-38.148624 967.90125 1316.1897 4289503144
-34.78257 967.90125 1316.1897 4289239975
-31.416513 967.90125 1316.1897 4289437614
-29.172478 967.90125 1316.1897 4289503407
-25.806423 967.04346 1315.4664 4288715171
-22.440367 967.04346 1315.4664 4288583076
-20.196331 967.04346 1315.4664 4288517283
-17.204281 966.75751 1315.2253 4288779419
-13.46422 966.18567 1314.7432 4288057234
-11.220183 966.18567 1314.7432 4289438886
-7.8541284 967.90125 1316.1897 4288647585
-4.4880733 967.90125 1316.1897 4285946463
1.1220183 966.18567 1314.7432 4285091919
4.4880733 966.18567 1314.7432 4285419858
7.8541284 966.18567 1314.7432 4285353808
11.220183 966.18567 1314.7432 4285419858
13.46422 966.18567 1314.7432 4285551185
