# .PCD v0.7 - Point Cloud Data file format
VERSION 0.7
FIELDS x y z rgb
SIZE 4 4 4 4
TYPE F F F U
COUNT 1 1 1 1
WIDTH 1163
HEIGHT 1
VIEWPOINT 0 0 0 1 0 0 0
POINTS 1163
DATA ascii
-37.225689 873.84589 1295.746 4288777320
-34.899082 873.84589 1295.746 4289040235
-31.409174 873.84589 1295.746 4288842860
-27.919266 873.84589 1295.746 4288112751
-25.592661 873.84589 1295.746 4287586407
-23.266054 873.84589 1295.746 4288962416
-19.776146 873.84589 1295.746 4289751677
-9.3064222 873.84589 1295.746 4292069589
-6.9798164 873.84589 1295.746 4292135382
-4.6532111 873.84589 1295.746 4291806935
-2.3266056 873.84589 1295.746 4292267486
0 873.84589 1295.746 4292399835
-41.71376 881.60553 1295.7485 4287130458
-34.761467 880.71967 1295.0016 4289369456
-31.285322 880.71967 1295.0016 4290027905
-27.809174 880.71967 1295.0016 4290552951
-25.491743 880.71967 1295.0016 4290553207
-23.174313 880.71967 1295.0016 4290090880
-19.698166 880.71967 1295.0016 4289036143
-6.9522934 880.71967 1295.0016 4292135894
-4.6348624 881.60553 1295.7485 4291675859
-2.3174312 880.71967 1295.0016 4292399836
0 880.71967 1295.0016 4292202711
-31.186237 886.19348 1294.3848 4289829509
-27.721102 886.19348 1294.3848 4290947703
-25.411009 887.07654 1295.1294 4291210625
-23.100918 887.07654 1295.1294 4290683516
-19.250765 886.48779 1294.6329 4290484353
-16.170643 887.07654 1295.1294 4289035888
-9.2403669 887.07654 1295.1294 4292398552
-6.9302754 886.19348 1294.3848 4292332758
-4.6201835 886.19348 1294.3848 4291938265
-27.61101 893.00409 1293.5872 4289233505
-19.557798 893.00409 1293.5872 4290153069
-16.106422 893.00409 1293.5872 4289230691
-13.805505 893.00409 1293.5872 4288506997
-27.61101 894.76312 1295.0704 4287790182
-25.310091 894.76312 1295.0704 4288119404
-23.009174 894.76312 1295.0704 4289428586
-19.557798 894.76312 1295.0704 4290216816
-16.106422 894.76312 1295.0704 4289952615
-13.805505 894.76312 1295.0704 4288903296
-9.2036695 894.76312 1295.0704 4292727262
-6.9027524 894.76312 1295.0704 4292595933
-27.500917 900.65564 1293.4988 4291477211
-22.917431 900.65564 1293.4988 4288438370
-28.555046 907.79456 1294.2859 4284832871
-22.844036 907.79456 1294.2859 4291472600
-11.422018 907.79456 1294.2859 4289424500
-28.555046 909.54102 1295.7584 4286080357
-36.403671 917.10559 1295.5967 4291478744
-34.128441 917.10559 1295.5967 4290886607
-31.85321 917.10559 1295.5967 4290425534
-28.440367 916.2359 1294.8633 4288781479
-25.027523 916.2359 1294.8633 4287993494
-22.752293 916.2359 1294.8633 4290029248
-19.339451 917.10559 1295.5967 4288706957
-4.5504589 917.10559 1295.5967 4287592569
-2.2752295 917.10559 1295.5967 4287526776
-15.875229 920.69971 1293.3949 4290012264
-9.0715599 920.69971 1293.3949 4288773765
-6.8036699 920.69971 1293.3949 4289563281
-4.53578 920.69971 1293.3949 4289106073
-2.26789 920.69971 1293.3949 4289303453
-15.875229 922.43353 1294.8568 4289816168
-13.60734 922.43353 1294.8568 4289292402
-10.205505 922.43353 1294.8568 4289164666
-6.8036699 922.43353 1294.8568 4289365636
-4.53578 922.43353 1294.8568 4288777613
-2.26789 922.43353 1294.8568 4288711563
-6.7541285 935.19983 1293.8488 4286735965
-18.011009 936.92102 1295.3 4286479485
-9.0055046 936.92102 1295.3 4286539356
-6.7541285 936.92102 1295.3 4286539356
-17.952293 940.4519 1293.045 4287265153
-7.8541284 940.4519 1293.045 4286473820
-22.440367 943.02527 1295.215 4287200373
-20.196331 942.16748 1294.4917 4286542961
-15.708257 942.16748 1294.4917 4287921030
-13.46422 943.88306 1295.9382 4287986271
-11.220183 942.16748 1294.4917 4286734930
-7.8541284 942.16748 1294.4917 4286473561
-2.2440367 943.88306 1295.9382 4286340958
0 943.88306 1295.9382 4286538073
-24.583487 949.54834 1294.1748 4286740383
-13.409174 949.54834 1294.1748 4287527544
-11.174312 949.54834 1294.1748 4286737771
-7.8220181 949.54834 1294.1748 4286145112
-4.4697247 949.54834 1294.1748 4286537567
-2.2348623 949.54834 1294.1748 4286537567
0 949.54834 1294.1748 4286538073
-29.053211 951.25696 1295.6155 4284963193
-25.700916 951.25696 1295.6155 4286210432
-11.174312 951.25696 1295.6155 4285753456
-7.8220181 951.25696 1295.6155 4286407514
-4.4697247 951.25696 1295.6155 4286341471
-2.2348623 951.25696 1295.6155 4286275678
-33.412846 956.44452 1294.7573 4291281370
-31.185322 956.44452 1294.7573 4290231764
-28.957798 954.74158 1293.3215 4282138508
-25.24526 955.30927 1293.8002 4284903034
-22.275229 954.74158 1293.3215 4286810242
-20.047707 954.74158 1293.3215 4287534221
-16.706421 954.74158 1293.3215 4287137174
-13.365138 955.59302 1294.0394 4287332480
-11.137614 955.59302 1294.0394 4285621606
-7.7963305 955.59302 1294.0394 4286145112
-4.4550457 956.44452 1294.7573 4286275164
-2.2275229 956.44452 1294.7573 4286340958
-33.302753 961.60974 1293.8804 4291873502
-24.422018 961.60974 1293.8804 4294112767
-22.201836 961.60974 1293.8804 4294179071
-19.981651 961.60974 1293.8804 4293323767
-16.651375 961.60974 1293.8804 4289971670
-4.4403667 961.60974 1293.8804 4286143578
-2.2201834 961.60974 1293.8804 4286275164
-33.302753 963.30707 1295.3115 4291938764
-24.422018 963.30707 1295.3115 4294638078
-22.201836 963.30707 1295.3115 4294178043
-19.981651 963.30707 1295.3115 4294243836
-16.651375 963.30707 1295.3115 4292269294
-7.7706423 963.30707 1295.3115 4285817425
-4.4403667 963.30707 1295.3115 4286209630
-2.2201834 963.30707 1295.3115 4286341473
-49.247707 760.48376 1296.9562 4284041546
-46.78532 760.48376 1296.9562 4284238668
4.9247708 760.48376 1296.9562 4293254640
7.387156 760.48376 1296.9562 4293583605
-49.247707 762.36627 1298.5435 4285223506
9.8495417 762.36627 1298.5435 4293583343
-49.06422 768.84229 1297.4637 4284698193
-46.611008 768.84229 1297.4637 4283908676
9.8128443 768.84229 1297.4637 4293714680
13.492661 768.84229 1297.4637 4293846262
-43.992661 775.29034 1296.3604 4287991200
-40.326607 775.29034 1296.3604 4286610083
7.3321099 775.29034 1296.3604 4292993003
-43.992661 777.15887 1297.9358 4289833144
-41.548622 777.15887 1297.9358 4290359489
2.4440367 777.15887 1297.9358 4293190382
4.8880734 777.15887 1297.9358 4292796138
7.3321099 777.15887 1297.9358 4292796138
9.7761469 777.15887 1297.9358 4293190130
-43.827522 784.50256 1297.5878 4286407795
-41.392662 784.50256 1297.5878 4286605174
-38.957798 783.57184 1296.803 4286213507
2.4348624 783.57184 1296.803 4293320689
-43.629356 794.19525 1297.9122 4289102187
-41.205505 793.26868 1297.131 4289233774
-38.781651 792.34216 1296.3497 4289169243
2.4238532 794.19525 1297.9122 4292664040
-41.049541 800.53528 1296.7178 4287720534
-38.634861 800.53528 1296.7178 4286606455
2.4146788 800.53528 1296.7178 4292663525
-43.464222 802.38135 1298.2743 4290416759
-41.049541 802.38135 1298.2743 4289364328
-38.634861 802.38135 1298.2743 4289362304
2.4146788 802.38135 1298.2743 4292926183
4.8293576 802.38135 1298.2743 4292794341
-43.299084 808.68622 1297.0503 4291071078
-40.893578 808.68622 1297.0503 4290413405
-38.488075 808.68622 1297.0503 4291197317
2.4055047 808.68622 1297.0503 4292596959
-45.704586 810.52527 1298.601 4289035108
-43.299084 810.52527 1298.601 4290147416
-40.893578 810.52527 1298.601 4290344539
2.4055047 810.52527 1298.601 4292532198
4.8110094 810.52527 1298.601 4292596961
14.433027 810.52527 1298.601 4292662503
-45.530273 817.71118 1298.1198 4289429872
-43.133945 817.71118 1298.1198 4289820767
-40.737614 817.71118 1298.1198 4289557595
-38.341286 816.79517 1297.3474 4290206557
-35.944954 816.79517 1297.3474 4290732901
-2.3963304 817.71118 1298.1198 4292860131
0 817.71118 1298.1198 4292532199
19.170643 816.79517 1297.3474 4292795108
-46.549541 824.862 1297.609 4288704611
-42.968807 824.862 1297.609 4289426787
-40.58165 823.94946 1296.8396 4290676338
-38.194496 823.94946 1296.8396 4290740075
-35.011623 823.64532 1296.5831 4290145124
-4.774312 823.03699 1296.0702 4292532452
-2.387156 823.94946 1296.8396 4292795368
0 823.94946 1296.8396 4292531942
-42.836697 830.55737 1297.1791 4289229145
-40.456882 830.55737 1297.1791 4290545004
-38.077065 830.55737 1297.1791 4290872182
-34.507339 830.55737 1297.1791 4290540399
-2.3798165 830.55737 1297.1791 4292596961
-57.115597 832.37677 1298.7131 4287327586
-54.735779 832.37677 1298.7131 4287064415
-52.355965 832.37677 1298.7131 4287785305
-49.976147 832.37677 1298.7131 4287785305
-46.406422 832.37677 1298.7131 4288440156
-42.836697 832.37677 1298.7131 4288637005
-35.697247 832.37677 1298.7131 4291202169
0 832.37677 1298.7131 4292794343
-54.524769 838.55127 1297.3792 4287852132
-46.227524 838.55127 1297.3792 4288572509
-42.671558 838.55127 1297.3792 4288901710
-40.300919 838.55127 1297.3792 4290283363
-37.930275 838.55127 1297.3792 4290612596
-34.374313 838.55127 1297.3792 4292256406
0 838.55127 1297.3792 4292661989
-59.266056 840.36365 1298.9072 4287459184
-55.710091 840.36365 1298.9072 4288115304
-52.154129 840.36365 1298.9072 4288443490
-49.783485 840.36365 1298.9072 4288311647
-46.227524 840.36365 1298.9072 4288377699
-42.671558 840.36365 1298.9072 4288836951
-40.300919 840.36365 1298.9072 4290350190
-34.374313 840.36365 1298.9072 4292452248
0 840.36365 1298.9072 4292794091
-40.144955 844.69769 1296.0215 4290616719
-37.783485 844.69769 1296.0215 4291928482
-33.060551 844.69769 1296.0215 4291724958
-30.699083 844.69769 1296.0215 4291198614
-28.337614 844.69769 1296.0215 4291916157
-2.3614678 844.69769 1296.0215 4292597734
0 844.69769 1296.0215 4292597480
-40.144955 846.50305 1297.5438 4292128438
-37.783485 846.50305 1297.5438 4292256683
-34.241287 846.50305 1297.5438 4291397785
-30.699083 846.50305 1297.5438 4291263124
0 846.50305 1297.5438 4292531685
-39.988991 854.41278 1297.6729 4289490556
-37.636696 853.51361 1296.9147 4290343808
-35.284405 854.41278 1297.6729 4292316316
-32.93211 854.41278 1297.6729 4291730089
-28.227524 852.61444 1296.1565 4290733945
-25.875229 852.61444 1296.1565 4290339444
-23.522936 852.61444 1296.1565 4290863210
-4.704587 853.51361 1296.9147 4292464609
-2.3522935 853.51361 1296.9147 4292859367
0 854.41278 1297.6729 4292596707
-37.48991 860.48901 1296.2561 4289157732
-35.14679 860.48901 1296.2561 4291855245
-32.803669 860.48901 1296.2561 4290745000
-9.3724775 860.48901 1296.2561 4292660443
-7.0293579 860.48901 1296.2561 4292528856
-4.6862388 860.48901 1296.2561 4291741141
-2.3431194 860.48901 1296.2561 4292530401
-39.833027 862.2804 1297.7666 4288701547
-9.3724775 862.2804 1297.7666 4292660443
-7.0293579 862.2804 1297.7666 4292528856
-4.6862388 862.2804 1297.7666 4292266713
-2.3431194 862.2804 1297.7666 4292727264
-39.708256 868.72278 1297.9664 4287130210
-37.372478 868.72278 1297.9664 4287525482
-18.686239 867.82996 1297.2136 4292124595
-9.3431196 868.72278 1297.9664 4292200408
-7.0073395 868.72278 1297.9664 4292266201
-4.6715598 868.72278 1297.9664 4292004311
-2.3357799 868.72278 1297.9664 4292464862
0 868.72278 1297.9664 4292334047
-39.552292 875.62457 1297.2457 4288975478
-37.225689 875.62457 1297.2457 4289042034
-34.899082 875.62457 1297.2457 4289371256
-31.409174 875.62457 1297.2457 4290290822
-27.919266 875.62457 1297.2457 4289501820
-25.592661 875.62457 1297.2457 4288449131
-23.266054 875.62457 1297.2457 4288114788
-19.776146 875.62457 1297.2457 4288374879
0 875.62457 1297.2457 4292202456
-44.205505 877.40332 1298.7455 4288316278
-40.715595 877.40332 1298.7455 4288974710
-37.225689 877.40332 1298.7455 4289500786
-9.3064222 877.40332 1298.7455 4292136149
2.3266056 877.40332 1298.7455 4292400087
-44.031193 883.3772 1297.2424 4286079330
-34.761467 883.3772 1297.2424 4289435232
-23.174313 883.3772 1297.2424 4290946690
-20.85688 883.3772 1297.2424 4290025588
-2.3174312 883.3772 1297.2424 4292267232
0 883.3772 1297.2424 4292071388
-37.078899 885.14893 1298.7362 4284959786
-34.761467 885.14893 1298.7362 4287131212
-11.587156 885.14893 1298.7362 4292916676
-2.3174312 885.14893 1298.7362 4292201692
-31.186237 889.72559 1297.3632 4287197794
-25.411009 889.72559 1297.363 4290287468
-23.100918 889.72559 1297.363 4290221162
-19.63578 888.84259 1296.6185 4291208062
-10.395412 890.60864 1298.1077 4292985550
-6.9302754 889.72559 1297.363 4292332246
-4.6201835 890.60864 1298.1077 4291807446
-2.3100917 890.60864 1298.1077 4292267997
-28.761467 896.52222 1296.5536 4289637303
-25.310091 896.52222 1296.5536 4286939795
-23.009174 896.52222 1296.5536 4288436812
-10.354128 896.52222 1296.5536 4293052106
-6.9027524 896.52222 1296.5536 4292530138
-29.911926 898.28125 1298.0369 4291937499
-10.354128 898.28125 1298.0369 4293379268
-37.813759 905.91187 1297.9307 4285225052
-34.376148 905.03583 1297.192 4286936184
-32.084404 905.03583 1297.192 4286740105
-29.79266 904.15979 1296.4534 4289174445
-10.312843 905.03583 1297.192 4289624956
-34.266056 911.28748 1297.231 4288847277
-31.981651 911.28748 1297.231 4288515999
-28.555046 911.28748 1297.231 4286672501
-37.692657 913.03394 1298.7036 4291082693
-34.266056 913.03394 1298.7036 4290885842
-31.981651 913.03394 1298.7036 4289502907
-9.1376143 913.03394 1298.7036 4287587690
-6.8532109 913.03394 1298.7036 4287324775
-37.162079 920.00464 1298.041 4289040546
-34.128441 919.71472 1297.7966 4289699760
-31.85321 919.71472 1297.7966 4289701795
-28.440367 919.71472 1297.7965 4290886078
-25.027523 919.71472 1297.7966 4290886344
-22.752293 919.71472 1297.7966 4290354637
-19.339451 919.71472 1297.7965 4288571779
0 919.71472 1297.7966 4288711051
-34.018349 925.90118 1297.7806 4284376682
-31.750458 925.90118 1297.7806 4283326563
-29.482569 925.90118 1297.7806 4283392356
-18.899084 925.32324 1297.2933 4289164927
-15.875229 925.0343 1297.0497 4289491576
-13.60734 925.0343 1297.0497 4288439668
-10.205505 925.03424 1297.0497 4287914855
-6.8036699 925.0343 1297.0497 4287719520
-4.53578 925.0343 1297.0497 4287327331
-2.26789 925.0343 1297.0497 4287327331
-31.647707 932.92358 1298.4697 4289043640
-27.126606 932.92358 1298.4697 4290227137
-22.605505 932.92358 1298.4697 4287135893
-18.837921 932.34747 1297.984 4286148216
-15.823853 932.05945 1297.7411 4287463557
-13.563303 932.92358 1298.4697 4287724418
-9.7957191 932.34747 1297.984 4286670692
-6.7816515 931.19537 1297.0125 4286866781
-4.521101 932.05945 1297.7411 4286735963
-2.2605505 932.05945 1297.7411 4286735963
0 932.92358 1298.4697 4286669409
-22.513762 938.64221 1296.7512 4287200641
-20.262384 938.64221 1296.7512 4286740090
-15.759633 938.64221 1296.7512 4287067517
-13.508257 938.64221 1296.7512 4286539354
-11.256881 938.64221 1296.7512 4286539354
-2.2513762 938.64221 1296.7512 4286340958
0 938.64221 1296.7512 4286538073
-33.770641 940.3634 1298.2025 4286541153
-31.519266 940.3634 1298.2025 4288049232
-28.1422 940.3634 1298.2025 4289629044
-24.765137 940.3634 1298.2025 4289629824
-13.508257 940.3634 1298.2025 4287261530
-2.2513762 940.3634 1298.2025 4286341207
0 940.3634 1298.2025 4286538073
-33.660549 947.31421 1298.8313 4286546572
-31.416513 947.31421 1298.8313 4286874238
-29.172478 947.31421 1298.8313 4287927183
-25.806423 946.45642 1298.108 4286347156
-37.992661 952.96552 1297.056 4285298036
-34.640366 952.96552 1297.056 4286283680
-31.288073 952.96552 1297.056 4283257245
-4.4697247 952.96552 1297.056 4286274912
-2.2348623 952.96552 1297.056 4286274912
0 952.96552 1297.056 4286340958
-42.462387 954.67407 1298.4967 4289963706
-40.227524 954.67407 1298.4967 4289965492
-37.992661 954.67407 1298.4967 4290886594
-35.757797 954.67407 1298.4967 4291544542
0 954.67407 1298.4967 4286340958
-40.095413 959.85046 1297.6292 4290887111
-37.867889 958.99896 1296.9111 4291215818
-35.640366 958.99896 1296.9111 4291413215
-13.365138 958.99896 1296.9111 4286942357
-11.137614 958.99896 1296.9111 4285165690
-7.7963305 958.99896 1296.9113 4286080086
-4.4550457 958.14746 1296.1932 4286209621
-2.2275229 958.14746 1296.1932 4286341207
0 958.99896 1296.9111 4286341207
-34.412842 965.00439 1296.7427 4290952126
-24.422018 965.00439 1296.7427 4291938516
-22.201836 965.00439 1296.7427 4292202202
-19.981651 965.00439 1296.7427 4292662753
-16.651375 965.00439 1296.7427 4293780470
-13.321101 965.00439 1296.7427 4293781238
-7.7706423 965.00439 1296.7427 4286214773
-4.4403667 965.00439 1296.7427 4285815127
-2.2201834 965.00439 1296.7427 4286407264
0 965.00439 1296.7427 4286735965
-31.082569 966.70178 1298.1738 4290623678
-28.862385 966.70178 1298.1738 4290886594
-26.642202 966.70178 1298.1738 4290886585
-4.4403667 966.70178 1298.1738 4285289812
-51.902752 755.86212 1299.5995 4284566093
-49.431194 755.86212 1299.5995 4284434507
7.4146791 755.86212 1299.5995 4293583605
9.8862381 755.86212 1299.5995 4293649650
-51.902752 757.75165 1301.1926 4284567638
9.8862381 757.75165 1301.1926 4293649650
-51.710091 764.24878 1300.1307 4285093216
-49.247707 764.24878 1300.1307 4285420119
12.311927 764.24878 1300.1307 4293911289
-54.172478 766.13135 1301.718 4284106069
-51.710091 766.13135 1301.718 4284895842
-51.517429 770.71783 1299.0452 4285949293
-49.06422 770.71783 1299.0452 4285097328
-46.611008 770.71783 1299.0452 4285492085
4.9064221 770.71783 1299.0452 4293518832
9.8128443 770.71783 1299.0452 4293254642
12.266055 770.71783 1299.0452 4293517813
-49.06422 772.59332 1300.6265 4286543238
-46.611008 772.59332 1300.6265 4287924891
2.4532111 772.59332 1300.6265 4293453293
4.9064221 772.59332 1300.6265 4293190382
9.8128443 772.59332 1300.6265 4293255153
12.266055 772.59332 1300.6265 4293452789
-46.436699 779.02734 1299.5114 4289043377
-43.992661 779.02734 1299.5114 4289634483
-41.548622 779.02734 1299.5114 4290489791
2.4440367 779.02734 1299.5114 4293255153
4.8880734 779.02734 1299.5114 4293058542
7.3321099 779.02734 1299.5114 4292729833
-48.880733 780.89581 1301.0868 4284175724
-46.436699 780.89581 1301.0868 4285557377
4.8880734 780.89581 1301.0868 4293058794
7.3321099 780.89581 1301.0868 4292993001
9.7761469 780.89581 1301.0868 4292795624
13.442202 780.89581 1301.0868 4293190384
-46.262386 787.2948 1299.942 4287134857
-43.827522 787.2948 1299.942 4288905335
-41.392662 787.2948 1299.942 4288905335
-46.262386 789.15625 1301.5116 4287989392
-43.827522 789.15625 1301.5116 4289167726
2.4348624 789.15625 1301.5116 4293058285
-46.053211 796.97485 1300.2559 4289167755
-43.629356 796.97485 1300.2559 4288904547
2.4238532 796.04828 1299.4746 4292926694
4.8477063 797.90137 1301.0371 4292465378
-45.878899 806.07336 1301.3873 4290548346
-43.464222 804.22736 1299.8308 4291006589
-41.049541 804.22736 1299.8308 4290282609
2.4146788 804.22736 1299.8308 4292728550
4.8293576 805.15039 1300.6091 4292728033
7.2440367 806.07336 1301.3873 4292991204
9.6587152 805.15039 1300.6091 4292531427
13.683181 805.45801 1300.8685 4292794087
-48.110092 812.36426 1300.1516 4289100652
-45.704586 812.36426 1300.1516 4289100652
-43.299084 812.36426 1300.1516 4290016082
2.4055047 812.36426 1300.1516 4292466405
4.8110094 812.36426 1300.1516 4292531687
9.6220188 812.36426 1300.1516 4292662757
13.230275 812.36426 1300.1516 4292728549
16.838531 812.36426 1300.1516 4292860134
-61.340366 814.20331 1301.7021 4287651423
-57.732109 814.20331 1301.7021 4287788906
-49.312843 814.20331 1301.7021 4288642409
2.4055047 814.20331 1301.7021 4292466407
4.8110094 814.20331 1301.7021 4292532198
7.2165136 814.20331 1301.7021 4292598247
9.6220188 814.20331 1301.7021 4292663275
13.230275 814.20331 1301.7021 4292729066
16.838531 814.20331 1301.7021 4292860649
-50.322937 820.45917 1300.4368 4288048734
-46.728439 820.45917 1300.4368 4288901987
-43.133945 820.45917 1300.4368 4289754720
-57.511925 822.2912 1301.9814 4287983968
-55.115597 822.2912 1301.9814 4287983968
-52.719265 822.2912 1301.9814 4288048734
-50.322937 822.2912 1301.9814 4287982685
2.3963304 822.2912 1301.9814 4292531687
-57.291744 826.68701 1299.1478 4287720545
-54.904587 826.68701 1299.1478 4287654752
-52.517429 826.68701 1299.1478 4287718999
-50.130276 826.68701 1299.1478 4287850585
-46.549541 826.68701 1299.1478 4288376163
-42.968807 826.68701 1299.1478 4289099105
-40.58165 826.68701 1299.1478 4290414965
-38.194496 826.68701 1299.1478 4290937975
-35.807339 826.68701 1299.1478 4290082666
0 826.68701 1299.1478 4292465378
-57.291744 828.51196 1300.6866 4287653985
-54.904587 828.51196 1300.6866 4287522399
-52.517429 828.51196 1300.6866 4287718999
-50.130276 828.51196 1300.6866 4287850585
-46.549541 828.51196 1300.6866 4288573024
0 828.51196 1300.6866 4292597734
-58.305504 835.10583 1301.0142 4287524195
-52.355965 835.10583 1301.0142 4288047963
-49.976147 835.10583 1301.0142 4288113499
-47.596329 834.19617 1300.2472 4288440157
1.1899083 835.10583 1301.0142 4292990952
-46.227524 842.17603 1300.4354 4289301379
-42.671558 842.17603 1300.4354 4289498238
-35.559631 842.17603 1300.4354 4291665309
-54.524769 843.9884 1301.9636 4289692539
-52.154129 843.9884 1301.9636 4289958037
-49.783485 843.9884 1301.9636 4290681760
-46.227524 843.9884 1301.9636 4290156686
-42.671558 843.9884 1301.9636 4290615199
2.3706422 843.9884 1301.9636 4292531685
7.1119266 843.9884 1301.9636 4293583857
9.4825687 843.9884 1301.9636 4293122794
14.223853 843.9884 1301.9636 4292926192
16.594496 843.9884 1301.9636 4293057779
18.965137 843.9884 1301.9636 4292927208
-42.50642 848.30841 1299.066 4290417823
-40.144955 848.30841 1299.066 4290614945
-37.783485 848.30841 1299.066 4291267751
-34.241287 848.30841 1299.066 4290804628
-30.699083 848.30841 1299.066 4290538883
0 848.30841 1299.066 4292531939
-43.687157 850.11377 1300.5883 4290349201
-40.144955 850.11377 1300.5883 4290283926
-34.241287 850.11377 1300.5883 4290409597
-30.699083 850.11377 1300.5883 4290276215
0 850.11377 1300.5883 4292531939
-39.988991 856.21118 1299.1892 4289423722
-2.3522935 856.21118 1299.1892 4292793830
0 856.21118 1299.1892 4292728546
-39.988991 858.00952 1300.7056 4289617772
0 858.00952 1300.7056 4292400098
-43.347706 865.86304 1300.7874 4286405725
-39.833027 864.07172 1299.277 4286533721
-14.058716 865.86304 1300.7874 4290351748
-10.544037 864.96741 1300.0322 4292657345
-4.6862388 864.07172 1299.277 4292267484
-2.3431194 864.07172 1299.277 4292530655
1.1715597 864.96741 1300.0322 4292333791
-43.211929 871.40137 1300.225 4288315751
-39.708256 871.40137 1300.225 4288447585
-16.350458 871.40137 1300.225 4293238965
-14.014679 871.40137 1300.225 4291800518
-11.678899 871.40137 1300.225 4292787413
2.3357799 871.40137 1300.225 4292794593
-43.211929 873.18713 1301.7306 4288316270
-16.350458 873.18713 1301.7306 4291003518
-14.014679 873.18713 1301.7306 4290089123
-10.511009 873.18713 1301.7306 4292461009
-7.0073395 873.18713 1301.7306 4292266711
-4.6715598 873.18713 1301.7306 4291675344
2.3357799 873.18713 1301.7306 4292334042
-53.511925 880.96069 1301.745 4285550683
-44.205505 879.18201 1300.2452 4286212451
-40.327827 880.36786 1301.2451 4288117101
-37.225689 880.07135 1300.9951 4288777053
-25.592661 880.96069 1301.745 4291605626
-16.286238 880.96069 1301.745 4288641384
-13.959633 880.96069 1301.745 4288838023
-10.081958 880.36786 1301.2451 4292264397
2.3266056 880.07135 1300.9951 4292334559
-37.078899 886.92059 1300.2301 4286207836
-34.761467 886.92059 1300.2301 4286602594
-13.904587 886.92059 1300.2301 4288574085
-10.42844 886.92059 1300.2301 4292722896
-4.6348624 886.92059 1300.2301 4291873243
-39.396332 888.69226 1301.7239 4290552486
-37.078899 888.69226 1301.7239 4289896889
-34.761467 888.69226 1301.7239 4287988892
0 888.69226 1301.7239 4292399837
4.6348624 888.69226 1301.7239 4292794591
-31.186239 892.37476 1299.5967 4286012299
-11.550459 892.37476 1299.5967 4293245890
-4.6201835 892.37476 1299.5967 4292071640
-2.3100917 892.37476 1299.5967 4292071640
-32.341286 894.14087 1301.0858 4291084488
-4.6201835 894.14087 1301.0858 4292202972
-2.3100917 894.14087 1301.0858 4292137179
0 894.14087 1301.0858 4292202972
-43.71743 901.79944 1301.0032 4285948759
-40.266056 900.91986 1300.2616 4285619289
-36.814678 901.79944 1301.0032 4285225819
-34.51376 900.04034 1299.52 4290883768
-32.212845 900.04034 1299.52 4290755541
-29.911926 900.04034 1299.52 4291216092
-9.9706421 900.62671 1300.0144 4292260529
-6.9027524 900.91992 1300.2616 4291539889
-4.6018348 901.79944 1301.0032 4290619299
-2.3009174 900.04034 1299.52 4291936454
-41.251377 907.66394 1299.408 4285094234
-37.813759 907.66394 1299.408 4285094237
-34.376148 907.66394 1299.408 4284501847
-32.084404 907.66394 1299.408 4285027171
-9.1669722 907.66394 1299.408 4287588192
-43.543118 909.41602 1300.8851 4287200643
-41.251377 909.41602 1300.8851 4287397766
-37.813759 909.41602 1300.8851 4289306795
-9.1669722 909.41602 1300.8851 4287522147
-41.119267 914.78033 1300.1761 4289965244
-38.834862 914.78033 1300.1761 4291281104
-41.119267 916.52679 1301.6487 4290357438
-38.834862 916.52679 1301.6487 4291804884
-36.403671 922.32391 1299.9966 4285096544
-34.128441 922.32391 1299.9966 4286938748
-31.85321 922.32391 1299.9966 4286875005
-28.440367 922.32391 1299.9966 4287335055
-25.027523 922.32391 1299.9966 4287466139
-22.752293 922.32391 1299.9966 4288577179
-20.477064 922.32391 1299.9966 4287392905
0 922.32391 1299.9966 4287262311
-40.954128 924.06335 1301.4633 4285952898
-37.541283 924.06335 1301.4633 4284901746
-27.302752 924.06335 1301.4633 4283716722
-25.027523 924.06335 1301.4633 4284308859
-22.752293 924.06335 1301.4633 4287985028
0 924.06335 1301.4633 4286866781
9.1009178 924.06335 1301.4633 4286472023
-40.822018 929.36877 1300.7045 4287067018
-37.042202 928.79083 1300.2172 4288450467
-34.018349 928.50189 1299.9735 4287793307
-31.750458 928.50189 1299.9735 4287269275
-28.348623 928.50189 1299.9735 4287136672
-24.946789 928.50189 1299.9735 4286543518
-22.6789 928.50189 1299.9735 4286346607
-19.655046 928.21289 1299.7299 4287594625
-15.875229 927.63501 1299.2426 4288840337
-13.60734 928.50189 1299.9735 4288708234
-10.583487 928.21289 1299.7299 4286866023
-6.8036699 927.63501 1299.2426 4286997084
-4.53578 927.63501 1299.2426 4286800473
-2.26789 927.63501 1299.2426 4286866522
0 928.50189 1299.9735 4286668645
-36.168808 934.65179 1299.9269 4285951603
-33.908257 934.65179 1299.9269 4287464842
-31.647707 934.65179 1299.9269 4287791495
-28.256882 934.65179 1299.9269 4287989133
-24.866055 934.65179 1299.9269 4288186514
-22.605505 934.65179 1299.9269 4287530637
-20.344954 934.65179 1299.9269 4286477949
-15.823853 934.65179 1299.9269 4286281849
-13.563303 934.65179 1299.9269 4286145902
-11.302752 934.65179 1299.9269 4286409074
-2.2605505 934.65179 1299.9269 4286472287
0 934.65179 1299.9269 4286800225
-42.950459 936.38 1301.384 4286806898
-37.299084 936.38 1301.384 4286148702
-33.908257 936.38 1301.384 4288055416
-31.647707 936.38 1301.384 4287988065
-28.256882 936.38 1301.384 4288118889
-24.866055 936.38 1301.384 4288381556
-33.770641 942.94519 1300.3794 4286543477
-31.519266 942.94519 1300.3794 4286807144
-28.142202 942.94519 1300.3794 4287267702
-24.765137 942.08459 1299.6538 4288844406
2.2513762 943.80579 1301.1051 4286734682
4.5027523 943.80579 1301.1051 4286668887
-43.758713 950.74536 1301.7244 4285624214
-40.392662 950.74536 1301.7244 4284508520
-38.148624 949.02979 1300.2778 4281688416
-33.660549 949.02979 1300.2778 4282996596
-31.416513 949.02979 1300.2778 4284370799
1.1220183 949.88757 1301.0011 4286275417
-43.579819 956.38263 1299.9373 4290557113
-40.227524 956.38263 1299.9373 4291083975
-43.579819 958.09119 1301.3779 4290755262
2.2348623 958.09119 1301.3779 4286209621
-42.322937 961.55334 1299.0651 4290886335
-40.095413 961.55334 1299.0651 4290886594
-37.867889 961.55334 1299.0651 4291084229
-35.640366 961.55334 1299.0651 4291149504
-13.365138 961.55334 1299.0651 4290689985
-11.137614 961.55334 1299.0651 4285887095
0 961.55334 1299.0651 4286538073
17.820183 961.55334 1299.0651 4286012258
20.047707 961.55334 1299.0651 4285814623
-42.322937 964.10779 1301.2189 4290820798
-40.095413 964.10779 1301.2189 4290820542
-37.867889 964.10779 1301.2189 4290886334
-34.526604 964.95929 1301.9368 4290689469
-24.502752 964.95929 1301.9368 4291347136
-22.275229 964.95929 1301.9368 4292136399
-20.047707 964.95929 1301.9368 4292267986
-16.706421 964.95929 1301.9368 4293189351
-13.365138 964.95929 1301.9368 4293847546
-11.137614 964.10779 1301.2189 4290491590
-7.7963305 964.95929 1301.9368 4287069571
-2.2275229 964.95929 1301.9368 4285947998
0 964.95929 1301.9368 4286209621
4.4550457 963.25635 1300.501 4286144610
17.820183 964.10779 1301.2189 4285683550
20.047707 964.10779 1301.2189 4285420378
-54.374313 760.58594 1303.5825 4284172877
-51.902752 759.64117 1302.7859 4284765264
-54.993275 769.26886 1304.3634 4284371290
-51.710091 769.89636 1304.8926 4286740353
-58.877064 774.46881 1302.2079 4284043356
-56.423855 775.40662 1302.9985 4283188566
-52.335163 775.71924 1303.2621 4283846752
-49.06422 775.40662 1302.9985 4285884541
-46.611008 774.46881 1302.2079 4289436590
9.8128443 776.34436 1303.7893 4292926958
12.266055 775.40662 1302.9985 4293190130
-48.880733 782.76428 1302.6622 4285753204
-46.436699 782.76428 1302.6622 4285753204
2.4440367 782.76428 1302.6622 4293254640
4.8880734 782.76428 1302.6622 4293059048
7.3321099 782.76428 1302.6622 4293124841
13.442202 782.76428 1302.6622 4293254893
-51.324772 784.63281 1304.2377 4285163634
-48.880733 784.63281 1304.2377 4285885047
2.4440367 784.63281 1304.2377 4293057260
4.8880734 784.63281 1304.2377 4292860388
-46.262386 791.0177 1303.0812 4288054413
-51.132111 792.87921 1304.6508 4287329399
-48.697247 792.87921 1304.6508 4288051586
4.8697248 792.87921 1304.6508 4292794854
-46.053211 799.75439 1302.5996 4290548881
14.543119 799.75439 1302.5996 4292794854
-48.477066 801.60742 1304.162 4289628543
-46.053211 801.60742 1304.162 4290352266
7.2715597 801.60742 1304.162 4292925157
12.119267 801.60742 1304.162 4292531685
-60.366974 809.7655 1304.5005 4287716459
-57.952293 809.7655 1304.5005 4287522917
-49.903362 808.53485 1303.4628 4288905319
7.2440367 808.84247 1303.7222 4292663014
9.6587152 807.91943 1302.9438 4292794341
12.073395 807.91943 1302.9438 4292728548
-61.340366 816.96185 1304.0281 4287916384
-57.732109 816.96185 1304.0281 4288115815
-55.326607 816.96185 1304.0281 4288444523
-52.921101 816.96185 1304.0281 4288246628
-49.312843 816.04236 1303.2528 4288838250
2.4055047 816.96185 1304.0281 4292597991
4.8110094 816.96185 1304.0281 4292860391
7.2165136 816.96185 1304.0281 4293057771
9.6220188 816.96185 1304.0281 4292728558
13.230276 816.96185 1304.0281 4292662763
16.838531 816.96185 1304.0281 4292860139
-59.908257 824.12317 1303.5262 4287392864
2.3963304 824.12317 1303.5262 4292794343
14.377981 824.12317 1303.5262 4292727783
2.387156 832.16199 1303.7642 4293254379
-58.305504 839.6543 1304.8494 4287653736
-54.735779 839.6543 1304.8494 4289496187
-52.355965 839.6543 1304.8494 4289433737
-49.976147 839.6543 1304.8494 4289170822
2.3798165 838.74463 1304.0823 4292728554
4.7596331 839.6543 1304.8494 4292531685
7.1394496 839.6543 1304.8494 4293124078
10.709174 839.6543 1304.8494 4292729831
14.278899 838.74463 1304.0823 4292860650
16.658716 839.6543 1304.8494 4292992238
-54.524769 845.80078 1303.4917 4287847005
-52.154129 845.80078 1303.4917 4288374392
-49.783485 845.80078 1303.4917 4289427080
-46.227524 845.80078 1303.4917 4289496709
2.3706422 845.80078 1303.4917 4292597732
4.7412844 845.80078 1303.4917 4293056999
7.1119266 845.80078 1303.4917 4293188586
9.4825687 845.80078 1303.4917 4293122792
-43.687157 851.91919 1302.1105 4289886337
16.530275 851.91919 1302.1105 4292597734
-47.229359 853.72449 1303.6327 4289031545
-43.687157 853.72449 1303.6327 4290082686
2.3614678 853.72449 1303.6327 4293255146
-43.517433 859.80786 1302.2218 4288045416
0 859.80786 1302.2218 4292465380
-43.517433 861.6062 1303.7382 4286141528
2.3522935 861.6062 1303.7382 4292465378
-43.347706 867.65442 1302.2977 4287921261
-16.401834 867.65442 1302.2977 4293172656
-14.058716 867.65442 1302.2977 4291998124
-11.715596 867.65442 1302.2977 4292853433
2.3431194 867.65442 1302.2977 4292334303
4.6862388 869.44574 1303.8081 4292400350
7.0293579 869.44574 1303.8081 4292860901
10.544037 869.44574 1303.8081 4292598497
-49.051376 874.97284 1303.2363 4286998651
-46.715595 874.97284 1303.2363 4287066211
-16.350458 874.97284 1303.2363 4290151039
-14.014679 874.97284 1303.2363 4289431189
-11.678899 874.97284 1303.2363 4292918474
4.6715598 874.97284 1303.2363 4292268251
7.0073395 874.97284 1303.2363 4292860388
9.3431196 874.97284 1303.2363 4292663525
-49.051376 876.75854 1304.7419 4286408045
-46.715595 876.75854 1304.7419 4286541416
-16.350458 876.75854 1304.7419 4289365623
-14.014679 876.75854 1304.7419 4288970125
-11.678899 876.75854 1304.7419 4292786119
4.6715598 876.75854 1304.7419 4292267736
7.0073395 876.75854 1304.7419 4292925409
9.3431196 876.75854 1304.7419 4292465891
-53.511925 883.62878 1303.9946 4286340697
-46.532108 883.62878 1303.9946 4286999923
-44.205505 883.62878 1303.9946 4285486684
-40.715595 883.62878 1303.9946 4285615178
-13.959633 882.73938 1303.2448 4288903046
-2.3266056 884.51813 1304.7445 4292399587
0.77553517 883.92523 1304.2446 4292268509
4.6532111 884.51813 1304.7445 4292728800
6.9798164 884.51813 1304.7445 4292860386
-44.031193 890.46399 1303.2178 4286474867
-40.555046 890.46399 1303.2178 4289106090
-37.078899 890.46399 1303.2178 4290947801
-34.761467 890.46399 1303.2178 4289697990
0 890.46399 1303.2178 4292202972
4.6348624 890.46399 1303.2178 4292663005
-53.300919 892.23566 1304.7117 4284567388
-50.983486 892.23566 1304.7117 4283582540
-46.348625 892.23566 1304.7117 4283714128
-44.031193 892.23566 1304.7117 4284043093
-40.555046 892.23566 1304.7117 4285952887
-37.078899 892.23566 1304.7117 4290291908
-34.761467 892.23566 1304.7117 4291936734
2.3174312 892.23566 1304.7117 4292597730
4.6348624 892.23566 1304.7117 4292203226
6.9522934 892.23566 1304.7117 4292532191
-53.132111 895.90692 1302.575 4284434264
-48.511925 895.90692 1302.575 4284961112
-46.201836 895.90692 1302.575 4284765518
-43.891743 895.90692 1302.575 4284831312
-40.426605 895.90692 1302.575 4285817952
-34.651375 895.90692 1302.575 4292791513
-32.341286 895.90692 1302.575 4292332256
-6.9302754 895.90692 1302.575 4292660172
-4.6201835 895.90692 1302.575 4292530653
-2.3100917 895.90692 1302.575 4292596446
-53.132111 897.67303 1304.0641 4284763468
-48.511925 897.67303 1304.0641 4285749070
-46.201836 897.67303 1304.0641 4285947215
-43.891743 897.67303 1304.0641 4285947215
-36.961468 897.67303 1304.0641 4285357156
-4.6201835 897.67303 1304.0641 4291936454
0 897.67303 1304.0641 4291870148
-55.222019 903.55847 1302.4865 4285491039
-52.921101 905.31757 1303.9696 4288122506
-49.086243 904.7312 1303.4752 4287135614
-46.018349 904.43799 1303.228 4285423720
-43.71743 904.43799 1303.228 4285094755
-41.416515 903.55847 1302.4865 4285685342
-6.9027524 904.43799 1303.228 4287456608
-4.6018348 904.43799 1303.228 4286933352
-2.3009174 904.43799 1303.228 4287130475
11.504587 905.31757 1303.9696 4286670954
-45.834862 911.16803 1302.3624 4288646806
-43.543118 911.16803 1302.3624 4288712599
-41.251377 911.16803 1302.3624 4289832100
-4.5834861 911.16803 1302.3624 4286999135
-2.291743 911.16803 1302.3624 4287130721
-45.834862 912.92004 1303.8397 4288646543
-43.543118 912.92004 1303.8397 4290291111
0 912.92004 1303.8397 4287591033
9.1669722 912.92004 1303.8397 4287725439
-43.403671 919.14648 1303.8574 4284438106
-41.119267 919.14648 1303.8574 4285289823
-38.834862 920.01965 1304.5938 4284896855
2.2844036 920.01965 1304.5938 4287196518
4.5688071 920.01965 1304.5938 4287327586
6.8532109 920.01965 1304.5938 4287327586
9.1376143 920.01965 1304.5938 4287000418
-43.229359 925.80273 1302.9298 4288123051
-40.954128 925.80273 1302.9298 4287859100
-38.678898 925.80273 1302.9298 4287859100
2.2752295 925.80273 1302.9298 4286405730
4.5504589 925.80273 1302.9298 4286799973
9.1009178 925.80273 1302.9298 4286603616
-43.229359 927.54224 1304.3965 4286477447
2.2752295 927.54224 1304.3965 4286405215
4.5504589 927.54224 1304.3965 4286996836
6.8256879 927.54224 1304.3965 4286996836
9.1009178 927.54224 1304.3965 4286669922
-46.491745 932.83643 1303.6283 4285951599
-43.089909 931.96954 1302.8973 4286280564
-40.822018 931.96954 1302.8973 4285821040
-37.798164 931.6806 1302.6537 4287201922
-34.018349 931.10266 1302.1664 4288977304
-29.482569 931.10266 1302.1664 4290885844
-24.946789 931.10266 1302.1664 4290029502
2.26789 931.96954 1302.8973 4286471517
4.53578 932.83643 1303.6283 4285882205
-46.341286 938.10822 1302.8412 4284767837
-42.950459 938.10822 1302.8412 4285227612
-40.689907 938.10822 1302.8412 4285292112
-37.299084 938.10822 1302.8412 4285423185
2.2605505 938.10822 1302.8412 4286538073
-46.341286 939.83643 1304.2983 4284899174
-42.950459 939.83643 1304.2983 4284964193
-40.689907 939.83643 1304.2983 4285291613
-37.299084 939.83643 1304.2983 4285226074
2.2605505 939.83643 1304.2983 4286538073
4.521101 939.83643 1304.2983 4286603093
-46.153214 947.24817 1304.0076 4283129967
-42.776146 947.24817 1304.0076 4282734705
-40.524769 947.24817 1304.0076 4280503885
-36.772476 946.10077 1303.04 4285165952
2.2513762 946.38757 1303.282 4286406744
4.5027523 946.38757 1303.282 4286472788
-44.880733 952.461 1303.1709 4289963706
2.2440367 952.461 1303.1709 4286275164
4.4880733 952.461 1303.1709 4286210134
-47.124771 954.17657 1304.6174 4290424998
2.2440367 954.17657 1304.6174 4286143828
4.4880733 954.17657 1304.6174 4286209371
-53.636696 959.7998 1302.8186 4290885049
-49.166973 959.7998 1302.8186 4290885564
-46.93211 959.7998 1302.8186 4290753979
-44.697247 959.7998 1302.8186 4290754492
2.2348623 959.7998 1302.8186 4286538073
4.4697247 959.7998 1302.8186 4286407014
13.409174 959.7998 1302.8186 4286209621
15.644036 959.7998 1302.8186 4286472537
-52.519264 961.50836 1304.2592 4291082944
-49.166973 961.50836 1304.2592 4291148991
-46.93211 961.50836 1304.2592 4290951355
-44.697247 961.50836 1304.2592 4290820541
2.2348623 961.50836 1304.2592 4286472537
6.704587 961.50836 1304.2592 4286144610
11.174312 961.50836 1304.2592 4286143578
13.409174 961.50836 1304.2592 4286209621
15.644036 961.50836 1304.2592 4286209621
-33.412846 966.66229 1303.3727 4290492603
-31.185322 966.66229 1303.3727 4290622908
-28.957798 966.66229 1303.3727 4290688701
-25.616514 966.66229 1303.3727 4290622393
-22.275229 966.66229 1303.3727 4290227898
-20.047707 966.66229 1303.3727 4290096312
-16.706421 967.51379 1304.0906 4290951624
-13.365138 967.51379 1304.0906 4292136931
-11.137614 967.51379 1304.0906 4290821327
-7.7963305 967.51379 1304.0906 4287332757
-4.4550457 967.51379 1304.0906 4285487447
-2.2275229 967.51379 1304.0906 4285882205
0 967.51379 1304.0906 4286078042
-54.616512 754.47314 1306.2765 4285094238
12.412844 756.37109 1307.8767 4293583343
-56.845871 763.42023 1305.9723 4282922577
-56.845871 765.30975 1307.5654 4283973717
-54.172478 771.77887 1306.4799 4283121993
-58.877064 778.21985 1305.3706 4285163634
-56.423855 778.21985 1305.3706 4285097841
-52.744034 778.21985 1305.3706 4284770159
-58.877064 780.09534 1306.952 4285622642
-56.423855 780.09534 1306.952 4286477695
-52.744034 780.09534 1306.952 4285558396
9.8128443 780.09534 1306.952 4293057510
-51.324772 787.43555 1306.6008 4285558127
-48.880733 787.43555 1306.6008 4286936446
4.8880734 787.43555 1306.6008 4292663522
7.3321099 788.36975 1307.3887 4292860647
9.7761469 788.36975 1307.3887 4292728296
12.220183 788.36975 1307.3887 4293057260
-51.132111 794.74066 1306.2202 4288114547
-48.697247 794.74066 1306.2202 4288836476
13.391743 794.74066 1306.2202 4292794857
-51.132111 796.60217 1307.7898 4288114284
-48.697247 796.60217 1307.7898 4289233022
7.3045874 796.60217 1307.7898 4292926183
9.7394495 796.60217 1307.7898 4292465893
12.174312 796.60217 1307.7898 4292597480
-49.688992 803.46051 1305.7245 4289627509
-60.596329 805.3136 1307.2869 4287452006
-58.172478 805.3136 1307.2869 4287191637
-55.748623 805.3136 1307.2869 4288968048
-53.324772 805.3136 1307.2869 4288839790
-55.537613 811.61151 1306.057 4288446579
-53.122936 811.61151 1306.057 4288183141
-61.340366 819.7204 1306.354 4287653983
4.8110094 820.63989 1307.1294 4292859625
7.2165136 820.63989 1307.1294 4293057004
9.6220188 820.63989 1307.1294 4292991206
12.829358 820.33344 1306.871 4292991464
-59.908257 826.87122 1305.8433 4287458655
2.3963304 826.87122 1305.8433 4293057772
14.377981 825.9552 1305.0709 4292794089
4.774312 835.81201 1306.8418 4292860136
7.161468 835.81201 1306.8418 4293254894
9.548624 835.81201 1306.8418 4292926442
-57.115597 841.47369 1306.3834 4287916128
4.7596331 841.47369 1306.3834 4292794341
11.899082 841.47369 1306.3834 4293056745
-57.115597 843.29309 1307.9175 4287057489
11.899082 843.29309 1307.9175 4293056999
14.278899 843.29309 1307.9175 4292860134
16.658716 843.29309 1307.9175 4293057512
-55.710091 847.61316 1305.0199 4287190370
-52.154129 847.61316 1305.0199 4287781751
-49.783485 847.61316 1305.0199 4289097610
-47.412846 847.61316 1305.0199 4288835956
2.3706422 847.61316 1305.0199 4292663525
4.7412844 847.61316 1305.0199 4292794854
7.1119266 847.61316 1305.0199 4292794854
10.667891 847.61316 1305.0199 4293057769
-54.524769 849.42554 1306.5481 4287322726
-52.154129 849.42554 1306.5481 4287848300
-49.783485 849.42554 1306.5481 4288703353
-47.412846 849.42554 1306.5481 4288966002
2.3706422 849.42554 1306.5481 4292860136
4.7412844 849.42554 1306.5481 4292663786
7.1119266 849.42554 1306.5481 4292597993
10.667891 849.42554 1306.5481 4292729833
14.223853 849.42554 1306.5481 4292400098
-49.590824 857.33521 1306.6772 4286340708
-47.229359 856.43256 1305.916 4287848553
-43.687157 855.52991 1305.1549 4289225584
2.3614678 856.43256 1305.916 4292728808
4.7229357 857.33521 1306.6772 4292597734
10.626606 857.33521 1306.6772 4293058533
14.168807 855.52991 1305.1549 4292729579
-47.045872 863.40454 1305.2545 4286998633
-16.466055 863.40454 1305.2545 4291203493
4.704587 863.40454 1305.2545 4292334051
-47.045872 865.20288 1306.7708 4287592556
4.704587 865.20288 1306.7708 4292202976
7.056881 865.20288 1306.7708 4292794856
10.585321 865.20288 1306.7708 4292664292
14.113762 865.20288 1306.7708 4292664038
-46.862385 871.23706 1305.3186 4287591013
4.6862388 871.23706 1305.3186 4292136408
7.0293579 871.23706 1305.3186 4292662753
10.544037 871.23706 1305.3186 4292662500
11.715596 873.02844 1306.829 4292794854
14.058716 873.02844 1306.829 4292664040
-49.051376 878.54431 1306.2477 4286473070
-46.715595 878.54431 1306.2477 4286408295
4.6715598 878.54431 1306.2477 4292663007
7.0073395 878.54431 1306.2477 4292728800
9.3431196 878.54431 1306.2477 4292597732
-56.058716 880.33002 1307.7534 4284893257
-51.387157 880.33002 1307.7534 4285683555
-49.051376 880.33002 1307.7534 4286341484
2.3357799 880.33002 1307.7534 4292531939
4.6715598 880.33002 1307.7534 4292466655
7.0073395 880.33002 1307.7534 4292598497
-52.348625 886.29688 1306.2443 4288380545
-46.532108 886.29688 1306.2443 4288711062
-44.205505 886.29688 1306.2443 4287527044
-41.878899 886.29688 1306.2443 4288447110
2.3266056 886.29688 1306.2443 4292860388
6.9798164 886.29688 1306.2443 4292728798
-52.348625 888.07556 1307.744 4287593347
-48.858715 888.07556 1307.744 4287592571
-46.532108 888.07556 1307.744 4287330176
2.3266056 888.07556 1307.744 4292663523
6.9798164 888.07556 1307.744 4292728798
-55.618347 894.89319 1306.9524 4284434512
-50.983486 894.89319 1306.9524 4285026126
-37.078899 894.00739 1306.2054 4288778140
1.1587156 894.89319 1306.9524 4292463314
4.6348624 894.89319 1306.9524 4292463314
6.9522934 894.89319 1306.9524 4292529107
10.42844 895.77905 1307.6993 4292265169
13.904587 895.77905 1307.6993 4291936719
-53.132111 899.43909 1305.5532 4284633404
-49.666969 899.43909 1305.5532 4285225293
-46.201836 899.43909 1305.5532 4285554258
-2.3100917 899.43909 1305.5532 4290487713
0 899.43909 1305.5532 4290355875
6.9302754 899.43909 1305.5532 4290750883
10.395412 899.43909 1305.5532 4290355889
13.860551 899.43909 1305.5532 4290290348
16.170643 899.43909 1305.5532 4290356141
-57.752293 901.2052 1307.0424 4286079344
-53.132111 901.2052 1307.0424 4286675312
-50.822018 901.2052 1307.0424 4286544507
0 901.2052 1307.0424 4286670956
4.6201835 901.2052 1307.0424 4286736229
6.9302754 901.2052 1307.0424 4286867815
10.395412 901.2052 1307.0424 4286866548
13.860551 901.2052 1307.0424 4286931309
16.170643 901.2052 1307.0424 4287194481
18.480734 901.2052 1307.0424 4287063663
-55.222019 908.83569 1306.936 4286147673
-52.921101 907.07666 1305.4529 4287532677
-49.469727 907.95618 1306.1945 4288319130
-46.018349 907.07666 1305.4529 4287858317
-6.9027524 907.07666 1305.4529 4287719782
-4.6018348 907.07666 1305.4529 4287393641
-2.3009174 907.07666 1305.4529 4287459434
0 908.83569 1306.936 4286735977
4.6018348 907.95618 1306.1945 4286934375
6.9027524 907.95618 1306.1945 4287000168
10.354129 907.95618 1306.1945 4286803561
13.805505 907.95618 1306.1945 4287000429
-45.834862 914.67212 1305.317 4288318073
-43.543118 914.67212 1305.317 4290292119
2.291743 914.67212 1305.317 4289237396
6.8752294 914.67212 1305.317 4288908179
9.1669722 914.67212 1305.317 4288646543
-45.834862 916.42419 1306.7943 4283451205
2.291743 916.42419 1306.7943 4288184706
4.5834861 916.42419 1306.7943 4288053122
6.8752294 916.42419 1306.7943 4288447624
10.312843 916.42419 1306.7943 4288316805
-43.403671 921.76611 1306.0664 4286084740
2.2844036 921.76611 1306.0664 4286538073
4.5688071 921.76611 1306.0664 4286668889
6.8532109 922.63934 1306.8027 4286668638
11.422018 922.63934 1306.8027 4286603869
13.706422 923.51257 1307.5389 4286538854
-45.504585 929.28162 1305.8632 4285951603
4.5504589 929.28162 1305.8632 4286341219
6.8256879 929.28162 1305.8632 4286275426
9.1009178 929.28162 1305.8632 4286408281
6.8256879 931.02106 1307.3298 4285421654
10.238532 931.02106 1307.3298 4285751637
13.651376 931.02106 1307.3298 4286471774
15.926605 931.02106 1307.3298 4286405980
-46.491745 934.57031 1305.0902 4285754473
-40.822018 934.57031 1305.0902 4286083934
2.26789 934.57031 1305.0902 4286472023
4.53578 934.57031 1305.0902 4286340958
-49.893578 936.30408 1306.5521 4283452752
4.53578 936.30408 1306.5521 4286603095
6.8036699 936.30408 1306.5521 4286603095
-46.341286 941.56458 1305.7556 4285096552
-42.950459 941.56458 1305.7556 4285951344
-40.689907 941.56458 1305.7556 4286017133
-37.299084 941.56458 1305.7556 4286807421
-51.992661 943.29285 1307.2128 4284373852
-49.732109 943.29285 1307.2128 4283717221
-46.341286 943.29285 1307.2128 4284243818
-42.950459 943.29285 1307.2128 4284967538
-40.689907 943.29285 1307.2128 4285033585
6.7816515 943.29285 1307.2128 4286538323
-49.530273 950.69055 1306.9102 4289109151
-47.2789 949.82996 1306.1846 4288189086
4.5027523 948.96936 1305.4589 4286210386
6.7541285 950.69055 1306.9102 4286012756
-51.612843 955.89215 1306.064 4290160558
-49.368809 955.89215 1306.064 4290292912
-47.124771 955.89215 1306.064 4290687670
4.4880733 955.89215 1306.064 4286405728
7.8541284 955.89215 1306.064 4286340185
11.220183 955.89215 1306.064 4286340435
13.46422 955.89215 1306.064 4286340435
16.830275 955.89215 1306.064 4286274904
-51.612843 957.60773 1307.5105 4290885049
7.8541284 957.60773 1307.5105 4286340957
11.220183 957.60773 1307.5105 4286340437
-52.519264 963.21692 1305.6998 4291082174
-49.166973 964.07123 1306.4202 4290886077
-46.93211 964.07123 1306.4202 4290885820
-43.95229 964.35596 1306.6603 4290689466
-40.227524 964.92554 1307.1404 4290755005
-37.992661 964.92554 1307.1404 4290821055
-35.757797 964.92554 1307.1404 4290887361
2.2348623 964.07123 1306.4202 4285880660
4.4697247 964.07123 1306.4202 4286143829
6.704587 964.07123 1306.4202 4286341208
11.174312 963.21692 1305.6998 4286208858
13.409174 964.07123 1306.4202 4286208855
16.38899 964.35596 1306.6602 4286208856
20.113762 964.92554 1307.1404 4286077531
-57.099083 758.26904 1309.4771 4283184717
14.895412 758.26904 1309.4771 4293714930
-59.097248 773.66138 1308.0671 4283912551
-58.877064 781.97083 1308.5333 4284569691
-56.423855 781.97083 1308.5333 4284964193
-53.970642 781.97083 1308.5333 4284703083
7.359633 781.97083 1308.5333 4293057510
9.8128443 781.97083 1308.5333 4293122790
12.266055 781.97083 1308.5333 4293254633
-61.330276 783.84631 1310.1147 4283714132
-58.877064 783.84631 1310.1147 4284109901
-56.423855 783.84631 1310.1147 4284175694
-53.970642 783.84631 1310.1147 4284505440
7.359633 783.84631 1310.1147 4292926692
9.8128443 783.84631 1310.1147 4293057510
12.266055 783.84631 1310.1147 4293123304
-56.212845 790.23828 1308.9641 4287065208
-53.768806 790.23828 1308.9641 4286737262
7.3321099 790.23828 1308.9641 4293124076
9.7761469 790.23828 1308.9641 4292925677
13.442202 790.23828 1308.9641 4292991979
-56.212845 792.10675 1310.5396 4287981435
