# .PCD v0.7 - Point Cloud Data file format
VERSION 0.7
FIELDS x y z rgb
SIZE 4 4 4 4
TYPE F F F U
COUNT 1 1 1 1
WIDTH 1170
HEIGHT 1
VIEWPOINT 0 0 0 1 0 0 0
POINTS 1170
DATA ascii
57.902752 816.51862 820.99133 4294965247
-5.1688075 819.99274 819.99646 4288887117
55.995415 819.99274 819.99646 4294833147
58.579815 821.30994 821.10718 4294966015
-5.1577983 823.39941 820.25293 4288559685
53.297249 822.74225 819.69885 4294833406
56.735779 823.39941 820.25293 4294966015
58.455048 824.05664 820.80701 4294965759
-5.1412845 827.51111 819.79565 4289019466
53.126606 827.51111 819.79565 4294899453
55.788071 826.44104 820.85547 4294899454
58.455048 825.37103 821.91528 4294834430
-5.1412845 828.82129 820.90027 4288823107
52.157799 830.24512 819.48486 4294570491
55.638531 829.5332 820.19257 4294767869
-5.1302752 832.20618 821.13843 4288889669
53.012844 831.55249 820.58728 4294899455
55.862995 831.98828 820.95477 4294833406
58.14312 832.20618 821.13843 4294899710
-5.1137614 836.29047 820.65808 4289285459
52.274006 835.42169 819.9256 4294635770
54.546787 835.63892 820.1087 4294569978
59.660549 834.9873 819.55933 4294965759
-3.972477 838.10199 820.44147 4289484369
51.877983 838.35614 819.78381 4294504699
55.399082 837.59363 821.75684 4294372858
57.955963 837.59363 821.75684 4294767354
-4.246789 841.36414 820.35791 4289485408
52.557796 842.42151 819.28735 4294767613
54.429359 840.3067 821.42847 4294372857
-4.2385321 844.36572 820.9267 4289024339
55.100918 843.71765 820.38025 4294372857
57.644035 845.01379 821.47314 4294307064
-3.3834863 847.06476 820.58643 4289216329
54.981651 846.41809 820.04114 4294438650
58.365135 847.71143 821.13171 4294109687
-4.2155962 851.10272 820.06714 4288758600
55.64587 851.10272 820.06714 4294372596
58.175232 851.10272 820.06714 4294174715
-6.7449541 852.39185 821.15405 4288101185
-4.2064219 853.78772 819.71484 4288691005
55.524769 853.78772 819.71484 4293912045
57.332111 852.39185 821.15405 4293845746
-6.7302752 855.71729 821.34186 4288170064
-4.4868503 855.50287 821.16113 4288563018
57.20734 855.71729 821.34186 4293714158
-3.9131498 859.30048 820.43915 4289489015
55.343121 859.08679 820.25891 4293582314
57.020184 859.72791 820.79944 4293647853
-4.1926603 861.01001 821.88049 4285936960
-1.6733944 861.11523 819.35315 4289684858
50.201836 861.11523 819.35315 4293713898
52.711922 861.75488 819.89252 4293450727
56.058716 863.03424 820.97131 4293713899
-3.3357799 865.74664 819.33411 4286923561
-1.66789 865.74664 819.33411 4292515966
49.202751 865.74664 819.33411 4293648104
52.538532 865.74664 819.33411 4293648103
-1.66789 867.02173 820.4093 4289491301
49.926605 869.6731 820.02869 4293780203
52.480732 868.34741 820.21899 4293845483
55.844032 868.00336 820.58289 4293912046
58.376148 868.29688 821.4845 4290821053
60.044037 868.29688 821.4845 4289572273
52.307343 872.31879 819.64343 4287927720
55.628441 872.31879 819.64343 4282464860
59.013763 871.63208 820.3725 4278714663
-3.321101 874.85779 821.7843 4287655489
53.137615 873.58832 820.71387 4278848106
55.628441 873.58832 820.71387 4278190121
58.119267 873.58832 820.71387 4278190085
-4.4134555 877.75299 820.30133 4288837954
52.961468 877.54211 820.12354 4278453020
55.444038 877.54211 820.12354 4278848032
58.754128 877.54211 820.12354 4278912270
61.236698 876.90948 819.59009 4278782217
-7.4477062 879.44006 821.72388 4287652144
-4.133945 880.12109 820.99011 4288905295
-1.6513761 879.53967 819.19177 4282064128
49.541283 879.53967 819.19177 4278190080
51.782261 879.92731 820.39062 4279502350
55.444038 879.44006 821.72388 4279832604
58.754128 879.44006 821.72388 4281142551
-3.3027523 882.0647 821.3208 4288184386
-1.6477064 884.05396 820.38202 4287789886
0.82385319 884.05396 820.38202 4288447827
47.783485 883.42407 819.85095 4287261058
49.431194 883.42407 819.85095 4284041507
51.7052 882.93774 821.18488 4278190091
55.321102 882.0647 821.3208 4281341974
57.798164 882.0647 821.3208 4288246083
-1.6477064 885.94342 821.97522 4287593282
0.82110089 887.97406 819.76331 4287988551
49.266056 887.97406 819.76331 4293122497
51.902752 885.94342 821.97522 4278780928
54.374313 885.94342 821.97522 4278190080
0.82110089 889.22955 820.8219 4287528005
4.0963306 890.58051 819.34497 4290549590
50.032112 889.90503 820.08344 4289964210
52.550457 889.22955 820.8219 4286401853
55.013763 889.8573 821.3512 4287721588
58.298164 889.8573 821.3512 4289965250
0.81926608 891.83319 820.40125 4287328586
50.794495 891.83319 820.40125 4291345098
52.433029 892.45953 820.92932 4291014848
54.617737 892.66827 821.10529 4291870924
0.81743121 895.05615 820.50256 4287917418
50.680733 894.43121 819.97571 4293646570
53.950459 895.68109 821.02954 4293449956
0.81467891 898.94055 819.85376 4284754241
52.13945 898.94055 819.85376 4293582060
-1.6293578 901.43182 821.95435 4290290602
0.54189605 901.93732 819.76465 4287193971
4.0642204 901.52307 819.41528 4284160779
52.92477 901.14252 821.0564 4292006113
0 905.34009 820.01758 4291279555
50.28257 905.34009 820.01758 4291017412
52.834862 904.00879 821.51111 4287336336
0 906.58014 821.06311 4285492083
51.904587 906.58014 821.06311 4278190111
1.0776758 910.63263 820.55597 4283904033
3.7718656 910.63263 820.55597 4284893998
45.262386 909.80872 819.86133 4280485919
50.111927 909.80872 819.86133 4278190080
51.728439 910.42664 820.38232 4279042048
0.80825686 912.2804 821.94543 4285347359
41.933945 912.36749 819.40271 4278190080
43.546787 912.36749 819.40271 4278190080
45.966057 912.36749 819.40271 4282259754
49.460552 912.7785 819.74927 4280489495
52.477066 913.55695 821.71375 4281338895
4.0229359 916.76599 820.49536 4282784006
49.884403 916.76599 820.49536 4283908436
4.0137615 919.92291 820.54126 4288975267
6.4220185 919.3092 820.02374 4287975249
44.954128 918.6955 819.50623 4293975295
46.559631 918.6955 819.50623 4294435839
48.967888 919.3092 820.02374 4285623186
4.0137615 921.15033 821.57617 4291609049
7.211009 922.13196 820.44183 4293248986
46.400002 923.11365 819.3075 4278190080
48.799999 923.11365 819.3075 4278190080
7.1954126 925.27429 820.47522 4286079849
9.5779819 926.86334 819.85303 4286190097
51.200001 925.56006 821.37024 4294305002
7.183486 928.69397 821.39648 4286610048
9.5559635 929.38422 819.36243 4290224818
50.965137 929.38422 819.36243 4293581797
52.678898 929.3042 821.91101 4293253345
7.1669722 931.21063 820.90247 4282274417
52.557796 931.81946 821.41577 4293188067
54.150459 931.81946 821.41577 4293253349
4.7669725 935.54382 821.94006 4286944951
7.4152904 933.92413 820.5744 4280763005
10.316514 934.36768 819.64038 4281343579
47.559631 935.62109 819.38916 4293056738
49.937614 935.62109 819.38916 4293056225
52.436699 934.9364 821.42792 4293253347
54.555347 935.13885 821.59863 4293319139
61.176147 935.54382 821.94006 4293319138
6.8697248 937.23706 820.75165 4287469749
49.937614 937.43909 820.922 4293121763
4.7449541 941.74988 821.94067 4284240163
7.1174312 940.54071 820.92114 4286280827
10.280734 939.33148 819.90161 4285420900
49.031193 941.14526 821.43091 4292990946
7.0926609 944.27356 820.14459 4286412640
10.244954 943.67108 819.6366 4285684824
4.7284403 946.08105 821.66858 4287923765
7.3431191 946.53046 820.30341 4286741330
10.48318 946.55487 819.4519 4284368421
47.174313 946.15411 819.11401 4293121759
48.86055 946.08105 821.66858 4293055964
4.7174311 948.55841 821.14136 4285155854
7.0596333 949.83081 819.59814 4283710234
10.981651 949.83081 819.59814 4279960320
4.176147 952.67523 820.25244 4286472028
6.7822633 952.69855 819.40015 4283448122
10.955963 952.29974 819.06384 4281336841
50.201836 952.22949 821.62073 4292989405
51.770641 952.22949 821.62073 4293055199
4.6844039 955.95685 819.53137 4286344051
7.0266056 955.95685 819.53137 4286476682
50.084404 954.69287 821.08167 4292989659
52.43211 954.69287 821.08167 4293187039
4.6844039 957.7475 821.04114 4278517760
6.7602448 958.36591 820.69061 4278190084
10.904587 959.60272 819.98938 4278190080
13.241284 959.60272 819.98938 4278190080
31.155964 959.60272 819.98938 4286870397
35.050461 959.60272 819.98938 4293648103
45.955048 959.60272 819.98938 4292924381
49.408558 958.36591 820.69061 4292792537
51.966969 958.7854 820.17218 4293581796
55.301834 959.60272 819.98938 4293055197
58.485321 958.97351 820.76691 4292923868
60.754128 959.60272 819.98938 4293055201
7.0100918 961.38916 821.49561 4292924908
10.377982 961.60919 820.80908 4290822607
13.241284 961.3891 821.49561 4290360784
16.337614 962.01691 820.71692 4282207841
19.449541 962.01691 820.71692 4282274943
22.292967 962.02765 820.29004 4286409080
25.673393 962.01697 820.71692 4289241022
28.819267 961.3891 821.49561 4286676401
32.194492 961.19061 821.32831 4290026658
35.050461 961.38916 821.49561 4293188838
38.166054 961.3891 821.49561 4293319136
40.988987 961.60919 820.80908 4293187551
43.064831 962.00616 821.14386 4293122017
45.695415 961.19061 821.32831 4292989919
48.291744 960.79364 820.99353 4292923866
52.186241 960.79364 820.99353 4293120735
54.522934 960.79364 820.99353 4292988894
59.196331 960.79364 820.99353 4293121248
61.533028 960.79364 820.99353 4293121248
9.3247709 963.23737 820.43799 4293517550
23.311926 963.23737 820.43799 4287008627
54.220184 751.06018 822.0437 4294966783
57.834862 751.06018 822.0437 4294966783
-14.414679 756.07733 822.34998 4281998628
56.366974 790.11072 822.26953 4294899199
-14.018349 797.79462 822.20813 4287192655
-14.018349 799.80408 823.90247 4285019181
-16.594496 802.65186 822.37952 4285542662
-12.227523 803.31958 822.9425 4288701286
-10.480734 802.65186 822.37952 4287005075
-13.073395 806.76904 823.23499 4287188546
-10.458715 806.10272 822.67316 4288243563
-15.688073 808.10168 824.35864 4287255368
-13.073395 808.10168 824.35864 4287384642
-12.163302 812.92383 824.50049 4287840577
-10.425688 811.5954 823.38037 4288037954
-8.6880732 810.26697 822.26025 4287974466
-8.6605501 815.08069 822.39502 4288102982
-12.990826 817.72913 824.62805 4286917161
-10.39266 817.06702 824.06982 4287377212
-8.0782881 817.32471 823.41504 4288231495
58.766972 817.84003 822.10547 4294767100
-7.7779818 819.82214 823.77679 4287837757
-6.8917432 823.28577 822.77307 4288164670
-6.8770642 827.34265 823.5777 4288033849
-6.8550458 832.09674 823.66211 4288034873
-10.26055 836.78198 824.99658 4288178492
-7.4103971 836.34619 824.62915 4288766035
56.433029 834.16724 822.79187 4294965247
58.998165 834.16724 822.79187 4294965757
56.251377 838.89679 822.85571 4294372857
57.955963 838.89679 822.85571 4294438650
-10.227523 840.19995 823.95447 4287785029
-7.3816514 841.10248 823.84344 4288569428
-5.1027522 841.60706 822.5249 4288765021
57.831192 841.60706 822.5249 4294109940
-7.6293578 846.95801 823.11249 4288173892
-5.0862384 846.30994 822.56604 4288236619
-13.533945 851.59149 824.40332 4288309601
-10.99633 851.59149 824.40332 4287780687
-7.612844 849.65143 822.76746 4287909709
59.21101 850.94482 823.85803 4294240759
-8.4311924 854.32556 822.78455 4287906886
59.018349 854.97015 823.328 4294174197
-7.5807338 856.953 823.69183 4288830059
59.018349 856.25928 824.41492 4294239990
-6.7302752 858.93311 824.05334 4288903818
58.889908 858.93311 824.05334 4294108404
58.697247 862.29211 822.96155 4294174449
58.568806 864.95325 822.58923 4293779955
-3.3357799 870.84705 823.63477 4285478696
-1.66789 870.84705 823.63477 4282386176
-8.3211012 874.76233 824.31982 4285286941
-6.6422019 876.12732 822.85474 4286665264
-7.4477062 880.70538 822.79077 4287917109
-4.9651375 881.33801 823.32422 4287261733
59.58165 881.33801 823.32422 4292002233
-6.6201835 883.23596 824.92444 4286669348
-3.8568809 883.71759 823.58661 4287263543
52.844036 883.32715 822.38538 4278190080
55.596333 883.74799 822.74023 4282060544
58.348621 884.16876 823.09503 4294165678
-3.3027523 885.85217 824.51428 4288315985
-1.6477064 887.20312 823.03735 4287921227
56.022018 887.20312 823.03735 4286148171
57.669724 887.20312 823.03735 4290490766
-3.2954128 888.46283 824.09949 4287198533
-1.6477064 888.46283 824.09949 4286409274
-1.6422018 892.36823 823.46838 4282127360
58.298164 892.36823 823.46838 4293516776
-3.2770643 896.21753 824.09796 4283964702
-1.6348624 896.93091 822.08337 4283039744
53.950459 896.93091 822.08337 4293516267
55.647705 895.6347 822.29852 4293582310
58.167892 896.21753 824.0979 4293516520
60.625687 896.84387 824.6261 4293319654
-1.6348624 898.18079 823.13721 4283246120
55.58532 898.80573 823.66412 4290229955
58.037613 899.43066 824.19104 4288847016
60.48991 899.43066 824.19104 4293581024
-1.6293578 902.67749 823.00464 4291343805
55.398167 902.67749 823.00464 4282273637
-1.6293578 903.92316 824.05493 4286606446
53.647705 905.25165 822.55908 4278190117
55.398167 903.92316 824.05493 4278190080
-1.6256881 907.7373 824.65491 4282324238
0 907.82019 822.10876 4283843401
53.526604 907.82019 822.10876 4280757036
56.086239 907.11584 824.13098 4290485909
53.526604 909.06024 823.1543 4284627773
55.689297 909.88696 823.85132 4291406242
-1.6165137 914.75208 824.02942 4283771935
0.80825686 913.51624 822.98743 4286397213
55.500305 914.34015 823.68213 4278845453
58.194496 914.75208 824.02942 4280025088
0.53761464 916.4776 822.86835 4285876273
52.686237 916.4776 822.86835 4278190080
54.836697 917.29962 823.5614 4283770149
52.029968 919.43146 822.74286 4281803049
54.836697 918.53265 824.60107 4288117144
58.062386 918.53265 824.60107 4293251258
1.0715597 922.76074 823.80597 4289570236
4.0137615 922.99152 823.12854 4288847285
52.446484 922.78693 822.95605 4293778908
54.64954 922.3385 823.88593 4294240239
0.80275232 924.83264 824.68091 4281864496
4.0055046 925.80798 823.54126 4284562481
6.4000001 926.78326 822.40161 4287988099
52.799999 926.78326 822.40161 4293516004
54.400002 926.78326 822.40161 4293384165
-1.6 929.22974 824.46436 4283647524
0.53333336 928.82202 824.12061 4283380509
3.7333333 928.41425 823.77679 4282467382
55.200001 928.61816 823.94867 4293319142
59.200001 929.22974 824.46436 4293319654
0.79816514 932.96539 824.99805 4286938484
4.2568808 931.3382 823.62616 4283588469
58.266056 931.745 823.96912 4293318888
60.660549 931.745 823.96912 4293253860
3.1853211 934.25464 823.46912 4287800260
55.743118 933.03705 822.44238 4293779693
58.132111 934.25464 823.46912 4293121509
3.972477 936.75861 822.96436 4287269053
52.436699 936.75861 822.96436 4293187554
54.820183 937.36597 823.4765 4293188067
57.998165 937.36597 823.4765 4293056741
61.176147 937.36603 823.47656 4293319651
3.6990824 940.46906 823.47681 4285424458
50.730274 940.46906 823.47681 4293055965
52.949726 940.71155 823.68127 4293187038
55.48624 941.07507 823.98779 4293252320
57.600002 941.27704 824.15814 4292924639
61.034863 941.07501 823.98779 4293253858
4.7449541 942.95905 822.96021 4287267409
49.031193 942.95905 822.96021 4293121759
3.1633027 945.37744 824.99939 4284037632
52.194496 945.37744 824.99939 4292989659
1.5724771 950.96277 823.16858 4288444269
3.1449542 949.76062 822.15491 4284034852
50.436699 948.49097 823.70056 4292989405
52.980427 949.7381 823.008 4292857820
55.647705 949.71661 823.86188 4292726234
59.105507 949.69598 824.71655 4293056224
3.1376147 953.42889 822.63196 4286804602
55.036697 952.16492 824.18225 4293055199
3.1376147 954.62823 823.64319 4278190080
3.6483181 958.30225 823.25293 4287661451
49.966972 959.53815 822.55103 4292989659
56.212845 959.53815 822.55103 4292725720
4.6844039 961.32874 824.06079 4294109166
6.2458715 961.92566 824.56409 4293714680
14.053211 961.92566 824.56409 4294967295
16.395412 961.92566 824.56409 4294967295
20.299082 961.92566 824.56409 4294967295
23.422018 961.92566 824.56409 4291152069
25.764221 961.92566 824.56409 4280316609
28.887157 961.92566 824.56409 4289300384
31.749847 961.52765 824.22852 4289103486
35.133026 961.92566 824.56409 4293122792
37.475231 961.92566 824.56409 4293516515
39.817429 961.92566 824.56409 4293318625
46.323547 961.52765 824.22852 4293055455
48.925995 961.12982 823.89307 4292989661
52.309174 960.73187 823.5575 4292923870
54.651375 960.73187 823.5575 4292858591
7.788991 963.17554 823.00183 4294964991
9.8660555 963.57251 823.33661 4294966527
12.462385 963.17554 823.00183 4294967295
18.693579 963.17554 823.00183 4294967295
21.809174 963.17554 823.00183 4294967295
42.839447 963.17554 823.00183 4293318629
56.543118 789.26263 825.47852 4294767613
-16.64679 802.4834 826.16156 4286464560
-14.018349 801.81354 825.5968 4284883513
-17.522936 804.49286 827.85596 4287518540
-15.721101 807.99359 826.88354 4286792766
-13.073395 809.43433 825.4823 4287840311
-16.269114 811.65533 827.35504 4286135599
-13.944954 810.76697 826.60596 4287511613
-16.507339 815.58069 826.74072 4286398246
-13.03211 814.25226 825.62061 4287310637
-19.113762 816.90906 827.86072 4286993461
-16.507339 816.90906 827.86072 4286727211
-19.053211 821.70178 827.97778 4286598190
-16.455046 821.70178 827.97778 4286728490
-12.990826 820.3775 826.86115 4286722602
-10.39266 819.71545 826.30292 4287049268
-8.6422014 821.80426 825.448 4287312185
-12.963303 824.44708 827.67639 4286727447
-10.370643 823.78638 827.11932 4287180848
-8.6422014 823.12567 826.56226 4287575093
-12.060551 827.89594 826.66028 4287187760
-10.337615 827.89594 826.66028 4287711288
-8.6146793 826.57874 825.54968 4287510583
-12.922018 829.21313 827.77087 4287057457
-10.315597 830.6286 826.34839 4287319351
-8.5963306 829.97144 825.79425 4286988847
-12.034863 831.94299 827.45667 4287650612
-10.315597 831.94299 827.45667 4287914563
-13.710092 836.68237 827.52856 4285873152
-11.99633 835.37219 826.42395 4287716405
-8.5688076 834.06201 825.31921 4287914563
-11.400612 838.961 826.8338 4287979054
-8.5504589 839.39679 827.20129 4288508236
-11.079817 842.80634 826.1521 4288243777
-8.5229359 842.80634 826.1521 4287981642
-13.636697 844.1095 827.25085 4287389252
-11.079817 844.1095 827.25085 4288375115
-13.60734 846.80853 826.91064 4288245856
-11.055964 846.80853 826.91064 4287717974
-13.563303 851.49457 826.93762 4287319642
-10.714374 853.31592 825.85724 4286525756
60.902752 854.17816 826.58435 4294174960
-10.117432 857.54846 825.50195 4286000172
-8.4311924 857.54846 825.50195 4290145131
-10.117432 858.83759 826.58887 4286196783
-7.5807338 859.5285 825.8634 4290017141
-5.0477066 860.21942 825.13794 4284429099
-13.34312 875.94757 827.9353 4285614638
-11.675229 874.67242 826.86023 4285945136
-10.81743 877.30688 826.46545 4286469423
-9.9633026 879.93579 826.06592 4286537778
-7.7492356 880.35895 826.42267 4286736173
-4.9651375 884.50122 825.99133 4288641354
-6.6201835 885.76654 827.05823 4287063590
-4.9541283 887.11462 825.57886 4288511036
-3.8483181 890.11475 826.36444 4282718220
61.100918 889.63965 827.70789 4291739854
-4.9266057 896.13464 826.64417 4287591549
60.761467 894.25146 825.05627 4293318372
-3.2770643 898.7229 826.21039 4290224811
62.264221 898.7229 826.21039 4293385188
-3.2770643 900.60187 827.79468 4287724670
58.037613 901.30554 825.77197 4283782496
61.081348 901.07098 826.44611 4293253605
-13.89633 903.1803 827.35266 4282916883
-3.2697248 903.1803 827.35266 4285421654
-1.6293578 905.16882 825.10522 4283974208
57.941284 904.17456 826.22894 4290092689
60.48991 903.1803 827.35266 4294040029
-3.2587156 907.66016 827.20593 4282915106
-1.6256881 908.98016 825.70288 4284362552
58.590824 907.69733 825.9292 4294370539
60.218349 907.69733 825.9292 4292133577
-1.6220183 911.54034 825.24548 4284625960
56.770641 911.54034 825.24548 4280225593
58.392662 911.54034 825.24548 4279370314
60.014679 911.54034 825.24548 4278190123
-3.2440367 913.40039 826.81378 4285353795
60.825687 912.7804 826.29102 4280026368
-1.6165137 916.60583 825.59247 4288844686
1.0776758 916.81183 825.76611 4290818484
56.57798 916.60583 825.59247 4289496468
59.272171 916.3999 825.41876 4292459439
61.427525 915.98792 825.07141 4292068807
-3.2330275 918.45959 827.15552 4285031003
-1.6165137 918.45959 827.15552 4289702306
0 919.76569 825.64075 4290624203
56.449543 919.76569 825.64075 4293780457
58.868805 919.76569 825.64075 4293714148
-3.225688 922.23175 827.72009 4283643678
-1.612844 922.23175 827.72009 4283183127
56.321102 922.91711 825.68182 4293647337
58.734859 922.91711 825.68182 4293253602
61.148624 922.91711 825.68182 4293385188
-1.6055046 926.06006 825.71582 4281406480
1.6055046 926.06006 825.71582 4280090624
56.192661 926.06006 825.71582 4293319142
58.600918 926.06006 825.71582 4293188322
61.009174 926.06006 825.71582 4293451494
-6.4220185 928.51489 827.78577 4281808695
-3.7461774 928.10577 827.44073 4281739549
57.798164 927.28748 826.75073 4293188067
61.811928 927.28748 826.75073 4293319908
-3.7333336 932.49164 827.21466 4285423708
-1.6 931.67621 826.5271 4287066992
0.80000001 930.45294 825.49573 4287001685
-1.5963303 935.40619 827.05615 4284238898
0.5321101 934.59259 826.37012 4286279525
0.79633027 937.29865 826.03571 4283844655
3.1853211 936.68982 825.52234 4285292403
-1.5926605 939.12506 827.57568 4286274855
0.7944954 940.40302 826.03717 4286342978
58.79266 939.18823 825.01294 4293188067
1.0568807 943.70099 826.20197 4283249170
3.1706421 942.89301 825.52063 4287463214
50.201832 943.70099 826.20197 4292792536
53.372478 943.29706 825.86133 4293054940
55.48624 943.49902 826.03162 4293054941
57.86422 943.49902 826.03162 4292858594
61.034863 943.49902 826.03162 4293122273
0.52721709 946.56641 826.87396 4284363299
49.144955 945.31702 827.56445 4293253858
56.939449 946.58661 826.01892 4292792798
58.521099 946.58661 826.01892 4293319142
60.102753 946.58661 826.01892 4293188319
1.5761468 950.90094 825.73254 4287329649
56.741283 950.90094 825.73254 4292727003
58.317432 950.90094 825.73254 4292529368
-4.7284403 953.31091 827.76465 4286143856
-1.5761468 952.10596 826.74854 4278190080
0.78623855 953.36713 825.19592 4278190080
-3.6691132 955.37079 826.88525 4286344842
-1.5724771 954.56927 826.20947 4278190131
0.78623855 954.56927 826.20947 4278779904
-3.6605504 959.02594 827.35126 4291409084
-1.5688072 958.22632 826.67706 4290291888
0.78440362 958.22632 826.67706 4292133550
3.1302752 959.47913 825.11731 4294108908
56.344955 959.47913 825.11731 4292726240
58.618347 958.96729 826.25537 4293449444
61.111927 959.45239 826.40283 4293449442
3.6519878 961.47339 826.79877 4293582564
16.433945 961.87225 827.13501 4294967295
19.56422 961.87225 827.13501 4294967295
22.694496 961.87225 827.13501 4294835709
25.824772 961.87225 827.13501 4288452095
28.955048 961.87225 827.13501 4290358648
32.08532 961.87225 827.13501 4290620578
34.433029 961.87225 827.13501 4292859103
37.563301 961.87225 827.13501 4293254112
39.911011 961.87225 827.13501 4293253604
46.171562 961.87225 827.13501 4292989410
49.562695 961.47339 826.79877 4292924379
52.43211 960.67566 826.12622 4292924123
55.562386 960.67566 826.12622 4292858333
7.0266056 963.11938 825.57056 4294569978
10.930275 963.11938 825.57056 4294967295
13.272477 963.11938 825.57056 4294967295
35.913761 963.11938 825.57056 4293385447
42.940369 963.11938 825.57056 4293187305
-19.275229 805.83246 828.98547 4288047696
-17.522936 805.83246 828.98547 4287582282
-19.275229 807.17212 830.11499 4287258938
-17.522936 807.17212 830.11499 4286990147
-16.507339 818.23749 828.98083 4286661916
-19.053211 823.68811 829.65253 4285612330
-16.743731 823.46747 829.46649 4286466604
-16.132111 826.64941 829.53339 4286400552
-13.827523 825.76849 828.79053 4286859052
-13.783486 830.53033 828.88159 4286532131
-16.367889 831.84753 829.99219 4286464290
-13.754128 833.25739 828.56494 4286334752
-16.333027 835.88617 830.78137 4286066951
-13.710092 838.64764 829.18567 4286465049
-13.387156 872.62915 829.0614 4285418792
-13.34312 878.4978 830.08557 4286472775
-11.0948 880.27563 828.96857 4285026346
-10.525382 882.87177 829.41351 4283706624
-7.7492356 882.89801 828.56366 4286403362
-9.9633026 885.01385 830.34766 4282056704
-7.472477 885.01385 830.34766 4282188288
-4.9651375 887.03186 828.12512 4284292616
-4.9541283 890.9021 828.77234 4283247921
-7.4311924 892.7959 830.36908 4288052866
-7.1400609 895.60107 830.11823 4289237649
-11.495413 899.27338 829.29065 4281666822
-4.9266057 898.64563 828.76135 4289302938
-11.495413 900.52881 830.34924 4282390811
-8.211009 900.52881 830.34924 4283709235
-4.9266057 900.52881 830.34924 4287198300
62.264221 901.85455 828.85095 4293451757
63.902752 901.85455 828.85095 4293385708
-13.89633 904.43011 828.40649 4283511076
-10.923547 903.94238 830.61133 4283114787
-7.3733945 904.35992 830.96338 4281799435
-4.3633027 904.40576 829.258 4282062609
62.124771 904.43011 828.40649 4291413975
63.759632 904.43011 828.40649 4289439929
-9.8091745 906.92987 830.51416 4283177472
-7.3568807 906.92987 830.51416 4284561958
-4.0816517 907.91785 829.38519 4283115041
-10.319266 910.98193 830.00665 4285684030
-7.6036696 910.56665 829.65656 4287130972
-4.8880734 910.15143 829.30652 4282919478
-6.5027523 913.3302 829.37067 4288646287
-4.8770642 913.3302 829.37067 4287593855
-10.566973 915.19446 830.94263 4287989118
-6.4880733 916.50049 829.42773 4288123790
-4.0550461 915.88049 828.90497 4286806905
-6.4660549 920.31335 828.71857 4286607209
-4.3107033 920.10742 828.54492 4286278757
-1.6165137 919.69543 828.19751 4289898402
-7.2669725 922.81592 829.52069 4282068017
-4.0321102 923.46478 828.75977 4281342747
-9.6770639 925.93085 830.83899 4282006074
-7.2504587 925.96179 829.55701 4280426268
-4.8275228 925.99268 828.27502 4279636233
-7.2339449 929.09772 829.58514 4285557090
-4.8165135 929.74231 828.82068 4285228638
-9.6330271 932.19714 830.8905 4283187000
-7.2247705 931.5835 830.37305 4284108613
-6.4000001 935.34576 829.62122 4283577885
-4.2666669 934.53027 828.93359 4283645994
-7.1999998 936.56903 830.65271 4284367151
-3.7247705 937.44025 828.77118 4285617452
-1.5963303 936.62659 828.08508 4284039956
-3.719878 940.32343 829.45819 4284631326
-1.5926605 940.95142 829.11566 4283906830
-3.1853211 942.77783 830.65564 4281471510
-1.5889908 944.04742 829.10999 4281537303
-3.1706421 947.74097 829.60828 4283385933
-1.5889908 945.26221 830.13428 4284436304
-3.9541283 950.21417 829.07764 4278190096
-1.5816513 949.005 828.05798 4283912277
0 949.005 828.05798 4285158224
-6.823854 955.73682 828.93799 4292394438
-4.7174311 956.97363 828.23682 4291474360
-9.4348621 959.37799 830.26404 4291209124
-7.0761471 958.77686 829.75726 4291013288
-3.6605504 961.02484 829.03668 4292790477
-1.5688074 961.22473 829.20526 4293448923
0.52293581 961.0249 829.03668 4293186782
3.9220183 961.82446 829.71094 4293846504
14.119267 961.82446 829.71094 4294967295
16.472477 961.82446 829.71094 4294967295
19.610092 961.82446 829.71094 4294967295
22.747707 961.82446 829.71094 4294967295
25.885323 961.82446 829.71094 4294967295
29.022936 961.82446 829.71094 4293190882
32.160549 961.82446 829.71094 4289374845
34.51376 961.82446 829.71094 4292463063
36.082569 961.82446 829.71094 4293515752
40.004585 961.82446 829.71094 4292793824
43.142204 961.82446 829.71094 4292990436
46.279816 961.82446 829.71094 4293121249
49.417431 961.82446 829.71094 4293122272
52.555046 961.22473 829.20532 4293122527
55.692661 961.22479 829.20526 4293121758
58.568806 961.02484 829.03668 4293253090
61.706421 961.0249 829.03668 4293318881
7.0431194 963.06879 828.14392 4294239986
9.9198771 963.05377 829.00336 4294437619
12.521101 963.06879 828.14392 4294636797
23.53211 963.0238 830.72217 4294967295
29.807339 963.0238 830.72217 4292796126
32.160549 963.0238 830.72217 4291216033
34.51376 963.0238 830.72217 4292004307
37.099083 963.03876 829.86279 4293123043
40.004585 963.0238 830.72217 4293056484
43.142204 963.0238 830.72217 4293319140
45.495415 963.0238 830.72217 4293187806
53.339451 963.0238 830.72217 4293188065
55.692661 963.0238 830.72217 4293188065
-19.053211 825.67438 831.32739 4286007338
-16.420183 828.41132 831.01892 4286464290
-16.367889 833.16467 831.10278 4286068235
-16.046484 837.63867 832.25909 4286659871
-13.34312 880.41046 831.6983 4284565274
-13.313762 883.66846 831.82935 4283371520
-11.0948 884.51666 832.54449 4282647307
-8.3211012 884.9408 832.9021 4281729033
-9.985321 886.21307 833.97485 4286473570
-7.2018352 886.68311 832.62714 4285088584
-9.9082565 894.68958 831.96582 4287066977
-9.8862381 897.9104 832.06549 4280880908
-7.1400609 897.7005 831.88849 4286276959
-9.8532114 901.7843 831.40784 4282656804
-7.3899078 901.7843 831.40784 4281669653
-11.444036 908.17975 831.56812 4282258191
-10.590826 912.64276 831.4071 4288119915
-8.1467886 913.26562 831.93225 4288580746
-10.566973 917.05872 832.51453 4286606442
-8.1284399 916.43732 831.9906 4288581001
-9.73211 920.22064 832.56445 4282593848
-8.1100922 918.98059 831.51892 4285158226
-9.6990824 923.40295 831.32361 4278912512
-8.0825691 923.40295 831.32361 4279570690
-9.6550455 929.68335 831.38696 4285425495
-11.26422 931.52869 832.94287 4282528320
-9.6330271 934.03827 832.44287 4283513640
-8.027523 934.65198 832.96033 4282460947
-6.4000001 937.79224 831.68408 4284303391
-6.4000001 939.62708 833.23114 4279238659
-4.788991 940.89807 831.68665 4280026375
-6.3853211 942.72864 833.23022 4286146408
-3.9816513 943.99548 831.68225 4284304204
-6.3633027 946.45239 832.44592 4280557621
-4.7669725 946.47699 831.15857 4283056977
-10.244954 959.33582 832.8446 4293513681
-10.244954 960.54077 833.8606 4294502120
-7.084404 960.56042 832.56915 4294041829
-3.9311926 961.78235 832.29138 4294108394
-1.5724771 961.78235 832.29138 4294239724
1.048318 961.38165 831.95343 4294042860
3.9311926 961.78235 832.29138 4293911527
7.0761471 961.78235 832.29138 4293911273
11.007339 961.78235 832.29138 4294306285
13.366055 961.78235 832.29138 4294768889
16.511009 961.78235 832.29138 4294967295
19.918043 962.18311 832.62921 4294967295
22.538839 962.5838 832.9671 4294967295
25.945871 962.38342 832.79822 4294967295
28.828745 962.5838 832.9671 4294967295
31.449541 962.9845 833.30505 4294967295
33.022018 962.9845 833.30505 4291611589
40.884403 962.9845 833.30505 4293120994
43.243118 962.9845 833.30505 4293187040
46.65015 962.5838 832.9671 4293056224
49.795105 962.18311 832.62921 4293253605
52.415905 962.5838 832.9671 4293319655
55.822937 962.9845 833.30505 4293188065
59.125134 962.02277 832.49414 4293385701
62.112846 961.78235 832.29138 4293056480
64.471558 960.58014 831.27771 4293187552
34.51376 964.22321 831.7334 4291477702
36.866974 964.22321 831.7334 4292991201
39.220184 964.22321 831.7334 4292991204
-15.473394 839.82935 834.1062 4287388219
-15.060551 881.58447 836.6123 4282520344
-13.34312 884.23584 834.92377 4284030765
-11.675229 884.87335 835.4613 4287389545
-15.011009 886.1485 836.5365 4284567570
-13.34312 886.1485 836.5365 4285551187
-10.81743 887.48541 835.04761 4288117621
-8.3211012 887.48541 835.04761 4288644728
-13.313762 888.75769 836.12036 4285027156
-10.81743 888.75769 836.12036 4287330679
-11.623854 891.36133 835.69971 4285224261
-10.191437 934.60425 835.53613 4283445544
-8.027523 937.10681 835.03027 4279304192
-9.9822626 962.54907 835.55402 4294635256
-7.0926609 961.74573 834.87659 4294568946
-3.940367 962.34827 835.38464 4294174958
-1.5761468 961.74573 834.87659 4293846250
0 961.74573 834.87659 4293977068
13.397247 961.74573 834.87659 4293450210
16.549541 961.74573 834.87659 4293253602
19.439142 962.54907 835.55402 4293911274
22.85413 962.95074 835.8927 4294967295
26.006422 962.95074 835.8927 4294967295
29.158714 962.95074 835.8927 4294967295
31.522936 962.95074 835.8927 4294967295
33.887154 962.95074 835.8927 4292795873
37.039452 962.95074 835.8927 4292597217
40.191742 962.95074 835.8927 4293056227
44.132111 962.95074 835.8927 4293187806
47.284405 962.95074 835.8927 4293188065
49.648624 962.34827 835.38464 4292924639
52.800919 962.95074 835.8927 4293318882
59.105507 962.95074 835.8927 4293713896
63.833946 961.74573 834.87659 4293254115
66.198166 961.74573 834.87659 4293845739
-12.609175 964.1557 836.90869 4294570237
23.642202 964.1557 836.90869 4293516263
29.158714 964.1557 836.90869 4294967295
31.522936 964.1557 836.90869 4294967295
56.129055 964.17633 835.18195 4293647589
59.105507 964.1557 836.90869 4291606211
61.398167 964.17114 835.61365 4291606983
-15.060551 882.86377 837.69092 4283838480
-12.93211 933.28967 839.65979 4283179784
-11.289908 934.56207 838.1167 4283509781
-9.6550455 937.0647 837.61072 4281271565
-8.0458717 937.0647 837.61072 4280090624
-11.07156 959.88763 837.23401 4294963450
1.5834862 959.87427 838.53076 4294174447
3.6929665 959.87872 838.09845 4293911530
7.1174312 959.88763 837.23401 4294043113
10.280734 959.88763 837.23401 4293648103
-10.280734 962.30603 839.27307 4294307062
-6.8538227 961.49994 838.59344 4294175473
-4.2177367 961.90302 838.93329 4294109423
-1.5816513 961.70142 838.76331 4293780458
0 961.70142 838.76331 4293911018
4.7449541 961.09686 838.25354 4293977836
7.1174312 961.09686 838.25354 4294240492
10.280734 961.09686 838.25354 4293714153
13.707645 961.49994 838.59344 4293384931
16.343731 961.49994 838.59344 4292990429
19.770641 962.30603 839.27307 4292201941
22.14312 962.30603 839.27307 4292068817
25.306421 962.30603 839.27307 4294966523
34.005505 962.30603 839.27307 4294967295
37.168808 962.30603 839.27307 4292927204
39.541283 962.30603 839.27307 4292466145
42.704586 961.09686 838.25354 4293384934
46.658714 961.70142 838.76331 4293648103
49.558411 961.90302 838.93329 4293450724
52.985321 962.30603 839.27307 4294107371
55.3578 962.30603 839.27307 4294041323
63.793274 961.49994 838.59344 4292396486
61.469727 965.36066 837.92468 4288049025
66.737617 959.23236 841.91364 4290420125
-10.304587 962.28491 841.87134 4294307059
-7.3981652 961.88086 841.53076 4294175474
-3.9633026 962.28491 841.87134 4293845999
-1.5853211 962.28491 841.87134 4293845746
1.5853211 961.07288 840.84949 4293976555
3.9633026 961.07288 840.84949 4293845482
7.133945 961.07288 840.84949 4294043629
10.304587 961.07288 840.84949 4293714666
13.475229 961.67889 841.36041 4293648357
16.910093 961.88086 841.53076 4293385438
19.816513 962.28491 841.87134 4292924893
22.987156 962.28491 841.87134 4292726487
26.422018 961.88086 841.53076 4294769144
33.291744 962.28491 841.87134 4294967295
38.047707 962.28491 841.87134 4292925150
40.42569 961.67889 841.36041 4292990686
43.596329 961.67889 841.36041 4293253089
46.50275 961.88086 841.53076 4293582054
49.937614 962.28491 841.87134 4294108652
53.108257 962.28491 841.87134 4294239217
55.48624 962.28491 841.87134 4292922851
64.469727 961.88086 841.53076 4287323981
-12.653211 963.5152 840.29272 4294373109
-3.1706421 963.49689 842.89331 4293845739
28.469725 963.5152 840.29272 4294967295
30.842201 963.5152 840.29272 4294967295
47.559631 963.49689 842.89331 4293778406
56.939449 963.5152 840.29272 4292856765
58.521099 963.5152 840.29272 4290356375
60.724163 963.50299 842.02643 4288177257
-14.333945 959.82428 845.02881 4294175733
1.5926605 959.82428 845.02881 4293977068
68.484406 959.82428 845.02881 4286993209
70.077065 959.21545 844.51544 4287125058
-10.328441 962.26935 844.47437 4294043118
-7.1504583 962.26935 844.47437 4293977325
-4.7669725 962.26935 844.47437 4293714409
-1.5889908 962.26935 844.47437 4294042861
0.52966362 961.86444 844.133 4294108652
3.7076452 961.45947 843.7915 4293911532
7.4152904 961.45947 843.7915 4294043631
10.328441 961.66199 843.96228 4293845481
13.24159 961.86444 844.133 4293714150
16.684402 962.26935 844.47437 4293582562
19.862385 962.26935 844.47437 4293253858
23.040367 962.26935 844.47437 4292989658
25.423853 962.26935 844.47437 4292331212
27.807339 962.26935 844.47437 4292594896
30.190826 962.26935 844.47437 4294967295
34.957798 961.05457 843.45007 4294967295
36.546787 961.05457 843.45007 4294572537
41.313763 961.05457 843.45007 4293187552
43.69725 962.26935 844.47437 4294107887
46.080734 962.26935 844.47437 4293909996
50.053211 962.26935 844.47437 4291277757
52.436699 962.26935 844.47437 4288777109
54.820183 962.26935 844.47437 4287652979
57.998165 962.26935 844.47437 4287056203
64.354126 962.26935 844.47437 4287453236
66.737617 961.05457 843.45007 4286993209
-3.1779816 963.48413 845.49854 4293846248
-1.5889908 963.48413 845.49854 4293846248
0 963.48413 845.49854 4293977066
17.478899 963.48413 845.49854 4293779689
19.06789 963.48413 845.49854 4293384934
43.69725 963.48413 845.49854 4294371309
46.875229 963.48413 845.49854 4291935668
50.053211 963.48413 845.49854 4289432717
58.79266 963.48413 845.49854 4286796089
61.176147 963.48413 845.49854 4287386938
63.559631 963.48413 845.49854 4287715919
34.321098 959.81439 847.63647 4294967295
68.642204 959.81439 847.63647 4287452997
70.238533 959.81439 847.63647 4287059004
-10.365137 961.64716 847.87372 4293977328
-7.1669722 962.25952 847.08203 4293911534
-4.7779818 962.25952 847.08203 4293912045
1.5926605 962.25952 847.08203 4294108908
4.2470946 961.8537 846.73981 4293977324
6.9015288 961.8537 846.73981 4293911534
10.352293 962.25952 847.08203 4293713896
13.537615 962.25952 847.08203 4293779175
15.926605 962.25952 847.08203 4293582310
20.704588 962.25952 847.08203 4293384934
23.093578 962.25952 847.08203 4293055966
25.541285 961.03479 848.66541 4292923862
27.93578 961.03479 848.66541 4292266444
31.889908 961.03833 847.36041 4294967295
37.470642 961.03833 847.36041 4294307828
40.659634 961.03833 847.36041 4293713896
52.557796 962.25952 847.08203 4286666868
54.946789 962.25952 847.08203 4285741876
57.335781 962.25952 847.08203 4286203696
65.29908 962.25952 847.08203 4287781712
66.891747 961.6507 846.56873 4287584327
-6.3706422 963.47711 848.10876 4293714409
-3.9816513 963.47711 848.10876 4293912556
-1.5926605 963.47711 848.10876 4293912810
0 963.47711 848.10876 4293780203
7.9633026 963.47711 848.10876 4293779693
9.5559635 963.47711 848.10876 4293910761
14.333945 963.47711 848.10876 4293844968
16.722935 963.47711 848.10876 4293516517
19.908257 963.47711 848.10876 4293319140
46.983486 963.47711 848.10876 4286136908
49.372478 963.47711 848.10876 4286597186
58.132111 963.47711 848.10876 4287321926
61.245872 964.08801 847.3158 4287846723
64.502747 963.47711 848.10876 4287715915
66.891747 963.47711 848.10876 4287781708
30.4 959.81006 850.2489 4294964213
34.400002 959.81006 850.2489 4294967295
68.800003 959.81006 850.2489 4287715915
-12.8 961.03326 851.28027 4294109169
-10.376146 962.25519 849.69446 4293845996
-7.9816513 962.25519 849.69446 4293780203
1.5963303 962.25519 849.69446 4293846252
3.9908257 962.25519 849.69446 4293845482
6.3853211 962.25519 849.69446 4293647851
11.174312 962.25519 849.69446 4293844968
12.770642 962.25519 849.69446 4293844968
23.14679 962.25519 849.69446 4293121759
25.541285 962.25519 849.69446 4293122011
28 961.03326 851.28027 4292332239
31.200001 961.03326 851.28027 4292595415
34.400002 961.03326 851.28027 4294967295
37.599998 961.03326 851.28027 4293782509
40.752293 961.64423 850.48737 4290092708
43.899082 962.25519 849.69446 4288178555
51.880733 962.25519 849.69446 4286663240
55.073395 962.25519 849.69446 4287059266
68.642204 962.25519 849.69446 4287715915
-6.3853211 963.47559 850.72351 4293912558
-3.9908257 963.47559 850.72351 4294043885
-1.5963303 963.47559 850.72351 4294175212
0 963.47559 850.72351 4293845739
19.954128 963.47559 850.72351 4293187552
47.091743 963.47559 850.72351 4286202162
49.48624 963.47559 850.72351 4286795065
58.266056 963.47559 850.72351 4287517770
61.458717 963.47559 850.72351 4287584319
64.651375 963.47559 850.72351 4287650375
-12.8 962.25647 852.31165 4294108654
-10.419266 961.34216 853.50275 4294043374
-8 962.25647 852.31165 4294109167
1.6 962.25647 852.31165 4293977068
4 962.25647 852.31165 4293779692
7.1999998 962.25647 852.31165 4293911021
10.4 962.25647 852.31165 4293713898
13.6 962.25647 852.31165 4293713896
16.799999 962.25647 852.31165 4293516517
22.4 962.25647 852.31165 4293187554
24.799999 962.25647 852.31165 4292858331
28 962.25647 852.31165 4292594900
31.307339 960.42786 854.69385 4292331731
34.518349 960.42786 854.69385 4294967295
37.663303 961.34216 853.50275 4292399581
40.799999 962.25647 852.31165 4286408072
44 962.25647 852.31165 4285612371
52 962.25647 852.31165 4287254333
55.200001 962.25647 852.31165 4287190091
67.199997 962.25647 852.31165 4287650121
69.036697 960.42786 854.69385 4287650121
-9.6000004 963.47968 853.34302 4293977836
-7.1999998 963.47968 853.34302 4293714922
-4 963.47968 853.34302 4293780459
-1.6 963.47968 853.34302 4293845739
0 963.47968 853.34302 4293778919
4.8000002 963.47968 853.34302 4293976303
46.400002 963.47968 853.34302 4287583302
48.799999 963.47968 853.34302 4287649095
56 963.47968 853.34302 4287517768
58.400002 963.47968 853.34302 4287583815
61.599998 963.47968 853.34302 4287519042
64.800003 963.47968 853.34302 4287584328
-11.238532 961.65527 855.72888 4294240240
-7.2247705 962.88269 856.76379 4293780457
-4.0137615 962.88269 856.76379 4293911532
-1.6055046 962.88269 856.76379 4293713896
0.80275232 962.26898 856.24634 4293779433
4.0137615 962.26898 856.24634 4293910768
7.2247705 961.65527 855.72888 4293845485
10.43578 961.65527 855.72888 4293713900
13.661469 961.04712 856.52411 4293714153
16.896332 960.43903 857.31934 4293582310
20.068806 961.65527 855.72888 4293385188
22.52844 960.43903 857.31934 4293319138
24.885323 961.65527 855.72888 4292923865
28.096329 961.65527 855.72888 4292791508
31.307339 961.65527 855.72888 4291542469
34.518349 961.65527 855.72888 4294967295
37.729355 961.65527 855.72888 4292072406
41.207951 962.06445 856.07391 4284823590
44.151375 962.26898 856.24634 4287648317
49.770641 962.88269 856.76379 4287649349
52.178902 962.26898 856.24634 4287583554
55.122326 962.47357 856.41876 4287386950
58.600918 962.88269 856.76379 4287584582
61.811928 962.88269 856.76379 4287519042
65.022934 962.88269 856.76379 4287518792
67.43119 961.65527 855.72888 4287649869
69.91835 961.04712 856.52411 4287453000
-10.466055 961.98169 859.27405 4293780457
-7.2412844 962.89948 859.39392 4293912044
-4.0229359 962.89948 859.39392 4294241011
-1.6091744 962.89948 859.39392 4293911791
1.0740061 962.08588 859.5799 4293845482
3.7608564 961.68231 860.11163 4293911026
6.9779816 961.67578 859.23413 4293713900
10.743731 961.27124 859.76514 4293451243
13.69266 961.0625 859.15308 4293648105
16.934864 960.45575 859.94958 4293582310
20.137613 961.67902 859.67285 4293516774
22.554129 961.67902 859.67291 4293253344
24.955963 961.98169 859.27405 4292989660
28.160549 962.28436 858.87524 4292923353
31.414679 961.67902 859.67291 4291739333
34.597248 962.28436 858.87524 4294700533
37.858711 961.67902 859.67285 4293318119
40.828136 961.68231 860.11163 4284826430
43.546787 961.68878 860.98926 4287979064
46.199387 961.68231 860.11163 4287519047
48.848316 962.08588 859.5799 4287780421
52.298164 962.89948 859.39392 4287780165
55.516514 962.89948 859.39392 4287518790
58.734863 962.89948 859.39392 4287715907
61.953209 962.89948 859.39392 4287846723
65.171562 962.89948 859.39392 4287780678
67.58532 962.28436 858.87524 4287780682
70.078903 961.67902 859.67291 4287649092
62.757797 964.1297 860.43127 4287649345
65.976151 964.1297 860.43127 4287583815
-10.49633 962.31787 862.8277 4293583337
-7.2577982 962.92181 862.02893 4294109168
-4.0321102 962.92181 862.02893 4294109170
-1.612844 962.92181 862.02893 4293911795
0 962.92181 862.02893 4293648618
3.2330275 961.71393 863.62646 4293780203
8.0825691 960.47809 862.58447 4293713900
10.507339 961.09601 863.10547 4293648363
14.009786 960.89008 862.93182 4293516777
16.973394 961.09601 863.10547 4293779690
19.398165 961.71393 863.62646 4293451242
21.822937 961.71393 863.62646 4293253604
24.999083 962.92181 862.02893 4292989917
28.22477 962.92181 862.02893 4292660694
31.450459 962.92181 862.02893 4292002506
34.716515 962.31787 862.8277 4294569204
37.988075 961.71393 863.62646 4293778666
40.412846 961.71393 863.62646 4285092449
42.837616 961.71393 863.62646 4287320880
46.070641 961.71393 863.62646 4287257667
49.246788 962.31787 862.8277 4287518022
52.477982 962.31787 862.8277 4287517761
55.64312 962.92181 862.02893 4287518274
58.868805 962.92181 862.02893 4287715392
61.288074 962.92181 862.02893 4287780930
64.513763 962.92181 862.02893 4287518022
67.739449 962.92181 862.02893 4287649095
70.237617 962.31787 862.8277 4287714629
72.743118 961.71393 863.62646 4287780163
-9.6770639 964.15485 863.06848 4293912045
-7.2577982 964.15485 863.06848 4293912045
62.900917 964.15485 863.06848 4287387204
64.513763 964.15485 863.06848 4287386693
1.6220183 959.90216 866.02283 4293714411
4.866055 959.90216 866.02283 4293780203
7.2990828 959.90216 866.02283 4293648105
9.73211 959.90216 866.02283 4293648105
12.976147 959.90216 866.02283 4293647851
-11.315597 962.94977 864.66846 4293846765
-4.0412846 962.94977 864.66846 4293779949
-1.6165137 962.94977 864.66846 4293713646
0 962.94977 864.66846 4293648364
21.822937 962.94977 864.66846 4293186786
25.055964 962.94977 864.66846 4293120478
28.28899 962.94977 864.66846 4292660181
31.522018 962.94977 864.66846 4291871172
34.755043 962.94977 864.66846 4294636530
50.111927 962.94977 864.66846 4287191108
51.728439 962.94977 864.66846 4287189820
55.769722 962.94977 864.66846 4287518274
59.002754 962.94977 864.66846 4287650360
61.427525 962.94977 864.66846 4287518790
-9.6990824 964.80353 866.23157 4293780205
-7.274312 964.18561 865.71057 4293911533
59.811008 964.18561 865.71057 4287650097
61.427525 964.18561 865.71057 4287584319
63.044037 964.80353 866.23157 4287320637
1.6256881 959.93713 868.66846 4293714413
4.0642204 959.93713 868.66846 4293714410
7.3155961 959.93713 868.66846 4293647851
9.7541285 959.93713 868.66846 4293647338
-4.0550461 962.38226 868.11401 4293911022
-1.6220183 962.38226 868.11401 4293779439
0 962.38226 868.11401 4293779693
11.366972 961.16113 868.39246 4293647338
13.802752 961.16113 868.39246 4293909998
17.050459 961.16113 868.39246 4293845227
19.46422 961.76221 867.59125 4293253095
21.897247 962.38226 868.11401 4293121508
25.141285 962.38226 868.11401 4293055456
28.385323 962.38226 868.11401 4292594904
31.629358 962.38226 868.11401 4291871945
34.913761 961.78113 868.91522 4294636788
37.847095 961.55548 867.41699 4292333021
40.069721 961.16742 868.8338 4286406535
43.032112 961.16107 868.39246 4287321400
46.279816 961.16113 868.39246 4287059777
49.201221 961.96893 867.76544 4287124545
53.026295 961.56818 868.29962 4287452734
55.959633 962.38226 868.11401 4287583554
58.392662 962.38226 868.11401 4287584304
-7.2990828 963.62231 869.15967 4294042862
-4.0550461 963.62231 869.15967 4293977071
22.708258 963.62231 869.15967 4292595933
58.392662 963.62231 869.15967 4287518259
60.825687 963.62231 869.15967 4287649597
1.6293578 959.97778 871.31873 4293779693
4.0733948 959.97778 871.31873 4293714410
7.3321099 959.97778 871.31873 4293911277
9.7761469 959.97778 871.31873 4293778923
-1.6256881 962.42285 870.7644 4293846000
0 962.42285 870.7644 4293976818
4.0733948 961.22339 872.36902 4293845482
7.3321099 961.22339 872.36902 4293910505
10.590826 961.22339 872.36902 4293647338
13.833027 961.82312 871.56671 4293712361
17.069725 962.42285 870.7644 4293515754
19.508257 962.42285 870.7644 4293253862
21.133945 962.42285 870.7644 4293056484
25.198166 962.42285 870.7644 4292595675
28.449541 962.42285 870.7644 4292464601
31.700916 962.42285 870.7644 4291938765
34.952293 962.42285 870.7644 4294900473
37.390827 962.42285 870.7644 4289899187
39.829357 962.42285 870.7644 4286400854
43.080734 962.42285 870.7644 4287452997
46.385323 961.82312 871.56671 4287517763
49.583488 962.42285 870.7644 4287516991
52.834862 962.42285 870.7644 4287845958
56.086239 962.42285 870.7644 4287714118
-7.2990828 964.8623 870.2052 4294042861
-4.0623856 964.58624 871.93445 4293911021
-1.6256881 963.66565 871.81226 4294108402
22.759632 963.66565 871.81226 4292793309
56.899082 963.66565 871.81226 4287648843
58.524769 963.66565 871.81226 4287518274
60.894493 964.88538 871.53271 4287780674
63.258717 964.8623 870.2052 4287648325
-7.2990828 966.10236 871.25073 4293912045
1.6348624 959.42426 874.77612 4293976818
0.81743121 961.57159 874.62463 4293976818
4.0871563 960.67413 875.82996 4293647851
7.3568807 960.67413 875.82996 4293779435
10.626606 960.67413 875.82996 4293911023
13.871559 961.57159 874.62463 4293647338
17.108257 962.46906 873.41931 4293515750
19.552294 962.46906 873.41931 4293319138
21.181652 962.46906 873.41931 4293121759
25.255047 962.46906 873.41931 4292529624
28.513762 962.46906 873.41931 4292660440
31.772476 962.46906 873.41931 4292989143
35.031193 962.46906 873.41931 4294832125
37.475231 962.46906 873.41931 4286869143
39.919266 962.46906 873.41931 4286401578
43.177982 962.46906 873.41931 4287781448
46.436699 962.46906 873.41931 4287649349
49.695412 962.46906 873.41931 4287517509
