# .PCD v0.7 - Point Cloud Data file format
VERSION 0.7
FIELDS x y z rgb
SIZE 4 4 4 4
TYPE F F F U
COUNT 1 1 1 1
WIDTH 1164
HEIGHT 1
VIEWPOINT 0 0 0 1 0 0 0
POINTS 1164
DATA ascii
-38.148624 940.4519 1293.045 4283912025
-35.904587 940.4519 1293.045 4283453272
-24.684404 940.4519 1293.045 4283122520
-4.4880733 940.4519 1293.045 4285618261
-40.392662 943.02527 1295.215 4284571238
-38.148624 943.02527 1295.215 4285097839
-35.904587 943.02527 1295.215 4285163387
-8.9761467 942.16748 1294.4917 4285487961
-4.4880733 942.16748 1294.4917 4285486677
2.2440367 943.88306 1295.9382 4285421652
-35.757797 949.54834 1294.1748 4283320960
-2.2348623 949.54834 1294.1748 4285617498
0 949.54834 1294.1748 4285421652
-40.227524 951.25696 1295.6155 4289965507
-37.992661 951.25696 1295.6155 4289702336
-35.757797 951.25696 1295.6155 4288060338
2.2348623 951.25696 1295.6155 4285158998
4.4697247 951.25696 1295.6155 4285159500
-40.095413 956.44452 1294.7573 4288520113
-37.867889 956.44452 1294.7573 4289243835
-34.897858 955.30927 1293.8002 4288978629
-31.185322 954.74158 1293.3215 4287665321
-25.616514 954.74158 1293.3215 4286153402
-2.2275229 955.59302 1294.0394 4285354578
0.74250764 955.30927 1293.8002 4285420884
4.4550457 954.74158 1293.3215 4285421384
6.682569 955.59302 1294.0394 4285486923
-39.963303 961.60974 1293.8804 4289241005
-37.743118 961.60974 1293.8804 4289241005
-35.522934 961.60974 1293.8804 4289109937
-15.541285 961.60974 1293.8804 4292072419
-13.321101 961.60974 1293.8804 4291481567
-11.100918 961.60974 1293.8804 4288520626
-7.7706423 961.60974 1293.8804 4284443245
-4.4403667 961.60974 1293.8804 4284960333
-2.2201834 961.60974 1293.8804 4285289299
0 961.60974 1293.8804 4285223506
-39.963303 963.30707 1295.3115 4289175210
-37.743118 963.30707 1295.3115 4289043881
-35.522934 963.30707 1295.3115 4289043358
-15.541285 963.30707 1295.3115 4292795628
-13.321101 963.30707 1295.3115 4292399594
-11.100918 963.30707 1295.3115 4290228682
-7.7706423 963.30707 1295.3115 4287332977
-4.4403667 963.30707 1295.3115 4284763468
-2.2201834 963.30707 1295.3115 4285224019
0 963.30707 1295.3115 4285420884
-30.979816 968.44415 1294.4109 4289042856
-28.766972 968.44415 1294.4109 4289042856
-49.247707 760.48376 1296.9562 4288645018
2.4623854 760.48376 1296.9562 4291937753
4.9247708 760.48376 1296.9562 4291871442
-49.247707 762.36627 1298.5435 4288644757
4.9247708 762.36627 1298.5435 4291807700
7.387156 762.36627 1298.5435 4291939286
-46.611008 768.84229 1297.4637 4289237660
-44.157799 768.84229 1297.4637 4290215833
2.4532111 768.84229 1297.4637 4291742173
4.9064221 768.84229 1297.4637 4291742182
7.359633 768.84229 1297.4637 4291413474
9.8128443 768.84229 1297.4637 4291282137
-43.992661 775.29034 1296.3604 4290215331
-40.326607 775.29034 1296.3604 4289488255
7.3321099 775.29034 1296.3604 4291610333
-43.992661 777.15887 1297.9358 4290214306
-40.326607 777.15887 1297.9358 4288893035
2.4440367 777.15887 1297.9358 4291742684
4.8880734 777.15887 1297.9358 4291413724
7.3321099 777.15887 1297.9358 4291413724
-43.827522 785.43329 1298.3726 4288826471
-41.392662 785.43329 1298.3726 4288892264
-38.146175 784.19232 1297.3262 4289544789
-34.088074 783.57184 1296.803 4290199129
0 783.57184 1296.803 4291412951
-46.053211 794.19525 1297.9122 4289484916
-43.629356 794.19525 1297.9122 4289224307
-41.205505 794.19525 1297.9122 4289158514
-38.781651 792.34216 1296.3497 4289813349
0 792.34216 1296.3497 4291347676
-48.293579 800.53528 1296.7178 4288170083
-45.878899 800.53528 1296.7178 4288894063
-2.4146788 800.53528 1296.7178 4291216594
0 800.53528 1296.7178 4291216340
-49.500916 802.38135 1298.2743 4287973971
14.488073 802.38135 1298.2743 4291609301
-48.110092 808.68622 1297.0503 4288499318
-45.704586 808.68622 1297.0503 4288762234
14.433027 808.68622 1297.0503 4291609299
-49.312843 810.52527 1298.601 4287578705
2.4055047 810.52527 1298.601 4290953425
14.433027 810.52527 1298.601 4290952400
-62.304588 818.62714 1298.8921 4285742156
-57.511925 818.62714 1298.8921 4286202190
-50.322937 818.62714 1298.8921 4287055702
-46.728439 817.71118 1298.1198 4288435801
-43.133945 816.79517 1297.3474 4288500057
2.3963304 818.62714 1298.8921 4291084238
4.7926607 818.62714 1298.8921 4290689996
14.377981 817.71118 1298.1198 4290821582
-46.549541 823.94952 1296.8396 4288172129
-42.968807 823.03699 1296.0702 4288564828
-40.58165 823.03699 1296.0702 4288762463
-46.406422 830.55737 1297.1791 4288105830
-42.836697 830.55737 1297.1791 4288696677
-40.456882 830.55737 1297.1791 4288960106
-38.077065 830.55737 1297.1791 4289486433
0 830.55737 1297.1791 4290427080
-52.355965 832.37677 1298.7131 4286859093
-49.976147 832.37677 1298.7131 4287516766
-46.406422 832.37677 1298.7131 4288105826
-42.836697 832.37677 1298.7131 4288367714
-38.077065 832.37677 1298.7131 4289092709
-49.783485 838.55127 1297.3792 4286989398
-46.227524 838.55127 1297.3792 4287512662
-42.671558 838.55127 1297.3792 4288233296
-40.300919 838.55127 1297.3792 4288957276
-37.930275 838.55127 1297.3792 4289285979
-34.374313 838.55127 1297.3792 4289548638
-30.818348 838.55127 1297.3792 4291258999
0 838.55127 1297.3792 4290887111
-54.524769 840.36365 1298.9072 4286266701
-52.154129 840.36365 1298.9072 4286593869
-49.783485 840.36365 1298.9072 4286988627
-46.227524 840.36365 1298.9072 4287380819
-42.671558 840.36365 1298.9072 4287773269
-40.300919 840.36365 1298.9072 4288628322
-37.930275 840.36365 1298.9072 4289023836
-34.374313 840.36365 1298.9072 4289482842
-30.818348 840.36365 1298.9072 4290402657
-42.50642 844.69769 1296.0215 4288367968
-40.144955 844.69769 1296.0215 4288433762
-34.241287 844.69769 1296.0215 4289878374
-30.699083 844.69769 1296.0215 4290271591
-28.337614 844.69769 1296.0215 4290333296
-25.976147 844.69769 1296.0215 4290662260
-4.7229357 844.69769 1296.0215 4290557635
-2.3614678 844.69769 1296.0215 4290491586
-51.952293 846.50305 1297.5438 4286794583
-49.590824 846.50305 1297.5438 4287386463
-47.229359 846.50305 1297.5438 4287713116
-43.687157 846.50305 1297.5438 4288567659
-40.144955 846.50305 1297.5438 4288830064
-37.783485 846.50305 1297.5438 4289354341
-34.241287 846.50305 1297.5438 4289747562
-4.7229357 846.50305 1297.5438 4290623174
-2.3614678 846.50305 1297.5438 4290360002
0 846.50305 1297.5438 4290491338
-43.517433 853.51361 1296.9147 4288436072
-39.988991 852.61444 1296.1565 4288961902
-2.3522935 853.51361 1296.9147 4290623175
0 854.41278 1297.6729 4290622152
-39.833027 860.48901 1296.2561 4288827236
-37.48991 860.48901 1296.2561 4288892516
-7.0293579 860.48901 1296.2561 4286019447
-4.6862388 860.48901 1296.2561 4286610049
-2.3431194 860.48901 1296.2561 4287728786
-43.347706 862.2804 1297.7666 4287973208
-2.3431194 862.2804 1297.7666 4286612075
0 862.2804 1297.7666 4288585610
-42.822632 869.02045 1298.2174 4287713374
-39.708256 868.72278 1297.9664 4288436332
-7.0073395 867.82996 1297.2136 4289766584
-4.6715598 867.82996 1297.2136 4289439431
-2.3357799 868.72278 1297.9664 4288647344
0 868.72278 1297.9664 4287202212
10.511009 869.61566 1298.7192 4283780688
-44.205505 875.62457 1297.2457 4287452247
-40.715595 875.62457 1297.2457 4287976806
-37.225689 875.62457 1297.2457 4288434275
-4.6532111 875.62457 1297.2457 4284570984
0 875.62457 1297.2457 4283122502
10.469725 875.62457 1297.2457 4285755260
13.959633 875.62457 1297.2457 4283716188
-44.205505 877.40332 1298.7455 4287714913
-40.715595 877.40332 1298.7455 4288174437
2.3266056 877.40332 1298.7455 4286152069
10.469725 877.40332 1298.7455 4286937719
-44.031193 883.3772 1297.2424 4287911511
-40.555046 883.3772 1297.2424 4288303970
-44.031193 885.14893 1298.7362 4287447116
-40.555046 885.14893 1298.7362 4288169556
-43.891743 889.72559 1297.363 4286922827
-40.426605 889.72559 1297.3632 4287839814
-36.961468 889.72559 1297.363 4288430680
-34.651375 889.72559 1297.363 4289088610
-31.186239 888.84259 1296.6185 4289486938
-25.411009 888.84259 1296.6185 4290603911
-2.3100917 888.84259 1296.6185 4291214014
0 888.84259 1296.6185 4290227650
-40.266056 896.52222 1296.5536 4287578189
-36.814678 896.52222 1296.5536 4288169292
-34.51376 896.52222 1296.5536 4288432465
-32.212845 896.52222 1296.5536 4288694353
-28.761467 896.52222 1296.5536 4289154388
-4.6018348 896.52222 1296.5536 4282079869
-2.3009174 896.52222 1296.5536 4282079869
0 896.52222 1296.5536 4283518543
-50.620182 898.28125 1298.0369 4285675334
-43.71743 898.28125 1298.0369 4286660165
-40.266056 898.28125 1298.0369 4287511626
-36.814678 898.28125 1298.0369 4287970378
-34.51376 898.28125 1298.0369 4288694101
-32.212845 898.28125 1298.0369 4288759885
-29.911926 898.28125 1298.0369 4289154387
-4.6018348 898.28125 1298.0369 4284506263
-2.3009174 898.28125 1298.0369 4283848332
0 898.28125 1298.0369 4284703617
-41.251377 905.91187 1297.9307 4287117381
-37.813759 905.03577 1297.192 4287510600
-34.376148 905.03583 1297.192 4288364881
-32.084404 905.03583 1297.192 4288561739
-28.64679 905.03583 1297.192 4288955985
-25.209175 904.15979 1296.4534 4289678684
-9.1669722 904.15979 1296.4534 4291080395
-6.8752294 904.15979 1296.4534 4291146188
-4.5834861 905.03583 1297.192 4290557122
-2.291743 905.03583 1297.192 4290557122
0 905.03583 1297.192 4290426306
-37.692657 911.28748 1297.231 4287380810
-34.266056 911.28748 1297.231 4287774534
-31.981651 911.28748 1297.231 4288297544
-28.555046 911.28748 1297.231 4289021781
-25.128441 911.28748 1297.231 4289416541
0 911.28748 1297.231 4290361283
-43.403671 913.03394 1298.7036 4285609289
-41.119267 913.03394 1298.7036 4286202190
-37.692657 913.03394 1298.7036 4286465351
-45.504585 920.58447 1298.5299 4282856769
-43.229359 918.84503 1297.0632 4286012004
-40.954128 918.84503 1297.0632 4286275164
-37.541283 918.84503 1297.0632 4287196788
13.651376 920.58447 1298.5299 4290361537
-45.3578 925.90118 1297.7806 4284041546
-43.089909 924.16736 1296.3187 4283054662
-15.875229 924.16736 1296.3187 4287520659
-2.26789 925.0343 1297.0497 4289964977
0 925.0343 1297.0497 4289833907
-42.950459 932.05945 1297.7411 4284829002
-40.689907 932.05945 1297.7411 4285486671
-38.429359 931.19537 1297.0125 4286801758
-4.521101 932.92358 1298.4697 4287659627
-2.2605505 932.05945 1297.7411 4288448640
0 932.05945 1297.7411 4288975493
-42.776146 938.64221 1296.7512 4283911756
-40.524769 938.64221 1296.7512 4283780438
-2.2513762 938.64221 1296.7512 4285618261
0 938.64221 1296.7512 4285617750
-42.776146 940.3634 1298.2025 4284571747
-2.2513762 940.3634 1298.2025 4285749850
0 940.3634 1298.2025 4285684824
-40.392662 946.45642 1298.108 4284834949
-38.148624 946.45642 1298.108 4284571777
-2.2440367 945.59863 1297.3848 4285814359
1.4960245 946.17047 1297.8669 4285618261
4.4880733 947.31421 1298.8313 4285421652
-42.462387 952.96552 1297.056 4290161603
-40.227524 952.96552 1297.056 4289636540
-37.992661 952.96552 1297.056 4289636540
-42.462387 954.67407 1298.4967 4289176243
-43.065445 959.28278 1297.1505 4289241511
-40.095413 958.14746 1296.1932 4288913326
-37.867889 958.14746 1296.1932 4289702586
0 958.14746 1296.1932 4285158226
-39.963303 965.00439 1296.7427 4289043881
-37.743118 965.00439 1296.7427 4289043881
-35.522934 965.00439 1296.7427 4288911007
-16.651375 965.00439 1296.7427 4290096825
-13.321101 965.00439 1296.7427 4292199644
-11.100918 965.00439 1296.7427 4292396766
-7.7706423 965.00439 1296.7427 4288844964
-4.4403667 965.00439 1296.7427 4285156427
-2.2201834 965.00439 1296.7427 4285419856
0 965.00439 1296.7427 4285224273
24.422018 965.00439 1296.7427 4284831314
-39.963303 966.70178 1298.1738 4289044140
-37.743118 966.70178 1298.1738 4289175982
-34.412842 966.70178 1298.1738 4288912040
-25.53211 966.70178 1298.1738 4288517798
-22.201836 966.70178 1298.1738 4288321187
-19.981651 966.70178 1298.1738 4288715944
-17.761467 966.70178 1298.1738 4288781206
-7.7706423 966.70178 1298.1738 4288911525
-4.4403667 966.70178 1298.1738 4284630855
-2.2201834 966.70178 1298.1738 4285091406
24.422018 966.70178 1298.1738 4285027408
-51.902752 755.86212 1299.5995 4287861138
-49.431194 755.86212 1299.5995 4289041051
4.943119 755.86212 1299.5995 4291938266
-54.374313 757.75165 1301.1926 4286281851
-51.902752 757.75165 1301.1926 4287071624
7.4146791 757.75165 1301.1926 4292200407
-49.247707 764.24878 1300.1307 4288512667
-46.78532 764.24878 1300.1307 4289236647
2.4623854 764.24878 1300.1307 4291873243
4.9247708 764.24878 1300.1307 4291676639
7.387156 764.24878 1300.1307 4291545053
-49.247707 766.13135 1301.718 4289040024
-49.06422 770.71783 1299.0452 4289105821
-46.611008 770.71783 1299.0452 4289171615
2.4532111 770.71783 1299.0452 4291676891
4.9064221 770.71783 1299.0452 4291676643
7.359633 770.71783 1299.0452 4291544801
9.8128443 770.71783 1299.0452 4291281624
-49.06422 772.59332 1300.6265 4289367711
-46.611008 772.59332 1300.6265 4289433760
2.4532111 772.59332 1300.6265 4291939547
4.9064221 772.59332 1300.6265 4291676126
9.8128443 772.59332 1300.6265 4291478746
12.266055 772.59332 1300.6265 4291742175
-48.880733 779.02734 1299.5114 4290744750
-46.436699 779.02734 1299.5114 4290349992
-43.992661 779.02734 1299.5114 4290211217
-41.548622 779.02734 1299.5114 4287053153
2.4440367 779.02734 1299.5114 4291676893
4.8880734 779.02734 1299.5114 4291545051
7.3321099 779.02734 1299.5114 4291545051
-51.324772 780.89581 1301.0868 4287781989
-48.880733 780.89581 1301.0868 4289027457
-46.436699 780.89581 1301.0868 4288698748
-43.992661 780.89581 1301.0868 4289284471
-41.548622 780.89581 1301.0868 4288692334
2.4440367 780.89581 1301.0868 4291610587
4.8880734 780.89581 1301.0868 4291545051
7.3321099 780.89581 1301.0868 4291413722
9.7761469 780.89581 1301.0868 4291348439
12.220183 780.89581 1301.0868 4291348439
-48.697247 787.2948 1299.942 4288433512
-46.262386 787.2948 1299.942 4289156978
-43.827522 787.2948 1299.942 4289354873
-41.392662 787.2948 1299.942 4289223286
-38.957798 787.2948 1299.942 4289286499
2.4348624 787.2948 1299.942 4291150295
-51.132111 789.15625 1301.5116 4288171616
-48.697247 789.15625 1301.5116 4288368232
-46.262386 789.15625 1301.5116 4289223284
-43.827522 789.15625 1301.5116 4289421179
-41.392662 789.15625 1301.5116 4289421179
2.4348624 789.15625 1301.5116 4291150297
-53.324772 797.90137 1301.0371 4286132274
-50.092968 796.66602 1299.9955 4287907931
-57.952293 806.07336 1301.3873 4286136910
-55.537613 806.07336 1301.3873 4286334545
-53.122936 805.15039 1300.6091 4286858049
-49.903362 804.84271 1300.3496 4287909464
2.4146788 805.15039 1300.6091 4291149777
4.8293576 806.07336 1301.3873 4291215057
14.488073 804.22736 1299.8308 4291805910
-61.340366 812.36426 1300.1516 4285413194
-57.732109 812.36426 1300.1516 4286069070
-55.326607 812.36426 1300.1516 4286529621
-52.921101 812.36426 1300.1516 4286989900
-50.515594 812.36426 1300.1516 4286989900
2.4055047 812.36426 1300.1516 4290952654
4.8110094 812.36426 1300.1516 4290821584
9.6220188 812.36426 1300.1516 4290952152
12.027523 812.36426 1300.1516 4291017945
-61.340366 814.20331 1301.7021 4285676361
-57.732109 814.20331 1301.7021 4286202703
-55.326607 814.20331 1301.7021 4286268752
-52.921101 814.20331 1301.7021 4286989907
-50.515594 814.20331 1301.7021 4287187542
2.4055047 814.20331 1301.7021 4291017162
4.8110094 814.20331 1301.7021 4290623178
7.2165136 814.20331 1301.7021 4290623178
9.6220188 814.20331 1301.7021 4290426828
12.027523 814.20331 1301.7021 4290755537
-62.304588 820.45917 1300.4368 4285874759
-57.511925 820.45917 1300.4368 4286267469
-55.115597 820.45917 1300.4368 4286464848
-52.719265 820.45917 1300.4368 4286793296
-50.322937 820.45917 1300.4368 4287122260
2.3963304 820.45917 1300.4368 4291018443
4.7926607 820.45917 1300.4368 4290624201
10.783486 820.45917 1300.4368 4290887629
14.377981 820.45917 1300.4368 4290623690
-62.304588 822.2912 1301.9814 4285939517
-58.710091 822.2912 1301.9814 4286070853
-55.115597 822.2912 1301.9814 4286267469
-52.719265 822.2912 1301.9814 4286793802
-50.322937 822.2912 1301.9814 4287977819
2.3963304 822.2912 1301.9814 4291084742
4.7926607 822.2912 1301.9814 4290756039
7.1889906 822.2912 1301.9814 4290756039
10.783486 822.2912 1301.9814 4290822088
14.377981 822.2912 1301.9814 4290756043
-57.291744 826.68701 1299.1478 4286005581
-54.904587 826.68701 1299.1478 4285939787
-52.517429 826.68701 1299.1478 4287055956
-50.130276 826.68701 1299.1478 4287779422
-46.549541 826.68701 1299.1478 4287778403
2.387156 826.68701 1299.1478 4290756041
14.322936 826.68701 1299.1478 4290886607
-57.291744 828.51196 1300.6866 4286136910
-54.904587 828.51196 1300.6866 4286400338
-52.517429 828.51196 1300.6866 4286859606
-50.130276 828.51196 1300.6866 4287451743
2.387156 828.51196 1300.6866 4290821582
4.774312 828.51196 1300.6866 4290492874
7.161468 828.51196 1300.6866 4290492874
10.742202 828.51196 1300.6866 4290557643
14.322936 828.51196 1300.6866 4290755278
-54.735779 836.0155 1301.7812 4286397517
-52.355965 835.10583 1301.0142 4286792531
-49.976147 834.19617 1300.2472 4287516766
-46.406422 834.19617 1300.2472 4288303205
2.3798165 835.10583 1301.0142 4290952904
4.7596331 836.0155 1301.7812 4291083725
7.1394496 836.0155 1301.7812 4290886346
10.709174 836.0155 1301.7812 4290492869
14.278899 836.0155 1301.7812 4290886859
-54.524769 842.17603 1300.4354 4286596434
-52.154129 842.17603 1300.4354 4286727506
-49.783485 842.17603 1300.4354 4286990422
-46.227524 842.17603 1300.4354 4287710554
-37.930275 842.17603 1300.4354 4289287522
0 842.17603 1300.4354 4290688197
16.594496 842.17603 1300.4354 4290755791
-55.710091 843.9884 1301.9636 4286269268
2.3706422 843.9884 1301.9636 4290622924
4.7412844 843.9884 1301.9636 4290689483
7.1119266 843.9884 1301.9636 4291478998
10.667891 843.9884 1301.9636 4290821568
14.223853 843.9884 1301.9636 4291018193
16.594496 843.9884 1301.9636 4291018193
-51.952293 848.30841 1299.066 4286663256
-47.229359 848.30841 1299.066 4287252315
-43.687157 848.30841 1299.066 4288304232
-2.3614678 848.30841 1299.066 4290492101
0 848.30841 1299.066 4290492620
-51.952293 850.11377 1300.5883 4286662491
-49.590824 850.11377 1300.5883 4287452006
-47.229359 850.11377 1300.5883 4287647841
0 850.11377 1300.5883 4290754506
-47.045872 856.21118 1299.1892 4287842906
-43.517433 856.21118 1299.1892 4288566882
-2.3522935 856.21118 1299.1892 4290886096
0 856.21118 1299.1892 4290819788
-43.517433 858.00952 1300.7056 4288236121
0 858.00952 1300.7056 4289896367
-43.738224 864.66888 1299.7804 4287450196
0 864.07172 1299.277 4285235603
-43.211929 871.40137 1300.225 4287582556
2.3357799 871.40137 1300.225 4285162087
9.3431196 871.40137 1300.225 4284899698
-46.715595 873.18713 1301.7306 4286991696
2.3357799 873.18713 1301.7306 4286478201
4.6715598 873.18713 1301.7306 4289174182
7.0073395 873.18713 1301.7306 4289042595
-46.532108 880.07135 1300.9951 4287319889
2.3266056 880.07135 1300.9951 4288650923
4.6532111 880.07135 1300.9951 4289176760
10.469725 880.07135 1300.9951 4286938513
13.959633 879.18201 1300.2452 4283846481
-46.348625 886.92059 1300.2301 4287053903
2.3174312 886.92059 1300.2301 4289240499
-46.348625 888.69226 1301.7239 4286988873
2.3174312 888.69226 1301.7239 4284375930
-43.891743 892.37476 1299.5967 4286792003
-41.58165 892.37476 1299.5967 4287511111
-43.891743 894.14087 1301.0858 4286857544
2.3100917 894.14087 1301.0858 4286413691
-55.222019 900.04034 1299.52 4284492341
-52.921101 900.04034 1299.52 4285413443
-49.086243 900.62671 1300.0144 4285872196
-46.018349 900.91992 1300.2616 4286395975
-43.71743 900.91992 1300.2616 4286461768
-40.64954 900.62671 1300.0144 4287312710
-36.814678 900.04034 1299.52 4287772486
-34.51376 900.04034 1299.52 4288627795
-29.911926 900.04034 1299.52 4289087312
0 900.04034 1299.52 4289701804
6.9027524 901.79944 1301.0032 4290228932
-43.543118 907.66394 1299.408 4286659147
-41.251377 907.66394 1299.408 4287182925
-37.813759 907.66394 1299.408 4287445836
-34.376148 907.66394 1299.408 4287905871
-32.084404 907.66394 1299.408 4288429646
-29.79266 907.66394 1299.408 4289022039
2.291743 907.66394 1299.408 4290623941
-45.834862 909.41602 1300.8851 4286461516
-43.543118 909.41602 1300.8851 4286461516
-41.251377 909.41602 1300.8851 4287053135
2.291743 909.41602 1300.8851 4290361283
4.5834861 909.41602 1300.8851 4290426054
6.8752294 909.41602 1300.8851 4290492103
-45.688072 914.78033 1300.1761 4286141275
-43.403671 914.78033 1300.1761 4286470240
-41.119267 914.78033 1300.1761 4286668387
2.2844036 914.78033 1300.1761 4290162877
11.422018 914.78033 1300.1761 4290295742
-45.688072 916.52679 1301.6487 4285551453
2.2844036 916.52679 1301.6487 4290031548
10.279816 916.52679 1301.6487 4290361015
13.706422 916.52679 1301.6487 4290295742
-45.504585 922.32391 1299.9966 4282923333
2.2752295 922.32391 1299.9966 4290163388
10.238532 922.32391 1299.9966 4290294725
13.651376 922.32391 1299.9966 4290426556
-47.779816 924.06335 1301.4633 4283649098
2.2752295 924.06335 1301.4633 4289701806
4.5504589 924.06335 1301.4633 4289833402
10.238532 924.06335 1301.4633 4290031550
13.651376 924.06335 1301.4633 4290031287
-46.113758 928.21289 1299.7299 4284566857
-2.26789 927.63501 1299.2426 4290094511
0 927.63501 1299.2426 4289963949
-45.21101 934.65179 1299.9269 4284895823
-2.2605505 934.65179 1299.9269 4285355859
0 934.65179 1299.9269 4285617480
-45.21101 936.38 1301.384 4284372307
-42.776146 942.94519 1300.3794 4283651927
13.508257 943.80579 1301.1051 4285880920
15.759633 943.80579 1301.1051 4285815127
-43.758713 949.88757 1301.0011 4289832890
-46.93211 956.38263 1299.9373 4288517031
-44.697247 956.38263 1299.9373 4288978597
-49.166973 958.09119 1301.3779 4288977567
-46.93211 958.09119 1301.3779 4288977567
2.2348623 958.09119 1301.3779 4285289299
4.4697247 958.09119 1301.3779 4285355861
-46.777981 961.55334 1299.0651 4289044131
-43.436699 961.55334 1299.0651 4289044390
2.2275229 961.55334 1299.0651 4285486677
24.502752 961.55334 1299.0651 4284895823
-46.777981 964.10779 1301.2189 4289176487
-43.436699 964.10779 1301.2189 4288780975
-15.592661 964.95929 1301.9368 4290228652
-13.365138 964.95929 1301.9368 4291543493
-11.137614 964.95929 1301.9368 4292464595
1.1137614 964.10779 1301.2189 4285224267
22.275229 964.95929 1301.9368 4284961614
-33.302753 968.39911 1299.605 4288978345
-31.082569 968.39911 1299.605 4289174184
-28.862385 968.39911 1299.605 4289305513
24.422018 968.39911 1299.605 4285223760
-54.374313 760.58594 1303.5825 4285097079
-51.902752 760.58594 1303.5825 4286610061
9.8862381 760.58594 1303.5825 4291610330
-54.172478 769.89636 1304.8926 4286676084
-51.710091 768.95508 1304.0989 4287203201
-52.335163 775.71918 1303.2622 4289566366
-49.06422 774.46881 1302.2079 4290420403
-46.611008 774.46881 1302.2079 4289499301
9.8128443 775.40662 1302.9985 4291282136
12.266055 776.34436 1303.7893 4291282137
-52.546791 782.76428 1302.6622 4286921538
-48.880733 782.76428 1302.6622 4288301921
-46.436699 782.76428 1302.6622 4288367714
2.4440367 782.76428 1302.6622 4291347930
4.8880734 782.76428 1302.6622 4291282646
7.3321099 782.76428 1302.6622 4291348439
9.7761469 782.76428 1302.6622 4291283417
12.220183 782.76428 1302.6622 4291678174
-56.212845 784.63281 1304.2377 4286266690
-52.546791 784.63281 1304.2377 4287841095
4.8880734 784.63281 1304.2377 4290822095
7.3321099 784.63281 1304.2377 4291282646
9.7761469 784.63281 1304.2377 4291283419
12.220183 784.63281 1304.2377 4291217626
-51.132111 791.0177 1303.0812 4287252054
-48.697247 791.0177 1303.0812 4287774042
2.4348624 791.0177 1303.0812 4291413975
-56.001835 792.87921 1304.6508 4286268246
-53.566971 792.87921 1304.6508 4286658127
2.4348624 792.87921 1304.6508 4291545557
14.609175 792.87921 1304.6508 4291544789
-63.020184 799.75439 1302.5996 4286006859
-58.172478 799.75439 1302.5996 4286202955
-55.748623 799.75439 1302.5996 4285874246
-53.324772 799.75439 1302.5996 4286659383
2.4238532 799.75439 1302.5996 4291873502
-60.596329 801.60742 1304.162 4286070092
-58.172478 801.60742 1304.162 4286136910
-55.748623 801.60742 1304.162 4286136910
4.8477063 801.60742 1304.162 4291280339
7.2715597 801.60742 1304.162 4291609047
9.6954126 801.60742 1304.162 4291871957
12.119267 801.60742 1304.162 4291937751
-61.57431 807.91943 1302.9438 4285676363
-57.952293 807.91943 1302.9438 4286266953
-55.537613 807.91943 1302.9438 4286661711
-53.122936 807.91943 1302.9438 4287120454
4.8293576 807.91943 1302.9438 4290953425
7.2440367 808.84247 1303.7222 4290821583
9.6587152 807.91943 1302.9438 4290952402
12.073395 807.91943 1302.9438 4290952402
-60.137615 816.96185 1304.0281 4286005837
-55.326607 816.04236 1303.2528 4286531154
-52.921101 816.04236 1303.2528 4286924116
7.2165136 816.96185 1304.0281 4290690251
9.6220188 816.04236 1303.2528 4290887629
12.027523 816.04236 1303.2528 4290887629
-62.304588 824.12317 1303.5262 4286070855
-59.908257 824.12317 1303.5262 4286268235
4.7926607 824.12317 1303.5262 4290492872
7.1889906 824.12317 1303.5262 4290427078
10.783486 824.12317 1303.5262 4290360518
-57.291744 830.33698 1302.2253 4286136910
-54.904587 830.33698 1302.2253 4286334545
2.387156 830.33698 1302.2253 4290165187
4.774312 830.33698 1302.2253 4290361285
7.161468 830.33698 1302.2253 4290492872
10.742202 830.33698 1302.2253 4290558662
14.322936 830.33698 1302.2253 4290754508
-57.291744 832.16199 1303.7642 4286135887
-54.904587 832.16199 1303.7642 4286727768
4.774312 832.16199 1303.7642 4290755526
7.161468 832.16199 1303.7642 4290689733
10.742202 832.16199 1303.7642 4290755525
14.322936 832.16199 1303.7642 4290689994
-57.115597 838.74463 1304.0823 4286003785
2.3798165 838.74463 1304.0823 4290951367
4.7596331 838.74463 1304.0823 4290820300
7.1394496 838.74463 1304.0823 4290951886
10.709173 838.74463 1304.0823 4290887625
14.278899 838.74463 1304.0823 4290689996
-55.710091 845.80078 1303.4917 4286203475
-49.783485 845.80078 1303.4917 4286860891
2.3706422 845.80078 1303.4917 4290623949
4.7412844 845.80078 1303.4917 4290689996
7.1119266 845.80078 1303.4917 4290689996
10.667891 845.80078 1303.4917 4290755528
-51.952293 851.91919 1302.1105 4286596950
-49.590824 851.91919 1302.1105 4287189087
-47.229359 851.91919 1302.1105 4287647071
-51.952293 853.72449 1303.6327 4286662741
-49.590824 853.72449 1303.6327 4287123292
2.3614678 853.72449 1303.6327 4291214545
-47.045872 859.80786 1302.2218 4287711569
-47.045872 861.6062 1303.7382 4287319892
2.3522935 861.6062 1303.7382 4283656570
4.704587 861.6062 1303.7382 4284637281
-46.862385 869.44574 1303.8081 4287319892
2.3431194 867.65442 1302.2977 4284766580
4.6862388 868.55005 1303.053 4284373097
7.0293579 868.55005 1303.053 4284702062
-51.387157 874.97284 1303.2363 4285742674
-49.051376 874.97284 1303.2363 4286795105
-46.715595 874.97284 1303.2363 4287057239
4.6715598 874.97284 1303.2363 4288583580
7.0073395 874.97284 1303.2363 4288912288
-51.387157 876.75854 1304.7419 4285742154
-49.051376 876.75854 1304.7419 4286860891
7.0073395 876.75854 1304.7419 4289768896
-48.858715 883.62878 1303.9946 4286530642
-46.532108 882.73938 1303.2448 4287315530
2.3266056 882.73938 1303.2448 4290226113
4.6532111 884.51813 1304.7445 4286612125
6.9798164 884.51813 1304.7445 4282993766
-46.348625 890.46399 1303.2178 4286792003
2.3174312 890.46399 1303.2178 4282992469
4.6348624 890.46399 1303.2178 4283981426
-48.666054 892.23566 1304.7117 4286070857
-46.348625 892.23566 1304.7117 4286660165
4.6348624 892.23566 1304.7117 4290225055
6.9522934 892.23566 1304.7117 4291277999
9.2697248 892.23566 1304.7117 4290689733
-48.511925 895.90692 1302.575 4285938250
-46.201836 895.90692 1302.575 4286594371
2.3100917 895.90692 1302.575 4289243333
4.6201835 895.90692 1302.575 4290426056
6.9302754 895.90692 1302.575 4291215829
2.3100917 897.67303 1304.0641 4289965233
4.6201835 897.67303 1304.0641 4290556613
6.9302754 897.67303 1304.0641 4290688199
10.395412 897.67303 1304.0641 4290296003
-55.222019 903.55847 1302.4865 4284691781
-49.086239 904.7312 1303.4752 4285741126
-46.018349 904.43799 1303.228 4286330439
-43.71743 903.55847 1302.4865 4286396745
2.3009174 903.55847 1302.4865 4290294977
4.6018348 904.43799 1303.228 4290097348
6.9027524 904.43799 1303.228 4290360520
10.354128 905.31757 1303.9696 4290558146
-48.126606 911.16803 1302.3624 4284954691
-45.834862 911.16803 1302.3624 4285806412
2.291743 911.16803 1302.3624 4290163391
4.5834861 911.16803 1302.3624 4290097091
6.8752294 911.16803 1302.3624 4290426056
10.312843 911.16803 1302.3624 4290295744
-48.126606 912.92004 1303.8397 4285879123
4.5834861 912.92004 1303.8397 4290162623
6.8752294 912.92004 1303.8397 4290491588
9.1669722 912.92004 1303.8397 4290163900
13.750459 912.92004 1303.8397 4290295488
-47.972477 919.14648 1303.8574 4282398783
2.2844036 918.27325 1303.1212 4289900986
4.5688071 919.14648 1303.8574 4290162883
6.8532109 919.14648 1303.8574 4290031297
10.279816 918.27325 1303.1212 4290032570
2.2752295 925.80273 1302.9298 4289898156
10.238532 925.80273 1302.9298 4290162103
13.651376 925.80273 1302.9298 4289965494
-47.779816 927.54224 1304.3965 4285224273
2.2752295 927.54224 1304.3965 4289831064
11.376146 927.54224 1304.3965 4290226867
13.651376 927.54224 1304.3965 4289637044
15.926605 927.54224 1304.3965 4289702838
-46.869724 931.6806 1302.6537 4284961358
2.26789 932.83643 1303.6283 4286275666
-45.21101 938.10822 1302.8412 4284571747
2.2605505 938.10822 1302.8412 4285355859
-56.51376 939.83643 1304.2983 4283450440
-45.21101 939.83643 1304.2983 4284308831
4.521101 939.83643 1304.2983 4285552470
-45.027523 947.24817 1304.0076 4288977834
-42.776146 945.52698 1302.5563 4286872705
6.7541285 946.38757 1303.282 4285290576
9.7559633 946.6745 1303.5238 4285290066
13.508257 946.38757 1303.282 4285421652
15.759633 945.52698 1302.5563 4285618775
-47.124771 952.461 1303.1709 4288319903
-44.880733 952.461 1303.1709 4288913072
7.8541284 954.17657 1304.6174 4285421648
11.220183 954.17657 1304.6174 4285356622
-49.166973 959.7998 1302.8186 4288978337
4.4697247 959.7998 1302.8186 4285355861
22.348623 959.7998 1302.8186 4284895823
-51.401836 961.50836 1304.2592 4289043881
-49.166973 961.50836 1304.2592 4289110437
4.4697247 961.50836 1304.2592 4285289553
6.704587 961.50836 1304.2592 4285289553
22.348623 961.50836 1304.2592 4284633935
-43.065445 967.22998 1303.8513 4288519082
-40.095413 967.51379 1304.0906 4288847786
-37.867889 967.51379 1304.0906 4288979372
-34.897858 967.79761 1304.33 4289044391
-31.185322 968.36523 1304.8086 4289044390
-28.957798 968.36523 1304.8086 4288978597
-25.987768 967.22998 1303.8513 4288912807
-22.275229 967.51379 1304.0906 4288583590
-20.047707 967.51379 1304.0906 4288517797
-16.706421 967.51379 1304.0906 4288255125
-13.365138 966.66229 1303.3727 4288846499
-11.137614 967.51379 1304.0906 4290360246
-7.7963305 967.51379 1304.0906 4287923872
-4.4550457 967.51379 1304.0906 4284368975
-2.2275229 967.51379 1304.0906 4285026904
0 967.51379 1304.0906 4285027922
22.275229 966.66229 1303.3727 4285223760
9.930275 754.47314 1306.2765 4292003292
-57.099083 756.37109 1307.8767 4284702824
-54.374313 763.42023 1305.9723 4284900469
-51.902752 763.42023 1305.9723 4286413451
-55.610092 765.30975 1307.5654 4285164659
-55.403671 771.77887 1306.4799 4287793039
-56.423855 778.21985 1305.3706 4286994276
-53.970642 778.21985 1305.3706 4287321438
-63.783485 780.09534 1306.952 4285415251
-61.330276 780.09534 1306.952 4285086287
-58.877064 780.09534 1306.952 4285740850
-56.423855 780.09534 1306.952 4285609008
-61.100918 788.36975 1307.3887 4286071887
-58.656879 788.36975 1307.3887 4286137682
-56.212845 787.43555 1306.6008 4286071116
-53.768806 787.43555 1306.6008 4286659147
4.8880734 787.43555 1306.6008 4291216340
7.3321099 787.43555 1306.6008 4291545305
9.7761469 787.43555 1306.6008 4291545562
12.220183 787.43555 1306.6008 4291479512
-63.306423 794.74066 1306.2202 4285679693
-60.871559 794.74066 1306.2202 4285613900
-58.436699 794.74066 1306.2202 4286138195
-56.001835 794.74066 1306.2202 4285743437
2.4348624 794.74066 1306.2202 4291611098
4.8697248 794.74066 1306.2202 4291611098
7.3045874 794.74066 1306.2202 4291545305
13.391743 794.74066 1306.2202 4291412693
-60.871559 796.60217 1307.7898 4286006859
4.8697248 796.60217 1307.7898 4291939547
7.3045874 796.60217 1307.7898 4292202976
9.7394495 796.60217 1307.7898 4291675094
12.174312 796.60217 1307.7898 4291675094
-63.020184 803.46051 1305.7245 4285544780
-60.596329 803.46051 1305.7245 4285873744
7.2715597 803.46051 1305.7245 4291412692
9.6954126 803.46051 1305.7245 4291543506
12.119267 803.46051 1305.7245 4291609299
-64.70092 827.78723 1306.6156 4285417039
-62.304588 826.87122 1305.8433 4285676873
-59.908257 826.87122 1305.8433 4286071631
-57.291744 833.987 1305.303 4286134602
-59.678898 835.81201 1306.8418 4285807418
-59.495415 841.47369 1306.3834 4285482569
-61.875229 843.29309 1307.9175 4285417035
-59.495415 843.29309 1307.9175 4285548877
14.278899 843.29309 1307.9175 4291280852
16.658716 843.29309 1307.9175 4291017680
-55.710091 847.61316 1305.0199 4285679445
2.3706422 847.61316 1305.0199 4291017934
4.7412844 847.61316 1305.0199 4290886607
7.1119266 847.61316 1305.0199 4290755278
10.667891 847.61316 1305.0199 4290689481
14.223853 847.61316 1305.0199 4290755276
-55.710091 849.42554 1306.5481 4285679445
2.3706422 849.42554 1306.5481 4291016910
4.7412844 849.42554 1306.5481 4290491338
7.1119266 849.42554 1306.5481 4290754254
10.667891 849.42554 1306.5481 4290492615
14.223853 849.42554 1306.5481 4290689994
-51.952293 856.43256 1305.916 4286398800
-49.590824 856.43256 1305.916 4286596180
-47.229359 855.52991 1305.1549 4287908179
2.3614678 856.43256 1305.916 4289964968
4.7229357 857.33521 1306.6772 4289834928
-47.045872 863.40454 1305.2545 4287385937
2.3522935 863.40454 1305.2545 4284440710
4.704587 863.40454 1305.2545 4283980891
7.056881 863.40454 1305.2545 4284178526
9.409174 863.40454 1305.2545 4285492058
-47.045872 865.20288 1306.7708 4287385941
-49.205505 871.23706 1305.3186 4287121758
-56.234863 873.02844 1306.829 4286075230
-53.891743 873.02844 1306.829 4285285971
-51.387157 878.54431 1306.2477 4286004810
-49.051376 878.54431 1306.2477 4287123292
7.0073395 878.54431 1306.2477 4289702849
14.014679 878.54431 1306.2477 4284962900
4.6715598 880.33002 1307.7534 4289242300
7.0073395 880.33002 1307.7534 4286610580
10.511009 880.33002 1307.7534 4283392631
14.014679 880.33002 1307.7534 4288054403
-51.185322 886.29688 1306.2443 4285805889
-48.858715 886.29688 1306.2443 4286661198
4.6532111 886.29688 1306.2443 4281877850
6.9798164 886.29688 1306.2443 4284377727
-52.348625 888.07556 1307.744 4285283397
-48.858715 888.07556 1307.744 4286070344
6.9798164 888.07556 1307.744 4287665834
9.3064222 888.07556 1307.744 4289833144
-55.618347 894.00739 1306.2054 4284691781
-53.300919 894.00739 1306.2054 4285086539
10.42844 894.00739 1306.2054 4290558146
13.904587 895.77905 1307.6993 4290361285
16.222019 895.77905 1307.6993 4290295492
-50.822018 899.43909 1305.5532 4285806916
2.3100917 899.43909 1305.5532 4290557635
4.6201835 899.43909 1305.5532 4290097345
10.395412 899.43909 1305.5532 4290755525
13.860551 899.43909 1305.5532 4290557892
-50.822018 901.2052 1307.0424 4285806916
10.395412 901.2052 1307.0424 4290754756
13.860551 901.2052 1307.0424 4290623426
-52.921101 908.83569 1306.936 4284562241
-49.469727 907.95618 1306.1945 4285347396
10.354128 907.07666 1305.4529 4290361537
13.805505 907.95618 1306.1945 4290361536
-48.126606 914.67212 1305.317 4285157710
4.5834861 914.67212 1305.317 4290031552
6.8752294 914.67212 1305.317 4290755276
-50.41835 916.42419 1306.7943 4282399549
-54.825687 923.51257 1307.5389 4283187012
-52.541283 923.51257 1307.5389 4283910991
-50.256882 922.63934 1306.8027 4283977289
4.5688071 923.51257 1307.5389 4289963956
6.8532109 922.63934 1306.8027 4289964728
-50.055046 929.28162 1305.8632 4284632650
2.2752295 929.28162 1305.8632 4289369731
4.5504589 929.28162 1305.8632 4289437338
13.651376 929.28162 1305.8632 4290226867
15.926605 929.28162 1305.8632 4290424246
-52.330276 931.02106 1307.3298 4284039751
-50.055046 931.02106 1307.3298 4283908159
4.5504589 931.02106 1307.3298 4286145375
6.8256879 931.02106 1307.3298 4286605926
10.238532 931.02106 1307.3298 4287396984
13.651376 931.02106 1307.3298 4289302419
15.926605 931.02106 1307.3298 4289762970
-47.625687 934.57031 1305.0902 4284174933
2.26789 934.57031 1305.0902 4285880922
4.53578 934.57031 1305.0902 4285684560
18.14312 934.57031 1305.0902 4289634705
-56.697247 936.30408 1306.5521 4283318591
-49.893578 936.30408 1306.5521 4284176982
-47.625687 936.30408 1306.5521 4284439897
4.53578 936.30408 1306.5521 4285159250
13.60734 936.30408 1306.5521 4285094990
15.875229 936.30408 1306.5521 4285686870
18.14312 936.30408 1306.5521 4286276961
-54.253212 941.56458 1305.7556 4282857799
-45.21101 941.56458 1305.7556 4282073664
4.521101 941.56458 1305.7556 4285618775
6.7816515 941.56458 1305.7556 4285684824
10.172478 941.56458 1305.7556 4285552982
-46.341286 943.29285 1307.2128 4283976797
11.302752 943.29285 1307.2128 4285355859
18.084404 943.29285 1307.2128 4285356374
-47.2789 948.96936 1305.4589 4289042091
10.131193 949.82996 1306.1846 4285421649
13.508257 948.96936 1305.4589 4285421652
7.8541284 955.89215 1306.064 4285290577
11.220183 955.89215 1306.064 4285159500
20.196331 955.89215 1306.064 4284961362
22.440367 955.89215 1306.064 4284698447
7.8541284 957.60773 1307.5105 4285158738
11.220183 957.60773 1307.5105 4285093201
20.196331 957.60773 1307.5105 4284895823
-51.401836 963.21692 1305.6998 4289044390
-49.166973 964.07123 1306.4202 4288651174
-46.93211 964.92554 1307.1404 4288783532
2.2348623 964.07123 1306.4202 4285158731
4.4697247 964.07123 1306.4202 4284961359
6.704587 964.07123 1306.4202 4285027152
17.878899 964.92554 1307.1404 4284893771
20.113762 964.07123 1306.4202 4284960335
-37.867889 970.06824 1306.2445 4288979880
-34.526604 970.06824 1306.2445 4288651946
-57.099083 758.26904 1309.4771 4284702824
-59.317432 767.19928 1309.1587 4285294204
-56.845871 767.19928 1309.1587 4285754755
-61.78899 769.08881 1310.7518 4286278256
-59.317432 769.08881 1310.7518 4285950588
-56.634861 773.66138 1308.0671 4288908179
-61.559631 775.54388 1309.6545 4286404447
-59.097248 775.54388 1309.6545 4286730848
-63.783485 781.97083 1308.5333 4286004810
-61.330276 781.97083 1308.5333 4286070603
-58.877064 781.97083 1308.5333 4286398019
-61.330276 783.84631 1310.1147 4286071889
-58.877064 783.84631 1310.1147 4286399053
-63.544952 790.23828 1308.9641 4285940049
-61.100918 790.23828 1308.9641 4286005842
-58.656879 790.23828 1308.9641 4286268246
4.8880734 790.23828 1308.9641 4291413973
7.3321099 790.23828 1308.9641 4291348180
9.7761469 790.23828 1308.9641 4291544791
12.220183 790.23828 1308.9641 4291610585
9.7761469 792.10675 1310.5396 4291150036
-64.523857 798.46362 1309.3594 4285281089
-62.304588 829.61926 1308.1604 4285743178
-59.908257 829.61926 1308.1604 4285874507
-62.304588 831.45123 1309.7051 4286004808
-59.908257 831.45123 1309.7051 4285807686
-59.678898 837.63696 1308.3806 4285677383
-59.495415 845.11249 1309.4515 4285548875
-59.495415 846.93188 1310.9856 4285482830
-55.710091 851.23792 1308.0762 4285679445
4.7412844 851.23792 1308.0762 4290887111
7.1119266 851.23792 1308.0762 4291150284
10.667891 851.23792 1308.0762 4290822088
14.223853 851.23792 1308.0762 4290624455
16.594496 851.23792 1308.0762 4290690248
-55.710091 853.05029 1309.6044 4285416526
4.7412844 853.05029 1309.6044 4290493123
7.1119266 853.05029 1309.6044 4290690246
10.667891 853.05029 1309.6044 4290690750
-54.313763 860.04333 1308.9606 4285743183
-51.952293 860.04333 1308.9606 4286333248
-49.590824 860.04333 1308.9606 4287122508
7.0844035 859.14062 1308.1995 4285887091
11.020184 859.74243 1308.7069 4287399024
-61.159634 868.79956 1309.8035 4285551957
-58.807339 868.79956 1309.8035 4285551957
-54.102753 868.79956 1309.8035 4285154128
-51.750458 868.79956 1309.8035 4285937741
-49.398167 867.00122 1308.2871 4287319394
-56.234863 874.8197 1308.3394 4284954702
-53.891743 874.8197 1308.3394 4285020495
-52.555046 883.00854 1310.0118 4285086017
10.511009 883.00854 1310.0118 4287858813
-52.348625 889.85425 1309.2438 4285283910
11.633027 889.85425 1309.2438 4290492353
13.959633 891.63293 1310.7435 4290557892
-55.618347 897.55078 1309.1931 4284756290
-53.300919 898.43665 1309.9401 4285085769
16.222019 898.43665 1309.9401 4290426305
-53.132111 902.97125 1308.5315 4285415251
13.860551 902.97125 1308.5315 4290492349
-50.822018 904.73737 1310.0205 4285345599
-55.222019 910.59479 1308.4192 4284433222
-52.921101 910.59479 1308.4192 4285157201
-50.620182 910.59479 1308.4192 4285681488
-55.222019 912.35388 1309.9025 4284172103
-52.921101 912.35388 1309.9025 4284698447
-50.620182 912.35388 1309.9025 4284960331
-55.001835 919.92834 1309.7489 4282923583
-52.710091 919.05231 1309.0103 4283712842
-50.41835 918.17627 1308.2716 4282924105
-54.825687 925.25903 1309.0115 4283579462
-52.541283 925.25903 1309.0115 4284500564
-50.256882 925.25903 1309.0115 4284763722
4.5688071 925.25903 1309.0115 4289634984
6.8532109 925.25903 1309.0115 4289963949
9.1376143 925.25903 1309.0115 4289963695
-57.110092 927.00549 1310.484 4283318341
-54.825687 927.00549 1310.484 4283645766
-52.541283 927.00549 1310.484 4284764503
6.8532109 927.00549 1310.484 4290029474
10.279816 927.00549 1310.484 4289963949
-54.605503 932.7605 1308.7964 4283513918
-52.330276 932.7605 1308.7964 4283711298
-50.055046 932.7605 1308.7964 4283648589
6.8256879 932.7605 1308.7964 4285552718
10.238532 932.7605 1308.7964 4286606941
13.651376 932.7605 1308.7964 4288449398
15.926605 932.7605 1308.7964 4288646776
-59.155964 934.49994 1310.2631 4283120955
-54.605503 934.49994 1310.2631 4283450442
-52.330276 934.49994 1310.2631 4284042580
6.8256879 934.49994 1310.2631 4285290579
10.238532 934.49994 1310.2631 4285093451
-58.965137 938.0379 1308.014 4283384647
-54.429359 938.0379 1308.014 4283385681
-52.161469 938.0379 1308.014 4284109147
-49.893578 938.0379 1308.014 4284110932
-47.625687 938.0379 1308.014 4284439897
6.8036699 938.0379 1308.014 4285749850
10.205505 938.0379 1308.014 4285552470
13.60734 938.0379 1308.014 4285420884
15.875229 938.0379 1308.014 4286078814
18.14312 938.0379 1308.014 4285947728
-58.965137 939.77173 1309.476 4283252809
-55.941284 940.92767 1310.4506 4282791749
-52.161469 940.63867 1310.2069 4282396737
-49.893578 940.63867 1310.2069 4282069827
-47.625687 939.77173 1309.476 4282663752
19.277065 940.63867 1310.2069 4285290324
22.6789 941.50555 1310.9379 4285225819
-55.383484 945.02106 1308.6699 4285292132
-51.992661 945.88513 1309.3984 4286410608
-47.471561 945.02106 1308.6699 4288645016
15.823853 945.02106 1308.6699 4285421652
13.508257 954.13293 1309.8126 4285159500
8.9761467 959.3233 1308.957 4285223760
11.220183 959.3233 1308.957 4285223760
13.46422 959.3233 1308.957 4285223506
17.952293 959.3233 1308.957 4284765268
20.196331 959.3233 1308.957 4284502097
8.9761467 961.03894 1310.4036 4285026896
11.220183 961.03894 1310.4036 4285026896
13.46422 961.03894 1310.4036 4285157978
16.830275 961.03894 1310.4036 4285092439
-46.93211 966.63409 1308.5811 4289505708
-43.952297 967.77313 1309.5415 4288847273
-40.227524 968.34265 1310.0217 4288848294
-31.288073 968.34265 1310.0217 4288782501
-29.053211 968.34265 1310.0217 4288782501
-24.583487 966.63409 1308.5811 4288913574
-15.644036 968.34265 1310.0217 4288386459
-13.409174 967.4884 1309.3014 4287729290
-11.174312 968.34265 1310.0217 4289308836
-7.8220181 968.34265 1310.0217 4287333020
-4.4697247 968.34265 1310.0217 4284238668
-2.2348623 968.34265 1310.0217 4284502097
0 968.34265 1310.0217 4284633683
17.878899 967.4884 1309.3014 4285026641
20.113762 967.4884 1309.3014 4284960849
22.348623 967.4884 1309.3014 4284763983
-58.340366 760.16699 1311.0774 4284505458
-59.58165 762.06494 1312.6776 4284111727
-64.260551 770.97833 1312.3451 4287000180
-61.78899 770.97833 1312.3451 4287658110
-59.317432 770.97833 1312.3451 4287658112
-64.260551 772.86786 1313.9382 4286404447
-62.304588 833.28326 1311.2498 4285610295
-62.304588 835.1153 1312.7944 4285677383
-59.495415 848.75128 1312.5198 4285416020
-64.007339 854.86267 1311.1324 4284825168
-61.636696 854.86267 1311.1324 4285152845
-59.266056 854.86267 1311.1324 4285218638
-55.710091 854.86267 1311.1324 4285349199
7.1119266 854.86267 1311.1324 4290690237
10.667891 854.86267 1311.1324 4290888367
-64.007339 856.67505 1312.6606 4284693581
-61.636696 856.67505 1312.6606 4284955720
-59.266056 856.67505 1312.6606 4285021514
-56.895412 856.67505 1312.6606 4285152072
-61.398167 862.75134 1311.2439 4285086527
-59.036697 862.75134 1311.2439 4285547078
-54.313763 862.75134 1311.2439 4286334032
-51.952293 862.75134 1311.2439 4286400840
-49.590824 862.75134 1311.2439 4286927184
-61.398167 864.5567 1312.7661 4285484615
-59.036697 864.5567 1312.7661 4285681994
-54.313763 864.5567 1312.7661 4285022268
-51.952293 864.5567 1312.7661 4286069070
-61.159634 870.5979 1311.3197 4285551435
-58.807339 871.49707 1312.0779 4285221448
14.058716 880.19373 1312.8706 4289568941
11.678899 885.68719 1312.2704 4291017162
14.014679 887.4729 1313.776 4290886344
-53.300919 902.86584 1313.6747 4284757574
16.222019 901.97998 1312.9277 4290492863
-55.222019 914.11292 1311.3856 4283055162
-52.921101 914.11292 1311.3856 4283187004
-55.222019 915.87201 1312.8689 4282923583
-58.057495 922.84839 1312.2111 4283382838
-58.252296 928.75195 1311.9565 4282989621
-54.825687 928.75195 1311.9565 4283842116
-58.252296 930.49841 1313.4292 4282397225
-49.893578 944.10632 1313.1307 4286935685
15.875229 944.97321 1313.8617 4285421652
19.277065 944.10632 1313.1307 4285290325
22.6789 944.10632 1313.1307 4285028441
13.508257 955.85413 1311.2639 4285158730
15.759633 955.85413 1311.2639 4285224523
18.011009 955.85413 1311.2639 4285027410
15.759633 957.57532 1312.7152 4285223506
-51.612843 962.75452 1311.8501 4288584872
8.9761467 962.75452 1311.8501 4285027408
11.220183 962.75452 1311.8501 4284830028
13.46422 962.75452 1311.8501 4284960851
15.708257 962.75452 1311.8501 4285157974
-49.368809 964.47009 1313.2966 4289176743
2.2440367 964.47009 1313.2966 4284765264
4.4880733 964.47009 1313.2966 4284632404
7.8541284 964.47009 1313.2966 4284895824
11.220183 964.47009 1313.2966 4285027658
13.46422 964.47009 1313.2966 4285158226
15.708257 964.47009 1313.2966 4285224019
-40.227524 970.05127 1311.4623 4288913574
-37.992661 970.05127 1311.4623 4289176745
-34.640366 970.05127 1311.4623 4288979115
-2.2348623 970.05127 1311.4623 4285026906
0 970.05127 1311.4623 4285093203
17.878899 970.05127 1311.4623 4284632150
20.113762 970.05127 1311.4623 4284566357
22.348623 970.05127 1311.4623 4284632404
-62.293579 759.36084 1316.9377 4284505440
-62.06422 763.96289 1314.278 4285556593
-64.022018 783.07397 1316.0037 4286006094
-64.453209 846.76196 1316.0745 4284627532
-62.066055 846.76196 1316.0745 4285152847
-61.875229 850.57068 1314.0537 4285481548
-59.495415 850.57068 1314.0537 4285547341
-64.007339 858.48737 1314.1887 4284823882
-61.636696 858.48737 1314.1887 4284889927
-59.266056 858.48737 1314.1887 4284955720
-56.895412 859.39355 1314.9529 4285807690
-56.675228 866.36206 1314.2883 4286009437
14.058716 881.98505 1314.381 4290949570
14.058716 883.77643 1315.8915 4291148487
-57.752293 911.8017 1315.9771 4283186498
-57.522934 917.63104 1314.3521 4282923062
-59.823853 919.39014 1315.8352 4282726190
-64.168808 926.93652 1315.6581 4282924609
-61.877064 926.06049 1314.9194 4282596154
-59.58532 925.18445 1314.1808 4282923583
-61.678898 933.99127 1316.3743 4283122502
-59.155964 939.71826 1314.663 4282792006
13.60734 946.70703 1315.3236 4285421902
15.875229 946.70703 1315.3236 4285487695
13.60734 948.4408 1316.7855 4285421902
15.875229 948.4408 1316.7855 4285356109
19.277065 948.4408 1316.7855 4285355859
22.6789 948.4408 1316.7855 4285027158
15.823853 951.9339 1314.4987 4285159500
18.084404 951.9339 1314.4987 4285158998
-49.368809 966.18567 1314.7432 4288847781
-47.124771 967.04346 1315.4664 4288847270
-43.758713 967.90125 1316.1897 4288978597
-31.416513 967.90125 1316.1897 4288847781
-29.172478 967.90125 1316.1897 4288847781
-25.806423 966.18567 1314.7432 4288847781
-22.440367 966.18567 1314.7432 4288452771
-20.196331 966.18567 1314.7432 4288452771
-16.830275 967.04346 1315.4664 4288386715
-11.220183 967.90125 1316.1897 4289833644
-7.8541284 967.90125 1316.1897 4287792278
-4.4880733 967.90125 1316.1897 4284632404
2.2440367 966.18567 1314.7432 4284436304
4.4880733 966.18567 1314.7432 4284566345
7.8541279 967.04346 1315.4664 4284829773
11.220183 966.18567 1314.7432 4285158224
