# .PCD v0.7 - Point Cloud Data file format
VERSION 0.7
FIELDS x y z rgb
SIZE 4 4 4 4
TYPE F F F U
COUNT 1 1 1 1
WIDTH 1160
HEIGHT 1
VIEWPOINT 0 0 0 1 0 0 0
POINTS 1160
DATA ascii
-52.517429 828.51196 1300.6866 4286663506
-50.130276 828.51196 1300.6866 4286729299
-46.549541 828.51196 1300.6866 4287187806
1.193578 828.51196 1300.6866 4291084493
4.774312 828.51196 1300.6866 4290821584
-49.976147 836.0155 1301.7812 4286529873
-46.009785 835.409 1301.2699 4287252056
1.1899083 835.10583 1301.0142 4290951885
4.7596331 836.0155 1301.7812 4290689483
7.1394496 836.0155 1301.7812 4290689483
10.709174 836.0155 1301.7812 4291148498
14.278899 836.0155 1301.7812 4290754256
-45.042202 842.17603 1300.4354 4287254364
1.1853211 842.17603 1300.4354 4291082959
4.7412844 842.17603 1300.4354 4290886609
7.1119266 842.17603 1300.4354 4290689231
10.667891 842.17603 1300.4354 4290623692
14.223853 842.17603 1300.4354 4290820301
16.594496 842.17603 1300.4354 4290557129
-46.227524 843.9884 1301.9636 4287123032
4.7412844 843.9884 1301.9636 4290886355
7.1119266 843.9884 1301.9636 4290689233
10.667891 843.9884 1301.9636 4290557642
14.223853 843.9884 1301.9636 4290754508
16.594496 843.9884 1301.9636 4290491336
-42.50642 848.30841 1299.066 4287777113
1.1807339 848.30841 1299.066 4290951887
-47.229359 850.11377 1300.5883 4286725971
-43.687157 850.11377 1300.5883 4287777886
4.7229357 850.11377 1300.5883 4290886094
7.0844035 850.11377 1300.5883 4290886094
-43.517433 856.21118 1299.1892 4287249231
1.1761467 856.21118 1299.1892 4290688711
-43.517433 858.00952 1300.7056 4287642451
1.1761467 858.00952 1300.7056 4290557635
-43.347702 864.96741 1300.0321 4287051334
1.1715597 864.96741 1300.0321 4290622918
4.6862388 865.86304 1300.7874 4290623436
-43.211929 871.40137 1300.225 4287517279
-39.708256 871.40137 1300.225 4287911009
1.16789 871.40137 1300.225 4291084241
4.6715598 871.40137 1300.225 4290689996
10.511009 871.40137 1300.225 4290754772
14.014679 871.40137 1300.225 4290885583
-46.715595 873.18713 1301.7306 4286597461
-44.379818 873.18713 1301.7306 4286926683
1.16789 873.18713 1301.7306 4290557643
4.6715598 873.18713 1301.7306 4290492099
7.0073395 873.18713 1301.7306 4290886857
9.3431196 873.18713 1301.7306 4290689998
14.014679 873.18713 1301.7306 4291082957
-46.532108 880.07135 1300.9951 4286532176
-44.205505 879.18201 1300.2452 4287058782
1.1633028 879.18201 1300.2452 4290623178
4.6532111 880.07135 1300.9951 4290623428
6.9798164 880.07135 1300.9951 4290689221
10.469725 879.18201 1300.2452 4290689229
13.959633 879.18201 1300.2452 4290557383
16.286238 879.18201 1300.2452 4290754506
-44.031193 886.92059 1300.2301 4287122251
0 886.92059 1300.2301 4290754757
-44.031193 888.69226 1301.7239 4286658879
-40.426605 892.37476 1299.5967 4287577171
-36.961468 892.37476 1299.5967 4287706704
-34.651375 892.37476 1299.5967 4288167255
-32.341286 892.37476 1299.5967 4288233802
1.1550459 892.37476 1299.5967 4290030018
6.9302754 892.37476 1299.5967 4289965505
10.395412 892.37476 1299.5967 4289636029
13.860551 892.37476 1299.5967 4289504441
16.170643 892.37476 1299.5967 4289570234
18.480734 892.37476 1299.5967 4289636031
-40.426605 894.14087 1301.0858 4287313229
-36.961468 894.14087 1301.0858 4287443521
-34.651375 894.14087 1301.0858 4288233037
-32.341286 894.14087 1301.0858 4288298830
0 894.14087 1301.0858 4289898686
6.9302754 894.14087 1301.0858 4289834174
10.395412 894.14087 1301.0858 4289833406
13.860551 894.14087 1301.0858 4289898686
16.170643 894.14087 1301.0858 4289898686
18.480734 894.14087 1301.0858 4289898686
-55.222019 901.79944 1301.0032 4284625736
-40.266056 901.79944 1301.0032 4286920523
-36.814678 901.79944 1301.0032 4287773771
-34.51376 900.91992 1300.2616 4287774282
-32.212845 900.91992 1300.2616 4288166988
-29.911926 900.04034 1299.52 4289022296
1.1504587 900.91992 1300.2616 4289898689
4.6018348 900.91992 1300.2616 4290096826
6.9027524 900.91992 1300.2616 4290162363
-37.813759 907.66394 1299.408 4287314509
-34.376148 907.66394 1299.408 4288102993
-32.084404 907.66394 1299.408 4288168525
-29.79266 907.66394 1299.408 4288365903
1.1458715 907.66394 1299.408 4290293703
-41.251377 909.41602 1300.8851 4286395975
-37.813759 909.41602 1300.8851 4287249997
-34.376148 909.41602 1300.8851 4287972690
-32.084404 909.41602 1300.8851 4288037970
1.1458715 909.41602 1300.8851 4286544005
1.1422018 914.78033 1300.1761 4286408297
-41.119267 916.52679 1301.6487 4286209132
-38.834862 916.52679 1301.6487 4286472305
2.2844036 916.52679 1301.6487 4288120198
4.5688071 916.52679 1301.6487 4287724939
-43.229359 922.32391 1299.9966 4283843159
-37.541283 922.32391 1299.9966 4285027423
1.1376147 922.32391 1299.9966 4286341984
4.5504589 922.32391 1299.9966 4286145111
6.8256879 922.32391 1299.9966 4285947476
9.1009178 922.32391 1299.9966 4285750354
1.1376147 924.06335 1301.4633 4285419858
4.5504589 924.06335 1301.4633 4285420357
6.8256879 924.06335 1301.4633 4285420357
10.238532 924.06335 1301.4633 4285617484
-43.089909 928.50189 1299.9735 4283055699
-40.822018 927.63501 1299.2426 4284569687
-37.042202 928.21289 1299.7299 4285031264
-9.0715599 928.50189 1299.9735 4288777627
-6.8036699 928.50189 1299.9735 4285290597
1.133945 928.50189 1299.9735 4285551705
4.53578 928.50189 1299.9735 4285289033
6.8036699 928.50189 1299.9735 4285420619
10.205505 928.50189 1299.9735 4285748820
-33.908257 934.65179 1299.9269 4285426290
-31.647707 934.65179 1299.9269 4284506985
-6.7816515 934.65179 1299.9269 4285095013
1.1302752 934.65179 1299.9269 4285224791
4.521101 934.65179 1299.9269 4285420106
11.302752 934.65179 1299.9269 4285222222
-36.168808 936.38 1301.384 4285097832
-33.908257 936.38 1301.384 4285887091
-29.387156 936.38 1301.384 4283518314
0 936.38 1301.384 4285290579
6.7816515 936.38 1301.384 4285025861
10.172478 936.38 1301.384 4285156429
-37.522934 942.65839 1300.1376 4285227377
1.1256881 943.80579 1301.1051 4285486164
6.7541285 942.94519 1300.3794 4285354070
1.1220183 949.88757 1301.0011 4285092689
4.4880733 949.88757 1301.0011 4285223500
6.73211 950.74536 1301.7244 4285157703
1.1174312 956.38263 1299.9373 4285092181
4.4697247 956.38263 1299.9373 4285420619
-40.227524 958.09119 1301.3779 4288651946
4.4697247 958.09119 1301.3779 4285420369
6.704587 958.09119 1301.3779 4285420369
-37.867889 961.55334 1299.0651 4289374125
-35.640366 961.55334 1299.0651 4289176241
-11.137614 961.55334 1299.0651 4291281883
2.2275229 961.55334 1299.0651 4284765268
-37.867889 964.10779 1301.2189 4289044398
-34.897858 964.3916 1301.4581 4288978093
-26.730276 964.95929 1301.9368 4288847531
-22.275229 964.95929 1301.9368 4288452523
-20.047707 964.95929 1301.9368 4288583852
-16.706421 964.95929 1301.9368 4288780202
-13.365138 964.10779 1301.2189 4290620608
-11.137614 964.10779 1301.2189 4292068055
-8.9100914 964.95929 1301.9368 4292003544
0 963.25635 1300.501 4284765264
20.047707 964.95929 1301.9368 4285025613
-28.862385 968.39911 1299.605 4288847529
-54.374313 760.58594 1303.5825 4287332761
-54.172478 769.89636 1304.8926 4286410891
-51.517429 774.46881 1302.2079 4287531671
-56.212845 782.76428 1302.6622 4286672262
-52.546791 782.76428 1302.6622 4286608779
-56.212845 784.63281 1304.2377 4286542729
-53.768806 784.63281 1304.2377 4286477449
-56.001835 791.0177 1303.0812 4286601576
-52.349541 791.0177 1303.0812 4287257455
2.4348624 791.0177 1303.0812 4291150295
4.8697248 791.0177 1303.0812 4291215059
7.3045874 791.0177 1303.0812 4291412438
9.7394495 791.0177 1303.0812 4291282137
12.174312 791.0177 1303.0812 4291216088
-60.871559 792.87921 1304.6508 4285549658
-58.436699 792.87921 1304.6508 4286072400
-56.001835 792.87921 1304.6508 4286138193
4.8697248 792.87921 1304.6508 4291150036
7.3045874 792.87921 1304.6508 4291281622
13.391743 792.87921 1304.6508 4291544537
-55.748623 799.75439 1302.5996 4286926183
-53.324772 799.75439 1302.5996 4286795609
-50.900917 799.75439 1302.5996 4286992989
7.2715597 799.75439 1302.5996 4291084754
12.119267 799.75439 1302.5996 4291412699
-55.748623 801.60742 1304.162 4286402398
-53.324772 801.60742 1304.162 4286664801
-57.952293 809.7655 1304.5005 4285215047
-55.537613 809.7655 1304.5005 4285938513
-53.122936 809.7655 1304.5005 4286135636
-49.903362 808.53485 1303.4628 4286856533
-55.326607 816.04236 1303.2528 4286400600
-52.921101 816.04236 1303.2528 4286663756
-49.312843 816.04236 1303.2528 4287123024
7.2165136 816.96185 1304.0281 4284770445
9.6220188 816.96185 1304.0281 4283718275
13.230276 816.96191 1304.0282 4282798189
16.838531 816.96185 1304.0281 4282733413
-62.304588 824.12317 1303.5262 4285218127
-59.908257 824.12317 1303.5262 4285481042
-55.115597 824.12317 1303.5262 4286138195
7.1889906 824.12317 1303.5262 4285429384
10.783486 824.12317 1303.5262 4282996592
14.377981 824.12317 1303.5262 4286473318
-57.291744 830.33698 1302.2253 4286006096
-54.904587 830.33698 1302.2253 4286006096
-52.517429 830.33698 1302.2253 4286597461
-50.130276 830.33698 1302.2253 4286860889
-47.743118 830.33698 1302.2253 4287187805
1.193578 830.33698 1302.2253 4290951626
4.774312 830.33698 1302.2253 4291215059
-57.291744 832.16199 1303.7642 4285940301
-54.904587 832.16199 1303.7642 4286203729
-52.517429 832.16199 1303.7642 4286729805
-50.130276 832.16199 1303.7642 4286861391
-47.743118 832.16199 1303.7642 4287253851
4.774312 832.16199 1303.7642 4290886605
7.161468 832.16199 1303.7642 4291084241
10.742202 832.16199 1303.7642 4290229447
14.322936 832.16199 1303.7642 4285954742
-52.355965 837.8349 1303.3153 4286463053
-49.976147 838.74463 1304.0823 4287055191
-47.596329 838.74463 1304.0823 4287056219
1.1899083 837.8349 1303.3153 4290886094
4.7596331 837.8349 1303.3153 4290820301
7.1394496 837.8349 1303.3153 4290754508
10.709174 837.8349 1303.3153 4290886348
-49.783485 845.80078 1303.4917 4286857042
-46.227524 845.80078 1303.4917 4286858325
4.7412844 845.80078 1303.4917 4290755024
7.1119266 845.80078 1303.4917 4290623438
10.667891 845.80078 1303.4917 4290622922
14.223853 845.80078 1303.4917 4290755276
16.594496 845.80078 1303.4917 4290492103
-47.229359 851.91919 1302.1105 4286393672
-44.867889 851.91919 1302.1105 4287183188
4.7229357 851.91919 1302.1105 4290622154
7.0844035 851.91919 1302.1105 4290819534
11.80734 851.91919 1302.1105 4290755276
-51.952293 853.72449 1303.6327 4286399557
-49.590824 853.72449 1303.6327 4286531143
-47.229359 853.72449 1303.6327 4287119182
4.7229357 853.72449 1303.6327 4290623178
7.0844035 853.72449 1303.6327 4291083473
10.626606 853.72449 1303.6327 4290887627
14.168807 853.72449 1303.6327 4290822095
-47.045872 859.80786 1302.2218 4287119450
-44.693577 859.80786 1302.2218 4287119450
4.704587 859.80786 1302.2218 4290623176
7.056881 859.80786 1302.2218 4290623176
-47.045872 861.6062 1303.7382 4286789200
4.704587 861.6062 1303.7382 4290623178
7.056881 861.6062 1303.7382 4290820301
10.585321 861.6062 1303.7382 4290820301
14.113762 861.6062 1303.7382 4290820301
-46.862385 869.44574 1303.8081 4286662741
4.6862388 867.65442 1302.2977 4290623436
7.0293579 868.55005 1303.053 4290821070
10.544037 867.65442 1302.2977 4290755026
14.058716 867.65442 1302.2977 4290886094
-46.715595 874.97284 1303.2363 4286532440
4.6715598 874.97284 1303.2363 4290492351
7.0073395 874.97284 1303.2363 4291018695
-49.051376 876.75854 1304.7419 4286596950
-46.532108 883.62878 1303.9946 4286662471
-46.348625 890.46399 1303.2178 4286461768
-44.031193 890.46399 1303.2178 4286395975
-46.348625 892.23566 1304.7117 4286395462
-44.031193 892.23566 1304.7117 4286395462
-40.426605 895.90692 1302.575 4287051856
-36.961468 895.90692 1302.575 4287905352
0 895.90692 1302.575 4289570236
6.9302754 895.90692 1302.575 4290163137
10.395412 895.90692 1302.575 4289898686
13.860551 895.90692 1302.575 4289898684
-55.442204 897.67303 1304.0641 4284625736
-53.132111 897.67303 1304.0641 4284691529
-46.201836 897.67303 1304.0641 4285804606
-43.891743 897.67303 1304.0641 4285870399
-40.426605 897.67303 1304.0641 4286986318
-36.961468 897.67303 1304.0641 4287643464
10.395412 897.67303 1304.0641 4290161857
13.860551 897.67303 1304.0641 4290424259
16.170643 897.67303 1304.0641 4290687688
18.480734 897.67303 1304.0641 4290754242
-57.522934 905.31757 1303.9696 4283969087
-55.222019 904.43799 1303.228 4284362814
-52.921101 904.43799 1303.228 4284494144
-50.620182 905.31757 1303.9696 4284888635
-46.018349 905.31757 1303.9696 4285608517
-43.71743 904.43799 1303.228 4285872199
-40.64954 904.14484 1302.9808 4286723658
-36.814678 903.55847 1302.4865 4287904072
1.1504587 903.55847 1302.4865 4290424775
4.6018348 904.43799 1303.228 4290360001
6.9027524 904.43799 1303.228 4289307313
-43.543118 911.16803 1302.3624 4285152845
-41.251377 911.16803 1302.3624 4285675334
-38.959633 911.16803 1302.3624 4286135885
1.1458715 911.16803 1302.3624 4284898152
-43.543118 912.92004 1303.8397 4284827468
-41.251377 912.92004 1303.8397 4285088856
-38.959633 912.92004 1303.8397 4285285978
4.5834861 912.92004 1303.8397 4286803316
6.8752294 912.92004 1303.8397 4286737523
9.1669722 912.92004 1303.8397 4286410357
-38.834862 918.27325 1303.1212 4284961898
6.8532109 918.27325 1303.1212 4286870393
10.66055 918.85541 1303.6121 4286343016
13.651376 925.80273 1302.9298 4285551955
15.926605 925.80273 1302.9298 4285486162
13.651376 927.54224 1304.3965 4285420369
15.926605 927.54224 1304.3965 4285420369
-43.089909 931.10266 1302.1664 4282726215
-40.822018 932.83643 1303.6283 4284503657
-37.420181 931.96948 1302.8973 4284833641
1.133945 931.10266 1302.1664 4285289816
4.53578 931.10266 1302.1664 4285354322
6.8036699 931.96954 1302.8973 4285420366
9.8275232 931.6806 1302.6537 4285222990
13.60734 931.96954 1302.8973 4285222989
15.875229 931.96954 1302.8973 4285288783
-40.689907 938.10822 1302.8412 4283714141
-37.299084 938.10822 1302.8412 4284767345
10.172478 938.10822 1302.8412 4285353808
-42.950459 939.83643 1304.2983 4284504407
-40.689907 939.83643 1304.2983 4284503905
10.172478 939.83643 1304.2983 4285353808
15.823853 939.83643 1304.2983 4285288269
-40.524769 946.38757 1303.282 4283715422
4.5027523 945.52698 1302.5563 4285354576
6.7541285 947.24817 1304.0076 4285026894
10.131193 947.24817 1304.0076 4285223491
13.508257 947.24817 1304.0076 4285091404
18.011009 947.24817 1304.0076 4285288528
-40.392662 952.461 1303.1709 4288781988
4.4880733 952.461 1303.1709 4285224010
6.73211 952.461 1303.1709 4285224010
6.73211 954.17657 1304.6174 4285486412
20.196331 954.17657 1304.6174 4284829526
22.440367 954.17657 1304.6174 4284698447
-42.462387 959.7998 1302.8186 4289243052
-40.227524 959.7998 1302.8186 4289242538
4.4697247 959.7998 1302.8186 4285026894
6.704587 959.7998 1302.8186 4285158224
20.113762 959.7998 1302.8186 4284829515
22.348623 959.7998 1302.8186 4284763722
-49.166973 961.50836 1304.2592 4288585892
-46.93211 961.50836 1304.2592 4288717478
-43.579819 961.50836 1304.2592 4288848044
-40.227524 961.50836 1304.2592 4288913324
2.2348623 961.50836 1304.2592 4284502349
4.4697247 961.50836 1304.2592 4284961101
6.704587 961.50836 1304.2592 4285026894
17.878899 961.50836 1304.2592 4285157199
20.113762 961.50836 1304.2592 4285025613
22.348623 961.50836 1304.2592 4284960322
-34.526604 967.51379 1304.0906 4288978352
-31.185322 967.51379 1304.0906 4288847275
-28.957798 968.36523 1304.8086 4288847277
-25.616514 967.51379 1304.0906 4288715689
-22.275229 967.51379 1304.0906 4288715436
-20.047707 967.51379 1304.0906 4288780973
-16.706421 967.51379 1304.0906 4288648617
-13.365138 966.66229 1303.3727 4288517285
-11.137614 966.66229 1303.3727 4289240751
-7.7963305 967.51379 1304.0906 4289635768
-4.4550457 967.51379 1304.0906 4287989917
-2.2275229 967.51379 1304.0906 4284239716
-57.099083 756.37109 1307.8767 4286872453
-54.374313 763.42023 1305.9723 4287332752
-54.374313 765.30975 1307.5654 4286277504
-54.172478 771.77887 1306.4799 4286939534
-53.970642 778.21985 1305.3706 4286345346
-61.100918 787.43555 1306.6008 4286144870
-58.656879 787.43555 1306.6008 4286537588
-63.306423 794.74066 1306.2202 4285346887
-60.871559 794.74066 1306.2202 4285544009
-58.436699 794.74066 1306.2202 4285609289
-63.306423 796.60217 1307.7898 4284822335
-60.871559 796.60217 1307.7898 4285151300
-58.436699 796.60217 1307.7898 4285741652
-64.232109 803.46051 1305.7245 4284955981
-60.596329 803.46051 1305.7245 4285284433
-58.172478 803.46051 1305.7245 4285807697
-55.748623 803.46051 1305.7245 4285873490
-53.324772 803.46051 1305.7245 4286597463
-50.900917 803.46051 1305.7245 4287123807
-63.020184 805.3136 1307.2869 4285283150
-60.596329 805.3136 1307.2869 4284954185
-58.172478 805.3136 1307.2869 4285082691
-55.748623 805.3136 1307.2869 4285806414
-53.324772 805.3136 1307.2869 4286397008
-55.537613 811.61151 1306.057 4286400340
-53.122936 811.61151 1306.057 4286532438
-60.366974 813.45758 1307.6135 4285807697
7.2165136 819.7204 1306.354 4280830288
9.6220188 819.7204 1306.354 4282403426
12.027523 819.7204 1306.354 4282535012
-62.304588 826.87122 1305.8433 4285284685
-59.908257 826.87122 1305.8433 4285613650
-55.115597 825.9552 1305.0709 4285743689
7.1889906 826.87122 1305.8433 4289307575
10.783485 826.87122 1305.8433 4286413731
14.377981 826.87122 1305.8433 4284050033
-57.291744 833.987 1305.303 4285806412
-54.904587 833.987 1305.303 4285938254
-52.517429 833.987 1305.303 4286332495
-54.904587 835.81201 1306.8418 4286004047
-49.976147 841.47369 1306.3834 4287582048
-52.355965 843.29309 1307.9175 4286264905
-52.154129 847.61316 1305.0199 4286134350
-49.783485 847.61316 1305.0199 4286594901
10.667891 847.61316 1305.0199 4290623692
14.223853 847.61316 1305.0199 4290886859
16.594496 847.61316 1305.0199 4290886859
-52.154129 849.42554 1306.5481 4286200395
-49.783485 849.42554 1306.5481 4286397517
9.4825687 849.42554 1306.5481 4290557896
14.223853 849.42554 1306.5481 4290689996
16.594496 849.42554 1306.5481 4290755789
18.965137 849.42554 1306.5481 4290624721
-54.313763 857.33521 1306.6772 4285873744
-51.952293 856.43256 1305.916 4286464335
-49.590824 856.43256 1305.916 4286661714
-47.229359 855.52991 1305.1549 4287446612
4.7229357 855.52991 1305.1549 4290491849
7.0844035 855.52991 1305.1549 4290623436
10.626606 856.4325 1305.916 4290754765
14.168807 856.43256 1305.916 4290624975
-49.398167 863.40454 1305.2545 4285805385
-47.045872 863.40454 1305.2545 4286659663
7.056881 863.40454 1305.2545 4291083987
10.585321 863.40454 1305.2545 4290886094
14.113762 863.40454 1305.2545 4290886096
-49.398167 865.20288 1306.7708 4286334291
-47.045872 865.20288 1306.7708 4286793300
-49.205505 871.23706 1305.3186 4286400852
-49.205505 873.02844 1306.829 4286400600
-49.051376 878.54431 1306.2477 4286400086
-51.387157 880.33002 1307.7534 4285742154
-49.051376 880.33002 1307.7534 4286268498
-46.532108 886.29688 1306.2443 4286264121
-52.348625 888.07556 1307.744 4285018692
-48.858715 888.07556 1307.744 4286398290
-55.618347 894.00739 1306.2054 4284625222
-53.300919 894.00739 1306.2054 4284822601
-49.824768 894.89325 1306.9524 4285215296
-46.348625 894.00739 1306.2054 4286001478
-44.031193 894.00739 1306.2054 4286001478
-53.132111 899.43909 1305.5532 4284625736
-49.666969 899.43909 1305.5532 4284954691
-46.201836 899.43909 1305.5532 4285806402
-43.891743 899.43909 1305.5532 4286135367
10.395412 899.43909 1305.5532 4290687945
13.860551 899.43909 1305.5532 4290162121
16.170643 899.43909 1305.5532 4289898949
18.480734 899.43909 1305.5532 4289964199
-49.666969 901.2052 1307.0424 4285085507
-46.201836 901.2052 1307.0424 4285806916
10.395412 901.2052 1307.0424 4288716206
13.860551 901.2052 1307.0424 4287267992
16.170643 901.2052 1307.0424 4285557631
18.480734 901.2052 1307.0424 4286342002
-57.522934 907.95618 1306.1945 4283839032
-55.222019 907.95618 1306.1945 4284166196
-52.921101 907.95618 1306.1945 4284429368
-49.469727 907.95618 1306.1945 4284626235
-46.018349 907.95618 1306.1945 4285216836
-43.71743 907.07666 1305.4529 4285806916
4.6018348 907.95618 1306.1945 4286013284
6.9027524 907.95618 1306.1945 4285486940
10.354128 907.95618 1306.1945 4285421402
-45.834862 914.67212 1305.317 4284500048
-43.543118 914.67212 1305.317 4285947494
6.8752294 914.67212 1305.317 4287659146
9.1669722 914.67212 1305.317 4287068805
-59.58532 916.42419 1306.7943 4283645005
-45.834862 916.42419 1306.7943 4283513416
-43.543118 916.42419 1306.7943 4284368725
13.750459 916.42419 1306.7943 4286277995
-57.110092 921.76611 1306.0664 4282725188
-45.688072 923.51257 1307.5389 4282266445
13.706422 921.76611 1306.0664 4286208338
18.275229 923.51257 1307.5389 4285419858
18.201836 929.28162 1305.8632 4285158224
-43.229359 931.02106 1307.3298 4283382862
19.339451 931.02106 1307.3298 4284895308
-43.089909 934.57031 1305.0902 4283186264
-40.822018 934.57031 1305.0902 4284240485
-38.554127 934.57031 1305.0902 4285556345
13.60734 934.57031 1305.0902 4285091404
15.875229 934.57031 1305.0902 4285354576
18.14312 934.57031 1305.0902 4285026126
-52.161469 936.30408 1306.5521 4282528836
-49.893578 936.30408 1306.5521 4282792006
-45.3578 936.30408 1306.5521 4282924357
-43.089909 936.30408 1306.5521 4283187786
13.60734 936.30408 1306.5521 4285354062
15.875229 936.30408 1306.5521 4285288269
18.14312 936.30408 1306.5521 4285157453
-42.950459 941.56458 1305.7556 4284176730
-40.689907 941.56458 1305.7556 4284503905
10.172478 941.56458 1305.7556 4285485642
15.823853 941.56458 1305.7556 4285288782
-45.21101 943.29285 1307.2128 4282861133
-42.950459 943.29285 1307.2128 4282729547
6.7816515 943.29285 1307.2128 4285157453
10.172478 943.29285 1307.2128 4285485630
13.563303 943.29285 1307.2128 4285157453
15.823853 943.29285 1307.2128 4285288782
-42.776146 949.82996 1306.1846 4287400349
-40.524769 948.96936 1305.4589 4286478983
10.131193 949.82996 1306.1846 4285026380
15.759633 950.69055 1306.9102 4284961101
19.136696 950.69055 1306.9102 4284697427
22.513762 950.69055 1306.9102 4285026124
-43.758713 955.89215 1306.064 4288716458
8.9761467 955.89215 1306.064 4284765264
11.220183 955.89215 1306.064 4284633935
13.46422 955.89215 1306.064 4284765518
16.830275 955.89215 1306.064 4284896338
20.196331 955.89215 1306.064 4284698193
22.440367 955.89215 1306.064 4284632652
24.684404 955.89215 1306.064 4284566859
-49.368809 957.60773 1307.5105 4288913828
-47.124771 957.60773 1307.5105 4289176743
-44.880733 957.60773 1307.5105 4289045929
8.9761467 957.60773 1307.5105 4285157712
11.220183 957.60773 1307.5105 4285289299
13.46422 957.60773 1307.5105 4285420619
16.830275 957.60773 1307.5105 4285092170
24.684404 957.60773 1307.5105 4284763722
-49.166973 964.07123 1306.4202 4288847787
-46.93211 964.07123 1306.4202 4288913579
-43.579819 964.07117 1306.4202 4288978605
-40.227524 964.07123 1306.4202 4289044142
-37.992661 964.92554 1307.1404 4289044142
1.1174312 964.07117 1306.42 4284896075
4.4697247 964.07123 1306.4202 4285091660
6.704587 964.07123 1306.4202 4285157453
17.878899 964.07123 1306.4202 4285090893
20.113762 964.92554 1307.1404 4285222222
-28.957798 970.06824 1306.2445 4288913072
-57.099083 758.26904 1309.4771 4286610821
-56.845871 767.19928 1309.1587 4286868860
-56.845871 769.08881 1310.7518 4287659144
-54.172478 773.66138 1308.0671 4287070086
-56.634861 775.54388 1309.6545 4286869125
-61.330276 781.97083 1308.5333 4285819753
-58.877064 781.97083 1308.5333 4285884543
-63.306423 798.46362 1309.3594 4284824136
-60.871559 798.46362 1309.3594 4285021516
-58.436699 798.46362 1309.3594 4285547089
-60.596329 808.09314 1309.6306 4285150027
-62.304588 829.61926 1308.1604 4285218127
-59.908257 829.61926 1308.1604 4285481042
-62.304588 831.45123 1309.7051 4285280838
-59.908257 831.45123 1309.7051 4285544009
-54.904587 839.46198 1309.9193 4286135367
-52.517429 838.54944 1309.1499 4286529360
-54.735779 845.11249 1309.4515 4285674312
-54.735779 846.93188 1310.9856 4285742154
-54.524769 851.23792 1308.0762 4285939789
16.594496 851.23792 1308.0762 4290690766
18.965137 851.23792 1308.0762 4290953434
-54.524769 853.05029 1309.6044 4285744723
16.594496 853.05029 1309.6044 4290625488
-55.100918 860.34424 1309.2142 4285411658
-51.952293 860.04333 1308.9606 4285935687
-49.590824 859.14062 1308.1995 4286395210
-51.750458 867.90039 1309.0453 4285808715
-49.398167 867.00122 1308.2871 4286400852
-51.548622 876.61108 1309.8499 4285742156
-56.058716 883.90143 1310.7646 4284954691
-52.555046 883.00854 1310.0118 4285085249
-49.051376 883.00854 1310.0118 4286069836
-55.838531 889.85425 1309.2438 4284625988
-52.348625 889.85425 1309.2438 4285150277
-48.858715 889.85425 1309.2438 4285740359
-57.93578 898.43665 1309.9401 4284232003
-48.511925 902.97125 1308.5315 4285085757
10.395412 902.97125 1308.5315 4286805631
13.860551 902.97125 1308.5315 4285224814
16.170643 902.97125 1308.5315 4285290607
18.480734 902.97125 1308.5315 4285684318
13.860551 904.73737 1310.0205 4285880409
16.170643 904.73737 1310.0205 4286143324
18.480734 904.73737 1310.0205 4286405728
-57.522934 910.59479 1308.4192 4283839806
-55.222019 910.59479 1308.4192 4284036921
-52.921101 910.59479 1308.4192 4284299837
-49.469727 910.59479 1308.4192 4284431943
-46.018349 910.59479 1308.4192 4284893261
11.504587 910.59479 1308.4192 4286541944
-57.522934 912.35388 1309.9025 4283841355
-55.222019 912.35388 1309.9025 4283775558
-52.921101 912.35388 1309.9025 4283907400
-49.469727 912.35388 1309.9025 4284236876
11.504587 912.35388 1309.9025 4287002756
13.805505 912.35388 1309.9025 4287395969
-58.439449 919.05231 1309.0103 4282856778
-55.001835 919.92834 1309.7489 4282725438
-52.710091 919.92834 1309.7489 4283054147
-50.41835 919.92834 1309.7489 4282792776
-45.834862 919.05231 1309.0103 4282462276
13.750459 918.17627 1308.2716 4285815376
16.042202 919.92834 1309.7489 4285747787
18.333944 919.92834 1309.7489 4285550158
-45.688072 925.25903 1309.0115 4282463043
19.417431 925.25903 1309.0115 4285354578
-45.688072 927.00549 1310.484 4282331457
20.559633 927.00549 1310.484 4285158224
22.844036 927.00549 1310.484 4284960322
-52.330276 932.7605 1308.7964 4282463293
-50.055046 932.7605 1308.7964 4282462791
-45.504585 932.7605 1308.7964 4282396748
20.477064 932.7605 1308.7964 4285026126
-55.743118 934.49994 1310.2631 4282463040
-47.779816 934.49994 1310.2631 4282594883
20.477064 934.49994 1310.2631 4285157453
-52.161469 938.0379 1308.014 4282990423
-49.893578 938.0379 1308.014 4283649098
-46.491745 938.0379 1308.014 4284044112
13.60734 938.0379 1308.014 4285288269
18.14312 938.0379 1308.014 4285091404
-52.161469 941.50555 1310.9379 4283123537
-49.893578 940.63867 1310.2069 4283189069
-46.869724 940.34967 1309.9633 4283583826
13.60734 939.77173 1309.476 4285157453
18.14312 940.63867 1310.2069 4285222989
-45.964527 946.17316 1309.6412 4285162611
-42.950459 945.02106 1308.6699 4284372578
13.563303 946.74927 1310.1271 4285157453
15.823853 945.88513 1309.3984 4285222989
19.21468 946.74927 1310.1271 4284829261
-45.027523 952.41174 1308.3615 4288715944
-42.776146 952.41174 1308.3615 4289110446
10.131193 952.41174 1308.3615 4284829778
13.508257 952.41174 1308.3615 4284896071
15.759633 952.41174 1308.3615 4285027658
18.011009 952.41174 1308.3615 4284895319
-49.530273 954.13293 1309.8126 4288518300
-47.2789 954.13293 1309.8126 4288715679
8.9761467 959.3233 1308.957 4285681488
11.220183 959.3233 1308.957 4285550158
13.46422 959.3233 1308.957 4285353029
15.708257 959.3233 1308.957 4285418822
25.806423 959.3233 1308.957 4284960071
8.9761467 961.03894 1310.4036 4285354062
11.220183 961.03894 1310.4036 4285288269
13.46422 961.03894 1310.4036 4285090634
15.708257 961.03894 1310.4036 4285156427
22.440367 961.03894 1310.4036 4285090874
25.806423 961.03894 1310.4036 4285090886
29.172478 961.03894 1310.4036 4284959568
-43.579819 966.63409 1308.5811 4289109165
-40.227524 967.4884 1309.3014 4288977835
-37.992661 967.4884 1309.3014 4288977835
-34.640366 968.34265 1310.0217 4289043888
-31.288073 968.34265 1310.0217 4288913072
-25.700916 968.34265 1310.0217 4288847531
-22.348623 968.34265 1310.0217 4289174958
-20.113762 968.34265 1310.0217 4289174958
-16.761467 968.34265 1310.0217 4288780970
-13.409174 967.4884 1309.3014 4288386215
-11.174312 967.4884 1309.3014 4288386215
-7.8220181 968.34265 1310.0217 4288847022
-4.4697247 968.34265 1310.0217 4287923858
-2.2348623 968.34265 1310.0217 4284173657
0 966.63409 1308.5811 4284895558
17.878899 967.4884 1309.3014 4284894543
20.113762 966.63409 1308.5811 4285091406
22.348623 967.4884 1309.3014 4284960075
-57.099083 760.16699 1311.0774 4287135111
-57.099083 762.06494 1312.6776 4286605940
-56.845871 770.97833 1312.3451 4287593616
-61.78899 772.86786 1313.9382 4285751912
-59.317432 772.86786 1313.9382 4285750645
-61.559631 777.42639 1311.2418 4285817957
-59.097248 777.42639 1311.2418 4285948539
-57.511925 833.28326 1311.2498 4285609289
-57.511925 835.1153 1312.7944 4285936966
-55.115597 835.1153 1312.7944 4286397517
-54.904587 841.28699 1311.4581 4285806150
-57.291744 843.112 1312.9969 4285674312
-57.115597 848.75128 1312.5198 4285676361
-56.895412 854.86267 1311.1324 4285544780
16.594496 854.86267 1311.1324 4290821584
-59.266056 856.67505 1312.6606 4284363072
-56.895412 856.67505 1312.6606 4285215047
16.594496 856.67505 1312.6606 4290886094
-61.398167 862.75134 1311.2439 4284690234
-55.494495 862.75134 1311.2439 4285610568
-51.952293 862.75134 1311.2439 4286202705
-61.398167 864.5567 1312.7661 4284824136
-59.036697 864.5567 1312.7661 4284889929
-55.494495 864.5567 1312.7661 4285284424
-68.216515 870.5979 1311.3197 4284827729
-54.102753 871.49707 1312.0779 4285349965
-51.750458 871.49707 1312.0779 4285939278
-53.891743 878.4024 1311.3602 4284825418
-56.234863 880.19373 1312.8706 4285022531
20.85688 902.86584 1313.6747 4286142813
13.860551 907.38647 1312.2542 4286408807
18.480734 907.38647 1312.2542 4286342762
-57.522934 914.11292 1311.3856 4283513162
-55.222019 914.11292 1311.3856 4283513414
-52.921101 914.11292 1311.3856 4283908172
-49.469727 914.11292 1311.3856 4283711815
16.106422 914.11292 1311.3856 4286014566
18.407339 914.11292 1311.3856 4286341734
-55.222019 915.87201 1312.8689 4282923079
-52.921101 915.87201 1312.8689 4283317837
-49.469727 915.87201 1312.8689 4283055430
16.106422 915.87201 1312.8689 4285552461
19.557798 915.87201 1312.8689 4285815129
-58.057495 922.2644 1311.7186 4282330927
-55.001835 922.5564 1311.9648 4282264894
-52.710091 922.5564 1311.9648 4282659652
-49.272476 922.5564 1311.9648 4282070082
20.625689 921.68036 1311.2262 4285419858
22.917431 923.43243 1312.7035 4285420619
-54.825687 928.75195 1311.9565 4282397250
-52.541283 928.75195 1311.9565 4282463043
-50.256882 928.75195 1311.9565 4282528836
-45.688072 928.75195 1311.9565 4282725188
22.844036 928.75195 1311.9565 4284368964
-57.110092 930.49841 1313.4292 4282398002
-54.825687 930.49841 1313.4292 4282529086
-47.972477 930.49841 1313.4292 4282331205
-55.743118 937.10901 1312.4631 4282596685
-52.330276 937.97876 1313.1964 4283189331
20.477064 937.10907 1312.4631 4284959818
-52.161469 944.97321 1313.8617 4284766813
-49.893578 944.10632 1313.1307 4283320656
-47.625687 943.23938 1312.3998 4282991434
20.411009 943.23938 1312.3998 4285157199
22.6789 943.23938 1312.3998 4285091404
-49.732109 949.34155 1312.3129 4287137412
-46.718044 949.05353 1312.0699 4287663762
13.563303 948.47742 1311.5842 4284961101
-51.612843 962.75452 1311.8501 4289109933
8.9761467 962.75452 1311.8501 4285157199
11.220183 962.75452 1311.8501 4285157199
13.46422 962.75452 1311.8501 4285156427
15.708257 962.75452 1311.8501 4285156427
22.440367 962.75452 1311.8501 4285090884
24.684404 962.75452 1311.8501 4285156933
-51.612843 964.47009 1313.2966 4289109935
-49.368809 964.47009 1313.2966 4289109933
-47.124771 964.47009 1313.2966 4289044140
2.2440367 964.47009 1313.2966 4284895558
4.4880733 964.47009 1313.2966 4285026894
7.8541284 964.47009 1313.2966 4285157711
11.220183 964.47009 1313.2966 4285091406
13.46422 964.47009 1313.2966 4285025613
15.708257 964.47009 1313.2966 4285025613
-34.640366 970.05127 1311.4623 4288912815
-31.288073 970.05127 1311.4623 4289110198
-29.053211 970.05127 1311.4623 4289044405
-24.583487 970.05127 1311.4623 4288978347
-22.348623 970.05127 1311.4623 4288978347
-20.113762 970.05127 1311.4623 4288978347
-16.761467 970.05127 1311.4623 4288715429
-8.9394493 970.05127 1311.4623 4288846247
-59.801834 757.45593 1315.3315 4285885045
-59.801834 759.36084 1316.9377 4285948010
-59.58165 763.96289 1314.278 4286145393
-64.546791 765.86084 1315.8783 4285685864
-62.06422 765.86084 1315.8783 4286475637
-59.58165 765.86084 1315.8783 4287001213
-61.340366 830.75458 1315.6578 4285019978
-57.511925 836.94727 1314.3391 4285477438
-58.710091 838.7793 1315.8839 4285346117
-57.291744 844.93701 1314.5358 4285676361
-57.115597 850.57068 1314.0537 4285218379
-59.495415 852.39001 1315.5879 4284823369
-66.377983 859.39355 1314.9529 4285021516
-64.007339 859.39355 1314.9529 4284626758
-61.636696 858.48737 1314.1887 4284494138
-59.266056 859.39355 1314.9529 4284690747
-61.398167 866.36206 1314.2883 4284365380
-59.036697 866.36206 1314.2883 4284760138
-55.494495 866.36206 1314.2883 4285088328
-66.121101 868.16742 1315.8105 4285220687
-63.759632 868.16742 1315.8105 4284760136
-61.398167 868.16742 1315.8105 4284758859
-59.036697 868.16742 1315.8105 4285219410
-56.675228 868.16742 1315.8105 4285350989
-55.2789 875.09381 1315.1106 4284824650
16.222019 904.63757 1315.1686 4285880920
20.85688 904.63757 1315.1686 4285617750
16.222019 906.40924 1316.6624 4287067767
20.85688 906.40924 1316.6624 4286804602
23.174313 906.40924 1316.6624 4286805115
16.170643 910.03558 1314.4879 4288053899
20.020796 910.62427 1314.9843 4287066490
-48.319267 917.63104 1314.3521 4282463554
20.708258 917.63104 1314.3521 4285550158
23.009174 917.63104 1314.3521 4285354062
-57.293579 926.06049 1314.9194 4282527801
-55.001835 925.18445 1314.1808 4282134078
-52.710091 925.18445 1314.1808 4282265664
-48.890518 925.76849 1314.6732 4282331457
25.209175 926.93652 1315.6581 4284763722
-59.394497 933.99127 1316.3743 4282070086
-55.743118 940.58789 1315.3962 4282859850
-52.330276 941.45764 1316.1296 4282727235
20.477064 939.71826 1314.663 4285222476
22.752293 939.71826 1314.663 4285025611
-52.161469 946.70703 1315.3236 4287201156
-52.161469 948.4408 1316.7855 4287464594
-56.100918 966.18567 1314.7432 4288913585
-49.368809 966.18567 1314.7432 4289306283
-47.124771 966.18567 1314.7432 4289437612
-43.758713 967.04346 1315.4664 4289240752
-40.392662 967.90125 1316.1897 4288715431
-38.148624 967.90125 1316.1897 4288846760
-26.92844 967.90125 1316.1897 4288978347
-13.46422 967.90125 1316.1897 4288255141
-11.220183 967.90125 1316.1897 4288189348
-6.73211 967.90125 1316.1897 4289372591
-4.4880733 967.90125 1316.1897 4288186766
-2.2440367 967.90125 1316.1897 4284173649
1.1220183 966.18567 1314.7432 4284697664
4.4880733 966.18567 1314.7432 4285026894
7.8541284 966.18567 1314.7432 4284960588
11.220183 966.18567 1314.7432 4284959818
13.46422 966.18567 1314.7432 4285025613
16.830275 967.04346 1315.4664 4284894029
20.196331 967.04346 1315.4664 4284828752
22.440367 967.90125 1316.1897 4284632400
-62.293579 761.26581 1318.5439 4285686116
-62.06422 767.75873 1317.4785 4287001211
-59.58165 767.75873 1317.4785 4286804100
-61.340366 832.59357 1317.2084 4284823369
-60.137615 834.43262 1318.759 4284691270
-59.908257 841.52734 1318.2009 4285086794
-59.678898 848.58698 1317.6133 4285021514
-64.453209 850.41199 1319.1521 4284891974
-62.066055 850.41199 1319.1521 4284823369
-61.875229 854.20941 1317.1219 4284560194
-64.007339 863.01837 1318.0092 4284694605
-66.121101 869.97278 1317.3328 4285088335
-63.759632 869.97278 1317.3328 4284693577
-61.398167 869.97278 1317.3328 4284955720
-59.036697 869.97278 1317.3328 4284889927
-56.675228 869.97278 1317.3328 4285020232
-63.759632 871.77814 1318.8551 4284629072
-61.398167 871.77814 1318.8551 4284627273
-59.036697 871.77814 1318.8551 4284627273
-56.675228 871.77814 1318.8551 4284889675
23.100918 913.56775 1317.4662 4285880920
-59.823853 922.02869 1318.0601 4282462007
-59.394497 935.73773 1317.8468 4283057744
-59.394497 937.48413 1319.3193 4282925391
-55.743118 944.06677 1318.3296 4285292648
-54.033028 964.46008 1318.5203 4289044401
-51.781651 964.46008 1318.5203 4289044401
-54.033028 966.18127 1319.9716 4289109683
-51.781651 966.18127 1319.9716 4289043890
-47.2789 966.18127 1319.9716 4289241775
1.1256881 966.18127 1319.9716 4284371009
4.5027523 966.18127 1319.9716 4284372807
6.7541285 966.18127 1319.9716 4284372807
10.131193 966.18127 1319.9716 4284436554
13.508257 966.18127 1319.9716 4284434255
15.759633 966.18127 1319.9716 4284500048
-34.78257 969.61682 1317.6362 4288847277
-31.416513 969.61682 1317.6362 4289109935
-29.172478 969.61682 1317.6362 4289175728
-24.684404 969.61682 1317.6362 4288978345
-22.440367 969.61682 1317.6362 4288452775
-20.196331 969.61682 1317.6362 4288452775
-16.830275 969.61682 1317.6362 4288452775
-8.9761467 969.61682 1317.6362 4288713383
-65.023849 758.56879 1322.8102 4285423201
-62.522934 756.6568 1321.198 4285424746
-64.948624 836.27161 1320.3097 4285020230
-62.543118 836.27161 1320.3097 4285280842
-64.948624 838.11066 1321.8602 4284431164
-62.543118 838.11066 1321.8602 4285020232
-59.908257 844.27539 1320.5181 4285153099
-59.036697 873.5835 1320.3773 4284299335
-55.743118 946.67596 1320.5295 4286280065
-46.153214 967.90247 1321.4229 4288979374
-42.776146 967.90247 1321.4229 4288781997
-40.524769 967.90247 1321.4229 4288320933
-38.273396 967.90247 1321.4229 4288781484
-27.016514 967.90247 1321.4229 4289044394
-13.508257 967.90247 1321.4229 4288320933
-11.256881 967.90247 1321.4229 4288255139
-6.7541285 967.90247 1321.4229 4288976298
-4.5027523 967.90247 1321.4229 4287991440
-2.2513762 967.90247 1321.4229 4286478201
18.011009 967.90247 1321.4229 4284760906
-40.524769 969.62372 1322.874 4288387243
-36.022018 969.62372 1322.874 4288781736
-33.770641 969.62372 1322.874 4288781736
-31.519266 969.62372 1322.874 4289043877
-29.267889 969.62372 1322.874 4289043877
-24.765137 969.62372 1322.874 4289175462
-22.513762 969.62372 1322.874 4288583337
-19.136696 969.62372 1322.874 4288518312
-9.0055046 969.62372 1322.874 4288845995
-62.781651 831.91797 1323.1788 4284954185
-64.948624 839.94971 1323.4109 4284629320
-62.543118 839.94971 1323.4109 4285021514
-64.948624 841.78876 1324.9615 4284629320
-62.543118 841.78876 1324.9615 4285153099
-67.097244 849.77142 1325.1521 4285021514
-64.70092 849.77142 1325.1521 4284889927
-59.58532 937.44885 1324.5219 4282202174
-59.58532 939.20093 1325.999 4283582803
-49.732109 964.03137 1324.699 4289109933
-62.543118 843.62775 1326.5122 4285021514
23.357798 904.43726 1328.08 4286606708
25.693579 904.43726 1328.08 4286475122
28.029358 903.54443 1327.3271 4287395967
-62.124771 933.46271 1327.7009 4283123787
-58.774311 965.75952 1326.1561 4288781484
-55.383484 965.75952 1326.1561 4288978606
-51.992661 965.75952 1326.1561 4289044142
-49.732109 965.75952 1326.1561 4288913324
2.2605505 965.75952 1326.1561 4286544246
4.521101 965.75952 1326.1561 4286283125
6.7816515 965.75952 1326.1561 4286085490
10.172478 965.75952 1326.1561 4285361769
13.563303 965.75952 1326.1561 4285092699
15.823853 965.75952 1326.1561 4284961112
20.344954 965.75952 1326.1561 4285024077
-58.774311 967.48779 1327.6133 4289110446
-55.383484 967.48779 1327.6133 4289044652
-51.992661 967.48779 1327.6133 4289110187
-49.732109 967.48779 1327.6133 4288978597
-46.341286 967.48779 1327.6133 4288913063
-42.950459 967.48779 1327.6133 4288781736
-38.429359 967.48779 1327.6133 4288847794
-27.126606 967.48779 1327.6133 4289043877
-15.823853 967.48779 1327.6133 4288452775
-13.563303 967.48779 1327.6133 4288517283
-11.302752 967.48779 1327.6133 4288846247
-6.7816515 967.48779 1327.6133 4287793307
-4.521101 967.48779 1327.6133 4287137149
-2.2605505 967.48779 1327.6133 4286150254
25.693579 907.11584 1330.3385 4285551955
-62.124771 935.2218 1329.1841 4282466373
0.75596333 965.20111 1330.9174 4286347387
4.53578 965.77905 1331.4047 4286544244
6.8036699 965.77905 1331.4047 4287004795
10.205505 965.77905 1331.4047 4287266938
13.60734 965.77905 1331.4047 4286738807
15.875229 965.77905 1331.4047 4286673014
19.277065 965.77905 1331.4047 4286407264
-61.034863 969.21594 1329.0704 4288980664
-49.732109 969.21594 1329.0704 4288780200
-46.341286 969.21594 1329.0704 4288517542
-42.950459 969.21594 1329.0704 4288320933
-40.689907 969.21594 1329.0704 4288190117
-37.299084 969.21594 1329.0704 4288716203
-33.908257 969.21594 1329.0704 4288584102
-31.647707 969.21594 1329.0704 4288780450
-29.387156 969.21594 1329.0704 4288714657
-24.866055 969.21594 1329.0704 4288714657
-22.605505 969.21594 1329.0704 4288254626
-19.21468 969.21594 1329.0704 4288649638
-9.042202 969.21594 1329.0704 4288912552
-62.570641 927.66962 1334.5886 4283057742
-58.965137 967.51288 1332.8666 4289176495
-55.563301 967.51288 1332.8666 4289109932
-52.161469 967.51288 1332.8666 4288912038
-27.21468 967.51288 1332.8666 4288583328
-15.875229 967.51288 1332.8666 4288650149
-13.60734 967.51288 1332.8666 4288517031
-11.33945 967.51288 1332.8666 4288977582
-6.8036699 967.51288 1332.8666 4287267983
-4.53578 967.51288 1332.8666 4284905849
-2.26789 967.51288 1332.8666 4284708214
6.8036699 967.51288 1332.8666 4285619547
9.0715599 967.51288 1332.8666 4285882205
-61.233028 969.2467 1334.3285 4289373625
-58.965137 969.2467 1334.3285 4289372589
-55.563301 969.2467 1334.3285 4289241003
-52.161469 969.2467 1334.3285 4288780452
-49.893578 969.2467 1334.3285 4288583339
-46.491745 969.2467 1334.3285 4288517802
-43.089909 969.2467 1334.3285 4288386728
-40.822018 969.2467 1334.3285 4288452775
-37.420181 969.2467 1334.3285 4288715689
-34.018349 969.2467 1334.3285 4288583589
-31.750458 969.2467 1334.3285 4288583589
-29.482569 969.2467 1334.3285 4288452003
-24.946789 969.2467 1334.3285 4288846247
-22.6789 969.2467 1334.3285 4288583591
-19.277065 969.2467 1334.3285 4288583844
-67.867889 838.66858 1335.411 4284761419
-65.444038 838.66858 1335.411 4284695626
-67.867889 840.52161 1336.9734 4285089609
1.1376147 965.80969 1336.6627 4283850090
4.5504589 965.80969 1336.6627 4285158996
11.376146 965.80969 1336.6627 4286079328
13.651376 965.80969 1336.6627 4286014303
15.926605 965.80969 1336.6627 4286343267
19.339451 965.80969 1336.6627 4286408811
-58.965137 970.98047 1335.7904 4289370793
-55.563301 970.98047 1335.7904 4289700784
-52.161469 970.98047 1335.7904 4289241003
-49.893578 970.98047 1335.7904 4288715692
-46.491745 970.98047 1335.7904 4288715691
-58.965137 972.71436 1337.2523 4289568171
-55.563301 972.71436 1337.2523 4290094514
-52.161469 972.71436 1337.2523 4289765802
-49.893578 972.71436 1337.2523 4289174445
-47.625687 972.71436 1337.2523 4289240238
-65.144951 925.42847 1339.239 4283123535
-27.302752 967.54913 1338.1293 4288583076
-15.926605 967.54913 1338.1293 4288847012
-13.651376 967.54913 1338.1293 4288581794
-10.238532 967.54913 1338.1293 4287332491
-6.8256879 967.54913 1338.1293 4286675581
-4.5504589 967.54913 1338.1293 4286610303
-2.2752295 967.54913 1338.1293 4286741889
2.2752295 967.54913 1338.1293 4285885558
4.5504589 967.54913 1338.1293 4285882216
6.8256879 967.54913 1338.1293 4285421665
10.238532 967.54913 1338.1293 4285487191
13.651376 967.54913 1338.1293 4285093703
-43.229359 969.28857 1339.5959 4288649897
-40.954128 969.28857 1339.5959 4288846760
-37.541283 969.28857 1339.5959 4288847274
-31.85321 969.28857 1339.5959 4288650149
-25.027523 969.28857 1339.5959 4288583841
-22.752293 969.28857 1339.5959 4288320933
-19.339451 969.28857 1339.5959 4287202447
0 965.42725 1342.8802 4285951351
15.990826 965.42725 1342.8802 4285093703
18.275229 965.42725 1342.8802 4285618263
-45.504585 971.02802 1341.0626 4288977836
-43.229359 971.02802 1341.0626 4288912042
-54.605503 972.76746 1342.5293 4287527296
-52.330276 973.63715 1343.2626 4287264118
-50.055046 972.76746 1342.5293 4287462016
-47.779816 972.76746 1342.5293 4287395967
-41.119267 968.92017 1345.8254 4288977834
-37.692657 968.92017 1345.8254 4288912297
-34.266056 968.04694 1345.0891 4288386979
-31.981651 968.92017 1345.8254 4288583589
-28.555046 968.047 1345.0892 4288649632
-25.128441 968.92017 1345.8254 4287596932
-22.844036 968.92017 1345.8254 4287530891
-19.417431 968.92017 1345.8254 4286213746
-15.990826 968.04694 1345.0891 4285556074
-13.706422 968.04694 1345.0891 4285421414
-10.279816 968.047 1345.0892 4284698972
-6.8532109 968.04694 1345.0891 4284502871
-4.5688071 968.04694 1345.0891 4285027158
-2.2844036 968.04694 1345.0891 4285487709
1.5229357 967.75586 1344.8438 4286210914
4.5688071 968.04694 1345.0891 4286409316
6.8532109 968.04694 1345.0891 4286146144
10.279816 968.047 1345.0892 4286146146
13.706422 968.04694 1345.0891 4286014812
-54.605503 976.24634 1345.4625 4285158226
-52.330276 976.24634 1345.4625 4284961103
16.042202 965.48181 1348.1584 4285752663
0 967.23389 1349.6357 4285224523
-45.688072 970.66663 1347.298 4287068290
-43.403671 970.66663 1347.298 4286936703
-41.119267 970.66663 1347.298 4286478201
-38.834862 970.66663 1347.298 4286478201
-22.844036 970.66663 1347.298 4284766563
-18.275229 970.66663 1347.298 4284633683
-2.2844036 970.66663 1347.298 4284566861
4.5688071 970.66663 1347.298 4284565575
9.1376143 970.66663 1347.298 4284630855
-50.256882 972.41309 1348.7705 4286870375
-46.830276 972.41309 1348.7705 4286805098
-43.403671 972.41309 1348.7705 4286476393
-18.275229 972.41309 1348.7705 4285027408
4.5688071 972.41309 1348.7705 4284434507
18.407339 963.36688 1352.9153 4285685344
-36.667889 968.9859 1351.113 4286412156
-34.376148 968.9859 1351.113 4286346363
-32.084404 968.9859 1351.113 4286215545
-28.64679 968.9859 1351.113 4285031014
-25.209175 968.9859 1351.113 4284635743
-20.625689 968.9859 1351.113 4284569185
-16.042202 968.9859 1351.113 4284436304
-13.750459 968.9859 1351.113 4284500813
-10.312843 968.9859 1351.113 4284829777
-6.8752294 968.9859 1351.113 4284829776
-4.5834861 968.9859 1351.113 4284435018
1.1458715 968.9859 1351.113 4284501063
6.8752294 968.9859 1351.113 4284499782
11.458715 968.9859 1351.113 4284893771
13.750459 968.9859 1351.113 4285025611
-41.251377 970.73798 1352.5903 4286212699
-38.959633 970.73798 1352.5903 4286146906
-34.376148 970.73798 1352.5903 4285291613
-32.084404 970.73798 1352.5903 4284962900
-28.64679 970.73798 1352.5903 4284633683
-25.209175 970.73798 1352.5903 4284041294
-22.917431 970.73798 1352.5903 4284304465
-20.625689 970.73798 1352.5903 4284830810
-16.042202 970.73798 1352.5903 4284698699
-13.750459 970.73798 1352.5903 4284566857
-10.312843 970.73798 1352.5903 4284764492
-6.8752294 970.73798 1352.5903 4284895821
-4.5834861 970.73798 1352.5903 4284566607
-2.291743 970.73798 1352.5903 4284829778
1.1458715 970.73798 1352.5903 4284501066
6.8752294 970.73798 1352.5903 4284368714
9.1669722 970.73798 1352.5903 4284565575
-50.256882 974.15955 1350.243 4284632650
-47.972477 974.15955 1350.243 4284895821
-47.972477 975.90594 1351.7157 4284829774
-2.2844036 975.90594 1351.7157 4284566861
-45.834862 973.36603 1354.8063 4284895825
-43.543118 972.48999 1354.0676 4285027156
-41.251377 973.36603 1354.8063 4284895570
-25.209175 972.48999 1354.0676 4284763468
-22.917431 972.48999 1354.0676 4284763216
-19.479816 973.36603 1354.8063 4284960594
-16.042202 973.36603 1354.8063 4284960333
-13.750459 973.36603 1354.8063 4284632907
-10.312844 973.36609 1354.8063 4284501321
-6.8752294 973.36603 1354.8063 4284369992
-4.5834861 973.36603 1354.8063 4284435017
-2.291743 972.48999 1354.0676 4284501065
1.5278287 973.65802 1355.0525 4284369223
4.5834861 972.48999 1354.0676 4284435018
6.8752294 973.36603 1354.8063 4284369223
9.1669722 972.48999 1354.0676 4284500300
-36.814678 968.6441 1357.365 4285488992
11.504587 968.6441 1357.365 4284565575
13.805505 968.6441 1357.365 4284434759
-39.115597 970.4032 1358.8481 4284830028
-36.814678 970.4032 1358.8481 4284632650
-34.51376 970.4032 1358.8481 4284698699
-32.212845 970.4032 1358.8481 4284697675
-28.761467 970.4032 1358.8481 4285158226
0 970.4032 1358.8481 4284434759
11.504587 970.4032 1358.8481 4284500300
13.805505 970.4032 1358.8481 4284434757
-9.1669722 976.87018 1357.7607 4284304706
16.170643 963.90125 1359.906 4285684054
18.480734 963.01819 1359.1614 4286144873
-43.71743 972.16223 1360.3313 4284698445
-39.115597 972.16223 1360.3313 4284895319
-32.212845 972.16223 1360.3313 4284959829
-28.761467 973.04181 1361.0729 4285026387
-25.310091 973.04175 1361.073 4284895312
-23.009174 973.04175 1361.073 4284302669
-19.557798 973.92133 1361.8146 4284960080
-16.106422 973.92133 1361.8146 4284828748
