# .PCD v0.7 - Point Cloud Data file format
VERSION 0.7
FIELDS x y z rgb
SIZE 4 4 4 4
TYPE F F F U
COUNT 1 1 1 1
WIDTH 1168
HEIGHT 1
VIEWPOINT 0 0 0 1 0 0 0
POINTS 1168
DATA ascii
0.86880732 798.31122 812.17944 4294859374
4.3302751 800.51434 810.11304 4294933121
7.7944956 800.51434 810.11304 4294933896
10.425688 798.31122 812.17944 4293357209
12.163302 798.31122 812.17944 4294015139
-4.0415902 802.72137 811.97394 4293942891
0.57737005 802.27997 811.60181 4293353578
4.3302751 801.83856 811.22961 4294801288
7.7944956 801.83856 811.22961 4294933652
10.39266 802.50067 811.7879 4293426060
12.702141 802.72137 811.97394 4293102493
-3.4568808 805.94739 812.07788 4293875554
-1.7284404 804.62598 810.96375 4294005611
1.1522936 805.5069 811.70654 4291117651
4.3211012 805.28662 811.52081 4293357952
7.7779818 805.28668 811.52087 4294938533
10.370643 805.94739 812.07788 4292837779
12.963303 805.94739 812.07788 4292319144
-3.4458716 809.45514 811.11145 4294938532
-1.7229358 808.79651 810.55615 4292893033
1.7229358 809.45514 811.11145 4291116106
4.3073397 809.45514 811.11145 4289615973
7.753211 809.45514 811.11145 4293626539
12.060551 809.45514 811.11145 4291328635
-4.3073397 810.77234 812.22217 4293880214
-1.7229358 810.77234 812.22217 4293746577
0.8614679 810.77234 812.22217 4291840084
4.3073397 810.77234 812.22217 4289287783
7.753211 810.77234 812.22217 4291986845
10.337615 810.77234 812.22217 4290742158
12.922018 810.77234 812.22217 4290878123
16.367889 810.77234 812.22217 4294966783
-3.4385321 813.5415 811.94092 4292953452
-1.7192661 813.5415 811.94092 4293479796
7.7366972 813.5415 811.94092 4288964995
12.894495 813.5415 811.94092 4288513415
16.333027 813.5415 811.94092 4294967039
-3.4275229 818.33978 812.06262 4293475401
-1.7137614 817.68469 811.51025 4294265177
1.7137614 818.33978 812.06262 4294928496
4.2844038 818.33978 812.06262 4292176753
7.7119265 817.68469 811.51025 4289623437
11.425076 817.90308 811.69434 4289829801
13.710092 817.68469 811.51025 4291080126
16.280735 817.68469 811.51025 4294965245
-3.4201834 821.09344 811.76843 4293014084
-1.7100917 821.09344 811.76843 4293935186
1.7100917 821.09344 811.76843 4294926709
4.2752295 821.09344 811.76843 4294011003
7.6954126 821.09344 811.76843 4292578189
11.115597 821.09344 811.76843 4293383895
13.680734 821.09344 811.76843 4292726753
16.245872 821.09344 811.76843 4294898175
-4.2752295 822.40082 812.87085 4293680499
-1.7045871 824.56189 810.76892 4292757354
0.85504586 822.40082 812.87085 4294463582
4.2669725 823.48132 811.81989 4294930822
7.6706419 824.56189 810.76892 4293954958
11.079817 824.56189 810.76892 4293318888
13.636697 824.56189 810.76892 4293188840
16.245872 822.40082 812.87085 4294174965
19.666054 822.40082 812.87085 4294701049
-3.97737 826.73389 812.60016 4294277271
-1.7045871 826.51672 812.41705 4292038781
0.85229355 827.16827 812.96643 4294201423
4.2614679 826.51672 812.41705 4294932619
7.6706419 825.86511 811.86768 4294613403
11.079817 825.86511 811.86768 4294302955
13.636697 826.51672 812.41705 4293451757
16.193579 826.51666 812.41699 4293977841
18.750458 827.16827 812.96643 4294175733
-3.401835 829.90375 812.65698 4294408085
-1.7009175 829.90375 812.65698 4292171123
4.2522936 829.90375 812.65698 4294930045
7.6541286 829.2536 812.10876 4294938013
11.33945 829.0368 811.92603 4294761445
13.60734 829.90375 812.65698 4294174699
16.158716 829.90375 812.65698 4294043630
18.710093 829.90375 812.65698 4294372855
7.6293578 833.34839 811.63721 4294935708
10.737615 832.91632 811.27295 4294950600
13.563303 833.34839 811.63721 4293448160
15.258716 833.34839 811.63721 4294632433
18.649542 833.34839 811.63721 4294109938
-1.6954129 834.64453 812.7301 4293344594
0.84770644 834.64453 812.7301 4294066259
4.2385321 834.64453 812.7301 4294924665
7.612844 836.07123 811.31702 4294934430
10.99633 836.07123 811.31702 4294944444
13.533945 836.07123 811.31702 4293840869
16.089909 835.35791 812.02356 4294567411
18.649542 834.64453 812.7301 4294306801
-1.6917431 837.36462 812.40759 4293022045
4.2293577 837.36462 812.40759 4294923630
7.612844 837.36462 812.40759 4294931599
10.99633 837.36462 812.40759 4294946244
13.533945 837.36462 812.40759 4294234078
16.07156 837.36462 812.40759 4294698479
18.609175 837.36462 812.40759 4294438387
-1.6862385 842.07874 812.45825 4294015375
4.2155962 842.07874 812.45825 4294791258
7.8691125 841.64911 812.09595 4294930053
10.96055 841.4342 811.91479 4294945480
13.489908 841.4342 811.91479 4294961900
16.019266 842.07874 812.45825 4294567918
11.73945 849.47083 812.15088 4294941624
13.416513 849.47083 812.15088 4294952418
15.093578 849.47083 812.15088 4294958072
10.877064 853.43933 812.88098 4294933148
13.387156 853.43933 812.88098 4294954947
15.61835 853.01288 812.52148 4294894820
11.675229 856.8208 811.80811 4294951126
13.34312 856.8208 811.80811 4294962657
15.844954 856.8208 811.80811 4294831593
-3.3357799 858.09595 812.8833 4294605198
-1.6660551 859.4314 812.70129 4294932358
4.444037 858.98627 812.76196 4294921830
7.4972477 859.4314 812.70129 4294924906
10.829357 859.4314 812.70129 4294948540
13.878288 859.87653 812.64062 4294967288
16.110704 858.98627 812.76196 4294701809
19.180733 858.09595 812.8833 4294241778
-1.6605505 863.43225 812.15063 4294533708
0.83027524 863.43225 812.15063 4294137442
4.1513762 863.43225 812.15063 4294922845
7.472477 863.43225 812.15063 4294925161
10.793578 863.43225 812.15063 4294954195
14.114679 863.43225 812.15063 4294967291
4.1376147 866.78711 811.05518 4294922849
7.4477062 866.78711 811.05518 4294924644
10.757798 866.78711 811.05518 4294956256
14.06789 866.78711 811.05518 4294835445
-1.6550459 868.05237 812.12207 4293484143
0.82752293 868.05237 812.12207 4293806681
4.1376147 868.05237 812.12207 4294922853
7.4477062 868.05237 812.12207 4294925412
10.757798 868.05237 812.12207 4294954719
14.06789 868.05237 812.12207 4294703601
16.550459 868.05237 812.12207 4294504693
-3.3027523 871.96472 812.80481 4294474141
-1.6513761 871.3335 812.27258 4294739363
4.9541283 871.96472 812.80481 4294925948
7.4311924 871.96472 812.80481 4294926448
11.009174 871.54395 812.45001 4294955748
14.036697 871.96472 812.80481 4294967291
-13.292844 751.73914 814.76794 4287638600
26.944954 750.09113 813.37854 4294505208
28.741285 752.15112 815.11536 4294768378
30.537615 752.83777 815.69434 4294965757
-10.744954 755.10828 813.68469 4290788679
-13.431192 757.16187 815.41632 4290989392
-10.722936 757.98822 813.49695 4290719289
26.807339 757.98822 813.49695 4294967295
28.594496 757.98822 813.49695 4294966527
30.444036 757.16187 815.41632 4294966271
-13.403669 760.03772 815.22504 4291189863
28.594496 760.03772 815.22504 4294966783
30.381651 760.72083 815.80103 4294967039
-13.065442 763.88678 814.54639 4290921300
-10.689908 762.9787 813.78076 4292108371
-8.9082565 762.9787 813.78076 4294674041
26.724771 763.65979 814.35498 4294966527
28.506422 764.34082 814.9292 4294966527
-10.65688 767.95233 814.05029 4290655040
28.418348 767.95233 814.05029 4294965498
-13.3211 769.31024 815.19519 4292966535
-10.634862 770.80701 813.84119 4293435029
26.587156 770.80701 813.84119 4294834430
28.418348 769.31024 815.19519 4294899705
-12.407339 772.16211 814.98376 4294939579
28.359632 772.16211 814.98376 4294966783
-12.368808 775.75397 814.08838 4294143882
-10.601835 775.75397 814.08838 4292446099
26.504587 775.75397 814.08838 4294966527
28.271559 775.75397 814.08838 4294966783
-12.368808 777.10486 815.22729 4291972685
-10.568808 779.33746 813.18579 4292039788
8.8073397 779.33746 813.18579 4294945465
14.091743 779.33746 813.18579 4294233330
25.582569 778.22119 814.20654 4294966527
28.271559 777.10486 815.22729 4294966527
30.038532 777.10486 815.22729 4294966015
-12.917432 781.58197 815.07812 4290857561
-10.568808 780.68414 814.32117 4291636808
26.422018 781.35748 814.88892 4294966271
28.770643 781.58197 815.07812 4294966783
-12.291743 785.59747 814.53992 4291320174
-10.53578 784.92627 813.97394 4292035922
-8.7798166 784.255 813.40796 4291441222
22.827522 784.255 813.40796 4294966527
25.461468 784.92627 813.97394 4294966015
28.095413 785.59747 814.53992 4294899453
-12.291743 786.93988 815.67188 4291387514
-10.53578 786.93988 815.67188 4292368740
-8.7614679 787.74731 813.73651 4292499297
22.195719 787.52411 813.54828 4294966527
25.134558 787.47821 814.38165 4294966015
28.973394 786.93988 815.67188 4294966015
-10.513762 789.75677 815.43079 4292503658
-8.7339449 791.96838 813.37146 4293293174
17.46789 791.96838 813.37146 4294967295
20.088074 791.96838 813.37146 4294966270
22.708258 791.96838 813.37146 4294966527
25.408257 789.75677 815.43079 4294966527
-10.480734 793.9715 815.06055 4291778902
-7.8532109 794.03955 813.80994 4293687425
-5.2293577 794.77539 813.12231 4294015889
0 794.77539 813.12231 4294590811
13.073395 794.77539 813.12231 4292446895
16.559633 794.77539 813.12231 4294967295
20.379206 793.74896 814.87286 4294966783
22.708258 793.9715 815.06055 4294966783
25.037308 794.19409 815.24823 4294965759
-10.458715 797.44067 815.36951 4291316570
-8.1345568 796.55225 814.62042 4292434793
13.944954 796.10803 814.24597 4293178300
16.850153 796.55225 814.62042 4294967295
19.755352 796.9964 814.99493 4294967039
-7.5296631 800.52521 814.04633 4292498011
-5.2128439 799.63959 813.29956 4294273905
13.900917 799.63959 813.29956 4292980935
16.217737 800.52521 814.04633 4294966271
19.113762 800.96802 814.41968 4294966271
-10.425688 802.29645 815.53979 4291514726
-8.6880732 802.29645 815.53979 4291712361
19.982569 802.29645 815.53979 4294965758
-7.7944956 805.14911 814.02094 4292696166
-5.1963301 804.487 813.46265 4293747563
16.455046 804.487 813.46265 4294966015
19.919266 805.81122 814.57922 4294569976
-10.381651 808.52356 815.55811 4291246412
-7.7779818 808.59021 814.30627 4293223292
-5.1853213 807.2688 813.19214 4294938792
0 807.2688 813.19214 4291840086
10.370643 807.2688 813.19214 4291854979
13.827523 807.2688 813.19214 4292131018
16.420183 807.2688 813.19214 4294966271
19.877064 808.59021 814.30627 4294767611
22.469725 808.59021 814.30627 4294965247
25.088991 808.52356 815.55811 4294636026
-6.8917432 812.08954 813.33276 4291900512
-5.1688075 812.08954 813.33276 4292229220
0.8614679 812.08954 813.33276 4291773260
4.3073397 812.08954 813.33276 4289352799
10.337615 812.08954 813.33276 4286669659
19.813763 812.08954 813.33276 4294965759
22.398165 812.08954 813.33276 4294966015
-12.922018 814.72394 815.55396 4290926436
-10.337615 814.06531 814.99866 4291247162
-7.753211 813.40674 814.44336 4291570997
-4.2981653 814.8559 813.04919 4292818507
0.85963303 814.8559 813.04919 4293151315
4.2981653 814.8559 813.04919 4290926436
10.315597 814.8559 813.04919 4287063413
19.793579 814.13135 813.74628 4294966015
22.398165 814.06531 814.99866 4294965759
24.695414 814.28485 815.18378 4294701308
-10.315597 817.48468 815.26575 4291979113
-8.023242 816.6084 814.52686 4290919231
-5.1577983 816.17029 814.15747 4292291894
0 816.17029 814.15747 4294134096
19.771561 816.17029 814.15747 4294964734
22.350458 817.48468 815.26575 4294965759
24.069725 817.48468 815.26575 4294635259
-10.282569 820.96014 814.27209 4291388787
-7.4263 820.52344 813.90381 4291446098
-5.1412845 819.64996 813.16736 4291570232
0 819.64996 813.16736 4294130512
19.708256 819.64996 813.16736 4294964989
23.13578 820.96014 814.27209 4294504439
-10.282569 822.27032 815.37671 4291519343
-7.6954126 823.70819 813.97314 4292242034
-5.1302752 823.70819 813.97314 4294017413
0.85504586 823.70819 813.97314 4294399076
19.666054 823.70819 813.97314 4294437876
23.086239 823.70819 813.97314 4294438902
25.706423 822.27032 815.37671 4294308086
-10.26055 825.01556 815.07544 4290860909
-7.6954126 825.01556 815.07544 4291978865
20.521101 825.01556 815.07544 4294110451
23.086239 825.01556 815.07544 4294308086
-10.795719 829.34015 814.79785 4291050074
-7.6706419 829.12305 814.61475 4291772488
-5.1137614 828.47144 814.06531 4294606942
0.85229355 828.47144 814.06531 4294266956
20.455046 828.47144 814.06531 4294175731
22.727829 829.34027 814.79785 4294175987
-11.055964 833.80487 815.94629 4291848297
-7.9376144 832.93799 815.21533 4291314249
-4.2522936 831.85425 814.30164 4292489795
-1.7009175 831.2041 813.75342 4293278565
0.85045874 831.2041 813.75342 4294394940
4.2522936 831.2041 813.75342 4294925429
17.009174 831.2041 813.75342 4293978351
20.411009 831.85431 814.30164 4294043887
22.962385 833.15466 815.39807 4294306803
-6.7816515 835.94067 813.823 4292367704
-4.2385321 835.94067 813.823 4293286755
0.84770644 835.94067 813.823 4294066257
20.344954 835.94067 813.823 4294174960
22.040367 835.94067 813.823 4294174960
-10.172477 837.23688 814.91589 4292374132
-7.6174307 838.94934 814.39777 4292766327
-4.2293577 839.30463 814.04333 4293750911
-1.6917431 838.65796 813.49805 4293286510
0.84587157 839.30457 814.04333 4293941591
4.2293577 838.65796 813.49805 4294923105
6.7669725 838.65796 813.49805 4294924653
16.07156 838.65796 813.49805 4294501862
19.466055 838.94934 814.39783 4294175986
22.589602 838.14166 814.80682 4293978607
-10.150458 841.24463 815.67908 4291645564
-8.4587154 841.24463 815.67908 4292632459
0 841.24463 815.67908 4294932593
20.300917 841.24463 815.67908 4293978864
22.838531 841.24463 815.67908 4293978608
25.376146 841.24463 815.67908 4294044144
-7.4194498 844.91492 814.84961 4292568956
-4.3842201 844.39923 814.41486 4293620355
-1.6862385 843.36786 813.54529 4294409370
1.0117432 844.91486 814.84973 4293418595
3.7940364 844.33478 814.36047 4294592849
7.5880733 843.36786 813.54529 4294928004
10.96055 843.36786 813.54529 4294942908
13.489908 843.36786 813.54529 4294961652
16.019266 843.36786 813.54529 4294699763
19.391743 844.65698 814.6322 4294110450
22.764221 845.30157 815.17578 4293847278
25.293577 845.94617 815.71924 4294044142
-6.7302752 848.6424 815.37646 4292570478
-3.9259937 848.21362 815.01495 4293554298
-1.6825689 847.35602 814.29181 4294473610
0.84128439 848.6424 815.37646 4293942641
4.4868503 847.35602 814.29181 4294857304
7.5715594 846.71289 813.74957 4294926197
10.656269 846.49854 813.56885 4294935968
13.46055 846.0697 813.20728 4294957290
16.264832 846.49854 813.56885 4294634742
19.349541 847.99921 814.83417 4294109166
22.71468 848.6424 815.37646 4294240752
5.0311928 850.75299 813.23193 4294924380
7.5467887 850.75299 813.23193 4294925675
10.900917 850.75299 813.23193 4294934431
13.416513 850.75299 813.23193 4294950853
16.770641 850.75299 813.23193 4294767352
18.447706 850.75299 813.23193 4294306801
-6.7082567 853.31726 815.39404 4292438376
-3.9107029 853.35699 814.5556 4293488511
-1.6752293 853.37683 814.13635 4294934680
0.83853209 853.31726 815.39404 4293942403
4.1880732 853.37683 814.13635 4294856032
7.5385318 853.37689 814.13635 4294924906
10.040367 854.71863 813.95972 4294930052
19.265139 853.37689 814.13635 4294241266
22.640366 853.31726 815.39404 4294504950
25.155964 853.31726 815.39404 4294110705
-5.0201836 855.99799 815.03845 4293950071
0.83669722 855.99799 815.03845 4294073996
22.590824 855.99799 815.03845 4294439668
-6.6715598 860.64618 815.03357 4291766071
-4.1697249 859.37103 813.95837 4292754760
0.83394498 859.37103 813.95837 4294400381
3.3357799 859.37103 813.95837 4294921560
19.180733 859.37103 813.95837 4294241524
22.238533 860.22113 814.67511 4294110454
-4.4379206 862.46332 813.94965 4292494150
16.642202 862.03918 813.59204 4294767352
19.138531 862.67535 814.12842 4294438903
21.634863 863.31152 814.66479 4294242039
-6.6568809 864.5838 815.73767 4293556864
-3.8782876 865.08563 814.41669 4293223272
-1.6605505 864.70178 813.22095 4293352792
0.83027524 864.70178 813.22095 4293936215
16.605505 864.70178 813.22095 4294701558
19.096329 865.97125 814.29138 4294439158
22.443119 865.27753 815.01453 4294242035
24.963303 864.5838 815.73767 4294899451
-6.6422019 867.24078 815.36182 4293097608
-4.1458716 868.27924 814.27539 4293687694
0.82752293 869.31769 813.18896 4293945715
4.1376147 869.31769 813.18896 4294922091
7.4477062 869.31769 813.18896 4294925931
9.930275 869.31769 813.18896 4294941878
14.06789 869.31769 813.18896 4294770168
16.550459 869.31769 813.18896 4294438389
19.033028 869.31769 813.18896 4294570231
22.417431 867.24078 815.36182 4294438643
-6.6201835 871.84827 815.32263 4292831076
-4.9651375 871.21564 814.78925 4293555837
0.55168194 871.0047 814.61151 4294209920
3.3100917 870.58301 814.25586 4294920294
16.550459 871.21564 814.78925 4294635511
19.033028 871.21558 814.78931 4294438901
21.515596 871.21564 814.78925 4294308084
-6.6055045 875.7522 815.99829 4293557112
-4.1284404 874.48975 814.93384 4293817209
-1.6513761 873.85852 814.40161 4294934178
0.99082565 874.74219 815.14673 4293878902
4.1284404 874.48975 814.93384 4294924137
7.5963302 874.2373 814.72095 4294928505
10.733945 873.85852 814.40161 4294819538
14.036697 873.85852 814.40161 4294703864
16.513762 875.12097 815.46606 4294635766
19.266054 875.33136 815.64349 4294373364
22.293579 875.7522 815.99829 4294570232
-3.8446484 877.96539 815.24835 4293815930
-1.6477064 877.75549 815.07135 4294869391
1.6477064 878.38531 815.60242 4293746298
4.119266 878.38531 815.60242 4294925416
7.1400609 877.96539 815.24835 4294929538
10.435473 877.54559 814.89435 4294948047
14.005505 877.75549 815.07135 4294833398
16.477064 878.38531 815.60242 4294766836
18.948624 878.38531 815.60242 4294504181
21.420183 878.38531 815.60242 4294504697
-4.1055045 881.69666 814.47046 4293477975
-1.6422018 881.69666 814.47046 4294927981
0.82110089 881.69666 814.47046 4294468488
4.1055045 881.69666 814.47046 4294927209
7.3899078 881.69666 814.47046 4294935956
10.948013 881.27814 814.11761 4294951903
13.958715 881.69666 814.47046 4294962935
16.422018 881.69666 814.47046 4294899192
-4.0963306 884.31714 814.06384 4293017667
-1.6385322 884.31714 814.06384 4294465891
0.82110089 883.63464 814.79639 4294465664
4.0963306 884.31714 814.06384 4294927213
7.3733945 884.31714 814.06384 4294938795
10.650459 884.31714 814.06384 4294945725
13.927523 884.31714 814.06384 4294695156
16.385321 884.31714 814.06384 4294965242
18.863304 883.63464 814.79639 4294504437
22.169724 882.95215 815.52893 4294504695
-4.0926609 886.25092 814.38635 4293021272
-1.6348624 886.93201 813.65259 4293214543
0.81926608 885.56982 815.12012 4294459992
4.0963306 885.56982 815.12012 4294928501
7.3568807 886.93201 813.65259 4294940843
10.626606 886.93201 813.65259 4294944698
13.912844 886.25092 814.38635 4293970909
16.385321 885.56982 815.12012 4294833145
18.843121 885.56982 815.12012 4294570230
22.120182 885.56982 815.12012 4294504694
-6.5394497 889.43176 815.76025 4293946739
-4.359633 888.59845 815.05768 4293088608
-1.6348624 888.18188 814.70642 4293872735
0.81743121 889.43176 815.76025 4294534255
4.0871563 888.80676 815.23334 4294928761
7.3568807 888.18188 814.70642 4294942125
10.626606 888.18188 814.70642 4294944698
13.89633 888.18188 814.70642 4294170582
17.166054 888.18188 814.70642 4294767093
19.618349 888.80682 815.23334 4294242292
21.25321 889.43176 815.76025 4294571002
-3.666055 893.02368 814.86475 4294277510
-1.6293578 892.71222 814.60223 4294671240
1.6293578 893.95789 815.65247 4293941373
4.344954 893.54266 815.30243 4294933133
7.3321104 892.08942 814.07703 4294943414
10.590826 891.46655 813.55188 4294943161
14.121101 891.88177 813.90204 4294694604
17.108257 892.08942 814.07703 4294502643
19.552294 893.33508 815.12732 4294373109
21.181652 893.95789 815.65247 4294307316
-3.2513762 896.55164 815.22351 4294344577
-1.6256881 896.55164 815.22351 4294937227
4.0642204 896.55164 815.22351 4294931350
7.3155966 895.93024 814.69952 4294944694
10.566972 895.30878 814.17554 4294947010
13.65578 895.55743 814.38513 4294821545
17.069725 895.93024 814.69952 4294698744
19.508257 896.55164 815.22351 4294373109
4.0550461 899.13983 814.78967 4294939551
7.2990828 899.13983 814.78967 4294949577
10.543119 899.13983 814.78967 4294950345
13.787156 899.13983 814.78967 4294821781
17.031193 899.13983 814.78967 4294370549
-3.2440367 900.37988 815.83533 4294341751
-1.6220183 900.37988 815.83533 4294936201
1.6220183 900.37988 815.83533 4293942897
4.0550461 900.37988 815.83533 4294940328
7.2990828 900.37988 815.83533 4294950606
10.523853 901.38678 814.72223 4294951373
13.740367 902.39368 813.60913 4294821522
16.973394 902.39368 813.60913 4294305782
19.46422 900.37988 815.83533 4294307316
21.897247 900.37988 815.83533 4294044145
-6.4660549 904.86536 815.69324 4293355857
-4.0412846 904.86536 815.69324 4294011759
-1.6165137 904.24744 815.17224 4294931340
4.0412846 904.86536 815.69324 4294943414
7.274312 904.24744 815.17224 4294886347
10.507339 903.62952 814.65125 4294948795
13.740367 903.62952 814.65125 4294887830
16.973394 903.62952 814.65125 4294437871
19.398165 903.62952 814.65125 4294307062
21.822937 904.86536 815.69324 4294307828
4.0321102 907.43536 815.24414 4294944698
7.2486238 908.10242 814.49854 4294756303
10.47156 907.4859 813.97876 4294949563
13.693579 907.4859 813.97876 4294954911
16.924772 907.1524 814.35156 4294701808
19.891743 907.02435 814.89764 4294373622
1.6091744 911.22992 815.82751 4294925951
3.75474 910.40973 815.13593 4294944699
7.23211 910.66534 814.04346 4294955216
10.43578 911.33099 813.29675 4294952911
13.64679 911.33099 813.29675 4294959281
16.896332 909.99969 814.79016 4294898159
19.846483 910.81982 815.48175 4294307060
4.8165135 913.17212 814.84912 4294951389
7.2247705 913.17212 814.84912 4294955989
10.43578 913.17212 814.84912 4294954961
13.646789 913.17212 814.84912 4294961621
16.8578 913.17212 814.84912 4294306024
20.068806 913.78583 815.36658 4294175731
9.6000004 916.99756 814.15051 4294958813
13.6 916.99756 814.15051 4294895848
16.799999 916.99756 814.15051 4294043113
8 918.22083 815.18188 4294959316
10.4 918.22083 815.18188 4294966004
13.6 918.22083 815.18188 4294827765
16.799999 918.22083 815.18188 4294436587
11.174312 921.98175 815.73694 4294966007
12.770642 921.98175 815.73694 4294957008
17.559633 921.98175 815.73694 4294698224
14.333945 924.51379 815.25586 4294101447
15.926605 924.51379 815.25586 4293514968
3.972477 928.25507 815.79431 4294948804
7.1504583 928.25507 815.79431 4294966783
11.122936 928.25507 815.79431 4292720580
14.300918 928.25507 815.79431 4294963709
3.1706421 930.77313 815.30139 4294940588
-3.9541283 934.49475 815.82336 4289288587
10.280734 934.49475 815.82336 4294928526
12.653211 934.49475 815.82336 4294956789
7.880734 938.8512 815.57251 4294934908
10.244954 938.24872 815.06458 4294928247
13.397247 938.8512 815.57251 4294224100
1.5724771 941.3454 815.05945 4286481813
3.9311926 941.3454 815.05945 4288842665
10.221101 941.3454 815.05945 4294926699
4.7064219 945.03333 815.55298 4289571540
-1.5577981 953.64795 814.96851 4281410605
4.1577983 952.82593 815.1474 4284047200
7.0183487 952.41492 815.23682 4292787675
10.917431 952.41492 815.23682 4289102241
13.241284 953.64795 814.96851 4290091417
16.35688 953.64795 814.96851 4292727527
18.693579 953.64795 814.96851 4294109938
-3.1155963 954.83893 815.97266 4280360747
-1.5541284 956.10852 814.42712 4280887091
0.77889907 954.83893 815.97266 4281148728
3.8944955 954.83893 815.97266 4284492087
7.0100918 954.83893 815.97266 4293118656
10.125689 954.83893 815.97266 4292724173
13.224771 955.47375 815.19989 4290948266
16.338531 955.47375 815.19989 4293057251
19.426605 956.10852 814.42712 4294241775
22.562386 955.47375 815.19989 4294044658
25.703671 954.83893 815.97266 4293912556
-3.1082568 957.29663 815.42896 4279306039
-1.5541284 957.29663 815.42896 4279108661
3.8853211 957.29663 815.42896 4287512130
6.993578 957.29663 815.42896 4292587413
10.101835 957.29663 815.42896 4293844701
13.194496 958.52271 815.15466 4291279048
16.034861 958.53632 814.73016 4292333529
19.402752 957.93005 814.65497 4293780972
22.534863 957.29663 815.42896 4293715180
-16.216515 749.1897 816.54248 4286989125
31.532112 749.1897 816.54248 4294702586
-18.618959 751.4856 818.47833 4287112738
-16.216515 750.56726 817.70398 4288228660
32.433029 751.25598 818.28473 4294899966
34.234863 751.25598 818.28473 4294966015
-16.765749 755.12665 817.62427 4289408563
-14.370643 754.21106 816.85229 4289867305
32.333946 755.58435 818.01025 4294965247
-17.012844 759.90015 817.72504 4289803062
32.234863 759.90015 817.72504 4294899198
-16.977982 762.77026 817.52911 4289079599
31.27523 762.77026 817.52911 4294966271
-16.628746 766.6109 816.84344 4289342780
-13.362385 765.70288 816.07776 4290196789
30.288073 766.38391 816.65198 4294966270
-19.598166 768.42706 818.37463 4288489277
-16.900917 769.54761 817.35736 4289211190
-14.209174 770.66809 816.34009 4290793849
31.132111 769.54761 817.35736 4294966783
-28.418348 773.38385 818.63 4286593084
-26.642202 773.38385 818.63 4286395962
-19.537615 773.38385 818.63 4288033854
-17.169418 772.4787 817.8667 4288686133
-14.179816 773.51715 816.12634 4289735750
31.051376 772.77161 816.80566 4294966783
33.746788 773.38385 818.63 4294967295
-16.543119 775.77563 818.03058 4288887622
-14.179816 774.87225 817.26892 4289604137
31.904587 775.5498 817.84021 4294900222
33.677063 776.22729 818.4115 4294967039
-15.902752 779.80658 817.50537 4289746260
-14.135779 778.45575 816.36633 4290592844
30.922018 779.13116 816.93585 4294966014
-15.902752 781.15747 818.64441 4290205793
33.572475 781.15747 818.64441 4294965759
-14.091743 784.05078 817.15991 4291058032
29.944954 783.37744 816.59216 4294965503
31.706423 784.05078 817.15991 4294833918
-16.733946 786.0708 818.86304 4289680217
-13.169725 788.28235 816.80371 4291256698
28.973394 788.28235 816.80371 4294966527
31.706423 786.0708 818.86304 4294637308
-13.156881 790.3606 817.24805 4291519606
26.284403 791.09644 816.56042 4294966271
28.944036 790.3606 817.24805 4294966783
31.60734 789.62482 817.93567 4294966271
-15.770642 793.7757 818.81946 4290202702
-13.142202 793.10583 818.2547 4290990952
29.204893 792.88257 818.06641 4294965503
31.541285 793.7757 818.81946 4294965503
33.293579 793.7757 818.81946 4294636282
-13.100918 796.64233 817.3125 4291256431
22.708258 795.97467 816.74951 4294966527
25.328442 795.97467 816.74951 4294965503
28.530886 796.86493 817.50018 4294965247
31.442202 797.31006 817.87549 4294965759
34.062386 797.31006 817.87549 4294899453
36.682568 797.31006 817.87549 4294899453
-12.201835 799.43958 817.05499 4290534497
-10.458715 798.77325 816.49316 4291382876
20.917431 798.77325 816.49316 4294966271
22.660551 799.43958 817.05499 4294967039
25.27523 799.43958 817.05499 4294833662
28.761467 800.1059 817.61682 4294966527
31.376146 800.1059 817.61682 4294965759
33.990826 800.1059 817.61682 4294899710
-15.688073 801.43854 818.74048 4291125853
-13.073395 801.43854 818.74048 4291192952
-10.425688 803.62488 816.65979 4291578976
22.588991 803.62488 816.65979 4294964991
25.195412 803.62488 816.65979 4294504444
28.761467 801.43854 818.74048 4294965759
31.376146 801.43854 818.74048 4294965247
33.93853 802.53174 817.70013 4294833661
36.605503 801.43854 818.74048 4294767867
-15.638532 805.61755 818.33997 4291253079
-13.03211 804.95331 817.77991 4291190639
28.670643 804.95331 817.77991 4294636795
31.277063 804.95331 817.77991 4294833660
33.014679 805.61755 818.33997 4294570746
-15.588991 809.78381 817.92883 4289738821
-12.990826 808.45966 816.81226 4289674825
28.868502 808.90106 817.18439 4294110707
31.75535 809.34247 817.55664 4294241782
-15.555964 812.55444 817.6488 4291056725
-12.963303 811.23303 816.53467 4289604653
25.926605 811.23303 816.53467 4294832893
28.231194 812.11395 817.2774 4294372852
31.976147 812.55444 817.6488 4294570234
-15.555964 813.87585 818.76294 4291388005
29.383486 813.87585 818.76294 4294767615
31.976147 813.87585 818.76294 4294834175
-15.506422 818.01697 818.33057 4290928229
-12.915596 817.05994 816.86963 4291389311
25.816513 817.4201 816.51935 4294438392
28.42844 817.35828 817.77527 4294372599
31.874311 818.67554 818.88586 4294701302
-15.473394 821.42786 818.59058 4290600803
-12.894495 820.11346 817.4823 4291061116
28.367889 820.77063 818.03644 4294307317
-15.423853 824.89069 817.58618 4290861157
-13.710092 823.58051 816.48145 4290798455
-11.99633 823.58051 816.48145 4291127677
25.706423 823.58051 816.48145 4294308086
27.420183 824.2356 817.03381 4294307316
-15.423853 826.20087 818.69092 4289344315
-13.680734 826.97668 816.729 4290463584
-11.970642 826.323 816.17786 4291586944
23.941284 826.323 816.17786 4294505206
25.651377 826.97668 816.729 4294242036
28.247707 826.91565 817.98553 4294241523
30.847706 826.20087 818.69092 4294044144
-15.390825 828.93774 818.38257 4289741399
-13.680734 828.93774 818.38257 4290199881
28.216515 828.93774 818.38257 4294175731
-15.341285 833.68414 818.46045 4289547852
-13.636697 832.38092 817.36169 4290926672
-11.079817 831.07776 816.26294 4290526019
23.86422 831.07776 816.26294 4294175731
25.568808 831.72937 816.81232 4294307060
27.841589 833.24976 818.09424 4294307572
-13.60734 835.75537 817.59094 4290992200
-11.906422 835.10522 817.04272 4291650128
25.513762 835.75537 817.59094 4294438902
27.21468 836.40558 818.13916 4294175731
-11.302752 838.96509 816.37305 4291254361
23.735781 838.53302 816.00879 4293846765
27.126606 839.82916 817.10168 4293978351
-13.563303 841.12531 818.19458 4290925389
-10.99633 842.53802 816.76965 4291582316
25.376146 842.53802 816.76965 4293978864
27.944954 841.83167 817.48212 4293911536
-13.533945 844.47803 818.4054 4290464596
-10.99633 843.83136 817.86011 4292109431
28.195719 844.26245 818.22363 4294044147
-13.489908 848.52448 817.89319 4290530150
-10.96055 847.87988 817.34967 4291582577
-8.4311924 847.23529 816.80615 4292042365
26.417734 847.66504 817.16846 4294109682
28.666056 848.52448 817.89319 4294175733
-13.489908 849.8136 818.9801 4290002005
-10.949541 850.51434 818.26288 4291582567
-7.8519874 850.35748 816.82257 4291846504
-5.0477066 849.92871 816.46106 4293030768
0.84128439 849.92871 816.46106 4293942123
22.71468 849.92871 816.46106 4294307315
26.079817 850.5719 817.00336 4293978350
28.666056 849.8136 818.9801 4294109938
-13.46055 852.5014 818.63025 4290067016
-10.920183 853.55042 817.55273 4291317325
-7.5467887 854.59937 816.47522 4292831326
25.994495 854.59937 816.47522 4294439668
28.60367 852.5014 818.63025 4294373877
-10.900917 856.52258 818.0968 4290327349
-7.5394492 856.57935 816.83667 4292031549
23.427523 857.27728 816.11707 4293979635
25.966972 856.57935 816.83667 4294374134
28.510092 857.16364 818.63733 4294637049
30.187157 857.16364 818.63733 4294637047
-10.877064 859.19629 817.73517 4290790986
-8.3669729 858.55658 817.1958 4290653759
25.937614 858.55658 817.1958 4294308085
28.447706 859.83594 818.27454 4294636795
30.121101 859.83594 818.27454 4294637049
-10.007339 862.55884 816.6463 4291912816
-7.7834868 862.34637 816.4671 4292766070
23.350458 861.92126 816.10876 4294176498
26.130278 862.34637 816.4671 4294570744
28.354128 863.19641 817.18384 4294965246
-10.830275 865.16382 817.53473 4291321440
-8.3211012 865.85614 816.81042 4293031551
25.795414 865.85614 816.81042 4294636023
28.354128 864.4715 818.25903 4294899453
30.022018 864.4715 818.25903 4294768635
-10.532722 868.43634 818.11395 4291056481
-7.7492356 868.93341 816.78906 4292898171
23.247707 869.14502 816.96747 4294439159
25.753212 868.79956 817.3302 4294504952
28.846481 867.97662 818.59833 4294505208
-9.9633026 871.04926 818.57312 4291911047
26.568808 871.04926 818.57312 4294636534
28.229359 871.04926 818.57312 4294636534
-10.757798 875.64417 818.52332 4291645535
-7.7235475 873.53534 816.74512 4292305769
18.205505 873.11359 816.38953 4294635511
22.343121 873.11359 816.38953 4294439414
25.65321 874.37891 817.45642 4294702074
28.687462 875.22241 818.16766 4294636537
-9.9082565 878.27722 818.12732 4291045169
-7.7064223 877.43555 817.41766 4292301398
0 877.01471 817.06287 4294930572
23.119267 877.01471 817.06287 4294965759
25.3211 877.85645 817.77246 4294768893
-7.1400609 880.4848 817.37262 4291569973
18.948624 879.64502 816.66455 4294372851
22.244038 879.64502 816.66455 4294636281
24.715597 880.90466 817.72668 4294966527
-9.8862381 882.16437 818.78882 4290923863
-7.4036694 883.18604 817.68817 4292632166
25.498165 883.18604 817.68817 4294834685
-9.8532114 886.71857 818.70471 4292038755
-7.3825688 886.14282 816.91119 4293092461
0.81926608 886.82251 816.17627 4294527810
22.120182 886.82251 816.17627 4294571256
25.70948 886.33472 817.50903 4294637051
27.917431 886.71857 818.70471 4294505211
-9.831193 889.32782 818.2887 4291974766
-7.6415901 889.36157 817.44513 4292632424
-4.9045873 890.68164 816.81409 4294936696
0.81743121 890.68164 816.81409 4294401921
3.2697248 890.68164 816.81409 4294923633
22.360245 889.81281 816.95361 4294702588
25.124159 888.91022 817.93671 4294439674
-10.354129 892.76471 818.57056 4291714397
-7.6293578 892.34808 818.21924 4293227890
0 891.93146 817.86792 4294665097
22.888073 891.93146 817.86792 4294109938
25.067888 892.76471 818.57056 4294438902
-7.0605507 896.034 817.40302 4292438129
-4.8880734 895.20355 816.70276 4293556371
0.81467891 895.20355 816.70276 4294205063
21.99633 895.20355 816.70276 4294109938
24.440367 896.44922 817.75317 4294373109
-9.7761469 897.69489 818.80347 4292110181
-7.3247705 898.36609 818.0614 4292634982
-4.3351684 898.2088 816.62079 4293554292
-1.6256881 897.79449 816.27148 4294936205
0.54189605 898.2088 816.62079 4294471297
19.508257 897.79449 816.27148 4294176244
21.946789 897.79449 816.27148 4293978608
25.227524 898.36609 818.0614 4294307573
27.699083 897.69489 818.80347 4294373879
-7.5804276 901.14014 818.2204 4292829806
-4.0550461 901.61993 816.88086 4293618287
0.81100917 902.23999 817.40356 4294600819
4.0550461 901.61993 816.88086 4294941612
21.897247 901.61993 816.88086 4294109939
25.155964 901.90503 817.77527 4294109938
-9.73211 904.10004 818.97205 4291242814
-8.1100922 904.10004 818.97205 4291374656
25.952293 904.10004 818.97205 4294110451
27.574312 904.10004 818.97205 4293978864
-9.6990824 908.57288 818.81934 4291310128
-7.274312 907.33704 817.77722 4291767342
-4.0394492 907.05188 816.88293 4292488757
-1.6146789 907.38477 816.50952 4294857564
0.80733943 907.05188 816.88293 4294598525
20.966972 908.6684 816.28381 4294044658
22.605505 907.38477 816.50952 4294110451
25.055964 907.33704 817.77722 4294176244
27.480734 908.57288 818.81934 4294438902
-6.9889908 910.72345 818.01654 4291833914
-4.0321102 910.51794 817.84326 4292490047
-1.612844 910.51794 817.84326 4293278792
0 910.51794 817.84326 4293667390
22.579817 910.51794 817.84326 4294176242
24.192661 910.51794 817.84326 4294242291
-6.4366975 914.92065 818.93933 4291767613
-3.2183487 914.92065 818.93933 4292949054
-1.6091744 914.92065 818.93933 4294199378
1.0727829 913.69043 817.90204 4294595424
3.2183487 913.07526 817.38342 4294938796
22.52844 914.92065 818.93933 4294044144
-3.2110093 917.46808 818.47131 4293078846
-1.6055046 917.46808 818.47131 4293407811
1.0703365 917.0589 818.12628 4294592088
4.2813454 915.83154 817.09149 4294947781
6.9571862 915.42236 816.7464 4294958551
11.238532 915.01324 816.40149 4294960098
20.068806 915.62695 816.91895 4294044400
22.477064 916.24066 817.4364 4293913327
-3.2 920.66724 817.24475 4293210946
-1.6 920.66724 817.24475 4293210946
1.6 920.66724 817.24475 4294925418
4 920.05566 816.729 4294945718
7.1999998 920.05566 816.729 4294963945
10.133333 919.85175 816.55713 4294967292
13.866666 919.85175 816.55713 4294695131
16.533333 919.85181 816.55713 4294303720
20 920.05566 816.729 4294307060
-9.6000004 921.89044 818.27612 4291177021
-7.1999998 921.89044 818.27612 4291503671
-4 921.89044 818.27612 4292883260
-1.5963303 923.20215 816.76599 4293410109
0.80000001 921.89044 818.27612 4294461529
3.9944954 922.54626 817.52106 4294947001
7.183486 923.20215 816.76599 4294966780
10.376146 923.20215 816.76599 4294702583
12.770642 923.20215 816.76599 4294364876
17.559633 923.20215 816.76599 4294633705
20 921.89044 818.27612 4293978352
22.4 921.89044 818.27612 4293781742
-6.3853211 925.64294 818.82397 4292422195
-3.7223241 925.67145 817.97607 4293146429
-1.5926605 926.34021 816.79584 4293344063
0.79633027 926.013 817.17395 4294263641
3.9816513 925.73145 816.28247 4294947774
7.1669722 925.73145 816.28247 4294967295
10.08685 926.13727 816.62469 4294041315
13.272171 926.13727 816.62469 4293835209
16.722935 926.34021 816.79578 4294701039
19.93211 925.68646 817.55261 4294241523
22.348623 925.64294 818.82397 4294110451
-7.1669722 928.16663 818.33582 4289999658
-3.972477 929.46985 816.8186 4291178037
-1.5889908 929.46985 816.8186 4292819018
0.7944954 929.46985 816.8186 4294264917
4.7669725 929.46985 816.8186 4294959349
7.1504583 929.46985 816.8186 4294767605
10.328441 929.46985 816.8186 4294223797
13.506422 929.46985 816.8186 4294964471
16.684402 929.46985 816.8186 4294768120
19.862385 929.46985 816.8186 4294176500
23.06789 928.81824 817.57721 4294373623
25.482569 928.16663 818.33582 4294438902
-10.593272 931.08954 818.18433 4289103240
-7.1504583 930.68463 817.8429 4290738055
-3.9688072 931.33484 817.08313 4289541468
-1.5853211 931.98511 816.32336 4292426854
0.52966362 931.08954 818.18433 4293349448
3.9633026 931.98511 816.32336 4294947532
7.133945 931.98511 816.32336 4294822377
10.304587 931.98511 816.32336 4294935451
13.475229 931.98511 816.32336 4294964733
16.645872 931.98511 816.32336 4294702331
19.862385 930.68463 817.8429 4294176500
23.040367 931.29199 818.35504 4294109938
25.423853 931.29199 818.35504 4293649388
27.542505 931.49445 818.5257 4293846510
-10.040367 934.00507 818.02655 4284234570
-7.1302752 934.12677 817.47522 4288571778
-3.9541283 935.70392 816.8429 4289821598
-1.5834862 934.4505 817.09412 4288304000
1.0568807 934.00507 818.02655 4290539883
3.9633026 933.8031 817.85626 4294545579
7.1256881 934.4505 817.09412 4294547891
13.718655 934.86835 817.01044 4294957810
16.636698 934.12677 817.47522 4294044144
19.816513 933.80304 817.8562 4294110196
22.194496 934.40906 818.36719 4293517548
26.950459 934.40906 818.36719 4293912045
-6.8538227 937.71924 818.54224 4281475333
-4.2177367 937.31616 818.20239 4286277201
-1.5816513 937.5177 818.37231 4282724213
1.5816513 936.91315 817.86255 4289104052
3.9541283 936.91315 817.86255 4291263390
6.3266053 936.91315 817.86255 4294800753
16.870949 937.31622 818.20239 4294174693
19.507032 937.31622 818.20239 4294109680
-3.1522937 940.05615 816.5885 4280488290
0 940.05615 816.5885 4279639084
6.8299699 940.45782 816.92719 4291852436
13.659939 940.45782 816.92719 4294554815
16.28685 940.85944 817.26581 4294306024
18.913761 941.26111 817.60449 4293912558
-6.3045874 942.46613 818.62048 4280491551
-3.93578 943.70898 818.36047 4280755495
-1.5724771 943.74976 817.08679 4280558628
0.78623855 943.74976 817.08673 4282532673
3.6691132 942.94824 816.41095 4288385210
7.0761471 943.74976 817.08673 4291078842
10.063853 943.5094 816.88403 4292707233
13.374312 943.42883 817.47015 4293040776
16.261162 944.12329 818.27374 4294898170
-3.9220183 947.43207 817.57556 4280624423
-1.5688074 946.8324 817.06995 4280887595
1.0458716 947.03229 817.23846 4280689710
4.1834865 946.63251 816.90137 4284900505
7.3211007 947.03223 817.23846 4291738318
10.458715 947.03229 817.23846 4290348217
12.550459 946.8324 817.06995 4289881940
15.688073 947.43207 817.57556 4294961401
18.825687 946.23267 816.56433 4294044144
-9.4128437 948.63141 818.58691 4280163618
-6.2752295 948.63141 818.58691 4280557345
-3.9183486 949.26904 817.81647 4280688933
-1.5651376 949.90662 817.04602 4281017644
0.78256881 949.90662 817.04602 4280820015
3.1302752 949.30835 816.54156 4278589729
9.3908253 949.90662 817.04602 4291598278
12.521101 949.90662 817.04602 4289231514
-6.253211 952.3363 817.78656 4279177736
-4.1675839 952.34943 817.36163 4280294938
0.78073394 952.37561 816.51172 4281541941
9.3688078 952.37561 816.51172 4294106605
-9.3688078 954.76312 818.52478 4287397243
-7.0192661 955.39648 817.75079 4285163896
-4.6733947 956.02985 816.97681 4278917176
0.77889907 956.02985 816.97681 4278911764
25.703671 956.02985 816.97681 4293977068
28.040367 956.02985 816.97681 4293582310
-7.0100918 957.22083 817.98096 4288776867
-3.8908257 958.44763 817.7074 4287196050
-1.5541284 959.07886 816.93158 4286014090
0.77798164 958.44824 817.70801 4284308573
3.8853211 959.07886 816.93164 4286014291
6.993578 959.07886 816.93164 4292720749
10.101835 959.07892 816.93158 4293320391
13.210092 959.67297 817.4325 4290298824
16.57737 959.27686 817.09857 4293123305
19.438534 958.76355 817.31976 4294043118
22.561468 958.44824 817.70801 4293648872
25.703669 957.81628 818.48315 4293780970
-1.5541284 960.86108 818.43433 4291743699
3.8853211 960.86108 818.43433 4286666350
6.993578 960.86108 818.43433 4289432624
10.101835 960.86108 818.43433 4288977302
13.210092 960.86108 818.43433 4290558385
15.541285 960.86108 818.43433 4293386732
-21.688074 749.67847 820.87866 4288701002
37.050461 748.98767 820.29614 4294965759
-19.820183 753.32227 820.02698 4285740346
34.234863 753.32227 820.02698 4294965247
36.036697 754.01099 820.60773 4294965246
-19.759632 757.64429 819.74719 4286720043
-17.963303 756.95764 819.16821 4288355621
34.130276 757.64429 819.74719 4294899455
-22.454128 759.70428 821.48401 4287045408
-19.699083 761.95374 819.45667 4287570462
35.028442 759.70428 821.48401 4294965503
-25.966972 764.69196 821.7655 4286917940
-22.363302 764.07129 819.93408 4287111719
-19.658716 764.8197 819.25708 4287899177
32.168808 764.8197 819.25708 4294966783
34.921101 764.00745 821.18829 4294899709
-25.913761 767.55231 821.56116 4286919224
-22.637308 766.64142 820.79315 4287703353
33.955963 766.86914 820.98517 4294966527
-21.379816 769.78912 819.52319 4288753468
-19.598166 769.78912 819.52319 4288490553
-24.943119 772.51331 821.82007 4286922054
-22.270641 771.83228 821.24585 4288234316
35.633026 772.51331 821.82007 4294966783
-28.418348 774.7417 819.7749 4286592575
-25.754128 775.42065 820.34735 4286658116
-21.313761 776.09961 820.9198 4288367437
-19.537615 775.42065 820.34735 4289090647
35.522934 776.09961 820.9198 4294966271
-19.497248 778.93744 820.69666 4288368722
-17.724771 778.25989 820.12537 4289482579
34.563301 778.25989 820.12537 4294966527
-19.497248 780.29254 821.83923 4288236880
-16.78624 782.5083 819.78345 4289745242
33.572475 782.5083 819.78345 4294965759
-19.436697 783.85919 820.92236 4288171857
33.572475 783.85919 820.92236 4294703357
-19.376146 788.7641 821.13403 4287836214
-17.027523 787.86627 820.37701 4289481803
33.467892 787.41742 819.99854 4294965757
-15.80367 790.96729 819.06763 4290071879
-14.047707 790.96729 819.06763 4290793317
31.60734 790.96729 819.06763 4294965759
33.363304 790.96729 819.06763 4294767867
-19.315596 793.65216 821.33142 4289017156
-17.559633 792.30969 820.19946 4288755256
35.119267 792.30969 820.19946 4294767615
37.753212 792.98096 820.76544 4294899709
-16.938837 795.56183 820.32562 4289744188
38.550457 796.45496 821.07861 4294768637
40.302753 795.78516 820.51385 4294965502
-16.594496 799.31323 819.56451 4289876034
-13.974312 798.64551 819.00146 4291587435
37.555962 799.31323 819.56451 4294833918
40.176147 799.98096 820.12756 4294965759
-19.21468 801.31641 821.25354 4287900990
-17.431192 802.77118 819.86414 4289083967
34.862385 802.77118 819.86414 4294570488
37.517433 802.04382 820.55884 4294833917
41.049541 801.31641 821.25354 4294834429
-17.431192 804.10382 820.98779 4289145646
34.862385 804.10382 820.98779 4294308086
36.605503 804.10382 820.98779 4294702844
-17.376146 808.27429 820.5802 4289213499
34.752293 807.61011 820.02014 4294636282
37.358719 808.93854 821.14026 4294570490
40.833946 808.93854 821.14026 4294373112
-17.3211 812.43225 820.16199 4289282628
34.6422 811.77014 819.6037 4294702587
36.374313 812.43225 820.16199 4294636795
-17.3211 813.75647 821.27844 4289283658
31.976147 815.19727 819.8772 4294833404
34.568806 815.19727 819.8772 4294637049
37.240368 813.75647 821.27844 4294242550
39.838531 813.75647 821.27844 4294242552
-17.284403 816.51862 820.99133 4288888391
34.568806 816.51862 820.99133 4294571254
36.297249 816.51862 820.99133 4294637047
-17.229359 819.99274 819.99646 4288363841
32.161469 820.43182 820.3667 4294176244
34.458717 821.30994 821.10718 4294307316
-17.192661 823.39941 820.25293 4288753980
29.227524 822.74225 819.69885 4294767865
31.806421 823.39941 820.25293 4294307316
-18.911926 825.37103 821.91528 4288035653
-17.137615 827.51111 819.79565 4288951626
31.704586 827.51111 819.79565 4294175476
34.385323 825.37103 821.91528 4294110191
-16.264221 829.5332 820.19257 4289417295
29.07156 830.24512 819.48486 4294044658
31.671558 829.5332 820.19257 4293911791
-17.100918 831.55249 820.58728 4289613645
31.636698 831.55249 820.58728 4294044147
34.201836 832.85986 821.68958 4294110191
-16.477676 835.42169 819.9256 4289284426
28.977982 834.9873 819.55933 4294109938
31.534863 835.63892 820.10876 4294109682
-15.887463 838.10199 820.44147 4289285452
-13.60734 837.70593 819.2356 4290794308
28.915596 837.70593 819.2356 4293912558
31.466972 839.00635 820.33203 4294241010
34.091743 837.59363 821.75684 4294109421
-16.158716 840.3067 821.42847 4289415750
31.417431 841.36414 820.35791 4294306801
34.018349 840.3067 821.42847 4294307312
-16.106422 844.36572 820.9267 4289218374
31.647707 844.14972 820.74457 4294110194
-15.789603 847.28027 820.76825 4289283403
30.451376 847.06476 820.58643 4294306290
-15.176147 851.10272 820.06714 4290000733
30.352293 851.10272 820.06714 4294307062
-16.019266 852.39185 821.15405 4289276730
-13.46055 853.78772 819.71484 4290065720
-11.777982 853.78772 819.71484 4289999927
28.60367 853.78772 819.71484 4294308084
31.162384 853.08978 820.43445 4294307316
-15.703976 855.93164 821.52264 4289416271
-13.46055 855.0741 820.79956 4290332487
31.968807 855.0741 820.79956 4294702840
33.651375 856.36041 821.88416 4294504695
-15.093578 859.72791 820.79944 4289548363
-13.416513 858.44574 819.71838 4290862163
31.86422 858.44574 819.71838 4294637049
33.541283 859.72791 820.79944 4294636282
-15.630581 862.35944 821.27435 4289678921
-13.387156 861.75488 819.89252 4291124821
-11.713761 861.11523 819.35315 4290926924
31.236696 861.54169 819.71271 4294702842
34.07584 861.89795 821.75714 4294702844
-13.34312 865.74664 819.33411 4291059542
-11.675229 865.74664 819.33411 4290993749
30.855965 865.74664 819.33411 4294637049
-15.011009 867.6593 820.9469 4289876560
-13.328441 868.34741 820.21899 4290466660
-11.649541 869.6731 820.02869 4292374659
29.955963 869.6731 820.02869 4294637049
31.655046 868.34741 820.21899 4294834686
33.3578 868.29688 821.4845 4294636795
-14.131193 871.63208 820.3725 4288951115
-10.793578 872.31879 819.64343 4291646832
29.889908 872.31879 819.64343 4294702844
31.620184 870.94537 821.10156 4294768637
-14.114679 874.22302 821.24908 4289539910
31.550459 874.22302 821.24908 4294637052
-14.06789 877.54211 820.12354 4289933895
-11.585321 876.90948 819.59009 4290326606
29.239143 877.33124 819.94574 4294308087
31.445871 878.17474 820.65698 4294966015
-16.550459 879.44006 821.72388 4290072649
-13.761468 880.38135 819.90155 4290465360
-11.009174 879.96045 819.54663 4290263362
26.422018 879.53967 819.19177 4294636795
28.623854 880.38135 819.90155 4294571001
31.445871 879.44006 821.72388 4294636282
33.100918 879.44006 821.72388 4294570488
-16.513762 882.0647 821.3208 4289809722
-14.021101 883.37427 821.11694 4290467406
-10.98471 883.84399 820.20502 4291518303
29.131498 883.39087 820.69501 4294570746
31.376146 882.0647 821.3208 4294570488
-14.005505 885.94342 821.97522 4290994029
-11.495413 887.97406 819.76331 4291060339
28.788074 886.95874 820.86926 4294504956
31.306421 885.94342 821.97522 4294570491
-14.232415 889.64801 821.1748 4290205283
-11.469725 890.58051 819.34497 4290070621
26.216515 890.58051 819.34497 4294373109
28.70734 889.90503 820.08344 4294373368
31.201836 889.8573 821.3512 4294504953
-13.927523 892.45953 820.92932 4290006873
28.947401 892.25073 820.75323 4294636282
31.132111 893.08588 821.4574 4294109940
-13.078899 895.05615 820.50262 4290529867
-10.899083 894.84784 820.32697 4291583579
26.157799 894.43121 819.97571 4294175731
28.610092 895.05615 820.50262 4294241526
31.062386 895.68109 821.02954 4294043892
-10.590826 898.94055 819.85376 4290726222
28.513762 898.94055 819.85376 4294044402
30.957798 898.94055 819.85376 4293847281
-13.577981 901.0166 821.60425 4289539634
-10.83792 901.93732 819.76465 4291051595
28.742508 901.4917 820.26093 4293847021
31.736698 901.47607 820.68365 4293978608
34.216515 901.43182 821.95435 4293978351
-10.555964 904.67444 820.76434 4290981176
28.385323 905.34009 820.01758 4294110194
31.666054 904.67444 820.76434 4293912815
