# .PCD v0.7 - Point Cloud Data file format
VERSION 0.7
FIELDS x y z rgb
SIZE 4 4 4 4
TYPE F F F U
COUNT 1 1 1 1
WIDTH 1173
HEIGHT 1
VIEWPOINT 0 0 0 1 0 0 0
POINTS 1173
DATA ascii
-1.7045871 814.78809 802.52789 4289809493
1.1363914 814.57098 802.34473 4290861147
4.2614679 814.78815 802.52783 4291978887
6.8183484 814.13654 801.97852 4294422719
40.910091 814.13654 801.97852 4294966527
43.466972 815.4397 803.07727 4294965759
0 817.55029 802.24084 4290531410
4.2522936 818.20044 802.78906 4292240250
7.3706422 817.3335 802.05811 4293562245
11.055964 816.90009 801.69263 4294961642
40.822018 816.90009 801.69263 4294966783
42.522934 818.20044 802.78906 4294767613
0.85045874 819.50085 803.8855 4290861665
4.2440367 820.59192 802.84338 4292241792
6.7816515 821.68298 801.80127 4292569474
40.689907 821.68298 801.80127 4294636282
43.233028 821.68298 801.80127 4294833660
0.84770644 823.6272 803.44061 4290991209
4.2385321 822.97913 802.89417 4292440191
7.612844 824.43109 801.50232 4292832648
10.150458 824.43109 801.50232 4293688463
38.06422 824.43109 801.50232 4294832893
40.601833 824.43109 801.50232 4294372855
43.187157 823.70508 802.19824 4294899198
45.776146 824.27527 803.98706 4294767867
0.84587157 827.01782 803.68335 4290392399
4.2293577 826.37109 803.13806 4292372318
40.601833 825.72443 802.5929 4294701307
43.13945 826.37109 803.13806 4294701818
4.2155962 830.47644 802.67554 4291581246
7.3070335 829.617 801.95087 4292499316
10.117432 829.18732 801.5885 4293815693
38.783485 829.18732 801.5885 4294701304
40.469727 829.83191 802.13202 4294570231
42.155964 830.47644 802.67554 4294504695
0.84311926 831.76556 803.76245 4290797667
4.2100916 832.48596 803.06183 4291582052
7.5715594 832.56311 801.81891 4292367723
10.095413 831.91998 801.27661 4293485701
31.968807 831.91998 801.27661 4294635765
33.651375 831.91998 801.27661 4294701304
38.138226 832.34882 801.63818 4294636281
40.381653 833.2063 802.36121 4294570488
42.999084 831.76556 803.76245 4294438903
4.2064219 834.49268 803.4458 4292042634
7.5467887 836.64954 801.34033 4292962158
10.062386 836.64954 801.34033 4292629109
37.733944 836.64954 801.34033 4294504695
40.381653 834.49268 803.4458 4294373879
4.4721713 838.78644 803.14209 4291713143
7.5467887 837.93164 802.42139 4293685365
10.877064 839.36676 801.01538 4293490314
30.957798 839.36676 801.01538 4294833147
34.304588 839.36676 801.01538 4294503930
37.651375 839.36676 801.01538 4294701304
40.808563 838.78644 803.14209 4294635770
4.183486 841.92542 803.17285 4291713400
7.2513757 841.07251 802.45367 4293359987
10.040367 840.64606 802.09412 4293753232
37.651375 840.64606 802.09412 4294701307
40.998165 841.92542 803.17285 4294372342
7.7834868 844.91968 801.77344 4293360764
10.563302 844.49463 801.41504 4293491080
13.34312 844.06964 801.05664 4294145932
30.855965 844.06964 801.05664 4294372857
34.469723 844.49463 801.41504 4294569209
37.527523 844.70715 801.59424 4294701562
0 846.61987 803.20703 4289744493
4.1697249 846.61987 803.20703 4291844972
7.4963303 847.33179 802.49927 4292898178
10.81743 848.04376 801.7915 4293094260
34.948624 848.04376 801.7915 4294372344
37.444954 848.04376 801.7915 4294503925
40.029358 846.61987 803.20703 4294569720
0 850.58838 803.93701 4290400356
4.9926605 850.58838 803.93701 4292438376
7.2116208 849.74023 803.22186 4292697986
10.793578 850.73718 801.44641 4293556342
13.284404 850.73718 801.44641 4294342039
34.041283 850.73718 801.44641 4294635514
37.444954 849.3161 802.86426 4294569718
40.496021 850.16431 803.57941 4294373113
4.9816513 853.27625 803.58728 4292174175
7.472477 852.64148 803.05206 4292894090
9.9633026 852.00671 802.51685 4294081922
37.362385 852.00671 802.51685 4294438902
40.683487 853.27625 803.58728 4294569215
4.9651375 857.92999 803.58716 4292630640
7.6132112 856.91779 802.7337 4292038263
10.757798 856.0321 801.98688 4293488497
14.06789 855.39941 801.45349 4294277780
33.92844 855.39941 801.45349 4294635514
37.514374 855.82123 801.80908 4294701305
40.272781 857.50824 803.23151 4294372340
43.031193 857.92999 803.58716 4294569718
7.4311924 860.60236 803.22437 4292761708
10.733945 859.97107 802.69202 4292962154
13.761468 858.49823 801.4502 4294146442
16.513762 858.07733 801.09534 4294739364
31.376146 858.07733 801.09534 4294570488
34.128437 858.49823 801.4502 4294241524
37.155964 859.33984 802.15979 4294570231
39.633026 860.60236 803.22437 4294438902
11.533945 863.2691 802.85681 4294278532
13.730887 862.42926 802.14874 4293881465
32.954128 862.0094 801.79468 4294767867
34.601833 862.0094 801.79468 4294636282
36.798779 862.84918 802.50275 4294635769
7.4146786 864.52881 803.91895 4291178043
10.690825 865.5799 802.84314 4293679981
32.844036 866.63098 801.76733 4294569718
36.949539 866.63098 801.76733 4294833147
40.368805 864.52881 803.91895 4294373879
7.3899078 868.51416 803.35522 4291710812
10.661469 868.58575 802.1076 4293085017
31.951376 869.2851 801.38928 4294635258
34.409176 869.2851 801.38928 4294635511
37.196331 868.77118 802.69989 4294701560
40.233948 868.51416 803.35522 4294241265
7.6464829 871.37286 803.1496 4292041828
10.650459 870.53778 802.44543 4291638092
13.89633 871.93359 801.00623 4293612652
24.522936 871.93359 801.00623 4294942407
28.610092 871.93359 801.00623 4294830840
31.916513 871.23572 801.72583 4294569720
34.409176 870.53778 802.44543 4294438389
36.866974 871.16406 802.97357 4294438389
40.144035 871.79041 803.50171 4294174962
8.1743116 874.43335 803.11401 4291976308
10.626606 873.80847 802.58704 4292629868
13.078899 873.18347 802.06018 4292690514
31.879816 873.18347 802.06018 4294504182
35.149544 873.18347 802.06018 4294372596
37.601833 874.43335 803.11401 4294306549
39.236698 874.43335 803.11401 4294042861
11.405504 877.76434 801.99854 4293551735
13.034863 877.76434 801.99854 4293348987
10.853822 879.8858 802.91528 4293679967
13.005505 881.01599 802.12421 4294209928
40.130886 880.34735 802.43243 4294371826
10.566973 882.88025 803.69617 4291700788
14.057492 883.84595 801.89429 4293678192
17.031193 883.63928 801.71997 4293481061
19.46422 883.01929 801.19727 4293807977
35.684402 883.01929 801.19727 4294371060
38.387768 883.43262 801.54572 4294240241
40.550457 884.25928 802.2428 4293912045
42.267891 882.88025 803.69617 4294109938
11.354129 885.49933 803.28833 4291964758
13.787156 885.49933 803.28833 4292950102
16.973394 887.56366 801.10486 4293148234
19.398165 887.56366 801.10486 4293343036
21.822937 887.56366 801.10486 4294728822
24.247707 887.56366 801.10486 4294940357
35.563301 887.56366 801.10486 4294240754
37.988075 887.56366 801.10486 4294438133
40.550457 885.49933 803.28833 4294174960
42.172478 885.49933 803.28833 4294240754
11.315597 890.03534 803.18896 4292042355
13.740367 889.41742 802.66791 4293484904
16.973394 888.7995 802.14685 4293343061
19.398165 888.7995 802.14685 4293475137
21.014679 888.7995 802.14685 4293409344
38.257492 889.21143 802.4942 4294109425
40.412846 889.41742 802.66791 4294109168
42.029358 890.03534 803.18896 4294109167
10.483486 893.87201 803.80786 4292636527
13.709174 892.63898 802.76819 4294277784
16.934864 892.02246 802.24835 4293813636
20.160549 891.40594 801.72852 4293277769
22.579817 891.40594 801.72852 4293477214
35.482571 891.40594 801.72852 4294240754
37.633026 892.22797 802.42163 4294108910
41.127525 893.87201 803.80786 4294306033
11.26422 896.46722 803.38 4292373878
13.409786 895.64703 802.68848 4293487518
16.896332 895.237 802.34265 4294672538
20.114677 894.00677 801.3053 4293023084
34.865444 894.41681 801.65106 4294174960
37.815598 895.237 802.34265 4294240753
40.229359 896.46722 803.38 4294305006
11.238532 899.05676 802.94739 4292700781
13.914372 898.64764 802.60236 4293817240
16.8578 898.44299 802.42993 4294476711
20.068806 897.82935 801.91248 4294543005
22.477064 897.82935 801.91248 4294934137
24.885323 897.82935 801.91248 4294145402
28.899082 897.82935 801.91248 4294960623
31.307339 897.82935 801.91248 4294501614
34.518349 897.82935 801.91248 4293977068
37.729355 898.44305 802.42993 4294305776
40.137615 899.05676 802.94739 4294108141
10.43578 900.28418 803.9823 4292501362
13.6 902.31903 801.77393 4292831867
16.799999 902.31903 801.77393 4294211751
20 902.31903 801.77393 4294740118
22.4 902.31903 801.77393 4294938781
24.799999 902.31903 801.77393 4294740881
27.200001 902.31903 801.77393 4294947248
32 902.31903 801.77393 4294109167
34.400002 902.31903 801.77393 4294109167
37.599998 902.31903 801.77393 4294174960
40.940369 900.28418 803.9823 4294174960
10.4 904.76544 803.83667 4292096587
13.6 904.15387 803.32092 4293419120
16.799999 903.54224 802.8053 4294344107
19.954128 904.896 801.33069 4294936725
23.172478 904.21912 802.06799 4294938006
25.541285 904.896 801.33069 4294676110
27.93578 904.896 801.33069 4294489792
31.128441 904.896 801.33069 4294698483
34.321098 904.896 801.33069 4294372339
37.5578 904.21912 802.06799 4294109425
40.799999 904.15381 803.32098 4294043375
14.366973 907.33685 803.38879 4294665599
16.761467 906.72662 802.87427 4294541970
19.931192 907.4007 802.13464 4294803868
22.845261 907.8288 802.05957 4294670234
27.871559 908.685 801.90942 4294357956
34.242203 908.685 801.90942 4293977069
37.470642 907.4007 802.13458 4294108911
40.440365 906.92999 803.04572 4294043374
14.333945 911.12018 803.96277 4293145432
16.722935 910.51135 803.4494 4293606739
19.908257 909.90259 802.93604 4294400634
23.066055 910.5752 802.19519 4294672805
25.423853 911.24786 801.45435 4294944172
27.807339 911.24786 801.45435 4294291646
30.985321 911.24786 801.45435 4294566127
34.203671 910.5752 802.19519 4293845997
37.427521 909.90259 802.93604 4294043374
40.612846 910.51135 803.4494 4294241006
16.949234 913.27252 803.16144 4293214547
19.862385 913.07007 802.99078 4293937755
22.775536 912.86768 802.82007 4294275992
34.428135 912.86768 802.82007 4293977582
37.341286 913.07013 802.99078 4293977838
40.254433 913.27252 803.16144 4294043631
19.816513 916.22919 803.03845 4293675094
23.251375 915.8252 802.69775 4294468725
26.127522 916.29169 801.78308 4294808484
28.502752 916.29169 801.78308 4294031310
30.877981 916.29169 801.78308 4294565358
33.820187 915.8252 802.69775 4293977325
37.255047 916.22919 803.03845 4293912045
39.633026 916.22919 803.03845 4293846252
16.60734 919.9845 803.58875 4293280852
19.770641 918.77533 802.56921 4293740889
22.933945 918.77533 802.56921 4294069082
26.888073 918.77533 802.56921 4294934931
28.469725 918.77533 802.56921 4294225606
30.842201 918.77533 802.56921 4294565102
34.005505 918.77533 802.56921 4293977327
37.168808 919.9845 803.58875 4294043379
40.332108 918.77533 802.56921 4293714925
16.549541 923.18646 802.3645 4293279571
19.701836 921.98151 801.34839 4293544276
22.85413 921.98151 801.34839 4294265698
26.006422 921.98151 801.34839 4294403698
29.158714 921.98151 801.34839 4293832159
31.522936 921.98151 801.34839 4294240242
34.675228 921.98151 801.34839 4293846000
37.039452 923.18646 802.3645 4293648623
40.191742 922.58398 801.85645 4293846257
42.555962 922.58398 801.85645 4293648620
13.64893 925.23407 803.21893 4292816465
16.511009 926.31824 802.38904 4293279571
19.393885 926.11786 802.22003 4293478483
29.877064 926.31824 802.38898 4294953939
33.808258 926.31824 802.38904 4294041838
36.953209 926.31824 802.38904 4294042610
40.098167 926.31824 802.38904 4294043377
43.268806 925.98682 802.76355 4294108914
45.708256 924.39142 803.38049 4294568955
11.007339 928.12152 803.90942 4289998908
13.366055 928.12152 803.90942 4291832666
16.490826 928.78149 803.15796 4293476695
19.871559 929.04175 802.06934 4293675349
22.747707 928.8418 801.90082 4294331492
25.885323 928.8418 801.90082 4294663787
28.761469 929.04175 802.06934 4293499299
31.89908 929.04175 802.06934 4294435822
34.51376 929.44153 802.40649 4293910507
36.866974 929.44153 802.40649 4294042862
40.004585 929.44153 802.40649 4294109167
43.193581 928.78149 803.15796 4293977326
46.388073 928.12152 803.90942 4293911021
16.472477 930.64093 803.41772 4293476950
19.586239 931.29956 802.66504 4293938780
22.694496 931.95819 801.91235 4294463075
25.824772 931.95819 801.91235 4294467178
28.955048 931.95819 801.91235 4293827240
32.123852 931.29956 802.66504 4294566638
34.51376 930.64093 803.41772 4293977068
36.866974 930.64093 803.41772 4293713639
40.004585 930.64093 803.41772 4293845226
43.142204 930.64093 803.41772 4293779948
14.086239 934.35132 803.93018 4288584872
16.694801 933.95245 803.59393 4290413959
19.541285 934.40894 802.67065 4290987359
22.641285 935.06616 801.91675 4293807198
25.764221 935.06616 801.91681 4294598770
28.626913 934.86719 801.74902 4293560472
32.270336 934.86719 801.74902 4294566382
35.195415 934.08099 803.04822 4293845738
37.519264 934.40894 802.67065 4293845993
39.86422 934.40894 802.67065 4293845482
42.258717 934.35132 803.93018 4293910507
17.176147 936.85681 803.42664 4291345089
19.494495 937.51123 802.67041 4289422496
22.588074 938.16559 801.91418 4291384661
25.703671 938.16559 801.91418 4294074739
28.819267 938.16559 801.91418 4294019487
31.934862 938.16559 801.91418 4294565355
35.050461 938.16559 801.91418 4294175213
38.166054 938.16559 801.91418 4293977320
40.50275 938.16559 801.91418 4293976301
42.159634 936.85681 803.42664 4293976301
19.732109 940.15057 803.58771 4289959352
22.588074 939.95203 803.42041 4291732925
25.703671 939.95203 803.42041 4291587419
28.785322 940.60364 802.66187 4293758098
31.859631 941.25671 801.90442 4294366189
34.967888 940.66266 801.40356 4294108654
38.076149 940.66266 801.40356 4294042859
40.957188 941.01935 802.57635 4293845229
42.060551 939.35657 802.91833 4294042350
23.311926 943.03894 803.4071 4289242068
25.64312 943.03894 803.4071 4289503634
28.751377 943.03894 803.4071 4293372861
31.784403 944.33942 801.88757 4294627815
34.885323 944.33942 801.88757 4293779946
38.761467 944.33942 801.88757 4293977838
41.136696 943.68921 802.64734 4293583594
28.683487 946.71008 803.88647 4292718795
31.784403 945.52472 802.88708 4294233309
34.80275 946.82233 801.36511 4294042861
37.896332 946.82233 801.36511 4294043628
41.039452 946.17352 802.1261 4293846252
43.412846 946.71008 803.88647 4293385186
28.615597 949.18738 803.35925 4291275460
31.709175 948.00488 802.36218 4293709785
34.029358 948.00488 802.36218 4294042861
41.763302 948.00488 802.36218 4293582312
16.183487 953.48218 803.0564 4281016390
19.522936 953.08936 802.72528 4283452241
21.577982 952.30383 802.06287 4289700541
28.770643 953.08936 802.72528 4289369497
31.596331 951.7146 801.56616 4293319135
33.908257 951.71466 801.5661 4293779943
43.926605 952.30383 802.06287 4293779946
19.988991 955.94403 802.51624 4284373578
22.295414 955.35632 802.02063 4291143369
25.370644 955.35632 802.02063 4290942349
28.445873 955.94403 802.51624 4289760617
31.521101 955.35632 802.02063 4292528865
34.596329 955.35632 802.02063 4293779687
36.902752 954.76855 801.52502 4293977068
16.913761 957.11957 803.50732 4282719276
19.988991 957.11957 803.50732 4282533976
22.514984 958.36444 802.81281 4289638370
25.324772 958.66663 802.84961 4292330906
28.395412 958.66663 802.84961 4291733902
31.445873 958.98676 802.46558 4293513438
34.534866 958.66656 802.84961 4293714666
37.58165 958.98676 802.46558 4293714156
40.649544 958.98682 802.46558 4293845736
43.973087 959.18219 802.63037 4293845480
47.040974 959.18219 802.63037 4294107630
26.077065 960.74585 803.94885 4291017412
28.377983 960.74585 803.94885 4290687672
31.445873 960.74585 803.94885 4293055450
33.746788 960.74585 803.94885 4293977840
37.58165 960.74585 803.94885 4293516267
39.882568 960.74585 803.94885 4293779941
46.018349 960.74585 803.94885 4294042861
46.466057 748.42413 805.43286 4294636797
49.14679 748.42413 805.43286 4294570749
-8.0174313 752.08203 804.5929 4288816679
46.322937 752.08203 804.5929 4294899453
48.995415 752.08203 804.5929 4294701820
-8.9082565 754.12512 806.31567 4289417060
-7.9926605 757.76819 805.46332 4289877097
-7.9761467 760.64392 805.27197 4289419111
-8.8348627 764.94708 804.9762 4290351768
44.174313 764.94708 804.9762 4294966783
46.824768 764.94708 804.9762 4294966271
49.475231 764.94708 804.9762 4294966015
46.824768 766.29791 806.11523 4294966527
49.475231 766.29791 806.11523 4294966015
51.242203 766.29791 806.11523 4294966271
-8.8073397 769.23755 804.66974 4289826978
43.449543 769.01312 804.48047 4294966271
46.678898 769.91089 805.23743 4294966527
-8.7798166 773.51544 804.35266 4289303714
43.021103 773.51544 804.35266 4294966527
46.678898 771.25757 806.37292 4294966527
-8.7798166 775.52905 806.05054 4289109930
42.977066 775.60913 804.80994 4294966783
46.533028 775.52905 806.05054 4294967039
-8.7614679 779.03961 806.39441 4289044403
43.807339 777.69995 805.26489 4294967295
46.43578 778.36975 805.82965 4294967039
-8.7339449 782.6203 805.4895 4288977584
43.669724 781.28485 804.36353 4294967295
46.289909 781.95258 804.92651 4294966271
-7.5596328 784.50568 805.33514 4288185759
41.834862 784.11438 804.13318 4294967295
43.57798 784.11438 804.13318 4294967295
46.192661 784.7807 804.69501 4294966527
48.910091 783.95575 806.61548 4294966527
-8.7155962 786.7796 806.38049 4287988638
47.06422 786.7796 806.38049 4294967295
-7.8192654 790.3407 805.45898 4288845223
-5.2128439 789.01227 804.33887 4288975017
43.440369 789.01227 804.33887 4294967295
46.046791 789.67651 804.89893 4294967039
50.390827 791.66907 806.57898 4294967295
52.997246 791.66907 806.57898 4294966271
-6.9284406 793.89331 804.5304 4288911509
-5.1963301 793.89331 804.5304 4289766818
46.766972 793.89331 804.5304 4294966783
48.499084 793.89331 804.5304 4294967295
-8.0831804 795.65894 806.01904 4288583581
-5.1853213 796.69751 804.27869 4288847531
44.939449 796.69751 804.27869 4294965247
46.667889 796.69751 804.27869 4294965759
49.653824 795.65894 806.01904 4294965759
51.963303 795.21753 805.64685 4294967039
-6.9137616 798.67963 805.94995 4289173160
-5.1853213 798.01892 805.39282 4289634744
44.939449 798.01892 805.39282 4294966527
46.667889 798.01892 805.39282 4294966271
48.972477 798.8999 806.13568 4294966015
52.71743 798.67969 805.94995 4294966271
-6.8917432 802.86914 805.55835 4289036935
-5.1688075 802.21057 805.00305 4290420647
44.222015 801.99103 804.81793 4294966783
46.519264 802.21057 805.00305 4294967039
-7.4611621 805.11407 806.57916 4289166981
-4.2981653 805.65515 805.29138 4290812070
41.262386 804.34076 804.18311 4294967039
44.127827 805.65509 805.29132 4294899966
46.469727 805.57794 806.5343 4294966527
49.103668 804.18634 806.66895 4294965503
52.549541 804.18634 806.66895 4294898942
-3.4275229 809.16846 804.32959 4291268766
-4.2807341 811.8653 805.29553 4288956753
43.655045 811.21021 804.74316 4294966015
-3.4201834 813.90283 805.70551 4289547604
46.742508 814.12079 805.88922 4294899710
-3.4091742 818.04608 805.2749 4289482336
-1.7045871 817.39453 804.72546 4290272105
1.7045871 816.74292 804.17603 4291058522
44.319267 816.74292 804.17603 4294701304
46.023853 818.04608 805.2749 4294965246
-3.4091742 819.34924 806.37366 4289349733
-1.7009175 820.80121 804.98193 4290270835
46.826607 820.0752 805.6778 4294833660
-1.7009175 822.10156 806.07837 4290535026
-3.3908257 826.86761 806.17273 4289081666
-1.6954129 825.57141 805.07983 4289606481
45.776146 826.21948 805.62628 4294438648
-3.3834863 830.89783 806.95496 4290074446
-1.6917431 828.95782 805.31915 4289874259
0.84587157 828.31116 804.77393 4289671488
43.985321 828.31116 804.77393 4294504697
46.240978 830.46674 806.59149 4294569978
-1.6862385 833.05475 804.84949 4290074446
0.84311926 833.05475 804.84949 4291127134
42.999084 833.05475 804.84949 4294373623
-1.6862385 834.34387 805.9364 4289876810
0.84128439 835.77899 804.5304 4291060587
3.3651376 835.77899 804.5304 4290989163
42.953209 835.0614 805.2334 4294570234
-1.6825688 837.7085 806.15729 4290008404
0.84128439 837.06531 805.61499 4291519866
43.746788 837.06531 805.61499 4294766847
-1.6770642 841.77808 805.66455 4290205291
1.1180428 840.92334 804.94385 4290598255
43.603668 841.13696 805.12402 4294767100
-3.3504586 844.41174 806.57727 4289218894
-1.6733944 844.48401 805.3302 4290139235
0.83669722 843.84436 804.79083 4290270320
4.183486 843.20471 804.25146 4291714172
41.277065 843.63116 804.61102 4294372343
43.508255 844.48401 805.3302 4294636284
45.181652 845.76337 806.40894 4294438904
-1.66789 847.89502 804.2821 4290469465
0.83394498 847.89502 804.2821 4290599534
4.1697249 847.89502 804.2821 4292043607
41.697247 847.89502 804.2821 4294899455
43.365139 847.89502 804.2821 4294570491
-1.66789 849.80768 805.89484 4290790474
1.1119267 850.492 805.59979 4290531163
3.3321102 850.51538 805.18353 4291911774
43.317432 850.51538 805.18353 4294504442
45.866974 850.44525 806.43237 4294570490
-1.6642202 853.13306 806.08264 4289604402
0.83211011 853.13306 806.08264 4289012527
4.155046 853.83936 805.37018 4291117394
41.51376 854.54572 804.65771 4294569207
44.054131 853.83936 805.37018 4294635513
-1.6605505 857.08472 806.79846 4289601839
0.55351681 856.66156 806.44171 4289995305
3.321101 855.81525 805.72815 4290459728
44.834862 857.08472 806.79846 4294373109
-1.6550459 860.46063 805.72095 4289405239
0.82752293 860.46063 805.72095 4290126652
3.8617737 859.61713 805.0097 4290852673
41.376148 859.19531 804.65405 4294570488
43.582874 860.03888 805.3653 4294636280
-1.6550459 861.72589 806.78772 4289606449
0.82752293 862.42664 806.0705 4290262349
4.4036698 862.70648 804.99847 4290459195
7.4311924 861.86481 804.28882 4292627547
9.9082565 861.86481 804.28882 4293949823
40.458717 861.86481 804.28882 4294504696
43.761467 863.12732 805.35327 4294438902
47.168808 861.72589 806.78772 4294306803
-1.6513761 864.38983 806.41785 4289740075
0.82568806 864.38983 806.41785 4290463837
4.1229358 865.08911 805.69946 4291252819
6.5908256 865.78845 804.98108 4291576144
43.664223 865.78845 804.98108 4294569718
46.238533 864.38983 806.41785 4294044144
0 867.04816 806.04321 4289413450
4.119266 867.04816 806.04321 4291517277
43.664223 867.04816 806.04321 4294306803
-1.6422018 871.65283 806.00171 4289744992
0.54740059 871.23438 805.64886 4290272600
4.1055045 870.3974 804.94312 4291057743
43.518349 870.3974 804.94312 4294372342
45.981651 871.65283 806.00171 4294438902
-1.6385322 875.54846 806.67029 4289603387
0.81926608 874.92212 806.14221 4289214272
4.0963306 873.66943 805.086 4291519575
7.0892968 874.80322 804.29785 4292173174
9.8091745 875.68323 804.16785 4293354100
40.357189 874.80322 804.29785 4294108652
43.421101 873.66943 805.08606 4294306548
45.878899 875.54846 806.67029 4294174962
4.0871558 877.55798 805.7486 4289996609
7.084404 877.34967 805.57294 4291638855
43.596329 877.34967 805.57294 4294306803
4.8880734 881.50134 805.14941 4289867586
7.6036696 881.08612 804.79932 4291440957
9.7761469 880.25568 804.09912 4292627519
43.177982 880.87854 804.62427 4294241267
4.8880734 882.74695 806.19971 4290529868
7.3321099 882.74695 806.19971 4290655042
9.7541285 884.12311 804.74414 4291240778
43.893578 884.12311 804.74414 4294306803
45.622017 882.74695 806.19971 4294372344
4.3314986 886.65137 806.00385 4291189346
7.3073392 886.67267 805.58575 4292242289
10.272782 887.15277 804.68243 4292237936
43.253826 887.15277 804.68243 4294043118
46.026913 886.65143 806.00385 4294305779
4.0550461 889.21948 806.42505 4291256948
6.4880733 889.21948 806.42505 4291253357
46.227524 889.21948 806.42505 4294108654
0 893.74286 806.31494 4290402643
4.8495412 893.12494 805.79395 4291121773
7.274312 892.50702 805.27295 4291581548
10.507339 891.27118 804.23096 4292634488
40.412846 891.27118 804.23096 4294240240
43.107037 891.68311 804.57831 4294240240
45.262386 893.12494 805.79395 4293977067
4.838532 896.33807 805.88721 4292176254
7.2577982 895.72156 805.36737 4291910249
9.6770639 895.10504 804.84753 4292966271
41.933945 895.10504 804.84753 4294108141
43.546787 895.72156 805.36737 4294437362
4.838532 897.57111 806.92688 4290795364
7.5143733 898.06543 805.59961 4291714158
9.6550455 897.69745 804.41724 4292503658
41.838531 897.69745 804.41724 4294240240
43.447708 898.92767 805.45459 4294372596
45.966057 897.57111 806.92688 4294175731
7.4972477 901.46948 805.8537 4291710555
10.43578 901.5116 805.01721 4292566637
41.743118 901.5116 805.01721 4294240756
43.883789 902.3299 805.70721 4294240754
45.056881 900.1579 806.49182 4294175731
10.4 905.98865 804.86816 4291831357
12.8 905.98865 804.86816 4292889444
44 905.98865 804.86816 4294109681
7.4666667 908.02734 806.5871 4290587189
10.4 907.21185 805.89954 4291371320
13.568808 908.55725 804.41772 4292749906
15.963303 908.55725 804.41772 4293146186
41.504585 908.55725 804.41772 4293977836
44 907.21185 805.89954 4294109678
46.400002 907.21185 805.89954 4294110191
48 908.43512 806.93091 4293911791
7.9816513 910.99805 806.47583 4290718518
10.376147 910.38782 805.9613 4291569215
12.770642 909.77765 805.44678 4292026951
44.165134 910.18439 805.78979 4294044397
46.825687 910.59125 806.13281 4293912559
10.352293 913.55542 806.01599 4291569982
13.522018 913.61505 804.7583 4292358732
16.684402 914.89227 804.52722 4293148753
41.313763 914.89227 804.52722 4293977838
43.499695 913.59521 805.17755 4294306802
46.187157 913.55542 806.01599 4294109938
10.328441 917.3219 806.57581 4291372603
13.506422 916.10706 805.55151 4292423240
16.645872 917.44122 804.0603 4293149266
37.255047 917.44122 804.0603 4293977840
43.647705 916.77417 804.80591 4293912306
46.875229 916.10706 805.55151 4293912305
11.097248 919.86517 806.10413 4291636286
13.475229 918.6532 805.08228 4292555595
44.388992 918.6532 805.08228 4293713648
47.031189 919.05713 805.42285 4293779692
10.280734 923.00745 806.13757 4291505213
13.444036 921.19373 804.60828 4292554828
44.28624 921.19373 804.60828 4293910255
46.658714 921.79834 805.11804 4293976558
49.031193 923.00745 806.13757 4294174447
10.244954 926.19891 804.90448 4290456377
12.609175 925.59644 804.39648 4292025922
46.49633 925.59644 804.39648 4294042863
49.648624 926.80139 805.41248 4294174705
10.23211 928.66504 805.67578 4287838292
13.366055 929.32367 804.9231 4290453829
46.388073 929.32367 804.9231 4293649132
49.591743 928.66504 805.67578 4293517289
7.8623853 931.72803 806.95032 4288380556
9.9590216 930.92657 806.2746 4287848575
13.334863 931.84027 804.42896 4287447884
15.688073 931.84027 804.42896 4289874251
43.142204 931.84027 804.42896 4293714155
46.334862 931.18311 805.18286 4294043375
49.270947 931.32733 806.61249 4293779176
10.458715 933.83917 806.11444 4288906625
13.0526 934.71185 805.10614 4289306802
15.651376 935.54791 804.93909 4290094765
43.875229 934.29382 805.1897 4293977068
46.253212 933.96655 805.56787 4293845482
10.955963 937.94104 806.95691 4285288517
13.042813 937.14331 806.28436 4285290101
16.413761 937.39746 805.19061 4284439661
18.737616 938.05054 804.43323 4289758884
43.823853 936.74445 805.948 4293976814
45.388992 937.34277 806.45245 4293977326
14.053211 939.84119 805.94299 4282264142
16.385323 940.16632 805.56305 4281017413
19.472477 941.73846 804.92664 4283189092
21.809174 941.73846 804.92664 4285491867
43.7211 939.84119 805.94299 4293583081
10.904587 944.12036 806.93506 4280949543
13.241284 944.12036 806.93506 4281409322
16.35688 944.12036 806.93506 4281475896
19.212845 943.32635 806.26562 4282464850
22.588074 942.92938 805.93091 4289177259
25.64312 944.22705 804.40894 4289373094
28.751377 944.22705 804.40894 4292782550
43.515594 944.22705 804.40894 4293517802
13.210092 946.60333 806.4126 4281605931
16.318348 946.60333 806.4126 4281345605
19.685627 946.20728 806.07861 4283846231
22.508257 946.65527 805.14838 4291215823
25.612843 946.65527 805.14838 4289372602
45.069725 946.00928 805.91168 4294174444
9.3027525 950.26611 806.88489 4278192140
12.403669 949.08075 805.88538 4281408808
23.201836 950.36993 804.35632 4291082194
25.522018 950.36993 804.35632 4288647335
27.842201 950.36993 804.35632 4285292112
10.827523 952.14374 805.85193 4278984497
13.147707 951.55249 805.35339 4280490532
10.788991 955.83881 805.04346 4285753488
13.100918 955.24963 804.54669 4281802542
15.926605 955.05322 804.3811 4280948261
18.495413 955.24963 804.54669 4279835162
10.788991 957.01715 806.03699 4288050819
13.100918 957.01715 806.03699 4289105558
16.413456 958.26099 805.34174 4291078831
19.220184 958.88287 804.99414 4288254628
22.039145 959.0788 805.15924 4287271342
24.601835 959.47064 805.48962 4291215047
35.365139 959.47064 805.48962 4293714411
41.515594 959.47064 805.48962 4293845734
43.822018 959.47064 805.48962 4293977320
47.666054 959.47064 805.48962 4294042861
49.756577 958.26099 805.34174 4293910248
53.174313 957.01715 806.03699 4294042861
19.988991 960.64612 806.48083 4290416244
22.295414 960.64612 806.48083 4290553006
25.370644 960.64612 806.48083 4288321727
28.411011 961.28235 805.70923 4285758810
31.521101 960.64612 806.48083 4292659159
34.555962 961.28235 805.70923 4293911275
37.671562 960.64612 806.48083 4293516268
40.746788 960.64612 806.48083 4293911527
43.822018 960.64612 806.48083 4293649639
46.897247 960.64612 806.48083 4293846250
49.203671 960.64612 806.48083 4293713896
29.144955 963.09125 805.92639 4284968790
-10.722936 751.8399 808.31287 4288627543
-10.689908 756.16827 808.03833 4288299595
-10.65688 760.48401 807.75311 4288702062
-12.433027 762.52081 809.47058 4288775310
-10.634862 764.03162 808.12842 4289364630
-10.634862 765.38672 809.271 4288052620
49.475231 767.6488 807.25427 4294964735
52.125687 767.6488 807.25427 4294966271
54.776146 767.6488 807.25427 4294966783
-10.601835 769.67505 808.96271 4287463307
49.475231 769.67505 808.96271 4294964735
52.125687 769.67505 808.96265 4294966015
55.65963 769.67505 808.96271 4294965503
-10.568808 773.95087 808.64392 4287728280
47.559631 772.60419 807.50842 4294967039
49.321102 773.95087 808.64392 4294967039
-10.568808 775.29749 809.7793 4287531421
51.963303 775.29749 809.7793 4294966015
-10.53578 778.88519 808.88037 4287793053
49.752293 778.43774 808.50311 4294966271
-10.513762 781.71893 808.65356 4286276989
50.816513 781.71893 808.65356 4294966527
-10.480734 785.2912 807.74146 4286606985
49.783485 785.2912 807.74146 4294966783
54.321102 783.05853 809.78308 4294966527
-12.227523 787.96204 809.99353 4287528559
-10.458715 788.11224 807.50403 4287660438
49.678898 788.11224 807.50403 4294967039
52.403671 786.62659 808.86743 4294966783
54.150459 786.62659 808.86743 4294966783
-10.458715 790.11121 809.18951 4287135631
-10.425688 794.32593 808.81921 4287924360
-12.163302 795.65436 809.93933 4288251014
-10.425688 795.65436 809.93933 4288185992
-8.6605501 797.86597 807.88 4288909458
-10.39266 799.19012 808.99646 4288249729
-8.6422014 800.66174 807.62122 4288710280
49.260551 800.66174 807.62122 4294966015
52.71743 800.66174 807.62122 4294965759
-10.370643 802.64386 809.29248 4288443766
-8.6146793 806.16211 808.33496 4288700517
49.390823 805.94263 808.1499 4294834173
52.549545 806.16217 808.33496 4294966015
-6.8770642 808.94116 808.06207 4288235341
-5.1577983 808.28394 807.50793 4288761175
46.420185 808.28394 807.50793 4294966271
48.71254 809.16022 808.24677 4294899709
52.437614 809.59833 808.61621 4294900479
-7.7366972 810.91272 809.72449 4288435030
53.297249 810.91272 809.72449 4294965759
55.016514 810.91272 809.72449 4294964733
-7.704587 815.79169 808.60608 4288302162
-5.1357799 814.48151 807.5014 4288697944
47.882568 815.86395 807.35901 4294899453
49.699081 813.75415 808.19611 4294833660
51.412846 814.40924 808.74847 4294701820
-10.26055 818.4787 809.56372 4287904072
-7.4103971 818.04291 809.19629 4288497485
-5.1302752 817.17133 808.46143 4288761681
49.592659 817.82501 809.01257 4294899710
51.302753 818.4787 809.56372 4294767613
-6.8183484 821.95557 808.57129 4287834665
-4.5455661 821.08673 807.83881 4289284689
47.728439 821.30396 808.02191 4294373112
-10.227523 823.25873 809.67004 4287112757
-7.6706419 823.25873 809.67004 4287770421
-4.2522936 824.05212 807.72302 4288425274
47.625687 824.70227 808.27124 4294438904
49.433029 823.25873 809.67004 4294899455
51.137615 823.25873 809.67004 4294504695
-6.8036699 826.00269 809.36768 4288432185
-5.1027522 826.00269 809.36768 4288366392
49.326607 826.00269 809.36768 4294569720
-4.521101 829.4599 808.35858 4289220675
47.471561 828.16376 807.26562 4294438391
49.166973 830.10797 808.90497 4294503673
-4.2293577 832.83789 808.5907 4289548108
46.80489 832.62231 808.40894 4294504186
49.060551 833.48456 809.13599 4294898942
-3.9345562 836.49243 807.74805 4289284682
46.090519 836.49243 807.74805 4294635515
-6.7449541 838.2113 809.19739 4287773240
-4.2119265 838.92468 808.49078 4289022034
46.270645 839.638 807.78418 4294767098
48.900917 838.2113 809.19739 4294833147
-6.7302752 842.21069 809.95349 4287837761
-5.0477066 840.92438 808.86877 4288956242
46.270645 840.92438 808.86877 4294504439
48.794495 840.92438 808.86877 4294569718
-5.0311928 844.9834 808.36719 4288427580
46.957798 844.34229 807.82666 4294372857
49.473396 844.9834 808.36719 4294439163
-3.9082565 847.42377 808.68085 4287830551
46.018349 847.04266 807.48755 4294372856
49.122936 847.42377 808.68085 4294438904
-3.3357799 851.72034 807.50757 4288683300
46.700916 851.72034 807.50757 4294767100
49.285324 850.66083 808.57629 4294635515
-4.44526 853.89044 808.46533 4287763998
-1.6642202 854.40533 807.1554 4289338934
1.6642202 854.40533 807.1554 4289798437
44.933945 854.40533 807.1554 4294306803
46.700916 852.99548 808.58276 4294372344
49.480732 853.42047 808.9411 4294635260
-4.1605506 856.31384 808.76453 4287763738
46.598164 855.67767 808.22815 4294437367
49.094498 856.31384 808.76453 4294701049
-3.321101 858.98901 808.40411 4288354595
46.495415 858.35425 807.8689 4294372342
48.986237 858.98901 808.40411 4294503928
-3.3100917 862.99121 807.85461 4288424215
47.99633 862.99121 807.85461 4294044144
49.651375 862.99121 807.85461 4294306551
-4.1330276 865.58563 808.73419 4288824391
-1.6513761 865.65228 807.4823 4289347406
1.6513761 865.65228 807.4823 4290860896
47.339447 866.07318 807.83716 4294175217
49.596329 865.58563 808.73419 4294307316
51.858105 865.10004 809.63281 4294306804
-4.1247706 868.87238 808.8894 4287640640
-1.6477064 868.30786 807.10535 4290208624
1.6477064 868.30786 807.10535 4290798935
46.959633 868.93768 807.63641 4294373109
49.541283 868.17725 809.61133 4294240756
51.192661 868.17725 809.61133 4294240756
-3.2844036 872.90833 807.0603 4287630888
-1.6422018 872.90833 807.0603 4290723415
46.882568 871.8678 808.14496 4294569718
49.431194 870.82721 809.22961 4294240758
-3.2844036 874.16382 808.1189 4288155941
-1.6422018 875.41931 809.17749 4288815670
47.623852 874.16382 808.1189 4294174962
49.266056 875.41931 809.17749 4294109169
1.0923548 877.21869 808.07861 4289145912
46.971252 877.21875 808.07861 4294109170
-1.6366973 880.61951 809.63806 4289677136
0.65394497 880.93262 808.59406 4289939797
3.2697248 880.05774 807.85638 4290659150
46.593578 880.05774 807.85638 4294240758
49.100918 880.61951 809.63806 4294043633
3.2587156 883.99261 807.25 4291189347
47.251377 883.99261 807.25 4294306038
0.81376147 886.54492 808.09418 4290139730
49.387157 886.52466 808.513 4294371312
-3.2513762 890.3374 809.98376 4289020740
-1.6256881 889.09454 808.93591 4289283376
0.81100917 889.77704 808.20331 4289809473
3.2440367 890.45953 807.4707 4290333800
47.038532 890.45953 807.4707 4294174447
49.528442 889.77704 808.20331 4294042861
-3.2440367 892.93964 809.56177 4288496445
-1.6220183 892.31958 809.039 4289153350
1.6220183 892.31958 809.039 4289941327
3.2440367 891.69958 808.51624 4290199129
47.038532 891.69958 808.51624 4294042859
48.660549 892.31958 809.039 4293912046
-1.6165137 896.21454 808.39905 4288757055
0.53883791 895.80255 808.05176 4289676372
3.2330275 895.59662 807.87805 4290268766
46.070641 894.9787 807.35706 4293977836
48.495415 896.21454 808.39905 4293977840
-1.6165137 897.45038 809.44104 4288757564
0.80825686 897.45038 809.44104 4289806940
4.03578 898.12726 808.70374 4290464338
46.772476 898.80414 807.96643 4294307316
48.495415 897.45038 809.44104 4294174962
4.8275228 902.00323 808.04779 4289995581
6.4366975 901.38812 807.52917 4290849607
46.666054 901.38812 807.52917 4294240754
49.134865 901.32776 808.78625 4293845743
4.0174313 904.52124 808.86292 4290063166
6.9571862 904.37555 807.43213 4290716734
46.559631 903.96643 807.08716 4294044144
48.738224 904.33624 808.271 4294042609
51.49358 903.84857 809.60376 4294041577
4.0137615 906.42126 809.15698 4289997373
49.770641 906.42126 809.15698 4293911791
51.376148 906.42126 809.15698 4293977068
4.2666669 910.47382 808.6499 4289932862
6.4000001 910.2699 808.47797 4290718517
49.599998 910.2699 808.47797 4293846512
51.200001 910.88153 808.99365 4293912045
3.9908257 914.04907 809.04834 4289735737
7.183486 913.43884 808.53381 4290455860
10.352293 914.77301 807.04272 4291439675
47.889908 912.21844 807.50476 4293846511
49.48624 913.43884 808.53381 4293912558
51.082569 913.43884 808.53381 4293912045
4.7779818 917.20819 809.09595 4290195523
7.1669722 916.59937 808.58264 4290522166
50.43425 916.39648 808.41156 4293912045
4.7669725 920.96625 809.64856 4288948274
7.1504583 919.14404 808.11218 4290325556
9.5339451 918.53668 807.6001 4291175735
50.053211 919.14404 808.11218 4293977581
7.133945 922.28918 808.14795 4289998130
9.5119267 921.07721 807.1261 4291241530
50.730274 922.28918 808.14795 4294174447
7.3810401 925.62744 808.34668 4288235341
4.7449541 927.23962 809.70605 4287129733
7.0926609 929.21136 807.44446 4290021270
50.436699 929.21136 807.44446 4293845485
52.194496 927.23962 809.70605 4294569207
0 931.62134 809.47644 4280090900
4.1993885 931.65594 808.63361 4285356387
6.8189607 932.09222 808.12946 4287855230
49.533028 932.93018 807.96399 4293910764
52.012844 931.0188 808.96844 4294173424
4.7174311 934.73346 809.4845 4280753705
6.8140678 934.53314 809.31561 4282789692
10.197248 935.43835 807.46289 4285090357
47.06422 935.43835 807.46289 4294042861
49.476147 934.7854 808.22028 4293779690
52.415905 934.93384 809.6535 4293845229
7.8440366 937.23743 808.97974 4280555292
9.4128437 937.23743 808.97974 4281211149
47.06422 937.23743 808.97974 4293912043
49.417431 937.23743 808.97974 4293714152
51.770641 937.8371 809.48535 4293910761
7.8256879 941.5307 809.98364 4280424739
10.173394 940.33417 808.97473 4280488732
13.031804 940.36786 808.1311 4280290086
16.395412 941.63184 807.45276 4280753704
45.910706 940.33417 808.97479 4293912046
50.084404 941.5307 809.98364 4294108654
9.3688078 944.01935 809.46594 4280817700
4.6733947 947.09778 809.44543 4279962375
7.0100918 947.09772 809.44543 4279109391
10.369419 946.96478 807.58936 4280555812
13.987156 947.7915 807.41443 4281540394
16.318348 947.7915 807.41443 4281082935
18.649542 947.7915 807.41443 4281609781
4.6458716 952.68445 807.61597 4288117369
6.9688072 952.68445 807.61597 4286279818
9.2917433 952.68445 807.61597 4283850628
4.640367 955.69135 808.84326 4281272329
6.9605503 955.1001 808.34473 4284957015
9.2807341 955.1001 808.34473 4287590268
3.5963304 958.98096 807.69287 4286802020
6.9357796 958.78455 807.52728 4286732123
10.018349 958.78461 807.52722 4283649862
13.100918 958.78455 807.52728 4282663753
15.926605 958.98096 807.69287 4282201922
18.495413 959.37378 808.02405 4283113478
50.862385 958.78461 807.52728 4293779176
53.174309 958.78461 807.52722 4293713896
3.8532109 960.55212 809.01758 4293053877
6.9357796 960.55212 809.01758 4293646059
10.018349 960.55212 809.01758 4288910800
13.100918 960.55212 809.01758 4280165951
16.183487 960.55212 809.01758 4278190083
19.266056 960.55212 809.01758 4282006837
22.321102 961.18689 808.24481 4289570720
25.626913 962.21356 807.80243 4289170876
28.445873 962.40942 807.96759 4286809212
31.521099 962.40942 807.96759 4290429910
34.340061 962.21356 807.80243 4293846252
37.415295 962.21356 807.80243 4293648619
40.796329 961.18689 808.24481 4293846247
43.822018 961.82166 807.47205 4293517285
46.897247 961.82166 807.47205 4293648871
50.033028 961.18689 808.24481 4293977834
53.174313 960.55212 809.01758 4293714664
55.48624 960.55212 809.01758 4293713898
-13.838532 964.17267 809.45435 4290290320
-12.53578 751.00092 810.22156 4288302423
-16.034863 758.89246 810.33533 4287980138
-13.362385 758.89246 810.33533 4288443263
-16.034863 760.25452 811.48376 4288509042
-14.253211 760.25452 811.48376 4287854208
-16.873394 763.87872 810.61548 4287392889
-13.3211 763.87872 810.61548 4287262850
-16.873394 765.91553 812.33282 4287459960
-13.308256 765.9892 811.08698 4287329413
54.946789 766.74182 810.41357 4294965503
-13.293577 768.77441 812.12744 4287134599
-12.368808 773.05225 811.8103 4287530637
52.125687 771.70142 810.67126 4294966783
-12.368808 774.40314 812.94934 4288317321
52.844036 776.64417 810.91479 4294966783
-12.330276 777.99084 812.05029 4287260776
-12.291743 781.57013 811.14417 4287458167
52.678898 780.89893 810.57819 4294966783
-12.266055 784.39819 810.9126 4287790963
-15.721101 790.63293 812.24548 4288773263
-13.392049 789.74268 811.49481 4287267453
-16.559633 793.44275 811.99866 4287915379
-13.073395 792.77643 811.43683 4288186248
-12.163302 796.98279 811.05945 4287921280
-12.163302 798.31122 812.17944 4287527546
-12.124771 802.50067 811.7879 4288042826
-12.099083 805.94739 812.07788 4287380278
-10.370643 804.62598 810.96375 4287380038
-12.060551 809.45514 811.11145 4287318597
-10.337615 808.79651 810.55615 4287381064
-8.6146793 808.13794 810.00085 4288235347
-12.894495 812.22711 810.83264 4287974726
-10.315597 812.22711 810.83264 4287908684
-8.5963306 812.22711 810.83264 4288106064
53.297249 812.22711 810.83264 4294965503
55.133945 810.77234 812.22217 4294965757
-12.894495 813.5415 811.94092 4287642944
-10.315597 813.5415 811.94092 4287381060
53.297249 813.5415 811.94092 4294833407
55.016514 813.5415 811.94092 4294768637
-13.710092 817.68469 811.51025 4287180341
-11.99633 817.0296 810.95789 4288235083
53.126606 817.68469 811.51025 4294504953
-13.680734 821.09344 811.76843 4286916397
-11.400612 820.22186 811.03351 4287046441
-8.5504589 819.78607 810.66614 4288097073
49.592659 819.78607 810.66614 4294767613
52.157799 820.43976 811.21729 4294373622
-13.680734 822.40082 812.87085 4287378241
-11.079817 824.56189 810.76892 4287642692
-8.5229359 824.56189 810.76892 4287973192
51.989906 824.56189 810.76892 4294372596
54.722935 822.40082 812.87085 4294240756
-13.636697 826.51672 812.41705 4286918710
-11.079817 826.51672 812.41705 4287380285
-7.6541286 827.30304 810.46411 4288104245
51.93486 826.58411 811.16589 4294503673
55.114986 826.73389 812.60016 4294504182
-10.205504 829.90375 812.65698 4287446085
-7.6541286 828.60339 811.56055 4287971902
51.877983 828.60339 811.56055 4294569718
55.279816 829.90375 812.65698 4294570488
-7.9119263 832.48431 810.90863 4287576128
50.862385 832.05225 810.54431 4294569718
52.557796 832.70032 811.09076 4294635511
55.100918 833.34839 811.63721 4294767354
-7.6220183 834.71118 811.47827 4287707193
50.188381 835.20898 810.59003 4294701305
52.444038 836.07123 811.31702 4294832893
55.100918 834.64453 812.7301 4294899453
-7.6018348 838.4325 811.34595 4287311157
50.587154 839.50043 810.2843 4294240756
52.444038 837.36462 812.40759 4294767100
54.13578 837.36462 812.40759 4294504695
-8.4311924 841.4342 811.91479 4286913834
50.587154 840.78961 811.37134 4294570488
52.835476 841.64899 812.09595 4294504441
-6.7302752 844.1402 811.58038 4286977549
52.159634 844.78339 812.12268 4294504443
-5.0311928 848.18872 811.06982 4287503122
51.988991 848.18872 811.06982 4294701309
-6.6935778 850.88068 810.72363 4287371286
52.770641 850.17578 811.43726 4294701053
55.343121 849.47083 812.15088 4294832893
-6.6935778 852.79968 812.34167 4287372570
52.990826 852.58643 812.16193 4294701305
56.058716 853.43933 812.88098 4294899197
51.704586 855.54572 810.73303 4294833147
55.874313 856.8208 811.80811 4294569719
-6.6642203 859.4314 812.70129 4287177508
-4.9871559 859.55774 810.19171 4287637290
52.365139 859.5578 810.19171 4294372341
55.751373 859.49457 811.44653 4294503925
58.247707 859.49457 811.44653 4294306803
-6.6422019 863.43225 812.15063 4288104249
53.137615 862.16272 811.0802 4294174708
55.628441 862.79749 811.61542 4294240244
58.119267 862.79749 811.61542 4294634745
-6.6201835 866.78711 811.05518 4287378491
52.961468 866.78711 811.05518 4294174449
55.444038 866.78711 811.05518 4293977582
-7.4477062 868.05237 812.12207 4286850100
-4.9541283 869.43976 810.67578 4286715952
52.018349 869.43976 810.67578 4294109170
55.444038 868.05237 812.12207 4294307059
-4.9541283 871.3335 812.27258 4286912038
49.431194 872.08691 810.29175 4294174708
52.293579 871.12305 812.09521 4294109428
55.321102 871.96472 812.80481 4294175732
-3.2954128 873.97644 811.88495 4287894819
51.902752 873.97644 811.88495 4294307063
56.022018 874.60626 812.41602 4294438902
-3.2844036 877.93024 811.29468 4288161579
-1.6422018 876.67474 810.23608 4288947501
50.360859 877.09326 810.58893 4294438137
-3.2807341 880.49878 812.15234 4288957272
50.794495 880.55914 810.89526 4294240754
52.491745 880.49878 812.15234 4294109426
54.952293 880.49878 812.15234 4294175733
-3.2697248 884.43225 811.5448 4288298311
-1.6348624 883.80737 811.01788 4289615458
50.680733 883.18243 810.49097 4294437617
52.315598 884.43225 811.5448 4294305263
-4.0816517 886.70587 811.49982 4287508009
53.133026 885.68213 812.59863 4293977584
55.58532 885.68213 812.59863 4294108656
-6.5174313 890.22095 812.50159 4287312698
-4.8880734 888.97528 811.45129 4287114040
50.51009 888.97528 811.45129 4293714409
52.954128 890.22095 812.50159 4293977838
55.398167 890.22095 812.50159 4293912558
-4.8770642 892.20166 811.55573 4287115318
50.396332 891.58026 811.03174 4293648618
52.834862 892.82312 812.07971 4293910762
55.273396 892.82312 812.07971 4293517289
58.524769 892.82312 812.07971 4293978351
60.150459 892.82312 812.07971 4293912558
-3.2440367 895.41974 811.65302 4287769131
50.28257 894.79968 811.13019 4293911791
52.715595 896.65979 812.69849 4294109424
55.959633 896.65979 812.69849 4293780972
58.392662 896.65979 812.69849 4293978351
60.014679 896.03979 812.17572 4293978351
-1.6165137 899.30408 811.00409 4287635237
1.0776758 899.09814 810.83038 4289013558
3.2330275 898.68622 810.48303 4289929016
50.111927 898.68622 810.48303 4293977586
52.536697 899.922 811.52515 4294174449
55.769722 899.922 811.52515 4293978605
59.002754 899.922 811.52515 4293978351
61.427525 899.30408 811.00409 4293912301
-3.2330275 901.15784 812.56714 4287897128
-1.6165137 901.15784 812.56714 4288094508
0.53761464 902.09222 810.73895 4288881706
3.225688 901.2702 810.04578 4289864254
53.223854 902.50323 811.08545 4294436592
55.707336 901.83057 811.82629 4294109937
59.002754 901.15784 812.56714 4293978351
61.427525 901.15784 812.56714 4293912045
0.806422 903.73627 812.12512 4288685867
53.102753 905.0788 810.64099 4294042861
55.580734 904.40753 811.38306 4293978351
58.062386 903.73627 812.12512 4293978351
0.80366975 907.25836 811.82477 4288619312
3.2110093 907.64874 810.19189 4289406004
52.446484 908.05786 810.53687 4293846509
55.485321 907.25836 811.82477 4293780718
57.930275 906.30902 811.67834 4293912558
0 910.10358 812.26172 4288553779
55.389908 910.10358 812.26172 4293977840
-1.6 914.55115 812.08777 4287898162
0.96000004 913.57257 811.2627 4288554034
52.799999 913.32794 811.0564 4293912045
54.400002 913.93958 811.57208 4293977328
0.79816514 917.1001 811.62085 4288226098
3.1926606 915.8797 810.5918 4289669178
0.79816514 918.3205 812.6499 4287367450
3.5834861 919.33905 810.89258 4288358451
52.557796 919.03461 810.63599 4294043118
54.27523 918.3205 812.6499 4293583593
0 923.39587 811.69714 4287395204
3.972477 922.78845 811.185 4286726469
52.436699 922.18103 810.67285 4294109167
54.025688 923.39587 811.69714 4293912304
-1.5889908 924.61066 812.72144 4287722594
0.7944954 925.26794 811.96759 4286934412
3.9633026 925.31915 810.70282 4286602097
53.108257 925.31915 810.70282 4294109170
-3.1669724 928.39758 811.99042 4280814867
-1.5834862 928.39758 811.99042 4280618256
1.0556575 928.41473 811.56885 4283579738
3.1633027 928.44885 810.72559 4285683305
53.900917 927.13715 812.23572 4294042609
-3.9541283 930.86719 812.76477 4283114008
-1.5816513 930.86719 812.76477 4281206537
0.79082566 931.84674 811.62866 4280618261
3.1522937 932.82629 810.49255 4280030237
53.588989 932.82629 810.49255 4293779693
55.165138 932.82629 810.49255 4294042609
-1.5761468 935.23627 812.52454 4280685086
0.52538228 934.83466 812.18585 4279636254
3.1522937 934.03125 811.50854 4279635226
55.165138 934.03125 811.50854 4294503162
0 937.73889 812.01855 4279701523
3.6691132 936.93744 811.34277 4280161822
6.2899084 936.53668 811.00488 4280357399
