# .PCD v0.7 - Point Cloud Data file format
VERSION 0.7
FIELDS x y z rgb
SIZE 4 4 4 4
TYPE F F F U
COUNT 1 1 1 1
WIDTH 1155
HEIGHT 1
VIEWPOINT 0 0 0 1 0 0 0
POINTS 1155
DATA ascii
13.277064 959.98547 1287.2788 4284829515
15.489908 959.98547 1287.2788 4284829515
-30.979816 961.67719 1288.7052 4291282385
-28.766972 961.67719 1288.7052 4291150799
-25.447706 961.67719 1288.7052 4292663525
-22.128441 961.67719 1288.7052 4292794104
-19.915596 961.67719 1288.7052 4292530933
-16.596331 961.67719 1288.7052 4287795076
-39.398167 754.83624 1292.1943 4287573324
-36.93578 754.83624 1292.1943 4293034143
-39.251377 761.34033 1291.1383 4288033355
-36.798164 761.34033 1291.1383 4289809765
-17.172478 761.34033 1291.1383 4289161062
-13.492661 761.34033 1291.1383 4289428109
-9.8128443 761.34033 1291.1383 4290686666
-2.4532111 761.34033 1291.1383 4291675094
-40.477982 763.21582 1292.7196 4288689483
-14.719266 763.21582 1292.7196 4286798960
1.2266055 763.21582 1292.7196 4291542743
-36.660549 767.81641 1290.0586 4289017940
-34.216515 767.81641 1290.0586 4288822355
-31.772476 767.81641 1290.0586 4289217113
-29.32844 767.81641 1290.0586 4288236128
-25.662384 767.81641 1290.0586 4287646304
-21.99633 767.81641 1290.0586 4286003793
-19.552294 767.81641 1290.0586 4285940301
-17.108257 767.81641 1290.0586 4287124831
-13.442202 767.81641 1290.0586 4284692312
-9.7761469 767.81641 1290.0586 4283771696
-7.3321099 767.81641 1290.0586 4290416789
-4.8880734 767.81641 1290.0586 4291016639
-2.4440367 767.81641 1290.0586 4292200657
-39.104588 769.68494 1291.634 4289019218
-36.660549 769.68494 1291.634 4289545562
-34.216515 769.68494 1291.634 4289284441
-31.772476 769.68494 1291.634 4289416028
-29.32844 769.68494 1291.634 4288040550
-24.440367 769.68494 1291.634 4287321970
-21.99633 769.68494 1291.634 4288374401
-17.108257 769.68494 1291.634 4286471526
-13.442202 769.68494 1291.634 4288312723
-4.8880734 769.68494 1291.634 4291802567
0 769.68494 1291.634 4291674329
-36.522934 776.12592 1290.5248 4290534254
-34.088074 776.12592 1290.5248 4289223536
-31.653212 776.12592 1290.5248 4287973726
-29.218349 776.12592 1290.5248 4285548375
-25.566055 776.12592 1290.5248 4284368475
-21.913761 776.12592 1290.5248 4285293950
-19.478899 776.12592 1290.5248 4285685615
-17.044037 776.12592 1290.5248 4285488492
-13.391743 776.12592 1290.5248 4290026158
-9.7394495 776.12592 1290.5248 4291674579
-7.3045874 776.12592 1290.5248 4291345613
-4.8697248 776.12592 1290.5248 4291476948
-2.4348624 776.12592 1290.5248 4291608790
0 776.12592 1290.5248 4291475664
-37.740364 777.98743 1292.0944 4288895843
-34.088074 777.98743 1292.0944 4288699761
-31.653212 777.98743 1292.0944 4287252315
-29.218349 777.98743 1292.0944 4285154132
-26.783485 777.98743 1292.0944 4284627532
-17.044037 777.98743 1292.0944 4286475637
0 777.98743 1292.0944 4291476950
-31.510092 784.92993 1290.1 4285877084
-29.086239 784.92993 1290.1 4286606707
-7.2715597 784.92993 1290.1 4291675092
-4.8477063 784.92993 1290.1 4291346134
-2.4238532 784.92993 1290.1 4291674842
-33.933945 786.78302 1291.6624 4284041044
0 786.78302 1291.6624 4291412953
-36.220184 794.99713 1292.0481 4287384151
-33.805504 794.99713 1292.0481 4286732646
-31.390825 794.0741 1291.2698 4289563287
-28.976147 793.15112 1290.4916 4288124085
-2.4146788 794.0741 1291.2698 4291346645
-36.082569 803.16913 1292.3984 4290009447
-33.677063 802.24963 1291.6232 4289354343
-31.271559 801.33008 1290.8479 4290409598
-28.866055 801.33008 1290.8479 4288707722
-2.4055047 802.24963 1291.6232 4291412181
-34.746788 809.46704 1291.1686 4290335847
-28.755962 809.46704 1291.1686 4290272883
-26.359632 809.46704 1291.1686 4293167776
-23.963303 809.46704 1291.1686 4291205301
-2.3963304 809.46704 1291.1686 4291017680
-40.737614 811.29907 1292.7133 4288234835
-38.341286 811.29907 1292.7133 4288759885
-35.944954 811.29907 1292.7133 4289680987
-23.963303 811.29907 1292.7133 4291925165
-2.3963304 811.29907 1292.7133 4291214795
-38.194496 817.56201 1291.4539 4288694099
-34.613762 817.56201 1291.4539 4289153881
-31.033028 817.56201 1291.4539 4290205543
-28.645872 817.56201 1291.4539 4290074475
-26.258715 817.56201 1291.4539 4291587458
-22.677982 817.56201 1291.4539 4291592856
-19.097248 817.56201 1291.4539 4291402140
-16.710093 817.56201 1291.4539 4291467933
-14.322936 817.56201 1291.4539 4290815922
-10.742202 817.56201 1291.4539 4291475652
-7.161468 817.56201 1291.4539 4290951107
-4.774312 817.56201 1291.4539 4290687434
-2.387156 817.56201 1291.4539 4291016399
-40.58165 819.38696 1292.9927 4287971664
-38.194496 819.38696 1292.9927 4288627281
-34.613762 819.38696 1292.9927 4289349466
-28.645872 819.38696 1292.9927 4289613404
-26.258715 819.38696 1292.9927 4292376710
-22.677982 819.38696 1292.9927 4291991185
-19.097248 819.38696 1292.9927 4292655550
-16.710093 819.38696 1292.9927 4292260792
-14.322936 819.38696 1292.9927 4291539379
-10.742202 819.38696 1292.9927 4291343550
-7.161468 819.38696 1292.9927 4291147465
-4.774312 819.38696 1292.9927 4290556098
-2.387156 819.38696 1292.9927 4290753477
-34.507339 823.27979 1291.0428 4289413726
-30.937614 823.27979 1291.0428 4289939305
-28.557798 823.27979 1291.0428 4289547881
-21.418348 823.27979 1291.0428 4293571746
-4.7596331 823.27979 1291.0428 4290753477
-38.077065 825.09918 1292.5769 4288626259
-34.507339 825.09918 1292.5769 4289151062
-30.937614 825.09918 1292.5769 4290662760
-28.557798 825.09918 1292.5769 4290275686
-26.177982 825.09918 1292.5769 4293960094
-22.608257 825.09918 1292.5769 4293179564
-19.038532 825.09918 1292.5769 4293115837
-16.658716 825.09918 1292.5769 4291668391
-4.7596331 825.09918 1292.5769 4291083207
-42.671558 833.11414 1292.7947 4287905871
-40.300919 833.11414 1292.7947 4288168786
-37.930275 833.11414 1292.7947 4288822355
-34.374313 833.11414 1292.7947 4289218390
-30.818348 833.11414 1292.7947 4292311939
-28.447706 833.11414 1292.7947 4291731856
-26.077065 833.11414 1292.7947 4292718751
-22.125994 832.51001 1292.2853 4291734947
-18.965137 832.20795 1292.0306 4291076755
-16.594496 832.20795 1292.0306 4290616204
-14.223853 832.20795 1292.0306 4289894276
-10.667891 832.20795 1292.0306 4289568415
-7.1119266 833.11414 1292.7947 4286282646
-4.7412844 832.20795 1292.0306 4286348186
-40.144955 839.28162 1291.4548 4288366935
-37.783485 839.28162 1291.4548 4288759894
-35.42202 839.28162 1291.4548 4288825687
-30.699083 839.28162 1291.4548 4292642187
-28.337614 839.28162 1291.4548 4291994540
-25.976147 839.28162 1291.4548 4292915642
-22.433945 839.28162 1291.4548 4291471776
-18.891743 839.28162 1291.4548 4290548861
-16.530275 839.28162 1291.4548 4290943876
-14.168807 839.28162 1291.4548 4289303175
-10.626606 839.28162 1291.4548 4285227627
-42.50642 841.08698 1292.9771 4287905352
-40.144955 841.08698 1292.9771 4288102732
-37.783485 841.08698 1292.9771 4288693086
-34.241287 841.08698 1292.9771 4289022812
-30.699083 841.08698 1292.9771 4292378759
-28.337614 841.08698 1292.9771 4291335089
-25.976147 841.08698 1292.9771 4293111499
-22.433945 841.08698 1292.9771 4291471011
-14.168807 841.08698 1292.9771 4290024330
-10.626606 841.08698 1292.9771 4290291115
-7.0844035 841.08698 1292.9771 4285294202
-4.7229357 841.08698 1292.9771 4283913051
-37.636696 845.42102 1290.0913 4288693095
-21.170643 845.42102 1290.0913 4290614922
-18.818348 845.42102 1290.0913 4290482795
-16.466055 845.42102 1290.0913 4291009139
-14.113762 845.42102 1290.0913 4290024843
-11.761468 845.42102 1290.0913 4291669925
-37.636696 847.21942 1291.6075 4288495452
-35.284405 847.21942 1291.6075 4289548141
-31.755962 847.21942 1291.6075 4290865522
-28.227524 847.21942 1291.6075 4290480297
-25.875229 847.21942 1291.6075 4293177810
-22.34679 847.21942 1291.6075 4291537837
-18.818348 847.21942 1291.6075 4290613359
-16.466055 847.21942 1291.6075 4290679152
-14.113762 847.21942 1291.6075 4289761414
-10.585321 847.21942 1291.6075 4291342775
-7.056881 847.21942 1291.6075 4291147213
-37.48991 853.32373 1290.2145 4288498521
-35.14679 853.32373 1290.2145 4289682795
-31.632111 853.32373 1290.2145 4290407285
-28.117432 853.32373 1290.2145 4290605960
-25.774311 853.32373 1290.2145 4291527062
-23.431192 853.32373 1290.2145 4291990193
-16.401834 853.32373 1290.2145 4290613389
-14.058716 853.32373 1290.2145 4289630337
-10.544037 853.32373 1290.2145 4291409845
-37.48991 855.11505 1291.7249 4288695382
-30.46055 855.11505 1291.7249 4290212732
-28.117432 855.11505 1291.7249 4289753203
-7.0293579 855.11505 1291.7249 4290622145
-4.6862388 855.11505 1291.7249 4290687947
-35.036697 860.68701 1291.1909 4290472577
-31.533028 860.68701 1291.1909 4289294449
-28.029358 860.68701 1291.1909 4288637802
-18.686239 860.68701 1291.1909 4292916407
-16.350458 860.68701 1291.1909 4292785078
-14.014679 860.68701 1291.1909 4291081129
-10.511009 860.68701 1291.1909 4290818996
-7.0073395 860.68701 1291.1909 4290622656
-4.6715598 860.68701 1291.1909 4290425541
-37.372478 862.47278 1292.6965 4289156980
-35.036697 862.47278 1292.6965 4290209668
-16.350458 862.47278 1292.6965 4293306305
-14.014679 862.47278 1292.6965 4291540663
-10.511009 862.47278 1292.6965 4290687929
-7.0073395 862.47278 1292.6965 4290163904
-4.6715598 862.47278 1292.6965 4289967043
-2.3357799 862.47278 1292.6965 4290032836
-31.409174 868.50977 1291.2467 4288768123
-27.919266 868.50977 1291.2467 4288773247
-25.592661 868.50977 1291.2467 4289102213
-23.266054 868.50977 1291.2467 4287588692
-19.776146 868.50977 1291.2467 4287652705
-16.286238 868.50977 1291.2467 4292124593
-13.959633 868.50977 1291.2467 4290946479
-10.469725 868.50977 1291.2467 4290817722
-6.9798164 868.50977 1291.2467 4290491586
-4.6532111 868.50977 1291.2467 4290427076
-2.3266056 868.50977 1291.2467 4290229697
-34.899082 870.28845 1292.7465 4289948029
-31.409174 870.28845 1292.7465 4289161595
-27.919266 870.28845 1292.7465 4289363588
-25.592661 870.28845 1292.7465 4290745241
-23.266054 870.28845 1292.7465 4288904792
-19.776146 870.28845 1292.7465 4287587165
-16.286238 870.28845 1292.7465 4291665078
-13.959633 870.28845 1292.7465 4290551208
2.3266056 870.28845 1292.7465 4290688197
4.6532111 870.28845 1292.7465 4290622406
-18.53945 878.06213 1292.7609 4289629294
-16.222019 878.06213 1292.7609 4289497708
-13.904587 877.17627 1292.0139 4288907931
-10.042202 876.88104 1291.765 4290885062
-6.9522934 878.06213 1292.7609 4290426306
-4.6348624 878.06213 1292.7609 4290557635
-2.3174312 877.17627 1292.0139 4290622917
2.3174312 876.29041 1291.267 4290820037
4.6348624 876.29041 1291.267 4290556609
-11.550459 881.77826 1290.6621 4290818463
-13.860551 883.54431 1292.1511 4288910979
-11.550459 883.54431 1292.1511 4290687391
-4.6201835 883.54431 1292.1511 4290162625
-18.407339 889.48596 1290.6208 4287851617
-16.106422 889.48596 1290.6208 4290417543
-13.805505 889.48596 1290.6208 4289372560
-10.354128 889.48596 1290.6208 4290426033
-6.9027524 889.48596 1290.6208 4290097597
-4.6018348 889.48596 1290.6208 4289834176
-2.3009174 889.48596 1290.6208 4290228934
-23.009174 891.245 1292.104 4288835736
-19.557798 891.245 1292.104 4287981700
-16.106422 891.245 1292.104 4290351264
-13.805505 891.245 1292.104 4289372300
-9.2036695 891.245 1292.104 4290425534
-6.9027524 891.245 1292.104 4290622656
-4.6018348 891.245 1292.104 4290360000
-2.3009174 891.245 1292.104 4290360000
-25.209175 898.90363 1292.0215 4289039515
-18.333944 898.90363 1292.0215 4292069341
-16.042202 898.02759 1291.2828 4288448142
-13.750459 898.02759 1291.2828 4287397231
-10.312843 898.02759 1291.2828 4290424751
-6.8752294 898.02759 1291.2828 4290491072
-4.5834861 898.02759 1291.2828 4290292927
-27.412844 904.3017 1291.3408 4287847255
-25.128441 904.3017 1291.3408 4292320922
-22.844036 904.3017 1291.3408 4291279846
-19.417431 904.3017 1291.3408 4288319414
-15.990826 904.3017 1291.3408 4287069344
-13.706422 904.3017 1291.3408 4287329381
-11.422018 904.3017 1291.3408 4290750617
-34.266056 906.04816 1292.8134 4290283656
-31.981651 906.04816 1292.8134 4289884801
-29.697248 906.04816 1292.8134 4288766320
-10.279816 906.04816 1292.8134 4290423224
-6.8532109 906.04816 1292.8134 4290358205
-4.5688071 906.04816 1292.8134 4290096047
-31.85321 911.88733 1291.1967 4288499805
-27.302752 911.88733 1291.1967 4287714148
-25.027523 911.88733 1291.1967 4291464349
1.1376147 911.88733 1291.1967 4285617748
-34.128441 913.62671 1292.6633 4288436853
-31.85321 913.62671 1292.6633 4288631127
-4.5504589 913.62671 1292.6633 4285944918
-34.018349 917.23206 1290.4711 4287321942
-31.750458 917.23206 1290.4711 4288434263
-28.348625 917.23206 1290.4711 4288434009
-24.946789 917.23206 1290.4711 4290736766
-22.6789 917.23206 1290.4711 4289563820
-19.277065 917.23206 1290.4711 4291407824
-15.875229 917.23206 1290.4711 4286277513
-13.60734 917.23206 1290.4711 4286211951
-10.205505 917.23206 1290.4711 4285553509
-6.8036699 917.23206 1290.4711 4285487459
-2.26789 917.23206 1290.4711 4285420119
-36.28624 918.96588 1291.933 4285679961
-34.018349 918.96588 1291.933 4285943133
-29.482569 918.96588 1291.933 4287911001
-24.946789 918.96588 1291.933 4288236380
-22.6789 918.96588 1291.933 4287654782
-19.277065 918.96588 1291.933 4290750917
-15.875229 918.96588 1291.933 4286740894
-13.60734 918.96588 1291.933 4286736747
-10.205505 918.96588 1291.933 4285487193
-6.8036699 918.96588 1291.933 4285882464
-4.53578 918.96588 1291.933 4286276711
-2.26789 918.96588 1291.933 4286276711
-40.689907 926.01074 1292.6409 4283582803
-36.922325 925.43463 1292.1552 4285555827
-33.908257 925.14661 1291.9124 4285752437
-31.647707 925.14661 1291.9124 4285821037
-28.25688 925.14661 1291.9122 4285095526
-24.866055 925.14661 1291.9124 4285817461
-22.605505 925.14661 1291.9124 4284898655
-19.21468 925.14661 1291.9122 4288057246
-11.302752 926.01074 1292.6409 4285818459
-2.2605505 926.01074 1292.6409 4286079831
-36.022018 931.75739 1290.9462 4285360516
-33.770641 931.75739 1290.9462 4287531684
-31.519266 931.75739 1290.9462 4287597223
-28.1422 931.75739 1290.9462 4285821064
-22.513762 931.75739 1290.9462 4285426290
-20.262384 931.75739 1290.9462 4283978844
-37.147705 933.47858 1292.3975 4283848797
-33.770641 933.47858 1292.3975 4286744199
-31.519266 933.47858 1292.3975 4287467175
-28.1422 933.47858 1292.3975 4287072414
-24.765137 933.47858 1292.3975 4286875287
-19.136696 933.47858 1292.3975 4285492342
-11.256881 933.47858 1292.3975 4285555341
-38.148624 938.73633 1291.5986 4286538098
-33.660549 938.73633 1291.5986 4287396973
-31.416513 938.73633 1291.5986 4286281849
-29.172478 938.73633 1291.5986 4285821298
-25.806423 938.73633 1291.5986 4285426290
-22.440367 938.73633 1291.5986 4287136393
-20.196331 938.73633 1291.5986 4287596944
-16.830275 938.73633 1291.5986 4288581528
-11.220183 938.73633 1291.5986 4285618547
-31.288073 946.98547 1292.0139 4285227882
-29.053211 946.98547 1292.0139 4285951605
-25.700918 946.98547 1292.0139 4287070855
-22.348623 946.98547 1292.0139 4286546555
-20.113762 946.13123 1291.2936 4285756248
-15.644036 946.13123 1291.2936 4288120698
-13.409174 946.98547 1292.0139 4287922569
-11.174312 946.98547 1292.0139 4285422692
-7.4495411 947.27026 1292.254 4285093203
-25.616514 953.03857 1291.8856 4287467940
-22.275229 952.18713 1291.1677 4285292677
-20.047707 953.03857 1291.8856 4286409344
-16.706421 952.18713 1291.1677 4286807145
-13.365138 952.18713 1291.1677 4285293920
-4.4550457 953.03857 1291.8856 4285025611
-2.2275229 953.03857 1291.8856 4285157453
-33.302753 959.91235 1292.4492 4291347930
-31.082569 958.21503 1291.0181 4290889428
-28.862385 958.21503 1291.0181 4290889428
-24.422018 958.21503 1291.0181 4290100677
-22.201836 958.21503 1291.0181 4290561492
-13.321101 959.06372 1291.7336 4285294187
-11.100918 959.06372 1291.7336 4284701793
-7.7706423 959.06372 1291.7336 4284829270
-4.4403667 959.91235 1292.4492 4285025109
-2.2201834 959.91235 1292.4492 4285025109
13.321101 959.91235 1292.4492 4284959820
15.541285 959.91235 1292.4492 4285025613
-33.192661 965.06067 1291.5581 4288912042
-30.979816 964.21478 1290.8448 4290491072
-28.766972 964.21478 1290.8448 4291412173
-25.447706 964.21478 1290.8448 4292596447
-22.128441 964.21478 1290.8448 4293186291
-19.915596 964.21478 1290.8448 4293975804
-16.596331 964.21472 1290.8448 4291674588
-33.192661 966.75238 1292.9845 4288846247
-30.979816 966.75238 1292.9845 4288780200
-28.766972 966.75238 1292.9845 4288977836
-25.447706 966.75238 1292.9845 4288912558
-22.128441 966.75238 1292.9845 4290029504
-19.915596 966.75238 1292.9845 4291016399
-17.702753 966.75238 1292.9845 4291608538
-44.322937 758.60126 1295.3689 4288167757
-41.039753 757.34625 1294.3107 4287378248
1.2311927 758.60126 1295.3689 4291280339
-44.157799 766.02905 1295.0917 4288296261
-40.886852 765.71649 1294.8281 4288624715
1.6354741 765.71649 1294.8281 4291805912
4.9064221 766.02905 1295.0917 4291542995
-43.992661 773.42188 1294.7849 4287901005
-39.919266 772.79907 1294.2598 4289349469
-36.660549 771.55341 1293.2095 4289678684
-34.216515 771.55341 1293.2095 4289023069
-13.442202 771.55341 1293.2095 4289762736
1.2220184 772.48767 1293.9972 4291608020
4.8880734 772.48767 1293.9972 4291280852
-36.522934 779.84888 1293.6639 4287846764
-34.088074 779.84888 1293.6639 4287322987
-31.653212 779.84888 1293.6639 4286204250
2.4348624 779.84888 1293.6639 4291542743
7.3045874 779.84888 1293.6639 4291346393
-36.522934 781.71033 1295.2334 4286139742
-34.088074 781.71033 1295.2334 4285614168
0 781.71033 1295.2334 4291674844
-36.3578 788.63611 1293.2249 4285482591
-33.933945 788.63611 1293.2249 4284894815
0 788.63611 1293.2249 4291807446
-36.3578 790.48914 1294.7874 4285742672
-33.933945 790.48914 1294.7874 4286012006
0 790.48914 1294.7874 4291018193
-36.220184 796.8432 1293.6047 4289156197
-33.805504 796.8432 1293.6047 4287649638
-43.464222 798.68921 1295.1613 4287773769
-41.049541 798.68921 1295.1613 4289286751
-37.427521 798.68921 1295.1613 4289616234
0 798.68921 1295.1613 4291346643
-43.299084 805.92767 1294.7244 4287640653
-40.893578 805.92767 1294.7244 4288759134
-37.686241 805.62115 1294.4659 4289481309
-43.133945 814.96313 1295.8027 4287642192
-40.737614 814.04712 1295.0303 4288300632
-38.341286 813.1311 1294.2579 4288431696
-2.3963304 813.1311 1294.2579 4291016138
-40.58165 821.21198 1294.5314 4287709775
-38.194496 821.21198 1294.5314 4288756562
-26.258715 821.21198 1294.5314 4292508310
-23.871559 821.21198 1294.5314 4291926921
-19.097248 821.21198 1294.5314 4293246142
-16.710093 821.21198 1294.5314 4292653749
-14.322936 821.21198 1294.5314 4291408304
-10.742202 821.21198 1294.5314 4291146429
-7.161468 821.21198 1294.5314 4291016397
-2.387156 821.21198 1294.5314 4290621891
-42.836697 826.91858 1294.111 4287840078
-40.456882 826.91858 1294.111 4287840078
-38.077065 826.91858 1294.111 4288756058
-34.507339 826.91858 1294.111 4289415007
-30.937614 826.91858 1294.111 4290600299
-28.557798 826.91858 1294.111 4290410865
-26.177982 826.91858 1294.111 4294095273
-22.608257 826.91858 1294.111 4293114795
-19.038532 826.91858 1294.111 4292852134
-16.658716 826.91858 1294.111 4291470481
-14.278899 826.91858 1294.111 4290354315
-10.709174 826.91858 1294.111 4291475127
-7.1394496 826.91858 1294.111 4291411153
-4.7596331 826.91858 1294.111 4290887111
-2.3798165 826.91858 1294.111 4290887111
-46.406422 828.73798 1295.645 4286989395
-42.836697 828.73798 1295.645 4287838540
-40.456882 828.73798 1295.645 4287970382
-38.077065 828.73798 1295.645 4288952660
-34.507339 828.73798 1295.645 4289480796
-30.937614 828.73798 1295.645 4291850366
-28.557798 828.73798 1295.645 4291073158
-26.177982 828.73798 1295.645 4292849569
-23.798164 828.73798 1295.645 4292063399
-7.1394496 828.73798 1295.645 4289175982
-2.3798165 828.73798 1295.645 4286085774
-46.227524 835.83264 1295.0869 4287384160
-42.671558 835.8327 1295.0869 4288037970
-40.300919 834.92651 1294.3229 4288301142
-37.930275 834.92651 1294.3229 4288759894
-33.979206 835.53058 1294.8322 4288694098
-30.818348 834.92651 1294.3229 4292509834
-28.447706 834.92651 1294.3229 4291863976
-26.077065 834.92651 1294.3229 4292653236
-23.706423 834.92651 1294.3229 4291933614
-9.4825687 834.92651 1294.3229 4282537310
-7.1119266 835.8327 1295.0869 4282535777
-4.7412844 835.8327 1295.0869 4282533456
-2.3706422 836.73889 1295.851 4282994516
-42.50642 842.89233 1294.4993 4287772999
-40.144955 842.89233 1294.4993 4288036172
-34.241287 842.89233 1294.4993 4289220454
-30.699083 842.89233 1294.4993 4292181898
-28.337614 842.89233 1294.4993 4291399348
-25.976147 842.89233 1294.4993 4293899739
-23.614679 842.89233 1294.4993 4292654505
-9.4458714 842.89233 1294.4993 4290687184
-7.0844035 842.89233 1294.4993 4287594656
-4.7229357 842.89233 1294.4993 4284439162
-39.988991 849.91693 1293.8821 4288105556
-37.636696 849.01776 1293.1239 4288694880
-35.284405 849.01776 1293.1239 4289813618
-31.755962 849.01776 1293.1239 4290275438
-28.227524 849.01776 1293.1239 4291002012
-25.875229 849.01776 1293.1239 4294028747
-23.522936 849.01776 1293.1239 4293113007
-7.056881 849.91693 1293.8821 4291017413
-4.704587 849.91693 1293.8821 4290622668
-2.3522935 849.91693 1293.8821 4289372857
-39.833027 856.90637 1293.2354 4288301912
-37.48991 856.90637 1293.2354 4288892766
-7.0293579 856.90637 1293.2354 4290950340
-4.6862388 856.90637 1293.2354 4290622154
-39.833027 858.69775 1294.7457 4288761689
-37.48991 858.69775 1294.7457 4289025131
-2.3431194 858.69775 1294.7457 4290359748
-39.708256 865.15137 1294.9551 4289419875
-37.372478 865.15137 1294.9551 4289289335
-35.036697 865.15137 1294.9551 4290013058
-32.700916 864.25848 1294.2023 4289031291
-7.0073395 864.25848 1294.2023 4290097595
-4.6715598 864.25848 1294.2023 4290228930
-2.3357799 864.25848 1294.2023 4290294979
1.16789 866.04419 1295.708 4290688197
-34.899082 872.06714 1294.2462 4290145922
-31.409174 872.06714 1294.2462 4289161078
-27.919266 872.06714 1294.2462 4289625479
-25.592661 872.06714 1294.2462 4291401890
-23.266054 872.06714 1294.2462 4289827439
-19.776146 872.06714 1294.2462 4288642153
-16.286238 872.06714 1294.2462 4289562243
-13.959633 872.06714 1294.2462 4289563290
-9.3064222 872.06714 1294.2462 4290622404
-2.3266056 872.06714 1294.2462 4290491586
-37.225689 873.84589 1295.746 4289884021
-34.899082 873.84589 1295.746 4290212730
-31.409174 873.84589 1295.746 4289357425
-27.919266 873.84589 1295.746 4289297531
-25.592661 873.84589 1295.746 4291863202
-23.266054 873.84589 1295.746 4289959529
-19.776146 873.84589 1295.746 4288774244
-16.286238 873.84589 1295.746 4288839027
0 873.84589 1295.746 4290754244
6.9798164 873.84589 1295.746 4290556609
10.469725 873.84589 1295.746 4290885576
-37.078899 881.60553 1295.7485 4289689218
-34.761467 881.60553 1295.7485 4289492096
-32.444038 881.60553 1295.7485 4289818495
-27.809174 881.60553 1295.7485 4289032306
-23.174313 881.60553 1295.7485 4290814345
-19.311928 881.01495 1295.2506 4290485632
-16.222019 880.71967 1295.0016 4289695858
-13.904587 879.8338 1294.2546 4288581501
-9.2697248 879.8338 1294.2546 4290492099
-4.6348624 879.8338 1294.2546 4290688449
-2.3174312 880.71967 1295.0016 4290688709
4.6348624 879.8338 1294.2546 4290556611
-34.651375 887.07654 1295.1294 4289361539
-31.186239 887.07654 1295.1294 4290215562
-27.721102 887.07654 1295.1294 4290284953
-23.100918 886.19348 1294.3848 4289561987
-20.020796 885.89911 1294.1366 4289167735
1.1550459 885.31042 1293.6403 4290294979
-28.761467 893.00409 1293.5872 4290874266
-25.310091 893.00409 1293.5872 4289755795
-23.009174 893.00409 1293.5872 4288505210
-19.557798 893.00409 1293.5872 4287651943
-16.106422 893.00409 1293.5872 4290350985
-13.805505 893.00409 1293.5872 4289240458
-6.9027524 893.00409 1293.5872 4290425793
-4.6018348 893.00409 1293.5872 4290425280
-2.3009174 893.00409 1293.5872 4290359487
-34.51376 894.76312 1295.0704 4290086293
-32.212845 894.76312 1295.0704 4290481801
-28.761467 894.76312 1295.0704 4290219160
-25.310091 894.76312 1295.0704 4287456385
-23.009174 894.76312 1295.0704 4286799962
-19.557798 894.76312 1295.0704 4287589734
-2.3009174 894.76312 1295.0704 4290424257
-37.813759 902.40771 1294.9761 4289821830
-34.376148 902.40771 1294.9761 4290218129
-32.084404 901.53168 1294.2374 4290413710
-29.028748 901.23969 1293.9912 4288901753
-25.209175 900.65564 1293.4988 4290746776
-22.917431 900.65564 1293.4988 4290949852
-19.479816 900.65564 1293.4988 4291080926
-16.042202 900.65564 1293.4988 4288383157
-13.750459 900.65564 1293.4988 4287330424
-9.9308863 901.23969 1293.9912 4290489784
-6.8752294 901.53168 1294.2374 4290884550
-4.5834861 901.53168 1294.2374 4290688448
-2.291743 902.40771 1294.9761 4289898938
-36.550457 907.79456 1294.2859 4289756043
-34.266056 907.79456 1294.2859 4288834941
-31.981651 907.79456 1294.2859 4289158763
0 907.79456 1294.2859 4285420382
-36.550457 909.54102 1295.7584 4289754759
-34.266056 909.54102 1295.7584 4288373106
-29.697248 909.54102 1295.7584 4288434012
-40.954128 917.10559 1295.5967 4285353057
-37.541283 916.2359 1294.8633 4286798179
-4.5504589 915.36621 1294.13 4285551705
1.1376147 916.2359 1294.8633 4286013536
4.5504589 917.10559 1295.5967 4286342504
-40.822018 920.69971 1293.3949 4285684338
-37.420181 920.69971 1293.3949 4286144628
-34.018349 920.69971 1293.3949 4286078060
-29.482569 920.69971 1293.3949 4286470758
-24.946789 920.69971 1293.3949 4286336092
-18.14312 920.69971 1293.3949 4290554314
-15.875229 920.69971 1293.3949 4289172661
-13.60734 920.69971 1293.3949 4287133801
-10.205505 920.69971 1293.3949 4286476642
-6.8036699 920.69971 1293.3949 4287135087
-4.53578 920.69971 1293.3949 4287593602
-2.26789 920.69971 1293.3949 4287593602
-40.822018 922.43353 1294.8568 4284569700
-38.554127 922.43353 1294.8568 4285622388
-15.875229 922.43353 1294.8568 4289243333
-13.60734 922.43353 1294.8568 4288054405
-10.205505 922.43353 1294.8568 4286673776
-6.8036699 922.43353 1294.8568 4286937714
-4.53578 922.43353 1294.8568 4287265401
-2.26789 922.43353 1294.8568 4287199608
-40.689907 928.60303 1294.8267 4282070083
-38.429359 928.60303 1294.8267 4285162354
-33.908257 927.73895 1294.0981 4287069333
-31.647707 927.73895 1294.0981 4286546582
-29.387156 927.73895 1294.0981 4284704634
-24.866055 928.60303 1294.8267 4285557887
-22.605505 927.73895 1294.0981 4285688687
-18.837921 928.315 1294.5839 4284897891
-15.823853 928.60303 1294.8267 4290160818
-13.563303 929.46716 1295.5553 4290422198
-10.549236 928.89111 1295.0695 4285684841
-6.7816515 929.46716 1295.5553 4285289299
-4.521101 928.60303 1294.8267 4285224020
-2.2605505 928.60303 1294.8267 4285224020
-36.022018 935.19983 1293.8488 4286016594
-33.770641 935.19983 1293.8488 4287200612
-31.519266 935.19983 1293.8488 4287005327
-28.1422 935.19983 1293.8488 4287071122
-24.765137 935.19983 1293.8488 4287992483
-22.513762 935.19983 1293.8488 4287794336
-19.136696 935.19983 1293.8488 4287333008
-15.759633 935.19983 1293.8488 4286081908
-13.508257 935.19983 1293.8488 4287396219
-11.256881 935.19983 1293.8488 4285751650
-13.508257 936.92102 1295.3 4288447646
-9.0055046 936.92102 1295.3 4285026894
-6.7541285 936.92102 1295.3 4285158224
-4.5027523 936.92102 1295.3 4284961351
-33.660549 940.4519 1293.045 4286872662
-31.416513 940.4519 1293.045 4286150490
-29.172478 940.4519 1293.045 4286084697
-25.806423 940.4519 1293.045 4285753961
-22.440367 940.4519 1293.045 4287136883
-15.708257 940.4519 1293.045 4288712095
-13.46422 940.4519 1293.045 4288776616
-11.220183 940.4519 1293.045 4285355637
-33.660549 943.02527 1295.215 4283715429
-31.416513 942.16748 1294.4917 4284109899
-29.172478 942.16748 1294.4917 4284833879
-15.708257 942.16748 1294.4917 4288645520
-13.46422 942.16748 1294.4917 4288515747
-11.220183 942.16748 1294.4917 4285160304
-8.9761467 943.88306 1295.9382 4284961616
-4.4880733 943.88306 1295.9382 4285354576
-33.522934 949.54834 1294.1748 4287398286
-31.288073 949.54834 1294.1748 4289372341
-29.053211 949.54834 1294.1748 4291740890
-25.700916 949.54834 1294.1748 4289966541
-20.113762 949.54834 1294.1748 4285557920
-11.174312 949.54834 1294.1748 4284963148
-7.8220181 949.54834 1294.1748 4285026906
-4.4697247 949.54834 1294.1748 4285420369
-2.2348623 949.54834 1294.1748 4285288782
-33.522934 951.25696 1295.6155 4291742936
-31.288073 951.25696 1295.6155 4291939547
-29.053211 951.25696 1295.6155 4292202976
-11.174312 951.25696 1295.6155 4284571747
-7.8220181 951.25696 1295.6155 4284960851
-33.412846 955.59302 1294.0394 4291874282
-31.185322 954.74158 1293.3215 4292005342
-28.957798 954.74158 1293.3215 4292202722
-26.730276 955.59302 1294.0394 4290100158
-22.275229 954.74158 1293.3215 4282470722
-13.365138 954.74158 1293.3215 4285754479
-11.137614 954.74158 1293.3215 4285030755
-7.7963305 954.74158 1293.3215 4284763983
-4.4550457 956.44452 1294.7573 4285157199
-2.2275229 955.59302 1294.0394 4285157199
11.137614 955.59302 1294.0394 4284828746
-34.412842 961.60974 1293.8804 4289701306
-13.321101 961.60974 1293.8804 4287071383
-11.100918 961.60974 1293.8804 4283913319
-7.7706423 961.60974 1293.8804 4284435025
-2.2201834 961.60974 1293.8804 4285025361
15.541285 961.60974 1293.8804 4284959568
-35.522934 963.30707 1295.3115 4288780200
-13.321101 963.30707 1295.3115 4290688951
-11.100918 963.30707 1295.3115 4284373080
-8.8807335 963.30707 1295.3115 4284104789
13.321101 963.30707 1295.3115 4285025109
-46.959633 753.9726 1298.0062 4287583854
-44.488075 753.9726 1298.0062 4287973209
1.2357798 753.9726 1298.0062 4291149014
-44.322937 760.48376 1296.9562 4287965763
4.9247708 760.48376 1296.9562 4291082190
-46.78532 762.36627 1298.5435 4287772484
-46.611008 768.84229 1297.4637 4287312196
-44.157799 768.84229 1297.4637 4288031556
-41.704586 768.84229 1297.4637 4288821072
2.4532111 768.84229 1297.4637 4291608790
-48.880733 775.29034 1296.3604 4287842404
-46.436699 775.29034 1296.3604 4287184473
-43.992661 775.29034 1296.3604 4286986327
-41.548622 775.29034 1296.3604 4287381085
2.4440367 775.29034 1296.3604 4291608536
4.8880734 775.29034 1296.3604 4291083991
7.3321099 775.29034 1296.3604 4291478748
-46.436699 777.15887 1297.9358 4286986061
-43.992661 777.15887 1297.9358 4285741904
-40.326607 777.15887 1297.9358 4284886337
4.8880734 777.15887 1297.9358 4290820049
-46.262386 785.43329 1298.3726 4286856510
-43.827522 785.43329 1298.3726 4286395989
-41.392662 785.43329 1298.3726 4286593368
-38.146175 784.19232 1297.3262 4284891991
2.4348624 784.50256 1297.5878 4291675864
-43.629356 794.19525 1297.9122 4287905100
-41.205505 793.26868 1297.131 4288827233
-38.781651 793.26868 1297.131 4288500321
0.80795103 793.57758 1297.3915 4291477972
-45.878899 800.53528 1296.7178 4286529619
-43.464222 800.53528 1296.7178 4287773267
-41.049541 800.53528 1296.7178 4289154920
-38.634861 800.53528 1296.7178 4289482847
0 800.53528 1296.7178 4291150036
-45.878899 802.38135 1298.2743 4286463565
0 802.38135 1298.2743 4291280850
-43.299084 808.68622 1297.0503 4287511113
0 808.68622 1297.0503 4290886607
-45.704586 810.52527 1298.601 4287510865
-43.299084 810.52527 1298.601 4287642442
0 810.52527 1298.601 4290623174
14.433027 810.52527 1298.601 4291148752
-46.329052 818.01642 1298.3772 4287252302
-43.133945 817.71118 1298.1198 4287643212
1.1981652 818.62714 1298.8921 4290952384
-52.517429 824.862 1297.609 4286530641
-50.130276 824.862 1297.609 4286596434
-46.549541 823.94952 1296.8396 4287383643
-42.968807 823.03699 1296.0702 4288102993
-40.58165 823.03699 1296.0702 4287905871
-14.322936 823.03699 1296.0702 4290616721
-10.742202 823.03699 1296.0702 4291145909
-7.161468 823.03699 1296.0702 4291082703
-2.387156 823.03699 1296.0702 4291017414
-52.355965 830.55737 1297.1791 4286465613
-49.976147 830.55737 1297.1791 4286991957
-46.406422 830.55737 1297.1791 4287317588
-2.3798165 830.55737 1297.1791 4284702344
-54.735779 832.37677 1298.7131 4286268237
-52.355965 832.37677 1298.7131 4286334032
-49.976147 832.37677 1298.7131 4286991705
-2.3798165 832.37677 1298.7131 4282927962
-54.524769 838.55127 1297.3792 4285872457
-46.227524 838.55127 1297.3792 4287380308
-2.3706422 838.55127 1297.3792 4283518293
-54.524769 840.36365 1298.9072 4285740105
-46.227524 840.36365 1298.9072 4287183174
-2.3706422 840.36365 1298.9072 4283189094
14.223853 840.36365 1298.9072 4284043356
-42.50642 844.69769 1296.0215 4287971916
-40.144955 844.69769 1296.0215 4288103245
-4.7229357 844.69769 1296.0215 4289439931
-2.3614678 844.69769 1296.0215 4285821317
-42.50642 846.50305 1297.5438 4288170835
-43.125385 853.81329 1297.1674 4287382611
-39.988991 852.61444 1296.1565 4288039771
-2.3522935 853.51361 1296.9147 4290688204
-39.833027 860.48901 1296.2561 4289353567
-42.176147 862.2804 1297.7666 4287774794
1.1715597 862.2804 1297.7666 4290622406
-44.379818 868.72278 1297.9664 4286794074
-39.708256 868.72278 1297.9664 4289093487
-37.372478 868.72278 1297.9664 4289553528
0 868.72278 1297.9664 4290622916
-40.715595 875.62457 1297.2457 4288306286
-37.225689 875.62457 1297.2457 4290015610
-34.899082 875.62457 1297.2457 4290344318
-31.409174 875.62457 1297.2457 4289356662
-27.919266 875.62457 1297.2457 4288837491
-25.592661 875.62457 1297.2457 4290548109
-23.266054 875.62457 1297.2457 4289959792
-20.939449 875.62457 1297.2457 4289696621
10.469725 875.62457 1297.2457 4290557383
-44.205505 877.40332 1298.7455 4286530904
-40.715595 877.40332 1298.7455 4288503411
-37.225689 877.40332 1298.7455 4289885818
-34.899082 877.40332 1298.7455 4289688440
-31.409174 877.40332 1298.7455 4289225590
-27.919266 877.40332 1298.7455 4288705394
-25.592661 877.40332 1298.7455 4290152840
-23.266054 877.40332 1298.7455 4290683248
-20.939449 877.40332 1298.7455 4291275641
9.3064222 877.40332 1298.7455 4290426058
-40.555046 883.3772 1297.2424 4288570994
-37.078899 883.3772 1297.2424 4289820806
-34.761467 883.3772 1297.2424 4289557635
-31.285322 883.3772 1297.2424 4290082695
-27.809174 883.3772 1297.2424 4289691533
-25.491743 883.3772 1297.2424 4290086291
-44.031193 885.14893 1298.7362 4287123807
-40.555046 885.14893 1298.7362 4288439919
-37.078899 885.14893 1298.7362 4289558661
-25.491743 885.14893 1298.7362 4290087574
-40.041592 890.01996 1297.6112 4289293936
-36.961468 889.72559 1297.363 4289558664
-34.651375 889.72559 1297.363 4289558664
-31.571253 889.43121 1297.1149 4290149767
-27.721102 888.84259 1296.6185 4290678430
-25.411009 888.84259 1296.6185 4290612637
-39.115597 896.52222 1296.5536 4290083209
-36.814678 896.52222 1296.5536 4289297291
-34.51376 896.52222 1296.5536 4290086806
-32.212845 896.52222 1296.5536 4290548891
-28.761467 896.52222 1296.5536 4289037711
-23.009174 896.52222 1296.5536 4288912054
-20.708258 896.52222 1296.5536 4290359500
-2.3009174 896.52222 1296.5536 4290622404
-62.124771 898.28125 1298.0369 4284035132
-59.823853 898.28125 1298.0369 4284427843
-40.266056 898.28125 1298.0369 4288898935
-36.814678 898.28125 1298.0369 4289559947
-34.51376 898.28125 1298.0369 4290415256
-2.3009174 898.28125 1298.0369 4290886335
-43.543118 905.91187 1297.9307 4287646026
-41.251377 905.03583 1297.192 4288239714
-38.195717 904.74384 1296.9458 4290280836
-2.291743 904.15979 1296.4534 4288188050
-41.119267 911.28748 1297.231 4287779943
-37.692657 911.28748 1297.231 4288963707
1.1422018 911.28748 1297.231 4286143578
-43.403671 913.03394 1298.7036 4286926681
-41.119267 913.03394 1298.7036 4286993000
-38.834862 913.03394 1298.7036 4288177531
4.5688071 913.03394 1298.7036 4285421652
-43.229359 919.71472 1297.7966 4284700251
1.1376147 919.71472 1297.7966 4287067495
4.5504589 919.71472 1297.7966 4287395197
6.8256879 919.71472 1297.7966 4287263611
10.238532 919.71472 1297.7966 4286935151
-43.089909 925.0343 1297.0497 4282924364
-15.875229 924.16736 1296.3187 4290885842
-13.60734 925.0343 1297.0497 4290489265
-9.0715599 925.0343 1297.0497 4284830288
-6.8036699 925.0343 1297.0497 4285225046
-4.53578 924.16736 1296.3187 4285948246
1.5119267 925.32324 1297.2933 4285158477
-42.950459 932.92358 1298.4697 4282792006
-40.689907 932.05945 1297.7411 4282661702
-38.429359 932.92358 1298.4697 4284896866
-15.823853 931.19537 1297.0125 4286543994
-13.563303 931.19537 1297.0125 4287397545
-9.042202 932.05945 1297.7411 4285486932
-6.7816515 932.05945 1297.7411 4285420882
-4.521101 932.05945 1297.7411 4285288529
-2.2605505 932.05945 1297.7411 4285354578
-37.147705 938.64221 1296.7512 4286081893
-9.0055046 938.64221 1296.7512 4284829261
-6.7541285 938.64221 1296.7512 4285158226
-4.5027523 938.64221 1296.7512 4285157699
-9.0055046 940.3634 1298.2025 4284895308
-6.7541285 940.3634 1298.2025 4285026894
-4.5027523 940.3634 1298.2025 4285354312
-33.660549 945.59863 1297.3848 4285619299
-4.4880733 945.59863 1297.3848 4285223760
2.2440367 947.31421 1298.8313 4284895308
-35.757797 952.96552 1297.056 4291939045
-4.4697247 952.96552 1297.056 4285157199
1.1174312 952.96552 1297.056 4284829002
4.4697247 952.96552 1297.056 4284566345
7.8220181 952.96552 1297.056 4284697930
-42.462387 954.67407 1298.4967 4289571770
-40.227524 954.67407 1298.4967 4289441469
-37.992661 954.67407 1298.4967 4290362315
-35.757797 954.67407 1298.4967 4290230742
1.1174312 954.67407 1298.4967 4284763468
4.4697247 954.67407 1298.4967 4284500552
7.8220181 954.67407 1298.4967 4284894539
-43.436699 959.85046 1297.6292 4289306546
-40.095413 959.85046 1297.6292 4289176495
-37.867889 959.85046 1297.6292 4289110446
-35.640366 958.14746 1296.1932 4290492622
-4.4550457 959.85046 1297.6292 4285025361
11.137614 958.99896 1296.9111 4285025354
13.365138 959.85046 1297.6292 4285091154
-37.743118 965.00439 1296.7427 4289240492
-35.522934 965.00439 1296.7427 4289043627
-15.541285 965.00439 1296.7427 4292003296
-13.321101 965.00439 1296.7427 4291937760
-11.100918 965.00439 1296.7427 4287003541
-8.8807335 965.00439 1296.7427 4286669681
-37.743118 966.70178 1298.1738 4289044140
-34.412842 966.70178 1298.1738 4289043627
-31.082569 966.70178 1298.1738 4288846245
-28.862385 966.70178 1298.1738 4288977832
-25.53211 966.70178 1298.1738 4288254624
-22.201836 966.70178 1298.1738 4288583328
-19.981651 966.70178 1298.1738 4289833394
-17.761467 966.70178 1298.1738 4290951357
-13.321101 966.70178 1298.1738 4292069602
-11.100918 966.70178 1298.1738 4288582574
-8.8807335 966.70178 1298.1738 4286343297
-46.959633 755.86212 1299.5995 4287449445
4.943119 755.86212 1299.5995 4291016658
-49.431194 757.75165 1301.1926 4287178829
-46.959633 757.75165 1301.1926 4287507794
7.4146791 757.75165 1301.1926 4291214032
-46.78532 764.24878 1300.1307 4287969095
-49.247707 766.13135 1301.718 4287246403
7.387156 766.13135 1301.718 4291346643
-49.06422 770.71783 1299.0452 4287841370
-46.611008 770.71783 1299.0452 4286986061
7.359633 770.71783 1299.0452 4291346647
-51.517429 772.59332 1300.6265 4287385937
9.8128443 772.59332 1300.6265 4291413971
12.266055 772.59332 1300.6265 4291545557
-48.880733 779.02734 1299.5114 4287119952
-46.436699 779.02734 1299.5114 4286133057
-43.992661 779.02734 1299.5114 4285544530
-40.326607 779.02734 1299.5114 4285085260
2.4440367 779.02734 1299.5114 4291543258
4.8880734 779.02734 1299.5114 4291215577
7.3321099 779.02734 1299.5114 4291149784
-48.880733 780.89581 1301.0868 4287714148
-46.436699 780.89581 1301.0868 4286266701
-43.992661 780.89581 1301.0868 4285936719
-41.548622 780.89581 1301.0868 4285541961
4.8880734 780.89581 1301.0868 4291478744
7.3321099 780.89581 1301.0868 4291478744
12.220183 780.89581 1301.0868 4291282135
-48.697247 787.2948 1299.942 4286789454
-46.262386 787.2948 1299.942 4286657612
-43.827522 787.2948 1299.942 4286658127
-41.392662 787.2948 1299.942 4287052885
-38.957798 787.2948 1299.942 4285874257
2.4348624 787.2948 1299.942 4291150036
4.8697248 787.2948 1299.942 4291017682
14.609175 787.2948 1299.942 4291216342
-48.697247 789.15625 1301.5116 4287116368
-46.262386 789.15625 1301.5116 4287445333
-43.827522 789.15625 1301.5116 4287314767
2.4348624 789.15625 1301.5116 4291478485
4.8697248 789.15625 1301.5116 4291280089
-48.477066 797.90137 1301.0371 4287253599
-46.053211 796.04828 1299.4746 4287313229
2.4238532 796.97485 1300.2559 4291215571
4.8477063 797.90137 1301.0371 4291346645
-48.293579 806.07336 1301.3873 4286920783
-45.878899 805.15039 1300.6091 4286790225
1.6097859 804.84271 1300.3497 4290886606
4.8293576 805.15039 1300.6091 4290951374
-57.732109 812.36426 1300.1516 4285477190
-48.110092 812.36426 1300.1516 4286723661
-45.704586 812.36426 1300.1516 4287250005
1.2027524 812.36426 1300.1516 4290886343
4.8110094 812.36426 1300.1516 4290689483
-57.732109 814.20331 1301.7021 4285675334
-55.326607 814.20331 1301.7021 4286267215
-52.921101 814.20331 1301.7021 4286465350
-49.312843 814.20331 1301.7021 4286858826
1.2027524 814.20331 1301.7021 4291017667
4.8110094 814.20331 1301.7021 4290493121
-62.304588 820.45917 1300.4368 4285415755
-57.511925 820.45917 1300.4368 4285677129
-55.115597 820.45917 1300.4368 4286071887
-52.719265 820.45917 1300.4368 4286399055
-50.322937 820.45917 1300.4368 4286727764
1.1981652 820.45917 1300.4368 4290557633
4.7926607 820.45917 1300.4368 4290295729
-62.304588 822.2912 1301.9814 4285413193
-57.511925 822.2912 1301.9814 4285806664
-55.115597 822.2912 1301.9814 4286464850
1.1981652 822.2912 1301.9814 4290360770
4.7926607 822.2912 1301.9814 4289770136
7.1889906 822.2912 1301.9814 4288256897
10.783486 822.2912 1301.9814 4286085492
-62.066055 826.68701 1299.1478 4285675334
-57.291744 826.68701 1299.1478 4285741893
-54.904587 826.68701 1299.1478 4286334030
-52.517429 826.68701 1299.1478 4286597200
-50.130276 826.68701 1299.1478 4286597200
0 826.68701 1299.1478 4286541946
11.93578 826.68701 1299.1478 4288321450
14.322936 826.68701 1299.1478 4288913333
-57.291744 828.51196 1300.6866 4285807418
-54.904587 828.51196 1300.6866 4286070846
1.193578 828.51196 1300.6866 4283254874
7.161468 828.51196 1300.6866 4284178022
10.742202 828.51196 1300.6866 4287925161
14.322936 828.51196 1300.6866 4290358733
-54.735779 834.19617 1300.2472 4286268748
-52.355965 835.10583 1301.0142 4286660934
-49.976147 835.10583 1301.0142 4287121485
1.1899083 836.0155 1301.7812 4283650145
7.1394496 836.0155 1301.7812 4283649882
10.709174 836.0155 1301.7812 4282729295
14.278899 836.0155 1301.7812 4283912006
-46.227524 842.17603 1300.4354 4287314515
0 842.17603 1300.4354 4283913823
-54.524769 843.9884 1301.9636 4286268748
-49.783485 843.9884 1301.9636 4287385950
-46.227524 843.9884 1301.9636 4287515749
1.1853211 843.9884 1301.9636 4284308329
-43.687157 848.30841 1299.066 4287581530
-47.229359 850.11377 1300.5883 4287517020
-44.867889 850.11377 1300.5883 4287122262
-43.517433 856.21118 1299.1892 4287448144
-43.517433 858.00952 1300.7056 4287710802
1.1761467 858.00952 1300.7056 4290162371
-42.957184 864.66888 1299.7804 4287382096
-43.211929 871.40137 1300.225 4286990168
-39.708256 871.40137 1300.225 4289094515
-46.715595 873.18713 1301.7306 4286728284
-44.379818 873.18713 1301.7306 4286596698
1.16789 873.18713 1301.7306 4290688197
4.6715598 873.18713 1301.7306 4290425282
-46.532108 880.96069 1301.745 4286926431
-44.205505 880.07135 1300.9951 4286860126
-40.715595 879.18201 1300.2452 4288437872
-30.245872 879.18201 1300.2452 4289686908
-25.592661 879.18201 1300.2452 4290479752
0 879.18201 1300.2452 4290294979
-44.031193 886.92059 1300.2301 4287386463
-41.71376 886.92059 1300.2301 4287452243
-46.348625 888.69226 1301.7239 4286264903
-44.031193 888.69226 1301.7239 4287449176
-40.426605 892.37476 1299.5967 4288899187
-36.961468 892.37476 1299.5967 4289493900
0 892.37476 1299.5967 4290491840
-43.891743 894.14087 1301.0858 4287251530
-41.58165 894.14087 1301.0858 4287648868
1.1550459 894.14087 1301.0858 4290689733
-64.42569 900.04034 1299.52 4284561478
-62.124771 900.04034 1299.52 4284100927
-58.673393 900.04034 1299.52 4284558648
-52.921101 900.91992 1300.2616 4285412162
-49.469727 901.79944 1301.0032 4285936969
-46.018349 900.91992 1300.2616 4286462526
-43.71743 900.91992 1300.2616 4287646799
-41.416515 900.04034 1299.52 4287846499
0 900.91992 1300.2616 4288515999
-43.543118 907.66394 1299.408 4287318349
-41.251377 907.66394 1299.408 4287976806
-38.959633 907.66394 1299.408 4290279561
-48.126606 909.41602 1300.8851 4285282357
-45.834862 909.41602 1300.8851 4286200895
-43.543118 909.41602 1300.8851 4287450962
4.5834861 909.41602 1300.8851 4285880920
6.8752294 909.41602 1300.8851 4285880920
-43.403671 914.78033 1300.1761 4285288530
-45.688072 916.52679 1301.6487 4284237642
13.706422 916.52679 1301.6487 4286936424
-45.504585 922.32391 1299.9966 4282004289
0 922.32391 1299.9966 4285684560
4.5504589 922.32391 1299.9966 4285617748
6.8256879 922.32391 1299.9966 4285749333
10.238532 922.32391 1299.9966 4285749583
-45.504585 924.06335 1301.4633 4282528836
4.5504589 924.06335 1301.4633 4284697161
6.8256879 924.06335 1301.4633 4284697161
10.238532 924.06335 1301.4633 4285091404
-46.113766 928.79083 1300.2172 4282595396
-43.089909 928.50189 1299.9735 4282332226
1.133945 928.50183 1299.9735 4285289298
-42.950459 934.65179 1299.9269 4282659139
-40.689907 934.65179 1299.9269 4284037964
-36.168808 934.65179 1299.9269 4287660401
-2.2605505 934.65179 1299.9269 4284829765
-42.950459 936.38 1301.384 4281741121
-40.689907 936.38 1301.384 4283119955
-2.2605505 936.38 1301.384 4285289284
-36.022018 942.94519 1300.3794 4284962926
-2.2513762 942.94519 1300.3794 4285289040
-42.636696 950.74536 1301.7244 4289768351
-40.392662 950.74536 1301.7244 4290228932
-38.148624 950.74536 1301.7244 4291742171
-35.904587 949.02979 1300.2778 4290492869
1.1220183 949.02979 1300.2778 4285091404
4.4880733 949.02979 1300.2778 4284829515
7.8541284 949.02979 1300.2778 4284895048
11.220183 949.02979 1300.2778 4284763459
13.46422 949.02979 1300.2778 4284828479
-46.93211 956.38263 1299.9373 4289174683
-43.579819 956.38263 1299.9373 4289373111
-40.227524 956.38263 1299.9373 4289636783
-37.992661 956.38263 1299.9373 4290623678
1.1174312 956.38263 1299.9373 4285026124
4.4697247 956.38263 1299.9373 4284829261
7.8220181 956.38263 1299.9373 4284894539
-46.93211 958.09119 1301.3779 4289371045
1.1174312 958.09119 1301.3779 4285157453
4.4697247 958.09119 1301.3779 4285025611
7.8220181 958.09119 1301.3779 4285025354
-46.777981 961.55334 1299.0651 4289306798
-43.436699 961.55334 1299.0651 4289109168
-40.095413 961.55334 1299.0651 4289044142
-37.867889 961.55334 1299.0651 4288846506
-6.682569 961.55334 1299.0651 4285157476
-4.4550457 961.55334 1299.0651 4285288532
-2.2275229 961.55334 1299.0651 4285156947
7.7963305 961.55334 1299.0651 4284960068
11.137614 961.55334 1299.0651 4284959818
-46.777981 964.10779 1301.2189 4289044655
-43.436699 964.10779 1301.2189 4288912816
-40.095413 964.10779 1301.2189 4289109420
-15.592661 964.95929 1301.9368 4292333010
-6.682569 964.10779 1301.2189 4284697182
-4.4550457 964.10779 1301.2189 4284697417
-2.2275229 964.10779 1301.2189 4284960589
11.137614 963.25635 1300.501 4284959818
13.365138 963.25635 1300.501 4284959820
16.706421 963.25635 1300.501 4284631624
-8.8807335 968.39911 1299.605 4286543744
-51.902752 760.58594 1303.5825 4287050820
-49.431194 760.58594 1303.5825 4287311677
7.4146791 760.58594 1303.5825 4291608788
-54.172478 769.89636 1304.8926 4287056971
-51.710091 768.01379 1303.3053 4286859854
-51.517429 775.40662 1302.9985 4286923329
-49.06422 774.46881 1302.2079 4287512662
9.8128443 775.40662 1302.9985 4291348180
13.083793 775.71924 1303.2621 4291413462
-56.212845 782.76428 1302.6622 4286265688
-51.324772 782.76428 1302.6622 4288502659
-48.880733 782.76428 1302.6622 4288040784
4.8880734 782.76428 1302.6622 4291544278
7.3321099 782.76428 1302.6622 4291675607
9.7761469 782.76428 1302.6622 4291545051
12.220183 782.76428 1302.6622 4291084500
-56.212845 784.63281 1304.2377 4285675848
-52.546791 784.63281 1304.2377 4286396243
7.3321099 784.63281 1304.2377 4291741149
9.7761469 784.63281 1304.2377 4291610585
12.220183 784.63281 1304.2377 4291478998
-48.697247 791.0177 1303.0812 4287444295
-46.262386 791.0177 1303.0812 4287707724
4.8697248 791.0177 1303.0812 4291082705
7.3045874 791.0177 1303.0812 4291477463
13.391743 791.0177 1303.0812 4291543256
-56.001835 792.87921 1304.6508 4285345838
-51.132111 792.87921 1304.6508 4286000704
-48.697247 792.87921 1304.6508 4287115850
4.8697248 792.87921 1304.6508 4291477461
7.3045874 792.87921 1304.6508 4291609047
9.7394495 792.87921 1304.6508 4291477981
13.391743 792.87921 1304.6508 4291412442
-55.748623 799.75439 1302.5996 4286005312
-49.688992 799.75439 1302.5996 4287779682
2.4238532 799.75439 1302.5996 4291346643
4.8477063 799.75439 1302.5996 4291346132
7.2715597 799.75439 1302.5996 4291346132
