# .PCD v0.7 - Point Cloud Data file format
VERSION 0.7
FIELDS x y z rgb
SIZE 4 4 4 4
TYPE F F F U
COUNT 1 1 1 1
WIDTH 1074
HEIGHT 1
VIEWPOINT 0 0 0 1 0 0 0
POINTS 1074
DATA ascii
-85.673393 761.42053 1238.8848 4281551477
-90.084404 766.9624 1237.0173 4283721631
-87.71376 766.9624 1237.0173 4283458203
-85.343117 766.9624 1237.0173 4283458200
-83.293579 763.23993 1240.4188 4282865801
-79.723854 763.23993 1240.4188 4281553805
-76.154129 763.23993 1240.4188 4283917991
-73.774315 763.23993 1240.4188 4283720356
-83.293579 765.05933 1241.9529 4283260827
-79.723854 765.05933 1241.9529 4282338701
-76.154129 765.05933 1241.9529 4282997148
-73.774315 765.05933 1241.9529 4283721128
-70.20459 765.05933 1241.9529 4283129502
-66.634865 765.05933 1241.9529 4281619093
-64.255043 765.05933 1241.9529 4283066539
-90.084404 769.68097 1239.3094 4282867870
-87.71376 769.68097 1239.3094 4283064992
-85.343117 769.68097 1239.3094 4283129754
-66.377983 769.68097 1239.3094 4282800285
-64.007339 769.68097 1239.3094 4282339734
-87.71376 771.49335 1240.8376 4283328419
-85.343117 771.49335 1240.8376 4283457949
-79.416519 771.49335 1240.8376 4283195030
-75.86055 771.49335 1240.8376 4281355933
-73.489906 771.49335 1240.8376 4280500624
-71.119263 771.49335 1240.8376 4281092483
-67.563309 771.49335 1240.8376 4283129759
-64.007339 771.49335 1240.8376 4283061658
-86.267891 754.50665 1244.8274 4279117149
-82.673393 754.50665 1244.8274 4282276243
-79.078896 754.50665 1244.8274 4282737824
-76.682571 754.50665 1244.8274 4282079390
-74.28624 754.50665 1244.8274 4281750681
-82.35688 759.16193 1242.2124 4281222769
-78.776146 759.16193 1242.2124 4283986333
-76.388992 759.16193 1242.2124 4283590055
-74.001831 759.16193 1242.2124 4282274195
-70.421097 760.98694 1243.7512 4282537367
-66.84037 760.98694 1243.7512 4281290660
-92.812843 766.87872 1243.4869 4283130522
-83.293579 766.87872 1243.4869 4282932376
-79.723854 766.87872 1243.4869 4282865549
-76.154129 766.87872 1243.4869 4281157266
-73.774315 766.87872 1243.4869 4281288595
-70.20459 766.87872 1243.4869 4282275992
-61.875229 766.87872 1243.4869 4282470039
-91.26973 773.30573 1242.3658 4283196839
-87.71376 773.30573 1242.3658 4282999967
-85.343117 773.30573 1242.3658 4283457951
-82.972481 773.30573 1242.3658 4283523745
-79.416519 773.30573 1242.3658 4283392156
-75.86055 773.30573 1242.3658 4283392931
-73.489906 773.30573 1242.3658 4282668951
-71.119263 773.30573 1242.3658 4281879939
-67.563309 773.30573 1242.3658 4282076295
-64.007339 773.30573 1242.3658 4282141578
-61.636696 773.30573 1242.3658 4282930063
-90.084404 775.1181 1243.8939 4283327135
-87.71376 775.1181 1243.8939 4283261342
-85.343117 775.1181 1243.8939 4283392158
-82.972481 775.1181 1243.8939 4283392158
-79.416519 775.1181 1243.8939 4283392158
-75.86055 775.1181 1243.8939 4283262372
-73.489906 775.1181 1243.8939 4283064992
-71.119263 775.1181 1243.8939 4281881236
-67.563309 775.1181 1243.8939 4281288835
-64.007339 775.1181 1243.8939 4281552255
-61.636696 775.1181 1243.8939 4282666891
-70.691742 756.33862 1246.3721 4282673319
-67.097244 756.33862 1246.3721 4288456920
-64.70092 758.17065 1247.9167 4283593415
-62.304588 758.17065 1247.9167 4287992304
-62.066055 762.81195 1245.29 4286614709
-59.678898 764.63696 1246.8289 4282535832
-95.192657 770.51752 1246.5551 4282275742
-91.62294 768.69812 1245.021 4283657130
-83.293579 768.69812 1245.021 4283392156
-61.875229 768.69812 1245.021 4281879437
-90.084404 776.93048 1245.4221 4283261340
-87.71376 776.93048 1245.4221 4283195547
-85.343117 776.93048 1245.4221 4283261342
-79.416519 776.93048 1245.4221 4283392158
-75.86055 776.93048 1245.4221 4283261088
-73.489906 776.93048 1245.4221 4283261088
-71.119263 776.93048 1245.4221 4283261592
-67.563309 776.93048 1245.4221 4282932623
-64.007339 776.93048 1245.4221 4282669190
-61.636696 776.93048 1245.4221 4281879689
-90.084404 778.74286 1246.9502 4283852950
-87.71376 778.74286 1246.9502 4283260557
-85.343117 778.74286 1246.9502 4283261088
-82.972481 778.74286 1246.9502 4283261088
-79.416519 778.74286 1246.9502 4283261340
-75.86055 778.74286 1246.9502 4283261342
-73.489906 778.74286 1246.9502 4283195293
-71.119263 778.74286 1246.9502 4283195799
-67.563309 778.74286 1246.9502 4283195793
-64.007339 778.74286 1246.9502 4282998152
-64.948624 753.51538 1250.5317 4291352063
-62.543118 753.51538 1250.5317 4292205055
-59.908257 760.00269 1249.4614 4290364910
-95.486237 766.46198 1248.3677 4282669982
-59.678898 766.46198 1248.3677 4281681802
-59.678898 768.28693 1249.9064 4282930063
-95.192657 772.33691 1248.0891 4282931876
-92.812843 772.33691 1248.0891 4283392427
-97.572479 774.15625 1249.6232 4282863993
-95.192657 774.15625 1249.6232 4283062946
-92.812843 774.15625 1249.6232 4283523497
-83.293579 774.15625 1249.6232 4283261342
-87.71376 781.46143 1249.2424 4283325601
-85.343117 781.46143 1249.2424 4282801568
-82.972481 780.55524 1248.4784 4283130787
-79.416519 781.46143 1249.2424 4283261340
-73.489906 781.46143 1249.2424 4283261342
-71.119263 781.46143 1249.2424 4283261342
-67.563309 781.46143 1249.2424 4283195548
-64.007339 780.55524 1248.4784 4282867348
-85.01284 788.73151 1248.8323 4284906933
-87.374313 790.53687 1250.3545 4285039798
-60.137615 755.35437 1252.0823 4291939839
-100.26055 770.11194 1251.4452 4280499299
-97.873398 770.11194 1251.4452 4282407296
-59.678898 770.11194 1251.4452 4282995856
-59.678898 771.93695 1252.984 4282142605
-97.572479 775.97565 1251.1572 4282862971
-95.192657 775.97565 1251.1572 4283324316
-92.812843 775.97565 1251.1572 4284442798
-95.192657 777.79504 1252.6913 4283126672
-91.62294 777.79504 1252.6913 4285299127
-76.154129 777.79504 1252.6913 4283261342
-90.084404 785.99237 1253.0629 4284643215
-87.71376 784.17999 1251.5347 4283528112
-85.343117 784.17999 1251.5347 4283196581
-82.972481 785.08618 1252.2988 4283196320
-80.601837 785.08618 1252.2988 4283064478
-73.489906 784.17999 1251.5347 4283196833
-71.119263 784.17999 1251.5347 4283524260
-98.625687 760.87146 1256.7341 4281817213
-57.732109 759.95197 1255.9589 4280631451
-55.326607 760.87146 1256.7341 4279054184
-98.249542 765.49872 1254.0956 4281621882
-57.511925 766.41473 1254.8679 4282208140
-62.066055 773.76196 1254.5228 4282602379
-62.066055 775.58698 1256.0615 4282997650
-59.678898 775.58698 1256.0615 4282800528
-95.192657 779.61444 1254.2253 4282076035
-91.62294 779.61444 1254.2253 4285957061
-83.293579 779.61444 1254.2253 4283130533
-76.154129 779.61444 1254.2253 4283327135
-64.255043 779.61444 1254.2253 4283063707
-92.812843 781.43384 1255.7594 4285037486
-78.533943 781.43384 1255.7594 4283327135
-76.154129 781.43384 1255.7594 4283130783
-69.014679 781.43384 1255.7594 4283392931
-66.634865 781.43384 1255.7594 4283261088
-64.255043 781.43384 1255.7594 4283195295
-85.343117 787.80475 1254.5909 4285763523
-82.972481 787.80475 1254.5909 4283921319
-80.601837 787.80475 1254.5909 4282867866
-66.377983 787.80475 1254.5909 4283457699
-64.007339 787.80475 1254.5909 4283391906
-61.636696 787.80475 1254.5909 4283457951
-85.343117 789.61713 1256.1191 4286220203
-82.972481 789.61713 1256.1191 4286022568
-64.007339 789.61713 1256.1191 4283391906
-61.636696 789.61713 1256.1191 4283391906
-57.952293 754.38422 1257.8043 4290823935
-55.537613 756.23022 1259.361 4278656153
-53.122936 756.23022 1259.361 4278196123
-55.326607 763.63 1259.0601 4282339469
-58.310699 770.38409 1258.2148 4281879428
-62.066055 778.32446 1258.3698 4283063193
-59.678898 778.32446 1258.3698 4283128987
-78.533943 784.16296 1258.0605 4283064990
-76.154129 784.16296 1258.0605 4283327135
-73.774315 784.16296 1258.0605 4283327135
-70.20459 784.1629 1258.0605 4283261093
-66.634865 783.25323 1257.2935 4283260323
-64.255043 783.25323 1257.2935 4283391908
-58.305504 785.07263 1258.8275 4283195037
-53.122936 758.07629 1260.9175 4281359017
-53.122936 759.92236 1262.474 4283332010
-49.500916 759.92236 1262.474 4287078117
-55.326607 766.38855 1261.3861 4282076037
-55.326607 768.2276 1262.9366 4281683078
-57.511925 772.82678 1260.2744 4282143892
-57.511925 774.65881 1261.8191 4282537631
-62.066055 781.06195 1260.678 4283260829
-58.485321 781.06195 1260.678 4283195035
-83.293579 788.71143 1261.8956 4284841669
-79.723854 787.80176 1261.1285 4284053157
-73.774315 787.80176 1261.1287 4283130524
-70.20459 786.89203 1260.3616 4283457700
-66.634865 786.89203 1260.3616 4283457699
-64.255043 788.71143 1261.8956 4283457699
-61.875229 788.71143 1261.8956 4283654049
-58.305504 787.80176 1261.1285 4283391905
-52.355965 788.71143 1261.8956 4283392408
-49.688992 755.28107 1265.1007 4287146224
-53.122936 761.76837 1264.0305 4284182664
-50.708256 761.76837 1264.0305 4287209143
-53.122936 763.61444 1265.587 4281879939
-49.500916 763.61444 1265.587 4281486234
-55.326607 770.06665 1264.4873 4281551499
-57.511925 776.49084 1263.3638 4283391904
-55.115597 778.32281 1264.9086 4283523999
-76.388992 784.71198 1263.7555 4283195547
-54.904587 784.71198 1263.7555 4283260836
-52.517429 784.71198 1263.7555 4283391643
-76.388992 786.53699 1265.2943 4282867866
-70.421097 786.53699 1265.2943 4283457699
-66.84037 786.53699 1265.2943 4283457699
-54.904587 786.53699 1265.2943 4283457951
-50.130276 786.53699 1265.2943 4283458201
-80.913765 790.53076 1263.4297 4285628342
-73.774315 790.53076 1263.4297 4283524762
-64.255043 790.53076 1263.4297 4283588256
-61.875229 790.53076 1263.4297 4283457953
-58.305504 790.53076 1263.4297 4283392412
-54.735779 790.53076 1263.4297 4283392408
-52.355965 790.53076 1263.4297 4283327133
-76.154129 792.35016 1264.9637 4285958338
-73.774315 792.35016 1264.9637 4284510892
-64.255043 792.35016 1264.9637 4283588002
-61.875229 792.35016 1264.9637 4283326881
-58.305504 792.35016 1264.9637 4283327136
-52.355965 792.35016 1264.9637 4283327133
-48.477066 758.98718 1268.2257 4287929050
-46.053211 758.98718 1268.2257 4284178849
-53.122936 766.38348 1267.9219 4281354363
-50.708256 766.38348 1267.9219 4281814914
-55.326607 772.8252 1266.8132 4282405527
-52.921101 773.74469 1267.5885 4283392384
-55.115597 780.15485 1266.4532 4283261088
-52.719265 780.15485 1266.4532 4283458453
-50.322937 781.98688 1267.9979 4283523485
-78.776146 788.36194 1266.8331 4285562548
-76.388992 788.36194 1266.8331 4284380328
-70.421097 788.36194 1266.8331 4283326883
-66.84037 788.36194 1266.8331 4283588256
-50.130276 788.36194 1266.8331 4283327133
-47.743118 788.36194 1266.8331 4283392156
-70.421097 790.18695 1268.3719 4283129500
-66.84037 790.18695 1268.3719 4283654051
-54.904587 790.18695 1268.3719 4283327133
-50.130276 790.18695 1268.3719 4283261340
-47.743118 790.18695 1268.3719 4283261079
-76.154129 794.16956 1266.4978 4286284991
-61.875229 794.16956 1266.4978 4283457699
-59.495415 794.16956 1266.4978 4283589542
-46.262386 753.78827 1271.6902 4284968390
-43.827522 753.78827 1271.6902 4282406256
-41.392662 753.78827 1271.6902 4278194219
-46.053211 760.84021 1269.7881 4280171170
-48.477066 762.6933 1271.3506 4281289095
-46.053211 762.6933 1271.3506 4280894337
-53.122936 769.15259 1270.2567 4280699231
-49.903362 770.3833 1271.2944 4283328133
-52.921101 775.58368 1269.1392 4283786901
-50.515594 777.42273 1270.6898 4283853211
-46.728439 784.73486 1270.3149 4283392670
-74.001831 792.92444 1270.6802 4285627839
-70.818962 792.6203 1270.4237 4284510115
-66.84037 792.01196 1269.9108 4283260323
-64.453209 792.92444 1270.6802 4283522979
-62.066055 793.83698 1271.4495 4283589792
-58.087463 793.22858 1270.9366 4283524255
-54.904587 792.92444 1270.6802 4283327389
-52.517429 792.92444 1270.6802 4283327136
-50.130276 792.92444 1270.6802 4283327135
-43.827522 755.64972 1273.2598 4281943643
-41.392662 755.64972 1273.2598 4279706424
-43.827522 757.51123 1274.8293 4283714180
-41.392662 757.51123 1274.8293 4290820080
-48.477066 764.54633 1272.913 4282864519
-46.053211 764.54633 1272.913 4282403968
-48.477066 766.39941 1274.4755 4283127944
-46.053211 766.39941 1274.4755 4283062151
-49.500916 772.8446 1273.3698 4284839071
-45.878899 772.8446 1273.3698 4283522950
-48.293579 774.69067 1274.9263 4284509599
-45.878899 774.69067 1274.9263 4285298859
-43.464222 774.69067 1274.9263 4284971945
-48.110092 779.26178 1272.2404 4284180898
-45.704586 779.26178 1272.2404 4285628344
-45.704586 781.10083 1273.791 4283919271
-43.299084 781.10083 1273.791 4285494957
-45.530273 787.48291 1272.6321 4283261079
-43.133945 787.48291 1272.6321 4283063194
-46.728439 789.31494 1274.1768 4283261079
-43.133945 789.31494 1274.1768 4283261342
-40.737614 789.31494 1274.1768 4283129500
-70.421097 796.57446 1273.7577 4284837566
-64.453209 796.57446 1273.7577 4283851682
-62.066055 796.57446 1273.7577 4283326618
-58.485321 796.57446 1273.7577 4283458206
-54.904587 796.57446 1273.7577 4283458209
-52.517429 796.57446 1273.7577 4283457952
-50.130276 796.57446 1273.7577 4283457952
-46.549541 797.48694 1274.5271 4283654563
-64.255043 803.26648 1274.1682 4284840899
-61.875229 803.26648 1274.1682 4286088645
-43.827522 760.30341 1277.1836 4282536091
-41.392662 759.37268 1276.3989 4290561279
-46.053211 768.25244 1276.038 4283326602
-43.629356 769.17896 1276.8191 4283062931
-43.464222 776.53674 1276.4828 4285561767
-41.049541 776.53674 1276.4828 4284904094
-43.299084 782.93982 1275.3417 4285364124
-40.893578 782.93982 1275.3417 4286482606
-38.488075 782.93982 1275.3417 4286677679
-40.893578 784.77881 1276.8922 4283194780
-37.285324 784.77881 1276.8922 4284575406
-69.493576 791.14691 1275.7214 4284245153
-67.097244 791.14691 1275.7214 4283522209
-46.728439 791.14691 1275.7214 4283392926
-43.133945 791.14691 1275.7214 4283787684
-40.737614 791.14691 1275.7214 4283392927
-38.341286 791.14691 1275.7214 4283194782
-67.097244 792.97894 1277.2662 4283983782
-46.728439 792.97894 1277.2662 4283523999
-43.133945 792.97894 1277.2662 4283589792
-40.737614 792.97894 1277.2662 4283457949
-38.341286 792.97894 1277.2662 4283391904
-69.227524 799.31195 1276.0659 4284249769
-66.84037 799.31195 1276.0659 4285365187
-64.453209 799.31195 1276.0659 4284970430
-62.066055 799.31195 1276.0659 4284115112
-58.485321 799.31195 1276.0659 4283523489
-54.904587 799.31195 1276.0659 4283523747
-52.517429 799.31195 1276.0659 4283523745
-50.130276 799.31195 1276.0659 4283655331
-46.549541 799.31195 1276.0659 4283458215
-42.968807 799.31195 1276.0659 4283523745
-66.84037 801.13696 1277.6047 4282209180
-58.485321 801.13696 1277.6047 4283852196
-54.904587 801.13696 1277.6047 4283523745
-52.517429 801.13696 1277.6047 4283524258
-50.130276 801.13696 1277.6047 4283392929
-46.549541 801.13696 1277.6047 4283326883
-42.968807 801.13696 1277.6047 4283523999
-64.255043 805.08594 1275.7023 4284578731
-39.104588 754.737 1279.0303 4290760959
-36.660549 754.737 1279.0303 4288984552
-39.104588 756.60547 1280.6058 4291741695
-36.660549 756.60547 1280.6058 4291281151
-34.216515 756.60547 1280.6058 4290363135
-31.772476 756.60547 1280.6058 4283652012
-43.827522 763.09564 1279.538 4282339473
-41.392662 763.09564 1279.538 4282470802
-41.205505 771.95856 1279.1628 4283656085
-37.569725 773.81165 1280.7252 4283719565
-31.510092 773.81165 1280.7252 4283326354
-29.086239 773.81165 1280.7252 4282931859
-26.662386 773.81165 1280.7252 4282997652
-41.049541 778.38275 1278.0393 4286810816
-38.634861 778.38275 1278.0393 4286875565
-36.220184 780.22882 1279.5958 4286283178
-33.805504 780.22882 1279.5958 4284246418
-31.390825 780.22882 1279.5958 4282996608
-28.976147 780.22882 1279.5958 4282932611
-26.561468 780.22882 1279.5958 4283458955
-36.884403 787.2309 1278.9598 4283720097
-33.677063 788.45691 1279.9935 4282799758
-67.097244 794.81097 1278.8109 4285956543
-43.133945 794.81097 1278.8109 4283260575
-40.737614 794.81097 1278.8109 4283655333
-38.341286 794.81097 1278.8109 4283655585
-40.737614 796.64294 1280.3556 4283721380
-38.341286 796.64294 1280.3556 4283983264
-50.130276 802.96198 1279.1434 4283326883
-45.355965 802.96198 1279.1434 4283392156
-42.968807 802.96198 1279.1434 4283523745
-40.58165 802.96198 1279.1434 4283457951
-57.291744 804.78699 1280.6823 4286351047
-54.904587 804.78699 1280.6823 4284706221
-40.326607 758.474 1282.1813 4285562579
-36.660549 758.474 1282.1813 4290166271
-39.104588 760.34247 1283.7567 4284048546
-36.660549 760.34247 1283.7567 4288522214
-34.216515 760.34247 1283.7567 4290163199
-31.772476 760.34247 1283.7567 4288847351
-29.32844 760.34247 1283.7567 4285627071
-41.392662 764.95709 1281.1075 4282733711
-41.392662 766.8186 1282.6771 4282931344
-37.740364 766.8186 1282.6771 4282404750
-34.088074 766.8186 1282.6771 4281553284
-31.653212 766.8186 1282.6771 4281224576
-29.218349 766.8186 1282.6771 4279909507
-36.3578 775.66467 1282.2877 4285493912
-33.933945 775.66467 1282.2877 4283524237
-31.510092 775.66467 1282.2877 4282997893
-29.086239 775.66467 1282.2877 4282931848
-25.450459 775.66467 1282.2877 4283393176
-21.814678 775.66467 1282.2877 4282736280
-24.238533 777.5177 1283.8501 4283327133
-21.814678 777.5177 1283.8501 4283261340
-19.390825 777.5177 1283.8501 4283261090
-16.966972 777.5177 1283.8501 4284050350
-33.805504 782.07483 1281.1523 4286876065
-31.390825 782.07483 1281.1523 4286744478
-33.805504 783.9209 1282.709 4286416270
-31.390825 783.9209 1282.709 4287468958
-36.082569 790.2959 1281.5442 4282997402
-33.677063 790.2959 1281.5442 4282930840
-36.082569 792.13495 1283.0947 4283195034
-33.677063 792.13495 1283.0947 4283391132
-31.271559 792.13495 1283.0947 4283193496
-62.304588 800.30701 1283.4451 4286217675
-58.710091 800.30701 1283.4451 4284771251
-55.115597 800.30701 1283.4451 4283522461
-52.719265 800.30701 1283.4451 4283261090
-47.926605 800.30701 1283.4451 4283392156
-40.737614 798.47498 1281.9003 4283523999
-38.341286 799.39099 1282.6726 4283457946
-35.944954 799.39099 1282.6726 4283523739
-46.549541 806.61194 1282.2211 4283326883
-42.968807 806.61194 1282.2211 4283523745
-52.517429 808.43701 1283.7599 4286353596
-34.344955 755.71381 1286.3942 4292661247
-31.891743 755.71381 1286.3942 4289042395
-29.438532 754.77606 1285.6035 4282339209
-39.104588 762.21094 1285.3322 4281945746
-36.660549 762.21094 1285.3322 4282472090
-34.216515 762.21094 1285.3322 4282734535
-31.772476 762.21094 1285.3322 4281616311
-29.32844 762.21094 1285.3322 4279580819
-26.884403 763.1452 1286.1199 4279515016
-37.740364 768.68005 1284.2466 4283128973
-34.088074 769.61078 1285.0314 4283326354
-31.653212 768.68005 1284.2466 4283063182
-29.218349 768.68005 1284.2466 4282472331
-25.566055 769.61078 1285.0314 4282603155
-21.913761 770.5415 1285.8162 4281681804
-29.086239 779.37079 1285.4126 4284184741
-25.450459 779.37079 1285.4126 4281619078
-21.814678 779.37079 1285.4126 4282540445
-29.086239 781.22388 1286.9751 4285626806
-25.450459 781.22388 1286.9751 4283127954
-21.814678 781.22388 1286.9751 4282865551
-31.390825 785.76697 1284.2655 4283457688
-28.976147 785.76697 1284.2655 4286410917
-31.390825 787.61298 1285.822 4282733461
-28.976147 787.61298 1285.822 4285034367
-26.561468 787.61298 1285.822 4286942364
-21.732111 787.61298 1285.822 4286152621
-36.082569 793.974 1284.6454 4283654299
-33.677063 793.974 1284.6454 4283457951
-31.271559 793.974 1284.6454 4283523745
-33.677063 795.81299 1286.196 4283523745
-31.271559 795.81299 1286.196 4283589538
-62.304588 802.13904 1284.9897 4283125153
-59.908257 802.13904 1284.9897 4285954252
-52.719265 803.05505 1285.7621 4283327648
-50.322937 803.05505 1285.7621 4282998683
-46.728439 802.13904 1284.9897 4283457954
-43.133945 802.13904 1284.9897 4283392929
-40.737614 803.05505 1285.7621 4283458209
-38.341286 803.05505 1285.7621 4283654309
-35.944954 803.05505 1285.7621 4283588772
-47.743118 810.26196 1285.2987 4284380324
-26.985321 757.58936 1287.9755 4279903337
-25.450459 783.0769 1288.5375 4287400634
-21.814678 783.0769 1288.5375 4285363618
-19.390825 783.0769 1288.5375 4283198629
-28.976147 790.38202 1288.1567 4282865817
-25.756577 790.0744 1287.8973 4282142091
-21.732111 789.45898 1287.3785 4282799504
-19.31743 790.38202 1288.1567 4283257211
-33.677063 797.65204 1287.7466 4283720097
-31.271559 797.65204 1287.7466 4283720097
-33.677063 799.49109 1289.2972 4283785117
-31.271559 799.49109 1289.2972 4283785117
-50.322937 805.80304 1288.0791 4284774563
-46.728439 805.80304 1288.0791 4283131038
-43.133945 805.80304 1288.0791 4283457953
-40.737614 805.80304 1288.0791 4283655333
-52.719265 807.63507 1289.6239 4285825716
-50.322937 807.63507 1289.6239 4285825716
-45.530273 807.63507 1289.6239 4282801291
-43.133945 807.63507 1289.6239 4283129500
-40.737614 807.63507 1289.6239 4283524258
-24.623854 754.83624 1292.1943 4278199141
-19.699083 754.83624 1292.1943 4278190684
-24.53211 763.21582 1292.7196 4282931342
-22.078899 763.21582 1292.7196 4281681531
-19.478899 776.12592 1290.5248 4283195295
-17.044037 776.12592 1290.5248 4283195295
-14.609175 776.12592 1290.5248 4282014880
-19.478899 777.98743 1292.0944 4283063709
-17.044037 777.98743 1292.0944 4283392931
-24.238533 784.92993 1290.1 4286810807
-19.390825 784.92993 1290.1 4284575905
-16.966972 784.92993 1290.1 4284049561
-14.543119 784.92993 1290.1 4283655316
-16.966972 786.78302 1291.6624 4283191170
-14.543119 786.78302 1291.6624 4280959602
-28.976147 794.0741 1291.2698 4283458210
-25.35413 794.99713 1292.0481 4283589536
-37.285324 803.16913 1292.3984 4283458467
-33.677063 802.24963 1291.6232 4283458463
-31.271559 801.33008 1290.8479 4283457953
-28.866055 801.33008 1290.8479 4283457949
-24.055046 801.33008 1290.8479 4283392156
-21.649542 801.33008 1290.8479 4283457949
-52.719265 809.46704 1291.1686 4281749134
-50.322937 809.46704 1291.1686 4284906942
-24.623854 757.66003 1294.5752 4279775852
-22.161469 757.66003 1294.5752 4279644266
-19.699083 756.71875 1293.7816 4278593367
-12.220183 773.42188 1294.7849 4282607273
-9.7761469 773.42188 1294.7849 4282938301
-17.044037 779.84888 1293.6639 4283066787
-14.609175 779.84888 1293.6639 4283786905
-12.174312 781.71033 1295.2334 4283063436
-24.238533 788.63611 1293.2249 4281485683
-21.814678 788.63611 1293.2249 4281551477
-16.966972 788.63611 1293.2249 4282797164
-14.543119 788.63611 1293.2249 4282012009
-25.450459 790.48914 1294.7874 4283326871
-21.814678 790.48914 1294.7874 4282932359
-19.390825 790.48914 1294.7874 4282995591
-28.976147 796.8432 1293.6047 4283457951
-25.35413 796.8432 1293.6047 4283392157
-21.732111 796.8432 1293.6047 4283392156
-19.31743 796.8432 1293.6047 4283457949
-26.561468 798.68921 1295.1613 4283457949
-19.31743 798.68921 1295.1613 4283590042
-48.110092 806.84717 1295.4998 4285499835
-45.704586 806.84717 1295.4998 4284447147
-43.299084 806.84717 1295.4998 4283328945
-40.893578 806.84717 1295.4998 4282999981
-37.285324 805.92767 1294.7244 4283327387
-33.677063 805.00818 1293.9491 4283328921
-13.442202 775.29034 1296.3604 4282999195
-12.220183 777.15887 1297.9358 4283523733
-21.814678 792.34216 1296.3497 4283392410
-19.390825 792.34216 1296.3497 4283194014
-16.966972 794.19525 1297.9122 4283589792
-31.390825 800.53528 1296.7178 4283590303
-28.976147 800.53528 1296.7178 4283327385
-25.35413 800.53528 1296.7178 4283326874
-21.732111 800.53528 1296.7178 4283260827
-19.31743 800.53528 1296.7178 4283523733
-31.390825 802.38135 1298.2743 4283526043
-28.976147 802.38135 1298.2743 4283458201
-25.35413 802.38135 1298.2743 4283392154
-21.732111 802.38135 1298.2743 4283392156
-19.31743 802.38135 1298.2743 4283391893
-37.285324 808.68622 1297.0503 4282999702
-19.772476 755.86212 1299.5995 4278528358
-17.300917 755.86212 1299.5995 4278195281
-14.829358 755.86212 1299.5995 4278190157
-19.772476 757.75165 1301.1926 4279776874
-17.300917 757.75165 1301.1926 4282145678
-9.8128443 772.59332 1300.6265 4282079644
-12.220183 780.89581 1301.0868 4281551740
-17.044037 787.2948 1299.942 4282864004
-14.609175 787.2948 1299.942 4282667373
-17.044037 789.15625 1301.5116 4282799256
-16.966972 796.97485 1300.2559 4283458198
-41.049541 806.07336 1301.3873 4282867125
-33.805504 805.15039 1300.6091 4283132058
-31.390825 805.15039 1300.6091 4283197594
-28.976147 805.15039 1300.6091 4283392666
-24.14679 805.15039 1300.6091 4283457949
-21.732111 805.15039 1300.6091 4283458206
-19.772476 759.64117 1302.7859 4281092735
-17.300917 759.64117 1302.7859 4285303487
-12.357799 760.58594 1303.5825 4290955519
-9.8862381 760.58594 1303.5825 4291218687
-7.4146791 761.5307 1304.379 4291286527
-7.387156 768.95508 1304.0989 4285765854
-9.8128443 775.40662 1302.9985 4282407042
-12.220183 782.76428 1302.6622 4281880680
-12.220183 784.63281 1304.2377 4283457145
-14.609175 791.0177 1303.0812 4283656339
-14.609175 792.87921 1304.6508 4283785890
-16.966972 799.75439 1302.5996 4283326100
-26.662386 801.60742 1304.162 4283261590
-19.390825 801.60742 1304.162 4283458201
-16.966972 801.60742 1304.162 4283392408
-41.049541 807.91943 1302.9438 4284251068
-37.427521 807.91943 1302.9438 4283526055
-33.805504 807.91943 1302.9438 4282999447
-31.390825 807.91943 1302.9438 4283065240
-28.976147 807.91943 1302.9438 4283194780
-25.35413 807.91943 1302.9438 4283392415
-21.732111 807.91943 1302.9438 4283524258
-19.31743 808.84247 1303.7222 4283524254
-16.902752 808.84247 1303.7222 4283524255
-14.488073 809.7655 1304.5005 4283524512
-7.2440367 809.7655 1304.5005 4283787684
-13.654128 754.47314 1306.2765 4285498568
-9.930275 754.47314 1306.2765 4289836263
-7.4477062 754.47314 1306.2765 4292073215
-14.895412 756.37109 1307.8767 4287401965
-7.4477062 756.37109 1307.8767 4292401151
-4.9651375 756.37109 1307.8767 4291483903
-2.4825687 756.37109 1307.8767 4291747071
0 756.37109 1307.8767 4292010751
-13.593578 763.42023 1305.9723 4287208391
-9.8862381 763.42023 1305.9723 4290497023
-7.387156 771.77887 1306.4799 4283064459
-9.8128443 778.21985 1305.3706 4281684082
-13.442202 787.43555 1306.6008 4283129476
-9.7761469 788.36975 1307.3887 4282801554
-14.609175 794.74066 1306.2202 4283653788
-9.7394495 794.74066 1306.2202 4287070118
-14.609175 796.60217 1307.7898 4283654047
-2.4348624 796.60217 1307.7898 4288387282
-48.477066 803.46051 1305.7245 4285694637
-46.053211 803.46051 1305.7245 4285825966
-43.629356 803.46051 1305.7245 4284182985
-26.662386 803.46051 1305.7245 4283457949
-19.390825 803.46051 1305.7245 4283523997
-16.966972 803.46051 1305.7245 4283589790
-7.2715597 803.46051 1305.7245 4283063455
-14.543119 805.3136 1307.2869 4283656098
-16.902752 811.61151 1306.057 4283392158
-14.488073 811.61151 1306.057 4283194780
-4.9651375 758.26904 1309.4771 4290695167
-2.4825687 758.26904 1309.4771 4291287039
0 758.26904 1309.4771 4291352831
-4.943119 769.08881 1310.7518 4283195829
-2.4715595 769.08881 1310.7518 4285564377
-7.387156 773.66138 1308.0671 4282867849
-12.266055 783.84631 1310.1147 4283787144
-12.220183 790.23828 1308.9641 4284443563
-9.7761469 790.23828 1308.9641 4285165964
-7.3321099 790.23828 1308.9641 4286613410
-2.4440367 790.23828 1308.9641 4290690518
-12.220183 792.10675 1310.5396 4284772013
-7.3321099 792.10675 1310.5396 4290293975
-4.8880734 792.10675 1310.5396 4289902561
-2.4440367 792.10675 1310.5396 4289047252
-13.797554 799.70459 1310.4056 4283720865
-9.7394495 800.32507 1310.9288 4283261090
-7.3045874 798.46362 1309.3594 4283917989
-43.629356 807.16663 1308.8494 4285365417
-41.205505 807.16663 1308.8494 4286155190
-37.165752 807.78436 1309.3701 4284969394
-33.933945 808.09314 1309.6306 4283985061
-31.510092 808.09314 1309.6306 4283064216
-29.086239 807.16663 1308.8494 4283195295
-25.450459 807.16663 1308.8494 4283326880
-21.814678 807.16663 1308.8494 4283327135
-19.390825 809.01965 1310.4117 4283392158
-12.119267 808.09314 1309.6306 4283655843
-9.6954126 808.09314 1309.6306 4283852450
-7.2715597 809.01965 1310.4117 4283785888
-4.8477063 809.01965 1310.4117 4283062944
-2.4238532 807.16663 1308.8494 4283063707
-7.4477062 760.16699 1311.0774 4291483903
-4.9651375 760.16699 1311.0774 4291220479
-2.4825687 760.16699 1311.0774 4291746815
1.2412844 760.16699 1311.0774 4291680767
-4.9651375 762.06494 1312.6776 4289640191
-2.4825687 762.06494 1312.6776 4291285247
-4.943119 770.97833 1312.3451 4283326881
-7.4146791 772.86786 1313.9382 4283986837
-4.943119 772.86786 1313.9382 4284775093
-2.4715595 772.86786 1313.9382 4284775093
-9.8495417 778.36768 1312.0354 4283720592
-7.387156 777.42639 1311.2418 4284313499
-2.4532111 785.7218 1311.6962 4289707998
-4.9064221 787.59735 1313.2775 4288979643
1.2266055 787.59735 1313.2775 4289704931
-12.220183 793.97522 1312.115 4284443563
-7.3321099 793.97522 1312.115 4289638873
-4.8880734 793.97522 1312.115 4289506019
-12.220183 795.84375 1313.6904 4283654301
-9.7761469 795.84375 1313.6904 4283194010
-4.8880734 795.84375 1313.6904 4285823419
-2.4440367 795.84375 1313.6904 4290560511
-48.697247 802.18652 1312.4984 4281158288
-46.262386 802.18652 1312.4984 4283790265
-43.827522 802.18652 1312.4984 4284579776
-12.174312 802.18652 1312.4984 4283787684
-9.7394495 802.18652 1312.4984 4283525795
-7.3045874 802.18652 1312.4984 4282999195
-4.8697248 802.18652 1312.4984 4282145183
-2.4348624 802.18652 1312.4984 4284579780
-7.2715597 811.79932 1312.7554 4283589538
-4.8477063 812.72583 1313.5366 4283720358
-2.4238532 812.72583 1313.5366 4284312495
1.2458715 759.36084 1316.9377 4291286015
-4.9651375 763.96289 1314.278 4288325616
-2.4825687 763.96289 1314.278 4291220479
-4.943119 774.75739 1315.5315 4284512188
-9.8495417 781.19141 1314.4164 4284049841
1.2311927 783.07397 1316.0037 4289706476
4.9247708 783.07397 1316.0037 4286751174
-9.8128443 791.34833 1316.4402 4285888672
0 789.47284 1314.8589 4287864788
-4.8880734 797.71222 1315.2659 4283787696
-2.4440367 797.71222 1315.2659 4290366975
-46.262386 804.04803 1314.068 4283524249
-43.827522 805.90955 1315.6376 4281747338
-41.392662 805.90955 1315.6376 4283457699
-38.957798 805.90955 1315.6376 4285755312
-29.218349 805.90955 1315.6376 4283063709
-25.566055 805.90955 1315.6376 4283392416
-21.913761 805.90955 1315.6376 4283457951
-4.8697248 804.04803 1314.068 4282932378
-2.4348624 805.90955 1315.6376 4283391908
-14.543119 814.57886 1315.0991 4283524006
-9.6954126 814.57886 1315.0991 4283655585
-7.2715597 814.57886 1315.0991 4283852707
-4.8477063 814.57886 1315.0991 4283655846
-2.4238532 814.57886 1315.0991 4284247983
-9.6954126 816.43188 1316.6616 4283721380
-7.2715597 816.43188 1316.6616 4283852709
-4.8477063 816.43188 1316.6616 4283787684
-2.4238532 816.43188 1316.6616 4284182442
1.2458715 761.26581 1318.5439 4291811327
-2.4825687 767.75873 1317.4785 4284511155
-7.4146791 776.64697 1317.1246 4284509595
-4.943119 776.64697 1317.1246 4283197342
-2.4715595 776.64697 1317.1246 4284776630
-7.4146791 778.5365 1318.7179 4284773307
-4.943119 778.5365 1318.7179 4285169294
-2.4715595 778.5365 1318.7179 4286090396
0 795.0993 1319.603 4292401663
0 802.38342 1319.2046 4281818805
-46.262386 807.771 1317.207 4282075515
-43.827522 807.771 1317.207 4281878141
-41.392662 808.70172 1317.9918 4282601604
-37.740364 808.70166 1317.9918 4284179605
-34.088074 808.70172 1317.9918 4285362354
-31.653212 808.70172 1317.9918 4285428147
-29.218349 807.771 1317.207 4283260575
-19.478899 807.771 1317.207 4283392158
-17.044037 808.70172 1317.9918 4283457952
-13.391743 808.70172 1317.9918 4283524003
-9.7394495 808.70172 1317.9918 4283721380
-4.8697248 807.771 1317.207 4283392425
-2.4348624 807.771 1317.207 4283787182
-7.2715597 818.28497 1318.224 4283655585
-4.8477063 818.28497 1318.224 4283720356
-2.4238532 818.28497 1318.224 4284312493
1.2458715 763.17078 1320.1503 4289966844
1.2458715 765.07574 1321.7565 4287275499
-2.4825687 771.55463 1320.6792 4285630670
-7.4146791 780.42603 1320.311 4284906931
-4.943119 780.42603 1320.311 4286615470
4.943119 782.31555 1321.9043 4286945748
7.4146791 782.31555 1321.9043 4284379822
0 790.604 1322.3528 4291417343
1.2266055 796.97485 1321.1843 4289641207
2.4532111 798.85034 1322.7657 4289580799
4.9064221 798.85034 1322.7657 4292207103
-25.662384 805.18616 1321.5677 4283194525
-21.99633 805.18616 1321.5677 4283457953
1.2220184 805.18616 1321.5677 4283658674
-41.392662 811.4939 1320.3462 4282469500
-37.740364 811.4939 1320.3462 4281944449
-34.088074 811.4939 1320.3462 4282996356
-31.653212 811.4939 1320.3462 4286483641
-19.478899 811.4939 1320.3462 4283260575
-17.044037 811.4939 1320.3462 4283457953
-12.174312 811.4939 1320.3462 4283524006
-37.740364 813.35541 1321.9156 4281814144
-34.088074 813.35541 1321.9156 4281487232
-31.653212 813.35541 1321.9156 4282342285
-29.218349 813.35541 1321.9156 4284310197
-19.478899 813.35541 1321.9156 4283062680
-13.391743 813.35541 1321.9156 4283589538
1.2458715 766.98071 1323.3627 4283397049
0 775.35052 1323.8798 4286286017
0 786.0946 1325.0907 4288784568
2.4623854 792.48651 1323.9401 4293717759
4.9247708 793.42773 1324.7336 4292930559
7.387156 794.36902 1325.5273 4292405503
2.4532111 800.72583 1324.3472 4285701859
4.9064221 800.72583 1324.3472 4287738111
7.359633 800.72583 1324.3472 4291356415
9.8128443 800.72583 1324.3472 4292799743
4.9064221 802.60132 1325.9285 4285170923
7.359633 802.60132 1325.9285 4291421439
9.8128443 802.60132 1325.9285 4293390335
13.492661 802.60132 1325.9285 4292930303
-46.436699 807.98889 1323.9309 4282535804
-43.992661 807.98889 1323.9309 4282535294
-29.32844 807.98889 1323.9309 4286350285
-25.662386 807.98889 1323.9309 4283390879
-21.99633 808.9231 1324.7186 4283260309
-19.552294 807.05463 1323.1432 4283457953
1.2220184 807.98889 1323.9309 4283327909
4.8880734 807.98889 1323.9309 4284115113
7.3321099 807.98889 1323.9309 4290102519
-34.088074 815.21686 1323.4852 4282142344
-31.653212 815.21686 1323.4852 4282208137
-29.218349 815.21686 1323.4852 4282866042
-13.391743 815.21686 1323.4852 4283393178
-9.7394495 815.21686 1323.4852 4283655585
-37.740364 817.07837 1325.0548 4282666623
-9.7394495 817.07837 1325.0548 4283589538
-7.3045874 817.07837 1325.0548 4283589538
-4.8697248 817.07837 1325.0548 4283589538
-2.4348624 817.07837 1325.0548 4283984296
1.2458715 770.79059 1326.5751 4283923120
2.4917431 772.69556 1328.1813 4285430708
4.9834862 772.69556 1328.1813 4283201709
2.4715595 787.98413 1326.6838 4292798975
4.943119 787.98413 1326.6838 4292864255
7.4146791 789.87366 1328.2771 4293126655
9.8862381 789.87366 1328.2771 4292798207
7.387156 796.25153 1327.1146 4292733439
9.8495417 796.25153 1327.1146 4292338687
13.543119 798.13403 1328.7019 4292667647
-22.078899 804.47681 1327.5099 4283391904
9.8128443 804.47681 1327.5099 4291681279
13.492661 804.47681 1327.5099 4288195570
-43.992661 810.79163 1326.2942 4282666621
-39.104588 812.6601 1327.8696 4282404737
-36.660549 812.6601 1327.8696 4282404737
-25.255045 811.41449 1326.8193 4286284495
-21.99633 811.72583 1327.0819 4284048043
-19.552294 812.6601 1327.8696 4283392408
-17.108257 811.72583 1327.0819 4283457691
1.2220184 811.72583 1327.0819 4283985064
4.8880734 811.72583 1327.0819 4283525284
7.3321099 811.72583 1327.0819 4284775095
9.7761469 812.6601 1327.8696 4284512983
14.66422 812.6601 1327.8696 4280045194
-12.174312 818.93982 1326.6244 4283261088
-9.7394495 818.93982 1326.6244 4283326883
-7.3045874 818.93982 1326.6244 4283326883
-4.8697248 818.93982 1326.6244 4283392158
-2.4348624 818.93982 1326.6244 4283721380
-31.653212 820.80127 1328.1938 4282930562
-29.218349 820.80127 1328.1938 4282930309
-7.3045874 820.80127 1328.1938 4283196327
1.2504587 766.21667 1329.2587 4283463598
5.0018349 766.21667 1329.2587 4282412750
2.4825687 782.94232 1330.2809 4289113276
4.9651375 782.94232 1330.2809 4289705722
7.4477062 782.94232 1330.2809 4291153151
7.4477062 784.84027 1331.8812 4292601087
9.930275 784.84027 1331.8812 4292468991
12.412844 784.84027 1331.8812 4292666111
9.8862381 791.76318 1329.8702 4292272895
12.357799 791.76318 1329.8702 4292075519
12.357799 793.65271 1331.4635 4292075263
17.236698 800.01654 1330.2892 4292009471
17.236698 801.89905 1331.8765 4282538928
9.8128443 806.35229 1329.0912 4288457471
13.492661 806.35229 1329.0912 4283723989
9.8128443 808.22784 1330.6726 4282802911
13.492661 808.22784 1330.6726 4280830123
17.172478 808.22784 1330.6726 4282015401
-34.216515 814.52856 1329.4451 4282666369
-31.772476 814.52856 1329.4451 4282929797
-29.32844 814.52856 1329.4451 4281946234
-24.440367 814.52856 1329.4451 4284311991
-19.552294 814.52856 1329.4451 4285629636
-17.108257 814.52856 1329.4451 4283853482
-13.442202 814.52856 1329.4451 4283064726
1.2220184 814.52856 1329.4451 4283919788
4.8880734 814.52856 1329.4451 4284180646
7.3321099 814.52856 1329.4451 4290562559
-36.660549 816.39709 1331.0205 4282666623
-34.216515 816.39709 1331.0205 4282339457
-31.772476 816.39709 1331.0205 4282734215
-29.32844 816.39709 1331.0205 4282340229
-25.662384 816.39709 1331.0205 4282537345
-19.552294 816.39709 1331.0205 4286482131
-17.108257 816.39709 1331.0205 4285166270
-14.66422 816.39709 1331.0205 4283326881
1.2220184 816.39709 1331.0205 4283722155
4.8880734 816.39709 1331.0205 4283853732
-31.653212 822.66278 1329.7634 4282930562
-29.218349 822.66278 1329.7634 4282930309
2.4917431 778.41046 1332.9999 4287798995
4.9834862 778.41046 1332.9999 4287864538
7.4752293 778.41046 1332.9999 4288061917
9.9669724 780.31543 1334.6061 4291350527
12.458715 780.31543 1334.6061 4292732159
13.654128 786.73822 1333.4816 4292337663
17.300917 795.54224 1333.0566 4293127679
17.236698 803.78162 1333.4637 4280043437
-26.985321 811.04108 1333.0447 4284577178
-22.078899 811.97882 1333.8353 4285627851
9.8128443 811.97882 1333.8353 4291091455
13.083793 811.3537 1333.3082 4285567701
17.172478 811.04108 1333.0447 4280703380
-36.660549 818.26556 1332.5959 4282667904
-34.216515 818.26556 1332.5959 4282864769
-25.662384 818.26556 1332.5959 4282602372
-21.99633 818.26556 1332.5959 4282997900
-19.552294 818.26556 1332.5959 4284113587
-13.442202 818.26556 1332.5959 4285299628
-9.7761469 818.26556 1332.5959 4283196327
-4.8880734 818.26556 1332.5959 4283391904
-2.4440367 818.26556 1332.5959 4283852455
2.4440367 818.26556 1332.5959 4283459750
-25.662384 820.13403 1334.1714 4283061899
-21.99633 820.13403 1334.1714 4282666889
-19.552294 820.13403 1334.1714 4282799756
-13.442202 820.13403 1334.1714 4285430958
-9.7761469 820.13403 1334.1714 4284182455
-7.3321099 820.13403 1334.1714 4283853491
-4.8880734 820.13403 1334.1714 4283853480
-2.4440367 820.13403 1334.1714 4284248237
14.950459 782.22034 1336.2123 4292009471
17.442202 782.22034 1336.2123 4292470015
17.442202 784.12531 1337.8186 4292535295
19.933945 784.12531 1337.8186 4292470271
24.917431 784.12531 1337.8186 4292272895
27.409174 784.12531 1337.8186 4292601855
14.895412 788.63611 1335.0818 4292008959
17.377981 788.63611 1335.0818 4292403455
19.86055 788.63611 1335.0818 4292536063
14.895412 790.53406 1336.6821 4292206591
17.377981 790.53406 1336.6821 4292601087
19.699083 807.54663 1336.6384 4283128989
-22.078899 813.85437 1335.4167 4285826988
-17.172478 815.72986 1336.998 4285363398
0 815.72986 1336.998 4283328421
4.9064221 815.72986 1336.998 4283200424
7.359633 814.79211 1336.2074 4290237695
9.8128443 814.79211 1336.2074 4292468479
13.492661 814.79211 1336.2074 4291285503
17.172478 814.79211 1336.2074 4287865568
-29.32844 822.00256 1335.7468 4283062151
-26.884403 822.00256 1335.7468 4283127944
-13.442202 822.00256 1335.7468 4283589803
-9.7761469 822.93677 1336.5345 4284116645
-7.3321099 822.93677 1336.5345 4283853729
-4.8880734 822.93677 1336.5345 4283722660
-2.4440367 822.00256 1335.7468 4283920297
20.007339 779.60046 1340.5436 4292470271
22.425688 786.03027 1339.4248 4292667647
24.917431 786.03027 1339.4248 4292667135
19.86055 793.38098 1339.0825 4291418109
19.772476 803.10034 1339.4294 4283391895
19.699083 809.42914 1338.2256 4281747345
19.699083 811.31165 1339.813 4281360548
-17.172478 817.60535 1338.5795 4284641960
1.2266055 817.60535 1338.5795 4283657379
4.9064221 817.60535 1338.5795 4284578735
13.492661 817.60535 1338.5795 4292271615
17.172478 817.60535 1338.5795 4292534783
-24.53211 819.48083 1340.1609 4282931596
-22.078899 819.48083 1340.1609 4282733961
-19.625689 819.48083 1340.1609 4282799756
-17.172478 819.48083 1340.1609 4283260307
1.2266055 819.48083 1340.1609 4283853475
4.9064221 819.48083 1340.1609 4286417092
7.359633 819.48083 1340.1609 4291746047
13.492661 819.48083 1340.1609 4291810815
17.172478 819.48083 1340.1609 4291745279
19.625689 819.48083 1340.1609 4291942655
26.985321 819.48083 1340.1609 4291153663
29.438532 819.48083 1340.1609 4286821358
19.933945 787.93524 1341.031 4293061119
22.425688 787.93524 1341.031 4293258495
24.917431 787.93524 1341.031 4292863999
22.425688 789.84021 1342.6372 4290035955
24.917431 789.84021 1342.6372 4287078644
19.86055 798.12585 1343.0833 4280240009
7.387156 815.07666 1342.9875 4290697471
9.8495417 815.07666 1342.9875 4292600063
19.699083 814.13538 1342.1938 4290892543
22.161469 815.07666 1342.9875 4289377257
24.623854 814.13538 1342.1938 4283332563
28.31743 814.13538 1342.1938 4281949603
-2.4532111 821.35632 1341.7422 4284116647
2.4532111 821.35632 1341.7422 4284644527
4.9064221 821.35632 1341.7422 4286614761
19.625689 821.35632 1341.7422 4291812095
-4.9064221 823.23181 1343.3236 4283655585
22.425688 791.74518 1344.2434 4287076038
19.933945 793.65015 1345.8496 4282272428
22.425688 793.65015 1345.8496 4282009000
24.917431 793.65015 1345.8496 4280237708
22.343119 801.92175 1346.2839 4283063196
24.715597 808.76892 1344.2091 4281686919
28.422935 808.76892 1344.2091 4282605714
-27.086239 818.84167 1346.1621 4283127944
-24.623854 818.84167 1346.1621 4283061899
-22.161469 818.84167 1346.1621 4283061899
-19.699083 818.84167 1346.1621 4282865301
0 818.84167 1346.1621 4283328667
7.387156 818.84167 1346.1621 4291681023
9.8495417 817.90045 1345.3684 4292271103
13.543119 818.84167 1346.1621 4291810559
17.236698 818.84167 1346.1621 4292008447
22.161469 817.90045 1345.3684 4292206591
24.623854 817.90045 1345.3684 4292337919
27.086239 818.84167 1346.1621 4291942911
22.425688 796.50757 1348.2589 4281947538
24.917431 796.50757 1348.2589 4282273421
22.343119 803.8197 1347.8842 4282800289
24.825687 803.8197 1347.8842 4282997389
27.308256 803.8197 1347.8842 4283655063
22.343119 805.71765 1349.4845 4280834204
-27.086239 820.72424 1347.7494 4283258760
-24.623854 820.72424 1347.7494 4283258508
-2.4623854 820.72424 1347.7494 4283852707
1.2311927 820.72424 1347.7494 4284315309
4.9247708 820.72424 1347.7494 4288588007
13.543119 820.72424 1347.7494 4291548671
17.236698 820.72424 1347.7494 4291614975
19.699083 820.72424 1347.7494 4291483391
-24.623854 822.60675 1349.3367 4283324557
24.917431 799.36499 1350.6682 4283193487
22.343119 807.6156 1351.0848 4286683353
-22.244038 818.21655 1352.175 4283258508
-19.772476 818.21655 1352.175 4283390610
-17.300917 816.32703 1350.5819 4283062680
7.4146791 818.21655 1352.175 4291943423
9.8862381 818.21655 1352.175 4292074239
22.244038 818.21655 1352.175 4291812351
24.715597 818.21655 1352.175 4292271359
27.187157 818.21655 1352.175 4292271359
-22.244038 820.10608 1353.7683 4283390350
-19.772476 820.10608 1353.7683 4283456403
-2.4715595 820.10608 1353.7683 4283457699
13.593578 820.10608 1353.7683 4291548415
17.300917 820.10608 1353.7683 4292008959
19.772476 820.10608 1353.7683 4291680255
22.244038 820.10608 1353.7683 4291746047
24.715597 820.10608 1353.7683 4292205567
27.187157 820.10608 1353.7683 4292468735
1.2412844 817.10535 1359.0863 4284905911
4.9651375 817.10535 1359.0863 4288654065
7.4477062 817.10535 1359.0863 4291614719
9.930275 817.10535 1359.0863 4291877631
4.9651375 819.0033 1360.6866 4289444860
7.4477062 819.0033 1360.6866 4291418879
13.654128 819.0033 1360.6866 4291548415
17.377981 819.0033 1360.6866 4291548415
19.86055 819.0033 1360.6866 4291613695
22.343119 819.0033 1360.6866 4291745535
24.825687 819.0033 1360.6866 4291613695
17.930275 756.43451 1364.1755 4292601599
20.491743 758.39276 1365.8267 4292337919
20.491743 760.35107 1367.4779 4292535551
4.9834862 818.41455 1366.7303 4290824703
7.4752293 818.41455 1366.7303 4291877631
9.9669724 817.4621 1365.9272 4291680511
13.704587 818.41455 1366.7303 4291285759
17.442202 818.41455 1366.7303 4291351551
19.933945 818.41455 1366.7303 4291614207
22.425688 818.41455 1366.7303 4292008959
24.917431 818.41455 1366.7303 4291745535
4.9834862 820.31952 1368.3365 4291088127
7.4752293 820.31952 1368.3365 4291614463
13.704587 820.31952 1368.3365 4291285759
17.442202 820.31952 1368.3365 4291417343
24.917431 820.31952 1368.3365 4291417599
2.4917431 822.22449 1369.9427 4289972223
4.9834862 822.22449 1369.9427 4292270591
7.4752293 822.22449 1369.9427 4292073215
13.704587 822.22449 1369.9427 4291351039
15.434862 757.19873 1372.6681 4292601599
18.007339 757.19873 1372.6681 4292535551
10.00367 817.8399 1372.7861 4291351551
20.007339 817.8399 1372.7861 4291549183
22.508257 817.8399 1372.7861 4291812351
4.9834862 824.12946 1371.549 4292533247
7.4752293 824.12946 1371.549 4292269823
13.704587 824.12946 1371.549 4291613951
17.442202 824.12946 1371.549 4291483391
7.4752293 826.03442 1373.1553 4292007423
13.704587 826.03442 1373.1553 4291811327
10.00367 820.70789 1375.2043 4291613695
17.506422 819.75189 1374.3982 4291483135
20.007339 820.70789 1375.2043 4291417343
22.508257 820.70789 1375.2043 4291680767
10.00367 823.57581 1377.6224 4291810815
