# .PCD v0.7 - Point Cloud Data file format
VERSION 0.7
FIELDS x y z rgb
SIZE 4 4 4 4
TYPE F F F U
COUNT 1 1 1 1
WIDTH 1163
HEIGHT 1
VIEWPOINT 0 0 0 1 0 0 0
POINTS 1163
DATA ascii
1.787156 766.18604 820.40918 4279832602
4.765749 766.64142 820.79315 4280293413
8.042202 766.86914 820.98517 4280164392
23.233028 766.18604 820.40918 4280952632
25.913761 766.18604 820.40918 4280691513
28.594496 766.18604 820.40918 4281018927
-81.955963 769.78912 819.52319 4280157710
-79.283485 769.78912 819.52319 4280686369
-76.611008 769.78912 819.52319 4280754478
-73.938538 769.78912 819.52319 4281216056
-65.030273 769.78912 819.52319 4280954429
-61.466972 769.78912 819.52319 4280888636
-57.903671 769.78912 819.52319 4280691262
-55.231194 769.78912 819.52319 4280691011
-52.558716 769.78912 819.52319 4280493126
-48.995415 769.78912 819.52319 4280098618
-46.322937 769.78912 819.52319 4280033579
-42.759632 769.78912 819.52319 4280033579
-40.087158 769.78912 819.52319 4280033061
-37.41468 769.78912 819.52319 4280426790
-34.742203 769.78912 819.52319 4280163874
-31.178898 769.78912 819.52319 4280229411
-28.506422 769.78912 819.52319 4280557093
-26.724771 769.78912 819.52319 4280557093
-16.034863 769.78912 819.52319 4280227882
-13.362385 769.78912 819.52319 4279834655
-10.689908 769.78912 819.52319 4279245078
1.7816514 769.78912 819.52319 4281017382
3.5633028 769.78912 819.52319 4281281072
25.833946 769.78912 819.52319 4280230958
28.506422 769.78912 819.52319 4279832852
-83.737617 771.83228 821.24585 4279177766
-78.392662 771.15125 820.67163 4279965739
-76.611008 771.83228 821.24585 4280295984
-73.938538 771.15125 820.67163 4280690218
-70.375229 772.51331 821.82007 4279376166
-67.702751 772.51331 821.82007 4280099120
-65.030273 772.51331 821.82007 4279770155
-61.466972 771.83228 821.24585 4280033330
-57.903671 771.83228 821.24585 4279770160
-55.231194 771.83228 821.24585 4279901496
-52.558716 771.83228 821.24585 4280097848
-48.995415 771.83228 821.24585 4279441699
-46.322937 771.83228 821.24585 4279703068
-43.650455 771.83228 821.24585 4279964445
-40.087158 771.83228 821.24585 4280424222
-37.41468 771.83228 821.24585 4280687902
-34.742203 771.83228 821.24585 4280952103
-31.178898 771.83228 821.24585 4281019438
-28.506422 771.83228 821.24585 4281478196
-25.833944 771.83228 821.24585 4281477682
-22.270641 772.51331 821.82007 4282661950
-19.598166 772.51331 821.82007 4282399547
-16.925688 771.83228 821.24585 4281478198
-13.659328 771.60529 821.05444 4281412137
1.7816514 771.83228 821.24585 4282134573
4.4541283 771.83228 821.24585 4282331696
8.0174313 771.83228 821.24585 4282857012
10.689908 771.83228 821.24585 4282660923
-81.702751 775.42065 820.34735 4280886825
-79.038528 775.42065 820.34741 4280427047
-76.374313 776.09961 820.9198 4280887341
-73.710098 775.42065 820.34741 4280164395
-60.388992 776.09961 820.9198 4279508257
-58.612843 776.09961 820.9198 4279376670
-55.060551 776.09961 820.9198 4279111725
-52.396332 776.09961 820.9198 4279308854
-30.194496 776.09961 820.9198 4283580715
-16.873394 776.09961 820.9198 4284238148
-13.025075 775.64697 820.53815 4284041032
-10.65688 775.42065 820.34735 4283908413
-7.9926605 775.42065 820.34741 4284040256
-4.4403667 775.42065 820.34741 4283908927
-1.7761468 775.42065 820.34735 4283777853
0 775.42065 820.34735 4283515712
8.8807335 776.09961 820.9198 4284171849
72.822021 775.42065 820.34735 4294967295
-7.9761467 778.93744 820.69666 4287725170
23.042202 777.5824 819.55408 4282656811
24.814678 777.5824 819.55408 4281542693
53.174313 778.25989 820.12537 4288185460
55.833027 778.25989 820.12537 4289040774
58.491745 777.5824 819.55408 4292132783
60.264221 777.5824 819.55408 4290687391
65.58165 777.5824 819.55408 4283321421
67.354126 777.5824 819.55408 4282076478
74.444038 778.25989 820.12537 4294967295
77.102753 778.25989 820.12537 4294967295
79.761467 777.5824 819.55408 4294967295
82.420181 777.5824 819.55408 4294967295
-13.293577 780.29254 821.83923 4286674781
-10.634862 780.29254 821.83923 4286871912
-7.9761467 780.29254 821.83923 4287003755
-5.317431 780.29254 821.83923 4287464049
-1.772477 780.29254 821.83923 4287859322
0 780.29254 821.83923 4287727489
7.9623852 781.40039 820.81134 4288779403
10.601835 782.5083 819.78345 4288647569
22.087156 782.5083 819.78345 4288778630
25.621101 782.5083 819.78345 4286741369
28.271559 782.5083 819.78345 4283255887
30.922018 782.5083 819.78345 4283058258
49.475231 782.5083 819.78345 4286669907
52.125687 782.5083 819.78345 4288775798
55.65963 782.5083 819.78345 4288776323
58.310093 782.5083 819.78345 4291803069
65.377983 782.5083 819.78345 4282201931
68.028442 782.5083 819.78345 4285951117
70.678902 782.5083 819.78345 4293123044
73.5578 780.29254 821.83923 4294967295
77.102753 780.29254 821.83923 4294967295
79.761467 780.29254 821.83923 4294967295
81.533943 780.29254 821.83923 4294967295
-12.368808 783.85919 820.92236 4281544740
-10.601835 783.85919 820.92236 4281414437
-7.951376 783.85919 820.92236 4281545509
-4.4174314 783.85919 820.92236 4281084445
-1.7669724 783.85919 820.92236 4281216031
0 783.85919 820.92236 4281281574
4.4174314 783.85919 820.92236 4281807661
7.0678897 783.85919 820.92236 4282202676
22.970642 783.85919 820.92236 4283385662
26.504587 783.85919 820.92236 4283319633
49.475231 783.85919 820.92236 4289232240
-7.9266057 788.7641 821.13403 4281215275
-4.4036698 788.7641 821.13403 4281149482
-1.7614679 788.09076 820.56628 4280293912
0 788.09076 820.56628 4280621080
5.2844038 788.7641 821.13403 4281669153
8.2201834 788.31519 820.75555 4279504405
10.568808 788.09076 820.56628 4279242254
13.21101 788.09076 820.56628 4279176463
16.733946 788.09076 820.56628 4279110419
19.376146 788.09076 820.56628 4279504409
22.018349 788.09076 820.56628 4279045898
25.541285 788.09076 820.56628 4279505951
29.06422 788.09076 820.56628 4282531132
49.321102 788.7641 821.13403 4288246376
52.256882 787.86627 820.37701 4291143062
55.192657 788.31519 820.75555 4290420363
59.009174 787.41742 819.99854 4290948504
61.651375 787.41742 819.99854 4283909948
67.816513 787.41742 819.99854 4286608002
76.623856 788.7641 821.13403 4294967295
31.60734 790.96729 819.06763 4283781974
34.241287 790.96729 819.06763 4283978592
37.753212 790.96729 819.06763 4284570469
43.899082 790.96729 819.06763 4288645270
46.533028 790.96729 819.06763 4288448116
50.922935 790.96729 819.06763 4290746254
58.824768 790.96729 819.06763 4290685347
61.458717 790.96729 819.06763 4283384136
64.970642 790.96729 819.06763 4281545021
66.726608 790.96729 819.06763 4281281324
71.994499 790.96729 819.06763 4294967295
73.750458 790.96729 819.06763 4294967295
-4.0972476 793.20465 820.9541 4281085240
-1.7559633 792.30969 820.19946 4281478195
0 792.98096 820.76544 4281608757
10.53578 793.65216 821.33142 4280954931
14.047707 793.65216 821.33142 4281347642
16.681652 793.65216 821.33142 4281281851
19.315596 793.65216 821.33142 4281281597
21.949541 793.65216 821.33142 4281282099
25.461468 793.65216 821.33142 4281086773
28.973394 793.65216 821.33142 4281218109
31.60734 792.98096 820.76544 4282531654
33.363304 792.30969 820.19946 4283452750
36.875229 792.30969 820.19946 4285097078
49.166973 792.30969 820.19946 4289761676
55.312843 792.30969 820.19946 4290881946
76.677063 792.75714 820.57684 4294967295
79.018349 793.65216 821.33142 4294967295
-1.7522936 795.78516 820.51385 4280953912
0 796.45496 821.07861 4281280570
31.541285 796.45496 821.07861 4281742148
34.169724 795.78516 820.51392 4281873476
37.674309 795.78516 820.51392 4281217341
40.302753 795.78516 820.51385 4282206288
42.055046 795.11536 819.9491 4284506487
45.559631 795.11536 819.9491 4290028196
49.06422 795.11536 819.9491 4291607727
55.19725 795.11536 819.9491 4290423965
71.84404 795.78516 820.51385 4294967295
73.596329 795.78516 820.51385 4294967295
75.932716 796.00848 820.70215 4294967295
34.062386 799.98096 820.12756 4281873473
37.555962 799.98096 820.12756 4282069308
41.340672 799.53583 819.7522 4282728013
43.669724 799.31323 819.56451 4284308332
46.289909 799.31323 819.56445 4285297004
49.783485 799.31323 819.56451 4287531136
52.403671 799.31323 819.56451 4289237127
55.023849 799.31323 819.56451 4289632145
58.517429 799.31323 819.56445 4288187776
62.011009 799.31323 819.56445 4281343510
64.631195 799.31323 819.56451 4286010186
67.251373 799.31323 819.56445 4292725964
69.871559 799.31323 819.56451 4294967295
29.695414 801.31641 821.25354 4281545021
31.442202 801.31641 821.25354 4281479228
34.062386 801.31641 821.25354 4281479230
37.555962 801.31641 821.25354 4281807426
41.049541 801.31641 821.25354 4281675840
43.669724 801.31641 821.25354 4281413183
46.289909 801.31641 821.25354 4280429383
49.783485 801.31641 821.25354 4282334560
52.293579 802.77118 819.86414 4285293930
54.908257 802.77118 819.86414 4287004043
58.517433 801.31641 821.25354 4286936440
62.011009 801.31641 821.25354 4286011191
64.495415 802.77118 819.86414 4294962364
67.251373 801.31641 821.25354 4294966783
70.744949 801.31641 821.25354 4294967295
73.365135 801.31641 821.25354 4294967295
40.963303 804.10382 820.98779 4282137416
43.57798 804.10382 820.98779 4282270286
46.192661 804.10382 820.98779 4282204747
49.678898 804.10382 820.98779 4282270793
52.293579 804.10382 820.98779 4281944143
54.908257 804.10382 820.98779 4282732381
58.394493 804.10382 820.98779 4287000705
61.009174 804.10382 820.98779 4294960113
64.495415 804.10382 820.98779 4294967295
67.981651 804.10382 820.98779 4294967295
69.72477 804.10382 820.98779 4294967295
41.702751 808.93854 821.14026 4282071367
43.440369 808.93854 821.14026 4282268490
45.177982 808.93854 821.14026 4282139211
67.766975 808.93854 821.14026 4294967295
-48.798164 751.06018 822.0437 4278190111
-45.183487 752.44189 823.20874 4278190080
-43.376148 752.44189 823.20874 4283302982
-39.761467 752.44189 823.20874 4294960383
-37.954128 752.44189 823.20874 4294564607
-34.339451 752.44189 823.20874 4287923889
-31.628441 751.75104 822.62622 4278584089
-28.013762 751.06018 822.0437 4282921274
-90.091743 756.07733 822.34998 4278190137
-45.045872 756.07733 822.34998 4278190080
-43.244038 756.07733 822.34998 4278452238
-40.541283 756.07733 822.34998 4286281884
-36.937614 756.07733 822.34998 4286087357
-34.234863 756.07733 822.34998 4283783591
-94.307343 763.82422 824.95789 4280030243
-91.332108 766.74561 823.49701 4278978325
-88.645874 766.74561 823.49707 4278255618
22.385321 766.06104 822.9198 4281609531
-85.783485 769.60175 823.28918 4279440170
-70.592659 768.91858 822.71313 4280494129
-67.018349 768.91858 822.71313 4279901495
-64.337616 768.91858 822.71313 4280032575
-22.339451 768.91858 822.71313 4280359714
-19.658716 768.91858 822.71313 4280557093
22.637308 769.37402 823.09717 4281214508
-85.519264 773.87537 822.96851 4280757808
-83.737617 773.87537 822.96851 4280757808
-70.375229 773.87537 822.96851 4280492333
-67.702751 773.87537 822.96851 4280165165
-65.030273 773.87537 822.96851 4280033325
-62.3578 773.87537 822.96851 4280033327
-57.012844 773.87537 822.96851 4279506483
-48.995415 773.87537 822.96851 4278915363
-46.322937 773.87537 822.96851 4279045389
-43.650459 773.87537 822.96851 4279241747
-40.087158 773.87537 822.96851 4283057972
-37.41468 773.87537 822.96851 4280099072
-34.742203 773.87537 822.96851 4282661680
-32.069725 773.87537 822.96851 4283580715
-28.506422 773.87537 822.96851 4284107575
-25.833946 773.87537 822.96851 4284304192
-22.270641 773.87537 822.96851 4284238407
-19.598166 773.87537 822.96851 4284238920
1.7816514 773.87537 822.96851 4283449661
4.4541283 773.87537 822.96851 4283909692
7.1266055 773.87537 822.96851 4284237642
10.689908 773.87537 822.96851 4283777856
-85.519264 775.23749 824.11707 4281282099
-83.737617 775.23749 824.11707 4281347892
-70.375229 775.23749 824.11707 4281282099
-67.702751 775.23749 824.11707 4281609781
-65.030273 775.23749 824.11707 4281281329
-62.3578 775.23749 824.11707 4281347892
-35.633026 775.23749 824.11707 4283777856
-32.069725 775.23749 824.11707 4285815115
-28.506422 775.23749 824.11707 4285750606
-23.161469 775.23749 824.11707 4286474326
1.7816514 775.23749 824.11707 4288186244
3.5633028 775.23749 824.11707 4288449411
-81.702751 778.13647 822.63721 4281283126
-79.038528 778.13647 822.63721 4281216307
-76.374313 778.13647 822.63721 4281412919
-73.710098 778.13647 822.63721 4281478714
-60.388992 778.13647 822.63721 4281349173
-58.612843 778.13647 822.63721 4281283123
-55.948624 778.13647 822.63721 4281020724
-52.396332 778.13647 822.63721 4280757055
-49.732109 778.13647 822.63721 4280756529
-47.067886 778.13647 822.63721 4280690475
-43.515594 778.13647 822.63721 4280754727
-39.963303 778.13647 822.63721 4282860355
-37.299084 778.13647 822.63721 4281479979
-34.338837 778.36279 822.82806 4283910980
-30.786545 778.36279 822.82806 4284763451
-28.418348 778.81537 823.20972 4284766005
-25.754129 778.13647 822.63721 4285489223
-21.905809 778.36279 822.82806 4286015569
-19.537615 778.13647 822.63721 4286409047
-16.873394 778.13647 822.63721 4286671963
-13.3211 777.45752 822.0647 4287659377
-10.65688 777.45752 822.0647 4287528048
-4.1443424 777.91016 822.44635 4287726455
-1.7761468 777.45752 822.0647 4287923067
0.88807338 778.13647 822.63721 4288121220
4.7363915 778.36279 822.82806 4288319112
7.1045871 777.45752 822.0647 4288647047
72.822021 777.45752 822.0647 4294967295
79.926605 777.45752 822.0647 4294967295
82.886848 777.91016 822.44635 4294967295
85.255043 778.81537 823.20972 4294967295
-81.702751 780.17322 824.35461 4281609535
-79.038528 780.17322 824.35461 4281609533
-76.374313 780.17322 824.35461 4281609531
-73.710098 780.17322 824.35461 4281609781
-61.277065 780.17322 824.35461 4281543991
-58.612843 780.17322 824.35461 4281741623
-55.948624 780.17322 824.35461 4281543988
-52.343121 780.9104 823.66815 4281215804
-49.629356 781.64758 822.98169 4281084470
-46.970642 781.64758 822.98169 4281018930
-43.42569 781.64758 822.98169 4281149999
-40.851376 780.17322 824.35461 4281478195
-38.108257 781.64758 822.98169 4281149486
-34.634861 780.17322 824.35461 4280624421
-31.082569 780.17322 824.35461 4280690214
-28.418348 780.17322 824.35461 4280690970
-25.754128 780.17322 824.35461 4281218084
-22.201836 780.17322 824.35461 4281087525
-19.497248 781.64758 822.98169 4281021732
-16.838531 781.64758 822.98169 4281151521
-14.179816 781.64758 822.98169 4281281824
1.772477 781.64758 822.98169 4281544490
73.5578 781.64758 822.98169 4294967295
77.102753 781.64758 822.98169 4294967295
79.761467 781.64758 822.98169 4294967295
82.506424 780.9104 823.66815 4294967295
85.255043 780.17322 824.35461 4294967295
87.031189 780.17322 824.35461 4294967295
-54.946789 783.00269 824.12427 4281477945
-52.288074 783.00269 824.12427 4281216061
-49.629356 783.00269 824.12427 4281543988
-46.970642 783.00269 824.12427 4281281585
-43.42569 783.00269 824.12427 4281084467
-38.108257 783.00269 824.12427 4281280822
-35.449543 783.00269 824.12427 4281018425
-30.132111 783.00269 824.12427 4281017923
-28.359632 783.00269 824.12427 4280887341
-26.587156 783.00269 824.12427 4281150769
-22.155964 783.00269 824.12427 4280426040
-19.497248 783.00269 824.12427 4280426288
-16.838531 783.00269 824.12427 4280293671
-13.274312 784.10638 823.09283 4280358946
-10.601835 785.21008 822.0614 4280162074
-7.951376 785.21008 822.0614 4279964694
-4.4174314 785.21008 822.0614 4279833104
1.7669724 785.21008 822.0614 4278517760
4.4174314 785.21008 822.0614 4278190080
7.0678897 785.21008 822.0614 4278321156
49.475231 785.21008 822.0614 4288707187
56.543118 785.21008 822.0614 4290486400
73.329361 785.21008 822.0614 4294967295
76.863304 785.21008 822.0614 4294967295
79.761467 783.00269 824.12427 4294967295
82.420181 783.00269 824.12427 4294967295
85.965134 783.00269 824.12427 4294967295
-51.242203 787.9118 824.33948 4281084474
-49.475231 787.9118 824.33948 4281150263
-47.119263 787.46149 823.95978 4281018677
-43.290825 787.23639 823.7699 4281150010
-40.640366 787.23633 823.76996 4281215040
-38.284405 787.46149 823.95978 4281346867
-35.339451 787.9118 824.33948 4281018677
-21.203671 787.9118 824.33948 4281280822
-19.436697 787.9118 824.33948 4281280822
-16.78624 787.23639 823.7699 4281345589
-13.546788 787.01123 823.58008 4281411631
-10.601835 786.56091 823.20044 4281281324
1.7669724 786.56091 823.20044 4281016099
3.5339448 786.56091 823.20044 4281603359
79.513763 786.56091 823.20044 4294967295
82.458717 787.01123 823.58008 4294967295
84.814682 787.9118 824.33948 4294967295
-37.871559 791.4574 823.40491 4281346608
-35.229359 791.4574 823.40491 4281084470
-15.853211 791.4574 823.40491 4280952884
-12.917432 791.00848 823.02643 4281020210
-10.568808 790.78406 822.83722 4281151541
-7.9266052 790.78406 822.83716 4281085494
-5.2844038 790.11072 822.26953 4281413685
1.7614679 790.78406 822.83722 4281740343
4.4036698 790.78406 822.83722 4281411380
7.9266057 790.78406 822.83722 4281018677
10.568808 790.11072 822.26953 4281084720
12.917432 790.55957 822.64795 4280953650
16.733946 790.11072 822.26953 4280623921
19.376146 790.11072 822.26953 4280689717
22.018349 790.11072 822.26953 4280953386
25.541285 790.11072 822.26953 4280889138
29.06422 790.11072 822.26953 4282663502
79.266052 790.11072 822.26953 4294967295
81.027519 790.78406 822.83722 4294967295
-37.871559 792.80408 824.54041 4281281072
-21.137615 792.80408 824.54041 4281084470
-19.376146 792.80408 824.54041 4281084470
-16.733946 792.80408 824.54041 4281282099
-13.21101 792.80408 824.54041 4281150769
-10.53578 794.99463 822.46338 4281150263
-7.901835 794.99463 822.46338 4281084992
-4.3899083 794.99463 822.46338 4280887615
1.7614679 792.80408 824.54041 4281411900
4.4036698 792.80408 824.54041 4281083972
7.9128442 793.89935 823.50189 4280822843
10.53578 794.99463 822.46338 4281281849
13.169725 794.99463 822.46338 4281347642
16.681652 794.99463 822.46338 4281544253
19.315596 794.99463 822.46338 4281741121
21.949541 794.99463 822.46338 4281413685
25.461468 794.99463 822.46338 4281218611
28.973394 794.99463 822.46338 4281218109
79.896332 794.99463 822.46338 4294967295
82.788994 792.80408 824.54041 4294967295
-12.291743 797.6795 824.72717 4281478946
-10.53578 797.0083 824.16119 4281150516
-7.901835 797.0083 824.16119 4281084472
-4.3880734 797.37268 823.81445 4281018680
-1.7522936 797.79462 822.20813 4281084474
1.1706423 797.27045 823.51019 4281149752
4.3899083 797.00824 824.16113 4281018174
7.901835 797.0083 824.16119 4280953656
10.53578 796.33704 823.59521 4281477945
13.169725 796.33704 823.59521 4281543738
16.681652 796.33704 823.59521 4281543740
19.275229 797.79462 822.20813 4281741121
21.949541 796.33704 823.59521 4281609781
25.461468 796.33704 823.59521 4281413685
28.912844 797.79462 822.20813 4281676607
31.541285 797.79462 822.20813 4281808193
71.84404 797.79462 822.20813 4294967295
73.596329 797.79462 822.20813 4294967295
76.22477 797.79462 822.20813 4294967295
79.729355 797.79462 822.20813 4294967295
82.530273 796.33704 823.59521 4294967295
84.28624 797.6795 824.72717 4294967295
-1.7522936 799.80408 823.90247 4281084206
0 799.80408 823.90247 4281214773
8.7614679 800.47394 824.46729 4281084720
10.513762 799.80408 823.90247 4281215545
13.142202 799.80408 823.90247 4281150010
16.64679 799.80408 823.90247 4281084217
19.275229 799.80408 823.90247 4281347644
21.903671 799.80408 823.90247 4281413685
25.408257 799.80408 823.90247 4281413435
28.036697 799.80408 823.90247 4281413688
76.516815 799.58081 823.71417 4294967295
79.729355 799.80408 823.90247 4294967295
82.357796 799.80408 823.90247 4294967295
20.088074 803.98724 823.50549 4281150263
22.708258 803.98724 823.50549 4281347642
29.695414 803.31958 822.9425 4281347892
31.442202 803.31958 822.9425 4281151036
34.062386 803.31958 822.9425 4281347900
37.555962 802.65186 822.37952 4281873216
62.884403 802.65186 822.37952 4294966527
66.377983 802.65186 822.37952 4294967295
71.618347 803.31958 822.9425 4294967295
73.365135 803.31958 822.9425 4294967295
75.694191 803.54218 823.13019 4294967295
17.46789 805.32269 824.63159 4281018677
20.088074 805.32269 824.63159 4281018677
22.708258 805.32269 824.63159 4281281849
25.328442 805.32269 824.63159 4280954429
28.822018 805.32269 824.63159 4281282099
31.442202 805.32269 824.63159 4281347642
33.990826 806.76904 823.23499 4281347388
37.477066 806.10278 822.67316 4281545024
40.672783 805.88062 822.48584 4281939783
43.57798 805.4364 822.11133 4282334539
46.483181 805.88062 822.48584 4282335570
49.678898 806.10278 822.67316 4282664533
52.293579 806.10272 822.67316 4282271319
54.908257 806.10278 822.67316 4282863194
58.394493 806.10278 822.67316 4283321189
61.880733 806.10272 822.6731 4294309887
64.495415 806.10272 822.67316 4294967295
66.819572 805.88062 822.48584 4294967295
70.355965 805.84271 823.32599 4294967295
73.365135 805.32269 824.63159 4294967295
75.985321 805.32269 824.63159 4294967295
78.605507 805.32269 824.63159 4294967295
33.990826 808.10168 824.35864 4281281851
37.477066 808.10168 824.35864 4281478724
40.091743 808.10168 824.35864 4281873486
47.06422 808.10168 824.35864 4282728791
49.678898 808.10168 824.35864 4282730326
52.293579 808.10168 824.35864 4282665817
54.908257 808.10168 824.35864 4283257950
58.394493 808.10168 824.35864 4281288018
62.752293 808.10168 824.35864 4290426367
66.238533 808.10168 824.35864 4294967295
41.702751 811.5954 823.38037 4281940041
43.440369 810.93115 822.82031 4282071629
45.873028 811.86108 823.60437 4282465616
49.522018 811.5954 823.38037 4282796119
52.99725 812.25964 823.94043 4282994018
55.603668 812.25964 823.94043 4283717223
58.210094 812.25964 823.94043 4283062636
61.511559 811.86108 823.60437 4282341493
64.29174 811.5954 823.38037 4294574079
67.071922 811.86115 823.60437 4294967295
69.504585 811.5954 823.38037 4294967295
-36.256882 750.18402 825.22913 4294042623
-3.6256881 752.26294 826.98199 4278716957
0.90642202 750.18402 825.22913 4278849570
-94.307343 765.88422 826.69482 4280361004
-91.612846 766.57086 827.2738 4280691765
-94.018349 770.16833 826.38306 4281216306
-91.332108 770.16833 826.38306 4281347892
-88.645874 768.79926 825.22864 4280560429
-93.122932 771.53748 827.53735 4281281849
-91.332108 771.53748 827.53735 4281281849
-88.464218 772.33429 825.59326 4281347390
-88.464218 774.38379 827.32129 4281413685
-85.519264 776.59955 825.2655 4281610287
-83.737617 776.59955 825.2655 4281610287
-70.375229 776.59955 825.2655 4281676082
-67.702751 776.59955 825.2655 4281675826
-65.030273 776.59955 825.2655 4281544755
-62.3578 776.59955 825.2655 4281413685
-83.737617 778.6427 826.98822 4281609010
-70.375229 778.6427 826.98822 4281544495
-67.702751 778.6427 826.98822 4281543988
-65.030273 778.6427 826.98822 4281543739
89.082565 777.96167 826.41394 4294967295
91.755051 779.32373 827.5625 4294967295
94.427521 779.32373 827.5625 4294967295
96.209175 779.32373 827.5625 4294967295
-81.702751 782.21008 826.07196 4281543234
-79.038528 782.21008 826.07202 4281346620
-76.374313 782.21008 826.07196 4281347129
-73.710098 782.21008 826.07202 4281347126
-61.277065 782.21008 826.07196 4281347134
-58.612843 782.21008 826.07196 4281216313
-56.836697 782.21008 826.07196 4281282106
-40.851376 781.53113 825.49951 4281084470
-33.746788 781.53113 825.49951 4281018425
-31.970642 781.53113 825.49951 4281017923
-24.866055 781.53113 825.49951 4280820294
88.807343 781.53113 825.49951 4294967295
91.471558 782.88904 826.64441 4294967295
95.023849 782.88904 826.64441 4294967295
-79.038528 784.24689 827.78943 4281149752
-76.374313 784.24689 827.78943 4281281849
-73.710098 784.24689 827.78943 4280954681
-61.277065 784.24689 827.78943 4281084723
-58.612843 784.24689 827.78943 4281282099
-55.576756 784.77246 826.48859 4281019447
-52.583485 784.80939 825.64771 4281150267
-49.629356 784.35773 825.26685 4281150263
-46.084404 784.35773 825.26685 4281084720
-37.222019 784.35773 825.26685 4281281849
-34.267887 784.80939 825.64771 4281084470
-31.018349 785.03528 825.83813 4281214789
-28.359632 785.03528 825.83813 4281280819
-25.700916 785.03528 825.83813 4281346614
-22.451376 784.80939 825.64771 4281411640
-19.497248 784.35773 825.26685 4281607734
86.260551 784.80939 825.64771 4294967295
88.623856 785.03528 825.83813 4294967295
91.28257 785.71283 826.40942 4294967295
94.827522 785.71283 826.40942 4294967295
-54.946789 787.06787 827.552 4281214773
-52.288074 787.06787 827.552 4281084475
-33.677063 787.06787 827.552 4281084470
-31.018349 787.06787 827.552 4281084474
-25.700916 787.06787 827.552 4281084470
86.851379 787.06787 827.552 4294967295
88.623856 787.06787 827.552 4294967295
91.28257 787.06787 827.552 4294967295
94.827522 787.06787 827.552 4294967295
-49.475231 789.26263 825.47852 4281150268
-46.824768 789.26263 825.47852 4280886837
-43.290825 789.26263 825.47852 4281149752
-40.640366 789.93811 826.04797 4281412150
-37.106422 791.96436 827.75647 4281084720
-35.339451 791.28894 827.18695 4281018677
-30.038532 791.28894 827.18695 4280952884
-28.271559 790.61353 826.61749 4281084466
-25.621101 791.28894 827.18689 4281084467
-22.5289 790.27582 826.3327 4281084214
-19.436697 789.26263 825.47852 4281280822
-17.669725 789.26263 825.47852 4281018677
83.047707 789.26263 825.47852 4294967295
85.698166 790.61353 826.61743 4294967295
88.348625 791.28894 827.18695 4294967295
90.70459 791.06378 826.99707 4294967295
94.533028 790.61353 826.61743 4294967295
-38.752293 794.1507 825.6759 4281084720
-21.137615 794.1507 825.6759 4281084470
-19.376146 794.1507 825.6759 4281084470
-16.733946 794.1507 825.6759 4281543738
-13.21101 794.1507 825.6759 4281478447
84.550461 794.1507 825.6759 4294967295
91.596329 794.1507 825.6759 4294967295
93.357796 794.1507 825.6759 4294967295
-21.137615 795.49738 826.8114 4281084720
-19.376146 796.17065 827.37909 4281018927
-16.733946 796.17072 827.37909 4281084473
-13.504588 796.39508 827.56836 4281149734
-10.568808 796.84399 827.94678 4281215279
-7.9266057 796.84399 827.94678 4281215026
86.311928 796.17065 827.37909 4294967295
88.954132 796.84399 827.94678 4294967295
91.596329 796.17065 827.37909 4294967295
93.357796 795.49738 826.8114 4294967295
-4.3899083 799.69312 826.42505 4281018159
1.7559633 799.69318 826.42505 4281280566
4.3899083 799.69318 826.42505 4281215029
7.0238533 799.02197 825.85913 4281018927
85.164215 799.69318 826.42505 4294967295
88.676147 800.36438 826.99097 4294967295
91.310089 800.36438 826.99097 4294967295
93.066055 799.69318 826.42505 4294967295
-1.7522936 801.81354 825.5968 4280887341
0 802.4834 826.16156 4281083700
8.1773701 802.26007 825.97333 4281018924
10.513762 802.4834 826.16156 4281280822
13.142202 802.4834 826.16156 4281281081
16.35474 802.26007 825.97333 4281018167
25.408257 801.81354 825.5968 4281347642
28.036697 801.81354 825.5968 4281084720
80.021408 802.26007 825.97333 4294967295
82.357796 802.4834 826.16156 4294967295
84.694191 802.70673 826.34979 4294967295
91.119263 803.1532 826.72632 4294967295
8.7614679 804.49286 827.85596 4280952884
10.513762 804.49286 827.85596 4281148984
13.142202 804.49286 827.85596 4281280832
16.619267 805.5755 826.80676 4281149503
20.088074 806.65814 825.75757 4281149752
22.708258 806.65814 825.75757 4281150263
25.328442 806.65814 825.75757 4280954429
28.822018 806.65814 825.75757 4280954681
31.442202 806.65814 825.75757 4281347642
71.618347 806.65814 825.75757 4294967295
73.365135 806.65814 825.75757 4294967295
75.985321 806.65814 825.75757 4294967295
79.605507 805.5755 826.80676 4294967295
82.357796 804.49286 827.85596 4294967295
84.986237 804.49286 827.85596 4294967295
88.490829 804.49286 827.85596 4294967295
91.119263 804.49286 827.85596 4294967295
17.46789 807.99359 826.88354 4281214773
20.088074 807.99359 826.88354 4281280819
22.708258 807.99359 826.88354 4281281072
25.328442 807.99359 826.88354 4280757558
28.822018 807.99359 826.88354 4281084976
31.376146 809.43433 825.4823 4281149486
33.990826 809.43433 825.4823 4281346871
37.477066 809.43433 825.4823 4281545796
40.091743 809.43433 825.4823 4281678408
71.467888 809.43433 825.4823 4294967295
73.365135 807.99359 826.88354 4294967295
75.985321 807.99359 826.88354 4294967295
79.478897 807.99359 826.88354 4294967295
82.099083 807.99359 826.88354 4294967295
91.706421 807.99359 826.88354 4294967295
31.376146 810.76697 826.60596 4281083689
33.990826 811.43323 827.16779 4281347126
37.477066 811.43323 827.16779 4281808452
40.672783 811.65533 827.35504 4281874756
43.57798 811.43323 827.16779 4282137160
46.192661 812.09955 827.72961 4282663252
49.678898 811.43329 827.16772 4283057753
52.293579 812.09955 827.72961 4282861663
54.908257 812.09955 827.72961 4283585382
71.467888 811.43323 827.16779 4294967295
58.210091 814.9165 826.18066 4285099648
61.685318 814.9165 826.18066 4280366160
64.29174 814.9165 826.18066 4292343295
66.898163 814.91644 826.18066 4294967295
69.504585 814.9165 826.18066 4294967295
59.078899 816.90906 827.86072 4285164679
61.685318 816.90906 827.86072 4282532953
64.29174 816.90906 827.86072 4293849343
66.898163 816.90906 827.86072 4294967295
69.504585 816.90906 827.86072 4294967295
-5.4550457 749.31628 828.42151 4278190592
-1.8183486 749.31628 828.42151 4278717730
-94.018349 772.90656 828.69177 4281478714
-91.332108 772.90656 828.69177 4281281597
-94.018349 774.27563 829.84619 4281282357
-91.332108 774.27563 829.84619 4280757558
-88.645874 774.27563 829.84619 4281609781
-85.783485 775.75006 828.47327 4281609781
92.038528 775.75006 828.47327 4294967295
94.719269 775.75006 828.47327 4294967295
96.506424 775.75006 828.47327 4294967295
-92.038528 777.79956 830.20135 4281150516
-88.166359 778.02728 830.39337 4281412152
-85.783485 777.11639 829.62537 4281542191
-92.645874 780.68585 828.71094 4281281849
-85.519264 780.68585 828.71094 4281280822
-82.846786 781.36688 829.28516 4281280568
-70.375229 781.36688 829.28516 4281478708
-67.702751 780.68585 828.71094 4281609781
-65.030273 781.36688 829.28516 4281412665
-76.374313 785.60474 828.93433 4281150263
-73.710098 785.60474 828.93433 4280954681
-60.388992 785.60474 828.93433 4281282099
-58.612843 785.60474 828.93433 4281347892
-56.836697 785.60474 828.93433 4281412151
-58.612843 786.96265 830.07922 4281084470
-55.948624 786.96265 830.07922 4281084474
-52.288074 788.42297 828.69458 4281084474
-49.629356 788.42297 828.69458 4281084474
-46.970642 788.42297 828.69458 4280952883
-43.42569 788.42297 828.69458 4281215792
-33.677063 788.42297 828.69458 4281084470
-31.904587 788.42297 828.69458 4281018677
-51.401836 789.77802 829.83716 4281084474
-49.629356 789.77802 829.83716 4281280068
-46.970642 789.77802 829.83716 4281149752
-40.766972 789.77802 829.83716 4281281072
-38.994495 791.13312 830.97974 4281149486
-34.267887 790.6814 830.59888 4280952887
-31.904587 789.77802 829.83716 4281018677
-37.106422 793.31525 828.89551 4281281072
-30.922018 793.31525 828.89551 4281215029
-28.271559 793.31525 828.89551 4281281574
-25.621101 793.31525 828.89551 4281215790
-22.381653 794.21582 829.65485 4281084469
88.348625 793.31525 828.89551 4294967295
90.115593 793.31525 828.89551 4294967295
-19.376146 798.86401 829.65002 4281018930
-16.733946 798.86401 829.65002 4281215279
-13.21101 798.86401 829.65002 4281149486
-10.568808 798.86401 829.65002 4281215029
-7.9266057 798.86401 829.65002 4281083953
-5.2844038 799.53735 830.21777 4280953134
-3.5119267 801.70685 828.12292 4280821548
-1.7559633 802.37805 828.6889 4280756529
0.87798166 802.37805 828.6889 4280887344
4.682569 802.1543 828.50024 4280887343
7.0238533 802.37805 828.6889 4281083953
88.676147 801.70685 828.12292 4294967295
-1.7559633 804.39172 830.38672 4280953134
0 804.39172 830.38672 4280952884
7.901835 804.39172 830.38672 4280821298
10.513762 805.83246 828.98547 4280886839
13.142202 805.83246 828.98547 4281083704
15.770642 805.83246 828.98547 4281214777
84.986237 805.83246 828.98547 4294967295
88.490829 805.83246 828.98547 4294967295
10.513762 807.17212 830.11499 4280689717
13.142202 807.17212 830.11499 4280755510
16.619267 808.25055 829.06226 4280952630
20.088074 809.32898 828.00952 4280953135
22.708258 809.32898 828.00952 4281019179
25.328442 809.32898 828.00952 4280691765
28.822018 809.32898 828.00952 4281084720
73.365135 809.32898 828.00952 4294967295
75.985321 809.32898 828.00952 4294967295
79.478897 809.32898 828.00952 4294967295
82.099083 809.32898 828.00952 4294967295
84.986237 807.17212 830.11499 4294967295
88.490829 807.17212 830.11499 4294967295
91.706421 809.32898 828.00952 4294967295
29.695414 811.33215 829.69855 4281150003
31.442202 811.33215 829.69855 4281281072
34.062386 811.99988 830.2616 4281477944
73.365135 811.33215 829.69855 4294967295
75.985321 811.33215 829.69861 4294967295
79.478897 811.33215 829.69855 4294967295
82.099083 811.33215 829.69855 4294967295
37.477066 813.43219 828.85327 4281741889
40.963303 814.09851 829.41504 4281939524
43.57798 814.09851 829.41504 4282137161
46.192661 814.09851 829.41504 4282465619
49.678898 814.09851 829.41504 4282992218
52.293579 814.09851 829.41504 4283059806
54.908257 814.09851 829.41504 4283783785
57.522934 814.76483 829.97681 4285692042
71.467888 813.43219 828.85327 4294967295
62.554127 818.23749 828.98083 4285096548
-91.332108 775.64478 831.00061 4281150769
-89.541283 775.64478 831.00061 4281280822
-92.038528 779.84894 831.92944 4281280822
-88.464218 779.84894 831.92944 4281280570
-85.783485 779.84894 831.92944 4281280570
-83.99633 779.84894 831.92944 4281280570
-67.911926 779.84894 831.92944 4281543738
-91.144951 781.21527 833.08142 4281673527
-88.464218 781.21527 833.08142 4281280570
-85.783485 781.21527 833.08142 4281018425
-83.99633 781.21527 833.08142 4281150268
-67.911926 781.21527 833.08142 4281347642
-81.955963 783.41003 831.00793 4281150268
-79.580421 783.86407 831.39081 4281150264
-76.611008 784.77209 832.15637 4281150263
-73.938538 784.77209 832.15637 4281150268
-70.672173 783.86407 831.39081 4281216056
-64.73333 783.86407 831.39081 4281281851
-61.763916 784.31805 831.77362 4281347387
-81.955963 786.13416 833.30481 4281150263
-79.283485 786.13416 833.30481 4281150263
-73.938538 786.13416 833.30481 4281084470
-61.466972 786.13416 833.30481 4281150263
-58.612843 788.3205 831.22412 4281018677
-55.948624 788.3205 831.22412 4280757306
-53.284405 788.3205 831.22412 4281018425
-43.515594 788.3205 831.22412 4281150254
-55.060551 789.67841 832.36914 4281084470
-52.396332 789.67841 832.36914 4281411900
-49.732109 789.67841 832.36914 4281477191
-47.06789 789.67841 832.36914 4281149235
-42.627522 789.67841 832.36914 4281215279
-39.963303 790.3573 832.94159 4281149999
-37.299084 791.03625 833.51404 4281018927
-34.634861 791.03625 833.51404 4281214773
-31.970642 791.03625 833.51404 4281214773
-30.132111 792.48816 832.12219 4281477945
-28.359632 792.48816 832.12219 4281215279
-25.700916 793.16577 832.69348 4281149496
-23.042202 793.84326 833.26477 4281017923
-21.203671 796.69238 831.74304 4280952881
-19.436697 798.71869 833.45154 4280887341
-16.733946 800.88397 831.35327 4280953134
-13.21101 800.88397 831.35327 4280952884
-10.568808 800.88397 831.35327 4281018425
-7.9266057 800.88397 831.35327 4280886837
-4.4036698 800.88397 831.35327 4280690482
1.7614679 800.88397 831.35327 4280821548
3.5229359 800.88397 831.35327 4280821298
-7.6330276 802.6795 832.86719 4280558890
-4.4036698 802.90399 833.0564 4280559145
-1.7614679 803.57733 833.62415 4280887341
1.7614679 802.90399 833.0564 4280821551
4.4036698 802.90399 833.0564 4280756011
7.0458717 803.57733 833.62415 4280951600
0 805.73419 831.51868 4280821548
8.7798166 805.73419 831.51868 4280951600
10.53578 807.07666 832.65063 4280689215
13.4526 808.0025 832.55927 4280754999
16.655046 808.82349 832.16138 4280689971
19.295412 808.46545 832.51349 4280756277
21.903671 809.18164 831.80933 4280952881
25.408257 809.18164 831.80933 4281018927
28.036697 809.18164 831.80933 4281149746
84.986237 809.18164 831.80933 4294967295
88.490829 809.18164 831.80933 4294967295
91.119263 809.18164 831.80933 4294967295
22.779816 811.19104 833.50366 4281148980
25.408257 811.19104 833.50366 4281083693
28.912844 811.19104 833.50366 4281215279
84.986237 811.19104 833.50366 4294967295
87.614677 811.19104 833.50366 4294967295
31.442202 813.33533 831.38757 4281478195
34.062386 814.00305 831.95056 4281478457
37.555965 814.00305 831.95056 4281807424
41.049541 814.67078 832.51355 4281742148
43.669724 814.67078 832.51355 4281939527
45.416515 814.67078 832.51355 4281612111
48.910091 814.67078 832.51355 4282730326
71.618347 814.00305 831.95056 4294967295
73.365135 814.00305 831.95056 4294967295
75.985321 814.00305 831.95056 4294967295
79.478897 814.00305 831.95056 4294967295
82.099083 814.00305 831.95056 4294967295
41.049541 816.00616 833.63953 4281873989
43.669724 816.00616 833.63953 4282071367
46.548016 816.03662 832.79315 4282073687
50.039143 816.03662 832.79315 4282927962
52.348625 816.05182 832.37 4282600026
54.90826 817.43011 832.22412 4284507256
58.394489 817.43011 832.22412 4285164164
61.706421 817.69666 832.44885 4284832883
64.495415 817.43011 832.22412 4294900733
67.110092 817.43011 832.22412 4294967295
70.198166 817.0741 832.578 4294967295
73.365135 816.00616 833.63953 4294967295
75.985321 816.00616 833.63953 4294967295
79.478897 816.00616 833.63953 4294967295
82.099083 816.00616 833.63953 4294967295
89.086235 816.00616 833.63953 4294967295
90.833031 816.00616 833.63953 4294967295
-91.144951 782.58154 834.2334 4281280570
-88.286232 782.06427 835.54132 4281149505
-85.064224 781.80573 836.19537 4281216056
-82.209175 782.58154 834.2334 4281281849
-78.634865 782.58154 834.2334 4281084470
-69.699081 782.58154 834.2334 4281281849
-67.018349 782.58154 834.2334 4281347892
-89.357796 783.94788 835.3855 4281214777
-82.209175 785.31415 836.53748 4281478195
-79.528442 785.31415 836.53748 4281346356
-75.954132 784.63098 835.96149 4281149750
-73.273392 785.31415 836.53748 4281412151
-70.592659 783.94788 835.3855 4281084470
-66.72049 784.40332 835.76953 4281216056
-64.337616 784.63098 835.96149 4281084470
-62.550457 785.31415 836.53748 4281150263
-60.576145 787.49628 834.45337 4281150263
-57.606731 787.95026 834.83618 4281150265
-55.231194 788.85834 835.60181 4281281597
-52.558716 788.85834 835.60181 4281477945
-48.995415 788.85834 835.60181 4281280570
-46.322937 788.85834 835.60181 4281215275
-43.947399 788.4043 835.21899 4281215274
-40.977982 788.85834 835.60181 4281215279
-55.231194 790.22046 836.75024 4281281597
-51.667889 790.22046 836.75024 4281412401
-48.995415 790.22046 836.75024 4281148980
-42.759632 790.22046 836.75024 4281214773
-40.087158 790.22046 836.75024 4281083953
-35.633026 790.22046 836.75024 4281018677
-37.299084 792.39417 834.65894 4280953134
-33.746788 793.07312 835.23138 4280822325
-31.082569 793.07312 835.23138 4281083700
-28.418348 793.07312 835.23138 4281083957
-33.746788 795.10992 836.94885 4280691765
-31.082569 795.10992 836.94885 4280887091
-28.418348 795.10992 836.94885 4280887091
-25.727524 795.15417 835.6781 4280821299
-22.155964 796.55347 835.54993 4280821552
-19.436697 800.06958 834.59058 4280953134
-16.78624 800.06958 834.59058 4280887341
-13.252294 800.06958 834.59058 4280821298
-10.601835 800.06958 834.59058 4280821298
-16.78624 801.42041 835.72961 4280624425
-12.957798 801.87067 836.10931 4280624425
-10.601835 802.09583 836.29913 4280886057
-8.2458715 802.32098 836.48895 4280754728
1.7669724 802.7713 836.86865 4280951850
-4.1100917 805.37286 835.13812 4280754730
-1.7614679 805.59729 835.32733 4280754988
0 805.59729 835.32733 4280689195
4.4036698 804.92395 834.75964 4280952103
7.9266057 804.92395 834.75964 4280623919
10.568808 806.27063 835.89502 4280886337
12.330276 806.27063 835.89502 4280623421
17.559633 809.76154 834.91443 4280558126
21.07156 809.76154 834.91443 4281083187
22.827522 811.104 836.04639 4281149486
25.461468 811.104 836.04639 4281083693
28.973394 811.104 836.04639 4281215279
31.541285 812.5307 834.63318 4281280822
84.986237 812.5307 834.63318 4294967295
88.490829 812.5307 834.63318 4294967295
34.461773 814.31689 836.13934 4281281852
37.674313 814.54016 836.32751 4281610817
40.302753 815.20996 836.89233 4281939779
42.93119 815.20996 836.89233 4281612615
45.559631 815.20996 836.89233 4281612111
82.357796 815.20996 836.89233 4294967295
84.986237 814.54016 836.32758 4294967295
87.614677 814.54016 836.32758 4294967295
47.163303 817.34161 834.76562 4282599006
49.783485 817.34161 834.76562 4282862169
52.403671 818.00934 835.32861 4282731614
55.023853 818.67706 835.8916 4284837764
71.618347 818.00934 835.32861 4294967295
73.365135 818.00934 835.32861 4294967295
75.985321 817.34161 834.76562 4294967295
79.478897 817.34161 834.76562 4294967295
89.086235 818.00934 835.32861 4294967295
90.833031 818.00934 835.32861 4294967295
58.394493 820.09534 834.47144 4283981692
62.171253 820.53955 834.84601 4288581292
64.495415 820.76166 835.03326 4294967295
67.110092 820.76166 835.03333 4294967295
69.72477 820.76166 835.03326 4294967295
-87.750458 783.85938 837.92688 4281214773
-84.168808 785.22845 839.0813 4281281072
-82.377983 785.22845 839.0813 4281674033
-80.587158 785.22845 839.0813 4281674033
-77.005501 783.85938 837.92688 4281280822
-70.73761 784.54395 838.50403 4281281332
-67.45443 784.77216 838.69647 4281216308
-64.469727 785.22845 839.0813 4281150263
-78.634865 787.36359 838.26556 4281083956
-75.656273 787.13593 838.07355 4281346609
-73.273392 786.68042 837.68958 4281478195
-61.656879 786.68042 837.68958 4281084470
-58.380428 787.59131 838.45752 4281215801
-53.614677 788.04675 838.84155 4281478195
-46.466057 788.04675 838.84155 4281149486
-44.678898 788.04675 838.84155 4281215279
-73.273392 789.41302 839.99353 4281150769
-58.082569 789.41302 839.99353 4281149752
-55.231194 791.58252 837.8988 4281084474
-52.7211 789.41302 839.99353 4281281072
-48.995415 791.58252 837.8988 4281215279
-46.466057 789.41302 839.99353 4281148980
-43.719265 790.4978 838.94617 4281083957
-40.087158 791.58252 837.8988 4280822325
-37.41468 791.58252 837.8988 4280625716
-35.633026 791.58252 837.8988 4280691765
-42.759632 792.94464 839.04724 4281280570
-40.087158 792.94464 839.04724 4280887350
-37.41468 792.94464 839.04724 4280625716
-35.633026 792.94464 839.04724 4280625716
-34.634861 797.82568 839.23865 4280428336
-31.082569 797.14673 838.66626 4280624942
-28.418348 797.14673 838.6662 4280952367
-25.754129 797.14673 838.6662 4280886573
-23.089909 797.14673 838.6662 4280886827
-21.269724 799.9411 838.40637 4280690218
-19.497248 799.9411 838.40637 4280690218
-16.838531 800.61865 838.97766 4280558376
-14.179816 800.61865 838.97766 4280558376
-19.436697 805.47302 839.14661 4280622886
-7.0678897 804.12219 838.00769 4280754728
-4.7119269 805.02277 838.76691 4280558121
-1.7669724 805.47302 839.14661 4280492333
0.88348621 804.79761 838.57715 4280557872
4.4174314 804.12219 838.00769 4280493855
7.951376 804.12219 838.00769 4280624425
10.601835 805.47302 839.14661 4280492081
12.368808 805.47302 839.14661 4280557874
-24.660551 808.29065 837.59827 4280294179
-22.018349 808.29065 837.59827 4280425506
14.091743 807.61731 837.03052 4280623919
16.733946 808.29065 837.59827 4280492333
19.376146 808.29065 837.59827 4280623919
21.137615 808.96393 838.16602 4281083437
19.376146 810.31061 839.30151 4280492333
22.018349 810.31061 839.30151 4280558376
25.541285 810.31061 839.30151 4280690218
29.017431 811.37854 838.23987 4281017644
31.60734 812.44641 837.17822 4281084470
29.851376 813.78888 838.31018 4281083437
31.60734 814.46008 838.87616 4281017903
33.948627 814.68384 839.06476 4281346358
37.753212 815.13135 839.44214 4281413696
40.387157 815.13135 839.44214 4281612615
43.021103 815.13135 839.44214 4281809994
45.655045 815.13135 839.44214 4281876816
47.311928 816.54962 838.02185 4282403160
49.940369 817.21948 838.58667 4282665049
52.568806 817.88928 839.15149 4282797920
71.84404 817.88928 839.15149 4294967295
73.596329 817.88928 839.15149 4294967295
76.22477 817.21942 838.58667 4294967295
79.729355 817.21942 838.58667 4294967295
82.357796 817.21948 838.58667 4294967295
84.986237 817.21942 838.58667 4294967295
88.198784 817.44269 838.7749 4294967295
55.314983 820.45758 837.39288 4285296778
58.517429 820.68018 837.58057 4283978869
61.719879 820.90277 837.76825 4289240501
64.631195 821.3479 838.14355 4294967295
67.251373 821.3479 838.14355 4294967295
69.871559 821.3479 838.14355 4294967295
61.137615 822.68335 839.26965 4290621391
67.251373 822.68335 839.26965 4294967295
69.871559 822.68335 839.26965 4294967295
-85.325684 781.67725 840.01111 4281478195
-86.223854 783.05054 841.16907 4281281072
-70.955048 784.42389 842.32703 4281478195
-68.260551 784.42389 842.32703 4281412401
-64.667892 784.42389 842.32703 4281478195
-84.168808 786.5976 840.23572 4281149736
-82.377983 786.5976 840.23572 4281149486
-80.587158 786.5976 840.23572 4281149486
-77.005501 786.5976 840.23572 4281084474
-73.423851 786.5976 840.23572 4281281072
-66.260551 787.2821 840.81293 4281478195
-61.783485 787.2821 840.81293 4281215283
-57.306423 789.33575 842.54443 4281018677
-55.515594 789.33575 842.54443 4281018677
-52.829357 789.33575 842.54443 4281215279
-49.14679 790.7793 841.14563 4281149486
-46.466057 790.7793 841.14563 4281148980
-44.678898 790.7793 841.14563 4281214773
-48.253212 792.14563 842.29761 4280952884
-46.466057 792.14563 842.29761 4281148980
-43.78532 792.14563 842.29761 4281083187
-40.087158 794.3067 840.19568 4280952367
-37.41468 794.3067 840.19568 4280821548
-34.742203 794.3067 840.19568 4280559923
-48.104588 797.03088 842.49268 4280492583
-46.322937 797.03088 842.49268 4280754728
-42.759632 796.34985 841.91846 4280820781
-40.087158 796.34985 841.91846 4280755501
-37.41468 796.34985 841.91846 4280689965
-35.633026 797.03088 842.49268 4280494380
-44.403671 799.86249 840.95605 4280688935
-33.746788 799.18353 840.38354 4280560173
-31.082569 799.18353 840.38354 4280560173
-28.418348 799.18353 840.38354 4281017644
-25.458105 799.63617 840.7652 4280951850
-22.497858 800.08881 841.14691 4280623399
-16.873394 800.54144 841.52856 4280754724
-14.209174 800.54144 841.52856 4280754728
-19.497248 801.97369 840.12024 4280558376
-16.873394 801.89929 842.67346 4280427042
-13.016513 801.92407 841.82245 4280492326
-10.634862 802.65125 840.69147 4280623659
-8.2715597 802.87714 840.88184 4280558121
1.772477 803.3288 841.2627 4280557874
4.4311924 803.3288 841.2627 4280624421
7.9761467 803.3288 841.2627 4280558632
-10.634862 804.68384 842.40527 4280426790
-7.9761467 804.68384 842.40527 4280491816
-4.4174314 806.82391 840.28564 4280426027
-1.7669724 806.82391 840.28564 4280360747
0.88623852 805.75391 841.34546 4280425786
4.4311924 804.68384 842.40527 4280492583
7.0899081 804.68384 842.40527 4280426790
10.634862 804.68384 842.40527 4280426540
13.271559 805.75391 841.34546 4280426540
15.902752 806.82391 840.28564 4280492333
-4.4174314 808.17474 841.42468 4279966239
-1.7669724 808.17474 841.42468 4280032032
0 808.17474 841.42468 4280097325
14.135779 808.17474 841.42468 4280492583
17.080734 808.62506 841.80438 4280361001
19.436697 809.52563 842.56372 4280492333
22.018349 811.65723 840.43689 4280558376
25.541285 811.65723 840.43689 4280623919
28.183487 811.65723 840.43689 4281083437
26.422018 813.00391 841.57239 4280556330
29.357798 813.45282 841.95087 4280623144
31.706423 814.35059 842.70789 4280556843
34.348625 814.35059 842.70789 4281017396
37.871559 814.35059 842.70789 4281281084
40.51376 814.35059 842.70789 4281742148
43.155964 814.35059 842.70789 4282005320
46.825687 816.9212 840.95135 4282400601
49.166973 817.81622 841.70593 4282665565
50.266666 819.6521 841.50977 4282206049
52.568806 819.89874 840.84576 4282732127
55.022022 820.83655 841.63641 4285297032
58.701836 821.2384 841.97534 4284174699
61.330276 821.9082 842.54004 4293513955
64.250763 821.01514 841.78705 4294637303
67.463303 821.9082 842.54004 4294967295
71.259941 820.56854 841.41046 4294967295
73.596329 820.56854 841.41046 4294967295
76.22477 820.56854 841.41058 4294967295
79.904587 820.30066 841.18457 4294967295
82.444031 819.19385 841.55945 4294967295
85.075226 819.19385 841.55945 4294967295
88.198769 819.67548 840.65753 4294967295
-70.955048 785.79718 843.48486 4281084972
-68.260551 785.79718 843.48486 4281478195
-64.667892 785.79718 843.48486 4281281072
-68.260551 787.17047 844.64282 4281281324
-58.380737 787.85718 845.2218 4281018677
-55.686237 788.54382 845.80078 4280952884
-52.093578 788.54382 845.80078 4280887341
-50.14312 790.7049 843.69885 4280952884
-49.198166 792.79297 844.15149 4281083437
