# .PCD v0.7 - Point Cloud Data file format
VERSION 0.7
FIELDS x y z rgb
SIZE 4 4 4 4
TYPE F F F U
COUNT 1 1 1 1
WIDTH 837
HEIGHT 1
VIEWPOINT 0 0 0 1 0 0 0
POINTS 837
DATA ascii
20.124771 782.80011 755.93591 4293847294
1.6862385 776.3324 757.02271 4287526522
10.117432 777.62152 758.10962 4294439935
10.936697 781.75281 758.97693 4294571519
13.46055 781.75281 758.97693 4294111231
15.703976 781.32404 758.61542 4294176767
18.508257 781.75281 758.97693 4294177279
21.873394 781.10962 758.43463 4293913086
11.73945 785.36438 758.09802 4294834175
20.124771 784.08221 757.01697 4293847292
1.6917431 775.28369 760.0625 4286150783
5.0752292 776.57709 761.15308 4280090650
7.3308868 775.71484 760.42603 4282533993
8.4311924 778.91071 759.19666 4290891736
10.96055 778.91071 759.19666 4294768895
13.489908 778.91071 759.19666 4294373631
5.0587158 781.48895 761.37061 4280752927
7.3070335 780.62958 760.64594 4282337374
23.60734 780.84436 760.82709 4294110716
26.136696 780.84436 760.82715 4294967039
28.666056 781.48895 761.37061 4294967295
30.352293 781.48895 761.37061 4294967295
7.8519874 783.89673 760.78461 4286679182
10.095413 783.03912 760.06152 4294636543
13.46055 783.03912 760.06152 4294439679
15.984404 783.03912 760.06152 4294374399
19.069113 783.46796 760.42303 4294242559
22.43425 783.89673 760.78461 4294044926
26.079817 784.3255 761.14612 4294966783
28.60367 784.3255 761.14612 4294967295
11.180428 787.07391 759.53937 4294702847
13.416513 787.28754 759.7196 4294373887
15.93211 787.28754 759.7196 4294045181
19.56575 787.50122 759.89972 4294045694
21.801834 787.92859 760.26013 4294111231
10.888073 789.98157 760.68311 4294834175
13.387156 790.75244 760.02502 4294834431
15.915596 789.98157 760.68311 4293913341
19.264221 789.98157 760.68311 4294045439
22.640366 789.21075 761.34119 4293913341
25.155964 789.21075 761.34119 4294966271
10.877064 792.03174 761.10376 4294243327
13.387156 792.03174 761.10376 4294966527
15.897248 792.03174 761.10376 4294242815
19.244038 792.03174 761.10376 4294045439
21.754128 792.03174 761.10376 4294111231
13.34312 796.89038 761.27637 4294967295
15.844954 796.89038 761.27637 4294703103
18.346788 796.89038 761.27637 4294966527
0.85045874 772.68768 764.41382 4283519065
3.3908257 775.0213 762.45728 4282985542
1.1278287 778.73267 762.97052 4283123022
3.9474003 778.30151 762.60712 4281870883
0.84587157 780.45715 764.42456 4283253842
4.2211008 781.61768 763.44104 4281215274
31.195412 782.77814 762.45752 4294967295
33.834862 780.45715 764.42456 4294967295
5.0587158 784.71179 764.08801 4281875524
7.3009171 785.01178 763.46893 4283855957
10.095413 785.61182 762.23071 4294637311
23.555964 785.61182 762.23071 4294044927
26.079817 785.61182 762.23071 4294966527
28.60367 785.61182 762.23071 4294967295
31.162384 784.83954 762.88763 4294967295
34.28685 784.9267 764.26923 4294967295
5.0477066 788.18451 764.3999 4282731332
7.5715594 787.54132 763.8576 4285961651
26.921101 786.89813 763.31531 4294967295
28.60367 786.89813 763.31531 4294967295
31.407949 787.3269 763.67682 4294967295
33.651375 788.18451 764.3999 4294967295
8.3853207 791.13391 762.96277 4287150305
23.478899 790.49286 762.42224 4294045439
26.274008 790.92023 762.78253 4294901247
28.510092 791.13391 762.96277 4294967295
30.187157 791.13391 762.96277 4294967295
7.5376148 793.82373 763.92273 4279584095
10.877064 793.95074 762.7218 4290825199
13.387156 793.3111 762.1825 4294967295
15.897248 793.3111 762.1825 4294374143
19.522936 793.73755 762.54199 4294571007
22.590824 793.95074 762.7218 4294176254
25.658716 794.164 762.90155 4294900735
28.510092 793.05713 764.58435 4294967295
30.187157 793.05713 764.58435 4294967295
8.3669729 795.86975 764.33984 4278194454
10.877064 795.86975 764.33984 4289705664
22.590824 795.86975 764.33984 4294504703
25.937614 795.86975 764.33984 4294966783
28.447706 795.86975 764.33984 4294967295
30.121101 795.86975 764.33984 4294967295
11.119266 800.29071 764.14337 4294830837
13.34312 799.44061 763.42657 4294967295
15.844954 799.44061 763.4267 4294900479
19.180733 799.44061 763.4267 4294966271
22.516514 800.07812 763.96423 4294636799
25.574312 800.29071 764.14337 4294967295
28.354128 800.7157 764.50183 4294967295
0 773.98804 765.51025 4281609781
-1.6954129 780.20593 766.82886 4282529620
0.56391436 781.15283 766.75519 4282529620
3.3834863 781.75049 765.51514 4282860629
35.526604 781.75049 765.51514 4294967295
1.1278287 783.90607 767.3327 4283514730
3.3834863 783.04382 766.60571 4282600523
3.3724771 787.29016 766.26196 4284309342
35.411011 787.29016 766.26196 4294967295
37.097248 786.64557 765.71851 4294967295
0.84311926 789.22382 767.89246 4285819501
4.4892964 789.8172 766.64874 4282860619
6.7302752 789.47083 765.4845 4278203226
31.968807 790.11401 766.02686 4294967295
34.237919 789.8172 766.64874 4294967295
5.0477066 792.04352 767.65381 4281939018
6.7082567 794.33923 765.66541 4278198566
31.86422 794.33923 765.66541 4294967295
33.541283 794.33923 765.66541 4294967295
7.2611618 796.55792 766.66425 4281013270
10.040367 797.14905 765.41858 4286673057
26.774311 797.14905 765.41858 4294967295
28.447706 797.14905 765.41858 4294967295
30.992661 796.38525 766.08252 4294967295
33.541283 796.26245 767.28699 4294967295
7.809175 799.28125 767.21631 4286737781
31.236696 798.8548 766.85675 4294967295
33.467892 799.7077 767.57593 4294967295
8.3394499 803.26593 766.6521 4280431419
10.841284 802.62842 766.1145 4285951901
13.34312 802.62842 766.1145 4286346670
15.566974 802.41583 765.9353 4288847304
19.180733 801.99084 765.5769 4294769151
22.794495 802.41583 765.9353 4294967295
25.852295 802.62836 766.1145 4294967295
28.354128 802.62842 766.1145 4294967295
30.577982 802.84088 766.2937 4294967295
8.3394499 804.54108 767.72717 4281086019
10.841284 804.54108 767.72717 4278190080
13.34312 804.54108 767.72717 4278190099
16.098471 805.12793 766.47803 4278190105
19.138531 805.42139 765.85339 4288849864
22.189604 805.63348 766.03223 4294967295
25.852295 804.54108 767.72717 4294967295
28.354128 804.54108 767.72717 4294967295
30.855965 804.54108 767.72717 4294967295
33.3578 804.54108 767.72717 4294967295
14.977982 807.32983 767.46252 4278190106
16.642202 807.32983 767.46252 4278190080
19.138531 807.32983 767.46252 4290427593
22.466972 807.32983 767.46252 4294967295
25.795414 807.32983 767.46252 4294967295
31.620184 807.32983 767.46252 4294967295
22.417431 810.11304 767.19324 4294967295
-3.401835 779.18951 769.896 4280294720
-1.7009175 779.18951 769.896 4280755271
-4.2522936 780.48987 770.99243 4282266184
-1.6954129 782.79822 769.01465 4280161585
-4.2385321 784.09442 770.10754 4288976051
-1.6917431 785.63055 768.78674 4284898944
0.84587157 785.63055 768.78674 4284635743
38.06422 785.63055 768.78674 4294967295
40.601833 785.63055 768.78674 4294967295
-4.2293577 788.21722 770.96777 4286018713
-1.6917431 786.92389 769.8772 4285293198
38.06422 787.57056 770.42249 4294967295
-1.6862385 791.15759 769.52289 4283848573
0.84311926 791.15759 769.52289 4284704112
3.3724771 790.513 768.97937 4284833653
35.411011 791.15759 769.52289 4294967295
4.2064219 793.97302 769.2807 4282665062
35.333946 794.61621 769.823 4294967295
3.3651376 795.90253 770.90759 4284376451
5.0311928 798.82672 769.4491 4284639108
6.6935778 800.987 768.65466 4284773757
34.634861 799.54681 769.18427 4294967295
36.895412 799.46777 769.98962 4294967295
5.0201836 803.54565 770.81201 4285559970
6.6935778 802.90601 770.27264 4285887627
35.141285 802.90601 770.27264 4294967295
8.3394499 805.81616 768.80237 4286280847
10.841284 805.81616 768.80237 4282005570
13.34312 805.81616 768.80237 4278192944
28.354128 805.81616 768.80237 4294967295
30.022018 805.81616 768.80237 4294967295
33.3578 805.81616 768.80237 4294967295
7.7834868 807.94141 770.59424 4286020767
10.841284 807.72888 770.41504 4283585377
14.160551 808.48358 769.74335 4279042834
16.642202 809.23834 769.07172 4278190091
19.138531 808.60217 768.53528 4291019219
25.795414 808.60217 768.53528 4294967295
29.123852 809.23828 769.07166 4294967295
31.620184 809.23834 769.07172 4294967295
33.3578 807.72888 770.41504 4294967295
11.649541 811.14679 770.68091 4284109681
14.145872 811.14679 770.68091 4278847760
16.642202 811.14679 770.68091 4278190091
19.106421 811.64099 769.13556 4291742690
22.417431 812.01733 768.79883 4294967295
25.738533 812.01733 768.79883 4294967295
29.123852 811.14679 770.68091 4294967295
31.620184 811.14679 770.68091 4294967295
19.926605 813.92157 770.40442 4294177279
22.417431 813.92157 770.40442 4294967295
24.908257 813.92157 770.40442 4294967295
-4.2385321 785.39056 771.20044 4289503941
-3.3908257 787.98285 773.38623 4283257967
38.994495 787.98285 773.38623 4294967295
-4.2293577 790.80396 773.1488 4281415751
38.06422 790.15723 772.60352 4294967295
-1.6862385 793.73584 771.69684 4282599263
0.84311926 793.73584 771.69678 4283323495
37.097248 793.73584 771.69684 4294967295
-1.6862385 795.66956 773.32727 4282861915
0.84311926 796.4292 772.65973 4283389540
3.3651376 797.18884 771.99219 4285691025
38.783485 795.66956 773.32727 4294967295
0 798.47522 773.07678 4281944143
4.1981649 799.61255 772.07373 4285691025
37.797249 799.61255 772.07373 4294967295
0 803.31415 773.23279 4282205781
3.3541284 802.6731 772.69226 4284440720
36.895412 802.6731 772.69226 4294967295
4.4623852 805.67792 772.60986 4284900757
6.6935778 804.82501 771.89075 4285755021
35.141285 805.46466 772.43005 4294967295
7.5055046 809.64154 772.02783 4286019493
10.007339 809.64154 772.02783 4287794089
33.3578 809.64154 772.02783 4294967295
7.5055046 810.91663 773.10291 4286150045
10.841284 810.91663 773.10291 4286675106
14.145872 812.41907 771.75366 4280557861
16.642202 812.41907 771.75366 4278190091
18.306421 812.41907 771.75366 4290230742
26.627523 812.41907 771.75366 4294967295
28.291742 812.41907 771.75366 4294967295
30.855965 810.91663 773.10291 4294967295
14.423242 814.11554 773.18402 4280295716
16.642202 814.32758 773.36279 4278190089
19.127522 814.70251 773.0249 4292665320
22.442204 815.07739 772.68701 4294967295
25.781652 814.70251 773.0249 4294967295
28.291742 813.69141 772.82642 4294967295
-5.0862384 790.5752 775.5719 4281482072
-4.2293577 793.39062 775.32983 4282072658
38.910091 792.09729 774.23926 4294967295
-3.3724771 796.95868 774.41418 4282468172
-1.6862385 796.95868 774.41418 4282402379
1.6862385 796.95868 774.41418 4283654760
-3.3724771 799.53699 776.58813 4281941578
-1.6862385 798.89246 776.04468 4282533715
0.84128439 799.76154 774.16138 4282404957
38.741283 799.64929 775.37476 4294967295
-3.3651376 802.33423 776.33057 4282072144
-1.6825688 802.33423 776.33057 4282467159
1.6825688 801.69104 775.78827 4283784043
0 805.23737 774.85437 4282138964
36.895412 805.23737 774.85437 4294967295
0.83853209 807.16058 776.47595 4282927458
4.183486 808.66302 775.12677 4285164169
34.471928 808.91882 775.34259 4294967295
36.895412 807.16058 776.47595 4294967295
7.5055046 812.19177 774.1781 4285953682
10.841284 812.19177 774.1781 4287135659
30.855965 812.19177 774.1781 4294967295
8.3394499 814.10437 775.79077 4286151834
10.841284 814.10443 775.79077 4286940072
13.34312 814.10437 775.79077 4284246395
28.354128 814.10437 775.79077 4294967295
30.855965 814.10437 775.79077 4294967295
14.977982 816.23602 774.97205 4278190094
16.642202 816.23602 774.97205 4278190084
19.415901 816.66016 775.32959 4293454832
22.189604 816.66016 775.32959 4294967295
25.795414 816.23602 774.97205 4294967295
-3.3834863 795.97736 777.51086 4281941578
40.601833 797.27069 778.60144 4294967295
38.783485 800.82611 777.67517 4294967295
-3.3688073 803.51245 778.6322 4281611346
-1.6844037 803.51245 778.6322 4282203483
1.6825688 803.62054 777.41528 4283258217
38.783485 802.75989 779.3056 4294967295
40.469727 803.40442 779.84912 4294967295
-3.3651376 806.19324 779.58447 4281413717
-1.6825688 806.19324 779.58447 4282202976
1.6825688 806.19324 779.58447 4283784565
38.699081 806.19324 779.58447 4294967295
0 808.44269 777.55701 4281678933
3.3541284 809.72479 778.63806 4285098122
36.895412 809.08374 778.09753 4294967295
0 811.00696 779.71912 4281810773
4.4648318 811.57648 778.45538 4285624717
6.6935778 811.86127 777.82355 4284835973
34.304588 811.86127 777.82349 4294967295
37.733944 811.00696 779.71912 4294967295
5.0201836 813.78027 779.44153 4285360529
6.6935778 813.78027 779.44153 4284703617
30.957798 813.78027 779.44153 4294967295
34.304588 813.78027 779.44153 4294967295
8.3394499 816.65466 777.9411 4286018708
11.008073 817.03723 778.26355 4286742694
13.34312 817.29224 778.4787 4283653751
15.844955 817.29224 778.4787 4278190086
19.013943 817.54724 778.69373 4292731615
22.683302 817.54724 778.69373 4294967295
25.852295 816.65466 777.94104 4294967295
28.354128 816.01709 777.40356 4294967295
0 748.22784 780.41467 4288118915
40.601833 799.85742 780.78247 4294967295
-3.3724771 805.98273 782.02307 4281086549
-1.6862385 805.98273 782.02307 4281744478
40.469727 804.69354 780.93604 4294967295
42.155964 805.33813 781.47955 4294967295
-3.3651376 808.76587 781.75366 4281218130
-1.6825688 808.76587 781.75366 4281810267
1.1217126 807.90826 781.03058 4283520108
38.699081 807.47955 780.66907 4294967295
40.381653 807.47955 780.66907 4294967295
-1.6825688 810.05225 782.83826 4282203228
0.84128439 810.05225 782.83826 4283389803
3.3541284 812.28906 780.80017 4286018459
37.733944 812.28906 780.80017 4294967295
40.381653 810.05225 782.83826 4294967295
4.189908 814.58435 782.0816 4285624213
6.6935778 815.05957 780.52026 4285031044
28.447706 815.05957 780.52026 4294967295
30.957798 815.05957 780.52026 4294967295
34.304588 815.05957 780.52026 4294967295
37.454433 814.42596 782.60205 4294967295
7.5302753 816.33893 781.599 4285689228
10.598165 817.19183 782.31805 4286676899
13.387156 817.61823 782.67761 4281353591
15.897248 817.61823 782.67761 4278190102
19.244038 817.61823 782.67761 4293454837
22.590824 817.61823 782.67761 4294967295
25.937614 816.97858 782.13831 4294967295
28.447706 816.97858 782.13831 4294967295
30.6789 816.76538 781.9585 4294967295
34.304588 816.33893 781.599 4294967295
-3.3724771 809.85016 785.28394 4281218130
-1.6862385 809.85016 785.28394 4281744474
40.469727 807.27185 783.10999 4294967295
-1.6825688 812.62494 785.00745 4281941074
0.84128439 811.98175 784.46509 4283062381
38.699081 811.33856 783.92285 4294967295
40.381653 811.98175 784.46515 4294967295
5.0311928 816.1355 784.04346 4284769664
7.5467887 816.1355 784.04346 4285229958
10.900917 817.4176 785.12451 4286480554
13.416513 817.4176 785.12451 4281876316
15.93211 817.4176 785.12451 4278190086
19.264221 818.15759 784.44043 4293717741
22.640366 817.4176 785.12451 4294967295
25.994495 817.4176 785.12451 4294967295
28.510092 817.4176 785.12451 4294967295
31.025688 816.77655 784.58398 4294967295
34.379814 816.1355 784.04346 4294967295
37.733944 816.1355 784.04346 4294967295
40.249542 816.1355 784.04346 4294967295
-3.3724771 811.13928 786.37097 4281480523
-1.6825688 814.55444 786.63434 4281943120
0.84220183 814.18445 786.97638 4283916154
3.9259937 814.7688 786.81512 4285689749
7.5715594 815.19757 787.17664 4284902793
31.968807 815.19757 787.17664 4294967295
34.492661 815.19757 787.17664 4294967295
37.900002 814.45758 787.86078 4294967295
40.469727 813.71759 788.54492 4294967295
-1.6825688 816.48395 788.26135 4282140756
0 816.48395 788.26135 4282731371
5.0477066 816.48395 788.26135 4284769423
8.4128437 816.48395 788.26135 4285955230
10.936697 816.48395 788.26135 4286414496
13.46055 816.48395 788.26135 4281219415
15.984404 816.48395 788.26135 4278190103
19.349541 816.48395 788.26135 4293651711
22.71468 816.48395 788.26135 4294967295
26.079817 816.48395 788.26135 4294967295
28.60367 816.48395 788.26135 4294967295
31.127522 816.48395 788.26135 4294967295
34.492661 816.48395 788.26135 4294967295
37.016514 816.48395 788.26135 4294967295
1.6862385 815.00671 789.63184 4285428884
3.3724771 815.00671 789.63184 4285887905
6.7449541 815.00671 789.63184 4284178819
38.783485 815.00671 789.63184 4294967295
-1.6862385 816.29584 790.71887 4282074459
0.56207949 817.21704 790.62354 4284047981
4.2155962 816.29584 790.71887 4285098388
7.8691125 816.72559 791.08124 4284969616
10.954128 817.30902 790.91907 4286282404
13.475229 817.67761 790.57587 4279903318
16.010092 817.30902 790.91907 4278190102
19.370642 817.67767 790.57587 4293980669
22.764221 816.94043 791.26233 4294967295
26.136698 816.94043 791.26233 4294967295
28.666056 816.94043 791.26233 4294967295
31.195412 816.94043 791.26233 4294967295
34.56789 816.94043 791.26233 4294967295
37.632416 817.21704 790.62354 4294967295
38.699081 819.05658 790.43054 4294967295
-1.6917431 815.37762 793.86865 4283190886
1.6917431 815.37762 793.86865 4285823599
4.2293577 815.37762 793.86865 4284508035
6.7669725 815.37762 793.86865 4283784063
-1.6917431 816.67096 794.95923 4284373622
0.84587157 817.77258 793.92603 4286677155
4.2293577 816.67096 794.95923 4284574370
7.612844 816.67096 794.95923 4284312200
10.99633 816.67096 794.95923 4286346918
13.489908 818.87415 792.89282 4279437374
16.044037 817.77258 793.92603 4278190094
19.42202 817.77258 793.92603 4294375676
22.838531 816.67096 794.95923 4294967295
25.293577 818.87415 792.89282 4294967295
27.913761 816.67096 794.95923 4294967295
31.297249 816.67096 794.95923 4294967295
34.680733 816.67096 794.95923 4294967295
37.097248 818.87415 792.89282 4294967295
0.84770644 817.23132 796.73969 4286742695
4.2385321 816.49835 797.42969 4284705195
7.6293578 816.49835 797.42969 4284573832
11.007339 817.23132 796.73969 4286347411
13.533945 817.96436 796.04968 4278389564
16.07156 817.96436 796.04968 4278190095
19.455046 817.96436 796.04968 4294638847
22.838531 817.96436 796.04968 4294967295
25.376146 817.96436 796.04968 4294967295
27.943119 817.23132 796.73969 4294967295
31.297249 817.96436 796.04968 4294967295
34.71743 817.23132 796.73969 4294967295
37.218349 817.96436 796.04968 4294967295
13.533945 819.25769 797.14026 4278190869
1.7009175 815.59973 800.59619 4282335100
4.2522936 815.59973 800.59619 4283714700
6.8036699 815.59973 800.59619 4282797414
28.065138 815.59973 800.59619 4294967295
30.616514 815.59973 800.59619 4294967295
34.018349 815.59973 800.59619 4294967295
-1.6954129 817.79449 798.52258 4281478976
0 817.79449 798.52258 4281018983
8.4770641 817.79449 798.52258 4286876580
11.020184 817.79449 798.52258 4286150822
16.106422 817.79449 798.52258 4278190081
19.497248 817.79449 798.52258 4294901759
22.888073 817.79449 798.52258 4294967295
25.431192 817.79449 798.52258 4294967295
32.212845 817.79449 798.52258 4294967295
35.603668 817.79449 798.52258 4294967295
13.563303 819.09064 799.61548 4278190611
16.106422 819.09064 799.61548 4278190086
1.7045871 815.4397 803.07727 4282073166
28.125687 815.4397 803.07727 4294967295
31.534863 815.4397 803.07727 4294967295
34.944038 815.4397 803.07727 4294967295
-3.401835 818.20044 802.78906 4281742148
-1.7009175 817.55029 802.24084 4281610560
0 817.55029 802.24084 4281347903
4.2522936 816.90009 801.69263 4282994529
7.6541286 816.90009 801.69263 4285230742
11.055964 816.90009 801.69263 4285952659
13.60734 818.20044 802.78906 4278190080
19.560551 816.90009 801.69263 4294770687
22.962385 816.90009 801.69263 4294967295
25.513762 816.90009 801.69263 4294967295
28.216515 814.55658 806.25671 4294967295
31.636698 814.55658 806.25671 4294967295
34.201836 814.55658 806.25671 4294967295
-1.7045871 818.04608 805.2749 4281807437
0.85229355 817.39453 804.72546 4282267207
4.2614679 816.74292 804.17603 4281677902
7.6706419 817.39447 804.72546 4285034379
11.363914 817.17731 804.5423 4283650692
13.636697 818.04608 805.2749 4278190080
15.90948 817.17731 804.5423 4278190864
19.602753 816.74292 804.17603 4294836223
23.011927 816.74292 804.17603 4294967039
25.568808 816.74292 804.17603 4294967295
1.7119266 815.79169 808.60608 4282202184
4.2798166 815.79169 808.60608 4281612105
6.8550458 815.71942 809.85315 4281808724
10.846484 815.76758 809.02179 4284307848
13.710092 815.71942 809.85315 4278190080
17.119267 815.79169 808.60608 4278592806
19.687155 815.79169 808.60608 4294705146
23.11101 815.79169 808.60608 4294967295
25.6789 815.79169 808.60608 4294967295
28.246788 815.79169 808.60608 4294967295
31.688072 815.42804 808.95337 4294967295
-1.7100917 817.17133 808.46143 4282268492
0 817.82501 809.01257 4282465352
8.5504589 817.17133 808.46143 4287269287
15.390825 817.17133 808.46143 4278190080
0 818.33978 812.06262 4282794056
7.7119265 817.0296 810.95789 4285487734
11.13945 817.0296 810.95789 4282856526
13.710092 817.0296 810.95789 4278190080
16.280735 817.0296 810.95789 4278779951
23.992661 817.0296 810.95789 4294967295
29.133945 817.0296 810.95789 4294967295
1.7211009 814.78992 814.30157 4282728263
4.2981653 814.8559 813.04919 4281874513
19.771561 814.8559 813.04919 4294966271
22.350458 814.8559 813.04919 4294967295
25.78899 814.8559 813.04919 4294967295
27.508257 814.8559 813.04919 4294967295
4.2981653 816.17029 814.15747 4282071365
7.7366972 816.17029 814.15747 4285687941
10.315597 816.17029 814.15747 4291015897
12.894495 816.17029 814.15747 4292662246
16.333027 816.17029 814.15747 4293123031
19.771561 816.17029 814.15747 4294967294
22.350458 816.17029 814.15747 4294967295
24.929358 816.17029 814.15747 4294967295
28.367889 816.17029 814.15747 4294967295
4.3211012 813.87585 818.76294 4282137156
7.753211 816.04114 816.66467 4287192190
10.337615 816.04114 816.66467 4294962397
12.922018 816.04114 816.66467 4294967291
16.367889 816.04114 816.66467 4294967295
20.10092 816.48022 817.03485 4294967295
22.398165 816.04114 816.66467 4294967295
24.982569 816.04114 816.66467 4294967295
27.566973 816.04114 816.66467 4294967295
1.7321101 812.43225 820.16199 4282794056
7.7853212 814.47687 820.57782 4287324028
10.370643 815.19727 819.8772 4294240506
12.963303 815.19727 819.8772 4294967295
16.420183 815.19727 819.8772 4294967295
19.012844 815.19727 819.8772 4294967295
22.469725 815.19727 819.8772 4294967295
25.062386 815.19727 819.8772 4294967295
27.655046 815.19727 819.8772 4294967295
17.284403 816.51862 820.99133 4294967295
19.877064 816.51862 820.99133 4294967295
22.469725 816.51862 820.99133 4294967295
24.198166 816.51862 820.99133 4294967295
4.3440366 811.5954 823.38037 4282334019
7.8192658 812.92383 824.50049 4286343029
10.39266 815.08069 822.39502 4294967295
12.990826 815.08069 822.39502 4294967295
15.588991 815.08069 822.39502 4294967295
25.981651 815.08069 822.39502 4294967295
27.713762 815.08069 822.39502 4294967295
1.7431192 809.43433 825.4823 4283386194
4.3577981 810.76697 826.60596 4282202435
10.458715 812.09955 827.72961 4294967295
16.559633 812.09955 827.72961 4294967295
28.761467 812.09955 827.72961 4294967295
19.982569 814.25226 825.62061 4294967295
22.588991 814.25226 825.62061 4294967295
25.195412 814.25226 825.62061 4294967295
-3.493578 809.32898 828.00952 4282530887
1.746789 809.32898 828.00952 4283714895
5.2403669 810.66443 829.1355 4280689194
7.8605504 810.66443 829.1355 4287332477
13.100918 810.66443 829.1355 4294967295
20.961468 811.99988 830.2616 4294967295
22.708258 811.99988 830.2616 4294967295
25.328442 811.99988 830.2616 4294967295
27.948624 811.99988 830.2616 4294967295
-3.5119267 807.07666 832.65063 4282924609
-1.7541285 808.46545 832.51349 4283583051
0.58409786 808.4809 832.09052 4283780688
4.0948014 808.45001 832.93652 4282268223
7.901835 808.41907 833.78247 4288124793
10.53578 808.41907 833.78247 4294967295
13.169725 808.41907 833.78247 4294967295
16.64679 809.85144 832.37415 4294967295
19.275229 809.85144 832.37415 4294967295
29.78899 809.85144 832.37415 4294967295
21.903669 811.19104 833.50366 4294967295
26.284403 811.19104 833.50366 4294967295
28.912844 811.19104 833.50366 4294967295
-3.5229359 806.27063 835.89502 4283320389
1.7614679 806.27063 835.89502 4284372826
24.583487 809.76154 834.91443 4294967295
29.78899 812.5307 834.63318 4294967295
1.7669724 805.47302 839.14661 4284109399
7.951376 805.47302 839.14661 4289506216
10.601835 805.47302 839.14661 4294967295
12.368808 805.47302 839.14661 4294967295
-4.1100917 808.51508 837.78754 4283649101
-1.7614679 808.29065 837.59827 4283714897
0 808.29065 837.59827 4283780438
4.4036698 807.61731 837.03052 4281281331
14.091743 807.61731 837.03052 4294967295
16.733946 807.61731 837.03052 4294967295
19.376146 807.61731 837.03052 4294967295
22.018349 808.96393 838.16602 4294967295
25.541285 808.96393 838.16602 4294967295
28.183487 808.96393 838.16602 4294967295
-4.4036698 810.31061 839.30151 4283714637
28.183487 810.31061 839.30151 4294967295
1.7669724 806.82391 840.28564 4283845978
4.4256878 805.75391 841.34546 4281607480
7.9761467 804.68384 842.40527 4290096081
10.634862 804.68384 842.40527 4294967295
13.293577 804.68384 842.40527 4294967295
16.78624 806.82391 840.28564 4294967295
19.436697 806.82391 840.28564 4294967295
3.5339448 808.17474 841.42468 4282264117
16.78624 808.17474 841.42468 4294967295
19.436697 808.17474 841.42468 4294967295
22.087156 808.17474 841.42468 4294966783
25.621101 808.17474 841.42468 4294967295
-1.772477 806.03894 843.54785 4284437850
0.88623852 806.03894 843.54785 4283977047
5.3284402 804.61505 844.96338 4281935152
7.9926605 804.61505 844.96338 4292792282
10.634862 806.03894 843.54785 4294967295
13.293577 806.03894 843.54785 4294967295
16.838531 807.39398 844.69043 4294967295
19.497248 807.39398 844.69043 4294967295
21.269724 807.39398 844.69043 4294967295
25.700916 807.39398 844.69043 4294967295
28.359632 807.39398 844.69043 4294967295
1.7816514 803.84131 848.23511 4282661701
4.4541283 803.84131 848.23511 4284237903
8.0174313 803.84131 848.23511 4292793585
-1.7761468 805.97296 846.10828 4284240989
0 805.97296 846.10828 4284109147
10.65688 805.97296 846.10828 4294967295
13.3211 805.97296 846.10828 4294967039
23.089909 805.97296 846.10828 4294967295
17.761467 807.33081 847.25317 4294967295
1.787156 803.07599 851.51379 4281149497
4.4678898 803.07599 851.51379 4285092173
7.1486239 803.07599 851.51379 4292924907
-1.7816514 805.20343 849.38354 4284174179
0 805.20343 849.38354 4283781218
8.9082565 805.20343 849.38354 4294967295
10.689908 805.20343 849.38354 4294967295
13.362385 805.20343 849.38354 4294966271
16.034863 805.20343 849.38354 4294967295
19.598166 805.20343 849.38354 4294967295
22.270641 805.20343 849.38354 4294967295
25.833946 805.20343 849.38354 4294967295
28.506422 805.20343 849.38354 4294967295
30.288073 805.20343 849.38354 4294967295
0 803.02679 854.08838 4283583586
4.4770641 803.02679 854.08838 4286344024
7.1633029 803.02679 854.08838 4294965759
25.07156 803.02679 854.08838 4294967295
8.9357796 804.44226 852.66589 4294967295
10.722936 804.44226 852.66589 4294967295
13.403669 804.44226 852.66589 4294966527
16.977982 804.44226 852.66589 4294967295
19.658716 804.44226 852.66589 4294967295
22.339451 804.44226 852.66589 4294967295
26.807339 804.44226 852.66589 4294967295
28.594496 805.12543 853.24188 4294967295
-1.7963303 800.90356 856.22229 4283911525
1.7963303 800.90356 856.22229 4280359730
0.89816517 802.27692 857.38013 4281609272
3.5926607 802.27692 857.38013 4282000640
17.065138 802.27692 857.38013 4294967295
19.759632 802.27692 857.38013 4294967295
22.454128 802.27692 857.38013 4294967295
26.046789 802.27692 857.38013 4294967295
8.0587158 804.39587 855.2428 4294967295
10.744954 804.39587 855.2428 4294964991
-3.6036696 798.7804 858.35608 4284240233
-1.8018348 800.1579 859.51758 4283845728
0.90091741 801.5354 860.67908 4281742391
4.5045872 801.5354 860.67908 4289702007
8.0944958 802.59277 859.60858 4294967295
10.777982 803.65021 858.53809 4294965503
13.494495 802.59277 859.60858 4294900223
16.216515 801.5354 860.67908 4294967295
18.919266 801.5354 860.67908 4294967295
22.522936 801.5354 860.67908 4294967295
25.225689 801.5354 860.67908 4294967295
27.92844 801.5354 860.67908 4294967295
-3.6146786 799.42059 862.82001 4284108895
-1.8073394 800.11145 863.40247 4284174429
0.90366971 800.80237 863.98499 4282071099
4.5183487 800.80237 863.98499 4291149749
7.2293577 800.80237 863.98499 4294967295
9.0366974 800.80237 863.98499 4294966783
14.458715 800.80237 863.98499 4294900479
16.266054 800.80237 863.98499 4294967295
18.073395 800.80237 863.98499 4294967295
25.302752 800.80237 863.98499 4294967295
27.110092 800.80237 863.98499 4294967295
10.811009 802.9129 861.84058 4294965503
12.612844 802.9129 861.84058 4294768383
19.820183 802.9129 861.84058 4294967295
22.522936 802.9129 861.84058 4294967295
12.612844 804.29047 863.00208 4294966783
1.8073394 802.18408 865.15002 4283513668
3.6146789 802.18408 865.15002 4288250554
7.2293577 802.18408 865.15002 4294967295
9.9403667 802.18408 865.15002 4294900735
13.555046 802.87494 865.73254 4294967039
16.266054 802.18408 865.15002 4294967295
19.278288 802.64471 865.53839 4294967295
22.591743 802.875 865.73254 4294967295
25.302752 802.18408 865.15002 4294967295
27.110092 802.18408 865.15002 4294967295
-3.6366973 797.97131 869.44617 4284240735
-1.8183486 797.97131 869.44617 4284109149
0 800.0777 867.29822 4283645255
5.4385319 800.0777 867.29822 4294967295
1.812844 801.46362 868.4668 4287129454
3.6256881 801.46362 868.4668 4292197829
9.9706421 801.46362 868.4668 4294900991
13.596331 802.15662 869.05109 4294967295
16.315596 801.46362 868.4668 4294967295
19.034863 802.15662 869.05109 4294967295
21.754128 802.84955 869.63538 4294967295
25.379816 801.46362 868.4668 4294967295
-3.6366973 799.36145 870.61829 4284044637
-1.8183486 799.36145 870.61829 4283057742
0 799.36145 870.61829 4283510838
5.4550457 799.36145 870.61829 4294967295
7.2733946 799.36145 870.61829 4294967295
10.910091 800.75159 871.79041 4294967295
14.546789 800.75159 871.79041 4294967295
16.365137 800.75159 871.79041 4294967295
18.183487 800.75159 871.79041 4294967295
7.310092 797.25494 875.38232 4294967295
-3.6440368 799.35291 873.22717 4283913053
-1.8220184 799.35291 873.22717 4282202435
0.91100919 799.35291 873.22717 4287193711
9.1100922 799.35291 873.22717 4294967295
13.665138 800.74585 874.40173 4294966527
16.398165 800.74585 874.40173 4294967295
19.131193 800.74585 874.40173 4294967295
21.86422 800.74585 874.40173 4294967295
0 796.55835 878.71912 4282391040
5.4990826 795.15698 877.53748 4294967295
7.3321099 796.55835 878.71912 4294967295
-3.655046 798.6521 876.56042 4284110431
-1.827523 798.6521 876.56042 4281413174
10.051376 798.6521 876.56042 4294966527
13.706423 800.04926 877.7384 4294966271
16.447706 800.04926 877.7384 4294967295
19.188992 800.04926 877.7384 4294967295
21.930275 800.04926 877.7384 4294967295
4.5963302 793.76184 880.28516 4294241777
-3.666055 797.95972 879.90063 4283978844
10.081652 797.95972 879.90063 4294899967
12.831193 799.36108 881.08228 4294966527
18.330275 799.36108 881.08228 4294967295
1.8440367 793.07574 883.63086 4294498215
4.302752 793.31073 883.82892 4294835455
-1.8385321 795.87018 882.06287 4280952623
0 795.87018 882.06287 4283577600
7.3541284 795.87018 882.06287 4294967295
10.111927 797.27576 883.24805 4294965503
14.708257 797.27576 883.24805 4294967039
16.546789 797.27576 883.24805 4294967295
18.385321 798.68134 884.43323 4294967295
1.8495413 793.1051 887.57959 4294963169
4.6238532 793.1051 887.57959 4294967295
-1.8440367 795.19043 885.41382 4280492324
0 795.19043 885.41382 4286011465
7.3761468 795.19043 885.41382 4294967039
13.830275 796.60022 886.60254 4294967039
16.596331 796.60022 886.60254 4294967295
0.92752296 793.47852 889.85651 4290684106
4.6238532 794.5191 888.77185 4294967295
7.3981652 794.5191 888.77185 4294967039
10.172478 794.5191 888.77185 4294966527
0 795.93304 889.96411 4290614947
14.79633 795.93304 889.96411 4294965759
16.645872 795.93304 889.96411 4294967295
18.495413 795.93304 889.96411 4294967295
4.6376147 793.85614 892.13696 4294967295
7.4201837 793.85614 892.13696 4294965503
10.202752 793.85614 892.13696 4294966015
12.985321 793.85614 892.13696 4294966527
0 795.27435 893.33276 4291012299
1.8605504 791.77924 894.30981 4294964735
1.8605504 793.20166 895.50916 4294965503
4.6513758 793.91284 896.10883 4294965759
7.4422016 793.20166 895.50916 4294966271
10.233027 793.20166 895.50916 4294966271
13.954128 793.20166 895.50916 4294966527
16.744955 793.20166 895.50916 4294967295
18.605505 793.20166 895.50916 4294967295
0 796.69257 894.52856 4293249754
1.866055 792.55548 898.88855 4294965247
7.46422 792.55548 898.88855 4294964735
10.263303 792.55548 898.88855 4294966271
13.995413 792.55548 898.88855 4294966783
16.794495 792.55548 898.88855 4294967295
18.660551 792.55548 898.88855 4294967295
0 796.04645 897.90784 4294371301
1.8715596 791.91779 902.2749 4294966522
4.6788988 791.91779 902.2749 4294964991
11.229358 791.91779 902.2749 4294966527
14.036697 791.91779 902.2749 4294966783
16.844036 791.91779 902.2749 4294967295
19.963303 791.44086 901.87274 4294967295
22.458715 791.20239 901.67169 4294967295
1.8770642 791.28851 905.66846 4294966527
4.6926603 791.28851 905.66846 4294964991
7.5082569 789.85352 904.4585 4294768127
9.3853207 789.85352 904.4585 4294966271
16.893578 791.28851 905.66846 4294967295
18.770641 791.28851 905.66846 4294967295
20.587156 793.34863 903.48132 4294967295
22.458715 793.34863 903.48132 4294967295
11.295413 789.22845 907.85547 4294966527
13.177981 789.22845 907.85547 4294966783
15.060551 789.22845 907.85547 4294967039
4.7201834 788.61182 911.25964 4294964991
7.5522938 787.16833 910.0426 4294570495
10.384403 787.89008 910.65112 4294966015
13.216514 788.61182 911.25964 4294967039
16.992661 788.61182 911.25964 4294967295
18.880733 788.61182 911.25964 4294967295
1.8825688 790.66766 909.06897 4294966015
4.7339449 788.0036 914.6709 4294701823
7.5743117 786.55591 913.45032 4294965247
10.414679 787.27979 914.06061 4294965759
13.255046 788.0036 914.6709 4294967039
16.095413 787.27979 914.06061 4294967039
18.93578 788.0036 914.6709 4294967039
1.8880734 790.05524 912.47681 4294965503
7.5963302 785.9519 916.86511 4294965247
9.4954128 785.9519 916.86511 4294965503
15.19266 785.9519 916.86511 4294967295
1.8935779 790.17505 916.50189 4294966015
3.7871559 790.89893 917.11218 4294767359
18.93578 789.45123 915.8916 4294967295
5.06422 787.88776 918.49731 4294833407
7.5963302 788.12976 918.70135 4294833663
10.444954 788.12976 918.70142 4294965503
13.293578 788.12976 918.70135 4294834687
15.825688 787.88776 918.49731 4294966271
1.8990825 790.3075 920.5376 4294966015
4.7477064 790.3075 920.5376 4294899455
7.5963302 790.3075 920.5376 4294964991
10.444954 790.3075 920.5376 4294965503
16.142202 790.3075 920.5376 4294966271
