# .PCD v0.7 - Point Cloud Data file format
VERSION 0.7
FIELDS x y z rgb
SIZE 4 4 4 4
TYPE F F F U
COUNT 1 1 1 1
WIDTH 877
HEIGHT 1
VIEWPOINT 0 0 0 1 0 0 0
POINTS 877
DATA ascii
-66.377983 789.61713 1256.1191 4287336616
-66.634865 785.07263 1258.8275 4288648158
-64.255043 785.07263 1258.8275 4289503467
-61.875229 785.07263 1258.8275 4289704423
-73.489906 791.42944 1257.6473 4281485945
-71.119263 791.42944 1257.6473 4281420935
-67.563309 791.42944 1257.6473 4282143886
-61.636696 791.42944 1257.6473 4283390893
-59.266056 791.42944 1257.6473 4284246202
-56.895412 791.42944 1257.6473 4286283455
-78.231194 793.24188 1259.1754 4281879172
-73.489906 793.24188 1259.1754 4281681791
-71.119263 793.24188 1259.1754 4281354636
-67.563309 793.24188 1259.1754 4282538134
-61.636696 793.24188 1259.1754 4282536599
-59.266056 793.24188 1259.1754 4283457701
-56.895412 793.24188 1259.1754 4284445589
-62.066055 781.06195 1260.678 4283327165
-69.014679 786.89203 1260.3616 4285168043
-64.255043 787.80176 1261.1287 4285693863
-61.875229 786.89203 1260.3616 4289177577
-58.305504 786.89203 1260.3616 4288191972
-54.735779 788.71143 1261.8956 4286283455
-78.231194 795.0542 1260.7036 4282142082
-75.86055 795.0542 1260.7036 4282535040
-73.489906 795.0542 1260.7036 4282666369
-71.119263 795.0542 1260.7036 4281945230
-67.168205 795.65839 1261.213 4283130010
-64.007339 795.0542 1260.7036 4283129750
-61.636696 795.96045 1261.4677 4283063194
-59.266056 795.96045 1261.4677 4282997400
-55.710091 796.86664 1262.2317 4282866333
-64.70092 778.32281 1264.9086 4287533799
-58.710091 778.32281 1264.9086 4279514228
-50.130276 786.53699 1265.2943 4285888156
-64.255043 790.53076 1263.4297 4282537101
-54.735779 790.53076 1263.4297 4285366691
-57.115597 792.35016 1264.9637 4282801552
-54.735779 792.35016 1264.9637 4282801552
-52.355965 792.35016 1264.9637 4282800526
-71.119263 800.49133 1265.2881 4281945744
-67.563309 799.58508 1264.5239 4283064476
-64.007339 799.58514 1264.5239 4282998934
-61.636696 799.58514 1264.5239 4283195296
-59.266056 799.58514 1264.5239 4283129503
-55.710091 799.58508 1264.5239 4283063702
-52.154129 800.49133 1265.2881 4282997904
-59.036697 806.7851 1264.0547 4283129241
-56.675228 806.7851 1264.0547 4283129491
-61.398167 808.59045 1265.5769 4283260829
-59.036697 808.59045 1265.5769 4283128987
-56.675228 808.59045 1265.5769 4283129241
-51.952293 808.59045 1265.5769 4283063696
-61.340366 773.74469 1267.5885 4278210167
-57.732109 773.74469 1267.5885 4280498797
-55.326607 773.74469 1267.5885 4282538637
-58.710091 780.15485 1266.4532 4287009994
-55.115597 781.07086 1267.2256 4283391905
-52.719265 781.07086 1267.2256 4280829570
-50.322937 781.07086 1267.2256 4280434813
-46.329052 781.37622 1267.483 4281487467
-43.133945 781.98688 1267.9979 4282866807
-52.517429 788.36194 1266.8331 4286087327
-50.130276 788.36194 1266.8331 4285626776
-50.130276 790.18695 1268.3719 4282997904
-76.154129 794.16956 1266.4978 4282273412
-73.774315 794.16956 1266.4978 4282404998
-70.20459 794.16956 1266.4978 4282734231
-64.255043 794.16956 1266.4978 4282998934
-52.355965 794.16956 1266.4978 4282931859
-83.293579 795.98895 1268.0319 4281682806
-80.913765 795.98895 1268.0319 4281617787
-76.154129 795.98895 1268.0319 4282273412
-73.774315 795.98895 1268.0319 4282339205
-71.394493 795.98895 1268.0319 4282077330
-52.355965 795.98895 1268.0319 4283129491
-49.976147 795.98895 1268.0319 4283063698
-71.119263 802.30371 1266.8162 4281617292
-67.563309 802.30371 1266.8162 4282933402
-64.007339 802.30371 1266.8162 4282933395
-61.636696 802.30371 1266.8162 4283194782
-59.266056 802.30371 1266.8162 4283194782
-55.710091 802.30371 1266.8162 4283063443
-52.154129 802.30371 1266.8162 4282997389
-49.783485 802.30371 1266.8162 4283194512
-73.489906 804.11609 1268.3444 4282272635
-71.119263 804.11609 1268.3444 4282207887
-67.563309 804.11609 1268.3444 4283195032
-64.007339 804.11609 1268.3444 4283129489
-61.636696 804.11609 1268.3444 4283129241
-54.524769 804.11609 1268.3444 4282997904
-52.154129 804.11609 1268.3444 4282800778
-49.783485 804.11609 1268.3444 4282997900
-47.412846 804.11609 1268.3444 4283194012
-42.671558 804.11609 1268.3444 4283392408
-40.300919 804.11609 1268.3444 4283392408
-61.398167 811.29846 1267.8602 4283391647
-59.036697 811.29846 1267.8602 4283259805
-55.494495 811.29846 1267.8602 4283063196
-51.952293 811.29846 1267.8602 4283129235
-49.590824 812.20117 1268.6213 4283129489
-47.229359 812.20117 1268.6213 4283195286
-55.326607 775.58368 1269.1392 4280438387
-52.921101 775.58368 1269.1392 4283851903
-49.312843 775.58368 1269.1392 4284246411
-48.110092 777.42273 1270.6898 4280697696
-52.719265 783.81885 1269.5426 4286611879
-47.127827 784.4295 1270.0575 4283195281
-81.1633 792.01196 1269.9108 4281748090
-78.776146 792.92444 1270.6802 4281945982
-50.130276 792.01196 1269.9108 4282997652
-46.549541 793.83698 1271.4495 4283260057
-83.293579 797.80835 1269.5659 4281813113
-79.723854 797.80835 1269.5659 4281813883
-76.154129 797.80835 1269.5659 4282010242
-73.774315 797.80835 1269.5659 4282273414
-49.976147 797.80835 1269.5659 4283129491
-47.596329 797.80835 1269.5659 4283194516
-78.533943 799.62775 1271.1001 4281946236
-76.154129 799.62775 1271.1001 4282666369
-73.774315 799.62775 1271.1001 4282469246
-46.406422 799.62775 1271.1001 4283260309
-73.489906 805.92847 1269.8724 4282339457
-71.119263 805.92847 1269.8724 4282536338
-67.563309 805.92847 1269.8724 4283260313
-64.007339 805.92847 1269.8724 4283195284
-54.524769 805.92847 1269.8724 4283129241
-49.783485 805.92847 1269.8724 4283195282
-46.227524 805.92847 1269.8724 4283063707
-42.671558 805.92847 1269.8724 4283392408
-40.300919 805.92847 1269.8724 4283261079
-37.930275 805.92847 1269.8724 4283195536
-35.559631 805.92847 1269.8724 4283195536
-71.119263 807.74084 1271.4006 4282339977
-67.563309 807.74084 1271.4006 4283260565
-64.007339 807.74084 1271.4006 4283523735
-49.783485 807.74084 1271.4006 4283261079
-46.227524 807.74084 1271.4006 4283195034
-42.671558 807.74084 1271.4006 4283261079
-40.300919 807.74084 1271.4006 4283195286
-37.930275 807.74084 1271.4006 4283195286
-35.559631 807.74084 1271.4006 4283261079
-67.695412 815.21014 1271.1583 4283194522
-63.759632 815.81189 1271.6658 4283194780
-61.398167 814.90918 1270.9047 4283260062
-59.036697 814.90918 1270.9047 4283259805
-55.494495 814.90924 1270.9047 4283129241
-51.952293 814.90918 1270.9047 4283063697
-49.590824 814.90918 1270.9047 4283129490
-47.229359 814.90918 1270.9047 4283260309
-44.080734 815.21014 1271.1583 4283325592
-34.088074 755.64972 1273.2598 4282335150
-31.653212 755.64972 1273.2598 4278716536
-43.299084 781.10083 1273.791 4280107376
-36.082569 781.10083 1273.791 4282468717
-46.728439 787.48291 1272.6321 4283063455
-46.728439 789.31494 1274.1768 4283128989
-82.35688 797.48694 1274.5271 4281682294
-45.355965 795.66199 1272.9883 4283260309
-42.968807 796.57446 1273.7577 4283260311
-83.293579 802.35681 1273.4011 4281944438
-79.723854 802.35681 1273.4011 4282272638
-76.154129 802.35681 1273.4011 4282404479
-45.216515 801.44714 1272.6342 4283457440
-38.077065 801.44714 1272.6342 4283195786
-73.489906 809.55322 1272.9287 4282274182
-71.119263 809.55322 1272.9287 4282273680
-67.563309 809.55322 1272.9287 4283260569
-64.007339 809.55322 1272.9287 4283523735
-45.042202 809.55322 1272.9287 4283195286
-42.671558 809.55322 1272.9287 4283195034
-40.300919 809.55322 1272.9287 4283392156
-79.416519 811.3656 1274.4569 4282338171
-75.86055 811.3656 1274.4569 4282141828
-73.489906 811.3656 1274.4569 4282602379
-71.119263 811.3656 1274.4569 4282602129
-66.377983 811.3656 1274.4569 4283457436
-64.007339 811.3656 1274.4569 4283391643
-42.671558 811.3656 1274.4569 4283128987
-40.300919 811.3656 1274.4569 4283194780
-37.930275 811.3656 1274.4569 4283260827
-34.374313 811.3656 1274.4569 4283392154
-68.482567 817.61731 1273.188 4283522198
-59.036697 817.61731 1273.188 4283128737
-55.494495 817.61731 1273.188 4283129241
-51.952293 817.61731 1273.188 4283129237
-49.590824 817.61731 1273.188 4283195286
-47.229359 817.61731 1273.188 4283521946
-43.687157 817.61731 1273.188 4283587998
-40.144955 817.61731 1273.188 4283325087
-55.494495 819.42261 1274.7102 4283063196
-51.952293 819.42261 1274.7102 4282997650
-49.590824 819.42261 1274.7102 4283129237
-47.229359 819.42261 1274.7102 4283587995
-43.687157 819.42261 1274.7102 4283456412
-40.144955 819.42261 1274.7102 4283259292
-41.049541 776.53674 1276.4828 4283261309
-38.634861 776.53674 1276.4828 4282733188
-45.704586 782.93982 1275.3417 4282996635
-43.299084 782.93982 1275.3417 4280764286
-36.082569 782.93982 1275.3417 4282273119
-33.677063 782.93982 1275.3417 4281550193
-31.271559 782.93982 1275.3417 4280629091
-28.866055 782.93982 1275.3417 4280300390
-43.299084 784.77881 1276.8922 4283195784
-40.893578 784.77881 1276.8922 4282801282
-37.285324 784.77881 1276.8922 4281879412
-33.677063 784.77881 1276.8922 4281745509
-43.133945 791.14691 1275.7214 4283260307
-40.737614 791.14691 1275.7214 4283326100
-40.737614 792.97894 1277.2662 4283457436
-38.341286 792.97894 1277.2662 4283655848
-79.723854 806.90527 1277.2363 4282206842
-76.154129 805.99561 1276.4692 4281944960
-73.774315 805.08594 1275.7023 4282470791
-38.077065 806.90527 1277.2363 4283392408
-35.697247 806.90527 1277.2363 4283392408
-79.416519 814.08411 1276.7491 4282470011
-75.86055 814.08417 1276.7491 4282404740
-73.489906 814.08417 1276.7491 4282470533
-71.119263 814.08417 1276.7491 4282667661
-66.377983 814.99036 1277.5132 4283391132
-64.007339 814.99036 1277.5132 4283259546
-61.636696 814.99036 1277.5132 4282997150
-40.300919 813.17798 1275.9851 4283390878
-37.930275 814.08417 1276.7491 4283129239
-35.559631 814.08417 1276.7491 4283392411
-55.494495 821.22803 1276.2325 4283129241
-51.952293 821.22803 1276.2325 4283063194
-49.590824 821.22803 1276.2325 4283128987
-47.229359 821.22803 1276.2325 4283194010
-44.867889 821.22803 1276.2325 4283260059
-55.494495 823.03333 1277.7548 4283326102
-39.104588 754.737 1279.0303 4284764292
-61.100918 756.60547 1280.6058 4283981967
-58.656879 756.60547 1280.6058 4283784854
-41.049541 778.38275 1278.0393 4281028478
-38.634861 778.38275 1278.0393 4282534510
-41.049541 780.22882 1279.5958 4279908977
-38.634861 780.22882 1279.5958 4281549652
-43.299084 786.61786 1278.4429 4283195788
-40.893578 786.61786 1278.4429 4283261581
-37.285324 787.53741 1279.2183 4282536847
-33.677063 787.53735 1279.2183 4281616245
-40.737614 794.81097 1278.8109 4283326102
-38.341286 794.81097 1278.8109 4283392408
-34.746788 796.64294 1280.3556 4283327119
-82.35688 802.96198 1279.1434 4282075768
-78.776146 802.96198 1279.1434 4282272889
-33.420185 802.96198 1279.1434 4283260827
-33.420185 804.78699 1280.6823 4283392156
-31.033028 804.78699 1280.6823 4283392156
-33.317432 810.54407 1280.3044 4283523745
-79.416519 816.80273 1279.0414 4282798459
-75.86055 816.80273 1279.0414 4282929797
-73.489906 816.80273 1279.0414 4283390348
-71.119263 817.70892 1279.8054 4284114321
-67.563309 817.70898 1279.8054 4284640417
-64.007339 817.70892 1279.8054 4284245923
-61.636696 817.70892 1279.8054 4283063713
-59.266056 817.70892 1279.8054 4282998177
-42.671558 818.61511 1280.5696 4283325085
-40.300919 818.61511 1280.5696 4283588256
-37.930275 817.70892 1279.8054 4282998421
-35.559631 816.80273 1279.0414 4283327901
-55.494495 824.83875 1279.277 4283326354
-61.398167 826.6441 1280.7992 4283127944
-31.390825 782.07483 1281.1523 4281350752
-28.976147 782.07483 1281.1523 4281153120
-26.561468 782.07483 1281.1523 4281284707
-31.390825 783.9209 1282.709 4281024360
-28.976147 783.9209 1282.709 4280496749
-36.082569 790.2959 1281.5442 4283524006
-33.677063 790.2959 1281.5442 4283260827
-31.271559 790.2959 1281.5442 4282931605
-36.082569 792.13495 1283.0947 4283458201
-33.677063 792.13495 1283.0947 4283392408
-31.271559 792.13495 1283.0947 4283589788
-33.548622 798.47498 1281.9003 4283261079
-31.152294 799.39099 1282.6726 4283326617
-28.755962 799.39099 1282.6726 4283326874
-26.359632 800.30701 1283.4451 4283392156
-31.033028 806.61194 1282.2211 4283458201
-31.033028 808.43701 1283.7599 4283523745
-33.317432 812.36346 1281.8385 4283589792
-33.317432 814.18286 1283.3726 4283524512
-64.007339 820.42749 1282.0977 4283654040
-61.636696 820.42749 1282.0977 4283655063
-59.266056 820.42749 1282.0977 4283392147
-52.154129 820.42749 1282.0977 4283261079
-49.783485 820.42749 1282.0977 4283261079
-46.227524 820.42749 1282.0977 4283195034
-42.671558 820.42749 1282.0977 4283194780
-61.636696 822.23987 1283.6259 4283128448
-59.266056 822.23987 1283.6259 4283391363
-52.154129 822.23987 1283.6259 4283261079
-49.783485 822.23987 1283.6259 4283392408
-46.227524 822.23987 1283.6259 4283325852
-63.759632 828.44946 1282.3214 4283457688
-61.398167 828.44946 1282.3214 4283392147
-24.238533 779.37079 1285.4126 4281681529
-25.450459 781.22388 1286.9751 4279249515
-31.390825 785.76697 1284.2655 4282142080
-28.976147 785.76697 1284.2655 4281090424
-25.35413 785.76697 1284.2655 4278856026
-21.732111 785.76697 1284.2655 4283334572
-19.31743 785.76697 1284.2655 4284778436
-28.976147 787.61298 1285.822 4281682837
-25.35413 787.61298 1285.822 4280237178
-21.732111 787.61298 1285.822 4284121265
-19.31743 787.61298 1285.822 4285957836
-16.902752 787.61298 1285.822 4285957836
-31.271559 793.974 1284.6454 4283458453
-28.866055 793.974 1284.6454 4283655316
-25.257797 793.974 1284.6454 4283523994
-25.257797 795.81299 1286.196 4283327389
-21.649542 795.81299 1286.196 4283261342
-28.755962 803.05505 1285.7621 4283392156
-26.359632 803.05505 1285.7621 4283458206
-23.963303 803.05505 1285.7621 4283655077
-31.033028 810.26196 1285.2987 4283852707
-69.014679 817.82166 1286.4407 4283653516
-66.634865 817.82166 1286.4407 4283522198
-40.456882 817.82166 1286.4407 4283457951
-38.077065 817.82166 1286.4407 4283393181
-35.697247 816.00226 1284.9066 4283589788
-59.266056 824.05225 1285.1539 4283522702
-55.710091 824.05225 1285.1539 4283392149
-52.154129 824.05225 1285.1539 4283392147
-54.524769 825.86462 1286.6821 4283588243
-52.154129 825.86462 1286.6821 4283456395
-28.976147 789.45898 1287.3785 4283852698
-25.35413 789.45898 1287.3785 4283261070
-21.732111 790.38202 1288.1567 4283590297
-19.31743 790.38202 1288.1567 4283918499
-24.055046 797.65204 1287.7466 4283457953
-21.649542 797.65204 1287.7466 4283457953
-21.649542 799.49109 1289.2972 4283654563
-19.244038 799.49109 1289.2972 4283457953
-28.755962 805.80304 1288.0791 4283720095
-26.359632 805.80304 1288.0791 4283654301
-28.755962 807.63507 1289.6239 4283523999
-26.359632 807.63507 1289.6239 4283392156
-33.420185 813.91199 1288.3762 4283523997
-69.014679 819.64099 1287.9747 4283128455
-66.634865 819.64099 1287.9747 4283325066
-64.255043 819.64099 1287.9747 4283193737
-49.976147 821.46045 1289.5088 4283523733
-46.406422 821.46045 1289.5088 4283392408
-42.836697 819.64099 1287.9747 4283260829
-40.456882 819.64099 1287.9747 4283523745
-14.543119 784.92993 1290.1 4284050120
-16.966972 786.78302 1291.6624 4286484180
-14.543119 786.78302 1291.6624 4287337942
-19.31743 794.0741 1291.2698 4283260826
-24.055046 803.16913 1292.3984 4283457953
-21.649542 802.24963 1291.6232 4283457698
-19.244038 801.33008 1290.8479 4283457699
-31.152294 809.46704 1291.1686 4283524512
-31.152294 811.29907 1292.7133 4283589790
-42.968807 819.38696 1292.9927 4283457436
-58.305504 823.27979 1291.0428 4283654549
-49.976147 823.27979 1291.0428 4283719311
-59.495415 825.09918 1292.5769 4283457942
-12.174312 781.71033 1295.2334 4281286815
-9.7394495 781.71033 1295.2334 4280897387
-16.966972 788.63611 1293.2249 4286155451
-14.543119 788.63611 1293.2249 4286942666
-16.966972 790.48914 1294.7874 4283261079
-16.902752 796.8432 1293.6047 4283523747
-28.866055 806.84717 1295.4998 4283523997
-25.257797 805.92767 1294.7244 4283392669
-38.341286 814.96313 1295.8027 4283523997
-34.746788 814.04712 1295.0303 4283392926
-31.152294 814.04712 1295.0303 4283458720
-46.549541 821.21198 1294.5314 4283589022
-12.174312 783.57184 1296.803 4286482633
-16.966972 792.34216 1296.3497 4283128987
-19.31743 800.53528 1296.7178 4283391904
-21.732111 802.38135 1298.2743 4283327135
-28.866055 808.68622 1297.0503 4283589790
-26.46055 808.68622 1297.0503 4283523997
-28.866055 810.52527 1298.601 4283589790
-26.46055 810.52527 1298.601 4283721376
-43.133945 818.62714 1298.8921 4283457951
-40.737614 816.79517 1297.3474 4283523485
-33.548622 816.79517 1297.3474 4283589790
-31.152294 816.79517 1297.3474 4283589790
-52.517429 823.03699 1296.0702 4283785104
-9.7761469 780.89581 1301.0868 4283858610
-14.609175 787.2948 1299.942 4283063205
-14.609175 789.15625 1301.5116 4282997400
-16.966972 796.97485 1300.2559 4283391905
-14.543119 796.04828 1299.4746 4283457951
-24.14679 805.15039 1300.6091 4283327135
-21.732111 804.22736 1299.8308 4283524258
-28.866055 812.36426 1300.1516 4283392927
-26.46055 812.36426 1300.1516 4283721891
-37.285324 814.20331 1301.7021 4283457951
-28.866055 814.20331 1301.7021 4283392927
-26.46055 814.20331 1301.7021 4283656098
-57.511925 820.45917 1300.4368 4283981463
-55.115597 820.45917 1300.4368 4284047513
-50.322937 820.45917 1300.4368 4283916946
-47.926605 820.45917 1300.4368 4284442518
-33.548622 820.45917 1300.4368 4284113558
-31.152294 820.45917 1300.4368 4284245144
-33.548622 822.2912 1301.9814 4284838558
-31.152294 822.2912 1301.9814 4284772764
-12.220183 782.76428 1302.6622 4286942666
-9.7761469 782.76428 1302.6622 4285431753
-12.220183 784.63281 1304.2377 4283523756
-9.7761469 784.63281 1304.2377 4283590321
-13.391743 791.0177 1303.0812 4283785890
-12.174312 792.87921 1304.6508 4283523745
-19.390825 799.75439 1302.5996 4283326881
-19.390825 801.60742 1304.162 4283262626
-24.14679 808.84247 1303.7222 4283656094
-21.732111 808.84247 1303.7222 4283655837
-19.31743 808.84247 1303.7222 4283656098
-45.704586 817.88135 1304.8035 4285034656
-43.299084 817.88135 1304.8035 4284905386
-40.893578 816.96185 1304.0281 4283918496
-37.285324 816.96185 1304.0281 4283786653
-33.677063 816.04236 1303.2528 4283523481
-31.271559 816.04236 1303.2528 4283655067
-28.866055 816.96185 1304.0281 4283655325
-26.46055 817.88135 1304.8035 4283852444
-7.359633 780.09534 1306.952 4282602654
-12.220183 786.50128 1305.8131 4283194780
-9.7761469 787.43555 1306.6008 4283458205
-7.3321099 788.36975 1307.3887 4283589790
-13.391743 794.74066 1306.2202 4283457949
-9.7394495 794.74066 1306.2202 4283654563
-17.044037 796.60217 1307.7898 4283261088
-14.609175 796.60217 1307.7898 4283261340
-9.7394495 796.60217 1307.7898 4283524006
-21.814678 803.46051 1305.7245 4283524512
-19.390825 803.46051 1305.7245 4283525543
-16.966972 803.46051 1305.7245 4283328421
-16.966972 805.3136 1307.2869 4283655844
-24.14679 811.61151 1306.057 4283525793
-21.732111 811.61151 1306.057 4283460000
-25.35413 813.45758 1307.6135 4283590048
-64.948624 819.7204 1306.354 4283262357
-60.137615 819.7204 1306.354 4283261340
-57.732109 819.7204 1306.354 4283457953
-55.326607 819.7204 1306.354 4284050091
-52.921101 819.7204 1306.354 4284246950
-49.312843 819.7204 1306.354 4284510882
-45.704586 820.63989 1307.1294 4284774820
-43.299084 819.7204 1306.354 4285168554
-40.893578 820.63989 1307.1294 4284773796
-37.285324 820.63995 1307.1294 4284707487
-33.677063 821.55945 1307.9047 4284708255
-31.271559 821.55945 1307.9047 4284576668
-28.866055 820.63989 1307.1294 4284576153
-25.658714 820.33344 1306.871 4284181656
-34.746788 827.78723 1306.6156 4284510379
-31.152294 827.78723 1306.6156 4284445346
-23.963303 827.78723 1306.6156 4284249769
-10.783486 827.78723 1306.6156 4284445863
-7.387156 773.66138 1308.0671 4282147711
-7.387156 775.54388 1309.6545 4281292427
-4.9247708 775.54388 1309.6545 4280306061
-2.4623854 775.54388 1309.6545 4281424799
-7.359633 781.97083 1308.5333 4282932391
-7.359633 783.84631 1310.1147 4283523999
-4.9064221 783.84631 1310.1147 4283326883
-2.4532111 783.84631 1310.1147 4283063455
-9.7761469 790.23828 1308.9641 4283589792
-7.3321099 790.23828 1308.9641 4283457949
-7.3321099 792.10675 1310.5396 4283259805
-4.8880734 792.10675 1310.5396 4283587743
-2.4440367 792.10675 1310.5396 4287995617
-17.044037 798.46362 1309.3594 4283328419
-13.391744 799.39435 1310.144 4283393694
-9.7394495 799.39435 1310.144 4283196579
-7.3045874 799.39435 1310.144 4282670236
-4.8697248 800.32507 1310.9288 4283131299
-19.390825 809.01965 1310.4117 4283590305
-16.966972 808.09314 1309.6306 4283656097
-40.893578 823.39844 1309.4553 4284381604
-37.285324 823.39844 1309.4553 4284181159
-33.677063 823.39844 1309.4553 4284445600
-31.271559 823.39844 1309.4553 4284971945
-28.866055 823.39844 1309.4553 4284512157
-25.257797 823.39844 1309.4553 4284446365
-34.746788 829.61926 1308.1604 4284907712
-23.963303 829.61926 1308.1604 4283397037
-10.783486 829.61926 1308.1604 4283132834
-7.1889906 829.61926 1308.1604 4283593385
-4.943119 770.97833 1312.3451 4283789483
-2.4715595 770.97833 1312.3451 4284184241
-4.9247708 778.36768 1312.0354 4282143633
-2.4623854 778.36768 1312.0354 4282209425
-4.9064221 785.7218 1311.6962 4283261088
-2.4532111 785.7218 1311.6962 4283195295
-4.9064221 787.59735 1313.2775 4283523999
-2.4532111 787.59735 1313.2775 4283721378
-12.220183 793.97522 1312.115 4283524512
-7.3321099 793.97522 1312.115 4282800539
-4.8880734 793.97522 1312.115 4283130787
-2.4440367 793.97522 1312.115 4287736041
-4.8880734 795.84375 1313.6904 4282805670
-2.4440367 795.84375 1313.6904 4287148008
-13.391743 802.18652 1312.4984 4283656098
-9.7394495 802.18652 1312.4984 4283525541
-7.3045874 802.18652 1312.4984 4283196833
-4.8697248 802.18652 1312.4984 4282867870
-24.238533 812.72583 1313.5366 4283787936
-21.814678 811.79932 1312.7554 4283590559
-19.390825 811.79932 1312.7554 4283590300
-16.966972 811.79932 1312.7554 4283787422
-12.119267 812.72583 1313.5366 4283787938
-53.122936 818.99573 1312.2831 4284577448
-49.500916 818.99573 1312.2831 4284248738
-43.464222 818.99573 1312.2831 4285168554
-24.14679 818.99573 1312.2831 4284313501
-12.073395 818.99573 1312.2831 4284182433
-49.500916 820.84174 1313.8396 4283988397
-45.878899 820.84174 1313.8396 4284053421
-43.464222 820.84174 1313.8396 4284250275
-21.732111 820.84174 1313.8396 4284775331
-19.31743 820.84174 1313.8396 4284840858
-12.073395 820.84174 1313.8396 4284906149
-9.6587152 820.84174 1313.8396 4284511657
-43.299084 825.23749 1311.006 4285169087
-40.893578 826.15698 1311.7812 4285564106
-38.488075 826.15698 1311.7812 4285366216
-28.866055 825.23749 1311.006 4284118434
-26.46055 825.23749 1311.006 4284118434
-21.649542 825.23749 1311.006 4283986596
-19.244038 825.23749 1311.006 4284314784
-16.838531 826.15698 1311.7812 4283921315
-14.433027 826.15698 1311.7812 4283723939
-2.4825687 765.86084 1315.8783 4283461034
1.2357798 774.75739 1315.5315 4283261336
0 781.19141 1314.4164 4282471840
1.2311927 783.07397 1316.0037 4283130785
0 790.41058 1315.6495 4287999478
-2.4440367 797.71222 1315.2659 4288000237
-2.4440367 799.58069 1316.8413 4285433540
-13.391744 804.97876 1314.8528 4283656098
-9.7394495 804.97876 1314.8528 4283591843
-7.3045874 804.97876 1314.8528 4283591586
-4.8697248 804.97876 1314.8528 4283525286
-21.814678 814.57886 1315.0991 4283919004
-19.390825 814.57886 1315.0991 4283853459
-16.966972 814.57886 1315.0991 4284116888
-13.331193 814.57886 1315.0991 4283984545
-21.814678 816.43188 1316.6616 4284313501
-19.390825 816.43188 1316.6616 4284247958
-16.966972 816.43188 1316.6616 4284379544
-14.543119 816.43188 1316.6616 4284313762
-48.293579 822.68774 1315.3962 4286618843
0 767.75873 1317.4785 4283723440
1.2412844 769.65668 1319.0789 4283655333
1.2357798 776.64697 1317.1246 4282142093
4.943119 776.64697 1317.1246 4281617285
2.4715595 778.5365 1318.7179 4281879447
4.943119 778.5365 1318.7179 4280830329
7.4146791 778.5365 1318.7179 4281356673
1.2311927 784.95642 1317.5909 4282866584
2.4623854 786.83899 1319.1782 4284908741
4.9247708 786.83899 1319.1782 4281623736
0 793.22382 1318.0216 4288591103
1.2266055 795.0993 1319.603 4288720639
-2.4440367 802.38342 1319.2046 4283722664
-13.797554 808.39142 1317.7302 4283787428
-9.7394495 808.70172 1317.9918 4283853479
-7.3045874 808.70172 1317.9918 4283853479
-4.8697248 808.70172 1317.9918 4283919788
-2.4348624 809.63245 1318.7766 4283919788
-16.966972 818.28497 1318.224 4284643736
-14.543119 818.28497 1318.224 4284840356
-5.0018349 758.56879 1322.8102 4282802084
-2.5009174 758.56879 1322.8102 4282209947
1.2504587 758.56879 1322.8102 4283134397
1.2458715 763.17078 1320.1503 4282672033
2.4917431 765.07574 1321.7565 4283131047
4.9834862 765.07574 1321.7565 4282145187
4.9651375 771.55463 1320.6792 4284444595
7.4477062 772.5036 1321.4792 4283787430
9.930275 773.45258 1322.2794 4282998934
12.412844 773.45258 1322.2794 4282670225
4.943119 781.37079 1321.1077 4283130268
7.4146791 780.42603 1320.311 4283063950
2.4623854 788.7215 1320.7655 4286813158
4.9247708 788.7215 1320.7655 4283395300
2.4623854 790.604 1322.3528 4287670015
4.9247708 790.604 1322.3528 4287210220
0 796.97485 1321.1843 4285828065
0 798.85034 1322.7657 4284643504
-2.4440367 805.18616 1321.5677 4283853995
-9.7394495 811.4939 1320.3462 4283919275
-7.3045874 811.4939 1320.3462 4284050604
-4.8697248 811.4939 1320.3462 4284050604
-2.4348624 811.4939 1320.3462 4284050604
-9.7394495 813.35541 1321.9156 4284246952
-7.3045874 813.35541 1321.9156 4284181159
-4.8697248 813.35541 1321.9156 4284050602
-2.4348624 813.35541 1321.9156 4284116395
5.0018349 760.48071 1324.4222 4282539441
7.5027523 760.48071 1324.4222 4284184523
4.9834862 766.98071 1323.3627 4283723438
7.4752293 766.98071 1323.3627 4283460266
9.9669724 766.98071 1323.3627 4282933672
12.458715 766.98071 1323.3627 4282736293
9.9669724 768.88562 1324.9689 4283394475
13.704587 768.88562 1324.9689 4281357976
17.442202 768.88562 1324.9689 4282940348
9.930275 775.35052 1323.8798 4284178315
12.412844 775.35052 1323.8798 4285625761
9.930275 777.24847 1325.48 4286869936
13.654128 777.24847 1325.48 4292135932
7.4146791 784.20508 1323.4974 4281689529
7.4146791 786.0946 1325.0907 4282671320
2.4623854 794.36902 1325.5273 4288065023
4.9247708 793.42773 1324.7336 4288130803
0 800.72583 1324.3472 4282671529
0 802.60132 1325.9285 4283328691
-7.3045874 815.21686 1323.4852 4284116899
-4.8697248 815.21686 1323.4852 4284444587
-2.4348624 817.07837 1325.0548 4284970411
5.0238533 755.33234 1327.9294 4289049314
7.53578 755.33234 1327.9294 4291088895
7.5027523 762.3927 1326.0344 4282408360
10.00367 762.3927 1326.0344 4283590846
16.255962 764.30469 1327.6466 4283332037
14.950459 770.79059 1326.5751 4281623193
17.442202 770.79059 1326.5751 4284978379
14.950459 772.69556 1328.1813 4287995325
17.442202 772.69556 1328.1813 4290429922
7.4477062 779.14642 1327.0803 4283394223
9.930275 779.14642 1327.0803 4285493701
9.930275 781.04437 1328.6807 4282209193
13.654128 781.04437 1328.6807 4283392953
17.377981 781.04437 1328.6807 4285497046
7.4146791 787.98413 1326.6838 4287078633
7.4146791 789.87366 1328.2771 4287932906
2.4623854 796.25153 1327.1146 4287275481
4.9247708 796.25153 1327.1146 4288392188
2.4623854 798.13403 1328.7019 4283461045
4.9247708 798.13403 1328.7019 4283396804
0 804.47681 1327.5099 4283526577
10.047707 757.25275 1329.5487 4286417633
12.559633 759.1731 1331.168 4287670269
15.07156 759.1731 1331.168 4290299374
20.007339 766.21667 1329.2587 4287146182
20.007339 768.12866 1330.8708 4289574893
13.704587 776.50549 1331.3937 4291743487
17.442202 775.55298 1330.5906 4293651199
19.933945 775.55298 1330.5906 4292863743
9.930275 782.94232 1330.2809 4281817504
12.412844 782.94232 1330.2809 4281027987
9.930275 784.84027 1331.8812 4286420447
12.412844 784.84027 1331.8812 4284183485
7.4146791 791.76318 1329.8702 4287802098
7.4146791 793.65271 1331.4635 4288984575
2.4623854 800.01654 1330.2892 4283394485
2.4623854 801.89905 1331.8765 4283658163
0 806.35229 1329.0912 4283723440
0 808.22784 1330.6726 4284248235
20.095413 761.09351 1332.7871 4289310449
20.007339 770.04059 1332.4829 4290102527
22.508257 771.95258 1334.0951 4292207359
19.933945 778.41046 1332.9999 4289635834
14.950459 780.31543 1334.6061 4280831654
17.442202 780.31543 1334.6061 4282937029
19.933945 780.31543 1334.6061 4285104078
9.930275 786.73822 1333.4816 4287144438
12.412844 786.73822 1333.4816 4285499613
4.943119 797.43176 1334.6499 4283263391
7.4146791 796.487 1333.8533 4284580036
2.4623854 803.78162 1333.4637 4283723440
17.647707 756.49011 1335.4458 4292010239
22.689909 758.41748 1337.0709 4292336895
22.60734 764.93433 1336.0256 4292338175
22.60734 766.85468 1337.6448 4291878655
22.508257 773.86456 1335.7072 4293191167
22.508257 775.77649 1337.3193 4292991231
25.009174 775.77649 1337.3193 4292733951
27.510092 775.77649 1337.3193 4292931327
14.950459 782.22034 1336.2123 4281230247
17.442202 782.22034 1336.2123 4281493163
19.933945 782.22034 1336.2123 4281294496
14.950459 784.12531 1337.8186 4284185784
17.442202 784.12531 1337.8186 4282870180
19.933945 784.12531 1337.8186 4282277277
9.930275 788.63611 1335.0818 4286749943
9.930275 790.53406 1336.6821 4287800823
13.654128 790.53406 1336.6821 4287998454
17.377981 790.53406 1336.6821 4285433290
4.943119 799.32129 1336.243 4283723686
7.4146791 799.32129 1336.243 4283592100
4.943119 801.21082 1337.8363 4283985579
7.4146791 801.21082 1337.8363 4283853993
22.689909 760.34491 1338.696 4291291135
25.21101 760.34491 1338.696 4292667647
25.21101 762.27234 1340.3212 4292470783
25.119267 769.73523 1340.0737 4292141823
27.631193 769.73523 1340.0737 4292602367
31.399082 770.69543 1340.8833 4292667903
22.508257 778.64447 1339.7375 4286817757
31.261467 777.68848 1338.9314 4292864767
13.704587 786.03027 1339.4248 4287407601
17.442202 786.03027 1339.4248 4285235646
19.933945 786.03027 1339.4248 4283066537
9.930275 793.38098 1339.0825 4286878673
13.654128 793.38098 1339.0825 4288392686
17.377981 793.38098 1339.0825 4285235398
19.86055 793.38098 1339.0825 4282934446
2.4715595 803.10034 1339.4294 4284182442
4.943119 803.10034 1339.4294 4284182442
27.85321 757.14215 1343.8438 4292141311
25.21101 764.19971 1341.9463 4292207359
27.732111 764.19971 1341.9463 4292207359
31.51376 766.12708 1343.5714 4292403967
31.399082 772.61584 1342.5024 4292733695
22.508257 781.51245 1342.1556 4282408864
22.508257 783.42444 1343.7678 4282408864
25.009174 783.42444 1343.7678 4281162935
27.510092 783.42444 1343.7678 4289847551
30.011009 783.42444 1343.7678 4292406271
19.933945 787.93524 1341.031 4283197614
22.425688 787.93524 1341.031 4282999979
24.917431 787.93524 1341.031 4282801836
27.409174 787.93524 1341.031 4289183487
22.425688 789.84021 1342.6372 4283526836
24.917431 789.84021 1342.6372 4283851953
28.655045 789.84021 1342.6372 4284576452
9.930275 796.22791 1341.483 4283065772
13.654128 796.22791 1341.483 4285433811
17.377981 796.22791 1341.483 4285038544
9.930275 798.12585 1343.0833 4283460018
13.654128 798.12585 1343.0833 4284512445
17.377981 798.12585 1343.0833 4284249267
19.86055 798.12585 1343.0833 4284052403
1.6477064 806.24951 1342.0848 4284838057
4.943119 805.93463 1341.8193 4284511148
7.4146791 806.87939 1342.6158 4284839595
9.8862381 806.87939 1342.6158 4284316077
27.85321 759.07794 1345.476 4292076031
35.295414 769.98193 1346.8218 4292535551
25.119267 775.49646 1344.9314 4290560510
27.631193 775.49646 1344.9314 4293258239
31.399082 776.4566 1345.741 4292930559
31.261467 785.33636 1345.3799 4290758911
32.511925 787.24835 1346.9921 4283458233
22.425688 791.74518 1344.2434 4283591866
24.917431 791.74518 1344.2434 4284049591
27.409174 791.74518 1344.2434 4283589040
19.933945 793.65015 1345.8496 4282937268
22.425688 793.65015 1345.8496 4283134647
24.917431 793.65015 1345.8496 4283657393
7.4477062 800.0238 1344.6836 4284116649
9.930275 800.0238 1344.6836 4284050350
13.654128 800.0238 1344.6836 4284576439
17.377981 800.0238 1344.6836 4284444599
7.4477062 801.92175 1346.2839 4284116395
9.930275 801.92175 1346.2839 4284051122
13.654128 801.92175 1346.2839 4284248505
17.377981 801.92175 1346.2839 4283525043
30.495413 756.41602 1349.7716 4292076287
30.385321 761.01379 1347.1082 4292272895
25.119267 778.37701 1347.3601 4282868461
27.631193 778.37701 1347.3601 4291355903
31.399082 778.37701 1347.3601 4293785087
32.655045 780.29742 1348.9794 4292142847
31.261467 789.16034 1348.6042 4282537622
19.933945 797.46002 1349.062 4283985581
22.425688 796.50757 1348.2589 4283591081
24.917431 796.50757 1348.2589 4284181406
13.654128 803.8197 1347.8842 4284184493
17.377981 803.8197 1347.8842 4283657895
9.930275 805.71765 1349.4845 4284971943
13.654128 805.71765 1349.4845 4284643240
17.377981 805.71765 1349.4845 4284512429
35.449543 764.88544 1350.3727 4292403967
37.981651 764.88544 1350.3727 4292535551
40.51376 764.88544 1350.3727 4292535551
37.981651 766.82123 1352.0049 4292601599
40.51376 766.82123 1352.0049 4292666623
43.045872 766.82123 1352.0049 4292732415
35.295414 775.76416 1351.6971 4293851135
35.166973 782.21777 1350.5986 4287669737
35.166973 784.13818 1352.2178 4282011816
37.678898 784.13818 1352.2178 4281814437
27.510092 791.07227 1350.2163 4283328428
31.261467 791.07227 1350.2163 4282734496
27.510092 792.98425 1351.8285 4285234101
30.011009 792.98425 1351.8285 4284051387
19.933945 799.36499 1350.6682 4282933424
22.425688 799.36499 1350.6682 4282538667
24.917431 799.36499 1350.6682 4286944158
19.933945 801.26996 1352.2744 4283986846
22.425688 801.26996 1352.2744 4287013581
24.917431 801.26996 1352.2744 4291021035
35.449543 769.72498 1354.4532 4292931071
37.981651 769.72498 1354.4532 4293062399
40.51376 769.72498 1354.4532 4293127423
43.045872 769.72498 1354.4532 4292732671
35.295414 777.69153 1353.3223 4290236671
37.816513 779.6189 1354.9474 4283064227
35.166973 787.0188 1354.6467 4282797957
37.678898 786.05859 1353.837 4283063448
27.510092 794.89624 1353.4406 4290761211
30.011009 794.89624 1353.4406 4291356159
27.510092 796.80823 1355.0527 4292404977
19.933945 803.17493 1353.8806 4286483371
13.704587 805.07983 1355.4868 4285956534
17.442202 805.07983 1355.4868 4285892535
19.933945 805.07983 1355.4868 4290162135
35.732109 757.12415 1358.2169 4292008959
37.981651 772.62866 1356.9016 4293719551
40.51376 772.62866 1356.9016 4293391615
43.045872 772.62866 1356.9016 4290299365
37.981651 774.56451 1358.5338 4286749919
40.51376 774.56451 1358.5338 4283793621
43.045872 774.56451 1358.5338 4281161902
40.337616 781.54633 1356.5725 4281947531
40.337616 783.47375 1358.1978 4283263137
32.655045 790.8595 1357.885 4286157517
35.166973 789.89935 1357.0754 4280572300
22.508257 800.63214 1358.277 4290496744
25.009174 800.63214 1358.277 4292599551
27.510092 799.67615 1357.4709 4293389311
19.933945 806.98486 1357.093 4290890495
40.51376 776.50037 1360.166 4278209678
43.045872 776.50037 1360.166 4279131809
45.57798 776.50037 1360.166 4281032341
43.045872 778.43616 1361.7983 4283197342
45.57798 778.43616 1361.7983 4283261592
37.816513 785.40112 1359.8229 4286348717
37.816513 787.32855 1361.448 4284585672
31.399082 793.74011 1360.314 4292863743
31.399082 795.66052 1361.9331 4293061887
43.045872 780.37195 1363.4305 4283328930
45.57798 780.37195 1363.4305 4283593637
35.295414 790.21967 1363.8857 4287806705
37.816513 790.21967 1363.8857 4285174996
48.284405 775.8443 1366.1531 4283129750
48.284405 777.78717 1367.7913 4283659430
53.366974 777.78717 1367.7913 4290758143
40.51376 782.3078 1365.0627 4289246443
43.045872 782.3078 1365.0627 4288785892
40.51376 784.24365 1366.6949 4288591080
35.295414 793.11072 1366.3234 4293325055
37.816513 793.11072 1366.3234 4293259263
40.337616 793.11072 1366.3234 4292733695
31.51376 795.03815 1367.9485 4293126655
35.295414 795.03815 1367.9485 4292930559
37.816513 795.03815 1367.9485 4293127935
40.337616 795.03815 1367.9485 4292931323
45.743118 779.72998 1369.4293 4288657134
50.825687 779.72998 1369.4293 4284442033
40.51376 787.14734 1369.1433 4281229016
43.201836 781.67285 1371.0675 4289182960
45.743118 781.67285 1371.0675 4289312749
43.201836 783.61566 1372.7057 4282085080
45.743118 783.61566 1372.7057 4283590331
48.49358 776.6366 1374.6694 4285762242
48.49358 778.58789 1376.3147 4286286015
51.045872 778.58789 1376.3147 4283195045
43.201836 785.55847 1374.3438 4280964578
45.743118 785.55847 1374.3438 4280179091
48.284405 785.55847 1374.3438 4280968606
43.201836 787.50134 1375.9819 4291417848
45.743118 787.50134 1375.9819 4286099704
48.284405 787.50134 1375.9819 4283402448
43.201836 789.44415 1377.6201 4292338930
45.743118 789.44415 1377.6201 4289774335
48.284405 789.44415 1377.6201 4287603442
48.667889 777.9754 1382.3383 4283458744
51.669724 772.80988 1393.6792 4282738083
54.253212 772.80988 1393.6792 4283198634
