# .PCD v0.7 - Point Cloud Data file format
VERSION 0.7
FIELDS x y z rgb
SIZE 4 4 4 4
TYPE F F F U
COUNT 1 1 1 1
WIDTH 1099
HEIGHT 1
VIEWPOINT 0 0 0 1 0 0 0
POINTS 1099
DATA ascii
61.398167 776.09393 1238.1766 4293521919
63.759632 776.09393 1238.1766 4293521919
52.355965 763.23993 1240.4188 4293193471
54.735779 763.23993 1240.4188 4293193471
46.406422 765.05933 1241.9529 4293653503
49.976147 765.05933 1241.9529 4293653759
52.355965 765.05933 1241.9529 4293390079
54.735779 765.05933 1241.9529 4293390079
57.115597 765.05933 1241.9529 4293456127
47.412846 769.68097 1239.3094 4293653759
49.783485 769.68097 1239.3094 4293587967
52.154129 769.68097 1239.3094 4293390079
54.524769 769.68097 1239.3094 4293456127
46.227524 771.49335 1240.8376 4293653503
49.783485 771.49335 1240.8376 4293456127
52.154129 771.49335 1240.8376 4293390335
55.710091 771.49335 1240.8376 4293456127
59.266056 771.49335 1240.8376 4293258751
61.636696 771.49335 1240.8376 4293390079
61.398167 777.89929 1239.6989 4293390079
63.759632 777.89929 1239.6989 4293521919
46.549541 760.98694 1243.7512 4293325311
50.130276 760.98694 1243.7512 4293391103
38.077065 766.87872 1243.4869 4293258751
40.456882 766.87872 1243.4869 4293587711
42.836697 766.87872 1243.4869 4293456127
45.216515 766.87872 1243.4869 4293653503
58.305504 766.87872 1243.4869 4293389567
42.671558 773.30573 1242.3658 4293325567
46.227524 773.30573 1242.3658 4293457151
49.783485 773.30573 1242.3658 4293522431
52.154129 773.30573 1242.3658 4293456127
55.710091 773.30573 1242.3658 4293521919
59.266056 773.30573 1242.3658 4293456127
40.300919 775.1181 1243.8939 4293127167
42.671558 775.1181 1243.8939 4293390079
46.227524 775.1181 1243.8939 4293521919
49.783485 775.1181 1243.8939 4293653503
52.154129 775.1181 1243.8939 4293587967
54.524769 775.1181 1243.8939 4293850879
59.266056 775.1181 1243.8939 4293258751
43.133945 758.17065 1247.9167 4292864767
50.322937 756.33862 1246.3721 4293391103
28.645872 764.63696 1246.8289 4292931583
31.033028 764.63696 1246.8289 4292799999
34.613762 764.63696 1246.8289 4292996351
38.194496 762.81195 1245.29 4293522431
40.58165 762.81195 1245.29 4293391103
42.968807 762.81195 1245.29 4293390079
34.903976 769.91107 1246.0438 4293390591
38.077065 769.60779 1245.7881 4293259007
40.456882 769.60779 1245.7881 4293587967
42.836697 768.69812 1245.021 4293719551
37.930275 776.93048 1245.4221 4293061375
40.300919 776.93048 1245.4221 4293061375
42.671558 776.93048 1245.4221 4293127423
46.227524 776.93048 1245.4221 4292930047
49.783485 776.93048 1245.4221 4293192959
52.154129 776.93048 1245.4221 4293258751
54.524769 776.93048 1245.4221 4293390079
59.266056 776.93048 1245.4221 4293390079
61.636696 776.93048 1245.4221 4293258751
64.007339 776.93048 1245.4221 4293521663
37.930275 778.74286 1246.9502 4293588735
40.300919 778.74286 1246.9502 4293259519
42.671558 778.74286 1246.9502 4293456127
46.227524 778.74286 1246.9502 4293390335
49.783485 778.74286 1246.9502 4293455871
52.154129 778.74286 1246.9502 4293192959
54.524769 778.74286 1246.9502 4293258751
59.266056 778.74286 1246.9502 4293521919
61.636696 778.74286 1246.9502 4293521919
64.007339 778.74286 1246.9502 4293653503
66.377983 778.74286 1246.9502 4293192959
45.704586 753.51538 1250.5317 4293325567
48.110092 753.51538 1250.5317 4293522431
28.755962 760.00269 1249.4614 4293521919
31.152294 760.00269 1249.4614 4293061375
34.746788 760.00269 1249.4614 4293062143
31.033028 766.46198 1248.3677 4293259519
33.420185 766.46198 1248.3677 4293324799
26.258715 768.28693 1249.9064 4284385727
28.645872 768.28693 1249.9064 4287995886
31.033028 768.28693 1249.9064 4292601343
34.507339 772.33691 1248.0891 4293456639
38.077065 772.33691 1248.0891 4293455871
57.115597 772.33691 1248.0891 4293456127
30.937614 774.15625 1249.6232 4287474673
34.507339 774.15625 1249.6232 4290959103
57.115597 774.15625 1249.6232 4293456127
37.930275 780.55524 1248.4784 4293128447
40.300919 781.46143 1249.2424 4293325567
42.671558 781.46143 1249.2424 4293127423
46.227524 781.46143 1249.2424 4293193215
49.783485 781.46143 1249.2424 4293456383
52.154129 780.55524 1248.4784 4292930047
25.257797 755.35437 1252.0823 4289316089
28.866055 755.35437 1252.0823 4292733439
31.271559 755.35437 1252.0823 4292601855
33.677063 755.35437 1252.0823 4292536319
37.285324 755.35437 1252.0823 4293193983
40.893578 755.35437 1252.0823 4293259775
26.46055 757.19342 1253.6329 4292801023
26.359632 761.83472 1251.0061 4292996095
26.359632 763.66675 1252.5509 4291156722
28.755962 763.66675 1252.5509 4292469759
26.258715 770.11194 1251.4452 4284251829
28.645872 770.11194 1251.4452 4285697489
31.033028 770.11194 1251.4452 4291026943
28.645872 771.93695 1252.984 4285171918
30.937614 775.97565 1251.1572 4286224088
34.507339 775.97565 1251.1572 4289185016
57.115597 775.97565 1251.1572 4293390079
30.937614 777.79504 1252.6913 4285433540
34.507339 777.79504 1252.6913 4286887652
54.735779 777.79504 1252.6913 4292864255
58.305504 777.79504 1252.6913 4293192703
61.875229 777.79504 1252.6913 4293390079
64.255043 777.79504 1252.6913 4293390079
66.634865 777.79504 1252.6913 4293061631
24.055046 759.95197 1255.9589 4288326104
23.963303 766.41473 1254.8679 4283924148
28.645872 773.76196 1254.5228 4285763537
28.645872 775.58698 1256.0615 4286420435
34.507339 779.61444 1254.2253 4286952163
38.077065 779.61444 1254.2253 4293456895
52.355965 779.61444 1254.2253 4293192959
54.735779 779.61444 1254.2253 4293192959
58.305504 779.61444 1254.2253 4293258751
61.875229 779.61444 1254.2253 4293456127
38.077065 781.43384 1255.7594 4293850367
40.456882 781.43384 1255.7594 4293653247
42.836697 781.43384 1255.7594 4293061631
46.406422 781.43384 1255.7594 4292798463
49.976147 781.43384 1255.7594 4293192959
52.355965 781.43384 1255.7594 4293192703
54.735779 781.43384 1255.7594 4293192703
16.902752 754.38422 1257.8043 4284642480
19.31743 754.38422 1257.8043 4283592368
21.732111 754.38422 1257.8043 4285697743
24.14679 754.38422 1257.8043 4287932671
16.902752 756.23022 1259.361 4283594918
19.244038 763.63 1259.0601 4283788715
21.649542 763.63 1259.0601 4285039038
23.963303 770.07874 1257.9574 4284578486
26.359632 770.07874 1257.9574 4285828297
31.033028 778.32446 1258.3698 4285170623
34.613762 779.23694 1259.1392 4287608798
58.485321 779.23694 1259.1392 4293127423
62.066055 779.23694 1259.1392 4293192959
64.453209 778.32446 1258.3698 4293521663
66.84037 777.41199 1257.6003 4293521919
35.697247 783.25323 1257.2935 4292015103
38.077065 784.16296 1258.0605 4293916159
40.456882 784.16296 1258.0605 4293389823
42.836697 784.16296 1258.0605 4292929791
46.406425 784.1629 1258.0605 4293127423
49.976147 784.16296 1258.0605 4293390335
52.355965 785.07263 1258.8275 4293258751
54.735779 785.07263 1258.8275 4293390079
58.305504 785.07263 1258.8275 4293127423
61.875229 785.07263 1258.8275 4293258751
64.255043 785.07263 1258.8275 4293390079
14.488073 758.07629 1260.9175 4280370541
16.902752 758.07629 1260.9175 4283199640
19.31743 758.07629 1260.9175 4284380587
21.732111 758.07629 1260.9175 4286222791
13.280734 759.92236 1262.474 4280827243
16.902752 759.92236 1262.474 4283459989
19.244038 766.38855 1261.3861 4284314544
21.649542 766.38855 1261.3861 4284775095
19.244038 768.2276 1262.9366 4285234864
21.649542 768.2276 1262.9366 4284905899
26.359632 772.82678 1260.2744 4286354381
26.359632 774.65881 1261.8191 4286224328
28.755962 774.65881 1261.8191 4286683607
28.645872 781.97449 1261.4474 4285369019
31.033028 781.97449 1261.4474 4285105591
34.2159 782.27863 1261.7039 4289313258
52.517429 781.06195 1260.678 4293390079
54.904587 781.06195 1260.678 4293390079
58.485321 781.06195 1260.678 4293324287
62.066055 781.06195 1260.678 4293258751
64.453209 781.06195 1260.678 4293258751
38.077065 786.89203 1260.3616 4293521663
40.456882 786.89203 1260.3616 4293061119
42.836697 786.89203 1260.3616 4292864767
46.406425 787.80176 1261.1287 4293128191
49.976147 787.80176 1261.1287 4293325567
52.355965 787.80176 1261.1287 4293587967
54.735779 787.80176 1261.1287 4293587967
58.702137 788.10498 1261.3843 4293258751
61.875229 786.89203 1260.3616 4293192959
12.927218 754.04565 1264.0591 4281157237
13.280734 761.76837 1264.0305 4280892007
16.902752 761.76837 1264.0305 4283262357
14.488073 763.61444 1265.587 4281681781
16.902752 763.61444 1265.587 4284445087
19.244038 770.06665 1264.4873 4284512175
21.649542 770.06665 1264.4873 4284249003
24.055046 770.06665 1264.4873 4283985833
26.359632 776.49084 1263.3638 4287013329
28.755962 776.49084 1263.3638 4286947032
23.963303 778.32281 1264.9086 4284447397
26.359632 778.32281 1264.9086 4287408082
28.645872 784.71198 1263.7555 4283394723
34.613762 784.71198 1263.7555 4292008703
57.291744 784.71198 1263.7555 4293258751
38.194496 786.53699 1265.2943 4292996607
40.58165 786.53699 1265.2943 4292798975
42.968807 786.53699 1265.2943 4292864767
49.976147 790.53076 1263.4297 4293719295
52.355965 790.53076 1263.4297 4293587967
54.735779 790.53076 1263.4297 4293587967
52.355965 792.35016 1264.9637 4292995071
7.2715597 758.98718 1268.2257 4281744476
9.6954126 758.06067 1267.4445 4281220200
9.6587152 767.30652 1268.7001 4280233039
13.280735 766.38348 1267.9219 4282535545
16.902752 766.38348 1267.9219 4285562284
16.838531 773.74469 1267.5885 4284574622
19.244038 772.8252 1266.8132 4284116393
21.649542 772.8252 1266.8132 4284445357
24.055046 772.8252 1266.8132 4284447660
14.377981 781.98688 1267.9979 4284576920
16.774311 781.98688 1267.9979 4284708507
19.170643 781.98688 1267.9979 4284643234
22.765137 781.07086 1267.2256 4283985825
26.359632 781.07086 1267.2256 4284052649
31.152294 781.98688 1267.9979 4288132075
38.194496 788.36194 1266.8331 4293061631
40.58165 788.36194 1266.8331 4292864255
42.968807 788.36194 1266.8331 4292930559
46.549541 788.36194 1266.8331 4293325055
42.968807 790.18695 1268.3719 4293193471
46.549541 790.18695 1268.3719 4293259007
50.130276 790.18695 1268.3719 4293061631
45.216515 795.98895 1268.0319 4293127423
9.6954126 760.84021 1269.7881 4281547876
12.119267 760.84021 1269.7881 4281416547
0 762.6933 1271.3506 4281352560
9.6954126 762.6933 1271.3506 4281087327
9.6587152 770.07556 1271.0349 4280693836
13.280734 770.07556 1271.0349 4282864759
16.902752 769.15259 1270.2567 4285299109
13.230275 775.58368 1269.1392 4283127938
16.838531 775.58368 1269.1392 4284379042
19.244038 775.58368 1269.1392 4284312999
21.649542 775.58368 1269.1392 4284312999
9.6220188 777.42273 1270.6898 4282206301
13.230275 777.42273 1270.6898 4283721350
16.838531 777.42273 1270.6898 4284183709
19.244038 777.42273 1270.6898 4284379553
7.1889906 785.65088 1271.0874 4282534510
11.182874 785.04022 1270.5724 4283588226
14.377981 784.73486 1270.3149 4284379295
16.774311 784.73486 1270.3149 4284905896
19.170643 784.73486 1270.3149 4284839595
22.765137 784.73486 1270.3149 4284314771
26.359632 784.73486 1270.3149 4285368721
28.755962 784.73486 1270.3149 4288915666
31.152294 784.73486 1270.3149 4292731389
34.746788 784.73486 1270.3149 4293651967
11.93578 793.83698 1271.4495 4282142312
14.322936 793.83698 1271.4495 4283191127
40.58165 792.92444 1270.6802 4293258495
42.968807 792.92444 1270.6802 4293259263
46.549541 792.01196 1269.9108 4293324543
0 757.51123 1274.8293 4280960104
7.3045874 757.51123 1274.8293 4281548128
7.2715597 764.54633 1272.913 4281416545
0 766.39941 1274.4755 4281220978
7.2715597 766.39941 1274.4755 4281218911
7.2440367 772.8446 1273.3698 4281284455
9.6587152 772.8446 1273.3698 4281285210
4.8293576 774.69067 1274.9263 4280955742
7.2440367 774.69067 1274.9263 4281613671
4.8110094 779.26178 1272.2404 4280893029
7.2165136 779.26178 1272.2404 4281682544
9.6220188 779.26178 1272.2404 4282468967
12.027523 779.26178 1272.2404 4284179584
0 781.10083 1273.791 4281153120
4.8110094 781.10083 1273.791 4282402920
7.2165136 781.10083 1273.791 4282205797
9.6220188 781.10083 1273.791 4282731371
7.1889906 787.48291 1272.6321 4282796653
10.783486 787.48291 1272.6321 4283454844
14.377981 787.48291 1272.6321 4283721362
16.774311 787.48291 1272.6321 4283326604
19.170643 787.48291 1272.6321 4282144109
22.765137 787.48291 1272.6321 4287140015
26.359632 787.48291 1272.6321 4292266993
28.755962 787.48291 1272.6321 4294044671
31.152294 787.48291 1272.6321 4293781759
34.746788 787.48291 1272.6321 4293323519
38.341286 787.48291 1272.6321 4293061631
40.737614 787.48291 1272.6321 4293127423
-2.3963304 789.31494 1274.1768 4282601066
0 789.31494 1274.1768 4282731621
4.7926607 789.31494 1274.1768 4282994800
7.1889906 789.31494 1274.1768 4282929007
10.783486 789.31494 1274.1768 4282733186
14.377981 789.31494 1274.1768 4283324807
16.774311 789.31494 1274.1768 4282469498
19.170643 789.31494 1274.1768 4285296226
22.765137 789.31494 1274.1768 4290822352
26.359632 789.31494 1274.1768 4294242815
28.755962 789.31494 1274.1768 4293980159
31.152294 789.31494 1274.1768 4293322239
34.746788 789.31494 1274.1768 4293126143
38.341286 789.31494 1274.1768 4293061119
0 797.48694 1274.5271 4282668158
40.58165 796.57446 1273.7577 4293061631
42.968807 795.66199 1272.9883 4293127423
-4.8697248 760.30341 1277.1836 4282537842
-2.4348624 760.30341 1277.1836 4282340463
1.6232415 760.61359 1277.4452 4280695916
4.8697248 760.30341 1277.1836 4281482341
7.3045874 759.37268 1276.3989 4281350502
0 770.10547 1277.6003 4281416547
4.8477063 770.10547 1277.6003 4281087075
7.2715597 768.25244 1276.038 4281349470
1.2073394 776.53674 1276.4828 4280824155
1.2027524 782.93982 1275.3417 4281876841
4.8110094 782.93982 1275.3417 4282468717
-2.4055047 784.77881 1276.8922 4281745507
1.2027524 784.77881 1276.8922 4282074722
4.8110094 784.77881 1276.8922 4282796653
-2.3963304 791.14691 1275.7214 4282731371
0 791.14691 1275.7214 4282731373
4.7926607 791.14691 1275.7214 4282732918
7.1889906 791.14691 1275.7214 4282338160
9.5853214 791.14691 1275.7214 4282142312
16.774311 791.14691 1275.7214 4287336086
19.170643 791.14691 1275.7214 4291213782
22.765137 791.14691 1275.7214 4293781244
26.359632 791.14691 1275.7214 4293585663
28.755962 791.14691 1275.7214 4293061119
34.746788 791.14691 1275.7214 4293060095
38.341286 791.14691 1275.7214 4292929279
-4.7926607 792.97894 1277.2662 4282468463
-2.3963304 792.97894 1277.2662 4282468463
0 792.97894 1277.2662 4282272889
4.7926607 792.97894 1277.2662 4282996344
7.1889906 792.97894 1277.2662 4282667123
10.783486 792.97894 1277.2662 4283389290
14.377981 792.97894 1277.2662 4287335545
16.774311 792.97894 1277.2662 4291283126
19.170643 792.97894 1277.2662 4293124607
22.765137 792.97894 1277.2662 4293980415
26.359632 792.97894 1277.2662 4293454591
28.755962 792.97894 1277.2662 4293061631
34.746788 792.97894 1277.2662 4293126911
38.341286 792.97894 1277.2662 4293061119
28.645872 801.13696 1277.6047 4292470527
-7.3321099 754.737 1279.0303 4282337897
-4.8880734 754.737 1279.0303 4282866294
-2.4440367 754.737 1279.0303 4282339693
2.4440367 754.737 1279.0303 4280762726
4.8880734 754.737 1279.0303 4281416799
-7.3321099 756.60547 1280.6058 4282537590
-4.8697248 763.09564 1279.538 4282930801
-2.4348624 763.09564 1279.538 4282733422
2.4348624 763.09564 1279.538 4280957806
4.8697248 763.09564 1279.538 4281547876
-4.8477063 773.81165 1280.7252 4281217630
-2.4238532 773.81165 1280.7252 4281349216
1.2119266 771.95856 1279.1628 4280955741
-2.4146788 778.38275 1278.0393 4281481054
2.4146788 778.38275 1278.0393 4281679464
-4.8293576 780.22882 1279.5958 4281349466
-2.4146788 780.22882 1279.5958 4281547102
-9.6220188 788.45691 1279.9935 4281481306
-7.2165136 788.45691 1279.9935 4282007651
-4.8110094 787.53735 1279.2183 4282271589
2.4055047 787.53735 1279.2183 4282797418
31.271559 788.45691 1279.9935 4292929279
-4.7926607 794.81097 1278.8109 4282336876
-2.3963304 794.81097 1278.8109 4282929014
2.3963304 794.81097 1278.8109 4282404987
4.7926607 794.81097 1278.8109 4282405222
7.1889906 794.81097 1278.8109 4282471015
10.783486 794.81097 1278.8109 4286939779
14.377981 794.81097 1278.8109 4292137192
16.774311 794.81097 1278.8109 4293518845
19.170643 794.81097 1278.8109 4293652479
22.765137 794.81097 1278.8109 4293126655
26.359632 794.81097 1278.8109 4293061375
28.755962 794.81097 1278.8109 4292799743
35.944954 794.81097 1278.8109 4292667903
38.341286 794.81097 1278.8109 4292798975
-7.1889906 796.64294 1280.3556 4282730860
-4.7926607 796.64294 1280.3556 4282796664
-2.3963304 796.64294 1280.3556 4283125629
0 796.64294 1280.3556 4282996354
7.1889906 796.64294 1280.3556 4284704872
10.783486 796.64294 1280.3556 4290754996
14.377981 796.64294 1280.3556 4293322495
19.170643 796.64294 1280.3556 4293389823
22.765137 796.64294 1280.3556 4292929535
26.359632 796.64294 1280.3556 4293259007
28.755962 796.64294 1280.3556 4293193471
31.152294 796.64294 1280.3556 4293325055
33.548622 796.64294 1280.3556 4293061631
26.258715 802.96198 1279.1434 4293259007
-7.3321099 758.474 1282.1813 4282472310
-7.3321099 760.34247 1283.7567 4283063164
-4.8697248 764.95709 1281.1075 4282404720
-2.4348624 764.95709 1281.1075 4282207342
1.2174312 764.95709 1281.1075 4280958058
4.8697248 764.95709 1281.1075 4281546850
-7.3045874 766.8186 1282.6771 4282797666
-4.8697248 766.8186 1282.6771 4282402920
-2.4348624 766.8186 1282.6771 4281547867
2.4348624 766.8186 1282.6771 4280758360
-14.543119 775.66467 1282.2877 4281610591
-7.2715597 775.66467 1282.2877 4281415511
-4.8477063 775.66467 1282.2877 4281349468
-16.966972 777.5177 1283.8501 4281348201
-14.543119 777.5177 1283.8501 4280955742
-9.6954126 777.5177 1283.8501 4280955977
-7.2715597 777.5177 1283.8501 4281021771
-9.6587152 782.07483 1281.1523 4280891218
-4.8293576 782.07483 1281.1523 4281153370
-9.6587152 783.9209 1282.709 4280955996
-7.2440367 783.9209 1282.709 4281087325
-9.6220188 790.2959 1281.5442 4282140765
-7.2165136 790.2959 1281.5442 4282338401
2.4055047 790.2959 1281.5442 4282404218
31.271559 790.2959 1281.5442 4293127423
-12.027523 792.13495 1283.0947 4282336867
-9.6220188 792.13495 1283.0947 4282402920
-7.2165136 792.13495 1283.0947 4282468969
31.271559 792.13495 1283.0947 4292997119
33.677063 792.13495 1283.0947 4292667903
-9.5853214 800.30701 1283.4451 4282862457
-7.1889906 799.39099 1282.6726 4282862197
-4.7926607 799.39099 1282.6726 4282732649
-2.3963304 799.39099 1282.6726 4282535270
0 799.39099 1282.6726 4282865243
9.5853214 798.47498 1281.9003 4292991484
22.765137 799.39099 1282.6726 4292798719
26.359632 798.47498 1281.9003 4292930559
-9.7761469 764.07947 1286.9076 4283258217
-7.3321099 762.21094 1285.3322 4283325307
-9.7394495 770.5415 1285.8162 4281087075
-7.3045874 769.61078 1285.0314 4280825442
-4.8697248 768.68005 1284.2466 4281087327
-2.4348624 768.68005 1284.2466 4281218913
-13.331193 779.37079 1285.4126 4281087579
-7.2715597 779.37079 1285.4126 4280693839
-13.331193 781.22388 1286.9751 4281217880
-12.073395 785.76697 1284.2655 4281218130
-12.073395 787.61298 1285.822 4282008153
-12.027523 793.974 1284.6454 4282337899
-9.6220188 793.974 1284.6454 4282730860
2.4055047 793.974 1284.6454 4282535803
4.8110094 793.974 1284.6454 4283586135
16.838531 793.974 1284.6454 4293980159
-12.027523 795.81299 1286.196 4282664813
-9.6220188 795.81299 1286.196 4282730608
2.4055047 795.81299 1286.196 4282538090
4.8110094 795.81299 1286.196 4286017133
7.2165136 795.81299 1286.196 4290556850
13.230275 795.81299 1286.196 4293256191
16.838531 795.81299 1286.196 4293191679
19.244038 795.81299 1286.196 4292272895
-7.1889906 802.13904 1284.9897 4282731373
-4.7926607 802.13904 1284.9897 4281881430
-2.3963304 802.13904 1284.9897 4283855219
0 803.05505 1285.7621 4289045168
-9.7761469 765.94794 1288.4832 4280695651
-12.174312 772.40302 1287.3857 4281610591
-9.7394495 772.40302 1287.3857 4281349718
-12.174312 774.26447 1288.9552 4280955742
-16.966972 783.0769 1288.5375 4281217882
-14.543119 783.0769 1288.5375 4281021007
-14.488073 791.30505 1288.9351 4281877348
-12.027523 797.65204 1287.7466 4282862457
2.4055047 797.65204 1287.7466 4285954933
4.8110094 797.65204 1287.7466 4289767849
7.2165136 797.65204 1287.7466 4293386464
9.6220188 797.65204 1287.7466 4293650943
13.230275 797.65204 1287.7466 4293256959
19.244038 797.65204 1287.7466 4293061119
-12.027523 799.49109 1289.2972 4283191672
-9.6220188 799.49109 1289.2972 4282797166
2.4055047 799.49109 1289.2972 4291216079
4.8110094 799.49109 1289.2972 4293124089
7.2165136 799.49109 1289.2972 4293255675
9.6220188 799.49109 1289.2972 4292994815
14.433027 799.49109 1289.2972 4292469759
19.244038 799.49109 1289.2972 4292929023
21.649542 799.49109 1289.2972 4292797695
24.055046 799.49109 1289.2972 4292469759
-12.220183 767.81641 1290.0586 4280891761
-24.348623 776.12592 1290.5248 4280956248
-21.913761 776.12592 1290.5248 4281153370
-19.478899 776.12592 1290.5248 4281218911
-17.044037 776.12592 1290.5248 4280955996
-24.348623 777.98743 1292.0944 4281086801
-21.913761 777.98743 1292.0944 4281218130
-19.478899 777.98743 1292.0944 4281283675
-17.044037 777.98743 1292.0944 4281283675
-14.543119 784.92993 1290.1 4281416015
-14.543119 786.78302 1291.6624 4281810267
-14.488073 794.0741 1291.2698 4282599024
16.902752 794.99713 1292.0481 4293060863
-12.027523 802.24963 1291.6232 4282929005
-9.6220188 802.24963 1291.6232 4282339679
-7.2165136 802.24963 1291.6232 4283129196
-4.8110094 802.24963 1291.6232 4286610574
-2.4055047 802.24963 1291.6232 4289571259
1.2027524 802.24963 1291.6232 4293584380
19.244038 801.33008 1290.8479 4292732415
21.649542 802.24963 1291.6232 4292601343
-24.348623 779.84888 1293.6639 4281676886
-21.913761 779.84888 1293.6639 4281676886
-19.478899 779.84888 1293.6639 4281349468
-21.913761 781.71033 1295.2334 4281610837
-19.478899 781.71033 1295.2334 4281349466
-17.044037 781.71033 1295.2334 4281217880
-16.902752 796.8432 1293.6047 4282273902
-14.488073 796.8432 1293.6047 4283191672
12.073395 796.8432 1293.6047 4292731903
16.902752 796.8432 1293.6047 4292601599
-16.902752 798.68921 1295.1613 4282862457
-14.488073 798.68921 1295.1613 4283323510
4.8293576 798.68921 1295.1613 4293849087
7.2440367 798.68921 1295.1613 4293322751
9.6587152 798.68921 1295.1613 4292666623
13.280734 798.68921 1295.1613 4292535295
16.902752 798.68921 1295.1613 4292535551
-12.829358 805.62115 1294.4659 4284048231
-9.6220188 805.92767 1294.7244 4287794317
-7.2165136 805.92767 1294.7244 4290688953
-4.8110094 805.92767 1294.7244 4292663032
-2.4055047 805.92767 1294.7244 4293715711
0 805.92767 1294.7244 4293059839
-26.884403 775.29034 1296.3604 4281218132
-26.884403 777.15887 1297.9358 4281808220
-24.348623 784.50256 1297.5878 4281349466
-21.913761 784.50256 1297.5878 4281217880
-19.478899 784.50256 1297.5878 4281152604
-17.044037 784.50256 1297.5878 4281613155
-21.814678 794.19525 1297.9122 4282076773
-19.390825 793.26868 1297.131 4282207078
-21.732111 800.53528 1296.7178 4282470511
-16.902752 800.53528 1296.7178 4282994548
-14.488073 800.53528 1296.7178 4283126381
2.4146788 800.53528 1296.7178 4293518079
4.8293576 800.53528 1296.7178 4292731647
7.2440367 800.53528 1296.7178 4292731647
16.902752 800.53528 1296.7178 4292601599
19.31743 800.53528 1296.7178 4292272895
-21.732111 802.38135 1298.2743 4283323510
-16.902752 802.38135 1298.2743 4282799215
2.4146788 802.38135 1298.2743 4292796415
-26.985321 770.71783 1299.0452 4280890199
-25.662384 779.02734 1299.5114 4281480023
-26.884403 780.89581 1301.0868 4281415261
-24.348623 787.2948 1299.942 4281087577
-21.913761 787.2948 1299.942 4281548128
-19.478899 787.2948 1299.942 4282139232
-17.044037 787.2948 1299.942 4282205025
-25.566055 789.15625 1301.5116 4281547864
-21.913761 789.15625 1301.5116 4282338149
-17.044037 789.15625 1301.5116 4282337376
-33.933945 797.90137 1301.0371 4281679964
-25.046484 797.28369 1300.5162 4282207591
-21.814678 796.04828 1299.4746 4281945190
-19.390825 796.97485 1300.2559 4282731123
9.6954126 797.90137 1301.0371 4292338943
13.331193 797.90137 1301.0371 4292404223
-21.732111 804.22736 1299.8308 4283652223
-19.31743 804.22736 1299.8308 4282668910
-16.902752 805.15039 1300.6091 4282601829
-13.683181 805.45801 1300.8685 4286480231
-9.6587152 806.07336 1301.3873 4292333301
-7.2440367 806.07336 1301.3873 4293912319
-4.8293576 806.07336 1301.3873 4293256703
-2.4146788 806.07336 1301.3873 4293256703
0 806.07336 1301.3873 4292600575
-29.548624 769.89636 1304.8926 4281349718
-29.438532 775.40662 1302.9985 4281480282
-26.884403 782.76428 1302.6622 4281285210
-29.32844 784.63281 1304.2377 4281349718
-26.884403 784.63281 1304.2377 4281349718
-25.566055 791.0177 1303.0812 4282009954
-34.088074 792.87921 1304.6508 4281350750
-31.653212 792.87921 1304.6508 4281548128
-29.218349 792.87921 1304.6508 4281745759
-26.783485 792.87921 1304.6508 4282272104
-33.933945 799.75439 1302.5996 4282077275
-31.510092 799.75439 1302.5996 4282274654
-25.450459 799.75439 1302.5996 4282601325
-19.390825 799.75439 1302.5996 4283193973
4.8477063 799.75439 1302.5996 4292337407
7.2715597 799.75439 1302.5996 4292600575
16.966972 799.75439 1302.5996 4293127167
19.390825 799.75439 1302.5996 4292732671
-33.933945 801.60742 1304.162 4281880680
-31.510092 801.60742 1304.162 4282077802
-29.086239 801.60742 1304.162 4282470513
-25.450459 801.60742 1304.162 4282863989
2.4238532 801.60742 1304.162 4292468479
19.390825 801.60742 1304.162 4292469759
-9.6587152 808.84247 1303.7222 4293388031
-7.2440367 808.84247 1303.7222 4292927743
-4.8293576 807.91943 1302.9438 4292008703
0 808.84247 1303.7222 4292010239
-32.011009 771.77887 1306.4799 4281349718
-29.438532 778.21985 1305.3706 4281349468
-34.344955 780.09534 1306.952 4281415513
-31.891743 780.09534 1306.952 4281349720
-29.438532 780.09534 1306.952 4281219161
-34.216515 788.36975 1307.3887 4281481306
-31.772476 787.43555 1306.6008 4281350235
-29.32844 787.43555 1306.6008 4281153105
-36.522934 794.74066 1306.2202 4281547876
-31.653212 794.74066 1306.2202 4281745757
-29.218349 794.74066 1306.2202 4282140767
-36.522934 796.60217 1307.7898 4281551206
-29.218349 796.60217 1307.7898 4282273641
9.7394495 796.60217 1307.7898 4292469759
13.391743 796.60217 1307.7898 4292469503
-31.510092 803.46051 1305.7245 4282536559
-29.086239 803.46051 1305.7245 4282994550
-25.450459 803.46051 1305.7245 4283060860
-21.814678 803.46051 1305.7245 4283127426
-19.390825 803.46051 1305.7245 4283455851
2.4238532 803.46051 1305.7245 4292798207
-33.933945 805.3136 1307.2869 4282273387
-31.510092 805.3136 1307.2869 4282668145
-29.086239 805.3136 1307.2869 4283125627
-25.450459 805.3136 1307.2869 4283192447
-21.814678 805.3136 1307.2869 4282403957
-19.390825 805.3136 1307.2869 4283389013
-16.966972 805.3136 1307.2869 4287139214
-13.331193 805.3136 1307.2869 4292001763
-2.4238532 805.3136 1307.2869 4292403455
2.4238532 805.3136 1307.2869 4292338943
-34.601833 769.08881 1310.7518 4281349718
-32.011009 773.66138 1308.0671 4280956248
-34.473396 775.54388 1309.6545 4281153370
-32.011009 775.54388 1309.6545 4281153370
-34.344955 781.97083 1308.5333 4281415513
-31.891743 781.97083 1308.5333 4281349720
-36.798164 783.84631 1310.1147 4281349466
-34.344955 783.84631 1310.1147 4281153370
-39.104588 790.23828 1308.9641 4280890203
-36.660549 790.23828 1308.9641 4281153118
-39.104588 792.10675 1310.5396 4280824154
-43.827522 800.32507 1310.9288 4281613923
-36.522934 799.39435 1310.144 4282011497
-34.088074 800.32507 1310.9288 4282404716
4.8697248 799.39435 1310.144 4292601087
7.3045874 798.46362 1309.3594 4292666367
14.609175 800.32507 1310.9288 4292666111
17.044037 798.46362 1309.3594 4292666623
-29.086239 809.01965 1310.4117 4282866303
-24.238533 809.01965 1310.4117 4283391856
-21.814678 808.09314 1309.6306 4285299096
-19.390825 808.09314 1309.6306 4289175984
-16.966972 808.09314 1309.6306 4291742167
-13.331193 808.09314 1309.6306 4292860927
-9.6954126 809.01965 1310.4117 4292272895
-7.2715597 809.01965 1310.4117 4292207103
-4.8477063 808.09314 1309.6306 4291877887
-2.4238532 808.09314 1309.6306 4292338431
0 809.01965 1310.4117 4291747583
-34.601833 770.97833 1312.3451 4280956248
-36.93578 779.3089 1312.8291 4281219163
-39.251377 785.7218 1311.6962 4281283673
-36.798164 785.7218 1311.6962 4281349466
-41.704586 787.59735 1313.2775 4281086803
-40.326607 793.97522 1312.115 4280891226
-43.992661 795.84375 1313.6904 4281349468
-40.326607 795.84375 1313.6904 4281680483
9.7761469 795.84375 1313.6904 4292469759
13.442202 795.84375 1313.6904 4292666879
-46.262386 802.18652 1312.4984 4281679716
-43.827522 802.18652 1312.4984 4281943141
-41.392662 802.18652 1312.4984 4282272106
-37.740364 802.18652 1312.4984 4282208109
4.8697248 802.18652 1312.4984 4292536831
7.3045874 802.18652 1312.4984 4292405247
12.174312 802.18652 1312.4984 4292272895
-21.814678 811.79932 1312.7554 4292333535
-19.390825 811.79932 1312.7554 4292927231
-16.966972 811.79932 1312.7554 4293058559
-13.331193 811.79926 1312.7554 4292403199
-9.6954126 811.79932 1312.7554 4292075519
-7.2715597 811.79932 1312.7554 4292141311
-4.8477063 811.79932 1312.7554 4292141055
-44.488075 774.75739 1315.5315 4281283925
-39.398167 781.19141 1314.4164 4281349466
-41.86055 783.07397 1316.0037 4281284177
-44.157799 791.34833 1316.4402 4281086299
-41.704586 789.47284 1314.8589 4280954708
-40.326607 797.71222 1315.2659 4281878631
7.3321099 797.71222 1315.2659 4292601599
9.7761469 797.71222 1315.2659 4292469759
12.220183 797.71222 1315.2659 4292535551
17.108257 797.71222 1315.2659 4292600063
9.7761469 799.58069 1316.8413 4292207103
-46.262386 804.97876 1314.8528 4282337389
-43.827522 804.97876 1314.8528 4282534251
-41.392662 804.97876 1314.8528 4282797423
-37.740364 804.97882 1314.8528 4282732147
-34.088074 804.97876 1314.8528 4282864755
-31.653212 804.97876 1314.8528 4283128183
-29.218349 804.04803 1314.068 4282931333
-25.971865 804.66852 1314.5912 4282668157
2.4348624 804.04803 1314.068 4292339199
-19.390825 814.57886 1315.0991 4292468223
-12.119267 814.57886 1315.0991 4292272895
-9.6954126 814.57886 1315.0991 4292141055
-7.2715597 814.57886 1315.0991 4292272895
-21.814678 816.43188 1316.6616 4292401919
-19.390825 816.43188 1316.6616 4291746047
-16.966972 816.43188 1316.6616 4292075007
-13.331193 816.43188 1316.6616 4292009471
-9.6954126 816.43188 1316.6616 4292074751
-21.732111 824.53381 1316.9528 4292403455
-46.959633 776.64697 1317.1246 4281415261
-39.544952 776.64697 1317.1246 4281153370
-42.016514 778.5365 1318.7179 4281023056
-58.656879 803.31769 1319.9923 4280695901
-56.212845 803.31769 1319.9923 4281288039
-52.546791 803.31769 1319.9923 4281616742
-48.880733 802.38342 1319.2046 4281942630
2.4440367 803.31769 1319.9923 4291747583
4.8880734 801.44922 1318.4169 4292470271
7.3321099 801.44922 1318.4169 4292602111
-58.436699 808.70172 1317.9918 4281679970
-56.001835 808.70172 1317.9918 4281877349
-51.132111 808.70172 1317.9918 4282533991
-48.697247 808.70172 1317.9918 4282599795
-46.262386 808.70172 1317.9918 4282731381
-43.827522 808.70172 1317.9918 4282862456
-41.392662 808.70172 1317.9918 4282928249
-37.740364 808.70172 1317.9918 4283520885
-34.088074 808.70172 1317.9918 4282931568
-31.653212 808.70172 1317.9918 4282536809
-29.218349 808.70172 1317.9918 4283718001
-25.566055 808.70172 1317.9918 4287993000
-2.4348624 808.70172 1317.9918 4292272895
0 807.771 1317.207 4292076287
-21.814678 818.28497 1318.224 4292271103
-19.390825 818.28497 1318.224 4291746303
-16.966972 818.28497 1318.224 4292272639
-13.331193 818.28497 1318.224 4292272895
-24.238533 820.13806 1319.7865 4292140543
-21.814678 820.13806 1319.7865 4292074751
-19.390825 820.13806 1319.7865 4291746303
-49.651375 773.45258 1322.2794 4281415261
-43.031193 772.81989 1321.746 4281153876
-49.431194 781.37079 1321.1077 4281284444
-46.959633 781.37079 1321.1077 4281284444
-44.488075 781.37079 1321.1077 4281284179
-49.247707 788.7215 1320.7655 4281415513
-46.78532 788.7215 1320.7655 4281415513
-49.247707 790.604 1322.3528 4281219165
-46.78532 790.604 1322.3528 4281284958
-49.06422 796.97485 1321.1843 4281153372
-51.517429 798.85034 1322.7657 4281087323
-53.768806 805.18616 1321.5677 4282337380
-60.871559 811.4939 1320.3462 4282338151
-58.436699 811.4939 1320.3462 4282468967
-56.001835 811.4939 1320.3462 4282600553
-52.349541 811.4939 1320.3462 4282796914
-48.697247 811.4939 1320.3462 4282928253
-46.262386 811.4939 1320.3462 4282862460
-43.827522 811.4939 1320.3462 4283191422
-41.392662 811.4939 1320.3462 4283125629
-37.740364 811.4939 1320.3462 4283063673
-34.088074 811.4939 1320.3462 4283917698
-31.653212 811.4939 1320.3462 4283917698
-29.218349 811.4939 1320.3462 4288255895
-25.566055 811.4939 1320.3462 4292400615
-21.913761 811.4939 1320.3462 4293190143
-17.044037 811.4939 1320.3462 4292534015
-14.609175 811.4939 1320.3462 4292207103
-60.871559 813.35541 1321.9156 4281879658
-58.436699 813.35541 1321.9156 4282076267
-56.001835 813.35541 1321.9156 4282273902
-52.349541 813.35541 1321.9156 4282862457
-48.697247 813.35541 1321.9156 4282928253
-46.262386 813.35541 1321.9156 4283388804
-43.827522 813.35541 1321.9156 4283783811
-41.392662 813.35541 1321.9156 4283718018
-37.740364 813.35541 1321.9156 4282341733
-34.088074 813.35541 1321.9156 4284507769
-31.653212 813.35541 1321.9156 4288981692
-29.218349 813.35541 1321.9156 4292005093
-25.566055 813.35541 1321.9156 4292861432
-24.238533 821.99109 1321.3489 4292403455
-24.238533 823.84412 1322.9114 4292600063
-57.099083 775.35052 1323.8798 4281153118
-54.616512 775.35052 1323.8798 4280825169
-52.133945 775.35052 1323.8798 4281088597
-49.651375 775.35052 1323.8798 4281416293
-47.168808 775.35052 1323.8798 4281218913
-44.686237 775.35052 1323.8798 4280957263
-57.099083 777.24847 1325.48 4281349468
-54.616512 777.24847 1325.48 4281088595
-52.133945 777.24847 1325.48 4281088595
-49.431194 784.20508 1323.4974 4281481306
-46.959633 784.20508 1323.4974 4281678429
-44.488075 784.20508 1323.4974 4281283673
-55.610092 786.0946 1325.0907 4281219415
-51.902752 786.0946 1325.0907 4281219415
-51.710091 794.36902 1325.5273 4281153370
-49.247707 792.48651 1323.9401 4281349468
-46.78532 792.48651 1323.9401 4281481054
4.9064221 800.72583 1324.3472 4291615999
7.359633 800.72583 1324.3472 4292076543
-63.544952 808.9231 1324.7186 4281877600
-53.768806 807.05463 1323.1432 4282665065
-60.871559 815.21686 1323.4852 4282337901
-58.436699 815.21686 1323.4852 4282796914
-56.001835 815.21686 1323.4852 4282928501
-52.349541 815.21686 1323.4852 4282862203
-48.697247 815.21686 1323.4852 4283323008
-46.262386 815.21686 1323.4852 4283651973
-37.740364 815.21686 1323.4852 4283982177
-34.088074 815.21686 1323.4852 4288716183
-31.653212 815.21686 1323.4852 4292400591
-29.218349 815.21686 1323.4852 4292927231
-25.566055 815.21686 1323.4852 4292796415
-48.697247 817.07837 1325.0548 4283388802
-46.262386 817.07837 1325.0548 4284046475
-37.740364 817.07837 1325.0548 4287663509
-34.088074 817.07837 1325.0548 4292596208
-31.653212 817.07837 1325.0548 4293056759
-29.218349 817.07837 1325.0548 4292730879
-26.783485 817.07837 1325.0548 4292402175
-57.310093 770.79059 1326.5751 4281153368
-54.818348 770.79059 1326.5751 4281022802
-52.326607 770.79059 1326.5751 4281088595
-62.293579 772.69556 1328.1813 4281547350
-59.801834 772.69556 1328.1813 4281350754
-58.340366 779.14642 1327.0803 4281349720
-54.616512 779.14642 1327.0803 4281153622
-52.133945 779.14642 1327.0803 4281153622
-64.546791 781.04437 1328.6807 4281481304
-62.06422 781.04437 1328.6807 4281415511
-58.340366 781.04437 1328.6807 4281219415
-54.616512 781.04437 1328.6807 4281219415
-52.133945 781.04437 1328.6807 4281219415
-61.78899 787.98413 1326.6838 4281219161
-55.610092 787.98413 1326.6838 4281153877
-51.902752 787.98413 1326.6838 4281153622
-55.610092 789.87366 1328.2771 4281153877
-51.902752 789.87366 1328.2771 4281219415
-55.403671 796.25153 1327.1146 4280957532
-63.544952 811.72583 1327.0819 4281944168
-43.992661 812.6601 1327.8696 4283983741
-41.548622 812.6601 1327.8696 4283457397
-34.088074 818.93982 1326.6244 4293453311
-31.653212 818.93982 1326.6244 4292926975
-29.218349 818.93982 1326.6244 4292270847
-26.783485 818.93982 1326.6244 4292205055
-29.218349 820.80127 1328.1938 4291942911
-26.783485 820.80127 1328.1938 4292140543
-57.521099 766.21667 1329.2587 4281153622
-55.020184 766.21667 1329.2587 4281219415
-61.272476 768.12866 1330.8708 4281219417
-67.277061 776.50549 1331.3937 4281940313
-64.785324 775.55298 1330.5906 4281612120
-62.293579 775.55298 1330.5906 4281677913
-59.801834 774.60052 1329.7875 4281349468
-67.029358 782.94232 1330.2809 4281481306
-64.546791 782.94232 1330.2809 4281415511
-62.06422 782.94232 1330.2809 4281415511
-59.58165 782.94232 1330.2809 4281219415
-67.029358 784.84027 1331.8812 4281548128
-64.546791 784.84027 1331.8812 4281285210
-59.58165 784.84027 1331.8812 4281088595
-55.610092 791.76318 1329.8702 4281153624
-59.317432 793.65271 1331.4635 4280630106
-66.236694 806.35229 1329.0912 4281416799
-61.100918 814.52856 1329.4451 4282797425
-58.656879 814.52856 1329.4451 4282928505
-56.212845 814.52856 1329.4451 4283191420
-52.546791 814.52856 1329.4451 4282864254
-43.992661 814.52856 1329.4451 4283195767
-41.548622 814.52856 1329.4451 4283064438
-61.100918 816.39709 1331.0205 4282928501
-58.656879 816.39709 1331.0205 4282994298
-56.212845 816.39709 1331.0205 4283323006
-52.546791 816.39709 1331.0205 4282995840
-48.880733 816.39709 1331.0205 4282995593
-46.436699 816.39709 1331.0205 4283456144
-43.992661 816.39709 1331.0205 4284440692
-40.326607 816.39709 1331.0205 4287400859
-36.660549 816.39709 1331.0205 4292926696
-57.774311 761.09351 1332.7871 4280891218
-55.262386 761.09351 1332.7871 4281154644
-67.277061 778.41046 1332.9999 4282071642
-67.029358 786.73822 1333.4816 4281284956
-64.546791 786.73822 1333.4816 4281285210
-62.06422 786.73822 1333.4816 4281285210
-59.58165 786.73822 1333.4816 4281088595
-66.236694 810.10333 1332.2539 4282206312
-63.783485 811.97882 1333.8353 4282534510
-61.100918 818.26556 1332.5959 4282928501
-56.212845 818.26556 1332.5959 4283586178
-48.880733 818.26556 1332.5959 4283127928
-46.436699 818.26556 1332.5959 4283720065
-43.992661 818.26556 1332.5959 4286214780
-40.326607 818.26556 1332.5959 4291280854
-36.660549 818.26556 1332.5959 4293123071
-34.216515 818.26556 1332.5959 4292599807
-31.772476 818.26556 1332.5959 4292205055
-46.436699 820.13403 1334.1714 4286678937
-43.992661 820.13403 1334.1714 4289965744
-40.326607 820.13403 1334.1714 4292992750
-36.660549 820.13403 1334.1714 4292664319
-34.216515 820.13403 1334.1714 4292008447
-31.772476 820.13403 1334.1714 4292337151
-29.32844 820.13403 1334.1714 4292140799
-26.884403 820.13403 1334.1714 4292337919
-60.50642 758.41748 1337.0709 4280693839
-66.236694 815.72986 1336.998 4283059573
-63.783485 814.79211 1336.2074 4282862964
-58.877064 815.72986 1336.998 4282994298
-52.744034 815.72986 1336.998 4282864756
-46.436699 822.00256 1335.7468 4290755278
-43.992661 822.93677 1336.5345 4292532984
-40.326607 822.00256 1335.7468 4292598779
-36.660549 822.00256 1335.7468 4292073471
-34.216515 822.00256 1335.7468 4291614463
-31.772476 822.93677 1336.5345 4292141055
-29.32844 822.00256 1335.7468 4292010239
-26.884403 822.00256 1335.7468 4292207359
-60.50642 760.34491 1338.696 4280956244
-69.203667 803.10034 1339.4294 4281745761
-66.732109 803.10034 1339.4294 4281877348
-66.484406 809.42914 1338.2256 4282534762
-66.484406 811.31165 1339.813 4282665578
-61.330276 817.60535 1338.5795 4282994550
-56.423855 817.60535 1338.5795 4283193219
-52.744034 817.60535 1338.5795 4283260012
-49.06422 817.60535 1338.5795 4284968320
-61.330276 819.48083 1340.1609 4283389056
-56.423855 819.48083 1340.1609 4282931835
-52.744034 819.48083 1340.1609 4282737517
-49.06422 819.48083 1340.1609 4287005077
-69.511925 798.12585 1343.0833 4281548128
-74.14679 805.93463 1341.8193 4281876828
-70.439453 805.93463 1341.8192 4282205796
-88.645874 814.13538 1342.1938 4281485163
-86.183487 815.07666 1342.9875 4281616236
-83.7211 814.13538 1342.1938 4281616746
-66.484406 815.07666 1342.9875 4283125629
-64.022018 815.07666 1342.9875 4283125879
-59.097248 815.07666 1342.9875 4282864254
-61.330276 821.35632 1341.7422 4283585924
-49.06422 821.35632 1341.7422 4289572546
-46.611008 821.35632 1341.7422 4292665074
-40.477982 821.35632 1341.7422 4292205311
-36.798164 821.35632 1341.7422 4292337919
-34.344955 821.35632 1341.7422 4292141311
-29.438532 821.35632 1341.7422 4291944447
-36.798164 823.23181 1343.3236 4291944959
-34.344955 823.23181 1343.3236 4292076031
-31.891743 823.23181 1343.3236 4292076031
-29.438532 823.23181 1343.3236 4291681791
-74.14679 808.76892 1344.2091 4282336867
-70.439453 808.76892 1344.2091 4282599784
-76.618347 810.65845 1345.8022 4282599272
-74.14679 810.65845 1345.8022 4282533476
-70.439453 810.65845 1345.8022 4282796396
-86.183487 818.84167 1346.1621 4282470009
-68.946793 817.90045 1345.3684 4282994039
-64.022018 817.90045 1345.3684 4283323007
-59.097248 817.90045 1345.3684 4282996857
-55.403671 818.84167 1346.1621 4284048759
-51.710091 818.84167 1346.1621 4286614416
-76.959633 803.8197 1347.8842 4281943393
-79.4422 805.71765 1349.4845 4282074722
-76.959633 805.71765 1349.4845 4282140515
-76.618347 812.54797 1347.3955 4282468969
-74.14679 812.54797 1347.3955 4282730860
-70.439453 812.54797 1347.3955 4282862451
-88.976151 814.4375 1348.9886 4282142064
-85.268806 814.4375 1348.9886 4282273392
-79.089905 814.4375 1348.9886 4282797166
-76.618347 814.4375 1348.9886 4282862959
-74.14679 814.4375 1348.9886 4282862961
-71.675232 814.4375 1348.9886 4282862961
-66.732109 814.4375 1348.9886 4283257465
-86.183487 820.72424 1347.7494 4282862707
-83.7211 820.72424 1347.7494 4283125875
-61.559631 820.72424 1347.7494 4283387505
-59.097248 820.72424 1347.7494 4283389283
-55.403671 820.72424 1347.7494 4287006876
-51.710091 820.72424 1347.7494 4291151069
-46.78532 820.72424 1347.7494 4292599036
-44.322937 820.72424 1347.7494 4291746047
-40.629356 820.72424 1347.7494 4291681279
-61.559631 822.60675 1349.3367 4283719022
-56.634861 822.60675 1349.3367 4288453284
-44.322937 822.60675 1349.3367 4292205055
-39.398167 822.60675 1349.3367 4292337663
-36.93578 822.60675 1349.3367 4292600831
-34.473396 822.60675 1349.3367 4292338687
-32.011009 822.60675 1349.3367 4292470015
-72.526604 792.98425 1351.8285 4281090909
-81.924774 808.56458 1351.885 4281748332
-79.4422 808.56458 1351.885 4282468455
-84.033028 816.32703 1350.5819 4282536307
-76.618347 816.32703 1350.5819 4282732918
-74.14679 817.27179 1351.3784 4283126131
-70.851379 817.58673 1351.6439 4283191411
-66.732109 817.27179 1351.3784 4283388795
-64.260551 818.21655 1352.175 4283848056
-49.431194 818.21655 1352.175 4292533243
-64.022018 824.48926 1350.924 4284048233
-61.559631 824.48926 1350.924 4286614416
-59.097248 824.48926 1350.924 4289832922
-55.403671 824.48926 1350.924 4292531198
-51.710091 824.48926 1350.924 4291479278
-34.473396 824.48926 1350.924 4291877887
-61.559631 826.37177 1352.5112 4290295992
-55.403671 826.37177 1352.5112 4292467194
-72.526604 794.89624 1353.4406 4281745757
-82.530273 796.80823 1355.0527 4281222245
-80.029358 796.80823 1355.0527 4281679714
-77.528442 796.80823 1355.0527 4281548128
-81.924774 811.4115 1354.2854 4282404720
-81.924774 813.30945 1355.8857 4282536307
-79.4422 813.30945 1355.8857 4282667125
-84.033028 820.10608 1353.7683 4282930297
-69.203667 820.10608 1353.7683 4283784311
-66.732109 821.05084 1354.5649 4283719547
-64.260551 820.10608 1353.7683 4284113524
-59.317432 820.10608 1353.7683 4285690234
-54.374313 820.10608 1353.7683 4290886628
-51.902752 820.10608 1353.7683 4293452287
-49.431194 821.05084 1354.5649 4291480049
-46.959633 821.05084 1354.5649 4291874809
-42.840366 821.36572 1354.8304 4292402172
-54.172478 828.25427 1354.0985 4284510401
-82.893578 791.8197 1358.6947 4281745761
-80.381653 791.8197 1358.6947 4281024862
-76.613762 790.8595 1357.885 4281090140
-82.530273 798.72021 1356.6648 4281616742
-81.924774 815.2074 1357.486 4282994546
-79.4422 815.2074 1357.486 4282798711
-76.959633 815.2074 1357.486 4282864504
-84.033028 823.88513 1356.9547 4283586176
-81.56147 823.88513 1356.9547 4283651969
-79.089905 823.88513 1356.9547 4283981174
-69.203667 823.88513 1356.9547 4283456142
-66.732109 823.88513 1356.9547 4284245657
-64.260551 823.88513 1356.9547 4287137928
-59.317432 823.88513 1356.9547 4291084543
-51.902752 823.88513 1356.9547 4289046983
-49.431194 823.88513 1356.9547 4288522171
-46.959633 823.88513 1356.9547 4289377479
-43.252296 823.88513 1356.9547 4291218659
-69.203667 825.77466 1358.5479 4286807721
-66.732109 825.77466 1358.5479 4289834198
-64.260551 825.77466 1358.5479 4291347176
-61.78899 825.77466 1358.5479 4291215590
-59.317432 825.77466 1358.5479 4289968376
-56.845871 825.77466 1358.5479 4286810312
-49.431194 825.77466 1358.5479 4279519861
-80.381653 795.66052 1361.9331 4282074722
-81.924774 817.10535 1359.0863 4282996346
-79.4422 817.10535 1359.0863 4283257463
-76.959633 817.10535 1359.0863 4282994548
-74.477066 817.10535 1359.0863 4282667125
-71.994499 817.10535 1359.0863 4282864504
-81.924774 819.0033 1360.6866 4283586428
-79.4422 819.0033 1360.6866 4283586680
-76.959633 819.0033 1360.6866 4283389558
-74.477066 819.0033 1360.6866 4282995840
-70.753212 819.0033 1360.6866 4283456641
-39.7211 819.0033 1360.6866 4292601343
-37.238533 819.0033 1360.6866 4292337919
-69.203667 827.66418 1360.1411 4288521169
-66.732109 827.66418 1360.1411 4290626801
-64.260551 827.66418 1360.1411 4290626047
-61.78899 827.66418 1360.1411 4289375992
-59.317432 827.66418 1360.1411 4287339709
-49.431194 827.66418 1360.1411 4282272135
-46.959633 827.66418 1360.1411 4284377255
-54.374313 829.55371 1361.7343 4282210185
-82.893578 797.58093 1363.5524 4281682535
-76.959633 820.90125 1362.2869 4284375932
-74.477066 820.90125 1362.2869 4283981969
-71.994499 820.90125 1362.2869 4283718798
-39.7211 820.90125 1362.2869 4292796671
-74.477066 822.79913 1363.8872 4284179067
-71.994499 822.79913 1363.8872 4284376703
