# .PCD v0.7 - Point Cloud Data file format
VERSION 0.7
FIELDS x y z rgb
SIZE 4 4 4 4
TYPE F F F U
COUNT 1 1 1 1
WIDTH 1166
HEIGHT 1
VIEWPOINT 0 0 0 1 0 0 0
POINTS 1166
DATA ascii
-46.581039 796.41974 817.12482 4281807427
-40.176147 796.64233 817.3125 4281348666
-19.21468 795.97467 816.74951 4281480271
-17.46789 795.97467 816.74951 4281742148
-13.100918 795.97467 816.74951 4281873986
-10.480734 795.97467 816.74951 4281546822
-7.8605504 795.97467 816.74951 4281349187
-4.075841 796.86493 817.50018 4281283137
-1.746789 796.64233 817.3125 4281414209
-45.902142 799.66168 817.24225 4281281852
-43.57798 799.43958 817.05499 4281281851
-41.253822 799.66168 817.24225 4280954427
-37.477066 799.43958 817.05493 4280954685
-33.990826 799.43958 817.05493 4281020729
-31.376146 799.43958 817.05499 4281282876
-28.761467 799.43958 817.05499 4281347900
-26.14679 800.1059 817.61682 4281872450
-19.174313 799.43958 817.05499 4281676103
-16.850153 799.21747 816.86768 4281414980
-13.073395 799.43958 817.05499 4281349439
-10.458715 799.43958 817.05499 4281414476
-7.8440366 799.43958 817.05499 4281348935
-4.3577981 800.1059 817.61682 4281414209
-1.7431192 800.1059 817.61682 4281610818
-48.807339 801.43854 818.74048 4281086271
-46.192661 801.43854 818.74048 4281086269
-43.57798 801.43854 818.74048 4280954681
-40.963303 801.43854 818.74048 4280823099
-37.477066 801.43854 818.74048 4280822843
-33.883484 803.62488 816.65979 4281413183
-31.277063 803.62488 816.65979 4281544769
-28.670643 803.62488 816.65979 4281610049
-25.195412 803.62488 816.65979 4281872451
-22.588991 803.62488 816.65979 4281938244
-20.012844 802.53174 817.70013 4281349187
-16.507339 803.62488 816.65979 4281283146
-13.051376 802.53174 817.70013 4281415232
-10.425688 803.62488 816.65979 4281480523
-7.8302751 802.53174 817.70013 4281349190
-4.3577981 801.43854 818.74048 4281479750
-1.7431192 801.43854 818.74048 4281544521
-45.177982 806.28174 818.90002 4281084470
-40.833946 806.28174 818.90002 4281150268
-37.358719 805.61755 818.33997 4281215804
-33.883484 805.61755 818.33997 4281413183
-31.277063 805.61755 818.33997 4281346888
-28.960245 805.39618 818.15332 4281412933
-24.905809 805.39618 818.15332 4281610305
-22.588991 806.28174 818.90002 4281610818
-19.692966 805.83893 818.52667 4281545032
-16.507339 805.61755 818.33997 4281414728
-13.03211 805.61755 818.33997 4281481025
-10.425688 805.61755 818.33997 4281414984
-7.8192654 805.61755 818.33997 4281414726
-4.3440366 806.28174 818.90002 4281217607
-1.7376146 806.28174 818.90002 4281217357
-36.374313 809.78381 817.92883 4281084470
-34.6422 809.78381 817.92883 4281543738
-28.291132 809.34247 817.55664 4281413183
-25.981651 809.1217 817.37054 4281544769
-19.053211 809.78381 817.92883 4281349186
-16.455046 809.78381 817.92883 4281415232
-13.856881 809.78381 817.92883 4281873734
59.6422 749.67847 820.87866 4294967295
103.92202 749.67847 820.87866 4294967295
106.63303 748.98761 820.29614 4294967295
108.44037 748.98761 820.29614 4294967295
23.423853 754.69977 821.18848 4289109713
25.225689 754.69977 821.18848 4288453829
45.946789 754.69977 821.18848 4287730106
48.64954 754.69977 821.18848 4287796415
59.460552 754.01099 820.60773 4291217126
61.262386 753.32227 820.02698 4292665081
67.56881 754.69977 821.18848 4290691799
70.271561 754.69977 821.18848 4293916159
90.992661 754.69977 821.18848 4294967295
23.352293 758.33099 820.32617 4278190162
46.704586 758.33099 820.32617 4278517833
55.686237 758.33099 820.32617 4278190158
59.2789 758.33099 820.32617 4278452295
61.07523 756.95764 819.16821 4290162898
67.362381 758.33099 820.32617 4278193207
71.85321 758.33099 820.32617 4292139511
73.649544 758.33099 820.32617 4294967295
79.038528 758.33099 820.32617 4294967295
89.816513 758.33099 820.32617 4294967295
91.612846 758.33099 820.32617 4294967295
23.280733 761.95374 819.45667 4278192687
26.046789 759.70428 821.48401 4278520106
28.653212 761.95374 819.45667 4279110176
30.537615 759.70428 821.48401 4280097327
46.704586 759.70428 821.48401 4279506233
49.247707 761.95374 819.45667 4279705143
52.829357 761.95374 819.45667 4278981677
55.515594 761.95374 819.45667 4279111221
58.289909 760.82898 820.47034 4278783025
61.783485 761.95374 819.45667 4279173425
67.15596 761.95374 819.45667 4278918465
73.423851 761.95374 819.45667 4294967295
76.34404 759.70428 821.48401 4294967295
79.691742 761.95374 819.45667 4294967295
89.816513 759.70428 821.48401 4294967295
91.332108 761.95374 819.45667 4294967295
94.307343 759.70428 821.48401 4294967295
17.871559 764.8197 819.25708 4280231214
19.658716 764.8197 819.25708 4281349438
22.339451 764.8197 819.25708 4281350220
25.966972 763.32288 820.61108 4281350220
28.653212 763.32288 820.61108 4281873734
31.339451 763.32288 820.61108 4281742402
34.921101 764.69196 821.7655 4282464333
41.188992 763.32288 820.61108 4282203730
43.875229 763.32288 820.61108 4282072146
46.466057 764.8197 819.25708 4282137937
49.14679 764.8197 819.25708 4282138702
52.7211 764.8197 819.25708 4282072654
55.515594 764.00745 821.18829 4282005841
58.201836 764.00739 821.18835 4282335575
61.997555 764.77716 820.09326 4284177277
64.469727 764.00745 821.18829 4285491847
67.086243 764.07129 819.93408 4283978858
70.592659 764.8197 819.25708 4292729326
73.273392 764.8197 819.25708 4294967295
76.110092 764.00745 821.18829 4294967295
79.691742 763.32288 820.61108 4294967295
82.377983 763.32288 820.61108 4294967295
84.765747 764.2356 821.38068 4294967295
91.332108 764.00745 821.18829 4294967295
17.871559 766.18604 820.40918 4280690214
19.658716 766.18604 820.40918 4281282351
23.233028 766.18604 820.40918 4281939527
25.913761 766.86914 820.98511 4280885815
28.594496 766.18604 820.40918 4281939277
30.977371 766.64142 820.79315 4281280573
34.849541 767.55231 821.56116 4280424494
37.530273 766.86914 820.98517 4281674562
40.508869 766.64142 820.79315 4282070338
43.78532 766.86914 820.98511 4281609793
46.466057 766.86914 820.98517 4281610301
49.14679 766.86914 820.98511 4281675588
52.7211 766.86914 820.98511 4281478216
55.401836 767.55231 821.56116 4280886085
58.976147 767.55231 821.56116 4282926174
61.35902 767.09686 821.17719 4282798453
67.018349 766.86914 820.98511 4283914360
71.486237 766.86914 820.98517 4294967295
73.273392 766.86914 820.98517 4294967295
75.656273 767.09686 821.17719 4294967295
79.528442 766.86914 820.98517 4294967295
82.804893 767.09686 821.17719 4294967295
13.362385 769.78912 819.52319 4279375658
16.925688 769.78912 819.52319 4279440929
19.598166 769.78912 819.52319 4279505184
22.270641 769.78912 819.52319 4279635230
28.506422 769.78912 819.52319 4280029735
32.069725 769.78912 819.52319 4280358444
39.196331 769.78912 819.52319 4280951349
69.484406 769.78912 819.52319 4293649919
13.659328 771.60529 821.05444 4278585369
16.925688 771.83228 821.24585 4278782487
19.598166 771.15125 820.67163 4278847511
22.270641 771.15125 820.67163 4278716440
25.833946 771.15125 820.67163 4278716440
31.178898 771.15125 820.67163 4279636003
34.742203 771.15125 820.67163 4279831595
37.41468 771.15125 820.67163 4278911011
40.087158 771.83228 821.24585 4279502383
43.353516 772.05927 821.43726 4279503643
49.886238 771.15125 820.67163 4280556870
53.449543 772.51331 821.82007 4280689215
55.231194 772.51331 821.82007 4280886337
58.794495 772.51331 821.82007 4282135879
61.466972 772.51331 821.82007 4282529113
65.030273 772.51331 821.82007 4281478728
67.702751 772.51331 821.82007 4281212501
70.078285 772.05927 821.43726 4289766093
73.938538 772.51331 821.82007 4290225357
13.3211 775.42065 820.34735 4278190091
16.873394 776.09961 820.9198 4278190089
19.537615 775.42065 820.34735 4278190092
22.201834 775.42065 820.34735 4278386697
25.754129 775.42065 820.34735 4278190087
28.418348 775.42065 820.34735 4278190085
31.082569 775.42065 820.34741 4278452495
34.634861 775.42065 820.34741 4278518294
37.299084 775.42065 820.34735 4278783004
39.963303 776.09961 820.9198 4280031532
42.627522 776.09961 820.9198 4279898931
58.612843 776.09961 820.9198 4281674826
61.277065 776.09961 820.9198 4281871949
63.941284 776.09961 820.9198 4281149514
69.269722 776.09961 820.9198 4280030276
-58.491745 778.93744 820.69666 4282532418
10.634862 777.5824 819.55408 4279439391
12.407339 778.25989 820.12537 4279374879
28.359632 778.93744 820.69666 4280693562
31.904587 778.93744 820.69666 4281414980
34.563301 778.93744 820.69666 4281086269
38.108257 778.93744 820.69666 4281546047
56.719265 778.93744 820.69666 4281477693
58.491745 778.93744 820.69666 4281609535
62.036697 778.93744 820.69666 4282068033
63.809174 778.93744 820.69666 4281346886
-60.077065 782.5083 819.78345 4280162825
0 782.5083 819.78345 4281084972
4.4174314 782.5083 819.78345 4281742400
7.951376 782.5083 819.78345 4281216558
10.601835 782.5083 819.78345 4281084470
13.293577 780.29254 821.83923 4281413181
19.497248 780.29254 821.83923 4281939527
22.155964 780.29254 821.83923 4281349443
25.700916 780.29254 821.83923 4281348685
28.359632 780.29254 821.83923 4281348939
31.018349 780.29254 821.83923 4281347915
34.563301 780.29254 821.83923 4281083717
37.222019 780.29254 821.83923 4280623421
55.744953 781.40039 820.81134 4280623408
58.310093 782.5083 819.78345 4280754226
60.960548 782.5083 819.78345 4280820019
64.695412 780.29254 821.83923 4281216056
-58.310093 783.85919 820.92236 4280229134
7.951376 783.85919 820.92236 4281413435
10.601835 783.85919 820.92236 4281477693
25.621101 783.85919 820.92236 4281019722
55.65963 783.85919 820.92236 4281939791
58.310093 783.85919 820.92236 4282334035
60.960548 783.85919 820.92236 4282595665
63.611008 783.85919 820.92236 4282859098
-58.128441 788.7641 821.13403 4283840571
-55.779816 787.86627 820.37701 4284173876
0.88073397 788.09076 820.56628 4281545021
4.4036698 788.09076 820.56628 4281544517
7.9266057 788.7641 821.13403 4281152064
10.568808 788.7641 821.13403 4281217353
13.21101 788.7641 821.13403 4281348164
58.715595 787.86627 820.37701 4285493113
-54.434864 790.96729 819.06763 4286274910
-52.678898 790.96729 819.06763 4285882203
-50.922935 790.96729 819.06763 4285026894
-5.26789 790.96729 819.06763 4281349438
-1.7559633 790.96729 819.06763 4281218109
-55.605503 792.75714 820.57684 4282795079
0.87798166 792.30969 820.19946 4281544769
4.3899083 792.30969 820.19946 4281545021
7.901835 792.30969 820.19946 4281544769
10.53578 793.65216 821.33142 4281217353
13.462386 793.20465 820.9541 4281347657
16.38899 793.20465 820.9541 4281478727
19.315596 793.65216 821.33142 4281544769
21.949541 793.65216 821.33142 4281872451
25.461468 793.65216 821.33142 4281478728
-54.321102 795.78516 820.51385 4280560447
-52.568806 795.11536 819.9491 4280231214
0.87614679 795.11536 819.9491 4281414980
4.380734 795.78516 820.51385 4281676355
7.8853211 795.78516 820.51385 4281478728
10.513762 796.45496 821.07861 4281544521
13.142202 796.45496 821.07861 4281544525
16.64679 796.45496 821.07861 4281544268
22.779816 796.45496 821.07861 4281938244
-54.150459 799.98096 820.12756 4281020222
-52.403671 799.31323 819.56451 4280888641
-50.074615 799.09064 819.37677 4281085505
0.87339449 799.31323 819.56451 4281610305
4.3669724 799.98096 820.12756 4281544769
7.8605504 799.98096 820.12756 4281478728
10.480734 799.98096 820.12756 4281478728
13.100918 799.98096 820.12756 4281609796
15.721101 799.98096 820.12756 4281675328
-55.023853 801.31641 821.25354 4280954680
-52.293579 802.77118 819.86414 4280888636
-49.678898 802.77118 819.86414 4281085242
-46.192661 802.77118 819.86414 4281282102
-43.57798 802.77118 819.86414 4281282099
-40.963303 802.77118 819.86414 4280954429
-4.3577981 802.77118 819.86414 4281413960
-1.7431192 802.77118 819.86414 4281544271
0.87155962 802.04382 820.55884 4281479228
4.3633027 802.04382 820.55884 4281478976
7.8532109 802.04382 820.55884 4281478728
10.480734 801.31641 821.25354 4281412935
13.100918 801.31641 821.25354 4281216576
16.594496 801.31641 821.25354 4281151036
19.21468 801.31641 821.25354 4281478976
-54.036697 804.10382 820.98779 4281150263
-52.293579 804.10382 820.98779 4281149766
-49.678898 804.10382 820.98779 4281215553
-47.06422 804.10382 820.98779 4281150268
-43.57798 804.10382 820.98779 4281084470
0.87155962 804.10382 820.98779 4281086271
4.3577981 804.10382 820.98779 4281478976
7.8440366 804.10382 820.98779 4281478728
10.458715 804.10382 820.98779 4281217353
12.201835 804.10382 820.98779 4281217353
-49.522018 808.27429 820.5802 4281018174
-46.046791 808.27435 820.5802 4281018169
-43.440369 808.27429 820.5802 4281215291
-40.833946 808.27429 820.5802 4281148995
-38.227524 807.61011 820.02014 4281084470
-33.014679 807.61011 820.02014 4281543738
-31.277063 807.61011 820.02014 4281413183
-24.326605 808.27429 820.5802 4281348416
-22.588991 808.27429 820.5802 4281282624
-20.851376 808.27429 820.5802 4281413957
-12.163302 808.27429 820.5802 4281939014
-10.425688 808.27429 820.5802 4281807176
-7.8192658 808.27429 820.5802 4281610564
-4.6336389 808.05292 820.39355 4281413699
-1.7376146 808.27429 820.5802 4281610314
-39.838531 812.43225 820.16199 4281083972
-37.240368 811.77014 819.60376 4281084472
-34.6422 811.77014 819.6037 4281150267
-32.044037 811.77014 819.60376 4281150267
-28.579817 811.77014 819.6037 4281216061
-25.981651 811.77014 819.6037 4281347390
-22.517431 812.43225 820.16199 4280954429
-19.053211 811.10803 819.04541 4281544521
-16.743731 811.5495 819.41766 4281479230
-13.856881 811.77014 819.6037 4281806658
-39.838531 813.75647 821.27844 4281083972
-37.240368 813.75647 821.27844 4281084474
-34.6422 813.75647 821.27844 4281084474
-32.044037 813.75647 821.27844 4280953659
-28.519266 815.19727 819.8772 4280888636
-25.981651 813.75647 821.27844 4280888636
-22.517431 813.75647 821.27844 4280691513
-17.3211 813.75647 821.27844 4281413183
-27.655046 816.51862 820.99133 4280691513
64.355965 748.7981 824.06055 4293191933
73.420181 748.7981 824.06055 4294967295
77.045868 748.7981 824.06055 4294967295
79.765137 748.7981 824.06055 4294967295
82.786537 748.33612 823.67108 4294967295
92.455048 748.7981 824.06055 4294967295
94.267891 748.7981 824.06055 4294967295
97.289299 748.33612 823.67108 4294967295
100.61284 748.1051 823.47632 4294967295
23.495413 751.06018 822.0437 4291680255
25.302752 751.06018 822.0437 4291875567
28.013762 752.44189 823.20874 4288190147
43.376148 751.75104 822.62622 4289243343
45.183487 751.06018 822.0437 4291020524
55.425079 751.98126 822.82037 4290361304
57.834862 751.75104 822.62622 4291020004
64.160553 752.44189 823.20874 4290361553
67.77523 751.06018 822.0437 4293521405
70.486237 751.06018 822.0437 4294967295
73.19725 752.44189 823.20874 4294769663
75.908257 752.44189 823.20874 4294967295
79.522934 752.44189 823.20874 4294967295
82.233948 752.44189 823.20874 4294967295
85.848625 751.75104 822.62622 4294967295
88.559631 751.75104 822.62622 4294967295
90.366974 751.06018 822.0437 4294967295
94.885323 752.44189 823.20874 4294967295
97.596329 752.44189 823.20874 4294967295
103.92202 751.75104 822.62622 4294967295
106.63303 751.75104 822.62622 4294967295
109.34404 751.75104 822.62622 4294967295
112.65749 751.98126 822.82037 4294967295
28.917431 753.82361 824.37378 4278648913
30.724771 753.82361 824.37378 4278911573
41.568806 753.82361 824.37378 4278912326
43.376148 753.82361 824.37378 4278714698
77.715599 753.82361 824.37378 4294967295
97.596329 753.82361 824.37378 4294967295
100.30734 753.82361 824.37378 4294967295
103.92202 753.82361 824.37378 4294967295
106.63303 753.82361 824.37378 4294967295
109.34404 753.82361 824.37378 4294967295
112.95872 753.82361 824.37378 4294967295
115.66972 753.82361 824.37378 4294967295
25.225689 756.07733 822.34998 4278518865
27.027523 756.07733 822.34998 4278190157
32.433029 757.45483 823.51147 4280031782
41.442204 757.45483 823.51147 4279506233
43.244038 757.45483 823.51147 4279506233
45.045872 756.76611 822.93073 4278847550
57.658714 756.07733 822.34998 4278517833
64.866058 756.76611 822.93073 4278255647
75.677063 756.07733 822.34998 4294967295
82.283791 756.53644 822.73712 4294967295
85.587158 756.76605 822.93073 4294967295
88.289909 757.45483 823.51147 4294967295
94.596329 756.07733 822.34998 4294967295
97.29908 758.14355 824.09222 4294967295
99.70153 758.37311 824.28583 4294967295
103.60551 758.83234 824.67297 4294967295
112.61468 758.83234 824.67297 4294967295
115.31743 758.83234 824.67297 4294967295
117.11926 758.83234 824.67297 4286414205
35.028442 761.07764 822.64197 4282203212
37.722935 761.07764 822.64197 4282137937
39.519264 761.07764 822.64197 4282072144
77.242203 761.07764 822.64197 4294967295
86.223854 761.07764 822.64197 4294967295
89.816513 761.07764 822.64197 4294967295
94.307343 761.07764 822.64197 4294967295
88.91835 762.45093 823.79993 4294967295
94.606728 762.90869 824.18585 4294967295
100.5945 763.82422 824.95789 4294967295
103.28899 763.13757 824.37891 4294967295
106.88165 763.82422 824.95789 4294967295
112.27065 763.82422 824.95789 4294967295
115.8633 763.82422 824.95789 4288848546
118.5578 763.82422 824.95789 4278190099
57.306423 766.06104 822.9198 4281544521
64.469727 766.06104 822.9198 4283127928
85.959633 766.74561 823.49701 4294967295
88.645874 766.74561 823.49707 4294967295
91.332108 766.74561 823.49701 4294967295
93.122932 766.74561 823.49701 4294967295
102.674 766.97382 823.68945 4294967295
112.82202 767.43018 824.07422 4294967295
115.50826 767.43018 824.07422 4286676866
118.1945 767.43018 824.07422 4278190099
44.678898 768.91858 822.71313 4280293153
46.466057 769.60175 823.28918 4279374883
48.848927 769.82941 823.4812 4280098613
52.423237 769.37402 823.09717 4280360260
55.401836 768.91858 822.71313 4280688713
57.78471 769.37402 823.09717 4281412425
61.656879 768.91858 822.71313 4283388006
64.337616 768.91858 822.71313 4283519590
67.018349 768.91858 822.71313 4284899463
71.486237 768.91858 822.71313 4294967295
73.273392 768.91858 822.71313 4294967295
76.251991 769.37402 823.09717 4294966527
79.528442 769.60175 823.28918 4294967295
83.102753 769.60175 823.28918 4294967295
85.783485 770.28491 823.86523 4294967295
44.541283 773.87537 822.96851 4279832881
46.322937 773.87537 822.96851 4279572026
48.995415 773.87537 822.96851 4280098369
52.558716 773.87537 822.96851 4280689980
55.231194 773.87537 822.96851 4281150263
57.012844 773.87537 822.96851 4281280068
65.921104 773.87537 822.96851 4279964983
67.702751 773.87537 822.96851 4278977588
71.266052 773.87537 822.96851 4282332209
73.938538 773.87537 822.96851 4287267717
76.611008 773.87537 822.96851 4292861153
81.955963 773.87537 822.96851 4294967295
-64.13945 775.23749 824.11707 4280163372
-62.3578 775.23749 824.11707 4279899944
71.266052 775.23749 824.11707 4278718734
73.938538 775.23749 824.11707 4278190352
76.611008 775.23749 824.11707 4278190117
80.174309 775.23749 824.11707 4290889727
81.955963 775.23749 824.11707 4294967295
-62.165138 778.81537 823.20972 4280293927
14.209174 777.45752 822.0647 4280625720
16.873394 778.13647 822.63721 4281282623
19.537615 777.45752 822.0647 4280954429
22.201836 777.45752 822.0647 4280759103
25.754128 777.45752 822.0647 4280824639
30.194496 777.45752 822.0647 4280759355
40.259327 778.36279 822.82806 4281216308
43.515594 778.13647 822.63721 4281215289
47.067886 778.13647 822.63721 4280887352
49.732109 778.13647 822.63721 4280886582
52.396332 778.13647 822.63721 4281149495
55.060551 777.45752 822.0647 4281543738
65.71743 777.45752 822.0647 4281083970
67.493576 778.13647 822.63721 4280888391
69.269722 778.13647 822.63721 4280361791
-61.21468 780.9104 823.66815 4280753689
13.293577 781.64758 822.98169 4281675328
16.838531 781.64758 822.98169 4281872451
19.497248 781.64758 822.98169 4281741121
22.155964 781.64758 822.98169 4281478976
28.359632 781.64758 822.98169 4281478728
31.018349 781.64758 822.98169 4281148738
34.563301 781.64758 822.98169 4283189608
38.108257 781.64758 822.98169 4282663517
40.766972 781.64758 822.98169 4283122520
43.471558 780.9104 823.66815 4282728268
47.018349 780.9104 823.66815 4283449936
49.732109 780.17322 824.35461 4282991951
52.288074 781.64758 822.98169 4282400591
65.58165 781.64758 822.98169 4281609031
67.354126 781.64758 822.98169 4281543238
70.086235 780.9104 823.66815 4281937992
73.710098 780.17322 824.35461 4281806657
76.374313 780.17322 824.35461 4281148984
78.150459 780.17322 824.35461 4278191134
-60.264221 783.00269 824.12427 4282199076
-58.310093 785.21008 822.0614 4282791213
7.951376 785.21008 822.0614 4281545021
10.601835 785.21008 822.0614 4281544521
13.252294 785.21008 822.0614 4281675843
16.838531 783.00269 824.12427 4281872703
19.436697 785.21008 822.0614 4281741373
22.087156 785.21008 822.0614 4281545021
25.621101 785.21008 822.0614 4281544269
28.271559 785.21008 822.0614 4281610818
30.922018 785.21008 822.0614 4280952384
34.455963 785.21008 822.0614 4285689229
37.989906 785.21008 822.0614 4286083979
40.640366 785.21008 822.0614 4286873235
43.42569 783.00269 824.12427 4285426297
46.970642 783.00269 824.12427 4286019449
49.629356 783.00269 824.12427 4286282619
52.288074 783.00269 824.12427 4285097844
55.65963 785.21008 822.0614 4285031546
61.844036 785.21008 822.0614 4286018691
64.494492 785.21008 822.0614 4283584340
67.354126 783.00269 824.12427 4281082183
69.126602 783.00269 824.12427 4282003285
-60.077065 787.23633 823.76996 4282264372
16.78624 786.56091 823.20044 4281610049
19.436697 786.56091 823.20044 4281741121
22.087156 786.56091 823.20044 4281545021
25.621101 786.56091 823.20044 4281544521
28.271559 786.56091 823.20044 4281610315
30.922018 786.56091 823.20044 4280624190
34.455963 786.56091 823.20044 4284835206
37.989906 786.56091 823.20044 4285294728
40.640366 787.23633 823.76996 4284833917
43.290825 787.23633 823.76996 4284636267
46.824768 787.23633 823.76996 4284967768
53.009174 787.23633 823.76996 4285295211
55.65963 787.23639 823.7699 4284506464
58.310093 787.9118 824.33948 4283848530
60.960552 787.23639 823.7699 4284769640
64.494492 787.23633 823.76996 4283385956
-58.128441 790.78406 822.83722 4281217342
10.568808 790.11072 822.26953 4281217353
12.330276 790.11072 822.26953 4281217353
17.614679 790.11072 822.26953 4281675328
19.376146 790.11072 822.26953 4281741121
22.018349 790.11072 822.26953 4281741373
25.541285 790.11072 822.26953 4281478728
29.06422 790.78406 822.83722 4281085767
31.706423 790.78406 822.83722 4280295227
34.348625 790.78406 822.83716 4285491338
37.871559 790.78406 822.83716 4286083219
40.51376 791.4574 823.40491 4286808988
42.27523 791.4574 823.40491 4288451739
-57.946789 794.99463 822.46338 4280954429
-56.190826 794.99463 822.46338 4280953927
19.315596 794.99463 822.46338 4281544521
21.07156 794.99463 822.46338 4281872450
25.461468 794.99463 822.46338 4281544522
29.020184 793.89935 823.50189 4281544769
31.60734 794.99463 822.46338 4280820271
34.296333 793.89935 823.50189 4285293189
37.871559 792.80408 824.54041 4286017172
40.51376 792.80408 824.54041 4286149768
43.155964 792.80408 824.54041 4288319622
-58.824768 797.0083 824.16119 4281151035
-56.073395 797.79462 822.20813 4281020222
17.522936 797.79462 822.20813 4281609535
19.275229 797.79462 822.20813 4281741121
21.903669 797.79462 822.20813 4281740617
25.43578 797.0658 822.90167 4281740619
28.973396 797.00824 824.16113 4281675076
31.60734 797.0083 824.16119 4281739072
34.241283 797.0083 824.16119 4282201175
37.460552 797.23199 824.34985 4281084498
-57.825687 799.80408 823.90247 4281216056
21.903669 799.80408 823.90247 4281543751
25.408257 799.80408 823.90247 4281805389
-57.644035 803.98724 823.50549 4281150263
-55.897247 802.65186 822.37952 4281281849
13.974312 802.65186 822.37952 4281086271
16.594496 803.31958 822.9425 4281085765
19.796942 803.54218 823.13019 4281282119
-57.644035 805.32269 824.63159 4281150263
-54.908257 806.10278 822.67316 4281019451
-52.293579 806.10272 822.67316 4281215302
-3.4862385 806.76904 823.23499 4281610315
0.87155962 806.10272 822.6731 4281479230
4.3577981 806.10272 822.6731 4281675841
7.8486233 805.74115 823.02228 4281739847
10.458715 806.10272 822.67316 4281151560
13.087156 805.37952 823.37146 4281085767
16.594496 805.32269 824.63159 4281216583
19.21468 805.32269 824.63159 4281346886
-54.908257 808.10168 824.35864 4280757306
-52.293579 808.10168 824.35864 4280691011
-3.4862385 808.10168 824.35864 4281348685
-1.7431192 808.10168 824.35864 4281348685
1.7431192 808.10168 824.35864 4281349688
4.3577981 808.10168 824.35864 4281741373
6.972477 808.10168 824.35864 4281544521
10.458715 808.10168 824.35864 4281217353
-52.128441 812.25964 823.94043 4280821821
-49.522018 811.59546 823.38037 4280887103
-46.046787 811.59546 823.38037 4281083452
-43.440369 811.5954 823.38037 4281280570
-41.702751 811.5954 823.38037 4281083969
-24.326605 810.93115 822.82031 4280954685
-19.982569 811.5954 823.38037 4281019711
-16.072935 811.92749 823.6604 4281478974
-12.858348 811.86115 823.60437 4281544510
-10.425688 811.5954 823.38037 4281544769
-7.8192654 811.59546 823.38037 4281478976
-5.2128439 810.93115 822.82031 4281478976
-39.838531 815.08069 822.39502 4280952632
-37.240368 815.08069 822.39502 4280691513
-34.6422 815.08069 822.39502 4280691513
-32.044037 815.08069 822.39502 4280691513
-29.445871 815.08069 822.39502 4280757306
-25.115597 815.08069 822.39502 4280953408
-22.517431 815.08069 822.39502 4281083972
-37.240368 816.40491 823.5116 4281018425
-34.6422 816.40491 823.5116 4280691513
-32.044037 816.40491 823.5116 4280625464
-28.579817 816.40491 823.5116 4280625974
-25.981651 817.06702 824.06982 4280888120
-22.517431 816.40491 823.5116 4281281597
32.631191 751.56995 826.39771 4279304268
34.444038 751.56995 826.39771 4279238731
36.861164 751.10791 826.00812 4281873261
40.486851 750.646 825.61865 4284899984
77.952293 750.18402 825.22913 4294967295
100.61284 750.18402 825.22913 4294967295
34.339451 755.20538 825.53882 4279965989
37.050461 755.20538 825.53882 4279898931
39.761467 755.20538 825.53882 4279506233
101.21101 755.20538 825.53882 4294967295
103.92202 755.20538 825.53882 4294967295
106.63303 755.20538 825.53882 4294967295
109.34404 755.20538 825.53882 4294967295
112.95872 755.20538 825.53882 4294967295
115.66972 755.20538 825.53882 4294967295
106.63303 756.5871 826.70386 4294967295
109.34404 756.5871 826.70386 4294967295
97.29908 760.89862 826.41522 4294967295
99.70153 760.66901 826.22168 4294967295
104.50642 760.20984 825.83447 4294967295
106.30826 760.20984 825.83447 4294967295
109.31132 760.66901 826.22168 4294967295
112.61468 760.20984 825.83447 4294967295
115.31743 760.20984 825.83447 4294967295
117.11926 760.20984 825.83447 4285493103
95.205505 765.19751 826.11584 4294967295
97.600609 766.11304 826.88788 4294967295
100.5945 765.88416 826.69482 4294967295
106.88165 765.19751 826.11584 4294967295
109.57615 765.19751 826.11584 4294967295
111.37247 765.19751 826.11584 4294967295
88.944344 769.25562 825.61346 4294967295
91.332108 769.48376 825.80585 4294967295
94.018349 769.48376 825.80579 4294967295
96.70459 770.16833 826.38306 4294967295
100.28624 770.16833 826.38306 4294967295
102.97247 769.48376 825.80585 4294967295
106.55413 769.48383 825.80579 4294967295
109.24036 769.48376 825.80585 4294967295
111.92661 769.48376 825.80585 4294967295
115.50826 769.48376 825.80579 4286282373
118.79144 769.71191 825.99823 4279111195
79.230583 772.10663 825.40118 4290164939
83.99633 772.33435 825.59326 4294967295
85.783485 772.33435 825.59326 4294967295
88.166359 772.56201 825.78534 4294967295
91.332108 771.53748 827.53735 4294967295
94.018349 771.53748 827.53735 4294967295
97.600006 771.53748 827.53735 4294967295
100.28624 771.53748 827.53735 4294967295
102.86606 772.27747 826.85333 4294967295
106.33578 773.01746 826.16931 4294967295
109.24036 771.53748 827.53735 4294967295
111.92661 771.53748 827.53735 4294967295
115.50826 771.53748 827.53735 4285492095
119.0899 771.53748 827.53735 4279703324
-66.124771 774.38379 827.32129 4280620587
-64.13945 776.59955 825.2655 4280556843
71.266052 776.59955 825.2655 4280689215
73.938538 776.59955 825.2655 4278979110
76.611008 776.59955 825.2655 4278190097
79.283485 776.59955 825.2655 4283256912
82.846786 776.59955 825.2655 4293124095
85.783485 774.38379 827.32129 4294967295
88.464218 774.38379 827.32129 4294967295
101.86789 774.38379 827.32129 4294967295
103.65504 774.38379 827.32129 4294967295
106.33578 774.38379 827.32129 4294967295
-65.030273 778.6427 826.98822 4281345053
71.266052 779.32373 827.5625 4282003276
80.174309 777.96167 826.41394 4278190101
83.14373 778.41571 826.79681 4288917207
-63.941284 782.88904 826.64441 4281542443
-62.165138 782.21008 826.07196 4281674279
73.710098 782.21008 826.07202 4281544261
76.374313 782.21008 826.07196 4281216579
79.038528 782.21008 826.07202 4279178540
81.702751 782.21008 826.07196 4278190127
-63.941284 784.24689 827.78943 4281281072
-62.036697 785.71283 826.40942 4281675830
49.629356 785.03528 825.83813 4285165421
51.401836 785.03528 825.83813 4284507491
67.354126 785.03528 825.83813 4281148733
69.766357 784.77246 826.48859 4281806661
73.710098 784.24689 827.78943 4281413694
76.374313 784.24689 827.78943 4281218109
79.038528 784.24689 827.78943 4279967032
82.59082 784.24689 827.78943 4283323755
-62.036697 787.06787 827.552 4281347642
65.58165 787.06787 827.552 4281217367
67.354126 787.06787 827.552 4281541689
69.126602 787.06787 827.552 4282265412
-60.666058 790.61353 826.61749 4280757305
44.174313 789.26263 825.47852 4288254360
46.824768 790.61353 826.61743 4285621861
49.475231 790.61353 826.61749 4285687913
52.125687 790.61353 826.61749 4285754229
55.659634 790.61353 826.61743 4284965751
58.310093 790.61353 826.61749 4285229437
60.51881 790.27582 826.33276 4286215311
63.611008 789.26263 825.47852 4283520122
-59.889908 794.1507 825.6759 4280954429
38.752293 794.1507 825.6759 4281810267
40.51376 794.1507 825.6759 4281678681
43.155964 794.1507 825.6759 4282007371
-63.412846 796.84399 827.94678 4280888887
-61.651375 795.49738 826.8114 4281084470
38.752293 796.84399 827.94678 4281086271
40.51376 796.17065 827.37909 4281348938
42.862385 795.94623 827.18988 4281939519
46.678898 795.49738 826.8114 4282005822
-63.21468 800.36438 826.99097 4280757306
-61.458717 799.69318 826.42505 4280757304
-59.702751 799.02197 825.85913 4281084470
28.973394 799.69318 826.42505 4281544004
31.60734 799.69318 826.42505 4281741121
34.241287 799.69318 826.42505 4281675839
36.875229 799.02197 825.85913 4281281849
-61.330276 803.1532 826.72632 4280757306
-59.57798 802.4834 826.16156 4281084470
22.195719 802.7066 826.34979 4281740361
25.408257 802.4834 826.16156 4281608518
-61.330276 804.49286 827.85596 4281150263
-58.517433 806.65814 825.75757 4281084470
0 806.65814 825.75757 4281349688
8.7339449 806.65814 825.75757 4281544521
13.100918 806.65814 825.75757 4281151560
16.594496 806.65814 825.75757 4281216583
19.21468 806.65814 825.75757 4281346886
21.903669 804.49286 827.85596 4281608779
-58.456879 808.71399 826.18292 4281214777
-54.908257 809.43433 825.4823 4280494134
-3.4862385 809.43433 825.4823 4281217353
-1.7431192 809.43433 825.4823 4281217353
0.87339449 807.99359 826.88354 4281022274
4.3669724 807.99359 826.88354 4281544769
7.8605504 807.99359 826.88354 4281478728
10.480734 807.99359 826.88354 4281217353
13.100918 807.99359 826.88354 4281150534
15.721101 807.99359 826.88354 4281412935
-57.522934 811.43323 827.16779 4280886326
-54.908257 811.43323 827.16779 4281017909
-7.8440366 812.09955 827.72961 4281675333
-4.3577981 811.43323 827.16779 4281413444
-1.7431192 811.43323 827.16779 4281282376
-52.128441 814.9165 826.18066 4281214021
-49.522018 814.91644 826.18066 4281017154
-46.046791 814.91644 826.18066 4281017660
-43.440369 814.9165 826.18066 4281083704
-40.833946 814.91644 826.18066 4281018677
-37.358719 815.58069 826.74072 4281018677
-33.883484 815.58069 826.74072 4280952632
-31.277063 815.58069 826.74072 4280494130
-28.670643 815.58069 826.74072 4280690485
-24.326605 814.9165 826.18066 4281084475
-22.588991 815.58069 826.74072 4281084474
-19.982569 814.91644 826.18066 4281281851
-16.507339 814.91644 826.18066 4281216306
-13.321712 814.69507 825.99396 4281347137
-10.425688 814.25226 825.62061 4281805640
-52.128441 816.90906 827.86072 4280950847
-49.522018 816.90906 827.86072 4280886075
-46.046791 816.90906 827.86072 4280690230
-43.440369 816.90906 827.86072 4280230962
-40.833946 816.90906 827.86072 4280493878
-37.358719 816.90906 827.86072 4280755510
-33.883484 816.90906 827.86072 4280886839
-31.277063 816.90906 827.86072 4280952884
-28.670643 816.90906 827.86072 4281018677
-25.195412 816.90906 827.86072 4281084470
-22.588991 816.90906 827.86072 4281150263
-19.982569 816.90906 827.86072 4281281597
-17.376146 816.90906 827.86072 4281084470
-13.900917 816.90906 827.86072 4280820544
99.100914 762.9649 828.15735 4294967295
98.798164 767.94415 828.43164 4294967295
91.332108 772.90656 828.69177 4294967295
94.018349 772.90656 828.69177 4294967295
97.600006 772.90656 828.69177 4294967295
100.28624 772.90656 828.69177 4294967295
109.24036 772.90656 828.69177 4294967295
111.92661 772.90656 828.69177 4294967295
115.50826 772.90656 828.69177 4285426289
119.0899 772.90656 828.69177 4279506201
-67.911926 775.75006 828.47327 4280093961
85.783485 775.75006 828.47327 4294967295
88.464218 775.75006 828.47327 4294967295
92.038528 775.75006 828.47327 4294967295
94.913765 774.27563 829.84619 4294967295
97.600006 774.27563 829.84619 4294967295
100.97431 775.75006 828.47327 4294967295
103.65504 775.75006 828.47327 4294967295
106.33578 775.75006 828.47327 4294967295
109.24036 774.27563 829.84619 4294967295
111.92661 774.27563 829.84619 4294967295
115.50826 774.27563 829.84619 4284440951
119.0899 774.27563 829.84619 4279440665
-70.2948 778.02728 830.39337 4284306527
-67.911926 777.11639 829.62537 4280753931
85.783485 777.11639 829.62537 4294967295
88.464218 777.79956 830.20142 4294967295
92.038536 777.79956 830.20142 4294967295
94.719269 777.79956 830.20135 4294967295
97.697853 778.02728 830.39337 4294967295
100.08073 777.79956 830.20135 4294967295
103.65504 777.11639 829.62537 4294967295
-70.375229 782.04791 829.85938 4286281613
-67.702751 781.36688 829.28516 4284241482
-65.921104 781.36688 829.28516 4281741348
71.266052 780.68585 828.71094 4281872450
83.737617 780.68585 828.71094 4291416575
85.519264 781.36688 829.28516 4292601087
87.300919 782.04791 829.85938 4294967295
-64.829361 785.60474 828.93433 4281085248
71.045868 785.60474 828.93433 4282004037
73.710098 785.60474 828.93433 4281807428
76.374313 785.60474 828.93433 4281742148
79.038528 785.60474 828.93433 4280230456
81.702751 785.60474 828.93433 4278190080
-72.822021 786.96265 830.07922 4278194500
-70.157791 786.96265 830.07922 4279179330
-67.493576 786.96265 830.07922 4281083720
-64.763306 787.69281 829.3869 4281149762
-62.036697 788.42297 828.69458 4281281597
62.036697 788.42297 828.69458 4287793573
64.695412 788.42297 828.69458 4283976830
67.354126 788.42297 828.69458 4281214275
70.086235 787.69281 829.3869 4281872200
73.710098 786.96265 830.07922 4281741634
76.374313 786.96265 830.07922 4281544769
78.150459 786.96265 830.07922 4281346890
-67.354126 791.13312 830.97974 4281018425
-64.990822 790.22974 830.21802 4281083963
62.036697 790.45557 830.40845 4283058271
64.695412 790.45557 830.40845 4282794582
67.354126 789.77802 829.83716 4281477191
69.126602 789.77802 829.83716 4281871949
-67.144951 794.66614 830.03455 4280625218
-64.494492 793.99072 829.46503 4280822076
44.174313 794.66614 830.03455 4281938244
46.824768 794.66614 830.03455 4281740864
49.475231 793.99072 829.46503 4281283146
52.125687 793.99066 829.46503 4281084485
55.65963 793.99072 829.46509 4281477188
58.310093 793.99072 829.46503 4282134346
60.077065 793.31525 828.89551 4282268742
-70.458717 798.19067 829.08228 4280625720
-67.816513 798.19067 829.08228 4280625469
-65.174309 798.19067 829.08228 4280756804
37.871559 798.86401 829.65002 4281413439
40.51376 798.86401 829.65002 4281412931
42.27523 798.86401 829.65002 4281740360
-70.238533 802.37805 828.6889 4280493106
-67.604584 802.37805 828.68896 4280690998
-64.092659 802.37805 828.68896 4280757047
25.461468 803.04932 829.25488 4281477445
28.973396 802.37805 828.68896 4281347390
31.60734 802.37805 828.6889 4281544522
34.241287 801.70685 828.12292 4281478978
-70.238533 804.39172 830.38672 4280624169
-67.604584 804.39172 830.38672 4280559403
-64.026604 805.11206 829.6861 4280887345
-61.330276 805.83246 828.98547 4281280822
17.522936 805.83246 828.98547 4281741121
19.275229 805.83246 828.98547 4281675328
21.927523 805.11206 829.6861 4281544521
25.461468 804.39172 830.38672 4281412935
-66.587158 807.17212 830.11499 4280821548
-63.958717 807.17212 830.11499 4280953134
-61.137615 809.32898 828.00952 4281084720
-59.390827 809.32898 828.00952 4281018425
0.87339449 809.32898 828.00952 4281217353
4.3669724 809.32898 828.00952 4281610818
7.8605504 809.32898 828.00952 4281545025
10.480734 809.32898 828.00952 4281412935
13.100918 809.32898 828.00952 4281477959
16.622019 808.25055 829.06226 4281675077
19.275229 807.17212 830.11499 4281741121
-61.137615 811.33215 829.69855 4281017907
-59.390827 810.66443 829.1355 4281148984
-3.493578 811.99988 830.2616 4281349186
0.87339449 810.66443 829.1355 4281544769
4.3669724 810.66443 829.1355 4281610818
7.8605504 810.66443 829.1355 4281545271
10.480734 810.66443 829.1355 4281413183
-58.394493 814.09851 829.41504 4281213500
-54.908257 814.09851 829.41504 4280951098
-15.688073 814.76483 829.97681 4280887091
-12.201835 814.09851 829.41504 4281215559
-10.458715 814.09851 829.41504 4281346888
-7.8440366 814.09851 829.41504 4281281605
-5.2293577 813.43219 828.85327 4281281597
-1.7431192 813.43219 828.85327 4281414980
-49.522018 818.23749 828.98083 4280951862
-46.046791 818.23749 828.98083 4280690487
-43.440369 818.23749 828.98083 4280493878
-40.833946 818.23749 828.98083 4280625716
-37.358719 818.23749 828.98083 4280886839
-33.883484 818.23749 828.98083 4280886839
-26.06422 818.23749 828.98083 4281214777
-22.588991 818.23749 828.98083 4281280822
-20.851376 818.23749 828.98083 4281280570
-17.376146 818.23749 828.98083 4281411900
-43.440369 819.56592 830.10095 4281082935
-41.702751 819.56592 830.10095 4281148980
-38.227524 819.56592 830.10095 4281084470
96.70459 775.64478 831.00061 4294967295
102.07706 775.64478 831.00061 4294967295
106.55412 775.64478 831.00061 4294967295
109.24036 775.64478 831.00061 4294967295
111.92661 775.64478 831.00061 4294835709
115.50826 775.64478 831.00061 4284504691
119.0899 775.64478 831.00061 4279440160
89.357796 779.84894 831.92944 4294967295
92.038528 779.84894 831.92944 4294967295
94.719269 779.84894 831.92944 4294967295
97.400002 779.84894 831.92944 4294967295
100.08073 779.84894 831.92944 4294967295
102.97248 777.69836 832.73212 4294967295
106.55413 777.69843 832.73206 4294967295
109.24036 777.69836 832.73212 4294967295
111.92661 777.01385 832.15491 4294506744
114.61285 777.01385 832.15491 4289833424
89.357796 781.21527 833.08142 4294967295
92.038528 781.21527 833.08142 4294967295
94.719269 781.21527 833.08142 4294967295
96.506424 781.21527 833.08142 4294967295
-73.047707 783.41003 831.00793 4280630888
-70.375229 783.41003 831.00793 4279315303
-67.702751 783.41003 831.00793 4280756804
80.174309 784.77209 832.15637 4279570479
83.14373 784.31805 831.77362 4282803022
85.519264 783.41003 831.00793 4291482358
87.300919 783.41003 831.00793 4294967295
-72.822021 788.3205 831.22412 4280951850
-70.157791 788.3205 831.22412 4281082935
-67.493576 788.3205 831.22412 4281280068
71.266052 786.13416 833.30481 4281742148
73.825691 787.22729 832.26447 4281282878
76.611008 786.13416 833.30481 4280165165
79.283485 786.13416 833.30481 4280689431
81.955963 786.13416 833.30481 4282660397
-72.822021 789.67841 832.36914 4281083437
-70.157791 789.67841 832.36914 4280952632
65.71743 791.03625 833.51404 4281544521
67.493576 790.3573 832.94159 4281740612
69.269722 790.3573 832.94159 4281740356
-70.012848 792.48816 832.12219 4280625720
60.855045 792.93988 832.50311 4281280582
63.809174 792.48816 832.12219 4281346886
44.174313 796.69238 831.74304 4281871690
46.824768 796.69244 831.74304 4281740611
49.475231 796.69238 831.74304 4281675589
52.125687 796.69238 831.74304 4281543490
55.65963 796.69238 831.74304 4281673793
58.310093 796.01697 831.17358 4281870152
34.348625 800.88397 831.35327 4281610053
37.871559 800.88397 831.35327 4281544256
40.51376 800.88397 831.35327 4281281597
43.290825 798.71869 833.45154 4281347390
46.824768 798.71869 833.45154 4281346865
49.475231 798.71869 833.45154 4281545021
52.125687 798.71869 833.45154 4281150514
25.541285 803.57733 833.62415 4281412935
29.06422 802.90399 833.0564 4281281346
31.706423 802.90399 833.0564 4281412166
34.348625 802.90399 833.0564 4281083452
36.990826 802.23065 832.48865 4281477945
-70.238533 805.73419 831.51868 4280624169
-68.482567 805.73419 831.51868 4280690218
21.949541 805.73419 831.51868 4281739847
-70.238533 807.07666 832.65063 4280624169
-67.534866 807.79419 831.94757 4280625196
-63.958714 809.18164 831.80933 4280755758
0.87614679 809.85144 832.37415 4281610814
4.380734 809.85144 832.37415 4281806909
7.8853211 809.85144 832.37415 4281610289
10.513762 809.85144 832.37415 4281411398
13.155964 808.46545 832.51349 4281345603
16.664221 808.46539 832.51355 4281476672
19.315596 807.07666 832.65063 4281870654
21.07156 807.07666 832.65063 4281477191
-66.587158 811.19104 833.50366 4280754728
-63.082569 811.19104 833.50366 4281213482
0.87614679 811.19104 833.50366 4281543742
-61.137615 814.00305 831.95056 4281214252
-58.517433 814.67078 832.51355 4280819763
-55.897247 814.67078 832.51355 4280820271
-7.8605504 814.67078 832.51355 4280952904
-4.3669724 814.00305 831.95056 4280888389
-1.746789 814.00305 831.95056 4281020227
-61.137615 816.00616 833.63953 4280820521
-58.394493 817.43011 832.22412 4280557372
-54.472477 817.43011 832.22412 4280821042
-52.293579 817.43011 832.22412 4280952116
-49.678898 818.09644 832.78589 4281083443
-46.192661 818.09644 832.78595 4281083189
-43.57798 818.7627 833.34778 4281082935
-40.672783 818.31854 832.97321 4281084213
-37.186543 818.31854 832.97321 4281084470
-33.990826 818.09644 832.78595 4281214773
-31.376146 817.43011 832.22412 4281279799
-28.761467 817.43011 832.22412 4281148217
-25.27523 817.43011 832.22412 4281477695
-22.660551 818.09644 832.78595 4281740610
-19.871561 817.69666 832.44885 4281740861
-16.559633 817.43011 832.22412 4281806141
-13.073395 816.76379 831.66229 4281741384
-10.469725 816.05182 832.37 4281413451
-8.7339449 816.00616 833.63953 4281808974
112.27065 776.18402 835.37927 4293717228
115.8633 775.49731 834.80035 4283583853
118.5578 774.81067 834.22144 4278190092
120.35413 774.81067 834.22144 4280690757
98.495415 779.75208 834.46375 4294967295
100.28624 779.75208 834.46375 4294967295
102.97247 779.75208 834.46375 4294967295
106.88165 777.55731 836.53723 4294967295
109.57615 777.55731 836.53723 4294967295
85.783485 782.58154 834.2334 4290954982
88.464218 782.58154 834.2334 4294967295
92.038528 782.58154 834.2334 4294967295
94.816513 782.53589 835.50299 4294967295
97.600006 781.80573 836.19537 4294967295
100.28624 781.12115 835.61816 4294967295
79.528442 785.31415 836.53748 4284766737
83.400612 784.8587 836.1535 4286083721
85.783485 784.63098 835.96149 4290623716
88.464218 784.63098 835.96149 4294967295
91.740669 784.40332 835.76953 4294967295
71.266052 787.49628 834.45337 4281544769
73.938538 787.49628 834.45337 4281281081
76.611008 787.49628 834.45337 4280820271
69.484406 790.22046 836.75024 4281280822
62.165138 793.07312 835.23138 4281739337
64.829361 793.07312 835.23132 4282134600
67.493576 792.39417 834.65894 4281412151
49.629356 797.90851 836.6925 4282464329
52.288074 797.90851 836.6925 4282531663
55.833027 797.23096 836.12122 4281677379
58.491745 796.55347 835.54999 4281938759
60.897858 795.62054 835.63544 4281674831
63.941284 795.10992 836.94885 4282202447
38.873394 800.06958 834.59058 4281149766
40.640366 800.06958 834.59058 4281017923
43.290825 800.06958 834.59058 4281281093
46.824768 800.06958 834.59058 4281477945
28.271559 802.7713 836.86865 4281741121
30.922018 802.7713 836.86865 4281872968
34.455963 802.7713 836.86865 4282203726
37.989906 802.09583 836.29913 4281809223
40.640366 802.09583 836.29913 4282007118
42.407341 802.09583 836.29913 4281941589
19.376146 806.27063 835.89502 4281148980
22.311926 805.82178 835.5166 4281083208
25.541285 804.92395 834.75964 4281215302
4.3899083 809.76154 834.91443 4281741121
7.901835 809.76154 834.91443 4282004539
10.53578 809.76154 834.91443 4282135875
12.291743 809.76154 834.91443 4282530633
-68.339447 812.5307 834.63318 4280623138
-63.082569 812.5307 834.63318 4280820521
0.87798166 811.104 836.04639 4281281095
4.3899083 811.104 836.04639 4282003537
-57.825687 815.20996 836.89233 4280688965
-7.5932717 814.76343 836.51581 4282137673
-4.380734 814.54016 836.32751 4282138698
-1.7522936 813.87036 835.76282 4282138957
-59.390827 817.34161 834.76562 4280688965
-55.023853 818.00934 835.32861 4280755507
-52.403671 818.67706 835.8916 4281148980
-31.442202 818.67706 835.8916 4282071367
-28.822018 818.67706 835.8916 4282202697
-25.037308 818.23193 835.5163 4282991703
-22.708258 818.67706 835.8916 4284176489
-20.088074 818.67706 835.8916 4283914600
-16.594496 818.00934 835.32861 4282664531
-13.100918 817.34161 834.76562 4282136656
-10.480734 817.34161 834.76562 4282466123
-49.678898 820.09534 834.47144 4281148980
-46.192661 820.09534 834.47144 4281346361
-43.57798 820.76166 835.03326 4281478203
-40.963303 820.09534 834.47144 4281543738
-37.767582 820.53955 834.84601 4281676094
-33.990826 820.09534 834.47144 4282004288
118.02019 773.98505 837.44934 4278190104
109.01101 776.74011 839.77234 4294967295
112.61468 775.36255 838.61084 4293059298
115.31743 775.36255 838.61084 4286413437
103.28899 778.9306 837.69519 4294967295
105.98349 778.9306 837.69519 4294967295
100.5945 780.30396 838.85315 4294967295
102.39082 780.30396 838.85315 4294967295
85.959633 785.22845 839.0813 4290097121
87.750458 785.22845 839.0813 4294967295
94.316826 784.31573 838.31171 4294967295
96.70459 784.54395 838.50409 4294967295
71.486237 787.36359 838.26556 4280822843
73.273392 787.36359 838.26556 4280888892
75.954132 787.36359 838.2655 4282792516
79.528442 786.68042 837.68958 4286737262
83.102753 786.68042 837.68958 4287271047
89.357796 786.68042 837.68958 4294967295
92.038528 787.36365 838.26556 4294967295
67.702751 791.58252 837.8988 4282596680
70.485321 790.4978 838.94617 4282597711
73.273392 789.41302 839.99353 4282401364
75.060547 789.41302 839.99353 4282010410
65.921104 792.94464 839.04724 4282662998
67.702751 792.94464 839.04724 4282926926
69.484406 792.94464 839.04724 4282926926
61.57309 796.92041 838.4754 4282797396
63.941284 797.14673 838.6662 4282862419
44.311928 799.9411 838.40637 4281941333
46.970642 799.9411 838.40637 4282204247
49.629356 799.9411 838.40637 4282336341
52.288074 799.94116 838.40637 4282861659
56.128437 799.71527 838.216 4283188832
58.491745 799.9411 838.40637 4283517286
60.264221 799.26355 837.83508 4283059541
19.436697 805.47302 839.14661 4282859598
22.087156 805.47302 839.14661 4282728791
25.326607 804.57245 838.38739 4282070611
28.271559 804.12219 838.00769 4282398030
30.922018 804.12219 838.00769 4282662480
34.455963 804.12219 838.00769 4282729549
37.106422 804.12219 838.00769 4282861133
40.640366 804.12219 838.00769 4283189844
7.9266057 808.96393 838.16602 4282530887
10.568808 808.96393 838.16602 4282925641
13.504588 808.51508 837.78754 4282728778
16.440367 808.06616 837.409 4282662987
0.88073397 811.37854 838.23987 4282533197
4.3981652 811.37854 838.23987 4282925141
7.9266057 810.31061 839.30151 4282925643
10.568808 810.31061 839.30151 4282992721
13.21101 810.31061 839.30151 4282926415
-7.0238533 815.13135 839.44214 4282270540
-4.3899083 815.13135 839.44214 4282336588
-1.7559633 814.46008 838.87616 4282402378
-58.701836 817.21948 838.58667 4280689449
-55.4893 817.44269 838.7749 4281411631
-24.53211 817.88928 839.15149 4283650393
-19.275229 817.88928 839.15149 4284111729
-16.35474 817.44269 838.7749 4283322980
-13.142202 817.21948 838.58667 4282532432
-10.513762 817.21948 838.58667 4282596948
-8.7614679 817.21948 838.58667 4282662742
-52.403671 820.01245 837.01758 4281871156
-50.074615 820.45758 837.39288 4281805882
-46.289909 820.01245 837.01758 4281675324
-43.669724 821.3479 838.14355 4281807941
-41.049541 820.68018 837.58057 4281807939
-37.264832 820.90277 837.76825 4282005061
