# .PCD v0.7 - Point Cloud Data file format
VERSION 0.7
FIELDS x y z rgb
SIZE 4 4 4 4
TYPE F F F U
COUNT 1 1 1 1
WIDTH 1081
HEIGHT 1
VIEWPOINT 0 0 0 1 0 0 0
POINTS 1081
DATA ascii
5.0036697 762.46222 732.24744 4294504703
7.5055046 763.09979 732.78503 4294636799
11.119266 762.88727 732.60577 4294769407
13.34312 763.09979 732.78503 4294967039
15.844954 763.09979 732.78503 4294967295
18.90275 763.31232 732.96417 4294967295
21.68257 763.73737 733.32263 4294967295
7.5055046 765.01245 734.39771 4294308861
10.841284 765.01245 734.39771 4294835455
13.34312 765.01245 734.39771 4294966783
15.844954 765.01245 734.39771 4294967295
19.159634 766.45032 734.30206 4294967295
22.466972 767.25208 733.67004 4294967295
25.795414 767.25208 733.67004 4294967295
28.291742 766.61597 733.13367 4294967295
4.183486 761.32794 735.21509 4294241535
10.040367 761.32794 735.21509 4294703103
1.6733944 763.24695 736.83319 4294110975
4.183486 763.24695 736.83319 4294307583
7.5302753 763.8866 737.37256 4294440701
10.040367 763.8866 737.37256 4294638079
8.3394499 767.56268 736.54797 4294572287
11.119266 767.1377 736.18964 4294835199
13.34312 766.92517 736.01044 4294966783
15.566974 766.71265 735.83124 4294967295
26.686239 767.56268 736.54797 4294967295
28.354128 766.92517 736.01044 4294967295
30.022018 766.92517 736.01044 4294967295
1.66789 768.83777 737.62317 4294111743
7.5055046 768.83777 737.62317 4294309119
10.841284 768.83777 737.62317 4294703359
13.34312 768.83777 737.62317 4294966783
16.098471 769.47705 736.41815 4294967295
19.138531 769.79675 735.81555 4294967295
22.466972 769.79669 735.81555 4294967295
25.537615 769.47705 736.41815 4294967295
28.354128 768.83777 737.62317 4294967295
30.855965 768.83777 737.62317 4294967295
16.642202 771.7052 737.42468 4294967295
19.138531 771.7052 737.42468 4294967295
22.466972 771.7052 737.42468 4294967295
24.963303 771.7052 737.42468 4294967295
1.6733944 765.16595 738.45117 4293783037
4.0161467 766.18939 739.31409 4294110718
6.6935778 765.16595 738.45117 4294440447
0.83394498 770.11292 738.69836 4288984527
5.0036697 770.11292 738.69836 4294965247
7.5055046 770.11292 738.69836 4294440447
10.841284 770.11292 738.69836 4294637823
13.34312 770.11292 738.69836 4294966783
15.011009 770.11292 738.69836 4294967295
26.686239 770.11292 738.69836 4294967295
28.354128 770.11292 738.69836 4294967295
30.855965 770.11292 738.69836 4294967295
0.83394498 771.38806 739.77344 4285499339
5.0036697 771.38806 739.77344 4294967295
7.7834868 771.81305 740.13184 4294834943
10.841284 772.02557 740.31104 4294901247
13.888074 772.34296 739.70654 4294900735
16.642202 772.97748 738.49756 4294967295
19.138531 772.97748 738.49756 4294967295
22.761467 772.87274 739.28125 4294967295
25.838533 772.42291 739.99207 4294967295
28.354128 772.02563 740.31104 4294967295
30.855965 772.02563 740.31104 4294967295
33.3578 772.66315 740.84863 4294967295
14.977982 774.88593 740.10669 4294967295
16.642202 774.88593 740.10669 4294967295
19.138531 774.88593 740.10669 4294967295
21.634863 774.88593 740.10669 4294967295
0.83669722 770.2832 742.76599 4282205503
3.904587 769.85675 742.40643 4292400371
6.6935778 770.2832 742.76599 4294966783
0.83669722 771.56256 743.84473 4281942073
4.183486 771.56256 743.84473 4292597992
7.5165138 772.75043 742.88422 4294834943
10.841284 773.93829 741.92371 4294967039
13.34312 773.93829 741.92371 4294967295
23.350458 773.93829 741.92371 4294967295
25.852295 773.93829 741.92371 4294967295
28.354128 773.93829 741.92371 4294967295
30.855965 773.93829 741.92371 4294967295
33.3578 773.93829 741.92371 4294967295
11.675229 775.21338 742.9989 4294967295
13.34312 775.21338 742.9989 4294967295
15.826606 776.00391 742.35736 4294967295
19.158714 776.00391 742.35736 4294967295
22.516514 775.21338 742.9989 4294967295
25.852295 775.21338 742.9989 4294967295
28.354128 775.21338 742.9989 4294967295
30.855965 775.21338 742.9989 4294967295
33.3578 775.21338 742.9989 4294967295
1.6733944 772.84192 744.92334 4287598227
4.183486 772.84192 744.92334 4293058291
7.5302753 772.84192 744.92334 4294966015
10.040367 772.84192 744.92334 4294966783
1.6733944 774.12122 746.00208 4286744732
4.183486 774.12122 746.00208 4291677428
7.5302753 774.12122 746.00208 4294967295
10.857798 775.30487 745.03802 4294967295
13.34312 776.48853 744.07397 4294967295
15.844954 776.48853 744.07397 4294967295
19.180733 776.48853 744.07397 4294967295
22.516514 776.48853 744.07397 4294967295
25.852295 776.48853 744.07397 4294967295
28.354128 776.48853 744.07397 4294967295
30.855965 776.48853 744.07397 4294967295
33.3578 776.48853 744.07397 4294967295
16.6789 777.76361 745.14917 4294967295
19.180733 777.76361 745.14917 4294967295
22.516514 777.76361 745.14917 4294967295
25.852295 777.76361 745.14917 4294967295
28.354128 777.76361 745.14917 4294967295
30.855965 777.76361 745.14917 4294967295
33.3578 777.76361 745.14917 4294967295
1.1155963 776.25342 747.79987 4281022034
4.1862383 775.64703 747.94269 4283660452
7.5302753 776.04022 747.62012 4294244605
10.877064 776.04022 747.62012 4294967295
13.387156 776.04016 747.62012 4294967295
15.61835 776.25342 747.79987 4294967295
19.244038 776.67987 748.15942 4294967295
22.590824 776.67987 748.15942 4294967295
25.937614 776.67987 748.15942 4294967295
28.447706 776.67987 748.15942 4294967295
30.957798 776.67987 748.15942 4294967295
33.467892 776.67987 748.15942 4294967295
8.3669729 777.95917 749.23816 4294967295
10.877064 777.95917 749.23816 4294967295
13.387156 777.95917 749.23816 4294967295
15.897248 777.95917 749.23816 4294967295
19.244038 777.95917 749.23816 4294967295
22.590824 777.95917 749.23816 4294967295
25.937614 777.95917 749.23816 4294967295
28.447706 777.95917 749.23816 4294967295
30.957798 777.95917 749.23816 4294967295
1.6770642 776.38947 750.53064 4278259750
4.1926603 776.38947 750.53064 4284310671
6.7082567 776.38947 750.53064 4293913338
7.8262992 778.09894 751.97198 4294967039
10.88899 779.09607 751.50488 4294967295
13.387156 779.23853 750.31689 4294967295
15.629359 779.14355 751.10889 4294967295
19.244038 779.23853 750.31689 4294967295
22.590824 779.23853 750.31689 4294967295
25.980732 778.70441 751.82849 4294967295
28.510092 778.31262 752.15222 4294967295
31.025688 777.67157 751.61169 4294967295
13.387156 780.51782 751.39551 4294967295
16.733946 780.51782 751.39551 4294967295
19.244038 780.51782 751.39551 4294967295
22.590824 780.51782 751.39551 4294967295
1.1217126 776.17865 754.27686 4279836471
4.2064219 775.96423 754.09613 4284645003
6.7302752 776.60742 754.63843 4294967295
31.127522 776.60742 754.63843 4294967295
7.5715594 777.8938 755.72314 4294967295
26.079817 777.8938 755.72314 4294967295
28.60367 777.8938 755.72314 4294967295
30.286238 777.8938 755.72314 4294967295
11.180428 780.66327 754.13409 4294967039
13.416513 780.87689 754.31433 4294967295
15.93211 780.87695 754.31433 4294967295
19.28624 780.87689 754.31433 4294967295
22.360855 780.66327 754.13409 4294967295
0.84311926 776.3324 757.02271 4280495682
4.2155962 776.3324 757.02271 4286027660
32.038532 776.3324 757.02271 4294967295
1.6862385 777.62152 758.10962 4279773239
4.2155962 777.62152 758.10962 4288519315
7.5715594 779.18011 756.80774 4294967295
10.095413 779.18011 756.80774 4294966783
23.555964 779.18011 756.80774 4294967295
26.079817 779.18011 756.80774 4294967295
28.60367 779.18011 756.80774 4294967295
31.195412 777.62152 758.10962 4294967295
8.4128437 780.46643 757.89233 4294967295
10.936697 781.10962 758.43463 4294967295
13.46055 781.10962 758.43463 4294967295
15.984404 781.10962 758.43469 4294967295
19.349541 781.10962 758.43469 4294967295
22.43425 780.8952 758.25391 4294967295
1.6917431 776.57709 761.15308 4281218632
4.2155962 778.91071 759.19666 4289440417
6.7449541 778.91071 759.19666 4294967295
26.136696 778.91071 759.19666 4294967295
28.666056 778.91071 759.19666 4294967295
31.195412 778.91071 759.19666 4294967295
4.4966359 780.62958 760.64594 4292594910
7.5880728 780.84436 760.82715 4294967295
10.96055 781.48895 761.37061 4294967295
13.489908 781.48895 761.37061 4294967295
16.862385 781.48895 761.37061 4294967295
19.391743 781.48895 761.37061 4294967295
23.045259 781.05927 761.0083 4294967295
26.136696 780.84436 760.82715 4294967295
28.666056 780.84436 760.82709 4294967295
30.914373 780.62958 760.64594 4294967295
15.143119 783.03912 760.06152 4294967295
1.1278287 778.73267 762.97052 4284704390
3.3834863 779.16376 763.33411 4288650179
32.14312 779.16376 763.33411 4294967295
4.2293577 780.45715 764.42456 4291809508
7.5880733 782.77814 762.45752 4294967295
10.96055 782.77814 762.45752 4294967295
13.489908 782.77814 762.45752 4294967295
16.019266 782.77814 762.45752 4294967295
19.391743 782.77814 762.45752 4294967295
22.802753 781.61768 763.44104 4294967295
25.376146 780.45715 764.42456 4294967295
27.913761 780.45715 764.42456 4294967295
31.247707 781.61768 763.44104 4294967295
8.4311924 784.06726 763.54456 4294967295
11.24159 784.49701 763.90692 4294967295
13.489908 784.06726 763.54456 4294967295
15.176147 784.06726 763.54456 4294967295
0.84770644 778.90979 765.73596 4283261018
1.6954129 780.20593 766.82886 4283333238
4.2339449 781.62628 766.71844 4291611358
6.7669725 781.75049 765.51514 4294967295
16.917431 781.75049 765.51514 4294967295
19.455046 781.75049 765.51514 4294967295
22.838531 781.75049 765.51514 4294967295
25.403669 781.62628 766.71844 4294967295
27.651377 781.66766 766.31738 4294967295
31.297249 781.75049 765.51514 4294967295
7.8948007 783.47491 766.96924 4294967295
10.714374 783.90607 767.3327 4294967295
13.533945 783.69049 767.15094 4294967295
16.07156 783.69055 767.15094 4294967295
19.455046 783.69055 767.15094 4294967295
22.556574 783.47491 766.96924 4294967295
28.759632 783.04382 766.60571 4294967295
31.015291 783.47491 766.96924 4294967295
-1.7045871 776.3446 770.11328 4283916161
0 776.3446 770.11328 4279648830
1.7009175 779.18951 769.896 4283788106
0.85045874 780.48987 770.99243 4280238694
4.2440367 781.64404 770.00354 4291349213
6.7816515 782.79822 769.01465 4294967295
23.735781 782.79822 769.01465 4294967295
25.431192 782.79822 769.01465 4294967295
27.974312 782.79822 769.01465 4294967295
7.6293578 784.09442 770.10754 4294967295
10.99633 785.63055 768.78674 4294967295
13.533945 785.63055 768.78674 4294967295
16.07156 785.63055 768.78674 4294967295
19.455046 785.63055 768.78674 4294967295
22.888073 784.09442 770.10754 4294967295
25.431192 784.09442 770.10754 4294967295
27.974312 784.09442 770.10754 4294967295
30.517431 784.09442 770.10754 4294967295
-1.7045871 778.29932 771.76147 4281349206
0 777.64777 771.21204 4279313926
0.85229355 780.25409 773.40967 4281157188
4.2559633 781.02216 772.74927 4291546846
-1.7009175 783.09058 773.1853 4280428103
0.85045874 783.09058 773.1853 4281028978
4.2522936 783.09058 773.1853 4292071906
7.6541286 783.09058 773.1853 4294967295
11.020184 785.39056 771.20044 4294967295
13.563303 785.39056 771.20044 4294967295
16.106422 785.39056 771.20044 4294967295
19.497248 785.39056 771.20044 4294967295
22.888073 785.39056 771.20044 4294967295
25.513762 783.09058 773.1853 4294967295
28.065138 783.09058 773.1853 4294967295
30.517431 785.39056 771.20044 4294967295
11.86789 786.68671 772.29333 4294967295
13.563303 786.68671 772.29333 4294967295
16.106422 786.68671 772.29333 4294967295
19.497248 787.33478 772.83978 4294967295
22.040367 786.68671 772.29333 4294967295
30.517431 786.68671 772.29333 4294967295
0.85229355 782.86041 775.6073 4282799965
4.2614679 782.86041 775.6073 4292663016
6.8183484 782.86041 775.6073 4294967295
-1.7009175 784.39099 774.28174 4279843673
0.85229355 784.16364 776.70605 4283392106
4.2614679 784.16364 776.70605 4291940047
7.9486237 784.23944 775.89795 4293781756
10.772476 785.25787 775.0127 4292994295
13.60734 785.69135 775.37817 4292401151
16.158716 785.69135 775.37817 4294967295
23.245871 785.25787 775.0127 4294967295
25.513762 785.04114 774.82996 4294967295
28.065138 785.0412 774.82996 4294967295
30.68257 784.16364 776.70605 4294967295
13.60734 786.9917 776.47461 4288843710
16.158716 786.9917 776.47461 4294967295
19.560551 786.9917 776.47461 4294967295
22.111927 786.9917 776.47461 4294967295
25.513762 786.9917 776.47461 4294967295
27.21468 786.9917 776.47461 4294967295
0.85229355 785.4668 777.80493 4284505456
4.2614679 785.4668 777.80493 4281746021
7.6706419 785.4668 777.80493 4278190157
11.079817 785.4668 777.80493 4278190162
23.86422 785.4668 777.80493 4294967295
29.07156 783.17944 779.80029 4294967295
30.68257 785.4668 777.80493 4294967295
1.7045871 786.76996 778.90369 4286482072
4.2614679 786.76996 778.90369 4281547589
7.6706419 786.76996 778.90369 4278190089
11.079817 786.76996 778.90369 4278190082
13.636697 786.76996 778.90369 4288058821
16.193579 786.76996 778.90369 4294967295
19.560551 788.29205 777.57104 4294967295
23.011927 786.76996 778.90369 4294967295
25.568808 786.76996 778.90369 4294967295
28.125687 786.76996 778.90369 4294967295
1.7100917 785.79419 782.005 4286746527
30.781651 785.1405 781.45386 4294967295
4.2614679 788.07312 780.00244 4285231786
7.6706419 788.07312 780.00244 4278194699
11.079817 788.07312 780.00244 4280295460
13.636697 788.07312 780.00244 4289372621
16.193579 788.07312 780.00244 4294967295
19.602753 788.07312 780.00244 4294967295
23.011927 788.07312 780.00244 4294967295
25.568808 788.07312 780.00244 4294967295
28.125687 788.07312 780.00244 4294967295
20.455046 789.37628 781.10132 4294967295
30.68257 790.67944 782.20007 4294967295
0 788.40894 784.20972 4282860381
4.2752295 787.75525 783.65857 4289305300
7.6954126 787.75525 783.65857 4281941039
11.115597 787.75525 783.65857 4280558637
13.680734 787.75525 783.65857 4289505998
16.245872 787.75525 783.65857 4294967295
19.381039 787.97314 783.84229 4294967295
23.086239 787.75525 783.65857 4294967295
25.651377 787.75525 783.65857 4294967295
28.216515 787.75525 783.65857 4294967295
30.781651 787.10156 783.10742 4294967295
6.8403668 789.71637 785.31213 4285100453
10.26055 789.71637 785.31213 4278190091
16.245872 789.71637 785.31213 4294967295
19.666054 789.71637 785.31213 4294967295
23.086239 789.71637 785.31213 4294967295
25.651377 789.71637 785.31213 4294967295
28.216515 789.71637 785.31213 4294967295
30.68257 791.98267 783.29883 4294967295
4.2844038 788.20551 786.65417 4289966012
8.5688076 788.20551 786.65417 4278190121
11.99633 788.20551 786.65417 4282928486
13.710092 788.20551 786.65417 4289703369
5.1412845 789.51569 787.75891 4288320966
7.7119265 790.17078 788.31128 4279310687
11.13945 790.17078 788.31128 4280756529
13.710092 789.51569 787.75891 4290032082
16.280735 789.51569 787.75891 4294967295
19.708256 789.51569 787.75891 4294967295
23.13578 789.51569 787.75891 4294967295
25.706423 789.51569 787.75891 4294967295
28.562693 789.95239 788.12714 4294967295
30.781651 791.02374 786.41443 4294967295
27.361467 792.33112 787.51672 4294967295
31.636698 792.33112 787.51672 4294967295
1.7229358 785.08691 790.56488 4287995321
4.011621 788.12988 790.51465 4288189897
13.754128 788.56799 790.88403 4290031317
16.333027 788.56799 790.88403 4294967295
19.771561 788.56799 790.88403 4294967295
22.350458 788.56799 790.88403 4294967295
24.929358 788.56799 790.88403 4294967295
3.4385321 789.88245 791.99219 4285431478
7.7366972 789.88245 791.99219 4278190112
10.315597 789.88245 791.99219 4278190080
12.894495 789.88245 791.99219 4286940049
15.473394 789.88245 791.99219 4294967295
19.771561 789.88245 791.99219 4294967295
24.929358 789.88245 791.99219 4294967295
29.227524 789.88245 791.99219 4294967295
31.806421 789.88245 791.99219 4294967295
27.420183 792.7912 790.52069 4294967295
1.1486238 787.94086 792.97119 4286414228
5.1688075 788.37994 793.34143 4278190126
17.229359 788.37994 793.34143 4294967295
22.398165 788.37994 793.34143 4294967295
1.7229358 789.69714 794.45203 4287992231
4.3073397 789.69714 794.45203 4282795586
7.7440367 790.44696 793.77625 4278190085
10.315597 791.19678 793.10046 4278190093
12.894495 791.19678 793.10046 4287203236
16.367889 789.69714 794.45203 4294967295
19.813763 789.69714 794.45203 4294967295
22.398165 789.69714 794.45203 4294967295
24.929358 791.19678 793.10046 4294967295
29.227524 791.19678 793.10046 4294967295
31.806421 791.19678 793.10046 4294967295
8.5963306 792.51123 794.20874 4278190087
10.315597 792.51123 794.20874 4278190091
12.894495 792.51123 794.20874 4287532197
25.78899 792.51123 794.20874 4294967295
28.367889 792.51123 794.20874 4294967295
31.806421 792.51123 794.20874 4294967295
0.57614678 788.32861 797.22223 4284902018
4.3073397 791.01434 795.56274 4289505749
6.8917432 791.01434 795.56274 4282014056
16.367889 791.01434 795.56274 4294967295
19.813763 791.01434 795.56274 4294967295
22.398165 791.01434 795.56274 4294967295
24.121101 791.01434 795.56274 4294967295
3.4458716 792.33154 796.67334 4291935230
7.753211 792.99011 797.22864 4281808187
10.326606 793.73718 796.55048 4278190085
12.915596 793.36365 796.88953 4287861410
16.367889 792.99011 797.22864 4294967295
19.813763 792.99011 797.22864 4294901756
22.398165 792.99011 797.22864 4294967295
24.982571 792.99011 797.22864 4294967295
28.413761 793.36365 796.88959 4294967295
31.565138 793.26862 796.59149 4294967295
0.8642202 790.75122 799.26489 4285558676
4.6091747 790.97144 799.45062 4291870961
32.840366 791.41193 799.82202 4294967295
0.8642202 792.73328 800.93616 4284771990
4.3211012 792.73328 800.93616 4292530917
7.7642202 793.84961 799.91534 4281151550
10.337615 794.96594 798.89453 4278190107
12.922018 794.96594 798.89453 4288058808
16.392662 793.84961 799.91534 4294967295
19.84679 793.84961 799.91534 4294506997
22.469725 792.73328 800.93616 4294967295
25.021101 793.84961 799.91534 4294967295
28.519266 792.73328 800.93616 4294967295
31.976147 792.73328 800.93616 4294967295
10.337615 796.28314 800.00525 4278190080
18.952293 796.28314 800.00525 4294967295
0.8642202 794.05469 802.05029 4284640656
4.3302751 792.56909 803.41382 4292595959
7.7779818 794.05469 802.05029 4281412928
12.963303 794.05469 802.05029 4288321957
16.420183 794.05469 802.05029 4294967295
20.741285 794.05469 802.05029 4294967295
22.469725 794.05469 802.05029 4294967295
25.062386 794.05469 802.05029 4294967295
28.519266 794.05469 802.05029 4294967295
32.011009 793.31189 802.73206 4294967295
10.370643 795.3761 803.16455 4278190099
12.963303 795.3761 803.16455 4288453049
16.420183 795.3761 803.16455 4294967295
19.877064 795.3761 803.16455 4294967295
22.469725 795.3761 803.16455 4294967295
25.062386 795.3761 803.16455 4294967295
28.519266 795.3761 803.16455 4294967295
31.111927 795.3761 803.16455 4294967295
-5.2128439 790.3407 805.45898 4282925391
-1.7376146 790.3407 805.45898 4281939777
1.7376146 791.66907 806.57898 4288850120
3.4752293 791.66907 806.57898 4293056511
5.1963301 793.89331 804.5304 4291543286
7.7944956 793.89331 804.5304 4281019467
32.910091 793.89331 804.5304 4294967295
10.381651 796.61963 805.52106 4278190081
12.990826 795.21753 805.64685 4288716717
16.455046 795.21753 805.64685 4294967295
19.909174 796.24963 805.86316 4294967295
22.493578 796.61963 805.52106 4294967295
25.101835 796.24963 805.8631 4294967295
28.549541 796.61963 805.52112 4294967295
32.027523 796.24963 805.8631 4294967295
-4.3577981 789.44489 808.62769 4282464841
-1.7431192 790.11121 809.18951 4281939780
0.58103973 790.33331 809.37677 4284375168
-6.9504585 794.32593 808.81921 4282727498
-4.3440366 793.66168 808.25916 4282728525
-1.7376146 794.32593 808.81921 4282598992
1.7376146 794.32593 808.81921 4289177288
4.3440366 793.66168 808.25916 4290161897
7.8192658 793.66174 808.25916 4279047766
13.03211 794.32593 808.81921 4288979644
16.507339 794.32593 808.81921 4294967295
-4.3440366 795.65436 809.93933 4282532431
7.8192658 795.65436 809.93933 4278190107
10.425688 795.65436 809.93933 4278190080
13.03211 795.65436 809.93933 4289374646
16.507339 795.65436 809.93933 4294967295
19.982569 795.65436 809.93933 4294967295
22.588991 795.65436 809.93933 4294967295
25.195412 795.65436 809.93933 4294967295
28.623852 796.76013 808.90967 4294967295
31.177982 797.86597 807.88 4294967295
0.87155962 792.77643 811.43683 4285821332
4.3577981 793.44275 811.99866 4283257495
10.425688 796.98279 811.05945 4278190080
13.03211 796.98279 811.05945 4289571774
16.507339 796.98279 811.05945 4294967295
19.113762 796.98279 811.05945 4294967295
29.53945 796.98279 811.05945 4294967295
31.277063 796.98279 811.05945 4294967295
-1.746789 791.96838 813.37146 4282598992
0 791.96838 813.37146 4283320428
-4.3577981 794.77539 813.12231 4282335309
-1.746789 793.30377 814.49756 4282598486
0.87339449 793.9715 815.06055 4286413212
4.3577981 794.77539 813.12231 4283452525
7.8440366 794.77539 813.12231 4278190096
20.917431 794.77539 813.12231 4294967295
22.660551 794.77539 813.12231 4294967295
25.27523 794.77539 813.12231 4294967295
27.889908 794.77539 813.12231 4294967295
-4.0672784 796.55225 814.62042 4282073169
-1.7431192 796.10803 814.24597 4281679183
4.3577981 796.10803 814.24597 4284240510
7.8440361 796.77429 814.80774 4278190353
10.458715 796.77435 814.80774 4278190082
13.073395 796.77435 814.80774 4289834946
16.559633 796.77429 814.80774 4294967295
20.045872 796.77435 814.80774 4294967295
22.660551 796.10803 814.24597 4294967295
25.27523 796.10803 814.24597 4294967295
28.761467 796.10803 814.24597 4294967295
31.376146 796.77435 814.80774 4294967295
-1.7522936 793.7757 818.81946 4281940561
0 793.7757 818.81946 4283976298
-3.493578 797.31006 817.87549 4282401112
-1.746789 797.31006 817.87549 4281677388
1.746789 796.64233 817.3125 4289767876
4.3669724 796.64233 817.3125 4284832128
7.8605504 797.31006 817.87549 4278190350
17.46789 797.31006 817.87549 4294967295
20.088074 797.31006 817.87549 4294967295
22.708258 796.64233 817.3125 4294967295
25.328442 796.64233 817.3125 4294967295
28.822018 796.64233 817.3125 4294967295
31.442202 797.31006 817.87549 4294967295
10.458715 798.77325 816.49316 4278190084
13.073395 798.77325 816.49316 4290558670
15.688073 798.77325 816.49316 4294967295
0.58409786 796.00848 820.70215 4285557113
26.284403 796.45496 821.07861 4294967295
28.036697 796.45496 821.07861 4294967295
-3.493578 798.64551 819.00146 4282926426
-1.746789 798.64551 819.00146 4281741896
4.6581039 799.09064 819.37677 4282925156
7.8605504 799.31323 819.56451 4278190086
10.480734 799.31323 819.56451 4278190082
13.100918 799.31323 819.56451 4290362564
16.594496 799.31323 819.56451 4294967295
20.088074 799.31323 819.56445 4294967295
22.708258 798.64551 819.00146 4294967295
24.455046 798.64551 819.00146 4294967295
29.695414 798.64551 819.00146 4294967295
31.442202 799.31323 819.56451 4294967295
33.188992 799.31323 819.56451 4294967295
5.2403669 801.31641 821.25354 4279764006
7.8605504 801.31641 821.25354 4278190080
10.480734 801.31641 821.25354 4278190098
13.100918 801.31641 821.25354 4290426066
15.721101 801.31641 821.25354 4294967295
-3.5045872 797.79462 822.20813 4283123549
-1.7522936 797.79462 822.20813 4282005324
0.58409786 797.27032 823.51019 4285033082
3.5045872 797.79462 822.20813 4289703132
22.779816 797.79462 822.20813 4294967295
25.434862 797.73706 823.46765 4294967295
28.640366 797.75629 823.04785 4294967295
-4.088685 800.02734 824.09076 4282729304
-1.7522936 799.80408 823.90247 4281939531
1.1681957 800.02734 824.09076 4286546327
4.088685 800.02734 824.09076 4290028498
17.522936 799.80408 823.90247 4294967295
19.275229 799.80408 823.90247 4294967295
21.903671 799.80408 823.90247 4294967295
29.78899 799.13428 823.33765 4294967295
31.541285 799.80408 823.90247 4294967295
33.877674 799.58081 823.71417 4294967295
-4.3669724 803.98724 823.50549 4282334805
7.8605504 802.65186 822.37952 4288712601
10.480734 803.31958 822.9425 4291475616
13.100918 803.31958 822.9425 4294109147
15.721101 802.65186 822.37952 4294967295
34.93578 802.65186 822.37952 4294967295
-3.493578 805.32269 824.63159 4282401114
10.480734 805.32269 824.63159 4294967295
34.025688 806.0459 823.93329 4294967295
36.605503 806.76904 823.23499 4294967295
36.605503 808.10168 824.35864 4294967295
22.827522 800.36438 826.99097 4294967295
25.461468 799.69312 826.42505 4294967295
28.973396 799.69312 826.42505 4294967295
31.60734 800.36438 826.99097 4294967295
-5.2568808 803.1532 826.72632 4282661203
-1.7522936 802.4834 826.16156 4281742927
0.87614679 802.48334 826.1615 4284571512
4.380734 802.48334 826.1615 4292658654
7.8853211 802.4834 826.1615 4293912554
13.142202 803.1532 826.72632 4294967295
16.64679 802.48334 826.1615 4294967295
19.275229 802.4834 826.16156 4294967295
21.027523 802.4834 826.16156 4294967295
34.169724 801.81354 825.5968 4294967295
-4.3752294 805.5755 826.80676 4282334550
-1.7522936 804.49286 827.85596 4282071892
0 804.49286 827.85596 4280825421
4.380734 804.49286 827.85596 4292201184
7.8853211 804.49286 827.85596 4294967295
10.513762 804.49286 827.85596 4294967295
13.142202 804.49286 827.85596 4294967295
34.062386 806.65814 825.75757 4294967295
1.7559633 803.04932 829.25488 4286220703
16.681652 803.04932 829.25488 4294967295
19.315596 803.04932 829.25488 4294967295
22.242203 802.60181 828.87762 4294967295
25.461468 801.70685 828.12292 4294967295
28.973394 801.70685 828.12292 4294967295
31.60734 801.70685 828.12292 4294967295
-4.380734 805.83246 828.98547 4281941841
-1.7522936 805.83246 828.98547 4281481810
0.87798166 804.39172 830.38672 4282670963
4.3844037 805.11206 829.6861 4290888926
7.8926606 805.11206 829.6861 4294967295
10.513762 805.83246 828.98547 4294967295
13.156881 805.11206 829.6861 4294967295
16.681652 804.39172 830.38672 4294967295
33.363304 804.39172 830.38672 4294967295
-3.5045872 807.17212 830.11499 4281942361
8.7614679 807.17212 830.11499 4294967295
12.266055 807.17212 830.11499 4294967295
25.541285 800.88397 831.35327 4294967295
29.06422 800.88397 831.35327 4294967295
31.706423 800.88397 831.35327 4294967295
19.376146 802.90399 833.0564 4294967295
22.018349 802.90399 833.0564 4294967295
25.541285 802.23065 832.48865 4294967295
28.770643 802.6795 832.86719 4294967295
31.706423 802.90399 833.0564 4294967295
33.467892 803.57733 833.62415 4294967295
-7.0238533 805.73419 831.51868 4281809735
-5.26789 805.73419 831.51868 4282073164
-1.7559633 805.73419 831.51868 4281481810
0.87798166 805.73419 831.51868 4282930799
4.3899083 805.73419 831.51868 4290887904
7.0238533 805.73419 831.51868 4294967295
10.53578 805.73419 831.51868 4294967295
14.047707 805.73419 831.51868 4294967295
16.681652 805.73419 831.51868 4294967295
-7.0238533 807.74786 833.21655 4281874506
-4.3899083 807.74786 833.21655 4282006866
-1.7559633 807.74786 833.21655 4281481809
5.26789 807.07666 832.65063 4293848063
7.901835 807.07666 832.65063 4294967295
10.53578 807.07666 832.65063 4294967295
13.169725 807.07666 832.65063 4294967295
22.087156 802.7713 836.86865 4294967295
25.621101 802.09583 836.29913 4294967295
28.271559 802.7713 836.86865 4294967295
30.627523 802.32098 836.48895 4294967295
0.88073397 805.59729 835.32739 4282930798
4.1100917 805.82178 835.5166 4289374928
7.9266057 806.27063 835.89502 4294967295
10.568808 806.27063 835.89502 4294967295
13.21101 806.27063 835.89502 4294967295
16.733946 805.59729 835.32739 4294967295
19.376146 804.92395 834.75964 4294967295
33.467892 804.92395 834.75964 4294967295
-7.901835 811.104 836.04639 4281743945
14.135779 805.47302 839.14661 4294967295
16.78624 805.47302 839.14661 4294967295
19.436697 804.79761 838.57715 4294967295
22.087158 804.79761 838.57715 4294967295
25.621101 804.12219 838.00769 4294967295
28.271559 804.12219 838.00769 4294967295
31.216513 804.57245 838.38739 4294967295
33.572475 804.79761 838.57715 4294967295
-7.9266057 807.61731 837.03052 4281745225
-4.4036698 808.29065 837.59827 4282138194
-1.7614679 808.29065 837.59827 4282006353
0.88073397 807.61731 837.03052 4283260016
4.4036698 807.61731 837.03052 4289967319
7.9266057 808.29065 837.59827 4294967039
10.568808 808.29065 837.59827 4294967295
12.330276 807.61731 837.03052 4294967295
-7.0458717 810.31061 839.30151 4281941578
25.700916 803.3288 841.2627 4294967295
28.359632 803.3288 841.2627 4294967295
30.132111 803.3288 841.2627 4294967295
0.88348621 806.82391 840.28564 4283260016
4.4174314 806.82391 840.28564 4289508054
13.252294 806.82391 840.28564 4294967295
16.78624 806.82391 840.28564 4294967295
19.436697 806.82391 840.28564 4294967295
22.155964 804.68384 842.40527 4294967295
25.700916 804.68384 842.40527 4294967295
28.359632 804.68384 842.40527 4294967295
30.968807 805.75391 841.34546 4294967295
33.572475 806.82391 840.28564 4294967295
-7.0678897 809.52563 842.56372 4282071367
-4.7119269 808.62506 841.80438 4282269263
-1.7669724 808.85022 841.9942 4281939277
0.88348621 808.17474 841.42468 4282865260
4.4174314 808.17474 841.42468 4288983763
7.951376 808.85016 841.9942 4294835199
10.601835 808.85022 841.9942 4294967295
13.252294 808.17474 841.42468 4294967295
15.902752 808.17474 841.42468 4294967295
31.805504 809.52563 842.56372 4294967295
33.572475 808.85022 841.9942 4294967295
17.724771 806.03894 843.54785 4294967295
19.497248 806.03894 843.54785 4294967295
22.155964 806.03894 843.54785 4294967295
25.754128 804.61505 844.96338 4294967295
28.418348 804.61505 844.96338 4294967295
31.018349 806.03894 843.54785 4294967295
-4.1357799 808.29736 845.45215 4282400850
-1.772477 808.74908 845.83301 4282071115
0.88623852 808.07153 845.26172 4282141536
4.4311924 808.07153 845.26172 4288981713
7.9761467 808.74908 845.83301 4294572287
13.293577 808.07153 845.26172 4294967295
16.838531 808.07153 845.26172 4294967295
19.497248 808.07153 845.26172 4294967295
22.155964 807.39398 844.69043 4294967295
28.359632 807.39398 844.69043 4294967295
30.722937 808.29736 845.45215 4294967295
33.677063 808.74908 845.83301 4294967295
10.601835 810.87646 843.70276 4294967295
25.754128 805.97296 846.10828 4294967295
-4.4403667 808.68872 848.39807 4282531917
-1.7761468 808.68872 848.39807 4282268744
0.88807338 808.68872 848.39807 4282074963
4.4403667 808.68872 848.39807 4288586962
17.761467 808.68872 848.39807 4294967295
19.537615 808.68872 848.39807 4294967295
22.201834 808.00977 847.82556 4294967295
25.754129 808.00977 847.82556 4294967295
28.418348 808.00977 847.82562 4294967295
30.194496 808.68872 848.39807 4294967295
33.746788 808.68872 848.39807 4294967295
8.2715597 810.55585 847.35645 4294769151
10.634862 810.78168 847.54688 4294967295
13.293577 810.78168 847.54688 4294967295
15.952293 810.10413 846.97559 4294967295
31.904587 810.78168 847.54688 4294967295
0 807.92761 851.68054 4281614410
3.5633028 807.92761 851.68054 4284835225
25.833946 807.92761 851.68054 4294967295
-4.4403667 810.72552 850.11554 4282531151
-1.7761468 811.40448 850.68799 4282793557
1.7761468 810.04657 849.54309 4282535512
5.3284402 810.72552 850.11554 4292074239
7.9926605 811.40442 850.68799 4294637567
10.65688 812.08337 851.26044 4294967295
13.006726 812.79694 850.11816 4294967295
16.873394 811.40448 850.68799 4294967295
19.537615 811.40448 850.68799 4294967295
21.905809 810.49921 849.92474 4294967295
28.418348 810.04657 849.54309 4294967295
30.786545 810.95184 850.30634 4294967295
33.746788 810.72552 850.11554 4294967295
14.179816 814.16937 850.4032 4294967295
0.89082569 809.28967 852.82898 4282008148
3.5633028 809.28967 852.82898 4284180112
23.161469 809.28967 852.82898 4294967295
25.833946 809.28967 852.82898 4294967295
28.506422 809.28967 852.82898 4294967295
-4.4541283 810.65173 853.97742 4282465100
0.89082569 810.65173 853.97742 4281480779
4.4541283 810.65173 853.97742 4288519624
7.1266055 810.65173 853.97742 4294372863
22.270641 810.65173 853.97742 4294967295
25.833946 810.65173 853.97742 4294967295
28.506422 810.65173 853.97742 4294967295
31.178898 810.65173 853.97742 4294967295
33.851376 810.65173 853.97742 4294967295
10.65688 814.12024 852.97778 4294967295
13.3211 814.79919 853.55029 4294967295
0 809.90747 857.27393 4281348939
-4.4541283 812.01385 855.12598 4282465097
-1.7816514 812.01385 855.12598 4282529870
1.7816514 812.01385 855.12598 4281348939
4.4541283 812.01385 855.12598 4288060101
8.0174313 812.01385 855.12598 4294637311
16.925688 812.01385 855.12598 4294967295
19.598166 812.01385 855.12598 4294967295
22.270641 812.01385 855.12598 4294967295
25.833946 812.01385 855.12598 4294967295
28.506422 812.01385 855.12598 4294967295
31.178898 812.01385 855.12598 4294967295
33.851376 812.01385 855.12598 4294967295
-1.7816514 813.37592 856.27441 4282729293
8.314373 813.83002 856.65723 4294703615
10.689908 814.05701 856.84863 4294967295
13.362385 814.73804 857.42285 4294967295
16.925688 814.05695 856.84863 4294967295
19.598166 814.05701 856.84863 4294967295
21.9737 813.83002 856.65723 4294967295
32.069725 813.37592 856.27441 4294967295
-4.4678898 811.95691 859.00208 4283518810
-1.787156 812.64008 859.578 4283387477
0.89357799 811.95691 859.00208 4281413437
4.4678898 811.95691 859.00208 4287534263
7.1486239 812.64008 859.578 4294110975
23.233028 812.64008 859.578 4294967295
25.913761 811.95691 859.00208 4294967295
28.594496 811.95691 859.00201 4294967295
30.977371 812.18463 859.19403 4294967295
33.955963 811.95691 859.00201 4294967295
-4.4678898 814.00635 860.72998 4283389281
-1.787156 814.00635 860.72998 4284179056
5.3614678 814.00635 860.72998 4291219181
8.042202 814.00635 860.72998 4294440447
16.977982 814.00635 860.72998 4294967295
19.658716 814.00635 860.72998 4294967295
22.339451 814.00635 860.72998 4294967295
25.913761 814.00635 860.72998 4294967295
28.594496 814.00635 860.72998 4294967295
31.27523 814.00635 860.72998 4294967295
33.955963 814.00635 860.72998 4294967295
-7.1266055 816.1001 858.57129 4282139211
10.689908 816.1001 858.57129 4294967295
13.362385 816.1001 858.57129 4294967295
0.89541286 812.61047 862.16919 4282470498
3.5816514 812.61047 862.16919 4282402920
-7.1633029 813.97961 863.32349 4282270792
-4.4770641 813.97961 863.32349 4283257953
-1.7908257 813.97961 863.32349 4284376955
5.3724771 813.97961 863.32349 4291022309
8.0495415 814.67615 862.60278 4294571519
10.722936 815.37268 861.88208 4294967295
13.403669 815.37268 861.88208 4294967295
16.977982 815.37268 861.88208 4294967295
19.658716 815.37268 861.88208 4294967295
22.339451 815.37268 861.88208 4294967295
25.941284 814.67615 862.60278 4294967295
28.594496 815.37268 861.88208 4294967295
31.27523 815.37268 861.88208 4294967295
33.955963 815.37268 861.88208 4294967295
10.722936 816.73895 863.03406 4294967295
13.403669 816.73895 863.03406 4294967295
16.977982 816.73895 863.03406 4294967295
19.658716 816.73895 863.03406 4294967295
21.445871 816.73895 863.03406 4294967295
30.381651 816.73895 863.03406 4294967295
0.89816517 811.89008 865.48572 4283389301
3.5926607 811.89008 865.48572 4282469219
-7.1633029 815.34869 864.47791 4282073416
-4.4825687 814.30603 865.56079 4282601311
-1.7963303 813.26337 866.64368 4283655294
0.89816517 813.26337 866.64368 4282668656
4.4908257 813.26337 866.64368 4287204527
8.0587158 815.34869 864.47791 4294571519
23.280733 815.34869 864.47791 4294967295
25.966972 815.34869 864.47791 4294967295
28.653212 815.34869 864.47791 4294967295
32.234863 815.34869 864.47791 4294967295
34.025688 815.34869 864.47791 4294967295
-10.744954 818.08691 866.78674 4281544769
-8.9541283 817.40234 866.20953 4282334283
8.9541283 816.71783 865.63232 4294967295
10.744954 817.40234 866.20953 4294967295
13.431192 817.40234 866.20953 4294967295
17.012844 817.40234 866.20953 4294967295
19.699083 817.40234 866.20953 4294967295
22.086851 817.17413 866.01709 4294967295
25.07156 816.71783 865.63232 4294967295
0.90091741 812.55554 869.97095 4282995299
34.234863 812.55554 869.97095 4294967295
-7.1853213 814.63666 867.80164 4281941830
-4.4908257 814.63666 867.80164 4282862431
-1.7963303 814.63666 867.80164 4283651960
4.4908257 814.63666 867.80164 4286678967
7.1853213 814.63666 867.80164 4294044158
26.944954 814.63666 867.80164 4294967295
28.741285 814.63666 867.80164 4294967295
31.43578 814.63666 867.80164 4294967295
-7.1853213 816.01001 868.95959 4281809735
-4.4908257 816.01001 868.95959 4282598747
-1.7963303 816.01001 868.95959 4283255917
5.3889909 816.01001 868.95959 4291085567
8.0834866 816.01001 868.95959 4294440191
23.352293 816.01001 868.95959 4294967295
26.046789 816.01001 868.95959 4294967295
17.012844 819.45599 867.94104 4294967295
0.90091741 814.62183 871.71313 4281744214
3.6036696 814.62183 871.7132 4281151339
28.228745 814.85138 871.90674 4294967295
31.532112 814.62183 871.71313 4294967295
34.234863 813.93304 871.13245 4294967295
-12.574312 818.75659 871.27539 4281543486
-10.777982 818.06995 870.69647 4281610562
-8.0834866 818.06995 870.69647 4281808202
-4.4908257 818.06995 870.69647 4282664028
-1.7963303 818.06995 870.69647 4283190630
5.3889909 817.3833 870.11755 4290758399
8.3828745 817.84106 870.50348 4294572287
10.777982 818.06995 870.69647 4294967295
13.472477 818.06995 870.69647 4294967295
17.065138 818.75659 871.27539 4294967295
19.759632 818.06995 870.69647 4294967295
22.454128 817.3833 870.11755 4294967295
25.148624 817.3833 870.11755 4294967295
32.532108 814.61963 875.63538 4294967295
34.339451 813.92871 875.05286 4294967295
-7.2073393 818.06561 874.61694 4282270540
-4.5045872 818.06561 874.61694 4282665047
-1.8018348 818.06561 874.61694 4282927710
0.90091741 816.68811 873.45544 4281677138
4.5045872 817.37683 874.03625 4285100448
7.2073393 817.37683 874.03619 4293782015
9.9100914 818.06561 874.61694 4294967295
13.513762 818.06561 874.61694 4294967295
16.216515 818.06561 874.61694 4294967295
18.919266 818.06561 874.61694 4294967295
22.522936 817.37683 874.03625 4294967295
25.225689 817.37683 874.03619 4294967295
27.92844 817.37683 874.03625 4294967295
30.631193 816.68811 873.45544 4294967295
-7.2073393 819.44312 875.77844 4282270540
-4.5045872 819.44312 875.77844 4282664277
-1.8018348 819.44312 875.77844 4283255135
4.5045872 819.44312 875.77844 4284641946
7.2073393 819.44312 875.77844 4293913599
9.9100914 819.44312 875.77844 4294967295
13.513762 819.44312 875.77844 4294967295
16.216515 819.44312 875.77844 4294967295
18.919266 819.44312 875.77844 4294967295
22.522936 819.44312 875.77844 4294967295
-9.0642204 813.93701 878.98401 4282860381
0.90366971 816.69226 877.38293 4281807440
25.302752 817.38306 877.96545 4294967295
28.013762 817.38306 877.96545 4294967295
31.628439 816.6922 877.38293 4294967295
34.339451 816.6922 877.38293 4294967295
-7.2073393 820.82068 876.93982 4282071892
-4.5045872 820.82068 876.93982 4282729306
-1.8018348 820.82068 876.93982 4283254622
4.5045872 820.82068 876.93982 4285166996
7.2073393 820.82068 876.93982 4294044671
9.9100914 820.82068 876.93982 4294967295
13.513762 820.82068 876.93982 4294967295
16.216515 820.82068 876.93982 4294967295
9.9100914 822.19818 878.10132 4294967295
13.513762 822.19818 878.10132 4294967295
-12.72844 811.87274 881.16748 4281543486
-10.910091 811.87274 881.16748 4281544521
-9.9706421 815.32294 880.15259 4281678151
-9.0366974 818.76477 879.13049 4281875283
0.90366971 818.76477 879.13049 4281741903
18.977064 818.76477 879.13049 4294967295
22.591743 818.76477 879.13049 4294967295
25.302752 818.76477 879.13049 4294967295
28.013762 818.76477 879.13049 4294967295
31.628441 818.76477 879.13049 4294967295
-3.6146789 820.14648 880.29553 4282926426
-1.8073394 820.8374 880.87805 4283254625
0.90366971 820.14648 880.29553 4281939277
4.5183487 820.8374 880.87805 4285558158
7.2293577 820.8374 880.87805 4294306815
9.9403667 821.52826 881.46057 4294967295
13.555046 821.52826 881.46057 4294967295
16.266054 820.8374 880.87805 4294967295
18.977064 820.14648 880.29553 4294967295
22.892967 820.60712 880.6839 4294967295
25.302752 820.8374 880.87805 4294967295
27.110092 820.14648 880.29553 4294967295
32.532108 820.14648 880.29553 4294967295
-13.334557 813.72626 882.73029 4281478201
-10.910091 814.65302 883.51184 4281085767
-9.9871559 817.06897 883.58685 4282071365
-7.2513762 818.09485 882.48975 4282202447
-5.4385319 818.09485 882.48975 4282728791
29.005505 818.09485 882.48975 4294967295
30.818348 818.09485 882.48975 4294967295
-9.0642204 819.48077 883.65833 4282268744
-7.2513762 819.48077 883.65833 4282202447
-4.5321102 819.48077 883.65833 4282465365
-1.812844 820.8667 884.8269 4283189344
0.90642202 819.48077 883.65833 4281743181
4.5321102 820.8667 884.8269 4285884042
7.2513762 820.8667 884.8269 4294504191
9.9706421 820.8667 884.8269 4294967295
13.596331 820.8667 884.8269 4294967295
16.315596 820.8667 884.8269 4294967295
19.337004 819.94269 884.04785 4294967295
22.358408 820.40472 884.43732 4294967295
25.379816 820.8667 884.8269 4294967295
28.099083 820.17371 884.24255 4294967295
30.818348 819.48077 883.65833 4294967295
-9.0917435 818.82343 887.0282 4282007369
-7.2733946 818.82343 887.0282 4282073418
-4.5458717 818.82343 887.0282 4282335313
0.90917432 818.82343 887.0282 4281743179
18.183487 818.82343 887.0282 4294967295
12.689908 822.25262 885.99548 4294967295
29.005505 822.25262 885.99548 4294967295
-10.93211 818.85419 889.67017 4282005572
0.91100919 818.85419 889.67017 4281546057
-9.0917435 820.90869 888.78638 4282202438
-7.2733946 820.90869 888.78638 4282202447
-4.5458717 820.90869 888.78638 4282728790
-1.8183486 820.90869 888.78638 4283123803
0 820.24713 890.84473 4282927710
4.5504589 820.23041 889.52246 4285295247
7.2807341 820.23035 889.52252 4294702335
10.011009 820.23041 889.52246 4294967295
13.959022 820.2359 889.9632 4294967295
16.381651 820.23035 889.52252 4294967295
19.111927 820.23041 889.52246 4294967295
22.752295 820.23041 889.52246 4294967295
25.456881 820.90869 888.78638 4294967295
27.899694 820.68817 889.47247 4294967295
1.827523 818.21234 893.05298 4279835182
-9.1100922 821.64014 892.01917 4282333001
-7.2880735 821.64014 892.01917 4282529872
-4.5550461 821.64014 892.01917 4282662226
-1.8220184 821.64014 892.01917 4282926424
10.93211 821.64014 892.01917 4294967295
13.665138 821.64014 892.01917 4294967295
16.398165 821.64014 892.01917 4294967295
19.131193 821.64014 892.01917 4294967295
22.77523 821.64014 892.01917 4294967295
25.508257 821.64014 892.01917 4294967295
28.241283 821.64014 892.01917 4294967295
-9.0917435 824.38403 891.71667 4282596430
-7.2733946 824.38403 891.71667 4282531916
-4.5495415 823.70856 892.4552 4282925907
-1.8220184 823.03308 893.19373 4283056727
20.042202 823.03308 893.19373 4294967295
22.77523 823.03308 893.19373 4294967295
25.508257 823.03308 893.19373 4294967295
27.330275 823.03308 893.19373 4294967295
-7.2733946 825.77417 892.88879 4282925641
-5.4550457 825.77417 892.88879 4283320399
0.9137615 820.30804 894.82013 4281742666
4.2642202 820.0752 894.62378 4283914111
7.310092 819.6095 894.23108 4294967295
9.746789 820.54095 895.01642 4293782262
13.706423 821.00665 895.40918 4294966783
16.447706 821.00665 895.40918 4294967295
18.275229 821.00665 895.40918 4294967295
-3.6440368 824.42603 894.36816 4283057744
-1.8220184 824.42603 894.36816 4282991951
0 822.40381 896.58716 4283123551
10.965137 822.40381 896.58716 4289305290
16.447706 822.40381 896.58716 4294967295
19.188992 822.40381 896.58716 4294967295
22.77523 824.42603 894.36816 4294967295
25.508257 824.42603 894.36816 4294967295
27.330275 824.42603 894.36816 4294967295
-7.2880735 825.81897 895.5426 4282400330
-4.2513766 826.28326 895.93408 4282860110
-1.8220184 825.81897 895.5426 4282860366
22.77523 825.81897 895.5426 4294967295
-5.4550457 828.55444 895.23315 4282466125
5.4990826 818.98022 897.62463 4292138235
7.3321099 818.98022 897.62463 4293322751
1.8330275 821.08228 899.39697 4282728536
4.2770638 820.84869 899.20001 4284177018
7.3321099 820.38159 898.80615 4291214782
10.081652 821.08228 899.39697 4284044372
13.747706 821.08228 899.39697 4294572283
16.497248 821.78296 899.98779 4294967295
0 823.80096 897.76526 4283188829
19.188992 823.80096 897.76526 4294967295
-1.827523 825.19812 898.94324 4283123026
20.102753 825.19812 898.94324 4294967295
21.930275 825.19812 898.94324 4294967295
5.5155964 819.76495 902.21033 4280953668
7.3541284 819.76495 902.21033 4278190126
9.1926603 819.76495 902.21033 4278190121
0 823.88501 901.76013 4282992731
16.497248 823.18433 901.16931 4294967295
18.941284 824.11859 901.95703 4294967295
1.8385321 821.17053 903.39551 4283189342
4.5963302 821.17053 903.39551 4282072151
7.3541284 821.17053 903.39551 4278190093
10.111927 821.17053 903.39551 4278190081
13.788991 821.17053 903.39551 4294112245
1.8385321 822.57611 904.58057 4283059291
14.708257 822.57611 904.58057 4294967295
16.546789 822.57611 904.58057 4294967295
4.6100917 821.27136 907.40466 4282072913
7.3761468 821.27136 907.40466 4279901735
10.142202 820.56647 906.8103 4278190080
13.830275 821.27136 907.40466 4294704123
16.596331 821.97626 907.99902 4294967295
10.172478 819.97089 910.23218 4278190080
12.946789 819.97089 910.23218 4294770431
