# .PCD v0.7 - Point Cloud Data file format
VERSION 0.7
FIELDS x y z rgb
SIZE 4 4 4 4
TYPE F F F U
COUNT 1 1 1 1
WIDTH 859
HEIGHT 1
VIEWPOINT 0 0 0 1 0 0 0
POINTS 859
DATA ascii
25.976147 794.14758 1253.3989 4293128447
10.667891 789.61713 1256.1191 4293981695
10.667891 791.42944 1257.6473 4286420449
14.223853 791.42944 1257.6473 4292860671
16.594496 791.42944 1257.6473 4294110975
18.965137 791.42944 1257.6473 4293128191
22.521101 791.42944 1257.6473 4293259519
28.447706 791.42944 1257.6473 4292930559
30.818348 791.42944 1257.6473 4293062399
-2.3706422 793.24188 1259.1754 4281483896
10.667891 793.24188 1259.1754 4282546133
14.223853 793.24188 1259.1754 4287867391
16.594496 793.24188 1259.1754 4292999167
18.965137 793.24188 1259.1754 4293982975
22.521101 793.24188 1259.1754 4293325055
26.077065 793.24188 1259.1754 4293325055
28.447706 793.24188 1259.1754 4292930303
30.818348 793.24188 1259.1754 4293193215
33.188992 793.24188 1259.1754 4293390079
-2.3798165 787.80176 1261.1287 4281814132
0 788.71143 1261.8956 4279515503
4.7596331 788.71143 1261.8956 4278206338
7.1394496 787.80176 1261.1287 4285834455
-4.7412844 796.86664 1262.2317 4281944688
-2.3706422 795.96045 1261.4677 4282075765
10.667891 795.0542 1260.7036 4281097882
14.223853 795.96045 1261.4677 4282479808
16.594496 795.96045 1261.4677 4290769663
18.965137 795.96045 1261.4677 4293522687
22.521101 795.96045 1261.4677 4293325055
26.077065 795.96045 1261.4677 4293259007
28.447706 795.96045 1261.4677 4293192703
30.818348 795.96045 1261.4677 4293127167
33.188992 795.96045 1261.4677 4292995583
37.930275 795.0542 1260.7036 4293061631
40.300919 795.96045 1261.4677 4293061631
42.671558 795.96045 1261.4677 4292930303
45.042202 796.86664 1262.2317 4293325055
7.1889906 776.49084 1263.3638 4291878143
0 784.71198 1263.7555 4284116871
4.774312 784.71198 1263.7555 4286485688
-4.774312 786.53699 1265.2943 4281024864
2.387156 786.53699 1265.2943 4280173432
-4.7596331 790.53076 1263.4297 4281549689
1.1899083 790.53076 1263.4297 4281091970
4.7596331 790.53076 1263.4297 4279715198
7.1394496 790.53076 1263.4297 4280833422
35.697247 790.53076 1263.4297 4293719295
38.077065 790.53076 1263.4297 4293521919
-4.7596331 792.35016 1264.9637 4281878391
1.1899083 792.35016 1264.9637 4282405252
4.7596331 792.35016 1264.9637 4282143629
7.1394496 792.35016 1264.9637 4283919784
35.697247 792.35016 1264.9637 4293390079
-2.3706422 799.58514 1264.5239 4282010741
11.853211 800.49133 1265.2881 4282669473
14.223853 799.58514 1264.5239 4283268019
16.594496 799.58514 1264.5239 4291360255
18.965137 799.58514 1264.5239 4293522687
22.521101 799.58514 1264.5239 4292996095
26.077065 799.58514 1264.5239 4293259519
28.447706 799.58514 1264.5239 4293193727
30.818348 799.58514 1264.5239 4293127935
33.979206 799.28302 1264.2692 4292996095
40.300919 799.58514 1264.5239 4293126911
42.671558 799.58514 1264.5239 4293061375
45.042202 799.58514 1264.5239 4293192959
16.530275 808.59045 1265.5769 4293325567
22.433945 808.59045 1265.5769 4292798975
25.976147 808.59045 1265.5769 4293062143
28.337614 808.59045 1265.5769 4293062399
30.699083 808.59045 1265.5769 4292930815
23.522936 816.64746 1265.8301 4292864767
31.755962 816.64746 1265.8301 4292798975
4.8110094 773.74469 1267.5885 4289443817
-4.7926607 781.98688 1267.9979 4280432232
-2.3963304 780.15485 1266.4532 4285627571
1.1981652 781.07086 1267.2256 4285563305
4.7926607 780.15485 1266.4532 4288454361
7.1889906 780.15485 1266.4532 4293520383
-7.161468 788.36194 1266.8331 4281418353
-9.548624 790.18695 1268.3719 4281550443
-7.161468 790.18695 1268.3719 4281682285
-7.1394496 794.16956 1266.4978 4281682798
1.1899083 794.16956 1266.4978 4282274430
4.7596331 794.16956 1266.4978 4282931607
7.1394496 794.16956 1266.4978 4284576433
10.709174 794.16956 1266.4978 4282277527
35.697247 794.16956 1266.4978 4293259007
38.077065 794.16956 1266.4978 4293127167
-7.1394496 795.98895 1268.0319 4281552240
-4.7596331 795.98895 1268.0319 4281814385
1.1899083 795.98895 1268.0319 4282340224
4.7596331 795.98895 1268.0319 4283129237
7.1394496 795.98895 1268.0319 4283984546
10.709174 795.98895 1268.0319 4283064738
38.077065 795.98895 1268.0319 4293061119
-4.7412844 802.30371 1266.8162 4282075769
-2.3706422 802.30371 1266.8162 4282141562
11.853211 802.30371 1266.8162 4283129252
14.223853 802.30371 1266.8162 4285896920
16.594496 802.30371 1266.8162 4292081663
18.965137 802.30371 1266.8162 4293588479
22.521101 802.30371 1266.8162 4292863999
26.077065 802.30371 1266.8162 4293192703
28.447706 802.30371 1266.8162 4292930559
30.818348 802.30371 1266.8162 4292996607
34.374313 802.30371 1266.8162 4292931071
37.930275 802.30371 1266.8162 4293061631
40.300919 802.30371 1266.8162 4293127423
42.671558 802.30371 1266.8162 4293193471
-4.7412844 804.11609 1268.3444 4281943934
-2.3706422 804.11609 1268.3444 4282075263
10.667891 804.11609 1268.3444 4283196067
14.223853 804.11609 1268.3444 4287408112
16.594496 804.11609 1268.3444 4292671487
18.965137 804.11609 1268.3444 4293522943
22.521101 804.11609 1268.3444 4292798719
26.077065 804.11609 1268.3444 4293192959
28.447706 804.11609 1268.3444 4293062399
30.818348 804.11609 1268.3444 4292996607
34.374313 804.11609 1268.3444 4292930815
37.930275 804.11609 1268.3444 4293127423
40.300919 804.11609 1268.3444 4293193471
16.530275 811.29846 1267.8602 4293259007
18.891743 811.29846 1267.8602 4293062143
22.433945 811.29846 1267.8602 4292601855
25.976147 811.29846 1267.8602 4292865279
28.337614 811.29846 1267.8602 4292799487
30.699083 811.29846 1267.8602 4292799231
33.847706 811.59937 1268.1139 4292733183
1.2073394 770.9986 1271.8132 4289248237
1.2027524 775.58368 1269.1392 4290363391
4.8110094 775.58368 1269.1392 4289838073
-4.8110094 777.42273 1270.6898 4284772262
2.4055047 777.42273 1270.6898 4286022586
-7.1889906 783.81885 1269.5426 4281284707
-9.548624 792.92444 1270.6802 4281288554
-7.1394496 797.80835 1269.5659 4281616749
-4.7596331 797.80835 1269.5659 4282075767
1.1899083 797.80835 1269.5659 4282339970
4.7596331 797.80835 1269.5659 4283128989
7.1394496 797.80835 1269.5659 4283984298
9.5192661 797.80835 1269.5659 4283458733
35.697247 797.80835 1269.5659 4293193471
38.077065 797.80835 1269.5659 4293126911
-7.1394496 799.62775 1271.1001 4281682285
1.1899083 799.62775 1271.1001 4281554306
4.7596331 799.62775 1271.1001 4283523997
7.1394496 799.62775 1271.1001 4284050341
9.5192661 799.62775 1271.1001 4282866080
-2.3706422 805.92847 1269.8724 4282273150
10.667891 805.92847 1269.8724 4283655076
14.223853 805.92847 1269.8724 4288720108
18.965137 805.92847 1269.8724 4293457151
34.374313 805.92847 1269.8724 4292865535
37.930275 805.92847 1269.8724 4293259263
40.300919 805.92847 1269.8724 4293127423
42.671558 805.92847 1269.8724 4292602111
-2.3706422 807.74084 1271.4006 4282340227
10.667891 807.74084 1271.4006 4284247470
14.223853 807.74084 1271.4006 4289115368
35.559631 807.74084 1271.4006 4293325311
37.930275 807.74084 1271.4006 4293193471
9.4458714 815.81189 1271.6658 4279192977
16.530275 814.90918 1270.9047 4292732927
18.891743 814.90918 1270.9047 4292667903
22.040367 815.21014 1271.1583 4292602111
25.976147 814.90918 1270.9047 4292667647
28.337614 814.00653 1270.1436 4292930559
30.699083 815.81189 1271.6658 4292469759
34.634865 815.21014 1271.1583 4292535807
23.522936 822.04254 1270.3792 4292403199
-11.981651 789.31494 1274.1768 4281288039
-9.548624 796.57446 1273.7577 4281419370
-7.1394496 802.35681 1273.4011 4281681779
-4.7596331 803.26648 1274.1682 4282075515
1.1899083 802.35681 1273.4011 4282341514
4.7596331 802.35681 1273.4011 4283919778
7.1394496 802.35681 1273.4011 4283590813
-4.7412844 809.55322 1272.9287 4281683580
-2.3706422 809.55322 1272.9287 4281946496
4.7412844 809.55322 1272.9287 4284315825
7.1119266 809.55322 1272.9287 4283000221
10.667891 809.55322 1272.9287 4284970941
14.223853 809.55322 1272.9287 4290363125
37.930275 809.55322 1272.9287 4292930047
-4.7412844 811.3656 1274.4569 4281617535
-2.3706422 811.3656 1274.4569 4281749121
4.7412844 811.3656 1274.4569 4284643508
7.1119266 811.3656 1274.4569 4282932891
10.667891 811.3656 1274.4569 4284777421
14.223853 811.3656 1274.4569 4290824703
9.4458714 817.61731 1273.188 4280177557
16.530275 817.61731 1273.188 4293126655
18.891743 817.61731 1273.188 4292798207
22.433945 817.61731 1273.188 4292667135
25.976147 817.61731 1273.188 4292535807
16.530275 819.42261 1274.7102 4292863743
18.891743 819.42261 1274.7102 4292337919
21.25321 819.42261 1274.7102 4292337919
25.976147 819.42261 1274.7102 4292337407
28.337614 819.42261 1274.7102 4292009471
30.699083 819.42261 1274.7102 4292470015
33.060551 819.42261 1274.7102 4292142847
-7.2440367 776.53674 1276.4828 4280761692
-11.981651 791.14691 1275.7214 4281091941
-11.981651 792.97894 1277.2662 4281222247
-9.548624 799.31195 1276.0659 4281615986
-7.1394496 805.99561 1276.4692 4282010744
-4.7596331 805.08594 1275.7023 4282011005
1.1899083 805.99561 1276.4692 4282868624
4.7596331 805.08594 1275.7023 4284511657
7.1394496 805.08594 1275.7023 4283590555
-7.1119266 814.08417 1276.7491 4282273390
-4.7412844 814.08417 1276.7491 4281944698
-2.3706422 814.08417 1276.7491 4282470785
2.3706422 814.08417 1276.7491 4285695677
4.7412844 814.08417 1276.7491 4285433545
7.1119266 814.08417 1276.7491 4281946516
11.853211 814.08417 1276.7491 4287876351
14.223853 814.08417 1276.7491 4292337663
28.447706 814.08417 1276.7491 4292535807
30.818348 814.99036 1277.5132 4292535807
33.188992 814.99036 1277.5132 4292338943
18.891743 821.22803 1276.2325 4292337407
21.25321 821.22803 1276.2325 4292337407
25.976147 821.22803 1276.2325 4292271615
33.060551 821.22803 1276.2325 4292404975
9.7761469 754.737 1279.0303 4289771502
12.220183 754.737 1279.0303 4288850400
9.7761469 756.60547 1280.6058 4289113519
12.220183 756.60547 1280.6058 4289310641
-14.433027 787.53735 1279.2183 4281025635
-11.981651 794.81097 1278.8109 4281485163
-11.981651 796.64294 1280.3556 4282073709
-9.548624 804.78699 1280.6823 4281550193
-9.5192661 808.72467 1278.7704 4281615734
-7.1394496 808.72467 1278.7704 4281944699
1.1899083 808.72467 1278.7704 4283262358
-9.5192661 810.54407 1280.3044 4282142064
0 810.54407 1280.3044 4282734985
-7.1119266 817.70892 1279.8054 4282470263
-4.7412844 817.70892 1279.8054 4281880186
-2.3706422 817.70892 1279.8054 4282998667
2.3706422 816.80273 1279.0414 4286812611
4.7412844 817.70892 1279.8054 4286155213
7.1119266 817.70892 1279.8054 4282733977
10.667891 817.70898 1279.8054 4286620628
14.223853 817.70892 1279.8054 4292863999
16.594496 818.61511 1280.5696 4292601087
23.706423 818.61511 1280.5696 4292403199
-14.433027 790.2959 1281.5442 4281024612
-14.433027 792.13495 1283.0947 4281024612
-10.384098 799.69629 1282.9302 4281747053
-11.93578 806.61194 1282.2211 4282074470
-14.322936 808.43701 1283.7599 4281550697
-11.93578 808.43701 1283.7599 4281945199
-14.278899 812.36346 1281.8385 4281616236
-10.709174 812.36346 1281.8385 4282207855
0 812.36346 1281.8385 4283063707
-14.278899 814.18286 1283.3726 4281878894
-10.709174 814.18286 1283.3726 4282273394
0 814.18286 1283.3726 4284575905
-7.1119266 820.42749 1282.0977 4282864504
-4.7412844 820.42749 1282.0977 4283127426
-2.3706422 820.42749 1282.0977 4283390598
7.1119266 820.42749 1282.0977 4283064738
10.667891 820.42749 1282.0977 4290232801
14.223853 820.42749 1282.0977 4292601087
16.594496 820.42749 1282.0977 4292403455
18.965137 820.42749 1282.0977 4291812095
21.335779 820.42749 1282.0977 4292075007
26.077065 820.42749 1282.0977 4292403199
7.1119266 822.23987 1283.6259 4284647090
10.667891 822.23987 1283.6259 4290233585
14.223853 822.23987 1283.6259 4292797951
16.594496 822.23987 1283.6259 4292600575
18.965137 822.23987 1283.6259 4292337407
21.335779 822.23987 1283.6259 4292468991
26.077065 822.23987 1283.6259 4293060607
-19.31743 787.61298 1285.822 4281024864
-16.902752 787.61298 1285.822 4281024864
-14.433027 793.974 1284.6454 4281744744
-13.230275 795.81299 1286.196 4281943141
-16.774311 803.97107 1286.5344 4281877096
-14.377981 803.05505 1285.7621 4281615716
-11.981651 802.13904 1284.9897 4281617255
-16.710093 811.17444 1286.0681 4281419627
-14.278899 816.00226 1284.9066 4282075767
-10.709174 816.91199 1285.6736 4282470265
1.1899083 816.91193 1285.6737 4284707755
4.7596331 817.82166 1286.4407 4283064738
23.798164 817.82166 1286.4407 4292271615
28.557798 816.91199 1285.6736 4292272895
30.937614 816.91199 1285.6736 4292536063
33.317432 817.82166 1286.4407 4293127423
7.1119266 824.05225 1285.1539 4287407555
10.667891 824.05225 1285.1539 4291744505
14.223853 824.05225 1285.1539 4292535295
16.594496 824.05225 1285.1539 4292469503
18.965137 824.05225 1285.1539 4292075263
23.706423 824.05225 1285.1539 4293191423
26.077065 824.05225 1285.1539 4293060095
10.667891 825.86462 1286.6821 4292204543
14.223853 825.86462 1286.6821 4292403199
16.594496 825.86462 1286.6821 4292929535
18.965137 825.86462 1286.6821 4292076031
23.706423 825.86462 1286.6821 4291484415
26.077065 825.86462 1286.6821 4290694911
-24.238533 783.0769 1288.5375 4281024864
-16.966972 783.0769 1288.5375 4281024864
-19.31743 790.38202 1288.1567 4281350753
-16.902752 790.38202 1288.1567 4281547876
-16.838531 797.65204 1287.7466 4281811553
-14.433027 797.65204 1287.7466 4281811553
-21.649542 799.49109 1289.2972 4281614173
-19.244038 799.49109 1289.2972 4281745759
-16.838531 799.49109 1289.2972 4281877346
-16.774311 805.80304 1288.0791 4281943141
-21.566973 807.63507 1289.6239 4281614171
-19.170643 807.63507 1289.6239 4281090659
-16.710093 814.82446 1289.1456 4282272631
-14.322936 815.73694 1289.915 4282535803
-14.278899 820.55072 1288.7417 4282864508
-10.709173 820.55078 1288.7417 4283192956
-7.1394496 820.55072 1288.7417 4283455868
-4.7596331 820.55072 1288.7417 4283193219
-2.3798165 820.55072 1288.7417 4283324805
1.1899083 820.55078 1288.7417 4283260306
4.7596331 820.55072 1288.7417 4281816443
22.608257 820.55072 1288.7417 4292535295
28.557798 820.55072 1288.7417 4292141823
30.937614 820.55072 1288.7417 4290694126
10.667891 827.677 1288.2102 4292861695
14.223853 827.677 1288.2102 4292205567
16.594496 827.677 1288.2102 4292468991
23.706423 827.677 1288.2102 4284125151
26.077065 827.677 1288.2102 4280111778
28.447706 827.677 1288.2102 4280175259
10.667891 829.48938 1289.7384 4292863231
14.223853 829.48938 1289.7384 4292271615
16.594496 829.48938 1289.7384 4292468991
23.706423 829.48938 1289.7384 4283141073
-24.238533 784.92993 1290.1 4281351004
-21.814678 784.92993 1290.1 4281548126
-24.238533 786.78302 1291.6624 4281548380
-21.814678 786.78302 1291.6624 4281548380
-21.732111 794.99713 1292.0481 4281548378
-19.31743 794.0741 1291.2698 4281350748
-16.902752 793.15112 1290.4916 4281811303
-21.649542 802.24963 1291.6232 4281548127
-19.244038 802.24963 1291.6232 4281745507
-21.566973 809.46704 1291.1686 4281548128
-19.170643 809.46704 1291.1686 4281156200
-21.566973 811.29907 1292.7133 4281679716
-19.170643 811.29907 1292.7133 4281352308
-16.710093 817.56201 1291.4539 4283125875
-16.710093 819.38696 1292.9927 4282798459
-10.709174 823.27979 1291.0428 4283654021
-7.1394496 823.27979 1291.0428 4283851903
-4.7596331 823.27979 1291.0428 4283852164
-2.3798165 823.27979 1291.0428 4283984007
2.3798165 823.27979 1291.0428 4282734464
4.7596331 823.27979 1291.0428 4283719843
7.1394496 823.27979 1291.0428 4289772799
21.418348 823.27979 1291.0428 4292273151
28.557798 823.27979 1291.0428 4288131571
30.937614 823.27979 1291.0428 4285039044
-10.709174 825.09918 1292.5769 4283391617
-7.1394496 825.09918 1292.5769 4283129211
-4.7596331 825.09918 1292.5769 4284114573
-2.3798165 825.09918 1292.5769 4283456643
1.1899083 825.09918 1292.5769 4284510081
4.7596331 825.09918 1292.5769 4289700552
7.1394496 825.09918 1292.5769 4292792824
19.038532 825.09918 1292.5769 4291617023
21.418348 825.09918 1292.5769 4289116649
14.223853 831.30176 1291.2666 4292075263
-26.783485 779.84888 1293.6639 4281090659
-26.783485 781.71033 1295.2334 4281547874
-24.238533 788.63611 1293.2249 4281416799
-21.814678 788.63611 1293.2249 4281548128
-24.238533 790.48914 1294.7874 4281745759
-21.814678 790.48914 1294.7874 4281614173
-25.35413 796.8432 1293.6047 4281352544
-25.35413 798.68921 1295.1613 4281482592
-24.85688 806.23419 1294.9828 4281744993
-21.566973 814.04712 1295.0303 4282600044
-19.170643 814.04712 1295.0303 4282731376
-16.710093 821.21198 1294.5314 4282930562
-14.322936 821.21198 1294.5314 4283127174
0 821.21198 1294.5314 4283260809
-9.5192661 826.91858 1294.111 4282998152
-7.1394496 826.91858 1294.111 4283919254
-4.7596331 826.91858 1294.111 4284314264
-2.3798165 826.91858 1294.111 4284182935
1.1899083 826.91858 1294.111 4287142848
4.7596331 826.91858 1294.111 4290889215
7.1394496 826.91858 1294.111 4292862975
19.038532 826.91858 1294.111 4292272639
21.418348 826.91858 1294.111 4288983005
-9.5192661 828.73798 1295.645 4286548412
-7.1394496 828.73798 1295.645 4287930065
-4.7596331 828.73798 1295.645 4289114846
-2.3798165 828.73798 1295.645 4290627828
1.1899083 828.73798 1295.645 4291615224
4.7596331 828.73798 1295.645 4292207103
7.1394496 828.73798 1295.645 4292207103
-29.32844 777.15887 1297.9358 4281090659
-29.218349 785.43329 1298.3726 4281222245
-26.783485 784.50256 1297.5878 4281024866
-29.086239 794.19525 1297.9122 4281288039
-25.450459 792.34216 1296.3497 4281614173
-25.35413 800.53528 1296.7178 4281548127
-26.561468 802.38135 1298.2743 4282138467
-25.257797 808.68622 1297.0503 4281941863
-25.257797 810.52527 1298.601 4282468203
-21.566973 817.71118 1298.1198 4282470521
-19.170643 817.71118 1298.1198 4282864510
-14.322936 823.03699 1296.0702 4283587973
-31.772476 779.02734 1299.5114 4281222245
-29.32844 779.02734 1299.5114 4281613923
-31.772476 780.89581 1301.0868 4281221994
-29.32844 780.89581 1301.0868 4281222245
-31.653212 787.2948 1299.942 4281550443
-29.218349 787.2948 1299.942 4281877348
-26.783485 787.2948 1299.942 4281745761
-31.653212 789.15625 1301.5116 4281550695
-29.218349 789.15625 1301.5116 4281877348
-31.510092 796.97485 1300.2559 4281812073
-29.086239 796.97485 1300.2559 4281943143
-28.976147 805.15039 1300.6091 4282138216
-25.257797 812.36426 1300.1516 4282862701
-24.055046 814.20331 1301.7021 4282536309
-19.170643 820.45917 1300.4368 4282997889
-16.774311 820.45917 1300.4368 4282997889
-14.377981 822.2912 1301.9814 4283327106
-11.981651 822.2912 1301.9814 4283261313
-31.772476 782.76428 1302.6622 4281352308
-34.216515 784.63281 1304.2377 4281550443
-34.088074 791.0177 1303.0812 4281550695
-31.653212 791.0177 1303.0812 4281550695
-34.088074 792.87921 1304.6508 4281550695
-31.510092 799.75439 1302.5996 4282073707
-29.086239 799.75439 1302.5996 4282336102
-31.510092 801.60742 1304.162 4282138471
-28.976147 807.91943 1302.9438 4282467433
-24.055046 816.04236 1303.2528 4282536318
-11.981651 824.12317 1303.5262 4284905105
-34.344955 778.21985 1305.3706 4281156200
-34.344955 780.09534 1306.952 4281352308
-36.660549 788.36975 1307.3887 4281550695
-34.216515 786.50128 1305.8131 4281616488
-34.088074 794.74066 1306.2202 4282139500
-34.088074 796.60217 1307.7898 4282205293
-31.510092 803.46051 1305.7245 4282139752
-31.510092 805.3136 1307.2869 4282336874
-36.93578 775.54388 1309.6545 4281288289
-36.798164 781.97083 1308.5333 4281943393
-39.251377 783.84631 1310.1147 4282074722
-36.798164 783.84631 1310.1147 4282074722
-36.660549 790.23828 1308.9641 4281550443
-36.660549 792.10675 1310.5396 4282139754
-36.522934 800.32507 1310.9288 4282598779
-34.088074 799.39435 1310.144 4282402155
-29.086239 808.09314 1309.6306 4282731118
-26.662386 809.01965 1310.4117 4282928755
-24.14679 815.30359 1309.17 4283326593
-21.732111 815.30359 1309.17 4283194750
-16.902752 817.14966 1310.7266 4283260795
-39.398167 779.3089 1312.8291 4281877600
-40.477982 785.7218 1311.6962 4282009192
-40.477982 787.59735 1313.2775 4281878124
-36.660549 793.97522 1312.115 4282205547
-36.660549 795.84375 1313.6904 4282466929
-36.522934 802.18652 1312.4984 4282468463
-34.088074 802.18652 1312.4984 4282402924
-29.086239 811.79932 1312.7554 4282928501
-26.662386 811.79932 1312.7554 4283191674
-39.7211 765.86084 1315.8783 4281288291
-37.073395 774.75739 1315.5315 4281811807
-41.86055 781.19141 1314.4164 4282336100
-44.157799 791.34833 1316.4402 4281941619
-40.069111 790.72314 1315.9131 4282205295
-43.992661 797.71222 1315.2659 4282205293
-40.326607 797.71222 1315.2659 4282533494
-43.992661 799.58069 1316.8413 4282468717
-40.326607 799.58069 1316.8413 4282468462
-36.522934 804.97876 1314.8528 4282665576
-34.088074 804.97876 1314.8528 4282730858
-31.653212 804.97876 1314.8528 4282730858
-19.390825 814.57886 1315.0991 4283392638
-37.025074 823.91846 1316.434 4290034662
-39.7211 767.75873 1317.4785 4281288039
-37.238533 767.75873 1317.4785 4281288039
-39.7211 769.65668 1319.0789 4281288289
-42.016514 776.64697 1317.1246 4281877348
-44.488075 778.5365 1318.7179 4282467429
-44.322937 784.95642 1317.5909 4282139500
-44.322937 786.83899 1319.1782 4282139500
-41.86055 786.83899 1319.1782 4282205293
-44.157799 793.22382 1318.0216 4281875824
-40.477982 793.22382 1318.0216 4282533238
-46.611008 795.0993 1319.603 4282074472
-48.880733 802.38342 1319.2046 4282403695
-46.436699 802.38342 1319.2046 4282272109
-43.992661 802.38342 1319.2046 4282600043
-40.326607 802.38342 1319.2046 4282665834
-46.262386 809.63245 1318.7766 4282796653
-43.827522 808.70172 1317.9918 4282337905
-41.392662 808.70172 1317.9918 4282403442
-37.334553 809.01196 1318.2534 4282731885
-34.088074 808.70172 1317.9918 4283191921
-31.653212 808.70172 1317.9918 4283060078
-43.629356 818.28497 1318.224 4283523983
-41.205505 818.28497 1318.224 4283260811
-37.569725 818.28497 1318.224 4283458190
-43.629356 820.13806 1319.7865 4286219197
-41.205505 820.13806 1319.7865 4286416320
-38.781651 820.13806 1319.7865 4287798215
-33.933945 820.13806 1319.7865 4288917723
-31.510092 820.13806 1319.7865 4288786394
-29.086239 820.13806 1319.7865 4288916445
-25.450459 820.13806 1319.7865 4289705190
-45.016514 758.56879 1322.8102 4280893283
-42.515594 757.61279 1322.0042 4281221221
-47.168808 773.45258 1322.2794 4282007905
-44.686237 773.45258 1322.2794 4281877348
-39.7211 771.55463 1320.6792 4281679964
-51.902752 782.31555 1321.9043 4281745761
-49.431194 782.31555 1321.9043 4282007914
-46.959633 782.31555 1321.9043 4282205293
-44.488075 780.42603 1320.311 4282467433
-46.78532 788.7215 1320.7655 4282206058
-49.247707 790.604 1322.3528 4281813610
-46.78532 790.604 1322.3528 4281813610
-49.06422 796.97485 1321.1843 4281813614
-46.611008 796.97485 1321.1843 4281813614
-51.517429 798.85034 1322.7657 4282273402
-51.324772 805.18616 1321.5677 4282927730
-48.880733 805.18616 1321.5677 4282468215
-46.436699 805.18616 1321.5677 4282205043
-39.104588 805.18616 1321.5677 4282468717
-46.262386 811.4939 1320.3462 4282996596
-43.827522 811.4939 1320.3462 4283192174
-41.392662 811.4939 1320.3462 4282994796
-37.740364 811.4939 1320.3462 4282996340
-34.088074 811.4939 1320.3462 4282996848
-31.653212 811.4939 1320.3462 4282799213
-29.218349 811.4939 1320.3462 4282668156
-25.566055 811.4939 1320.3462 4283063422
-21.913761 811.4939 1320.3462 4283655553
-46.262386 813.35541 1321.9156 4283983755
-43.827522 813.35541 1321.9156 4283917444
-41.392662 813.35541 1321.9156 4283588479
-37.740364 813.35541 1321.9156 4283193467
-34.088074 813.35541 1321.9156 4283194241
-31.653212 813.35541 1321.9156 4283062399
-29.218349 813.35541 1321.9156 4282800006
-25.566055 813.35541 1321.9156 4282996612
-17.044037 813.35541 1321.9156 4284310406
-14.609175 813.35541 1321.9156 4284773518
-46.053211 821.99109 1321.3489 4288653550
-43.629356 821.99109 1321.3489 4288915954
-41.205505 821.99109 1321.3489 4289508348
-45.016514 760.48071 1324.4222 4281745509
-42.515594 760.48071 1324.4222 4281745509
-43.605507 766.98071 1323.3627 4281745762
-43.605507 768.88562 1324.9689 4281679716
-47.168808 775.35052 1323.8798 4282402660
-52.133945 777.24847 1325.48 4281222497
-49.651375 777.24847 1325.48 4281943141
-47.168808 777.24847 1325.48 4282206312
-51.902752 784.20508 1323.4974 4281877348
-49.431194 784.20508 1323.4974 4282140265
-46.959633 784.20508 1323.4974 4282206058
-55.610092 786.0946 1325.0907 4282140515
-51.902752 786.0946 1325.0907 4282206310
-49.431194 786.0946 1325.0907 4282206058
-51.710091 793.42773 1324.7336 4282141549
-49.247707 792.48651 1323.9401 4282206058
-52.744034 800.72583 1324.3472 4282730871
-56.423855 802.60132 1325.9285 4282927480
-53.970642 802.60132 1325.9285 4282927730
-51.324772 807.05463 1323.1432 4283387507
-48.880733 807.98889 1323.9309 4283060851
-34.088074 815.21686 1323.4852 4283523983
-31.653212 815.21686 1323.4852 4283458190
-29.218349 815.21686 1323.4852 4283260827
-25.566055 815.21686 1323.4852 4283392153
-17.044037 815.21686 1323.4852 4285761445
-52.750458 755.33234 1327.9294 4281880943
-46.266972 763.34869 1326.8406 4281745509
-42.515594 762.3927 1326.0344 4281811303
-52.326607 770.79059 1326.5751 4281548380
-49.834862 770.79059 1326.5751 4281810269
-54.818348 772.69556 1328.1813 4281877600
-52.326607 772.69556 1328.1813 4281877600
-49.834862 772.69556 1328.1813 4282139232
-57.099083 779.14642 1327.0803 4281877600
-54.616512 779.14642 1327.0803 4281877348
-57.099083 781.04437 1328.6807 4281877600
-54.616512 781.04437 1328.6807 4281877348
-55.610092 787.98413 1326.6838 4282337639
-51.902752 787.98413 1326.6838 4282402920
-59.317432 789.87366 1328.2771 4282337380
-55.610092 789.87366 1328.2771 4282206052
-61.559631 796.25153 1327.1146 4282402420
-55.403671 796.25153 1327.1146 4282206065
-61.559631 798.13403 1328.7019 4282730871
-59.097248 798.13403 1328.7019 4282665078
-56.634861 798.13403 1328.7019 4282665078
-56.423855 804.47681 1327.5099 4283190907
-53.970642 804.47681 1327.5099 4283321714
-48.880733 810.79163 1326.2942 4284115341
-21.99633 811.72583 1327.0819 4283851923
-19.552294 811.72583 1327.0819 4284575631
-55.262386 757.25275 1329.5487 4281350220
-52.750458 757.25275 1329.5487 4282139736
-50.238533 757.25275 1329.5487 4281877598
-47.726604 757.25275 1329.5487 4281680218
-55.262386 759.1731 1331.168 4280957509
-52.750458 759.1731 1331.168 4281484109
-50.238533 759.1731 1331.168 4281745507
-47.726604 759.1731 1331.168 4281745507
-52.519264 766.21667 1329.2587 4281417049
-50.018349 766.21667 1329.2587 4281678179
-47.517429 766.21667 1329.2587 4281875814
-57.521099 768.12866 1330.8708 4281548380
-55.020184 768.12866 1330.8708 4281614173
-58.555962 775.55298 1330.5906 4281811809
-54.818348 774.60052 1329.7875 4281354084
-62.06422 782.94232 1330.2809 4281745761
-59.58165 782.94232 1330.2809 4281943391
-62.06422 784.84027 1331.8812 4282140265
-59.58165 784.84027 1331.8812 4282206308
-61.78899 791.76318 1329.8702 4281748338
-59.317432 791.76318 1329.8702 4282076269
-55.610092 791.76318 1329.8702 4281747820
-59.317432 793.65271 1331.4635 4282665328
-61.559631 800.01654 1330.2892 4282927730
-59.097248 800.01654 1330.2892 4282927480
-61.559631 801.89905 1331.8765 4283256700
-59.097248 801.89905 1331.8765 4283256700
-51.517429 806.35229 1329.0912 4283586680
-21.99633 814.52856 1329.4451 4291414780
-55.262386 761.09351 1332.7871 4281483605
-52.750458 761.09351 1332.7871 4281615191
-50.238533 761.09351 1332.7871 4281745507
-60.28624 763.01392 1334.4064 4281614173
-57.774311 763.01392 1334.4064 4281548380
-55.262386 763.01392 1334.4064 4281417049
-60.022018 770.04059 1332.4829 4281679966
-57.521099 770.04059 1332.4829 4281745759
-61.272476 771.95258 1334.0951 4281811554
-62.293579 778.41046 1332.9999 4281877348
-59.801834 778.41046 1332.9999 4281877600
-64.785324 780.31543 1334.6061 4281877348
-62.06422 786.73822 1333.4816 4282206058
-66.732109 796.487 1333.8533 4282862450
-64.260551 796.487 1333.8533 4282862197
-55.403671 803.78162 1333.4637 4283652475
-60.50642 757.4538 1336.2583 4281482588
-57.985321 757.4538 1336.2583 4281284953
-61.542202 764.93433 1336.0256 4281875802
-65.310089 766.85468 1337.6448 4281876316
-62.798164 766.85468 1337.6448 4281810267
-62.522934 773.86456 1335.7072 4281943143
-65.023849 775.77649 1337.3193 4281811555
-64.785324 782.22034 1336.2123 4282206058
-64.785324 784.12531 1337.8186 4282206058
-67.029358 790.53406 1336.6821 4282665078
-64.546791 790.53406 1336.6821 4282468213
-64.260551 799.32129 1336.243 4283256700
-59.317432 801.21082 1337.8363 4283652221
-54.172478 807.54663 1336.6384 4283981969
-51.710091 807.54663 1336.6384 4284442520
-64.288071 760.34491 1338.696 4281613395
-70.590828 762.27234 1340.3212 4281810267
-68.069725 762.27234 1340.3212 4281876316
-65.548622 762.27234 1340.3212 4282137687
-67.822021 770.69543 1340.8833 4282006882
-65.310089 769.73523 1340.0737 4281679712
-67.524773 778.64447 1339.7375 4282401896
-64.785324 786.03027 1339.4248 4281024614
-69.511925 793.38098 1339.0825 4282796657
-55.610092 803.10034 1339.4294 4283588226
-51.902752 803.10034 1339.4294 4283917446
-54.172478 809.42914 1338.2256 4284770709
-51.710091 809.42914 1338.2256 4285165210
-51.710091 811.31165 1339.813 4287338174
-49.247707 811.31165 1339.813 4287600862
-70.899086 757.14215 1343.8438 4281481304
-68.366974 757.14215 1343.8438 4281678683
-70.590828 764.19971 1341.9463 4281942107
-68.069725 764.19971 1341.9463 4282007901
-70.590828 766.12708 1343.5714 4281941855
-68.069725 766.12708 1343.5714 4281941855
-70.333946 772.61584 1342.5024 4281745507
-67.822021 772.61584 1342.5024 4281745507
-67.524773 781.51245 1342.1556 4282336876
-67.524773 783.42444 1343.7678 4282468463
-72.260551 789.84021 1342.6372 4282730871
-67.029358 796.22791 1341.483 4283125366
-62.06422 798.12585 1343.0833 4283389056
-56.845871 805.93463 1341.8193 4284178831
-73.43119 759.07794 1345.476 4281548128
-75.633026 768.0545 1345.1965 4282139232
-73.111923 769.01819 1346.0092 4282007392
-70.590828 768.0545 1345.1965 4282006882
-70.333946 775.49646 1344.9314 4282335846
-72.526604 785.33636 1345.3799 4282665324
-70.025688 785.33636 1345.3799 4282665078
-80.029358 787.24835 1346.9921 4282731373
-76.277985 787.24835 1346.9921 4282731122
-72.260551 791.74518 1344.2434 4282862707
-69.768806 793.65015 1345.8496 4283059573
-62.06422 800.0238 1344.6836 4283456645
-59.58165 800.0238 1344.6836 4283851399
-62.06422 801.92175 1346.2839 4283982988
-59.58165 801.92175 1346.2839 4283917448
-56.845871 810.65845 1345.8022 4291547647
-76.238533 756.41602 1349.7716 4281745507
-75.963303 761.01379 1347.1082 4282334817
-73.43119 761.01379 1347.1082 4282137437
-75.963303 762.94958 1348.7405 4282334817
-73.43119 762.94958 1348.7405 4282203230
-75.633026 771.9093 1348.4469 4282336102
-73.111923 771.9093 1348.4469 4282204516
-72.845871 778.37701 1347.3601 4282468717
-70.333946 778.37701 1347.3601 4282468463
-72.845871 780.29742 1348.9794 4282665328
-70.333946 780.29742 1348.9794 4282468463
-75.027519 789.16034 1348.6042 4282862707
-69.768806 797.46002 1349.062 4283586428
-67.277061 796.50757 1348.2589 4283586176
-64.785324 796.50757 1348.2589 4283389826
-64.546791 803.8197 1347.8842 4284244360
-62.06422 803.8197 1347.8842 4284178567
-59.58165 803.8197 1347.8842 4284638105
-64.546791 805.71765 1349.4845 4283919245
-62.06422 805.71765 1349.4845 4284576918
-59.58165 805.71765 1349.4845 4285233584
-78.495415 764.88544 1350.3727 4281811553
-75.963303 766.82123 1352.0049 4282204516
-78.154129 773.83673 1350.072 4282074470
-75.633026 773.83673 1350.072 4282467433
-73.111923 773.83673 1350.072 4282533226
-88.238533 775.76416 1351.6971 4282074470
-79.41468 775.76416 1351.6971 4282337126
-75.633026 775.76416 1351.6971 4282468717
-76.613762 782.21777 1350.5986 4282534253
-87.917435 784.13818 1352.2178 4282731121
-85.405502 784.13818 1352.2178 4282207855
-75.027519 791.07227 1350.2163 4283059573
-72.526604 791.07227 1350.2163 4283059573
-75.027519 792.98425 1351.8285 4282994550
-72.526604 792.98425 1351.8285 4282994550
-70.025688 792.98425 1351.8285 4283257215
-69.768806 799.36499 1350.6682 4283325320
-67.277061 799.36499 1350.6682 4283983251
-64.785324 799.36499 1350.6682 4284114573
-72.260551 801.26996 1352.2744 4283720065
-69.768806 801.26996 1352.2744 4284312454
-67.277061 801.26996 1352.2744 4284246661
-64.546791 809.51355 1352.6851 4292206847
-81.321098 760.30164 1353.0479 4281941855
-88.944954 762.24451 1354.686 4281877598
-96.220184 770.69287 1355.2694 4282337376
-93.688072 770.69287 1355.2694 4282206047
-91.15596 770.69287 1355.2694 4282140767
-88.623856 770.69287 1355.2694 4281943645
-82.293579 770.69287 1355.2694 4282140263
-88.238533 778.65521 1354.1348 4282271083
-85.71743 779.6189 1354.9474 4282468717
-83.196327 779.6189 1354.9474 4282468717
-79.834862 778.33398 1353.8639 4282336875
-75.633026 777.69153 1353.3223 4282665328
-87.917435 787.0188 1354.6467 4282338677
-85.405502 787.97894 1355.4563 4282470259
-77.869728 787.0188 1354.6467 4282862960
-72.526604 794.89624 1353.4406 4283652221
-75.027519 796.80823 1355.0527 4283325309
-72.526604 796.80823 1355.0527 4283259260
-89.330276 757.12415 1358.2169 4281680218
-79.121101 757.12415 1358.2169 4282139234
-88.944954 764.18732 1356.3242 4281354588
-94.027519 766.13013 1357.9623 4281943645
-91.486237 766.13013 1357.9623 4281877848
-88.944954 766.13013 1357.9623 4281877848
-78.779816 766.13013 1357.9623 4282074722
-91.15596 772.62866 1356.9016 4282140263
-83.559631 772.62866 1356.9016 4282206058
-91.15596 774.56451 1358.5338 4282402924
-90.759636 781.54633 1356.5725 4282731121
-90.759636 783.47375 1358.1978 4282404466
-77.032417 791.1795 1358.1549 4283454843
-75.027519 798.72021 1356.6648 4283785858
-74.752296 806.98486 1357.093 4290823910
-94.43486 760.05103 1360.6848 4281550175
-91.882568 760.05103 1360.6848 4281615965
-84.225685 760.05103 1360.6848 4281615717
-81.673393 760.05103 1360.6848 4281877345
-79.121101 761.02661 1361.5074 4281943393
-96.56881 770.01581 1361.2386 4282337380
-94.027519 770.01581 1361.2386 4282337380
-86.403671 770.01581 1361.2386 4281943143
-91.15596 776.50037 1360.166 4282468463
-83.559631 778.43616 1361.7983 4282207855
-83.196327 787.32855 1361.448 4283257465
-80.675232 787.32855 1361.448 4283191672
-77.869728 793.74011 1360.314 4283587973
-77.869728 795.66052 1361.9331 4284178317
-87.089905 756.43451 1364.1755 4281877350
-85.501831 763.95349 1363.9753 4282074468
-81.673393 762.97791 1363.1527 4282074722
-96.56881 771.95862 1362.8767 4282468969
-94.027519 772.93005 1363.6958 4282534249
-82.293579 780.37195 1363.4305 4282600816
-83.196327 790.21967 1363.8857 4283587202
-80.675232 791.18335 1364.6982 4283654022
-87.089905 758.39276 1365.8267 4281354084
-87.089905 760.35107 1367.4779 4281877600
-96.56881 775.8443 1366.1531 4282796912
-94.027519 775.8443 1366.1531 4282731119
-96.56881 777.78717 1367.7913 4282862707
-94.027519 777.78717 1367.7913 4282862707
-86.403671 777.78717 1367.7913 4282404466
-91.15596 782.3078 1365.0627 4282535803
-82.293579 782.3078 1365.0627 4282732403
-93.688072 784.24365 1366.6949 4283125627
-91.15596 784.24365 1366.6949 4282732666
-88.623856 784.24365 1366.6949 4282666873
-86.091743 784.24365 1366.6949 4282994550
-85.71743 793.11072 1366.3234 4283391111
-83.196327 793.11072 1366.3234 4283325318
-80.675232 793.11072 1366.3234 4284178317
-85.71743 795.03815 1367.9485 4283390864
-83.196327 795.03815 1367.9485 4283390864
-80.675232 795.03815 1367.9485 4283785871
-96.98716 770.7829 1369.7336 4282731371
-85.501831 768.83167 1368.0884 4282269800
-94.027519 779.72998 1369.4293 4282667125
-93.688072 788.11523 1369.9595 4282733949
-91.15596 787.14734 1369.1433 4283060860
-88.623856 787.14734 1369.1433 4283060861
-86.091743 787.14734 1369.1433 4283192445
-81.027519 786.17944 1368.3273 4283586428
-83.196327 796.96558 1369.5736 4286743223
-96.56881 781.67285 1371.0675 4282994298
-96.56881 783.61566 1372.7057 4283256700
-94.027519 783.61566 1372.7057 4283256700
-93.688072 790.05109 1371.5917 4283524235
-91.15596 790.05109 1371.5917 4283721612
-88.623856 791.01898 1372.4077 4283391879
-96.98716 776.6366 1374.6694 4282667125
-99.110092 785.55847 1374.3438 4282732918
-96.56881 785.55847 1374.3438 4282733949
