# .PCD v0.7 - Point Cloud Data file format
VERSION 0.7
FIELDS x y z rgb
SIZE 4 4 4 4
TYPE F F F U
COUNT 1 1 1 1
WIDTH 1168
HEIGHT 1
VIEWPOINT 0 0 0 1 0 0 0
POINTS 1168
DATA ascii
-1.6550459 842.74646 790.78479 4289943387
0.82752293 842.74646 790.78479 4290796401
4.1376147 841.48114 789.7179 4291520623
6.6201835 841.48114 789.7179 4292242560
31.445871 841.48114 789.7179 4294965757
33.652599 841.90289 790.07355 4294767608
37.238533 842.11383 790.25134 4294701560
39.7211 842.11377 790.25134 4294372596
-1.6513761 845.45245 790.45032 4289878627
0.82568806 845.45245 790.45032 4290664559
3.8532112 844.61078 789.74072 4291586412
6.6055045 844.18994 789.38586 4292044665
26.422018 844.18994 789.38586 4294701307
28.899082 844.18994 789.38586 4294965244
31.376146 844.82117 789.91809 4294899194
34.128437 845.03156 790.09552 4294636791
37.155964 845.45245 790.45032 4294569718
40.548622 844.01178 791.85168 4294241523
-1.6513761 846.71497 791.51489 4290404201
0.82385319 848.15289 790.11121 4290270573
4.943119 846.89319 789.04907 4291651956
6.5908256 846.89319 789.04907 4291781750
28.834862 846.89319 789.04907 4294569718
32.130276 848.15289 790.11121 4294767869
34.601833 848.15289 790.11121 4294570491
37.155964 846.71497 791.51489 4294767867
39.633026 846.71497 791.51489 4294504693
-1.6477064 849.41254 791.17334 4290074473
0.82110089 850.48889 790.11884 4290139496
4.1055045 851.56525 789.06433 4291257716
29.559633 851.56525 789.06433 4294438389
32.07798 850.48889 790.11884 4294636025
34.601833 849.41254 791.17334 4294504695
36.249542 849.41254 791.17334 4294438902
-1.6422018 853.44843 790.65222 4289940318
1.6422018 853.44843 790.65222 4290400353
3.2844036 852.82068 790.12292 4290926700
32.844036 852.82068 790.12292 4294570488
34.48624 852.82068 790.12292 4294438902
36.675842 853.65771 790.82861 4294373109
-1.6385322 856.75836 790.82703 4289149262
0.81926608 856.13202 790.29889 4289936458
4.0963302 856.13202 790.29895 4291185244
7.100306 855.92328 790.12286 4292439938
10.650459 855.50568 789.77075 4292901523
32.770641 855.50568 789.77075 4294307316
34.409176 856.13202 790.29889 4294373109
36.047707 856.75836 790.82703 4294307316
-3.2770643 858.01105 791.8833 4289877081
-1.6366973 859.3479 791.70245 4289679443
0.65467894 859.40009 790.96161 4290070094
4.0871563 860.05988 790.99463 4290063945
7.3568807 859.43494 790.46777 4291770960
10.626606 858.81 789.94092 4292897148
13.078899 858.18512 789.41394 4293819527
26.157799 858.18512 789.41394 4294899199
28.610092 858.18512 789.41394 4294175734
32.152294 858.60175 789.7652 4294373110
34.877064 860.26825 791.17035 4294504696
36.866974 858.01105 791.8833 4294242293
39.324772 858.01105 791.8833 4294570488
8.1467886 862.81647 789.3949 4290982199
10.590826 862.81647 789.3949 4292499015
13.034863 862.81647 789.3949 4293753221
26.069725 862.81647 789.3949 4294965757
28.513762 862.81647 789.3949 4294767864
31.772476 862.81647 789.3949 4294307316
0 864.68494 790.97034 4290468471
4.0733948 865.30774 791.49548 4291256167
7.3275232 865.03882 790.61475 4292106866
10.296024 865.89471 789.37433 4292171867
13.005505 865.48035 789.02502 4292363098
16.25688 865.48035 789.02502 4294342291
22.759632 865.48035 789.02502 4293306807
25.198166 865.48035 789.02502 4294764015
28.449541 865.48035 789.02502 4294767866
31.996328 865.42188 789.84766 4294372854
34.991745 865.3927 790.25903 4294438647
37.475231 865.30774 791.49548 4294504695
39.104588 865.30774 791.49548 4294307062
7.3064222 868.67236 790.40839 4292500090
10.543119 869.37872 789.69592 4293295500
12.976147 869.37872 789.69592 4293950086
25.141285 869.37872 789.69592 4294960628
29.196331 869.37872 789.69592 4294373109
31.629358 869.37872 789.69592 4294438902
34.952293 867.96606 791.12085 4294373109
37.390827 867.96606 791.12085 4294504695
39.016514 867.96606 791.12085 4294307316
0 871.85883 791.78699 4290008182
4.0550461 871.85883 791.78699 4291321962
7.0287461 871.03204 791.09003 4292173690
9.73211 870.61877 790.74146 4293426318
32.440369 870.61877 790.74146 4294438902
34.873394 871.23877 791.26422 4294373109
37.847095 871.4455 791.43848 4294570230
7.5437312 874.79327 790.33722 4292372347
10.507339 874.58734 790.16357 4293226891
12.93211 873.96942 789.64258 4293821594
31.791437 874.38135 789.98993 4294636537
34.755043 875.20526 790.68457 4294504948
37.179817 875.20526 790.68457 4294504947
0.80825686 876.4411 791.72656 4289938774
4.0412846 876.4411 791.72656 4291186769
7.2651377 877.14185 791.0094 4292307835
10.483486 877.84259 790.29224 4292898443
13.709174 876.60956 789.25256 4294151074
16.128441 876.60956 789.25256 4294545302
29.031193 876.60956 789.25256 4294965759
31.450459 877.22607 789.7724 4294504952
34.71468 877.14185 791.0094 4294438901
37.988075 876.4411 791.72656 4294504948
0 879.07562 791.33191 4289274173
4.0321102 879.07562 791.33191 4290790223
6.9779816 880.41815 790.71979 4291252303
10.459633 880.47424 789.89514 4293424788
32.183487 880.47424 789.89514 4294570488
34.676147 879.07562 791.33191 4294504694
37.604893 879.9519 791.19873 4294701816
-1.6091744 882.93469 791.96973 4288555565
0.80458719 882.93469 791.96973 4292578900
4.0137615 884.3277 790.5282 4291457716
7.2247705 883.71399 790.01074 4290590020
10.43578 883.10028 789.49329 4292630111
31.307339 883.10028 789.49329 4294372852
34.518349 883.10028 789.49329 4294372594
37.773392 883.63123 791.24896 4294504694
0.80275232 885.55511 791.56311 4292515492
4.0137615 885.55511 791.56311 4292115085
7.1999998 887.64044 789.39734 4292121236
9.6000004 887.64044 789.39734 4291712872
37.599998 887.64044 789.39734 4294241523
0.53333336 889.6792 791.11627 4289226631
4 889.47528 790.94434 4292320871
6.4000001 888.86365 790.42871 4294160826
40 890.08691 791.46008 4294306801
4.788991 892.69196 791.04053 4292125858
6.3853211 891.4715 790.01147 4293638588
4.7779818 896.50897 791.64294 4286203950
7.1669722 894.68256 790.10291 4291454037
10.345872 895.02728 789.73956 4294224583
13.506422 896.67035 789.16296 4294953415
16.684402 896.67035 789.16296 4292902305
19.862385 896.67035 789.16296 4293742418
23.040367 896.67035 789.16296 4293825959
25.423853 896.67035 789.16296 4293316058
27.807339 896.67035 789.16296 4294304750
31.021101 895.37207 789.37634 4293912042
34.163303 896.67035 789.16296 4294043628
37.104584 895.80487 789.30518 4294109165
40.566971 896.58966 790.40295 4294043888
7.1504583 898.49255 790.69922 4287320351
10.063609 898.29004 790.52856 4288494935
25.423853 898.49255 790.69928 4293249492
27.807339 897.88513 790.18713 4294436078
30.985321 897.88513 790.18713 4293780203
34.428135 898.29004 790.52856 4293714409
37.341282 898.49249 790.69928 4293912301
40.254436 898.69501 790.86993 4293978351
0 902.89734 791.79724 4287585319
4.7559633 902.89734 791.79724 4291796564
7.133945 902.89734 791.79724 4292591499
10.46312 901.92773 790.97974 4288836654
13.475229 901.07928 790.2644 4289222469
16.645872 901.07935 790.2644 4294552255
19.816513 901.07935 790.2644 4293033632
22.987156 901.07935 790.2644 4292768090
26.422018 901.28131 790.43475 4294170334
28.53578 901.07935 790.2644 4293780970
30.913763 901.68536 790.77539 4293649128
33.688076 901.98834 791.03082 4293780713
37.519268 902.49335 791.4566 4293846764
39.633026 902.89734 791.79724 4293846763
6.3266053 905.4743 791.35413 4292196711
10.280734 905.4743 791.35413 4292459104
13.180428 904.66821 790.67432 4291469943
16.60734 904.26514 790.33447 4292574314
19.770641 904.26514 790.33447 4294881998
22.933945 904.26514 790.33447 4293894535
26.097248 904.26514 790.33447 4293707988
28.469725 904.26514 790.33447 4293648616
31.633028 905.4743 791.35413 4293451746
33.21468 905.4743 791.35413 4293912297
37.959633 905.4743 791.35413 4293978603
7.0926609 908.72675 790.17236 4291339351
10.244954 908.72675 790.17236 4292592253
14.185321 907.52179 789.15637 4291011940
16.549541 907.52179 789.15637 4291001901
19.701836 907.52179 789.15637 4294489798
26.794495 907.52179 789.15637 4294959598
29.421408 907.9234 789.49506 4293648871
31.522936 908.72675 790.17236 4293516769
33.099083 908.72675 790.17236 4293779941
7.0926609 909.9317 791.18835 4289827887
10.221101 911.29108 789.71851 4293051755
13.366055 911.29108 789.71851 4291671160
16.511009 911.29108 789.71851 4290155350
19.655964 911.29108 789.71851 4292119128
22.800919 911.29108 789.71851 4292450228
25.945873 911.29108 789.71851 4293841116
29.090824 911.29108 789.71851 4293977836
31.449541 911.29108 789.71851 4293780454
33.848625 910.61139 790.45343 4293846247
37.039452 909.9317 791.18835 4293714407
39.403671 909.9317 791.18835 4293846252
7.0761471 913.09436 791.23889 4286079353
10.208257 913.17151 789.99597 4287389696
13.334863 913.84979 789.25989 4292324715
16.472477 913.84979 789.25989 4293377935
19.610092 913.84979 789.25989 4291272531
22.747707 913.84979 789.25989 4291587448
25.885323 913.84979 789.25989 4294102743
29.022936 913.84979 789.25989 4294109424
32.160549 913.84979 789.25989 4293912297
34.594494 912.49329 790.73206 4293846248
36.953209 913.09436 791.23889 4293649126
39.311928 913.69543 791.74573 4293714663
7.8440366 916.24854 791.28247 4291992001
10.197248 915.6488 790.77679 4289232724
13.326606 915.98651 790.40747 4290417492
16.453211 916.32428 790.03821 4294298779
19.318043 916.74933 789.96063 4292979836
26.638533 916.32434 790.03827 4294958820
28.988993 916.32434 790.03827 4294043378
32.906422 916.32434 790.03827 4294043884
34.51376 915.6488 790.77679 4293912553
36.866974 916.24854 791.28247 4293517283
39.220184 916.24854 791.28247 4293648355
10.173394 919.99261 791.82324 4290354369
13.303671 919.39435 791.31879 4290424233
16.433945 918.79602 790.81433 4292585600
19.540367 919.47009 790.07471 4294821513
22.641285 920.14423 789.33508 4291986275
25.764221 920.14423 789.33508 4293970128
28.887157 920.14423 789.33508 4294109168
32.048622 919.47009 790.07471 4294175212
34.954742 919.59375 791.487 4294043113
37.563301 919.99261 791.82324 4293715432
10.149542 922.53174 791.34814 4290483282
13.272477 922.53174 791.34814 4293779708
16.376146 922.60608 790.10278 4289891468
19.495413 922.60608 790.10278 4293968234
22.588074 923.87421 789.86401 4291855483
25.703671 923.87421 789.86401 4293642197
28.819267 923.87421 789.86401 4293714666
32.245869 922.5813 790.51788 4293780202
34.352295 922.53174 791.34814 4293780457
6.2311926 926.2561 791.87231 4286991737
9.8660555 925.46216 791.20288 4285421606
13.241284 925.06519 790.86816 4292069106
16.35688 925.06519 790.86816 4293980143
19.448624 925.73505 790.12494 4289958523
22.534863 926.40491 789.38171 4291848010
25.64312 926.40491 789.38171 4293770436
28.751377 926.40491 789.38171 4293649386
31.898165 925.73505 790.12494 4293517800
34.271561 925.66064 791.37024 4293715176
10.101835 928.18713 790.88446 4284700480
13.210092 927.59308 790.38354 4290228676
16.318348 927.59308 790.38354 4294966783
19.167585 927.98907 790.71747 4292589765
22.534863 927.59308 790.38354 4291715673
25.64312 928.18713 790.88446 4293638849
28.751377 928.18713 790.88446 4293911532
31.859632 928.18713 790.88446 4293846507
6.9770641 931.89331 791.39343 4291866318
10.327828 931.3493 790.06268 4287660949
13.163303 931.37366 789.64722 4282526325
16.269724 931.04077 790.02057 4288378311
19.639145 930.90558 790.56055 4291336395
22.455046 931.37366 789.64722 4292433742
25.582569 931.30066 790.89368 4293703618
28.683487 931.30066 790.89368 4294043626
31.784403 931.30066 790.89368 4293846245
34.110092 932.48602 791.89319 4293714661
7.218349 934.60284 791.06195 4293582809
9.7963305 934.20868 790.72955 4294967295
15.46789 933.81445 790.39722 4286091400
19.334862 933.81445 790.39722 4291990206
21.655046 933.81445 790.39722 4292697678
25.522018 933.81445 790.39722 4293637566
28.615597 933.81445 790.39722 4294043631
31.709175 934.40576 790.89575 4293649125
10.275229 937.77118 789.80927 4291017420
13.100918 937.57477 789.64368 4294768383
16.183487 937.57483 789.64362 4291410373
19.266056 937.57477 789.64368 4292785341
21.577982 937.57477 789.64362 4293567125
25.431194 936.9856 789.14685 4293439933
28.513762 937.57477 789.64368 4294043631
31.596331 938.16394 790.14038 4293649641
6.9357796 939.34229 791.13391 4281146386
10.018349 939.34229 791.13391 4286876686
13.346789 940.17413 790.96338 4290495403
16.164219 940.59009 790.87805 4291803103
19.492355 940.61407 790.4624 4294035960
22.039145 941.05414 789.96143 4290736546
25.370644 941.25006 790.12659 4293110967
28.445871 941.25006 790.12659 4294175473
31.558716 940.59009 790.87805 4293911785
33.867889 940.59009 790.87805 4293846761
9.9944954 943.01337 791.61328 4290229472
13.069725 943.01337 791.61328 4286411182
16.144955 943.01337 791.61328 4286866839
18.918655 943.93695 789.77606 4290879696
22.497858 943.93695 789.77606 4290869399
25.310093 944.32782 790.10559 4292914619
28.377983 944.32782 790.10559 4294241521
31.521101 943.01337 791.61328 4293978090
33.827522 943.01337 791.61328 4293912810
16.873394 945.50055 791.09436 4288188581
19.151377 946.74133 790.83252 4285627556
22.215597 946.74139 790.83258 4291668163
25.034861 946.3277 790.91986 4292388002
28.344036 946.74133 790.83252 4294043630
30.642202 946.74133 790.83258 4293846764
33.746788 945.50055 791.09436 4293912810
13.772477 949.15204 791.55713 4294243836
16.06789 949.15204 791.55713 4292137969
19.082569 950.45807 790.04236 4285562492
22.13578 950.45807 790.04236 4288709544
25.220184 949.80505 790.79974 4292984247
28.242203 950.45807 790.04236 4294306033
31.333946 949.80505 790.79974 4293912556
34.43119 949.15204 791.55713 4293715945
36.726604 949.15204 791.55713 4293912556
12.976147 951.62518 791.02637 4294307827
16.009174 952.27686 790.26782 4293451773
19.036697 952.92847 789.50928 4285821041
22.082569 952.92847 789.50928 4286940031
25.128441 952.92847 789.50928 4292656077
28.174313 952.92847 789.50928 4294240492
31.258717 952.27686 790.26782 4293978603
34.348625 951.62518 791.02637 4293912810
37.401833 951.62518 791.02637 4294110189
-3.0458715 955.25702 791.47266 4285097328
-1.5229357 955.25702 791.47266 4282794573
0 955.25702 791.47266 4281873986
12.944954 955.25702 791.47266 4285688685
15.980734 954.99933 790.60132 4292728025
18.752295 955.73407 790.1308 4287530149
22.029358 956.55469 789.95068 4285361004
24.308256 956.55469 789.95068 4290091963
31.981651 954.09277 790.49097 4294043113
34.22477 955.32373 790.22083 4293911529
37.058105 954.86896 791.14545 4293780715
39.596329 955.25702 791.47266 4293978351
13.673394 958.87769 791.90942 4283846450
15.952293 958.29694 791.41974 4289240213
18.721712 958.53497 790.74835 4285229192
21.976147 959.01099 789.40576 4287459940
24.793884 958.53497 790.74835 4290881461
28.038532 959.01099 789.40576 4293846768
31.069725 959.01099 789.40576 4293847017
34.183487 957.71619 790.93005 4293452007
37.475231 958.10333 791.25653 4293780971
39.500916 958.87769 791.90942 4293912556
19.702753 960.74902 790.87122 4284176487
21.976147 960.74902 790.87122 4287329664
25.765137 960.74902 790.87122 4293184458
28.038532 960.74902 790.87122 4294043376
31.069725 960.16968 790.38269 4294110189
34.100918 960.16968 790.38269 4293781227
36.374313 960.16968 790.38269 4293912556
42.539448 747.77075 794.41772 4293978353
-12.368808 752.78931 794.7251 4287447368
-10.601835 751.43842 793.58612 4287246388
-8.8348627 750.08752 792.44702 4286588700
40.640366 750.08752 792.44702 4293978099
42.407341 752.78931 794.7251 4294307316
-7.9266057 755.09766 792.74731 4289483870
-10.568808 756.44434 793.88281 4287640899
-8.8073397 756.44434 793.88281 4288627795
42.27523 756.44434 793.88281 4294307832
-10.53578 761.43335 794.16541 4288962406
-8.1944952 760.53839 793.41083 4288630103
43.021103 760.76215 793.59943 4294372856
-7.5932717 763.85693 793.59277 4289622649
42.93119 763.63367 793.40454 4294438390
-6.9871559 767.93054 793.10339 4291076783
43.669724 767.93054 793.10339 4294306803
-7.8605504 769.26593 794.22937 4290946746
-5.2293577 770.78809 792.89673 4292919767
43.57798 770.78809 792.89673 4294306803
46.242203 770.02698 793.56305 4294438902
48.910091 769.26593 794.22937 4294767615
-6.972477 772.12073 794.02039 4290158250
49.678898 772.12073 794.02039 4294372857
-4.6336389 774.84247 792.39117 4291408320
43.440369 774.3996 792.01782 4294306803
46.046791 775.06384 792.57788 4294241007
-4.3302751 779.32697 792.24841 4292661981
43.302753 779.32697 792.24841 4294569718
45.975227 778.19171 793.25323 4294438387
48.65321 777.05646 794.25806 4294438389
-4.6165137 781.59619 793.28973 4292922844
40.618347 782.16205 792.02271 4294569462
43.21101 782.16205 792.02271 4294767354
45.900917 780.65118 793.36499 4294635765
48.499084 781.9754 794.48145 4294438902
-4.3211012 784.14417 793.69403 4291936196
44.939449 784.14417 793.69403 4294306803
46.667889 784.14417 793.69403 4294635511
48.396332 784.80487 794.2511 4294636536
-4.3073397 787.72131 792.78613 4291869125
40.77615 787.50177 792.60107 4294700793
43.647705 787.94086 792.97119 4294437878
-5.1577983 791.19678 793.10046 4292199121
41.262386 791.19678 793.10046 4294569718
43.841286 791.19678 793.10046 4294636025
46.519264 789.69714 794.45203 4294899453
-6.8770642 792.51123 794.20874 4291149002
-5.1412845 794.75647 792.17773 4292004055
41.130276 794.75647 792.17773 4294109938
43.700916 794.75647 792.17773 4294438902
46.420185 792.51123 794.20874 4294636282
-8.5688076 797.37683 794.38721 4290423217
44.557796 796.06665 793.28247 4294635511
46.271561 796.72174 793.83484 4294503926
-6.8403668 798.86798 793.02856 4290947512
41.042202 798.86798 793.02856 4294701556
43.607338 799.52173 793.57971 4294503924
-6.8183484 803.05957 792.63867 4289699755
-5.1137614 802.40802 792.08923 4291409349
40.3419 802.84247 792.45557 4294635767
-6.8036699 806.49719 792.92114 4290616482
-5.1027522 806.49719 792.92114 4292458686
40.822018 806.49719 792.92114 4294701556
43.466972 805.01434 794.28687 4294636024
-6.8036699 807.79755 794.01758 4288565861
40.822018 807.79755 794.01758 4294438387
42.522934 807.79755 794.01758 4294569716
-6.7816515 812.60986 794.151 4289025371
-5.0862384 811.31372 793.05811 4288235337
40.689907 811.31372 793.05811 4294635511
42.385323 812.60986 794.151 4294635511
-5.0752292 814.73096 793.32343 4289551718
40.601833 814.08429 792.7782 4294635511
42.293579 815.37762 793.86865 4294701304
-6.7669725 816.67096 794.95923 4289551209
-4.2155962 818.87415 792.89282 4289550184
40.469727 818.87415 792.89282 4294372596
43.070641 817.77258 793.92603 4294307060
-6.7449541 820.16327 793.97974 4289221978
-4.2119265 820.89624 793.28973 4289812836
-1.6825688 821.62927 792.59973 4291192954
42.953209 820.89624 793.28973 4294307057
-4.2064219 823.55884 794.22662 4289546326
42.905502 823.55884 794.22662 4294438132
-4.1926603 827.67462 793.77295 4289348172
-1.6770642 826.39252 792.69189 4290070614
41.926605 826.39252 792.69189 4294635511
-6.7082567 828.95679 794.854 4288826704
-4.1889906 829.68414 794.1593 4289680979
-1.6733944 829.13214 792.38586 4290332753
40.998165 829.13214 792.38586 4294438902
43.508255 830.4115 793.4646 4294175731
-4.1779819 832.77979 793.49939 4289945435
-1.66789 833.86871 792.45557 4289945428
41.697247 833.86871 792.45557 4294438389
43.508255 831.6908 794.54321 4294307316
-6.6715598 836.41895 794.60583 4289285455
-4.4477067 835.56885 793.88898 4289417808
-1.6642202 836.59302 792.13647 4290140752
41.605503 836.59302 792.13647 4294898940
43.365139 835.78137 794.06824 4294242040
-6.6568809 839.13763 794.28198 4288958029
-4.1605506 838.50146 793.74561 4289352016
-1.6642202 837.8653 793.20923 4289877846
43.269726 839.13763 794.28198 4294175731
-3.8746178 841.42749 793.59686 4289483864
41.51376 840.58118 792.88318 4294306803
43.174313 841.85065 793.95361 4293977838
-3.3100917 845.27704 792.91846 4289614942
41.376148 845.27704 792.91846 4294373107
-6.6201835 846.54236 793.98535 4288627531
-4.133945 847.25989 793.28235 4289679711
37.981651 847.97742 792.57935 4294767867
40.504585 847.25989 793.28235 4294373877
-6.6055045 849.87115 794.17609 4288493379
-4.1247706 850.58661 793.47131 4290006365
37.897247 850.67224 792.23547 4294636282
40.41468 850.58667 793.47131 4294110192
42.93578 850.50238 794.70837 4294438902
-4.943119 853.19159 794.35974 4289285207
41.192661 853.19159 794.35974 4294504693
-4.3792052 856.5871 793.29865 4289417049
37.770641 855.33167 792.24011 4294307316
40.233948 855.95941 792.76941 4294438901
42.697247 857.84259 794.3573 4294504693
-4.0963306 859.89008 793.46759 4289878362
37.686237 859.26373 792.93945 4294373109
40.417126 859.68134 793.2915 4294504695
-3.2697248 862.55963 793.10236 4290074455
-1.6348624 862.55963 793.10236 4290205784
1.6348624 862.55963 793.10236 4290731900
4.0871563 861.93469 792.57544 4291254886
37.601833 861.93469 792.57544 4294438902
40.054131 862.55963 793.10236 4294307318
-3.2697248 864.43445 794.68311 4290007640
-1.6293578 866.55341 792.54578 4290467935
0.81743121 865.4939 793.61444 4290466680
4.0733948 866.55341 792.54578 4291321696
40.733944 866.55341 792.54578 4294175731
42.50642 864.43445 794.68311 4294175731
-3.2587156 869.04474 794.64636 4289152853
-1.6293578 867.79907 793.59607 4290929001
0.81467891 868.50403 792.88245 4290007413
4.0642204 869.20892 792.16882 4291321178
39.829357 869.20892 792.16882 4294241524
42.363304 869.04474 794.64636 4294307316
-1.6256881 871.07318 793.74072 4291324021
1.6256881 870.45178 793.2168 4289876340
40.6422 870.45178 793.2168 4294372594
-3.2440367 875.57898 794.92371 4288816947
-1.6220183 874.33893 793.87817 4289871954
0.81100917 873.09888 792.83264 4290138483
4.0550461 873.09888 792.83264 4291254381
38.92844 873.09888 792.83264 4294504947
40.550457 873.71887 793.35541 4294570741
42.71315 875.16559 794.5752 4294702075
-3.2330275 878.91278 793.81067 4288685867
-1.6165137 877.67694 792.76868 4289146168
1.6165137 877.67694 792.76868 4289734724
40.412846 878.29486 793.28967 4294767610
42.029358 878.91278 793.81067 4294899453
-4.0376148 880.84515 794.13196 4287309870
-1.612844 880.30865 792.37158 4288882990
0.806422 880.30865 792.37158 4290590003
4.0321102 880.30865 792.37158 4291125639
38.708256 880.30865 792.37158 4294635765
40.321102 881.54169 793.41125 4294899451
42.837616 880.14862 794.85266 4294702840
-3.225688 882.77472 794.45093 4286713118
-1.6091744 884.16492 793.00696 4290463319
41.08165 883.46985 793.72894 4294636793
-3.2183487 885.39514 794.04431 4285535522
-1.6055046 886.78253 792.59814 4289285979
1.6055046 886.78253 792.59814 4291662756
40.137615 886.78253 792.59814 4294570742
-1.6055046 888.62366 794.15051 4285608205
-3.2 893.75653 794.55432 4289166665
-1.6 893.1449 794.03864 4288378182
0.80000001 892.26648 792.64392 4286539592
3.7272174 893.04492 792.21027 4286071606
40.799999 891.92175 793.00726 4294043886
-1.5963303 896.35315 794.12756 4290876264
0.79816514 895.74298 793.61304 4288969549
3.1926606 895.13275 793.09851 4286466865
43.100918 895.13275 793.09851 4293912558
0 898.94415 793.69617 4291272809
3.7162077 898.13239 793.01172 4290615653
43.001835 897.72656 792.66956 4294044144
-3.1779816 902.74432 794.2843 4288435236
-1.5889908 901.52954 793.26001 4287194436
1.5889908 902.13696 793.77216 4287648805
3.972477 900.92212 792.74786 4290548554
7.1504583 900.3147 792.23572 4289696578
34.957798 900.3147 792.23572 4293780203
36.546787 900.3147 792.23572 4293977838
40.7841 900.71967 792.57715 4293715435
43.558899 901.4989 793.75745 4293978861
-1.5853211 904.71533 793.3302 4288166172
0.52844036 904.9173 793.50049 4287047951
3.6990826 904.51337 793.15985 4287715130
7.9266057 904.10931 792.81921 4293183606
34.877064 904.10931 792.81921 4293715432
36.462387 904.10931 792.81921 4293978603
40.689907 904.51337 793.15985 4293977834
42.803669 905.32129 793.84119 4294174701
-3.1706421 906.53326 794.86304 4286189343
-1.5853211 906.53326 794.86304 4285925914
0.79266053 907.21301 794.12811 4283762711
4.2177367 907.48956 793.05341 4286862924
34.796329 906.68347 792.37366 4293648868
37.168808 906.68347 792.37366 4293845991
40.332108 907.28809 792.88342 4293977579
43.596329 906.53326 794.86304 4293977580
-1.5816513 909.10187 794.41272 4290746758
0.79082566 909.10187 794.41272 4289572033
3.9458714 910.11926 793.30853 4289967291
40.263306 910.11926 793.30853 4293583848
42.704586 909.10187 794.41272 4293978349
0 913.54663 794.23645 4287723935
3.9376149 913.28198 793.35913 4288714934
6.2899084 914.89764 792.7594 4288702351
40.93211 913.61963 792.98987 4293648868
42.555962 913.54663 794.23645 4293977320
0.78623855 917.30194 794.78662 4282650646
3.6691132 916.50049 794.1109 4284560427
7.0596333 917.44788 792.2937 4289167501
10.197248 917.44788 792.2937 4293050862
36.866974 917.44788 792.2937 4293912041
40.329662 916.94989 793.61786 4293714661
42.456882 917.30194 794.78662 4293451746
4.7064219 918.64728 793.30505 4286070299
7.0596333 918.64728 793.30505 4284631352
39.743118 919.44684 793.97919 4293648870
4.689908 922.45728 792.59338 4286799193
7.0348625 922.45734 792.59338 4285942068
35.955963 922.45728 792.59338 4293978092
37.519264 922.45728 792.59338 4293780454
39.650154 923.18341 794.51367 4293977835
1.0409786 925.71509 794.03223 4291999431
3.9036698 924.91925 793.36121 4291735508
7.8073397 924.91925 793.36121 4286662772
35.913761 924.91925 793.36121 4294109419
37.475231 924.91925 793.36121 4293912297
39.036697 926.11298 794.3678 4293846248
0.77889907 929.23346 794.38281 4284832345
3.8917432 928.37537 793.00525 4293972984
6.7455659 928.28784 792.71344 4291342022
35.030277 928.37537 793.00525 4293780455
38.166054 928.63806 793.88074 4293714919
40.50275 929.82898 794.88489 4293581797
0 932.34564 794.39087 4281808724
3.6262996 931.55353 793.72296 4284174966
35.744953 931.75159 793.88995 4293978090
37.817127 931.94952 794.05695 4293714665
4.6513762 934.26404 793.39233 4283913566
34.885323 934.26404 793.39233 4293912041
4.6458716 937.29333 794.63849 4281282085
6.9605503 936.17957 792.39136 4282398283
34.80275 936.77081 792.88989 4293846248
37.9422 936.70203 794.13995 4293846502
40.216515 938.54462 794.3855 4293452005
6.93578 941.10974 792.62433 4286145878
10.018349 940.52057 792.12756 4287468942
12.330276 940.52057 792.12756 4283852407
35.449543 941.10974 792.62433 4293649639
36.990826 941.10974 792.62433 4293714662
4.6238532 942.87726 794.11462 4288702051
6.9357796 942.87726 794.11462 4287396194
9.9944954 944.18884 792.60449 4290952670
13.069725 944.18884 792.60449 4293516517
15.376146 944.18884 792.60449 4293649400
32.289909 944.18884 792.60449 4293978349
35.365139 944.18884 792.60449 4293715432
36.902752 944.18884 792.60449 4293780457
40.073395 942.87726 794.11462 4293714661
4.612844 946.53992 794.58679 4281019179
6.9192657 945.95215 794.09125 4285556544
9.9880733 946.27869 793.71252 4292398036
12.782875 947.06421 792.41278 4293913070
16.106422 946.67328 792.08313 4291610334
26.077065 946.67328 792.08313 4294957519
32.212845 946.67328 792.08313 4294175731
34.513763 946.67328 792.08313 4293912810
37.58165 947.25964 792.57758 4293912556
39.977982 946.53992 794.58679 4293649638
4.6018348 949.01868 794.06079 4281479228
6.9027524 949.01868 794.06079 4283450440
9.9467888 950.32196 792.54358 4292989626
40.601837 949.67029 793.30219 4293913321
42.950459 949.01868 794.06079 4293847787
-1.5266055 952.7923 792.0105 4280892259
1.0189602 952.74786 792.84503 4280164652
3.8211007 952.72565 793.26233 4281609516
6.8779817 952.72565 793.26227 4282789934
9.9229355 953.37585 792.5025 4287788644
12.976147 952.7923 792.0105 4288912804
38.165138 952.7923 792.0105 4294109421
40.807339 951.88184 793.85889 4293781484
43.559631 952.72638 793.26288 4293847021
45.798164 953.95941 792.99451 4293978090
50.377983 953.95941 792.99451 4294307312
-3.8073392 956.42133 792.45435 4285949033
-1.5229357 956.42133 792.45435 4285883752
1.017737 955.94708 793.79852 4286414222
3.5620794 955.51544 794.30664 4287726478
6.8697248 955.12646 793.97864 4287789446
9.9100914 955.77393 793.21649 4285031800
12.944954 956.42133 792.45435 4284506710
40.455048 955.12646 793.97864 4293912558
43.762691 955.51544 794.30664 4293846763
46.815903 955.51544 794.30664 4293847018
49.614677 956.29358 794.96265 4293978352
51.904587 956.29358 794.96265 4294044142
-3.0458715 957.58563 793.43604 4284767315
-1.5229357 958.16779 793.92688 4284373853
0 958.16779 793.92688 4281418085
4.5688071 957.58563 793.43604 4288583850
6.8532109 958.16779 793.92688 4285550964
9.8990822 958.16779 793.92688 4287654786
12.183486 958.16779 793.92688 4287267192
40.611618 958.36182 794.09052 4293978091
43.149845 958.36182 794.09052 4293912556
45.688072 958.16779 793.92688 4293847018
13.673394 960.03918 792.88879 4289174697
15.952293 960.61987 793.37842 4287926461
18.722937 961.24237 793.03125 4285491046
22.029358 961.20068 793.86816 4286213755
25.06789 961.20068 793.8681 4292066233
28.072475 962.42468 793.59204 4293977063
31.144955 960.61993 793.37848 4293912299
34.183487 960.61987 793.37842 4293715173
36.968807 960.42633 793.21527 4294109421
43.471558 748.35498 796.21826 4293978865
-14.179816 751.836 797.84534 4286852149
44.311928 751.15845 797.27405 4294044402
-15.902752 755.49103 797.00305 4287121206
-13.252294 754.81555 796.43359 4287182140
44.174313 755.49103 797.00305 4294175735
-12.330276 757.79095 795.01831 4286854714
-10.568808 757.79095 795.01831 4287377989
-15.853211 760.48425 797.28918 4287982185
-13.21101 759.81091 796.7215 4288702056
45.798164 760.48425 797.28918 4294373109
49.321102 760.48425 797.28918 4294110199
51.082569 760.48425 797.28918 4294044406
-10.53578 763.44702 795.86328 4289563542
47.411011 764.11829 796.4292 4294438902
49.166973 764.11829 796.4292 4294504957
-12.291743 765.46075 797.56116 4290420151
-10.513762 766.98285 796.22839 4290289328
-8.7614679 765.64319 795.09888 4289962152
45.559631 765.64319 795.09888 4294175731
-12.266055 768.32245 797.35803 4289630369
-10.513762 768.32245 797.35803 4289171613
-8.7339449 770.60138 795.35547 4290224557
-12.227523 773.27228 797.60742 4290226092
-10.480734 772.60455 797.04443 4290160306
-7.8440366 773.45331 795.14404 4290225069
49.732109 772.69507 795.81274 4294504695
52.403671 771.93683 796.48145 4294438902
-19.174313 776.11859 797.39136 4288647054
-10.458715 776.11859 797.39136 4291080645
-8.1345568 775.23016 796.64227 4291279562
50.550457 775.45227 796.82953 4294503926
52.293579 775.45227 796.82953 4294569718
-7.5296631 779.27051 796.12482 4291277246
49.522018 779.04907 795.93817 4294504183
-19.113762 781.04175 797.61829 4287856005
-16.507339 781.04175 797.61829 4287856261
-12.163302 781.04175 797.61829 4289039502
-10.425688 781.04175 797.61829 4289829277
-8.6880732 781.04175 797.61829 4289829277
52.997246 781.04175 797.61829 4294503925
-8.0831804 784.62378 796.71454 4291211186
50.23119 784.62378 796.71454 4294504437
-7.4899082 787.44769 796.47949 4291409857
46.667889 786.12628 795.36523 4294570488
48.972477 787.44769 796.47949 4294636280
48.242203 791.01434 795.56274 4294767867
-10.337615 793.64874 797.78394 4289765287
-8.6146793 792.33154 796.67334 4290950074
49.052292 793.73718 796.55048 4294570229
-10.315597 796.45435 797.53357 4289634212
48.13945 795.79718 796.97943 4294372593
-8.5688076 798.68701 795.49194 4289897641
46.271561 799.3421 796.04425 4294438904
-10.282569 801.30737 797.70129 4290090127
-8.5504589 802.13647 795.78436 4289302929
43.607338 801.48279 795.23315 4294373109
47.078899 802.04877 797.01843 4294570746
49.699081 801.30737 797.70129 4294637049
-10.26055 804.09753 797.43787 4287710021
-8.5229359 806.3175 795.38562 4288499536
44.319267 806.3175 795.38562 4294438389
46.953209 805.20752 796.41174 4294702072
-15.341285 808.92389 797.58325 4287644493
-13.636697 808.92389 797.58325 4287447116
-10.795719 808.4895 797.21698 4287907917
-7.6633029 808.35931 795.79926 4288301133
43.373394 809.0979 795.11401 4294635511
46.876144 808.27234 797.03387 4294569975
-10.205504 811.69861 797.30688 4288501070
-8.5045872 811.04846 796.75867 4288698451
44.223854 810.39825 796.21045 4294372596
46.77523 811.04846 796.75867 4294372597
-7.6293578 814.55408 795.79034 4289025886
44.080734 813.90601 795.2439 4294438389
46.34129 814.77008 795.97247 4294372852
-10.172477 816.49835 797.42969 4288104015
-8.4587154 817.96436 796.04968 4288367187
46.57431 817.23132 796.73969 4294570230
49.166973 816.49835 797.42969 4294372596
-10.150458 819.25769 797.14026 4287838279
-7.6018348 820.3551 796.10352 4288297545
43.842201 821.45245 795.06677 4294438389
46.448624 820.3551 796.10352 4294372854
-10.117432 824.0307 797.24072 4287773251
-7.8691125 823.1712 796.51605 4288035656
46.371559 823.38611 796.6972 4294307316
-7.5715594 826.13147 796.39581 4288563021
43.746788 825.48828 795.85352 4294109167
45.429359 826.13147 796.39581 4294438645
-6.7082567 830.23889 795.93506 4288695632
45.280735 830.23889 795.93506 4294175731
-7.5394492 832.24554 796.31903 4288761424
46.069725 832.24554 796.31903 4294110199
-10.040367 835.52875 797.7793 4288103495
-8.3669729 834.24945 796.70068 4288367185
46.018349 834.8891 797.23999 4294175988
-10.007339 838.96918 796.7561 4288431433
-8.3394499 838.33167 796.21857 4288234568
45.866974 838.33167 796.21857 4294241523
-9.9963303 841.59943 797.66583 4288037448
-7.7663612 841.68219 796.42755 4288366411
44.933945 841.68219 796.42755 4294109423
46.700916 840.24432 797.8313 4294307316
-10.793578 845.65918 797.16479 4287513418
-7.472477 844.38965 796.09436 4288431694
-4.9816513 843.12018 795.02393 4289548892
43.727829 844.38965 796.09442 4294307058
43.031193 847.80762 795.05225 4294373107
-14.06789 850.33826 797.18604 4286657601
-10.757798 850.33826 797.18604 4287512397
-7.7186546 850.39203 796.35938 4288232521
43.811008 851.05157 796.47943 4294438900
-14.036697 853.65863 797.36957 4286986816
-10.733945 853.65863 797.36963 4287709772
-7.4238529 853.73938 796.12958 4288104014
44.004894 853.92285 796.7204 4294438902
-7.6892967 856.13086 796.83807 4288367695
44.488075 856.97064 797.54614 4294570488
-6.5688071 859.72583 795.94519 4288893008
43.518349 859.72583 795.94519 4294307573
-6.5688071 861.60907 797.53308 4289090129
-4.9155965 862.39539 795.58002 4289155922
43.421101 862.39539 795.58002 4294110195
-6.5467892 865.60425 796.9776 4288694347
-4.359633 866.10089 796.08838 4289285714
43.62936 865.63092 796.56415 4294175731
-9.8091745 868.18402 797.84473 4288169038
-7.3568807 868.18402 797.84473 4288760147
45.776146 868.18402 797.84473 4294175731
-7.3321099 872.78174 797.79724 4287242282
-4.0715599 871.26355 795.86328 4289413713
43.416515 871.17267 795.56866 4294373106
45.622017 872.78174 797.79724 4294438902
-4.8770642 874.1803 796.3606 4288293685
45.519264 875.42316 797.40845 4294505206
-4.866055 876.81903 795.96936 4288032564
43.794495 876.81903 795.96936 4294767867
45.416515 878.05908 797.01489 4294636536
-4.8495412 881.38446 795.89465 4283904799
43.64587 881.38446 795.89465 4294702840
-7.274312 883.23822 797.45776 4287977021
-4.838532 884.00775 795.4906 4283970304
41.933945 884.00775 795.4906 4294637047
43.546787 884.00775 795.4906 4294966011
45.262386 883.23822 797.45776 4294505210
-6.451376 885.8573 797.04999 4288116549
-4.0229359 887.24048 795.60022 4285151763
41.838531 887.24048 795.60022 4294109679
43.546787 885.8573 797.04999 4294570230
-4.0192661 889.77539 796.4295 4289430876
43.447708 889.08588 797.15613 4293978351
-4.8165135 892.30597 797.25525 4289367139
-3.7333333 895.79517 796.27325 4289429075
-3.9963303 898.11005 796.91705 4288964430
-1.5963303 897.57355 795.15662 4291601020
1.5963303 897.57355 795.15662 4291009637
44.697247 897.57355 795.15662 4294044655
46.400002 897.42615 797.64844 4293715947
-4.788991 900.0144 797.2146 4288493894
46.187157 902.59698 796.77612 4293846763
-6.3706422 903.81458 797.80286 4286586410
-3.972477 904.56653 795.82074 4287241759
44.491745 903.95911 795.30859 4293912556
46.930275 904.49426 797.06787 4293846251
-3.9633029 908.35132 796.39587 4287518275
44.388992 908.35132 796.39594 4293715434
46.574921 907.24487 797.20703 4293715178
-6.3412843 910.16925 797.92883 4284746755
-3.9596329 910.84473 797.19037 4291731104
-1.5816513 910.91565 795.94208 4290422937
1.0544342 910.71411 795.77216 4289831619
43.495415 910.91565 795.94208 4293846762
45.974312 910.16925 797.92883 4293649641
-3.1633027 912.72943 797.47144 4290819034
-1.5816513 912.72943 797.47144 4286016144
0.78807342 914.75165 795.25244 4281802338
43.421101 913.74054 796.36194 4293715175
-1.5761468 916.55908 796.77643 4282331738
44.132111 917.16156 797.28442 4293583593
-1.5724771 920.90845 797.82764 4293705156
0.78623855 918.50415 795.80029 4284428831
3.1449542 918.50415 795.80029 4285414947
42.981037 919.7063 796.81396 4293714408
0.52293581 921.44574 795.66461 4292462035
3.1376147 921.04596 795.32751 4292788949
40.78899 921.04596 795.32751 4293845739
43.142204 922.84503 796.84448 4293845481
45.495415 923.4447 797.3501 4294108908
-3.1302752 925.9754 796.8678 4285814359
-1.5651376 924.77887 795.85889 4285871946
40.693577 924.77887 795.85889 4293714409
43.041283 925.37714 796.36334 4293714151
-4.1675839 928.45557 797.21503 4286013011
-1.5614679 927.90363 795.87756 4283117616
40.598164 927.30676 795.37427 4293714409
42.714375 927.65973 796.54395 4293648101
45.838531 928.85352 797.55048 4293779943
-3.1155963 931.61536 796.39117 4285622113
-1.5577981 931.61536 796.39117 4282858807
1.5577981 931.0199 795.88904 4279637556
40.50275 931.0199 795.88904 4293648103
42.839447 931.61536 796.39117 4293845993
45.176147 932.21088 796.89331 4293780454
-3.6324158 934.23785 797.73041 4287924889
-1.5541284 935.31598 796.89532 4282463814
0.77706414 934.72186 796.39447 4281808447
3.1082568 934.12781 795.89355 4281677356
38.076149 933.53375 795.3927 4293912043
40.925381 934.32587 796.06055 4293846505
43.515594 935.31598 796.89532 4293649640
45.659939 934.23785 797.73041 4293649382
49.070641 933.40179 797.89746 4293649127
0.77522933 938.41272 796.89038 4284633935
3.1009173 937.82007 796.39069 4283776831
38.761467 937.22736 795.89099 4293846248
41.862385 937.22736 795.89099 4293517798
44.188072 938.41272 796.89038 4293978349
-1.5504587 939.59802 797.88977 4281939277
0.77522933 939.59802 797.88977 4287458655
3.8669724 940.31836 795.88116 4286467152
38.669724 940.31836 795.88116 4293977836
41.247707 940.12128 795.71503 4293780968
44.136696 940.25385 797.13477 4293714661
0.77339453 942.09222 797.37683 4286213453
3.8587155 943.07385 796.24249 4288051555
38.532108 944.05554 795.10815 4293912556
40.844036 944.05554 795.10815 4293780968
44.006424 943.07385 796.24249 4293583075
46.403671 942.09222 797.37683 4293583595
0.76880735 947.71539 795.578 4280234301
3.0788991 946.47461 795.83984 4282137409
41.614677 945.23389 796.10168 4293912810
44.183487 945.62665 796.43286 4293847787
49.086239 952.53687 797.02722 4293978349
-4.5908256 955.58655 796.9826 4289369757
-3.6638532 958.86121 797.12762 4292991208
-1.5247706 959.85461 796.65717 4290886347
1.1449541 958.94946 796.54797 4281415290
3.8165138 958.62775 796.93085 4282335043
6.866055 959.53296 797.04004 4284963429
9.6525993 959.87451 796.23798 4284579114
12.944954 959.91425 795.39941 4288588731
38.073395 959.91425 795.39941 4294175214
40.357796 959.91425 795.39941 4294108906
43.403671 959.91425 795.39941 4293978603
46.779205 958.66754 796.09229 4293912810
49.767342 958.39435 796.73401 4293912556
52.667889 958.62781 796.93079 4294044141
54.957798 959.79492 797.91492 4293714663
0 961.07855 796.38123 4292137696
10.66055 961.07855 796.38123 4279261250
12.944954 961.07855 796.38123 4278412416
15.990826 961.07855 796.38123 4287529118
19.036697 961.07855 796.38123 4289106853
22.082569 961.07855 796.38123 4285885047
25.128441 961.66071 796.87207 4292132807
28.174313 962.24286 797.36292 4293910757
31.220184 961.66071 796.87207 4293977835
34.266056 961.66071 796.87207 4293780710
37.311928 961.66071 796.87207 4293911022
40.357796 961.07855 796.38123 4294108906
43.403671 961.07855 796.38123 4293978349
46.449539 961.07855 796.38123 4293714918
48.733944 961.07855 796.38123 4293978349
-14.209174 748.94202 798.02124 4287315526
47.06789 750.97888 799.73865 4294175987
49.732109 751.65778 800.31116 4294110451
51.508255 751.65778 800.31116 4294176244
46.084404 753.19104 798.98792 4294175731
-19.436697 758.19275 799.28113 4287716461
-17.080734 757.29218 798.52179 4287255114
47.119263 757.29218 798.52179 4294241523
49.475231 756.84186 798.14209 4294175733
51.242203 756.84186 798.14209 4294175733
-19.436697 759.54358 800.42017 4288381058
-16.761469 760.68726 799.42242 4288316292
-13.21101 761.83093 798.42468 4289631650
-19.376146 763.85095 800.12793 4287986564
-17.027525 763.62646 799.93866 4287986820
-14.091743 763.17761 799.56018 4289038498
-15.80367 766.80316 798.69312 4288052355
-14.047707 766.80316 798.69312 4288182923
-19.315596 768.14563 799.82495 4287198326
-16.665138 768.90387 799.15625 4287528073
-13.142202 769.66211 798.48755 4289039513
-19.275229 771.00177 799.61707 4288122508
-16.64679 771.00177 799.61707 4288057229
-14.018349 771.00177 799.61707 4289041562
-16.594496 774.60767 798.7334 4288515734
-13.100918 774.60767 798.7334 4289895841
-19.174313 777.45123 798.51501 4287922050
-16.559633 777.45123 798.51501 4287922050
-13.363914 777.89545 798.88959 4288907659
-10.458715 777.45123 798.51501 4290092201
52.293579 777.45123 798.51501 4294569718
54.036697 777.45123 798.51501 4294833147
-19.982569 782.37012 798.7384 4287856261
-16.507339 782.37012 798.7384 4288382085
-13.054129 781.24329 799.75031 4289105040
-10.425688 782.37012 798.7384 4290091935
52.997246 782.37012 798.7384 4294503925
-22.588991 784.36279 800.41858 4288184456
-20.272171 784.58417 800.60529 4287988875
-16.507339 784.36279 800.41858 4287925379
-13.03211 784.36273 800.41858 4288450970
-10.425688 783.69855 799.85852 4289896870
52.128441 785.02698 800.97864 4294636282
-10.39266 787.93433 799.50592 4289897900
51.963303 788.59644 800.06421 4294570488
-12.099083 791.41193 799.82202 4288978587
50.124771 790.09052 798.70776 4294636536
51.85321 791.41193 799.82202 4294438389
-12.060551 794.96594 798.89453 4289108388
49.965137 794.96594 798.89453 4294504693
51.85321 792.73328 800.93616 4294504695
-12.060551 796.28314 800.00525 4289700257
-10.315597 797.7688 798.64185 4288976539
49.052292 797.026 799.32355 4294373877
-17.192661 800.39758 800.85828 4287715433
-12.894495 799.08313 799.75012 4290418590
52.437614 799.74036 800.3042 4294439159
-16.280735 803.27264 799.3584 4286924627
-13.710092 802.61755 798.80603 4287579470
-11.99633 802.61755 798.80603 4287645263
49.699081 802.61755 798.80603 4294570740
51.9841 803.49103 799.54248 4294438902
-16.245872 806.05859 799.09143 4286724675
-13.680734 805.40491 798.54028 4287116098
-11.970642 805.40491 798.54028 4286918976
47.882568 805.40491 798.54028 4294504947
49.592659 806.05859 799.09143 4294372850
51.302753 806.71228 799.64258 4294306803
52.157799 808.01965 800.745 4294306803
-16.364038 811.26959 799.56116 4287055433
-13.622019 811.61304 798.54272 4287449421
-11.348012 812.07501 798.49628 4287712079
49.433029 810.87866 799.23151 4294372597
51.989906 811.53021 799.78088 4294109167
-15.87523 815.16632 800.23071 4286921792
-13.60734 814.29938 799.49976 4287513675
-11.906422 814.29938 799.49976 4287579468
51.877983 814.29938 799.49976 4294175731
-13.563303 817.79449 798.52258 4287313981
-11.86789 817.79449 798.52258 4287445568
50.014679 817.79449 798.52258 4294307061
52.557796 817.79449 798.52258 4294175731
54.253212 817.79449 798.52258 4294110191
-15.258716 819.73877 800.16193 4286920763
-13.548624 820.46753 799.46838 4287248447
-11.278287 820.98212 798.59424 4287511109
47.368809 820.55103 798.23071 4294438137
49.933945 820.83264 799.12219 4294307061
52.500916 820.46753 799.46838 4294109938
54.13578 821.19769 798.776 4294241007
-13.533945 823.13776 800.41187 4287448129
50.752293 823.13776 800.41187 4294306803
52.444038 823.13776 800.41187 4294174960
54.13578 823.13776 800.41187 4294240754
-13.489908 827.89813 800.50159 4287315778
-10.96055 825.96448 798.87109 4287842633
47.21468 825.31989 798.32764 4294504693
49.575409 826.86682 799.63202 4294372853
-11.217125 829.77606 799.46893 4287906889
-8.4128437 828.06097 798.02271 4288368722
47.111927 828.06097 798.02271 4294306803
48.794495 830.63367 800.19202 4294372855
-10.062386 832.80316 798.09717 4287972427
46.957798 832.80316 798.09717 4294044146
-11.726605 835.44666 799.01813 4287577158
49.158405 835.42023 799.43182 4294307316
-11.713761 838.0874 799.93677 4286920509
48.528439 838.0874 799.93677 4294373109
-11.675229 841.51941 798.90637 4287382088
46.700916 841.51941 798.90637 4294307316
48.368809 842.15698 799.44397 4294109938
-14.145872 844.86304 799.1095 4286659134
46.598164 844.86304 799.1095 4294307572
48.262386 845.49915 799.64587 4294308084
-13.284404 846.92871 798.23523 4286459204
-10.793578 846.92871 798.23523 4287114048
44.834862 846.92871 798.23523 4294504695
46.495415 848.19818 799.30566 4294504947
48.262386 846.77148 800.71875 4294504947
46.495415 849.46771 800.3761 4294504693
47.168808 853.50146 799.85315 4294439413
49.651375 854.13416 800.3866 4294701307
-16.513762 856.81488 800.03088 4287117885
-14.036697 856.18359 799.4986 4287182910
-11.009174 855.97314 799.32111 4287906120
47.06422 856.18359 799.4986 4294308084
49.541283 856.81488 800.03088 4294701309
-14.005505 860.11987 800.20148 4287447620
-10.710092 859.48999 799.67041 4287775558
-8.2385321 858.86023 799.13934 4288104266
46.685017 859.49005 799.67041 4294176243
49.431194 860.74969 800.73254 4294308086
-13.137614 862.8645 798.59167 4287379774
-9.8532114 862.8645 798.59167 4287840579
-8.211009 862.8645 798.59167 4287972166
45.981651 862.8645 798.59167 4294307316
-13.944036 865.45056 799.46405 4287380807
-10.923549 865.94464 798.57257 4287906120
-8.1926603 865.5271 798.22058 4287840327
47.006725 865.47559 799.04913 4294307316
49.813457 864.95703 800.3559 4294241524
-13.108257 868.03241 800.33301 4286980401
-10.626606 869.4339 798.89856 4287308595
-7.3568807 869.4339 798.89856 4288096313
46.64679 868.73315 799.61578 4294372594
49.155964 868.03241 800.33301 4294307316
-13.078899 870.68378 799.95239 4286587181
-10.626606 870.68378 799.95239 4286717738
47.411011 870.68378 799.95239 4294767867
49.045872 870.68378 799.95239 4294636282
-9.7761469 875.27301 799.89795 4285669672
-7.3321099 874.02734 798.84766 4286586149
47.251377 874.02734 798.84766 4294571256
49.695412 875.27301 799.89795 4294767865
-10.590826 876.51868 800.94824 4285800997
-7.3155961 876.66602 798.45642 4285538087
47.144955 876.66602 798.45642 4294767865
49.640366 877.21375 800.22632 4294044914
52.13945 876.51868 800.94824 4290626270
-9.7431192 880.46545 800.35199 4285078037
-7.5694194 879.71246 798.409 4286859325
46.633026 880.22919 798.84467 4294637051
49.583488 879.15173 800.55237 4291481059
-9.6990824 886.32782 800.06287 4284947480
-7.5388379 886.37555 799.23102 4288568655
46.044952 886.05469 799.17847 4294175218
-7.5217128 889.80963 799.5105 4287647805
45.966057 889.5564 800.16907 4294175987
-6.4366975 892.16144 799.74939 4286602805
46.666054 892.77655 800.26807 4293978862
-6.4220185 895.37451 799.84265 4285997329
48.165138 896.60193 800.87756 4293846252
-7.4666667 899.05713 799.02362 4286585895
46.400002 898.64941 798.67981 4293715432
48 899.87262 799.71118 4293846252
-7.183486 901.84497 798.75818 4287177003
-4.788991 901.2348 798.24365 4287833652
49.599998 901.09583 800.74255 4293846252
-7.1669722 905.03217 798.82947 4285799454
49.48624 903.6756 800.30164 4293912043
51.082569 903.6756 800.30164 4293846765
-7.4152904 908.00848 798.7229 4285404692
47.669724 908.21094 798.89362 4293780202
49.372478 906.85858 800.36945 4293912044
-7.133945 911.38123 798.95068 4284812303
-4.7559633 911.38123 798.95068 4293960090
46.766972 911.38123 798.95068 4293847017
-6.8697248 913.40118 800.65387 4285207574
-3.9541283 913.9386 798.49097 4291141815
44.28624 913.9386 798.49097 4293386214
46.995716 913.44574 799.81934 4293781226
-4.2177367 915.55084 799.85034 4290608264
45.867889 915.14777 799.5105 4293846765
-3.677676 919.16992 798.97772 4287583595
-1.5761468 918.36658 798.30042 4292849892
44.132111 918.36658 798.30042 4293714409
45.708256 918.96906 798.80841 4294043372
-4.1932721 922.51141 799.17902 4285085237
47.174313 922.71173 799.34802 4293912041
-6.2752295 925.84344 799.37268 4284631355
46.279816 925.24377 798.867 4293911529
-6.26789 928.30396 800.13922 4283644982
48.633026 927.04285 800.38391 4293648870
-7.03578 931.42175 800.15198 4284374117
-4.6844039 930.888 798.39392 4286935416
46.844036 930.888 798.39392 4293583845
