# .PCD v0.7 - Point Cloud Data file format
VERSION 0.7
FIELDS x y z rgb
SIZE 4 4 4 4
TYPE F F F U
COUNT 1 1 1 1
WIDTH 1171
HEIGHT 1
VIEWPOINT 0 0 0 1 0 0 0
POINTS 1171
DATA ascii
-8.9082565 752.08203 804.5929 4286055424
-10.689908 754.12512 806.31567 4288105315
-8.9082565 753.44409 805.74146 4286065725
-10.634862 759.96643 804.70068 4287582050
-8.8623857 759.96643 804.70068 4285015867
-10.568808 768.56421 804.10205 4286645015
-8.8073397 768.56421 804.10205 4286842137
-10.53578 773.51544 804.35266 4287044398
59.266056 785.44702 805.25684 4293188319
59.078899 789.01227 804.33887 4293319652
60.816513 789.01227 804.33887 4293385701
-10.39266 793.89331 804.5304 4286783038
-8.6605501 793.89331 804.5304 4286388280
-10.39266 795.21753 805.64685 4286518057
-6.8917432 801.55194 804.44775 4286581009
-7.4501529 804.77887 804.55255 4286317580
58.455048 804.34076 804.18311 4293385447
60.174313 804.99792 804.73724 4293385448
-6.8550458 809.16846 804.32959 4286782729
-5.1412845 809.16846 804.32959 4289217070
59.981651 809.16846 804.32959 4293779693
-7.4263 810.91534 805.80255 4286585364
-5.1357799 811.8653 805.29553 4289151031
58.998165 811.94177 804.052 4293385447
61.563301 811.94177 804.052 4293057249
-5.1302752 814.55658 806.25671 4287037455
59.85321 813.90283 805.70551 4293517286
61.563301 813.90283 805.70551 4293254116
-3.97737 817.61163 804.90863 4286840846
58.808258 817.39453 804.72546 4293582311
-4.2577982 820.0752 805.6778 4287039770
59.660549 819.34924 806.37366 4293319138
-5.1027522 822.10156 806.07837 4286979619
57.831192 822.10156 806.07837 4293648103
-5.0862384 826.86761 806.17273 4287046450
57.644035 825.57141 805.07983 4293648103
-3.3834863 828.31116 804.77393 4287505214
57.519264 828.31116 804.77393 4293648103
60.902752 830.89783 806.95496 4293319654
-3.3724771 833.05475 804.84949 4287177005
59.018349 833.05475 804.84949 4293648870
-3.3651376 835.77899 804.5304 4287440422
59.018349 834.34387 805.9364 4293452005
-3.3651376 837.06531 805.61499 4287439898
-3.3541284 840.49591 804.5835 4287439648
-3.3467891 844.48407 805.33026 4287238684
0 843.20471 804.25146 4288556328
61.078899 843.20471 804.25146 4293582828
-1.66789 847.89502 804.2821 4286842126
0 847.89502 804.2821 4287627303
55.874313 847.89502 804.2821 4293648103
-3.3357799 849.80768 805.89484 4286775301
-1.6642202 851.86072 805.00977 4288025375
0 851.86072 805.00977 4287499040
-1.6642202 853.13306 806.08264 4287702564
0.83027524 853.83936 805.37018 4287902507
56.458717 854.54572 804.65771 4293385960
58.949539 854.54572 804.65771 4293649128
61.440369 854.54572 804.65771 4293714661
-3.321101 857.08472 806.79846 4287770155
-1.6605505 857.08472 806.79846 4287704362
0 855.81525 805.72815 4288362002
-1.6550459 860.46063 805.72095 4287834417
0.55168194 859.61713 805.0097 4288361007
-4.1376147 861.72589 806.78772 4286977831
-1.6513761 863.12732 805.35327 4287502634
0.82568806 862.49609 804.82104 4288160295
-4.1284404 864.38983 806.41785 4287571762
-1.6477064 865.78845 804.98108 4287769142
0.82385319 865.08911 805.69946 4288752957
-3.2954128 867.04816 806.04321 4287174956
-1.6477064 867.04816 806.04321 4288096058
0 867.04816 806.04321 4288032564
-3.2844036 870.3974 804.94312 4287041571
-1.6422018 871.02515 805.47241 4287236889
0 871.02515 805.47241 4287828500
58.571869 870.81592 805.29596 4293911788
60.761467 871.02515 805.47241 4293714409
-1.6385322 874.92212 806.14221 4286842128
0.81834865 874.64258 805.25256 4287627275
3.2697248 875.68323 804.16785 4288217128
52.315598 875.68323 804.16785 4293319904
54.890823 873.66943 805.086 4293780202
57.348621 874.29572 805.61407 4293845999
62.264221 874.29572 805.61407 4293714412
63.902752 874.92212 806.14221 4294108913
-1.6348624 878.18292 806.27551 4287705657
0.81743121 877.55798 805.7486 4288354353
53.950459 876.93311 805.22168 4293648868
55.58532 877.55798 805.7486 4293714411
-1.6293578 881.50134 805.14941 4287376944
0.81467891 880.87854 804.62427 4288425792
52.954128 880.25568 804.09912 4293583845
55.398167 881.50134 805.14941 4293649641
-1.6293578 882.74695 806.19971 4287309858
0.81284404 883.43506 805.47192 4288029993
53.647705 884.12311 804.74414 4293978603
55.398167 882.74695 806.19971 4293912810
-1.6256881 886.60883 806.83997 4287504951
0.8119266 886.33002 805.95087 4288622157
3.2440367 887.35938 804.85675 4288945463
53.526604 887.35938 804.85675 4293912557
55.21101 886.67273 805.58575 4293846762
-3.2440367 889.21948 806.42505 4287239725
-1.6220183 889.21948 806.42505 4287371568
0.81100917 889.21948 806.42505 4288291132
-1.6165137 893.74286 806.31494 4287966519
1.6165137 893.74286 806.31494 4288362297
3.2330275 892.50702 805.27295 4288750116
53.344955 891.8891 804.75195 4293649130
54.961468 891.8891 804.75195 4293649386
4.0321102 895.72156 805.36737 4288420894
53.223854 895.10504 804.84753 4293846252
54.836697 895.10504 804.84753 4293846765
1.612844 897.57111 806.92688 4287496207
4.0229359 898.31256 804.93591 4288745497
53.102753 897.69745 804.41724 4293977068
55.516514 898.31256 804.93591 4293714668
61.288074 897.57111 806.92688 4293649389
1.6091744 900.1579 806.49182 4287561757
4.0155964 901.78687 805.90332 4289071904
6.4220185 901.5116 805.01721 4290004567
52.446484 901.92072 805.36212 4293977580
55.65749 901.92072 805.36212 4293846763
57.930275 900.1579 806.49182 4293912810
61.148624 900.1579 806.49182 4293714411
4.8000002 905.98865 804.86816 4289991718
6.4000001 905.98865 804.86816 4289411149
52.799999 905.98865 804.86816 4293912810
55.200001 905.98865 804.86816 4293649384
3.7333336 907.61963 806.24335 4288349970
6.3853211 908.55725 804.41772 4289213518
52.227524 908.06805 805.74933 4293779686
55.200001 907.82349 806.41522 4293715180
57.599998 908.43512 806.93091 4293715434
4.788991 910.38782 805.9613 4289663784
6.3853211 910.38782 805.9613 4289279054
51.880733 910.38782 805.9613 4293845995
7.4262996 913.59515 805.17755 4291712884
10.328441 914.89227 804.52722 4292647564
50.140366 913.28082 805.13049 4293977580
4.7669725 917.3219 806.57581 4288807961
6.8856263 916.51202 805.89288 4290724960
10.304587 917.44122 804.0603 4292121245
50.280121 916.95673 805.39581 4293780716
4.7559633 919.86517 806.10413 4289465383
7.133945 919.25916 805.5932 4291976310
9.5119267 918.6532 805.08228 4292513188
49.673397 919.46118 805.76349 4293780458
7.1174312 922.40289 805.62781 4291183972
9.4899082 921.19373 804.60828 4292180632
49.031193 923.00745 806.13757 4294043629
4.7284403 926.80139 805.41248 4284615730
7.0926609 926.19891 804.90448 4288819517
9.4568806 925.59644 804.39648 4290985572
46.49633 925.59644 804.39648 4294043628
48.86055 926.80139 805.41248 4294240240
4.7284403 928.00635 806.42847 4284173407
6.2899084 929.32367 804.9231 4283584588
46.388073 929.32367 804.9231 4293977838
48.746788 929.32367 804.9231 4294174960
4.1896024 931.76544 806.10986 4280624173
7.0596333 931.84027 804.42896 4285225318
43.926605 931.84027 804.42896 4294174962
46.388073 930.52588 805.93677 4294174961
48.746788 931.12695 806.44354 4294174704
-12.521101 935.54791 804.93909 4278912004
-10.458715 933.43945 805.77734 4278911500
4.7064219 934.23901 806.45154 4278979596
7.0550461 933.96661 805.56787 4284763745
9.3908253 935.54791 804.93909 4285095031
43.875229 934.29382 805.1897 4293977836
46.018353 933.43945 805.77734 4294043373
-12.521101 936.74445 805.948 4279832602
4.6954126 937.94104 806.95691 4280291606
7.0431194 937.34277 806.45245 4278846993
10.149542 938.05054 804.43323 4283646812
43.823853 936.74445 805.948 4293978349
45.388992 937.94104 806.95691 4293978349
7.8073397 939.84119 805.94299 4278190081
10.125689 941.73846 804.92664 4283320133
9.8660555 943.32642 806.26562 4283836709
13.210092 944.22705 804.40894 4289827927
15.541285 944.22705 804.40894 4291009982
37.299084 944.22705 804.40894 4293846761
48.291744 944.12036 806.93506 4294307314
7.2525992 946.20728 806.07861 4278715140
10.344954 947.06866 805.06085 4288311122
12.941284 946.24194 805.23584 4286928971
48.177982 946.60333 806.4126 4294175985
6.9770641 949.67346 806.38513 4278321152
10.054129 950.36993 804.35632 4286337046
12.374312 950.36993 804.35632 4287584308
46.403671 950.36993 804.35632 4294307316
48.839447 949.67346 806.38513 4294110192
51.165138 950.26611 806.88489 4294110189
7.7339449 951.55249 805.35339 4278452224
47.950459 951.55249 805.35339 4294373109
4.6238532 955.83881 805.04346 4286018963
6.1651378 954.66046 804.04993 4286806912
47.779816 954.66046 804.04993 4294307316
50.091743 955.24963 804.54669 4293978605
4.1027522 958.26099 805.34174 4278190088
6.6629968 959.0788 805.15924 4278190080
9.9944954 958.88287 804.99408 4278846724
13.069725 958.88287 804.99408 4283976230
16.401224 959.0788 805.15924 4290622640
18.963915 959.0788 805.15924 4290950088
21.526606 959.47064 805.48962 4292788421
24.601835 959.47064 805.48962 4287989008
44.590824 958.88287 804.99408 4294044398
46.897247 958.88287 804.99414 4294110447
50.002754 958.56342 805.37866 4293912811
52.403671 957.01715 806.03699 4294110189
4.612844 960.64612 806.48083 4289308595
6.9192657 960.64612 806.48083 4291674327
9.9944954 960.64612 806.48083 4292663534
13.069725 960.64612 806.48083 4294308341
16.144955 960.64612 806.48083 4294967295
19.220184 960.64612 806.48083 4294967295
22.295414 960.64612 806.48083 4291676621
25.370644 960.64612 806.48083 4285099095
28.411011 961.28235 805.70923 4283921708
31.445873 961.91852 804.93762 4291672475
40.649544 961.91852 804.93762 4294110189
43.822018 960.64612 806.48083 4294241523
46.897247 960.64612 806.48083 4294044396
49.203671 960.64612 806.48083 4293715432
32.212845 963.09125 805.92639 4292727966
34.513763 963.09125 805.92639 4294305783
36.814678 963.09125 805.92639 4294175985
-12.894495 809.59833 808.61621 4287050057
-10.315597 809.59833 808.61621 4287113258
-8.5963306 809.59833 808.61621 4285468434
-10.315597 810.91272 809.72449 4287441204
-8.5963306 810.91272 809.72449 4285664793
-10.282569 815.06433 809.30078 4286714913
-7.7082567 814.77295 808.40106 4286317588
61.563301 815.86395 807.35901 4293253860
-7.6954126 817.82501 809.01257 4286780195
61.563301 817.82501 809.01257 4293319394
-6.8183484 821.30396 808.02191 4286979878
59.660549 820.6524 807.47253 4293582310
61.365139 821.95557 808.57129 4293517285
-7.6633029 823.98047 808.97064 4287046701
-5.1027522 823.40192 807.1748 4286914345
59.532108 824.05212 807.72302 4293648103
61.233028 824.70227 808.27124 4293385699
-8.5045872 826.00269 809.36768 4287112753
-7.459816 829.71912 808.57703 4286981421
-5.0862384 828.81183 807.81207 4286849578
59.339451 828.16376 807.26562 4293648357
61.034863 828.16376 807.26562 4293121759
-7.612844 833.48456 809.13599 4286785584
-5.0752292 832.19122 808.04541 4286850600
61.748623 832.19122 808.04541 4293385447
-5.0587158 836.27759 807.56689 4286719017
-5.0587158 838.2113 809.19739 4285860139
-5.0477066 841.5675 809.41113 4286778663
-5.0311928 845.62445 808.90771 4286316546
-5.0201836 848.32202 808.56628 4286119964
-6.6935778 849.60132 809.64502 4287245878
-4.1779819 850.66083 808.57629 4287046694
-6.6715598 854.27057 809.65784 4287241515
-4.1660552 853.70044 807.86908 4286914332
-1.6642202 854.40533 807.1554 4287439648
-4.9926605 855.67767 808.22815 4287241515
-4.1513762 858.35425 807.8689 4287242028
-4.9541283 866.28357 808.01459 4286453533
-4.1247706 868.87238 808.8894 4286382082
-3.2954128 870.82721 809.22961 4286644233
59.119267 872.90833 807.0603 4293846252
60.761467 872.90833 807.0603 4293977838
-3.2844036 874.79156 808.64819 4287504681
59.119267 874.16382 808.1189 4293715434
60.761467 874.16382 808.1189 4293715434
-3.2770643 878.05377 808.78271 4287376944
58.167892 876.80115 807.72656 4293846506
61.444954 876.80115 807.72656 4293780713
63.902752 876.80115 807.72656 4294240754
-3.2697248 880.68268 808.3833 4287441445
57.220184 880.05774 807.85638 4293649640
-3.2587156 883.99261 807.25 4288098364
-1.6293578 883.99261 807.25 4287703862
-6.5174313 886.48395 809.35071 4286650146
-3.2587156 885.23828 808.30042 4287570744
56.899082 887.85168 807.88794 4293846765
57.027523 885.23828 808.30042 4293715432
-6.5027523 890.3374 809.98376 4286982704
-4.3327217 889.96381 808.79681 4287310387
-1.6220183 890.45953 807.4707 4288229953
0.81100917 890.45953 807.4707 4288689727
56.770641 890.45953 807.4707 4293978351
-3.2440367 892.31958 809.039 4287175718
0 891.69958 808.51624 4287835953
56.770641 891.69958 808.51624 4293846765
58.392662 892.93964 809.56177 4293649638
-1.6165137 895.59662 807.87805 4287500057
0.53883791 895.39062 807.70441 4287894558
56.57798 894.9787 807.35706 4293845998
59.002754 896.21454 808.39905 4293650152
-3.2330275 897.45038 809.44104 4286840845
-1.6165137 897.45038 809.44104 4286840845
0 897.45038 809.44104 4287692831
59.675228 898.80414 807.96643 4293978603
1.6091744 902.00323 808.04779 4287365144
59.003056 901.79816 807.87494 4293846764
61.685013 901.79816 807.87494 4293714665
-1.6091744 903.84857 809.60376 4287104269
0.80275232 904.52124 808.86292 4287365394
3.2110093 903.96643 807.08716 4287823877
58.333332 904.78467 807.7771 4293780972
62.127216 904.33624 808.271 4293781484
1.6055046 906.42126 809.15698 4287299601
59.403671 906.42126 809.15698 4293912556
61.009174 906.42126 809.15698 4293846761
1.6 910.2699 808.47797 4287102992
3.2 909.65833 807.96228 4287758349
55.200001 909.65833 807.96228 4293977068
58.133331 910.47382 808.6499 4293845993
60.799999 910.88153 808.99365 4293846761
1.5963303 914.6593 809.56287 4288021537
3.9880733 913.16217 807.64655 4288611356
52.618347 913.49573 807.27374 4294109166
55.073395 913.4389 808.53375 4293912299
57.467892 913.43884 808.53381 4293912297
3.1853211 915.9906 808.06934 4288151567
52.557796 916.59937 808.58264 4294043630
1.5889908 920.96625 809.64856 4285007104
3.1779816 919.14404 808.11218 4287889424
52.436699 920.35889 809.13641 4293912298
1.5853211 923.50116 809.16992 4283240964
4.2275229 921.88519 807.80731 4287499033
6.3412843 921.07721 807.1261 4289605473
50.730274 922.28912 808.14795 4294043883
3.1633027 925.4259 808.17676 4283572284
1.5816513 927.23962 809.70605 4283118377
3.1522937 929.21136 807.44446 4282859348
50.612843 927.23962 809.70605 4294240754
-9.4348621 932.93018 807.96399 4278912004
-3.1522937 931.62134 809.47644 4278780421
-1.5761468 931.0188 808.96844 4279043843
1.5761468 931.0188 808.96844 4278583300
3.1449542 932.93018 807.96399 4278190080
47.174313 932.93018 807.96399 4293846765
49.911316 931.21967 809.13776 4293912300
-10.48318 934.53314 809.31561 4279767063
1.5724771 935.33453 809.99133 4279964694
3.925688 934.7854 808.22028 4280291863
6.2752295 935.43835 807.46289 4279503137
46.279816 935.43835 807.46289 4293780971
49.533028 934.73346 809.4845 4293846763
52.677982 935.33453 809.99133 4294109933
-12.550459 936.63776 808.47412 4279701273
3.9220183 937.23743 808.97974 4280227095
47.06422 937.23743 808.97974 4293912556
49.417431 937.8371 809.48535 4294044142
51.770641 937.8371 809.48535 4294044142
4.6954126 941.5307 809.98364 4279833106
6.6472483 940.65863 808.59424 4279438100
49.301834 940.33417 808.97473 4294175730
51.64954 940.33417 808.97473 4293912558
4.6844039 944.01935 809.46594 4279832604
49.966972 942.82556 808.45935 4294109938
51.528439 943.42249 808.96265 4294044143
4.6733947 947.09778 809.44543 4278190080
6.2165136 947.7915 807.41443 4278190080
49.790825 946.55139 807.67682 4293912556
52.186241 947.09778 809.44543 4293912811
54.522934 947.69324 809.94751 4294044396
4.6623855 950.16779 809.41797 4285823367
52.840366 950.16779 809.41797 4293978603
54.394497 950.16779 809.41797 4293978603
1.5504587 953.82208 809.88318 4278190080
3.1009173 952.63678 808.88379 4285953170
52.590824 953.91754 807.34766 4294044396
55.041283 952.63678 808.88379 4293912810
57.366974 953.82208 809.88318 4293715432
1.5467891 956.28259 809.3418 4278190080
54.911011 955.69135 808.84326 4293715431
3.0825689 958.78461 807.52728 4283716441
50.862385 959.37378 808.02405 4293846761
52.917431 958.98096 807.69287 4293846505
3.8477063 961.18689 808.24481 4292662482
6.9284401 961.18689 808.24481 4294242552
10.258103 961.79034 808.31757 4294506495
13.069725 962.40942 807.96765 4294309119
16.165138 961.18689 808.24481 4294967295
19.266056 960.55212 809.01758 4294967295
22.348625 960.55212 809.01758 4290689233
25.400002 961.18689 808.24481 4285755033
28.702141 962.21356 807.80243 4284966674
31.521101 962.40942 807.96759 4290624613
33.827522 962.99719 808.46313 4293845739
38.440369 961.82166 807.47205 4294373107
40.746788 961.82166 807.47205 4294373359
43.822018 961.82166 807.47205 4294175730
46.897247 961.82166 807.47205 4294044142
50.091743 960.55212 809.01758 4293780970
53.174313 960.55212 809.01758 4293780457
-12.922018 809.45514 811.11145 4286919491
-15.473394 812.22711 810.83264 4287968063
-12.894495 812.22711 810.83264 4287115821
-15.473394 813.5415 811.94092 4286519320
-12.894495 813.5415 811.94092 4286253852
-10.282569 817.68469 811.51025 4286783278
-10.26055 821.09344 811.76843 4287244845
-8.5504589 819.78607 810.66614 4286785075
63.273396 819.78607 810.66614 4293385699
-11.079817 824.56189 810.76892 4287047729
-13.636697 825.86511 811.86768 4286719280
-11.068808 826.58411 811.16589 4286850091
-13.60734 829.25354 812.10876 4286456617
-11.33945 829.0368 811.92603 4286851120
-10.172477 832.70032 811.09076 4286785590
-10.172477 834.64453 812.7301 4286784303
-7.6174312 835.06787 811.125 4286652208
-6.7449541 839.50043 810.2843 4286516257
-7.5880733 841.4342 811.91479 4286317587
-6.7302752 843.49701 811.03809 4286447621
-6.6935778 850.88068 810.72363 4287047202
-6.6715598 855.54572 810.73303 4287044398
-7.206728 859.53668 810.61005 4286783529
-6.6422019 862.79749 811.61542 4286716705
-6.6201835 866.78711 811.05518 4286316548
-6.6201835 868.05237 812.12207 4286185472
-4.9541283 869.43976 810.67578 4285988864
-6.6055045 871.96472 812.80481 4286716202
-4.9541283 870.70227 811.74036 4287106583
-4.943119 873.34656 811.35388 4288492613
64.260551 874.60626 812.41602 4293977836
-4.9266057 876.67474 810.23608 4287702827
59.119267 877.30249 810.76538 4293583333
61.582569 877.30249 810.76538 4293978091
57.348625 880.55914 810.89526 4293846763
-4.9045873 884.43225 811.5448 4286978854
-10.60734 886.70587 811.49982 4286521643
-7.3458714 886.70587 811.49982 4286784810
-9.7761469 889.59814 811.97644 4286784548
-8.1467886 889.59814 811.97644 4286981671
-6.5027523 892.20166 811.55573 4286778899
-4.8770642 892.20166 811.55573 4286647569
-4.3253822 895.41974 811.65302 4286775567
-3.7718651 899.51007 811.17773 4286972690
-1.6165137 898.68622 810.48303 4286906899
0 898.68622 810.48303 4287627548
-6.4660549 901.15784 812.56714 4286514444
-4.0376148 901.83057 811.82629 4286842125
-1.612844 901.2702 810.04578 4286907149
0 901.2702 810.04578 4287561754
-3.225688 903.73627 812.12512 4286972683
-1.6091744 905.0788 810.64099 4287235854
0 905.0788 810.64099 4287496980
62.757797 905.0788 810.64099 4293978603
-3.2183487 907.53925 812.71558 4286972683
-1.6055046 908.26245 810.70935 4286973709
0 908.26245 810.70935 4287497494
59.403671 907.64874 810.19189 4293845737
61.009174 907.64874 810.19189 4293780457
0 910.10358 812.26172 4287627798
-1.6 913.32794 811.0564 4287104276
0.53333336 913.32794 811.0564 4287627801
56 914.55115 812.08777 4293912043
58.559998 913.57257 811.26263 4293846247
60.799999 913.32794 811.0564 4293780201
0.79816514 916.48987 811.10632 4287368731
55.073395 916.48987 811.10632 4293780714
58.266056 917.1001 811.62085 4293846504
60.660549 917.1001 811.62085 4293780203
-1.5963303 918.3205 812.6499 4284747527
0.79633027 918.37317 811.38629 4285860620
54.946785 919.64343 811.14929 4293583845
58.166058 919.92151 812.03772 4293648617
61.098469 920.01416 812.33392 4293714409
-1.5889908 923.39587 811.69714 4286340941
0 922.78845 811.185 4285349947
52.436699 922.18103 810.67285 4293912810
54.555347 922.99091 811.35571 4293715687
-3.1779816 924.61066 812.72144 4284238148
-1.5853211 925.92517 811.21375 4285882716
0.79266053 925.31915 810.70282 4284302144
50.730274 924.71313 810.19189 4294044144
52.315598 925.31915 810.70282 4294043887
54.820183 924.61066 812.72144 4293781224
57.203671 924.61066 812.72144 4293780457
-7.1211009 928.72552 811.61292 4278780425
-4.2214065 928.41461 811.56885 4278715138
0 929.05347 811.23535 4278912010
52.194496 928.44885 810.72559 4294042859
55.48624 927.13715 812.23572 4293649638
-7.1174312 930.86719 812.76477 4279635729
-3.9486239 931.84674 811.62866 4279767566
-1.5761468 932.82629 810.49255 4279833356
0.78807342 932.82629 810.49255 4279898899
52.800919 932.82629 810.49255 4293846762
55.3578 930.86719 812.76477 4293846761
-9.4568806 934.03125 811.50854 4279701523
-3.1522937 934.63379 812.01654 4279701523
-1.5761468 934.63379 812.01654 4279701523
0 934.63379 812.01654 4279701521
55.953209 934.63379 812.01654 4293846762
1.5724771 937.13782 811.51172 4279701525
3.1449542 937.13782 811.51172 4279898900
53.464222 936.53668 811.00488 4293978603
55.822937 937.13782 811.51172 4293846762
-1.5688074 941.43524 812.51917 4279438598
3.6605504 940.23584 811.508 4279767318
53.339451 939.63617 811.00232 4293649639
54.908257 939.63617 811.00232 4293715431
53.21468 942.72729 810.99255 4294044396
54.779816 942.72729 810.99255 4294307312
-3.9036698 947.60059 812.48547 4284500814
1.5614679 947.60059 812.48547 4286149236
3.1229358 946.4068 811.479 4278190336
53.089909 945.21307 810.47241 4293912810
55.43211 945.80994 810.97571 4293847020
-6.2311926 950.07513 811.95593 4283714645
-3.8944955 950.07513 811.95593 4284107854
-1.5577981 950.07513 811.95593 4287527798
0 950.07513 811.95593 4286673786
3.1155963 948.88416 810.95178 4286283918
56.080734 948.88416 810.95178 4293715434
57.638531 948.88416 810.95178 4293715434
-6.9981651 952.8186 812.30719 4278190085
-3.8853211 952.54407 811.42163 4278190080
-1.5541284 952.54407 811.42163 4278190080
0.7770642 951.95001 810.92072 4281872693
58.279816 951.35596 810.4198 4293781224
60.611008 953.73224 812.42346 4293452257
-3.8761468 955.6001 811.38245 4282662203
-1.5504587 955.6001 811.38239 4282728771
0 955.6001 811.38239 4283319361
58.142204 955.00745 810.88269 4293649637
-3.8761468 957.37811 812.88159 4290358413
-1.5504587 957.37811 812.88159 4290818724
1.1600918 958.33032 811.72235 4291213220
55.684402 958.64771 811.33594 4293254625
58.039452 957.73901 811.22382 4293583333
60.396332 957.42163 811.61023 4293320160
3.8532109 962.31958 810.50787 4292396245
6.9357796 962.31958 810.50793 4292662246
9.7614679 962.51593 810.67352 4292795377
13.100918 962.90875 811.00464 4293321716
16.183487 962.31958 810.50793 4294374910
19.266056 962.31958 810.50793 4290495429
22.348625 961.73041 810.01111 4278204300
25.688074 962.12323 810.34229 4283981106
27.74312 961.73041 810.01111 4286870617
30.825687 961.73041 810.01111 4284376576
35.449543 961.73041 810.01111 4294569205
37.761467 961.73041 810.01111 4294109935
40.844036 961.73041 810.01111 4294174699
43.669724 962.12323 810.34229 4294108910
47.009174 962.31958 810.50787 4293978859
49.834866 962.12323 810.34229 4293583591
53.174313 961.73041 810.01111 4293452259
-15.506422 814.06531 814.99866 4286716437
-13.190825 814.81195 813.88409 4286452529
-12.034863 816.17029 814.15747 4287046711
-13.710092 820.30505 813.71973 4286916398
-11.99633 819.64996 813.16736 4286916397
-13.60734 831.2041 813.75342 4286654250
-11.906422 832.50458 814.84985 4286786603
-10.172477 835.94067 813.823 4286587431
-8.4770641 835.94067 813.823 4286521638
-10.172477 837.23688 814.91589 4286651940
-8.4587154 838.65796 813.49805 4286520354
-8.3027525 865.33655 813.75616 4285923851
-7.4477062 869.31769 813.18896 4286384917
-8.2752295 870.58301 814.25586 4286257183
-7.2623854 874.51251 814.42981 4286585632
-4.943119 875.86597 813.47815 4287110163
59.449543 875.7522 815.99829 4293649638
61.100918 875.7522 815.99829 4293912810
-7.4146786 877.75549 815.07135 4286782764
-4.943119 877.12561 814.54028 4287440170
62.612843 877.12561 814.54028 4293977836
-4.9266057 880.44122 813.41187 4287374646
-9.831193 883.06445 813.00769 4286587181
-8.1926603 883.06445 813.00769 4286455594
-11.444036 889.43176 815.76025 4286122798
-9.7761469 892.71222 814.60223 4286383385
-8.1467886 892.08936 814.07703 4286252054
-9.7541285 896.55164 815.22351 4286382624
-7.3155966 895.30878 814.17554 4286447897
-7.2990828 898.51984 814.26691 4286447892
-7.2880735 901.38678 814.72223 4286316811
-4.8495412 902.39368 813.60913 4286645517
-6.4660549 904.24744 815.17224 4286383625
-4.0376148 904.29944 813.90802 4286712075
-6.451376 907.43536 815.24414 4286514694
-4.298471 907.46906 814.40057 4286711050
-4.2886848 910.85352 814.63818 4286710797
-3.2110093 912.55841 814.33167 4287104794
-3.2 916.38599 813.63483 4285072905
-1.6 915.77435 813.11914 4286648858
-6.4000001 918.22083 815.18188 4283505705
-4.2605505 919.50763 814.52295 4283706416
-1.5963303 919.54089 813.67896 4285937718
61.458717 920.76129 814.70789 4293714148
-7.1669722 923.2962 814.22925 4283515721
-3.9816513 922.68738 813.71594 4284041023
58.397552 922.48444 813.54486 4293583079
61.458717 921.98175 815.73694 4293714661
54.025688 925.82544 813.74573 4293715432
58.066055 925.16962 814.50079 4293780457
53.108257 928.34912 813.25757 4293780713
55.48624 928.34912 813.25757 4293780454
57.931194 928.30066 814.52478 4293846247
-7.1174312 932.07642 813.7843 4279504143
-4.7449541 932.07642 813.7843 4279701523
57.86422 930.77313 815.30139 4294109419
-10.280734 933.28558 814.80383 4279701523
-6.3266053 933.28558 814.80383 4279635727
-4.2177367 934.09174 815.48358 4279438350
58.521099 933.28558 814.80383 4293978349
-6.3045874 938.8512 815.57251 4279372301
-3.1522937 938.8512 815.57251 4279372805
-1.574312 937.69116 813.28638 4279569936
0.52415901 937.67609 813.70978 4279569937
56.741283 937.64618 814.55652 4293846765
59.105507 936.44122 813.54053 4294110189
-4.7174311 941.3454 815.05945 4278190080
-1.5724771 941.3454 815.05945 4278190080
0.52415901 940.54395 814.38379 4278782217
56.609173 940.14325 814.0459 4293912304
-3.1376147 943.83392 814.54175 4280090624
-1.5688074 943.83392 814.54175 4280418304
0.78440368 943.23425 814.03613 4278910976
3.1376147 942.63458 813.53052 4278190080
56.477066 942.63458 813.53052 4293846765
-6.2605505 945.71863 813.51483 4281346603
-4.6954126 945.12036 813.01038 4278780928
-1.5651376 946.31696 814.01929 4288444793
0.78256881 945.71863 813.51483 4283187522
-9.3467894 952.45703 813.96423 4278321152
-6.993578 955.51447 813.92621 4287329631
-6.2165136 957.29663 815.42896 4290225820
-3.6177368 958.95856 814.21411 4290488749
-1.5504587 959.15613 814.38068 4290554550
0.51681954 959.3537 814.54718 4291080375
35.660549 959.74878 814.88037 4294307312
55.816513 959.74878 814.88037 4293385697
58.142204 959.15613 814.38062 4293254111
61.243118 959.15613 814.38062 4293187805
63.568806 959.74878 814.88037 4293055964
-1.5504587 960.93414 815.87988 4293250776
1.5504587 960.93414 815.87988 4293317846
3.8706422 961.5647 815.10352 4293449947
6.9605503 962.19525 814.32715 4293450981
10.054129 962.19525 814.32715 4293254124
13.147707 962.19525 814.32715 4293584374
16.241283 962.19525 814.32715 4294440703
19.334862 962.19525 814.32715 4294638590
22.42844 961.604 813.82861 4286357118
25.264221 961.80109 813.99481 4291414954
28.649542 960.97345 814.60498 4289964998
31.746788 960.97345 814.60498 4289703347
34.069725 960.97345 814.60498 4292795356
38.184708 960.98657 814.17999 4294109419
41.038532 960.97345 814.60498 4294043630
44.411011 960.96039 815.02997 4294109680
47.177063 962.19525 814.32715 4293583848
49.49725 962.19525 814.32715 4293385699
51.817429 961.604 813.82861 4293451747
54.740063 960.96039 815.02997 4293254110
57.366974 960.93414 815.87988 4293253597
-15.506422 816.04114 816.66467 4286653750
-13.636697 831.07776 816.26294 4286655272
-8.2568808 877.01471 817.06287 4286717997
-11.444036 890.68164 816.81409 4286253082
-11.444036 892.5564 818.3949 4286120213
-11.405504 896.44922 817.75317 4286383376
-13.034863 897.69489 818.80347 4286121221
-10.304587 898.1756 817.46478 4286186255
-9.7541285 900.28021 818.36731 4286317329
-8.1100922 902.23999 817.40363 4286383378
-9.73211 904.10004 818.97205 4286252819
-8.1100922 904.10004 818.97205 4286187026
-9.6990824 907.95496 818.29828 4286121753
-7.5388379 908.19269 817.62677 4286186512
-7.2577982 910.51794 817.84326 4286056979
-7.2412844 913.69043 817.90204 4284814353
-4.8275228 912.46014 816.86475 4285534992
-6.4220185 915.01324 816.40149 4284486420
-4.8165135 915.01324 816.40149 4283959820
-9.6000004 920.05566 816.729 4285750373
-7.1999998 919.44403 816.21326 4284304723
61.458717 923.20215 816.76599 4293649639
60.660549 925.03271 818.30945 4293846250
-7.9266057 931.98511 816.32336 4279701523
-10.292661 934.4505 817.09412 4279635729
-7.1256881 934.4505 817.09412 4279504143
-3.9541283 935.70392 816.8429 4279372301
58.521099 935.70392 816.8429 4293846765
-10.017125 937.31616 818.20239 4279109899
-7.908257 937.5177 818.37231 4278781190
-4.7449541 936.91315 817.86255 4279438350
58.521099 937.5177 818.37231 4293715181
-6.3045874 940.05615 816.5885 4278190080
-3.1522937 940.05615 816.5885 4278190080
58.181652 942.54755 816.07312 4293649387
-6.7504592 958.01483 818.65045 4291607482
-4.1480122 958.85645 817.61615 4292133314
0 959.67297 817.4325 4293186259
35.744953 959.67297 817.4325 4294111986
37.299084 959.67297 817.4325 4294306799
59.056881 959.67297 817.4325 4293055705
61.388073 959.67297 817.4325 4293055705
63.719265 959.67297 817.4325 4293055705
-3.1082568 960.86108 818.43433 4293647072
-1.5504587 962.11951 816.87927 4293712865
0.7770642 960.86108 818.43433 4293582047
3.8761468 962.11951 816.87927 4293516253
6.9770641 962.11951 816.87927 4293516769
10.077982 962.11951 816.87927 4293320171
13.178899 962.11951 816.87927 4293715442
16.279816 962.11951 816.87927 4294637311
19.380733 962.11951 816.87927 4294967295
22.481651 962.11951 816.87927 4294967295
25.582569 962.11951 816.87927 4294967295
28.751377 960.86108 818.43433 4293783021
31.859632 960.86108 818.43433 4290623436
34.967888 960.86108 818.43433 4293649382
38.076149 960.86108 818.43433 4294307823
41.184402 960.86108 818.43433 4294109937
43.515594 960.86108 818.43433 4294109940
45.846786 960.86108 818.43433 4293912301
48.839447 962.11951 816.87927 4293648614
51.940369 962.11951 816.87927 4293582564
55.171562 960.86108 818.43433 4293253597
58.279816 960.86108 818.43433 4293122012
61.388073 960.86108 818.43433 4292924377
63.719265 960.86108 818.43433 4293121498
-10.793578 873.58832 820.71387 4287047988
-13.078899 894.43121 819.97571 4286054411
-13.034863 898.94055 819.85376 4286054915
-11.405504 898.94055 819.85376 4286317830
-13.849541 900.80902 821.4292 4285793289
-10.846484 901.4917 820.26093 4286186765
-13.818348 904.00879 821.51111 4285792519
-11.379816 904.00879 821.51111 4285989899
-11.354129 906.58014 821.06311 4286187278
-9.6990824 910.42664 820.38232 4285270026
-9.6770639 913.60052 820.44238 4284027663
-8.0642204 912.36749 819.40271 4285335812
60.799999 925.56006 821.37024 4293846252
60.311928 934.36768 819.64032 4293715433
60.242203 936.83307 820.41101 4293780454
-6.2311926 959.60272 819.98938 4293450206
-4.6733947 959.60272 819.98938 4293384413
65.427521 959.60272 819.98938 4292923862
-9.3467894 960.79364 820.99353 4293648357
-6.2311926 960.79364 820.99353 4293516769
-3.6324158 961.60919 820.80908 4293384927
-1.5541284 962.04926 819.43616 4293385184
0.77889907 961.3891 821.49561 4293450720
3.8899083 962.01697 820.71692 4293450976
7.0018349 962.01697 820.71692 4293188318
9.858716 961.60919 820.80908 4293188066
13.241284 960.79364 820.99353 4292924896
16.616514 961.19067 821.32831 4293845994
19.449541 962.01697 820.71692 4294769147
22.561468 962.01697 820.71692 4294967295
25.673393 962.01697 820.71692 4294967295
29.078901 961.19061 821.32831 4293388263
31.93486 961.3891 821.49561 4289374889
35.310093 961.19061 821.32831 4293517795
38.166058 961.38916 821.49561 4294176238
40.50275 961.38916 821.49561 4293583591
42.839447 961.38916 821.49561 4293912300
46.21468 961.19067 821.32831 4293714151
49.011925 961.42145 820.21484 4293582308
52.123856 961.42145 820.21484 4293319391
55.171562 962.04926 819.43616 4293121499
58.279816 962.04926 819.43616 4292989915
61.461468 961.42145 820.21484 4292792791
64.610092 961.70306 821.1062 4292858072
-1.5541284 963.23737 820.43799 4293516256
48.955048 963.23737 820.43799 4293450979
52.063301 963.23737 820.43799 4293187807
55.171562 963.23737 820.43799 4293055709
58.279816 963.23737 820.43799 4292989914
61.388073 963.23737 820.43799 4292792536
67.345558 964.02948 821.1059 4292924118
-13.818348 905.25165 822.55908 4285858313
-13.5474 906.90869 823.95636 4285596681
-11.354129 907.82019 822.10876 4285924369
-11.354129 909.06024 823.1543 4285137666
61.599998 926.78326 822.40161 4293715434
-7.8073397 959.53815 822.55103 4293582308
-10.149542 961.32874 824.06079 4293582308
-6.2458715 960.73187 823.5575 4293385437
-4.6844039 961.32874 824.06079 4293319645
0.78073394 961.92566 824.56409 4293384416
3.9036698 961.92566 824.56409 4293319390
7.0266056 961.92566 824.56409 4293188319
10.930275 960.73187 823.5575 4293056736
13.272477 960.73187 823.5575 4292595669
15.614679 960.73187 823.5575 4292595915
20.299082 961.92566 824.56409 4292332756
22.641285 961.92566 824.56409 4293847536
24.983486 961.92566 824.56409 4294967295
28.626913 961.52777 824.22852 4294967295
32.010094 961.92566 824.56409 4294835707
34.872784 961.52765 824.22852 4292927464
37.475231 961.92566 824.56409 4293977066
39.817429 961.92566 824.56409 4293911528
42.940369 961.92566 824.56409 4293780200
45.28257 960.73187 823.5575 4293648870
-3.1155963 963.17554 823.00183 4293383900
-1.5577981 963.771 823.50397 4293713123
45.955048 963.17554 823.00183 4293385188
49.070641 963.17554 823.00183 4293122013
52.186241 963.17554 823.00183 4292989913
55.301834 963.17554 823.00183 4292989144
58.417431 963.17554 823.00183 4292989401
61.533028 963.17554 823.00183 4292726742
64.908257 963.57251 823.33661 4292792790
67.604584 965.61365 822.44153 4292990169
67.604584 966.80182 823.44336 4292990682
-14.1211 907.24493 826.85577 4284416769
-11.405504 907.66016 827.20593 4284548097
-7.8256879 959.47913 825.11731 4293385188
-7.0431194 961.27399 826.63062 4293253598
-4.6954126 961.87225 827.13501 4293187804
1.5651376 961.87225 827.13501 4293648355
4.6954126 961.87225 827.13501 4293385697
7.0431194 961.87225 827.13501 4293254110
9.9125376 961.07452 826.46246 4293253602
13.30367 960.67566 826.12622 4292924376
16.433945 960.67566 826.12622 4292266189
18.781651 960.67566 826.12622 4291609290
26.60734 960.67566 826.12622 4294967295
31.302752 961.87225 827.13501 4294967295
35.215599 961.87225 827.13501 4294110714
37.563301 961.87225 827.13501 4293517287
39.911011 961.87225 827.13501 4293846250
43.823853 961.87225 827.13501 4293713896
46.171562 961.87225 827.13501 4293450724
51.64954 961.87225 827.13501 4293253851
56.344955 961.87225 827.13501 4292989146
-12.491743 963.11938 825.57056 4293516769
-10.149542 963.11938 825.57056 4293319391
-3.1229358 963.11938 825.57056 4293384415
0 963.11938 825.57056 4293385184
3.1229358 963.11938 825.57056 4293451746
42.159634 963.11938 825.57056 4293846248
58.555046 963.11938 825.57056 4292989401
61.677982 963.11938 825.57056 4292923864
64.762383 964.62421 826.18542 4293187291
67.764221 966.74841 826.0144 4293582302
70.100914 966.74841 826.0144 4293780195
-11.405504 908.90576 828.25623 4286075219
-7.0596333 961.82446 829.71094 4293449693
0.78440368 961.82446 829.71094 4293319136
3.9220183 961.82446 829.71094 4293385701
7.0596333 961.82446 829.71094 4293187804
10.197248 961.22473 829.20526 4293121760
13.334863 960.62506 828.69958 4293055964
16.472477 960.62506 828.69958 4292529109
19.610092 960.62506 828.69958 4292266191
22.747707 960.62506 828.69958 4293187804
26.14679 961.02484 829.03668 4294570743
29.022936 960.62506 828.69958 4294967295
32.944954 960.62506 828.69958 4294967295
34.51376 961.82446 829.71094 4294966271
36.866974 961.82446 829.71094 4293320938
40.004585 961.82446 829.71094 4293649128
43.142204 961.82446 829.71094 4293319907
46.279816 961.82446 829.71094 4293055966
49.417435 961.22473 829.20526 4293253598
52.816513 961.42462 829.37384 4292924631
55.431194 961.42462 829.37384 4292989912
59.614677 961.82446 829.71094 4293120727
-12.521101 963.06879 828.14392 4293187806
-9.9198771 963.05377 829.00336 4293187548
-7.0596333 963.0238 830.72217 4293516512
-3.6544342 963.05377 829.00336 4293318623
-1.5669725 963.04626 829.43304 4293582052
36.082569 963.0238 830.72217 4293782001
39.220184 963.0238 830.72217 4293978349
55.692661 963.0238 830.72217 4293385438
57.910091 963.06879 828.14392 4293120473
62.08379 963.46771 828.48022 4293318364
64.170639 964.26538 829.15283 4293778912
67.300919 965.46191 830.16174 4294173666
-4.7174311 961.78235 832.29138 4293318874
0.78623855 961.78235 832.29138 4293385184
3.9311926 961.78235 832.29138 4293253861
7.0761471 961.78235 832.29138 4293188317
10.491743 960.96777 832.47656 4293319133
13.381652 960.56049 832.56915 4293055705
16.261162 960.56708 832.13867 4292858071
19.678898 960.56042 832.56915 4292792016
22.813763 960.87085 832.17688 4292659921
25.703363 960.96777 832.47656 4292528338
29.090826 961.18127 831.78455 4294176245
31.449541 961.18127 831.78455 4294967295
33.827522 961.47192 832.68372 4294967295
37.739449 962.38342 832.79822 4293714919
40.884403 961.78235 832.29138 4293846250
43.243118 961.78235 832.29138 4293714408
46.388073 962.38342 832.79822 4293911014
49.533028 962.38342 832.79822 4293582560
52.677982 962.38342 832.79822 4293648352
55.822937 962.9845 833.30505 4293912295
59.229969 962.18311 832.62921 4293582303
61.850769 962.5838 832.9671 4293976547
64.471558 962.9845 833.30505 4294370277
66.044037 962.9845 833.30505 4294107872
67.458717 965.42255 832.74475 4293513421
17.398165 958.67847 836.21448 4292660693
-10.244954 961.74573 834.87659 4293451235
-6.3045874 961.74573 834.87659 4293647842
-3.940367 961.74573 834.87659 4293253086
-1.5761468 961.74573 834.87659 4293516517
4.7284403 961.74573 834.87659 4293188065
23.642202 961.74573 834.87659 4292726740
29.158714 961.74573 834.87659 4292793048
31.522936 961.74573 834.87659 4294043644
33.099083 961.74573 834.87659 4294967295
40.191742 961.74573 834.87659 4294109676
43.344036 961.74573 834.87659 4294240234
47.284405 962.95074 835.8927 4293184459
49.648624 962.95074 835.8927 4293118667
55.953209 962.95074 835.8927 4292988104
58.842815 962.54907 835.55402 4293318100
61.469727 962.95074 835.8927 4293448400
62.184402 964.17114 835.61365 4290153342
64.046478 964.16602 836.04535 4289230689
66.672173 964.16602 836.04535 4289034085
-7.908257 959.88763 837.23401 4293648355
-1.5853211 959.8609 839.82751 4293582058
0.79266053 958.64893 838.80554 4293385697
3.696636 959.86981 838.96307 4293188065
7.1256881 959.87427 838.53076 4293253854
10.292661 959.87427 838.53076 4293055706
13.459633 959.87427 838.53076 4292989913
16.636698 959.56458 838.92371 4293054935
19.793577 959.87427 838.53076 4292989651
22.168808 959.87427 838.53076 4292858323
25.85321 959.87872 838.09845 4292529358
36.420185 959.87427 838.53076 4294044914
52.315598 959.8609 839.82751 4293052874
-12.653211 962.30603 839.27307 4293385701
-10.544343 961.49994 838.59344 4293582821
-7.1174312 961.09686 838.25354 4293648610
-3.9541283 961.09686 838.25354 4293253346
23.724771 961.09686 838.25354 4292726992
26.888073 961.09686 838.25354 4292924114
28.469725 961.09686 838.25354 4292529872
30.842201 961.09686 838.25354 4292924896
34.005505 961.09686 838.25354 4294967295
37.959633 961.09686 838.25354 4291873243
40.332108 961.09686 838.25354 4292266197
43.495415 961.09686 838.25354 4292922060
46.658714 961.70142 838.76331 4289888886
49.822018 962.30603 839.27307 4286856745
53.776146 961.70142 838.76331 4289692534
56.148624 962.30603 839.27307 4286530343
58.521099 962.30603 839.27307 4286399525
60.102753 962.30603 839.27307 4286595625
64.622017 965.36066 837.92468 4287056146
0.7944954 958.62494 841.40149 4293516769
3.972477 959.83978 842.42578 4293187552
7.1504583 959.83978 842.42578 4293253597
10.328441 959.83978 842.42578 4292989912
17.478899 959.83978 842.42578 4293055451
-12.682569 962.28491 841.87134 4293319138
-10.040367 961.88086 841.53076 4293254114
-7.133945 961.67889 841.36041 4293254371
-4.2275229 961.47687 841.19012 4293188322
-1.5853211 961.07288 840.84949 4293319138
13.475229 961.07288 840.84949 4293187293
15.853211 961.07288 840.84949 4293055451
19.816513 961.07288 840.84949 4292858839
22.987156 961.07288 840.84949 4292793046
26.157799 961.07288 840.84949 4292595152
28.53578 961.07288 840.84949 4292595152
30.913761 961.07288 840.84949 4292200911
34.084404 961.07288 840.84949 4294966783
37.255047 961.07288 840.84949 4288319888
40.42569 961.07288 840.84949 4284367150
43.596329 961.07288 840.84949 4285874727
46.766972 961.67889 841.36041 4286463249
49.937614 962.28491 841.87134 4286791953
53.108257 961.67889 841.36041 4286528792
55.48624 962.28491 841.87134 4286595595
57.86422 962.28491 841.87134 4286266115
-10.304587 963.49689 842.89331 4293253088
58.656879 963.49689 842.89331 4287518011
60.964222 963.50604 841.59302 4286990621
64.056885 964.72443 841.31226 4287320365
67.062019 964.96619 841.51624 4287386417
-1.5926605 959.82428 845.02881 4293253095
0.79633027 958.60669 844.00208 4293450976
4.7779818 959.82428 845.02881 4293056218
7.1669722 959.82428 845.02881 4293253597
9.5559635 959.82428 845.02881 4292990169
-7.1504583 962.26935 844.47437 4293516515
-3.7076452 961.86444 844.133 4293319140
11.122936 961.05457 843.45007 4293056218
13.506422 961.05457 843.45007 4293253086
16.684402 961.05457 843.45007 4293055451
19.862385 961.66193 843.96222 4292858070
23.040367 961.66199 843.96228 4292924119
25.423853 961.05457 843.45007 4292529620
28.072172 961.45947 843.7915 4292595156
30.985321 961.05457 843.45007 4292135116
34.163303 961.05457 843.45007 4294900474
37.341286 961.05457 843.45007 4288515987
40.519264 961.05457 843.45007 4283575053
43.69725 961.05457 843.45007 4286464512
46.610397 961.86444 844.133 4287122208
50.053211 962.26935 844.47437 4287386425
52.436699 961.66199 843.96222 4286793256
54.820183 962.26935 844.47437 4287583552
57.203671 962.26935 844.47437 4287386168
-10.328441 963.48413 845.49854 4293516518
-7.1504583 963.48413 845.49854 4293582562
58.79266 963.48413 845.49854 4287649347
61.104588 964.0965 844.70685 4287715383
63.941284 965.51685 844.5965 4287321148
66.583488 965.92084 844.93713 4287584308
67.297249 967.13782 844.65515 4287518267
0.79816514 959.20416 847.12195 4293253598
3.7247705 959.40753 847.29346 4293121498
6.3853211 959.81439 847.63647 4293384413
31.128441 959.81439 847.63647 4292069577
34.321098 959.81439 847.63647 4294636277
37.513763 959.81439 847.63647 4290554033
-3.9816513 962.25952 847.08203 4293516769
-1.5926605 961.6507 846.56873 4293450722
4.788991 961.03479 848.66541 4293187804
7.4434247 961.03711 847.79541 4293319133
10.357798 961.34448 846.96454 4293056218
13.544954 961.34454 846.9646 4293121499
16.732109 961.34454 846.9646 4293121498
19.908257 962.25952 847.08203 4292989912
23.14679 961.03479 848.66541 4292990423
25.482569 961.04187 846.05542 4292595413
27.07523 961.04187 846.05542 4292529620
40.659634 961.03833 847.36047 4285876012
43.848625 961.03833 847.36041 4287517485
46.983486 962.25952 847.08203 4287320385
50.168808 962.25952 847.08203 4287386439
52.557796 962.25952 847.08203 4287583815
54.946789 962.25952 847.08203 4287451964
57.335781 962.25952 847.08203 4287517761
-10.328441 964.69897 846.52283 4293385442
-7.1669722 963.47711 848.10876 4293385953
-4.7779818 963.47711 848.10876 4293385697
58.132111 963.47711 848.10876 4287583550
61.176147 964.69897 846.52283 4287519028
64.354126 965.91376 847.54712 4287255103
65.148621 967.12854 848.57141 4287582779
0.80000001 959.81006 850.2489 4292924636
3.2 959.81006 850.2489 4292990169
25.6 959.81006 850.2489 4292727255
28 959.81006 850.2489 4292595411
31.200001 959.81006 850.2489 4292331976
34.400002 959.81006 850.2489 4294372078
37.599998 959.81006 850.2489 4290947765
-3.1926606 962.25519 849.69446 4293451494
-1.5963303 962.25519 849.69446 4293319652
0.80000001 961.03326 851.28027 4292924636
4 961.03326 851.28027 4293253851
7.1999998 961.03326 851.28027 4293122011
10.387156 961.64423 850.48737 4292924634
13.568808 962.25519 849.69446 4293122013
16.761467 962.25519 849.69446 4292989660
19.954128 962.25519 849.69446 4292924632
22.4 961.03326 851.28027 4292661206
24.799999 961.03326 851.28027 4292595926
28 961.03326 851.28027 4292398033
38.400002 961.03326 851.28027 4290089375
40.799999 961.03326 851.28027 4286073402
44 961.03326 851.28027 4287452724
47.144955 961.64423 850.48737 4287189821
49.48624 962.25519 849.69446 4287255870
51.880733 962.25519 849.69446 4287321150
55.073395 962.25519 849.69446 4287319864
-9.5559635 964.6947 849.13538 4293385184
-7.183486 963.47559 850.72351 4293450977
-4.788991 963.47559 850.72351 4293253597
58.266056 963.47559 850.72351 4287386173
61.144955 964.28876 850.53711 4287583035
31.307339 959.20044 853.65894 4292331979
34.518349 959.20044 853.65894 4294372334
36.926605 959.20044 853.65894 4291937760
-3.2 962.25647 852.31165 4293385188
-1.6 962.25647 852.31165 4293319138
0.80275232 960.42786 854.69385 4293187552
4.0137615 960.42786 854.69385 4293319644
7.2247705 960.42786 854.69385 4293055964
10.416513 961.34216 853.50275 4293055964
13.622019 961.34216 853.50275 4293252829
16.799999 962.25647 852.31165 4293054428
20.068806 960.42786 854.69385 4292923864
22.477064 960.42786 854.69385 4292726742
24.885323 960.42786 854.69385 4292661204
28.096329 960.42786 854.69385 4292463824
31.307339 960.42786 854.69385 4292397774
35.321102 960.42786 854.69385 4294964991
37.729355 960.42786 854.69385 4289696190
40.940369 960.42786 854.69385 4286269524
44.151375 960.42786 854.69385 4287452975
46.400002 962.25647 852.31165 4287321649
48.799999 962.25647 852.31165 4287255854
52 962.25647 852.31165 4287386173
55.200001 962.25647 852.31165 4287386172
-7.1999998 963.47968 853.34302 4293187805
-4.2666669 963.88745 853.68683 4293253343
-1.6 963.47968 853.34302 4293121759
55.466663 963.88739 853.68683 4287189563
58.400002 964.09125 853.85876 4287385912
61.599998 964.09131 853.8587 4287648823
64 963.47968 853.34302 4287648829
33.79266 959.2088 856.28198 4293976804
-3.2110093 962.88269 856.76379 4293253597
-1.6055046 962.88269 856.76379 4293319390
0.80458719 961.04712 856.52411 4293187291
4.0192661 961.04712 856.52411 4293252829
7.2412844 960.43903 857.31934 4293187293
10.459633 960.43903 857.31934 4293121759
13.677982 960.43903 857.31934 4293186523
16.896332 960.43903 857.31934 4292989405
20.114677 960.43903 857.31934 4292726486
22.52844 960.43903 857.31934 4292594900
24.942204 960.43903 857.31934 4292397776
28.160549 960.43903 857.31934 4292594897
31.378899 960.43903 857.31934 4292266185
34.597248 960.43903 857.31934 4294636530
37.815598 960.43903 857.31934 4287787131
41.033943 960.43903 857.31934 4286597941
43.447708 960.43903 857.31934 4287256106
45.808258 961.04712 856.52411 4287387443
48.967888 961.65527 855.72888 4287452979
52.178902 962.26904 856.24634 4287255352
54.587154 962.88269 856.76379 4287189307
55.389908 964.11011 857.79871 4287254839
58.600918 964.11011 857.79871 4287254837
-3.2183487 962.89948 859.39392 4292989655
-1.6091744 962.89948 859.39392 4293187291
0.80550456 961.67902 859.67291 4293121499
4.0293579 961.37561 860.07117 4293121759
7.2577982 960.45575 859.94958 4293121759
10.483486 960.45575 859.94958 4292989921
14.515596 960.45575 859.94958 4293384417
16.934864 960.45575 859.94958 4293120473
20.160549 960.45575 859.94958 4292660693
22.579817 960.45575 859.94958 4292529620
25.267889 960.86676 860.29614 4292595411
27.955963 960.86676 860.29614 4292398030
31.719267 960.86676 860.29614 4292990425
34.676147 961.07227 860.46942 4293911541
37.901833 960.45575 859.94958 4286010186
41.127525 960.45575 859.94958 4287057443
43.546787 960.45575 859.94958 4287452456
45.966057 960.45575 859.94958 4287518259
49.134865 961.67834 859.67236 4287321151
52.298164 962.89948 859.39392 4287321145
-3.2110093 965.33752 858.83362 4293122011
-1.6055046 965.33752 858.83362 4293253597
52.298164 964.1297 860.43127 4287320893
55.389908 965.33752 858.83362 4287255842
57.798164 965.33752 858.83362 4287057712
12.93211 959.24225 861.54236 4292989659
0.806422 962.92181 862.02893 4293055964
4.0412846 961.71393 863.62646 4293056214
