# .PCD v0.7 - Point Cloud Data file format
VERSION 0.7
FIELDS x y z rgb
SIZE 4 4 4 4
TYPE F F F U
COUNT 1 1 1 1
WIDTH 1159
HEIGHT 1
VIEWPOINT 0 0 0 1 0 0 0
POINTS 1159
DATA ascii
13.391743 772.40302 1287.3857 4293915903
-51.132111 774.26447 1288.9552 4289570245
-55.748623 783.0769 1288.5375 4287123305
-53.324772 783.0769 1288.5375 4287055461
-49.688992 783.0769 1288.5375 4287317865
-55.537613 790.38202 1288.1567 4287717243
-53.122936 790.38202 1288.1567 4288241531
-49.903362 790.0744 1287.8973 4288372346
14.488073 789.45898 1287.3785 4293850367
-52.921101 797.65204 1287.7466 4288306311
-49.312843 797.65204 1287.7466 4288436612
-45.704586 797.65204 1287.7466 4289487758
9.6220188 797.65204 1287.7466 4293718783
13.230275 797.65204 1287.7466 4293456127
16.838531 797.65204 1287.7466 4293390079
-52.921101 799.49109 1289.2972 4287713909
-49.312843 799.49109 1289.2972 4288436091
-45.704586 799.49109 1289.2972 4289158273
9.6220188 799.49109 1289.2972 4293258751
13.230275 799.49109 1289.2972 4293455871
16.838531 799.49109 1289.2972 4293390079
19.244038 799.49109 1289.2972 4292995071
-46.728439 805.80304 1288.0791 4289423487
-43.133945 805.80304 1288.0791 4290607756
7.1889906 805.80304 1288.0791 4293258495
9.5853214 805.80304 1288.0791 4292929279
-46.728439 807.63507 1289.6239 4289357689
11.981651 807.63507 1289.6239 4293718527
14.377981 807.63507 1289.6239 4293784575
16.774311 807.63507 1289.6239 4293718783
19.170643 807.63507 1289.6239 4293455615
21.566973 807.63507 1289.6239 4293521407
-45.355965 814.82446 1289.1456 4289555594
7.161468 813.91199 1288.3762 4293455871
10.344342 815.1286 1289.4021 4292073973
14.322936 815.73694 1289.915 4289507030
16.710093 815.73694 1289.915 4288717771
-49.976147 821.46045 1289.5088 4288570238
-47.596329 819.64099 1287.9747 4289686918
7.1394496 819.64099 1287.9747 4289773269
10.312538 820.854 1288.9974 4287538387
14.278899 821.46045 1289.5088 4290099935
16.658716 821.46045 1289.5088 4290823914
-52.154129 827.677 1288.2102 4288569470
-49.783485 827.677 1288.2102 4288569470
-47.412846 827.677 1288.2102 4289423748
4.7412844 827.677 1288.2102 4292925681
7.1119266 827.677 1288.2102 4292201702
10.667891 827.677 1288.2102 4291285994
14.223853 827.677 1288.2102 4291548927
-54.524769 829.48938 1289.7384 4287519348
-52.154129 829.48938 1289.7384 4288372858
-49.783485 829.48938 1289.7384 4288372858
4.7412844 829.48938 1289.7384 4290953949
7.1119266 829.48938 1289.7384 4290230226
10.667891 829.48938 1289.7384 4292140774
14.223853 829.48938 1289.7384 4290825471
16.594496 829.48938 1289.7384 4287403999
-54.313763 835.6709 1288.4104 4287585921
-51.952293 835.6709 1288.4104 4288043896
-49.590824 835.6709 1288.4104 4287978103
-47.229359 835.6709 1288.4104 4288961153
-44.867889 835.6709 1288.4104 4289487497
1.1807339 835.6709 1288.4104 4284638339
4.7229357 835.6709 1288.4104 4284840608
14.168807 835.6709 1288.4104 4286681767
16.530275 835.6709 1288.4104 4283984255
-54.313763 837.47626 1289.9326 4286729844
-51.952293 837.47626 1289.9326 4287253097
-49.590824 837.47626 1289.9326 4288042612
1.1807339 837.47626 1289.9326 4286940086
4.7229357 837.47626 1289.9326 4284244360
-51.750458 841.82434 1287.0586 4287913080
-49.398167 841.82434 1287.0586 4288373375
-47.045872 841.82434 1287.0586 4288764805
-43.517433 841.82434 1287.0586 4289026182
1.1761467 841.82434 1287.0586 4287662795
-54.102753 843.62268 1288.575 4287847296
-51.750458 843.62268 1288.575 4287716991
-49.398167 843.62268 1288.575 4288769679
-47.045872 843.62268 1288.575 4288770442
-44.693577 843.62268 1288.575 4288770442
1.1761467 843.62268 1288.575 4288385992
-58.57798 849.74103 1287.1937 4286733178
-56.234863 850.63672 1287.949 4287125356
-51.548622 849.74103 1287.1937 4287913339
1.5620795 850.33813 1287.6973 4289179092
4.6862388 851.53235 1288.7041 4291219183
-52.555046 857.1156 1288.1796 4287716982
-49.051376 857.1156 1288.1796 4288440446
1.16789 857.1156 1288.1796 4285038739
-52.555046 858.90131 1289.6852 4286992239
-49.051376 858.90131 1289.6852 4287977599
2.3357799 858.90131 1289.6852 4292073968
4.6715598 858.90131 1289.6852 4292533497
-46.532108 866.73102 1289.7469 4288306552
-44.205505 865.84167 1288.9971 4288700283
-41.878899 864.95233 1288.2472 4289554557
1.1633028 865.84167 1288.9971 4292206078
4.6532111 866.73102 1289.7469 4292140537
-44.031193 872.74707 1288.2793 4288833926
1.1587156 872.74707 1288.2793 4292074745
4.6348624 872.74707 1288.2793 4291943161
-44.031193 874.51874 1289.7732 4289031041
2.3174312 874.51874 1289.7732 4292272124
4.6348624 874.51874 1289.7732 4291877368
16.222019 874.51874 1289.7732 4292008952
1.1550459 878.24609 1287.6838 4292337401
4.6201835 878.24609 1287.6838 4292140024
13.860551 878.24609 1287.6838 4291943161
16.170643 878.24609 1287.6838 4292140283
-43.891743 880.01221 1289.173 4289358972
1.1550459 880.01221 1289.173 4292073461
4.6201835 880.01221 1289.173 4291679986
6.9302754 880.01221 1289.173 4291811573
10.395412 880.01221 1289.173 4292140022
13.860551 880.01221 1289.173 4291614710
16.170643 880.01221 1289.173 4291680503
-48.319267 887.72687 1289.1376 4287060329
-46.018349 887.72687 1289.1376 4287779954
-43.71743 885.96777 1287.6544 4288306550
1.1504587 886.84729 1288.396 4292073973
16.106422 885.96777 1287.6544 4292272122
-45.834862 893.64746 1287.5896 4287319142
-43.543118 893.64746 1287.5896 4287648106
-41.251377 893.64746 1287.5896 4288302703
-37.813759 893.64746 1287.5896 4288959865
-2.291743 893.64746 1287.5896 4292334576
-45.834862 895.39954 1289.0669 4287582050
-43.543118 895.39954 1289.0669 4287976552
-41.251377 895.39954 1289.0669 4288369261
-38.959633 895.39954 1289.0669 4288764019
-2.291743 895.39954 1289.0669 4287068831
-45.688072 902.55524 1289.8682 4287449956
-43.403671 901.68201 1289.1318 4287779176
-41.119267 901.68201 1289.1318 4288368493
-37.692657 900.80878 1288.3956 4288828273
-2.2844036 900.80878 1288.3956 4286343295
0 902.55524 1289.8682 4286539897
-45.504585 908.40845 1288.2634 4287581798
-43.229359 908.40845 1288.2634 4287778920
0 908.40845 1288.2634 4286474102
-46.6422 910.14789 1289.7301 4287188324
1.1376147 910.14789 1289.7301 4286473332
4.5504589 910.14789 1289.7301 4286146156
-45.3578 913.7644 1287.5472 4286467426
-43.089909 913.7644 1287.5472 4286993770
-40.822018 913.7644 1287.5472 4287453540
-37.420181 913.7644 1287.5472 4287716201
-34.018349 913.7644 1287.5472 4287583847
-4.53578 913.7644 1287.5472 4286211699
-2.26789 913.7644 1287.5472 4286277493
-43.089909 915.49823 1289.0092 4287855505
-40.822018 915.49823 1289.0092 4288184458
-37.420181 915.49823 1289.0092 4288184467
-34.018349 915.49823 1289.0092 4287657619
-4.53578 915.49823 1289.0092 4285751914
-2.26789 915.49823 1289.0092 4285817707
-36.168808 920.82611 1288.2694 4285684100
-33.908257 920.82611 1288.2694 4286210444
-31.647707 920.82611 1288.2694 4287723417
-29.387156 920.82611 1288.2694 4287657623
-6.7816515 920.82611 1288.2694 4287201673
-4.521101 920.82611 1288.2694 4287596944
-2.2605505 920.82611 1288.2694 4287465357
-40.689907 922.55432 1289.7266 4284371305
-37.299084 922.55432 1289.7266 4284370280
-33.908257 922.55432 1289.7266 4284961392
-31.647707 922.55432 1289.7266 4285883498
-29.387156 922.55432 1289.7266 4287528322
-40.524769 928.315 1288.0437 4285750895
-38.273396 928.315 1288.0437 4285553515
-33.770641 928.315 1288.0437 4286540410
-31.519266 928.315 1288.0437 4286278258
-29.267889 928.315 1288.0437 4286212465
-42.776146 930.03619 1289.4949 4286149488
-40.524769 930.03619 1289.4949 4286475898
0 930.03619 1289.4949 4285817194
-40.392662 934.44739 1287.9822 4286541692
-38.148624 933.58954 1287.2589 4287331461
0.74801224 934.73334 1288.2233 4285686119
-46.93211 944.42267 1289.8529 4283586426
-43.579819 943.56836 1289.1326 4285297283
0.74495411 943.28363 1288.8925 4285685350
4.4697247 942.71411 1288.4124 4285488742
6.704587 942.71411 1288.4124 4285357156
11.174312 942.71411 1288.4124 4285422947
13.409174 943.56836 1289.1326 4285619560
-42.322937 947.92969 1287.5779 4283259764
-40.095413 947.92969 1287.5779 4283983501
-37.867889 947.92969 1287.5779 4284444052
1.1137614 947.92969 1287.5779 4286015335
4.4550457 947.92969 1287.5779 4285554535
7.7963305 947.92969 1287.5779 4285554533
-42.322937 949.63269 1289.0138 4291353599
-40.095413 949.63269 1289.0138 4291616767
-37.867889 949.63269 1289.0138 4291024891
1.1137614 949.63269 1289.0138 4285293159
4.4550457 949.63269 1289.0138 4285619558
6.682569 949.63269 1289.0138 4285685351
11.137614 949.63269 1289.0138 4285358950
-46.623852 956.51764 1289.5869 4290824412
-43.293579 954.82031 1288.1558 4291021811
-37.743118 954.82031 1288.1558 4291615999
-2.2201834 955.66895 1288.8713 4285292400
-46.469727 959.98547 1287.2788 4291218659
-44.256882 959.98547 1287.2788 4291284975
0 959.98547 1287.2788 4285685101
-44.256882 961.67719 1288.7052 4290956264
1.1064221 961.67719 1288.7052 4285292653
-37.462387 968.93744 1288.2866 4290889967
-34.156883 968.93744 1288.2866 4291087080
-30.851376 968.93744 1288.2866 4290627301
-28.647707 968.93744 1288.2866 4290758630
-26.444036 968.93744 1288.2866 4290758117
-51.710091 754.83624 1292.1943 4287534778
-51.517429 761.34033 1291.1383 4286546854
14.719266 761.34033 1291.1383 4294441727
-53.970642 763.21582 1292.7196 4285954965
-51.324772 767.81641 1290.0586 4287204264
-52.546791 769.68494 1291.634 4288782262
-56.001835 776.12592 1290.5248 4288386739
-52.349541 776.12592 1290.5248 4288978867
-55.748623 784.92993 1290.1 4287058543
-53.324772 784.92993 1290.1 4287515512
-50.900917 784.92993 1290.1 4287186548
-60.596329 786.78302 1291.6624 4286472066
-58.172478 786.78302 1291.6624 4287322485
-60.366974 794.99713 1292.0481 4286929283
-57.952293 794.99713 1292.0481 4287388028
-55.537613 794.0741 1291.2698 4287717246
-55.326607 803.16913 1292.3984 4287583854
-52.921101 802.24963 1291.6232 4287780460
-49.71376 801.94312 1291.3647 4288305524
9.6220188 801.33008 1290.8479 4293390079
13.230275 802.24963 1291.6232 4293521919
16.838531 802.24963 1291.6232 4293456127
19.244038 802.24963 1291.6232 4293126911
-46.728439 809.46704 1291.1686 4289028479
11.981651 809.46704 1291.1686 4293390079
14.377981 809.46704 1291.1686 4293521151
16.774311 809.46704 1291.1686 4293652735
19.170643 809.46704 1291.1686 4293718527
21.566973 809.46704 1291.1686 4293850111
-50.322937 811.29907 1292.7133 4288438650
-47.926605 811.29907 1292.7133 4289291910
11.981651 811.29907 1292.7133 4293849599
14.377981 811.29907 1292.7133 4293718527
16.774311 811.29907 1292.7133 4293850111
19.170643 811.29907 1292.7133 4293849855
-50.130276 817.56201 1291.4539 4288767612
11.93578 817.56201 1291.4539 4287602897
14.322936 817.56201 1291.4539 4287536059
16.710093 817.56201 1291.4539 4285693855
-62.066055 819.38696 1292.9927 4286929535
-58.485321 819.38696 1292.9927 4286994301
-54.904587 819.38696 1292.9927 4287453824
-52.517429 819.38696 1292.9927 4288175480
-52.355965 823.27979 1291.0428 4288372604
-49.976147 823.27979 1291.0428 4288438654
14.278899 823.27979 1291.0428 4291679231
16.658716 823.27979 1291.0428 4292863487
-57.115597 825.09918 1292.5769 4287386995
-54.735779 825.09918 1292.5769 4287715960
16.658716 825.09918 1292.5769 4289904118
-56.105198 831.90594 1291.776 4287322488
-52.154129 831.30176 1291.2666 4288240505
-49.783485 831.30176 1291.2666 4288306298
7.1119266 832.20795 1292.0306 4289972464
10.667891 832.20795 1292.0306 4290298351
14.223853 831.30176 1291.2666 4287603942
16.594496 831.30176 1291.2666 4285169601
-55.494495 839.28162 1291.4548 4287123839
4.7229357 839.28162 1291.4548 4285427337
-59.036697 841.08698 1292.9771 4286730868
-56.675228 841.08698 1292.9771 4287123573
4.7229357 841.08698 1292.9771 4288910757
-58.807339 845.42102 1290.0913 4286732665
-56.455048 845.42102 1290.0913 4287190393
4.704587 845.42102 1290.0913 4290558896
4.704587 847.21942 1291.6075 4291284963
7.056881 847.21942 1291.6075 4291548135
-56.234863 853.32373 1290.2145 4287125356
4.6862388 853.32373 1290.2145 4283332523
7.0293579 853.32373 1290.2145 4284780225
-56.234863 855.11505 1291.7249 4287190897
4.6862388 855.11505 1291.7249 4285827533
7.0293579 855.11505 1291.7249 4287735530
9.3724775 855.11505 1291.7249 4288523738
-51.387157 860.68701 1291.1909 4287188598
-49.051376 860.68701 1291.1909 4287846529
2.3357799 860.68701 1291.1909 4292731641
4.6715598 860.68701 1291.1909 4292600060
7.0073395 860.68701 1291.1909 4292731389
-51.387157 862.47278 1292.6965 4287187563
-49.051376 862.47278 1292.6965 4287977336
-46.715595 862.47278 1292.6965 4288633718
2.3357799 862.47278 1292.6965 4292140283
4.6715598 862.47278 1292.6965 4291943161
7.0073395 862.47278 1292.6965 4292140283
-46.532108 868.50977 1291.2467 4288175993
-44.205505 868.50977 1291.2467 4288702593
4.6532111 868.50977 1291.2467 4291877366
6.9798164 868.50977 1291.2467 4292337917
-46.532108 870.28845 1292.7465 4287847031
6.9798164 870.28845 1292.7465 4292337919
10.469725 870.28845 1292.7465 4292468985
13.959633 870.28845 1292.7465 4292470009
-44.031193 876.29041 1291.267 4289031291
6.9522934 876.29041 1291.267 4292140024
10.42844 876.29041 1291.267 4292205563
2.3100917 881.77826 1290.6621 4292140022
4.6201835 881.77826 1290.6621 4291745514
6.9302754 881.77826 1290.6621 4291745514
10.395412 881.77826 1290.6621 4292074227
13.860551 881.77826 1290.6621 4291614710
4.6201835 883.54431 1292.1511 4292008432
6.9302754 883.54431 1292.1511 4292074481
10.395412 883.54431 1292.1511 4292337399
13.860551 883.54431 1292.1511 4292009206
-49.469727 889.48596 1290.6208 4286730850
-46.018349 889.48596 1290.6208 4287516264
1.1504587 889.48596 1290.6208 4292270829
4.6018348 889.48596 1290.6208 4291349986
-49.469727 891.245 1292.104 4286861671
1.1504587 891.245 1292.104 4291150547
4.6018348 891.245 1292.104 4290426054
6.9027524 891.245 1292.104 4289965503
18.407339 891.245 1292.104 4286278799
-48.126606 898.02759 1291.2828 4287123049
-45.834862 898.02759 1291.2828 4287319138
-43.543118 897.15161 1290.5442 4287845484
-41.251377 897.15161 1290.5442 4288500331
1.1458715 898.02759 1291.2828 4286409079
4.5834861 898.90363 1292.0215 4286670965
6.8752294 898.90363 1292.0215 4286736758
-59.394497 904.3017 1291.3408 4285621638
-46.830276 904.3017 1291.3408 4287318888
1.1422018 904.3017 1291.3408 4286474104
-59.394497 906.04816 1292.8134 4284700534
-47.972477 906.04816 1292.8134 4286991989
2.2844036 906.04816 1292.8134 4286408309
4.5688071 906.04816 1292.8134 4286211699
6.8532109 906.04816 1292.8134 4286211699
9.1376143 906.04816 1292.8134 4286211709
-47.779816 911.88733 1291.1967 4285419104
1.1376147 911.88733 1291.1967 4286145904
4.5504589 911.88733 1291.1967 4285818209
-46.6422 913.62671 1292.6633 4286803328
1.1376147 913.62671 1292.6633 4285751662
4.5504589 913.62671 1292.6633 4285554789
6.8256879 913.62671 1292.6633 4285686118
9.1009178 913.62671 1292.6633 4285424494
-45.3578 917.23206 1290.4711 4286870156
-43.089909 917.23206 1290.4711 4287593880
-40.822018 917.23206 1290.4711 4287856268
-37.420181 917.23206 1290.4711 4288908710
-46.491745 918.96588 1291.933 4283649632
-43.089909 918.96588 1291.933 4283912547
-40.822018 918.96588 1291.933 4284108647
-38.554127 918.96588 1291.933 4284503405
1.133945 918.96588 1291.933 4287530637
4.53578 918.96588 1291.933 4287662737
-45.21101 925.14661 1291.9124 4285882716
-42.950459 925.14661 1291.9124 4285751387
-40.689907 924.28253 1291.1837 4285685101
-36.922325 924.85858 1291.6694 4285159014
-33.908257 924.28253 1291.1837 4284896355
0.75351685 925.43463 1292.1552 4285553767
4.521101 926.01074 1292.6409 4285357156
-42.776146 931.75739 1290.9462 4286542194
2.2513762 931.75739 1290.9462 4285619558
4.5027523 931.75739 1290.9462 4285227114
-45.027523 933.47858 1292.3975 4286408820
-42.776146 933.47858 1292.3975 4287001213
4.5027523 933.47858 1292.3975 4285424746
10.131193 933.47858 1292.3975 4285161571
-49.368809 938.73633 1291.5986 4284707462
-47.124771 938.73633 1291.5986 4284839048
-43.758713 937.87854 1290.8752 4285363076
4.4880733 938.73633 1291.5986 4285096294
7.8541284 938.73633 1291.5986 4284767328
11.220183 938.73633 1291.5986 4285096035
13.46422 938.73633 1291.5986 4285227110
-46.93211 946.98547 1292.0139 4285430680
-44.697247 946.98547 1292.0139 4285629089
8.9394493 947.83978 1292.7343 4285358950
13.409174 946.98547 1292.0139 4285290862
16.761467 946.98547 1292.0139 4285488488
-46.777981 952.18713 1291.1677 4290165704
-44.550457 951.33563 1290.4497 4291087600
0.74250764 952.47095 1291.407 4285161323
6.682569 953.03857 1291.8856 4285293159
-46.623852 959.91235 1292.4492 4290889956
-46.469727 963.3689 1290.1316 4290759401
-44.256882 965.06067 1291.5581 4290890986
-24.341284 965.06067 1291.5581 4290626531
-22.128441 965.06067 1291.5581 4290560990
-16.596331 965.06067 1291.5581 4293126394
-11.06422 965.06067 1291.5581 4291942126
-7.7449541 965.06067 1291.5581 4286547127
-2.2128441 964.21478 1290.8448 4285358452
0 964.21478 1290.8448 4285423469
-43.150459 966.75238 1292.9845 4290956264
-39.831192 966.75238 1292.9845 4290166500
-24.341284 966.75238 1292.9845 4290692324
-22.128441 966.75238 1292.9845 4290429918
-19.915596 966.75238 1292.9845 4290298331
-15.489908 966.75238 1292.9845 4291284979
-13.277064 966.75238 1292.9845 4292008447
-6.6385322 966.75238 1292.9845 4283456907
-4.4256883 966.75238 1292.9845 4284174942
2.2128441 966.75238 1292.9845 4285292653
-54.172478 758.60126 1295.3689 4286020510
-51.710091 756.71875 1293.7816 4286678183
-56.423855 766.9668 1295.8823 4287860145
-53.970642 765.09131 1294.301 4286217369
14.719266 765.09131 1294.301 4294179071
-56.212845 771.55341 1293.2095 4288649918
-53.768806 771.55341 1293.2095 4288780986
-58.436699 779.84888 1293.6639 4286728547
-60.871559 781.71033 1295.2334 4285682551
-58.436699 781.71033 1295.2334 4286663786
-60.596329 788.63611 1293.2249 4286667903
-58.172478 788.63611 1293.2249 4287388278
-60.596329 790.48914 1294.7874 4286994567
-58.172478 790.48914 1294.7874 4287388278
-57.952293 796.8432 1293.6047 4286861673
-55.537613 796.8432 1293.6047 4287058795
-57.952293 798.68921 1295.1613 4286926946
-55.537613 798.68921 1295.1613 4286992739
-55.326607 805.92767 1294.7244 4287518323
-52.921101 805.92767 1294.7244 4287780206
-50.515594 805.92767 1294.7244 4288174708
-58.710091 814.96313 1295.8027 4287387517
-55.115597 814.96313 1295.8027 4287782273
-52.719265 814.96313 1295.8027 4288109939
-50.322937 813.1311 1294.2579 4288833148
-47.926605 813.1311 1294.2579 4289358470
19.170643 813.1311 1294.2579 4287668424
-62.066055 821.21198 1294.5314 4286929789
-54.904587 821.21198 1294.5314 4287584640
-57.115597 826.91858 1294.111 4287256177
-59.495415 828.73798 1295.645 4286733178
-59.266056 836.73889 1295.851 4286271090
-56.895412 834.92651 1294.3229 4286400879
7.1119266 835.8327 1295.0869 4286414752
10.667891 835.83264 1295.0869 4285165213
14.223853 835.8327 1295.0869 4283326596
16.594496 835.8327 1295.0869 4283523975
7.0844035 842.89233 1294.4993 4292138185
9.4458714 842.89233 1294.4993 4292334576
16.530275 842.89233 1294.4993 4283914627
7.056881 849.01776 1293.1239 4290495461
9.409174 849.91693 1293.8821 4288653505
7.0293579 856.90637 1293.2354 4292665083
10.544037 856.90637 1293.2354 4292534263
14.058716 856.90637 1293.2354 4292336885
-56.234863 858.69775 1294.7457 4287123823
-53.891743 858.69775 1294.7457 4286926444
10.544037 858.69775 1294.7457 4292731391
14.058716 858.69775 1294.7457 4292534780
-51.387157 865.15137 1294.9551 4287191678
-49.051376 865.15137 1294.9551 4287257470
7.0073395 864.25848 1294.2023 4292666879
10.511009 865.15131 1294.9551 4292535031
14.014679 866.04419 1295.708 4292601086
16.350458 866.04419 1295.708 4292403964
-46.532108 872.06714 1294.2462 4287846510
6.9798164 872.06714 1294.2462 4291943161
10.469725 872.06714 1294.2462 4292073975
13.959633 872.06714 1294.2462 4291943159
-51.185322 873.84589 1295.746 4287653996
-48.858715 873.84589 1295.746 4286798688
-46.532108 873.84589 1295.746 4287978603
-46.348625 880.71967 1295.0016 4287648619
-53.132111 887.07654 1295.1294 4286276207
-50.822018 885.31042 1293.6403 4286994536
4.6201835 885.31042 1293.6403 4292337135
6.9302754 886.19348 1294.3848 4291547621
10.395412 886.19348 1294.3848 4291282915
13.860551 886.19348 1294.3848 4291018712
16.170643 886.19348 1294.3848 4290755540
18.480734 887.07654 1295.1294 4287727791
-55.222019 893.00409 1293.5872 4285811031
-52.921101 893.00409 1293.5872 4285876824
-49.469727 893.00409 1293.5872 4286860387
1.1504587 893.00409 1293.5872 4286279555
4.6018348 893.00409 1293.5872 4286277502
6.9027524 893.00409 1293.5872 4286475137
9.2036695 893.00409 1293.5872 4286344842
16.106422 893.00409 1293.5872 4286082174
19.557798 893.00409 1293.5872 4286605699
-55.222019 894.76312 1295.0704 4285876071
-52.921101 894.76312 1295.0704 4285810277
-50.620182 894.76312 1295.0704 4286596961
4.6018348 894.76312 1295.0704 4286540397
6.9027524 894.76312 1295.0704 4286737775
9.2036695 894.76312 1295.0704 4286146165
-58.057495 901.23969 1293.9912 4285555081
-55.001835 901.53168 1294.2374 4286207343
-52.710091 901.53168 1294.2374 4286141550
-49.654434 901.23969 1293.9912 4286794088
2.291743 900.65564 1293.4988 4286539897
4.5834861 901.53168 1294.2374 4286540153
6.8752294 901.53168 1294.2374 4286474361
9.1669722 901.53168 1294.2374 4286343293
-59.394497 907.79456 1294.2859 4284568685
-54.825687 907.79456 1294.2859 4286142572
6.8532109 907.79456 1294.2859 4286211949
10.279816 907.79456 1294.2859 4286014836
13.706422 907.79456 1294.2859 4286737523
-59.394497 909.54102 1295.7584 4285161335
-54.825687 909.54102 1295.7584 4285684338
-52.541283 909.54102 1295.7584 4285026408
-50.256882 909.54102 1295.7584 4285419104
6.8532109 909.54102 1295.7584 4285949795
10.279816 909.54102 1295.7584 4285949041
13.706422 909.54102 1295.7584 4286276459
-54.605503 917.10559 1295.5967 4283188831
-52.330276 916.2359 1294.8633 4284701555
-50.055046 916.2359 1294.8633 4284898924
-47.779816 915.36621 1294.13 4286411391
1.1376147 915.36621 1294.13 4285817455
4.5504589 915.36621 1294.13 4285556332
6.8256879 916.2359 1294.8633 4286675327
9.8593273 916.52582 1295.1078 4287069830
13.651376 916.2359 1294.8633 4286936452
-52.161469 920.69971 1293.3949 4284636027
-49.893578 920.69971 1293.3949 4284371822
-46.491745 920.69971 1293.3949 4283977053
-43.089909 920.69971 1293.3949 4284174679
1.133945 920.69971 1293.3949 4287398797
4.53578 920.69971 1293.3949 4287858065
-56.697247 922.43353 1294.8568 4283518045
-52.161469 922.43353 1294.8568 4284833149
-49.893578 922.43353 1294.8568 4285685868
-47.625687 922.43353 1294.8568 4285422697
2.26789 922.43353 1294.8568 4285488490
4.53578 922.43353 1294.8568 4285291111
-46.341286 928.60303 1294.8267 4286346876
2.2605505 927.73895 1294.0981 4285817194
4.521101 927.73895 1294.0981 4285358952
6.7816515 928.60303 1294.8267 4285358698
10.172478 928.60303 1294.8267 4285293158
-49.530273 935.19983 1293.8488 4284506233
-46.153214 935.19983 1293.8488 4284769146
-49.368809 940.4519 1293.045 4285165962
-47.124771 940.4519 1293.045 4285758356
-44.880733 940.4519 1293.045 4286020741
8.9761467 940.4519 1293.045 4285291361
-49.368809 943.02527 1295.215 4282929525
8.9761467 942.16748 1294.4917 4285685092
11.220183 943.02527 1295.215 4285751398
-58.106422 949.54834 1294.1748 4285956000
-49.166973 949.54834 1294.1748 4288981681
2.2348623 949.54834 1294.1748 4285424494
4.4697247 949.54834 1294.1748 4285293159
7.8220181 949.54834 1294.1748 4285293158
11.174312 949.54834 1294.1748 4285293157
13.409174 949.54834 1294.1748 4285422949
16.761467 949.54834 1294.1748 4285357155
-58.106422 951.25696 1295.6155 4288125881
-49.166973 951.25696 1295.6155 4289178558
4.4697247 951.25696 1295.6155 4285293159
8.9394493 951.25696 1295.6155 4285096035
11.174312 951.25696 1295.6155 4285227364
13.409174 951.25696 1295.6155 4285227114
16.761467 951.25696 1295.6155 4285227111
-49.005505 956.44452 1294.7573 4291218659
1.4850153 955.30927 1293.8002 4285291883
6.682569 955.59302 1294.0394 4285226342
-48.844036 961.60974 1293.8804 4290627814
2.2201834 961.60974 1293.8804 4285554285
6.6605506 961.60974 1293.8804 4285422697
19.981651 961.60974 1293.8804 4285357154
-46.623852 963.30707 1295.3115 4290759405
2.2201834 963.30707 1295.3115 4285292653
4.4403667 963.30707 1295.3115 4285619558
7.7706423 963.30707 1295.3115 4285488483
22.201836 963.30707 1295.3115 4284832858
-39.831192 968.44415 1294.4109 4290627049
-37.618347 968.44415 1294.4109 4290824428
-34.299084 968.44415 1294.4109 4291021541
-13.277064 968.44415 1294.4109 4290758910
-54.374313 753.9726 1298.0062 4285822874
-56.634861 762.36627 1298.5435 4285756820
-63.020184 794.19525 1297.9122 4286861693
-60.596329 794.19525 1297.9122 4286730364
-57.952293 800.53528 1296.7178 4287386732
-57.952293 802.38135 1298.2743 4287386993
-61.340366 808.68622 1297.0503 4286993019
-57.732109 808.68622 1297.0503 4287321202
-55.326607 808.68622 1297.0503 4287321202
-52.921101 808.68622 1297.0503 4287649390
-60.137615 810.52527 1298.601 4287255675
-57.732109 810.52527 1298.601 4287452538
-55.326607 810.52527 1298.601 4287452538
-52.921101 810.52527 1298.601 4287912046
-58.710091 818.62714 1298.8921 4286994043
-62.066055 824.862 1297.609 4286798204
-59.678898 824.862 1297.609 4286732411
-59.495415 830.55737 1297.1791 4286470009
-61.875229 832.37677 1298.7131 4286074480
-59.495415 832.37677 1298.7131 4286008687
7.1119266 838.55127 1297.3792 4292331993
10.667891 838.55127 1297.3792 4289639373
14.223853 838.55127 1297.3792 4283986844
16.594496 838.55127 1297.3792 4282868620
18.965137 838.55127 1297.3792 4285557390
11.853211 840.36365 1298.9072 4289373634
14.223853 840.36365 1298.9072 4287138484
18.965137 840.36365 1298.9072 4284705947
10.626606 844.69769 1296.0215 4291281379
14.168807 844.69769 1296.0215 4288452536
16.530275 844.69769 1296.0215 4284241528
11.80734 846.50305 1297.5438 4288849841
14.168807 846.50305 1297.5438 4287469484
16.530275 846.50305 1297.5438 4282929768
18.891743 846.50305 1297.5438 4282999688
-56.455048 854.41278 1297.6729 4287322483
11.761468 852.61444 1296.1565 4289839598
14.113762 852.61444 1296.1565 4292073697
16.466055 854.41278 1297.6729 4292600058
-56.234863 860.48901 1296.2561 4286728295
-53.891743 860.48901 1296.2561 4286860138
10.544037 860.48901 1296.2561 4292140022
14.058716 860.48901 1296.2561 4292008954
16.401834 860.48901 1296.2561 4292272126
-53.891743 862.2804 1297.7666 4286270828
14.058716 862.2804 1297.7666 4292469503
-51.387157 868.72278 1297.9664 4287851407
-49.051376 868.72278 1297.9664 4286996098
-52.348625 875.62457 1297.2457 4285812066
-48.858715 875.62457 1297.2457 4286797676
-46.532108 875.62457 1297.2457 4288503663
-52.348625 877.40332 1298.7455 4286075501
-48.858715 877.40332 1298.7455 4286600815
-53.300919 883.3772 1297.2424 4285947244
-55.618347 885.14893 1298.7362 4286539379
-55.442204 888.84259 1296.6185 4286735715
-53.132111 888.84259 1296.6185 4286603873
10.780429 889.43121 1297.1149 4287661988
13.860551 889.72559 1297.363 4286213767
16.170643 888.84259 1296.6185 4286476947
-58.673393 896.52222 1296.5536 4285881208
-55.222019 896.52222 1296.5536 4285810527
-52.921101 896.52222 1296.5536 4286073699
-50.620182 896.52222 1296.5536 4286662241
10.354128 896.52222 1296.5536 4286605687
11.504587 898.28125 1298.0369 4286474367
13.805505 898.28125 1298.0369 4286408320
-57.293579 905.03583 1297.192 4285555583
-55.001835 904.15979 1296.4534 4286472555
-52.710091 905.03583 1297.192 4285550944
-50.41835 905.03583 1297.192 4286531688
11.458715 904.15979 1296.4534 4286145916
13.750459 904.15979 1296.4534 4286540662
16.042202 905.91187 1297.9307 4286803316
-59.394497 911.28748 1297.231 4285888138
-54.825687 911.28748 1297.231 4285226358
-52.541283 911.28748 1297.231 4285292407
-50.256882 911.28748 1297.231 4286014836
11.422018 911.28748 1297.231 4285490287
13.706422 911.28748 1297.231 4286013803
-58.252296 913.03394 1298.7036 4285031805
-54.825687 913.03394 1298.7036 4285095542
11.422018 913.03394 1298.7036 4285885558
-55.363911 919.4248 1297.5521 4283583591
6.8256879 919.71472 1297.7966 4286804863
9.1009178 920.58447 1298.5299 4285357406
-55.563301 925.0343 1297.0497 4283387239
-52.161469 925.0343 1297.0497 4284571517
-49.893578 925.0343 1297.0497 4285228652
-47.625687 924.16736 1296.3187 4286214259
6.8036699 924.16736 1296.3187 4285357156
9.0715599 924.16736 1296.3187 4285291613
-58.774311 932.92358 1298.4697 4283322464
-55.760242 932.34747 1297.984 4283125093
-51.992661 932.05945 1297.7411 4284111740
-49.732109 931.19537 1297.0125 4284900217
-47.471561 931.19537 1297.0125 4285031546
6.7816515 932.05945 1297.7411 4285293158
10.172478 932.92358 1298.4697 4285095778
13.563303 932.92358 1298.4697 4285227110
-51.781651 938.64221 1296.7512 4285099910
-51.781651 940.3634 1298.2025 4283257454
-51.612843 947.31421 1298.8313 4287995327
-49.368809 945.59863 1297.3848 4286549153
-58.106422 952.96552 1297.056 4288586953
-55.871559 952.96552 1297.056 4289178833
-52.519264 952.96552 1297.056 4289902556
-49.166973 952.96552 1297.056 4290166482
4.4697247 952.96552 1297.056 4285227110
8.9394493 952.96552 1297.056 4285291361
11.174312 952.96552 1297.056 4285422947
13.409174 952.96552 1297.056 4285226860
15.644036 952.96552 1297.056 4285424496
-61.458717 954.67407 1298.4967 4290560727
-58.106422 954.67407 1298.4967 4290889185
-55.871559 954.67407 1298.4967 4290954978
-52.519264 954.67407 1298.4967 4291087080
4.4697247 954.67407 1298.4967 4285488490
8.9394493 954.67407 1298.4967 4285422949
11.174312 954.67407 1298.4967 4285488742
13.409174 954.67407 1298.4967 4285096298
16.761467 954.67407 1298.4967 4285030503
-51.233028 959.85046 1297.6292 4290824426
-49.005505 958.14746 1296.1932 4291153127
4.4550457 958.99896 1296.9111 4285554024
7.7963305 958.99896 1296.9111 4285488229
11.137614 959.85046 1297.6292 4285422949
13.365138 959.85046 1297.6292 4285619295
17.820183 959.85046 1297.6292 4285422947
-46.623852 965.00439 1296.7427 4290956014
-17.761467 965.00439 1296.7427 4290100705
-11.100918 965.00439 1296.7427 4290955773
-8.8807335 965.00439 1296.7427 4288128210
-2.2201834 965.00439 1296.7427 4285096044
0 965.00439 1296.7427 4285292653
4.4403667 965.00439 1296.7427 4285227114
7.7706423 965.00439 1296.7427 4285161319
17.761467 965.00439 1296.7427 4285357154
19.981651 965.00439 1296.7427 4285225567
22.201836 965.00439 1296.7427 4284701790
-43.293579 966.70178 1298.1738 4291021287
-28.862385 966.70178 1298.1738 4290758630
-25.53211 966.70178 1298.1738 4290627301
-22.201836 966.70178 1298.1738 4290495715
-7.7706423 966.70178 1298.1738 4286284711
-4.4403667 966.70178 1298.1738 4284306279
-2.2201834 966.70178 1298.1738 4285095794
1.1100917 966.70178 1298.1738 4285161067
4.4403667 966.70178 1298.1738 4285095531
6.6605506 966.70178 1298.1738 4284963945
16.651375 966.70178 1298.1738 4285357154
19.981651 966.70178 1298.1738 4285028191
-56.845871 757.75165 1301.1926 4285692308
-60.596329 796.97485 1300.2559 4286730361
-61.57431 804.22736 1299.8308 4286600311
-57.952293 804.22736 1299.8308 4287123053
-62.304588 820.45917 1300.4368 4287125372
-59.908257 820.45917 1300.4368 4287125372
-62.066055 826.68701 1299.1478 4286798971
18.965137 842.17603 1300.4354 4282866053
11.80734 848.30841 1299.066 4287930313
14.168807 848.30841 1299.066 4288980675
16.530275 848.30841 1299.066 4289901777
16.530275 850.11377 1300.5883 4292402919
16.466055 856.21118 1299.1892 4292534780
-56.234863 864.07172 1299.277 4286866309
-53.891743 864.96741 1300.0322 4287656085
-60.730274 871.40137 1300.225 4286142322
-58.394497 871.40137 1300.225 4286142322
-56.058716 871.40137 1300.225 4286602862
-53.722935 871.40137 1300.225 4287458171
-60.730274 873.18713 1301.7306 4284894056
-58.394497 873.18713 1301.7306 4284959849
-56.058716 873.18713 1301.7306 4285221470
-60.491745 879.18201 1300.2452 4285490039
-58.165138 880.07135 1300.9951 4285686894
-55.838531 880.96069 1301.745 4286276209
-52.348625 879.18201 1300.2452 4286404973
-48.858715 879.18201 1300.2452 4286732140
-57.752293 892.37476 1299.5967 4285090384
11.550459 892.37476 1299.5967 4286278008
13.860551 892.37476 1299.5967 4286410107
16.170643 892.37476 1299.5967 4286475900
19.63578 892.37476 1299.5967 4286672251
13.860551 894.14087 1301.0858 4286538877
16.170643 894.14087 1301.0858 4286538877
19.63578 894.14087 1301.0858 4286604920
11.504587 900.04034 1299.52 4286277756
13.805505 900.04034 1299.52 4286278008
16.106422 900.91992 1300.2616 4286409335
18.407339 901.79944 1301.0032 4286408822
-57.293579 907.66394 1299.408 4285095542
16.042202 907.66394 1299.408 4286408045
-57.293579 909.41602 1300.8851 4284704121
-57.110092 914.78033 1300.1761 4283386723
10.279816 916.52679 1301.6487 4287792524
13.706422 916.52679 1301.6487 4287266436
11.376146 922.32391 1299.9966 4285357406
-58.965137 928.50189 1299.9735 4283519591
-55.185322 928.21289 1299.7299 4283321963
-52.161469 927.63501 1299.2426 4284769158
-49.893578 927.63501 1299.2426 4285294200
-58.774311 934.65179 1299.9269 4283915377
-55.383484 934.65179 1299.9269 4284178808
-51.992661 934.65179 1299.9269 4284771460
-61.034863 936.38 1301.384 4284703617
-58.774311 936.38 1301.384 4284638075
-55.383484 936.38 1301.384 4284572797
-60.787155 943.80579 1301.1051 4285032581
-58.535778 942.94519 1300.3794 4283916665
-55.158714 942.94519 1300.3794 4284178815
-51.781651 942.94519 1300.3794 4284770186
-52.734863 949.02979 1300.2778 4288849868
-61.458717 956.38263 1299.9373 4291021026
-58.106422 956.38263 1299.9373 4290889958
-55.871559 956.38263 1299.9373 4290889958
-52.519264 956.38263 1299.9373 4291087082
8.9394493 956.38263 1299.9373 4285422949
11.174312 956.38263 1299.9373 4285422949
13.409174 956.38263 1299.9373 4285095781
15.644036 956.38263 1299.9373 4285227110
-60.341286 958.09119 1301.3779 4290823910
-58.106422 958.09119 1301.3779 4290889960
-55.871559 958.09119 1301.3779 4290758117
-53.636696 958.09119 1301.3779 4290627303
15.644036 958.09119 1301.3779 4285685344
-49.005505 961.55334 1299.0651 4290627562
11.137614 961.55334 1299.0651 4285357152
13.365138 961.55334 1299.0651 4285553756
16.706421 961.55334 1299.0651 4285488223
20.047707 961.55334 1299.0651 4285094238
-49.005505 963.25635 1300.501 4290627049
-46.777981 964.95929 1301.9368 4290759405
-31.185322 964.95929 1301.9368 4290758630
-20.047707 964.95929 1301.9368 4290429922
-16.706421 964.95929 1301.9368 4290429924
-11.137614 964.95929 1301.9368 4290364408
8.9100914 964.95929 1301.9368 4285029988
11.137614 964.10779 1301.2189 4285490538
13.365138 964.10779 1301.2189 4285423200
15.592661 963.25635 1300.501 4285423199
-37.743118 968.39911 1299.605 4291021289
-34.412842 968.39911 1299.605 4290561508
-2.2201834 968.39911 1299.605 4285358700
19.981651 968.39911 1299.605 4284964195
22.201836 968.39911 1299.605 4284964195
-33.302753 970.09644 1301.0361 4290758371
22.201836 970.09644 1301.0361 4284898150
-60.596329 799.75439 1302.5996 4286993532
-61.636696 845.80078 1303.4917 4286733428
-59.266056 845.80078 1303.4917 4286601586
-56.455048 859.80786 1302.2218 4286205035
-58.57798 867.65442 1302.2977 4286470007
-56.234863 867.65442 1302.2977 4286864512
-53.891743 867.65442 1302.2977 4287719821
-60.730274 874.97284 1303.2363 4284764013
-58.394497 874.97284 1303.2363 4284632683
-56.058716 874.97284 1303.2363 4285156197
-63.066055 876.75854 1304.7419 4285490800
-56.058716 876.75854 1304.7419 4285946476
16.170643 895.90692 1302.575 4286276991
19.63578 895.90692 1302.575 4286408824
19.63578 897.67303 1304.0641 4286343031
23.100918 897.67303 1304.0641 4286211709
18.407339 904.43799 1303.228 4286211701
11.422018 918.27325 1303.1212 4285488992
13.706422 920.01965 1304.5938 4285357154
-61.034863 938.10822 1302.8412 4284241780
-58.774311 938.10822 1302.8412 4283848562
-55.383484 938.10822 1302.8412 4283585648
-61.034863 939.83643 1304.2983 4283716719
-60.787155 946.38757 1303.282 4287072682
-55.533947 946.10077 1303.04 4287600311
-58.106422 959.7998 1302.8186 4291153127
-52.519264 959.7998 1302.8186 4290824167
-58.106422 961.50836 1304.2592 4290232805
-52.519264 961.50836 1304.2592 4290495463
-43.436699 966.66229 1303.3727 4290430183
-40.095413 966.66229 1303.3727 4290758117
-37.867889 968.36523 1304.8086 4291415533
-35.640366 968.36523 1304.8086 4290824164
-31.185322 966.66229 1303.3727 4290561508
-28.957798 967.51379 1304.0906 4290627044
-25.616514 966.66229 1303.3727 4290561508
-22.275229 966.66229 1303.3727 4290166498
-7.425077 967.22998 1303.8512 4285757856
-4.4550457 967.51379 1304.0906 4284766825
-2.2275229 968.36523 1304.8086 4285161587
1.1137614 966.66229 1303.3727 4285095529
4.4550457 966.66229 1303.3727 4285029736
7.7963305 966.66229 1303.3727 4284898147
13.365138 966.66229 1303.3727 4285422949
17.077675 967.22998 1303.8512 4285095012
20.047707 968.36523 1304.8086 4284898150
-59.58165 754.47314 1306.2765 4284639620
-64.007339 847.61316 1305.0199 4286798980
-61.636696 847.61316 1305.0199 4286930289
-59.266056 847.61316 1305.0199 4286733167
-59.266056 849.42554 1306.5481 4286863731
-59.036697 856.43256 1305.916 4286270054
-56.455048 863.40454 1305.2545 4286998159
16.106422 907.95618 1306.1945 4286474872
18.407339 907.95618 1306.1945 4286278262
13.750459 916.42419 1306.7943 4285686118
13.706422 921.76611 1306.0664 4285554789
-63.500916 936.30408 1306.5521 4284175987
-60.787155 948.96936 1305.4589 4288652729
-60.588989 957.60773 1307.5105 4291284727
-56.100918 957.60773 1307.5105 4291153127
-51.401836 963.21692 1305.6998 4290429933
-49.166973 964.07123 1306.4202 4290561768
-46.93211 964.92554 1307.1404 4290759403
-20.113762 964.92554 1307.1404 4290100705
-16.761467 964.92554 1307.1404 4289575640
-13.409174 964.92554 1307.1404 4290495472
-11.174312 964.92554 1307.1404 4290627315
11.174312 964.92554 1307.1404 4285029988
17.820183 970.06824 1306.2445 4284964193
-64.255043 846.93188 1310.9856 4286469755
-61.875229 846.93188 1310.9856 4286732145
-64.007339 853.05029 1309.6044 4286074480
-61.636696 853.05029 1309.6044 4286400352
-59.036697 859.14062 1308.1995 4286604159
16.106422 910.59479 1308.4192 4287397768
18.407339 910.59479 1308.4192 4287201927
16.106422 912.35388 1309.9025 4287003008
-60.588989 959.3233 1308.957 4290758378
-56.100918 959.3233 1308.957 4290561769
-60.588989 961.03894 1310.4036 4290824426
-58.344955 961.03894 1310.4036 4290495976
-56.100918 961.03894 1310.4036 4290693356
-53.85688 961.03894 1310.4036 4290298348
-43.579819 966.63409 1308.5811 4290626531
-40.227524 967.4884 1309.3014 4290757604
-37.992661 968.34265 1310.0217 4290691811
-34.640366 968.34265 1310.0217 4290429155
-31.288073 967.4884 1309.3014 4290494946
-29.053211 968.34265 1310.0217 4290231775
-25.700916 966.63409 1308.5811 4290364379
-22.348623 966.63409 1308.5811 4290297828
-20.113762 966.63409 1308.5811 4290297828
-16.761467 966.63409 1308.5811 4289771992
-13.409174 966.63409 1308.5811 4290167265
-11.174312 966.63409 1308.5811 4289838301
-8.9394493 966.63409 1308.5811 4288390084
-2.2348623 968.34265 1310.0217 4285030249
1.1174312 966.63409 1308.5811 4285227114
4.4697247 966.63409 1308.5811 4285096294
7.8220177 967.48834 1309.3014 4284964453
11.174312 967.4884 1309.3014 4284964197
13.409174 967.4884 1309.3014 4285095008
15.644036 967.4884 1309.3014 4285095008
20.113762 968.34265 1310.0217 4284766813
-64.255043 848.75128 1312.5198 4286404215
-61.875229 848.75128 1312.5198 4286731370
-59.495415 848.75128 1312.5198 4286862699
-64.007339 854.86267 1311.1324 4285681521
-61.636696 854.86267 1311.1324 4285942377
-61.636696 856.67505 1312.6606 4286472316
-63.759632 862.75134 1311.2439 4286143356
-61.398167 862.75134 1311.2439 4286404213
-63.759632 864.5567 1312.7661 4285945970
16.106422 914.11292 1311.3856 4285488740
16.106422 915.87201 1312.8689 4285357154
-51.612843 962.75452 1311.8501 4290495978
-49.368809 964.47009 1313.2966 4290890469
-47.124771 964.47009 1313.2966 4291022311
16.761467 970.05127 1311.4623 4284570967
-59.266056 858.48737 1314.1887 4286800768
18.480734 910.91864 1315.2324 4286278769
-64.164223 961.0177 1315.6177 4290299622
-60.787155 961.0177 1315.6177 4290299365
-58.535778 961.0177 1315.6177 4290495713
-55.158714 961.0177 1315.6177 4290429925
-43.758713 966.18567 1314.7432 4290823140
-40.392662 967.90125 1316.1897 4290626783
-38.148624 967.90125 1316.1897 4290560990
-34.78257 967.90125 1316.1897 4290363362
-25.806423 966.18567 1314.7432 4289640922
-22.440367 966.18567 1314.7432 4289772508
-20.196331 966.18567 1314.7432 4289706715
-16.830275 966.18567 1314.7432 4290231514
-13.46422 966.18567 1314.7432 4290496758
-11.220183 966.18567 1314.7432 4289180898
-7.8541284 966.18567 1314.7432 4284773548
-4.4880733 966.18567 1314.7432 4284175196
-2.2440367 967.90125 1316.1897 4284964987
1.4960245 966.75751 1315.2253 4284898917
4.4880733 967.04346 1315.4664 4284702307
6.73211 967.90125 1316.1897 4284505440
11.220183 967.90125 1316.1897 4284243038
13.46422 967.90125 1316.1897 4284374356
20.196331 967.90125 1316.1897 4284570200
-66.634865 854.20941 1317.1219 4287132559
-64.255043 854.20941 1317.1219 4286409092
-66.634865 856.02881 1318.656 4287394956
-64.255043 856.02881 1318.656 4286736769
-61.875229 856.02881 1318.656 4286734975
-63.038532 962.73889 1317.069 4290562273
-60.787155 962.73889 1317.069 4290562273
-58.535778 962.73889 1317.069 4290562269
-55.158714 962.73889 1317.069 4290628066
-51.781651 962.73889 1317.069 4290759401
-51.781651 964.46008 1318.5203 4290233059
-49.530273 964.46008 1318.5203 4290363873
-47.2789 964.46008 1318.5203 4290627301
-49.530273 966.18127 1319.9716 4290363875
-46.153214 966.18127 1319.9716 4290626788
-42.776146 966.18127 1319.9716 4290626529
-31.519266 966.18127 1319.9716 4290035162
-28.1422 966.18127 1319.9716 4289969114
-24.765137 966.18127 1319.9716 4289837528
-22.513762 966.18127 1319.9716 4289837780
-19.136696 966.18127 1319.9716 4289771475
-15.759633 966.18127 1319.9716 4291086567
-13.508257 966.18127 1319.9716 4290955762
-10.131193 966.18127 1319.9716 4288126673
-6.7541285 966.18127 1319.9716 4285166255
-4.5027523 966.18127 1319.9716 4284833401
0 966.18127 1319.9716 4285030249
9.0055046 966.18127 1319.9716 4284440417
-65.555962 960.57495 1321.7845 4290759918
-40.524769 967.90247 1321.4229 4290496228
-37.147705 967.90247 1321.4229 4289969887
-33.770641 967.90247 1321.4229 4289970402
10.131193 967.90247 1321.4229 4286218891
13.508257 967.90247 1321.4229 4284905345
15.759633 967.90247 1321.4229 4284905345
19.136696 967.90247 1321.4229 4284704116
-58.774311 962.3031 1323.2417 4290627812
-55.383484 962.3031 1323.2417 4290364642
-61.034863 964.03137 1324.699 4290561510
-58.774311 964.03137 1324.699 4290298850
-55.383484 964.03137 1324.699 4290167009
-51.992661 964.03137 1324.699 4290232805
-63.500916 961.44446 1327.7499 4290430180
-61.233028 960.57758 1327.0189 4290627814
-55.383484 965.75952 1326.1561 4290167011
-51.992661 965.75952 1326.1561 4290035423
-49.732109 965.75952 1326.1561 4289838303
-46.341286 965.75952 1326.1561 4289904092
-42.950459 965.75952 1326.1561 4290233311
-31.647707 965.75952 1326.1561 4289640667
-28.256882 965.75952 1326.1561 4289639896
-24.866055 965.75952 1326.1561 4290099933
-22.605505 965.75952 1326.1561 4289640919
-19.21468 965.75952 1326.1561 4290166494
-15.823853 965.75952 1326.1561 4289047502
-13.563303 965.75952 1326.1561 4287468999
-10.172478 965.75952 1326.1561 4286547115
-6.7816515 965.75952 1326.1561 4286480541
-4.521101 965.75952 1326.1561 4287793809
-2.2605505 965.75952 1326.1561 4287135880
4.521101 965.75952 1326.1561 4287203725
6.7816515 965.75952 1326.1561 4286743174
-49.732109 967.48779 1327.6133 4290034912
-45.21101 967.48779 1327.6133 4290100435
-40.689907 967.48779 1327.6133 4290297566
-37.299084 967.48779 1327.6133 4290100700
-33.908257 967.48779 1327.6133 4290627301
-31.647707 967.48779 1327.6133 4290297568
-29.387156 967.48779 1327.6133 4290297568
-24.866055 967.48779 1327.6133 4290428634
-18.084404 967.48779 1327.6133 4290756823
-9.042202 967.48779 1327.6133 4285624678
-6.7816515 967.48779 1327.6133 4286479986
-4.521101 967.48779 1327.6133 4286940036
-2.2605505 967.48779 1327.6133 4287071622
6.7816515 967.48779 1327.6133 4286742920
10.172478 967.48779 1327.6133 4287071885
13.563303 967.48779 1327.6133 4286742419
15.823853 967.48779 1327.6133 4286742419
-68.256882 958.85199 1330.7961 4289838562
-65.981651 958.85199 1330.7961 4290233320
-64.256874 964.62323 1330.4301 4290429669
-61.233028 964.91211 1330.6737 4290363876
-58.965137 964.91211 1330.6737 4289903586
-55.563301 965.77905 1331.4047 4290363878
-52.161469 965.77905 1331.4047 4290100959
-47.625687 965.77905 1331.4047 4290100705
-43.089909 965.77905 1331.4047 4290232277
-27.21468 965.77905 1331.4047 4290494427
-22.6789 965.77905 1331.4047 4290362841
-20.411009 965.77905 1331.4047 4290692063
-15.875229 965.77905 1331.4047 4288388274
-13.60734 965.77905 1331.4047 4286612379
-11.33945 965.77905 1331.4047 4284375417
1.133945 964.91211 1330.6737 4286874521
4.53578 965.77905 1331.4047 4286874250
-61.034863 969.21594 1329.0704 4289772760
-65.981651 960.59143 1332.2627 4290232807
-63.500916 967.51288 1332.8666 4289969882
-58.965137 967.51288 1332.8666 4289838299
-55.563301 967.51288 1332.8666 4290166747
-52.161469 967.51288 1332.8666 4290232025
-49.893578 967.51288 1332.8666 4289640917
-46.491745 967.51288 1332.8666 4289837268
-43.089909 967.51288 1332.8666 4290165719
-40.822018 967.51288 1332.8666 4290231514
-37.420181 967.51288 1332.8666 4289903065
-34.018349 967.51288 1332.8666 4289771737
-31.750458 967.51288 1332.8666 4290099672
-28.348625 967.51288 1332.8666 4289574354
-24.946789 967.51288 1332.8666 4288259264
-22.6789 967.51288 1332.8666 4287731126
-19.277065 967.51288 1332.8666 4287269291
-15.875229 967.51288 1332.8666 4287136422
-13.60734 967.51288 1332.8666 4286809492
-10.205505 967.51288 1332.8666 4287006606
-6.8036699 967.51288 1332.8666 4286611584
-4.53578 967.51288 1332.8666 4286414986
-2.26789 967.51288 1332.8666 4286283144
2.26789 967.51288 1332.8666 4284312969
4.53578 967.51288 1332.8666 4284636790
6.8036699 967.51288 1332.8666 4284900219
10.205505 967.51288 1332.8666 4285226867
13.60734 967.51288 1332.8666 4285555834
15.875229 967.51288 1332.8666 4285621627
-55.563301 969.2467 1334.3285 4290624976
-49.893578 969.2467 1334.3285 4290296274
-9.0715599 969.2467 1334.3285 4287071381
-6.8036699 969.2467 1334.3285 4286742672
-4.53578 969.2467 1334.3285 4286742421
-2.26789 969.2467 1334.3285 4286742421
0 965.80969 1336.6627 4284444556
-9.0715599 970.98047 1335.7904 4285031535
-6.8036699 970.98047 1335.7904 4284834155
-4.53578 970.98047 1335.7904 4285030251
-2.26789 970.98047 1335.7904 4285556595
-9.0715599 972.71436 1337.2523 4284701540
-6.8036699 972.71436 1337.2523 4284240989
-4.53578 972.71436 1337.2523 4284503392
-2.26789 972.71436 1337.2523 4285358700
-52.330276 967.54913 1338.1293 4290887889
-46.6422 967.54913 1338.1293 4290164433
-43.229359 967.54913 1338.1293 4290098386
-40.954128 967.54913 1338.1293 4290296274
-37.541283 967.54913 1338.1293 4290295764
-34.128441 967.54913 1338.1293 4289572044
-31.85321 967.54913 1338.1293 4289375420
-28.440367 967.54913 1338.1293 4288257194
-25.027523 967.54913 1338.1293 4287270811
-22.752293 967.54913 1338.1293 4285888159
-19.339451 967.54913 1338.1293 4285163905
-15.926605 967.54913 1338.1293 4286545028
-13.651376 967.54913 1338.1293 4286939784
-11.376146 967.54913 1338.1293 4287334541
1.1376147 967.54913 1338.1293 4286216599
4.5504589 967.54913 1338.1293 4285360266
6.8256879 967.54913 1338.1293 4285031044
10.238532 967.54913 1338.1293 4285161335
-52.330276 969.28857 1339.5959 4287661974
-50.055046 969.28857 1339.5959 4287531423
-47.779816 969.28857 1339.5959 4287531423
-43.229359 969.28857 1339.5959 4286940830
-37.541283 969.28857 1339.5959 4286217109
-34.128441 969.28857 1339.5959 4285361542
-31.85321 969.28857 1339.5959 4284638075
-28.440367 969.28857 1339.5959 4284835452
-25.027523 969.28857 1339.5959 4284769914
-22.752293 969.28857 1339.5959 4284768376
-19.339451 969.28857 1339.5959 4284767855
-15.926605 969.28857 1339.5959 4285030249
-13.651376 969.28857 1339.5959 4284570984
-11.376146 969.28857 1339.5959 4284834155
1.1376147 969.28857 1339.5959 4286345094
4.5504589 969.28857 1339.5959 4286478983
6.8256879 969.28857 1339.5959 4286084225
-9.0715599 974.44812 1338.7142 4285422949
-6.8036699 974.44812 1338.7142 4284962398
-4.53578 974.44812 1338.7142 4284830810
-2.26789 974.44812 1338.7142 4284896603
0 974.44812 1338.7142 4284830810
-6.8036699 976.18201 1340.1761 4284634980
