# .PCD v0.7 - Point Cloud Data file format
VERSION 0.7
FIELDS x y z rgb
SIZE 4 4 4 4
TYPE F F F U
COUNT 1 1 1 1
WIDTH 1152
HEIGHT 1
VIEWPOINT 0 0 0 1 0 0 0
POINTS 1152
DATA ascii
-4.704587 820.2442 1268.8628 4290427630
-2.3522935 820.2442 1268.8628 4290361837
-18.744955 824.66235 1266.048 4288566154
-7.0293579 824.66235 1266.048 4290492662
-30.46055 826.45374 1267.5583 4288499579
-21.088074 826.45374 1267.5583 4289022873
-18.744955 826.45374 1267.5583 4288500361
-14.058716 826.45374 1267.5583 4287918011
-9.3724775 826.45374 1267.5583 4290952441
-7.0293579 826.45374 1267.5583 4290755319
-4.6862388 826.45374 1267.5583 4290822390
-21.022018 833.90118 1268.6057 4289157019
-18.686239 833.90118 1268.6057 4289027738
-16.350458 833.90118 1268.6057 4289159068
-14.014679 833.90118 1268.6057 4287585434
-9.3431196 833.90118 1268.6057 4284241821
-7.0073395 833.0083 1267.8529 4285754030
-25.592661 841.8291 1268.7502 4288828306
-23.266054 841.8291 1268.7502 4288828306
-20.163916 840.64331 1267.7504 4289091736
-16.286238 840.93976 1268.0004 4289421469
-13.959633 840.93976 1268.0004 4287588261
-10.857491 841.23615 1268.2504 4283578221
-6.9798164 841.8291 1268.7502 4282268773
-18.53945 847.9433 1267.3655 4288699791
-16.222019 847.9433 1267.3655 4289883808
-13.904587 847.9433 1267.3655 4288642220
-11.587156 847.9433 1267.3655 4290221252
-23.174313 849.71497 1268.8593 4288297087
-19.698166 849.71497 1268.8593 4288628868
-16.222019 849.71497 1268.8593 4289750164
-13.904587 849.71497 1268.8593 4288509866
-10.42844 849.71497 1268.8593 4291343590
-6.9522934 849.71497 1268.8593 4287861442
-23.009174 863.09985 1268.3728 4288565904
-16.106422 863.09985 1268.3728 4288962458
-13.805505 863.09985 1268.3728 4287655062
-10.354128 863.09985 1268.3728 4290750676
-6.9027524 863.09985 1268.3728 4290227676
-10.312843 869.11865 1266.9075 4290751458
-19.479816 870.87073 1268.3848 4288631689
-16.042202 870.87073 1268.3848 4289095578
-13.750459 870.87073 1268.3848 4287525036
-10.312843 870.87073 1268.3848 4290488801
-6.8752294 870.87073 1268.3848 4289899488
-20.477064 884.0564 1267.7305 4290483127
-15.926605 884.0564 1267.7305 4288704709
-13.651376 884.0564 1267.7305 4287459225
-10.238532 884.0564 1267.7305 4290291670
-20.411009 889.49091 1267.0804 4286077549
-15.875229 889.49091 1267.0804 4288904865
-11.33945 889.49091 1267.0804 4290158801
-28.348625 891.22473 1268.5424 4288384382
-24.946789 891.22473 1268.5424 4286807914
-22.6789 891.22473 1268.5424 4286215793
-19.277065 891.22473 1268.5424 4284567892
-15.875229 891.22473 1268.5424 4287920003
-9.0715599 891.22473 1268.5424 4289439963
-6.8036699 891.22473 1268.5424 4289439963
-4.53578 891.22473 1268.5424 4289047000
-2.26789 891.22473 1268.5424 4289375964
-24.866055 896.63116 1267.8689 4287788654
-18.084404 896.63116 1267.8689 4288053622
-15.823853 895.76709 1267.1403 4287263349
-13.563303 895.76709 1267.1403 4286935464
-10.172478 895.76709 1267.1403 4289766616
-6.7816515 896.63116 1267.8689 4289440476
-15.759633 904.21826 1267.7258 4288581249
-13.508257 904.21826 1267.7258 4287465861
-10.131193 904.21826 1267.7258 4289374140
-6.7541285 904.21826 1267.7258 4289374166
-11.174312 918.79407 1268.2437 4288582326
-11.137614 925.7912 1268.9113 4283978622
-24.240368 945.35132 1268.3994 4281939041
-43.827522 753.78827 1271.6902 4288638121
-41.392662 753.78827 1271.6902 4288638121
-38.957798 753.78827 1271.6902 4288967083
-7.3045874 753.78827 1271.6902 4291281663
-4.8697248 753.78827 1271.6902 4290953977
-2.4348624 753.78827 1271.6902 4291085563
-38.781651 760.84021 1269.7881 4289502694
-13.331193 760.84021 1269.7881 4286078621
-9.6954126 760.84021 1269.7881 4287465921
-4.8477063 760.84021 1269.7881 4291544831
-43.629356 762.6933 1271.3506 4288251850
-41.205505 762.6933 1271.3506 4288909781
-12.119267 762.6933 1271.3506 4281343547
-9.6954126 762.6933 1271.3506 4283063434
-7.2715597 762.6933 1271.3506 4289774064
-4.8477063 762.6933 1271.3506 4291283711
-2.4238532 762.6933 1271.3506 4291217918
-45.878899 770.9986 1271.8132 4287925966
-43.464222 770.07556 1271.0349 4287665861
-41.049541 770.07556 1271.0349 4288521170
-38.634861 770.07556 1271.0349 4289111796
-9.6587152 769.15259 1270.2567 4282472060
-7.2440367 770.07556 1271.0349 4289310924
-4.8293576 770.07556 1271.0349 4290361074
-2.4146788 769.15259 1270.2567 4290822911
-40.893578 775.58368 1269.1392 4288388831
-37.285324 775.58368 1269.1392 4289965047
-33.677063 775.58368 1269.1392 4291083519
-31.271559 775.58368 1269.1392 4291741439
-28.866055 775.58368 1269.1392 4291480063
-25.257797 775.58368 1269.1392 4291413503
-21.649542 775.58368 1269.1392 4291281407
-19.244038 775.58368 1269.1392 4290559231
-16.838531 775.58368 1269.1392 4289374961
-13.230275 775.58368 1269.1392 4290165247
-9.6220188 775.58368 1269.1392 4291084533
-7.2165136 775.58368 1269.1392 4291084533
-4.8110094 775.58368 1269.1392 4291018486
-2.4055047 775.58368 1269.1392 4290952693
-40.893578 777.42273 1270.6898 4287991243
-37.285324 777.42273 1270.6898 4288712681
-33.677063 777.42273 1270.6898 4289370347
-31.271559 777.42273 1270.6898 4290554622
-24.055046 777.42273 1270.6898 4291413759
-21.649542 777.42273 1270.6898 4291545599
-9.6220188 777.42273 1270.6898 4290625266
-7.2165136 777.42273 1270.6898 4290559473
-4.8110094 777.42273 1270.6898 4290756082
-2.4055047 777.42273 1270.6898 4290821875
-34.347401 785.04022 1270.5724 4290558970
-31.152294 784.73486 1270.3149 4290559738
-28.755962 783.81885 1269.5426 4290361337
-26.359632 783.81885 1269.5426 4290164215
-23.963303 783.81885 1269.5426 4290423039
-9.5853214 784.73486 1270.3149 4290756339
-7.1889906 784.73486 1270.3149 4290625009
-4.7926607 784.73486 1270.3149 4290689521
-2.3963304 784.73486 1270.3149 4290886900
-33.420185 792.92444 1270.6802 4289308386
-31.033028 792.92444 1270.6802 4290624246
-28.645872 792.01196 1269.9108 4291414015
-26.258715 792.01196 1269.9108 4291545599
-9.548624 792.01196 1269.9108 4290625525
-7.161468 792.92444 1270.6802 4290428404
-4.774312 792.92444 1270.6802 4290559219
-28.557798 797.80835 1269.5659 4290423276
-26.177982 797.80835 1269.5659 4290751985
-22.608257 797.80835 1269.5659 4291215868
-19.038532 797.80835 1269.5659 4291743999
-16.658716 797.80835 1269.5659 4290691068
-14.278899 797.80835 1269.5659 4289771007
-10.709174 797.80835 1269.5659 4290428411
-30.937614 799.62775 1271.1001 4289293486
-28.557798 799.62775 1271.1001 4288906951
-26.177982 799.62775 1271.1001 4290025688
-23.798164 799.62775 1271.1001 4290030328
-9.5192661 799.62775 1271.1001 4290625014
-7.1394496 799.62775 1271.1001 4290559221
-4.7596331 799.62775 1271.1001 4290623730
-2.3798165 799.62775 1271.1001 4290623730
-45.042202 805.92847 1269.8724 4287384696
-42.671558 805.92847 1269.8724 4287384955
-40.300919 805.92847 1269.8724 4287714177
-33.188992 805.92847 1269.8724 4288367998
-30.818348 805.92847 1269.8724 4288696707
-28.447706 805.92847 1269.8724 4288303259
-26.077065 805.92847 1269.8724 4289158568
-22.521101 805.92847 1269.8724 4290017487
-18.965137 805.92847 1269.8724 4290616049
-16.594496 805.92847 1269.8724 4288576466
-14.223853 805.92847 1269.8724 4287986884
-10.667891 805.92847 1269.8724 4290950646
-7.1119266 805.92847 1269.8724 4290361585
-4.7412844 805.92847 1269.8724 4290427121
-2.3706422 805.92847 1269.8724 4290427121
-46.227524 807.74084 1271.4006 4287120504
-42.671558 807.74084 1271.4006 4287384444
-40.300919 807.74084 1271.4006 4287516031
-37.930275 807.74084 1271.4006 4287975813
-34.374313 807.74084 1271.4006 4288501133
-14.223853 807.74084 1271.4006 4287789755
-10.667891 807.74084 1271.4006 4291016691
-7.1119266 807.74084 1271.4006 4290427632
-4.7412844 807.74084 1271.4006 4290427632
-2.3706422 807.74084 1271.4006 4290493426
-40.144955 815.81189 1271.6658 4287772540
-34.241287 814.90924 1270.9047 4287840629
-30.699083 814.00653 1270.1436 4289223307
-28.337614 814.90918 1270.9047 4288893845
-25.976147 815.81189 1271.6658 4289024656
-9.4458714 814.00653 1270.1436 4290558969
-7.0844035 814.00653 1270.1436 4290624762
-4.7229357 814.00653 1270.1436 4290559221
-2.3614678 814.90918 1270.9047 4290361843
-35.284405 823.84088 1271.8954 4287777917
-31.755962 822.94171 1271.1372 4288236662
-28.227524 822.94171 1271.1372 4288563074
-25.875229 822.94171 1271.1372 4288563074
-22.738838 822.64203 1270.8845 4288693132
-16.466055 822.94171 1271.1372 4289487256
-14.113762 822.04254 1270.3792 4287919290
-10.97737 822.64203 1270.8845 4291342582
-4.704587 822.04254 1270.3792 4290428403
-2.3522935 822.94171 1271.1372 4290822904
-30.46055 829.14069 1269.824 4288301951
-28.117432 829.14069 1269.824 4288432268
-25.774311 829.14069 1269.824 4289024405
-22.259632 829.14075 1269.824 4289025171
-18.744955 829.14069 1269.824 4288894354
-16.401834 829.14069 1269.824 4288894096
-14.058716 829.14069 1269.824 4287653281
-10.544037 829.14069 1269.824 4291538926
-7.0293579 828.245 1269.0688 4291082231
-4.6862388 829.14069 1269.824 4288848849
-2.3431194 830.03638 1270.5792 4286347935
-30.365137 835.68689 1270.1115 4288499075
-28.029358 835.68689 1270.1115 4288498321
-25.693579 835.68689 1270.1115 4288827543
-22.189907 835.68689 1270.1115 4288828310
-10.511009 835.68689 1270.1115 4282856046
-7.0073395 835.68689 1270.1115 4281348201
-4.6715598 835.68689 1270.1115 4280956248
-35.036697 837.47266 1271.6172 4287777917
-31.533028 837.47266 1271.6172 4288106369
-28.029358 837.47266 1271.6172 4288500111
-25.693579 837.47266 1271.6172 4288697490
-23.357798 837.47266 1271.6172 4288828310
-9.3431196 837.47266 1271.6172 4281610587
-7.0073395 837.47266 1271.6172 4282860911
-4.6715598 837.47266 1271.6172 4283124078
-30.245872 845.38654 1271.7498 4288100987
-27.919266 844.49719 1270.9999 4288365447
-25.592661 844.49719 1270.9999 4288957328
-23.266054 844.49719 1270.9999 4288827533
-20.939449 844.49719 1270.9999 4289288340
-10.081958 844.20068 1270.7499 4287331500
-6.9798164 844.49719 1270.9999 4281872993
-23.174313 851.48669 1270.3531 4288429959
-19.698166 851.48669 1270.3531 4288168575
-16.222019 851.48669 1270.3531 4289486222
-13.904587 851.48669 1270.3531 4288311207
-10.42844 851.48669 1270.3531 4291604711
-6.9522934 851.48669 1270.3531 4290029533
-27.809174 853.25836 1271.8469 4288367494
-25.491743 853.25836 1271.8469 4288630666
-23.174313 853.25836 1271.8469 4288960399
-19.698166 853.25836 1271.8469 4288170623
-16.222019 853.25836 1271.8469 4288565120
-13.904587 853.25836 1271.8469 4287785376
-10.42844 853.25836 1271.8469 4291079397
-6.9522934 853.25836 1271.8469 4290491631
-23.100918 857.0531 1269.8145 4288894853
-11.550459 857.0531 1269.8145 4291206866
-25.411009 858.81915 1271.3035 4288304263
-23.100918 858.81915 1271.3035 4288696972
-19.63578 858.81915 1271.3035 4288895119
-16.170643 858.81915 1271.3035 4288435336
-13.860551 858.81915 1271.3035 4287980438
-10.395412 858.81915 1271.3035 4290749655
-6.9302754 858.81915 1271.3035 4290031330
-27.61101 866.61798 1271.3391 4288631166
-25.310091 865.73846 1270.5975 4288895368
-23.009174 865.73846 1270.5975 4288763276
-19.557798 865.73846 1270.5975 4288632720
-16.106422 865.73846 1270.5975 4289160608
-13.805505 865.73846 1270.5975 4288050091
-10.354128 864.85895 1269.856 4290882269
-6.9027524 865.73846 1270.5975 4290359265
-4.6018348 865.73846 1270.5975 4289768924
-2.3009174 866.61798 1271.3391 4290163681
-22.917431 872.6228 1269.8621 4288102012
-19.479816 872.6228 1269.8621 4288301445
-16.042202 872.6228 1269.8621 4289553310
-13.750459 872.6228 1269.8621 4287852718
-10.312843 872.6228 1269.8621 4290685152
-6.8752294 872.6228 1269.8621 4290031069
-28.64679 874.37482 1271.3394 4288173189
-25.209175 874.37482 1271.3394 4288699550
-22.917431 874.37482 1271.3394 4289091982
-19.479816 874.37482 1271.3394 4287576178
-16.042202 874.37482 1271.3394 4289284230
-13.750459 874.37482 1271.3394 4288375466
-10.312843 874.37482 1271.3394 4291078370
-6.8752294 874.37482 1271.3394 4290097123
-19.417431 878.10498 1269.2524 4286596467
-15.990826 878.10498 1269.2524 4287777919
-13.706422 878.10498 1269.2524 4287391653
-11.422018 878.10498 1269.2524 4291010012
-29.697248 879.85144 1270.725 4285813078
-25.128441 879.85144 1270.725 4289561786
-22.844036 879.85144 1270.725 4289631164
-19.417431 879.85144 1270.725 4288642477
-15.990826 879.85144 1270.725 4287719583
-13.706422 879.85144 1270.725 4286997148
-10.279816 879.85144 1270.725 4290488031
-28.061163 886.95538 1270.1748 4286014307
-25.027523 886.66553 1269.9304 4284632412
-22.752293 886.66553 1269.9304 4285349984
-18.960245 886.37567 1269.6859 4288572571
-9.1009178 886.66553 1269.9304 4289768671
-6.8256879 887.53528 1270.6637 4289571290
-31.750458 892.95856 1270.0043 4287653722
-28.348625 892.95856 1270.0043 4288709736
-24.946789 892.95856 1270.0043 4287660118
-22.6789 892.95856 1270.0043 4286610037
-19.277065 892.95856 1270.0043 4285817706
-6.8036699 892.95856 1270.0043 4289439961
-4.53578 892.95856 1270.0043 4289178581
-2.26789 892.95856 1270.0043 4289178581
-34.018349 894.69238 1271.4662 4286853471
-31.750458 894.69238 1271.4662 4286332497
-28.348625 894.69238 1271.4662 4286402645
-22.6789 894.69238 1271.4662 4287726465
-20.411009 894.69238 1271.4662 4287858307
-4.53578 894.69238 1271.4662 4289244628
-2.26789 894.69238 1271.4662 4289244628
-24.866055 898.35938 1269.326 4287391374
-19.21468 898.35938 1269.326 4288777866
-15.823853 898.35938 1269.326 4286869602
-13.563303 898.35938 1269.326 4286477447
-10.172478 898.35938 1269.326 4289570761
-6.7816515 898.35938 1269.326 4289440474
-4.521101 898.35938 1269.326 4289244626
-2.2605505 898.35938 1269.326 4289244626
-28.256882 900.08759 1270.7832 4284820563
-24.866055 900.08759 1270.7832 4286468221
-22.605505 900.08759 1270.7832 4286013553
-19.21468 900.08759 1270.7832 4288317582
-15.823853 900.08759 1270.7832 4287726719
-13.563303 900.08759 1270.7832 4286873477
-10.172478 900.08759 1270.7832 4289374147
-6.7816515 900.08759 1270.7832 4289177305
-4.521101 900.08759 1270.7832 4289045716
-15.759633 905.93945 1269.1771 4287595662
-13.508257 905.93945 1269.1771 4287531139
-10.131193 905.93945 1269.1771 4289373372
-6.7541285 905.93945 1269.1771 4289373143
-15.759633 907.66064 1270.6284 4287200405
-13.508257 907.66064 1270.6284 4286676344
-10.131193 907.66064 1270.6284 4289308092
13.46422 914.71814 1271.347 4283514982
15.708257 914.71814 1271.347 4283777897
-20.113762 920.50262 1269.6842 4284177284
-16.761467 920.50262 1269.6842 4284240542
-13.409174 920.50262 1269.6842 4285030533
-11.174312 920.50262 1269.6842 4284569982
-7.8220181 920.50262 1269.6842 4284238982
-20.113762 922.21118 1271.1249 4287398327
-16.761467 922.21118 1271.1249 4285093829
-13.409174 922.21118 1271.1249 4284634741
-11.174312 922.21118 1271.1249 4283845226
-7.8220181 922.21118 1271.1249 4283514462
-25.616514 929.19714 1271.7831 4282398812
-22.275229 928.3457 1271.0652 4283977587
-20.047707 928.3457 1271.0652 4287333286
-17.077675 928.62958 1271.3046 4288186556
-13.365138 929.19714 1271.7831 4288057286
-11.137614 929.19714 1271.7831 4284570513
-8.9100914 929.19714 1271.7831 4284242019
-22.201836 932.75476 1269.5507 4281938287
-19.981651 932.75476 1269.5507 4283319940
-25.53211 934.45215 1270.9818 4283718518
-22.201836 934.45215 1270.9818 4284438641
-19.981651 934.45215 1270.9818 4287004825
-17.761467 934.45215 1270.9818 4287142068
-13.321101 934.45215 1270.9818 4283260586
-28.766972 941.37634 1271.588 4283323540
-25.447706 940.53052 1270.8748 4283058544
-22.128441 941.37634 1271.588 4282534510
-19.915596 941.37634 1271.588 4287074227
-17.702753 941.37634 1271.588 4288387550
-25.342201 947.03601 1269.8199 4282335345
-17.629358 947.03601 1269.8199 4285298307
-30.851376 948.72076 1271.2405 4283784091
-28.647707 948.72076 1271.2405 4283718298
-25.342201 948.72076 1271.2405 4284572042
-22.036697 948.72076 1271.2405 4285168274
-19.833027 948.72076 1271.2405 4284576394
-16.527523 948.72076 1271.2405 4282800775
-25.257797 953.89429 1270.3706 4280304762
-21.963303 953.89429 1270.3706 4279971951
-19.766972 953.89429 1270.3706 4282209170
-17.570642 953.89429 1270.3706 4284310404
-2.1963303 953.89429 1270.3706 4283908693
-35.141285 955.57343 1271.7864 4288915665
-28.552294 955.57343 1271.7864 4286677713
-25.257797 955.57343 1271.7864 4279776932
-21.963303 955.57343 1271.7864 4278202979
-19.766972 955.57343 1271.7864 4278928758
-16.472477 955.57343 1271.7864 4282869889
-13.177981 955.57343 1271.7864 4284180616
-10.981651 955.57343 1271.7864 4282667377
-7.6871557 955.57343 1271.7864 4283450970
-4.3926606 955.57343 1271.7864 4283908693
-2.1963303 955.57343 1271.7864 4283908693
-24.078899 959.04547 1269.4817 4288785642
-21.889908 959.04547 1269.4817 4288655589
-19.700918 959.04547 1269.4817 4286352834
-17.511927 959.04547 1269.4817 4280904092
-2.1889908 959.04547 1269.4817 4283908693
-25.173393 960.71899 1270.8928 4290232319
-21.889908 960.71899 1270.8928 4290956031
-19.700918 960.71899 1270.8928 4288455907
-16.417431 960.71899 1270.8928 4283261901
-13.133945 960.71899 1270.8928 4282536318
-10.944954 960.71899 1270.8928 4282404989
-7.6614676 960.71899 1270.8928 4283452227
-4.3779817 960.71899 1270.8928 4283515481
-2.1889908 960.71899 1270.8928 4283449688
-43.827522 755.64972 1273.2598 4289628874
-41.392662 755.64972 1273.2598 4289628874
-7.3045874 755.64972 1273.2598 4291479551
-4.8697248 755.64972 1273.2598 4291020024
-2.4348624 755.64972 1273.2598 4291348732
-43.827522 757.51123 1274.8293 4288644809
-41.392662 757.51123 1274.8293 4289434582
-7.3045874 757.51123 1274.8293 4291281915
-2.4348624 757.51123 1274.8293 4291413246
-46.053211 764.54633 1272.913 4288124366
-43.629356 764.54633 1272.913 4288058056
-9.6954126 764.54633 1272.913 4283127633
-7.2715597 764.54633 1272.913 4288062364
-4.8477063 764.54633 1272.913 4288785901
-2.4238532 764.54633 1272.913 4290365183
-46.053211 766.39941 1274.4755 4288847068
-45.878899 772.8446 1273.3698 4287860163
-43.464222 772.8446 1273.3698 4287467729
-45.878899 774.69067 1274.9263 4287662019
-43.464222 774.69067 1274.9263 4287333569
1.2073394 774.69067 1274.9263 4290625268
-43.299084 779.26178 1272.2404 4287794879
-40.893578 779.26178 1272.2404 4288321479
-37.285324 779.26178 1272.2404 4289043184
-33.677063 779.26178 1272.2404 4288978154
-2.4055047 779.26178 1272.2404 4290821110
-45.704586 781.10083 1273.791 4287468478
-43.299084 781.10083 1273.791 4287927235
-40.893578 781.10083 1273.791 4288519372
-37.285324 781.10083 1273.791 4290227187
1.2027524 781.10083 1273.791 4290821877
13.230275 781.10083 1273.791 4290691316
-43.133945 787.48291 1272.6321 4286478760
-40.737614 787.48291 1272.6321 4287728827
-38.341286 787.48291 1272.6321 4289438691
-34.746788 787.48291 1272.6321 4290558971
-31.152294 787.48291 1272.6321 4290692351
-4.7926607 787.48291 1272.6321 4290559473
-2.3963304 787.48291 1272.6321 4290559473
-45.530273 789.31494 1274.1768 4287398581
-43.133945 789.31494 1274.1768 4286938809
-40.737614 789.31494 1274.1768 4287728325
-38.341286 789.31494 1274.1768 4288979673
-35.944954 789.31494 1274.1768 4289637604
-2.3963304 789.31494 1274.1768 4290559219
-45.355965 797.48694 1274.5271 4287120495
-42.968807 797.48694 1274.5271 4287053948
-40.58165 796.57446 1273.7577 4289033116
-38.194496 797.48694 1274.5271 4287318683
-34.2159 796.8786 1274.0142 4288440755
-31.033028 795.66199 1272.9883 4291078901
-7.161468 795.66199 1272.9883 4290362358
-4.774312 795.66199 1272.9883 4290558706
-2.387156 795.66199 1272.9883 4290690035
-46.406422 802.35681 1273.4011 4286792045
-42.836697 801.44714 1272.6342 4286857587
-40.456882 801.44714 1272.6342 4287120502
-38.077065 802.35681 1273.4011 4287448954
-34.903976 802.05353 1273.1455 4287186038
-30.937614 801.44714 1272.6342 4289028754
-2.3798165 801.44714 1272.6342 4290491890
-46.227524 809.55322 1272.9287 4286726001
-42.671558 809.55322 1272.9287 4287054200
-40.300919 809.55322 1272.9287 4287777667
-37.930275 809.55322 1272.9287 4287777919
-34.374313 809.55322 1272.9287 4288304263
-2.3706422 809.55322 1272.9287 4290428405
-46.227524 811.3656 1274.4569 4286791024
-42.671558 811.3656 1274.4569 4287053694
-40.300919 811.3656 1274.4569 4287843210
-37.930275 811.3656 1274.4569 4287843199
1.1853211 811.3656 1274.4569 4290296049
-42.50642 817.61731 1273.188 4286919796
-40.144955 817.61731 1273.188 4287577725
-37.783485 817.61731 1273.188 4287708280
-34.241287 817.61731 1273.188 4287444332
-25.976147 817.61731 1273.188 4289025158
-43.687157 819.42261 1274.7102 4286855793
-40.144955 819.42261 1274.7102 4287710595
-37.783485 819.42261 1274.7102 4287711612
-34.241287 819.42261 1274.7102 4287974265
-37.636696 826.53839 1274.1699 4287514246
-35.284405 826.53839 1274.1699 4287909004
-32.93211 826.53839 1274.1699 4288301951
-2.3522935 825.63922 1273.4117 4288256979
-35.14679 832.72339 1272.8447 4288039305
-32.022629 832.4248 1272.593 4288170879
-28.117432 831.8277 1272.0896 4288432267
-25.774311 831.8277 1272.0896 4288958611
-23.431192 831.8277 1272.0896 4288828310
-11.715596 831.8277 1272.0896 4287124883
-4.6862388 831.8277 1272.0896 4280037749
-2.3431194 832.72339 1272.8447 4280891756
-37.372478 839.25836 1273.1228 4287513716
-35.036697 839.25836 1273.1228 4287711095
-31.533028 839.25836 1273.1228 4288499832
-28.029358 839.25836 1273.1228 4288696720
-4.6715598 839.25836 1273.1228 4282599031
-2.3357799 839.25836 1273.1228 4282335859
-39.708256 841.04407 1274.6284 4286788196
-37.372478 841.04407 1274.6284 4287180137
-35.036697 841.04407 1274.6284 4287969910
-31.533028 841.04407 1274.6284 4288167800
-4.6715598 841.04407 1274.6284 4281547876
-2.3357799 841.04407 1274.6284 4282403442
-39.552292 848.94397 1274.7493 4286989407
-37.225689 848.94397 1274.7493 4287251061
-34.899082 848.94397 1274.7493 4287908992
-31.409176 848.05463 1273.9994 4288038779
-27.919266 848.05457 1273.9994 4288365187
-25.592661 848.05457 1273.9994 4288299138
-4.6532111 848.05457 1273.9994 4285693609
-2.3266056 848.94397 1274.7493 4281876074
-37.078899 856.80176 1274.8347 4287186038
-34.761467 856.80176 1274.8347 4287777919
-31.285322 855.91589 1274.0878 4288041093
-27.809174 855.91589 1274.0878 4288500616
-25.491743 855.03009 1273.3408 4288499848
-19.698166 855.03009 1273.3408 4288697987
-16.222019 855.03009 1273.3408 4288237693
-13.904587 855.03009 1273.3408 4287522458
-9.2697248 855.03009 1273.3408 4290688744
-6.9522934 855.03009 1273.3408 4290622695
-4.6348624 856.80176 1274.8347 4289834978
-2.3174312 856.80176 1274.8347 4290295529
-31.186239 860.58521 1272.7926 4288106373
-27.721102 860.58521 1272.7926 4288238216
-25.411009 860.58521 1272.7926 4288304265
-19.63578 860.58521 1272.7926 4288829846
-4.6201835 860.58521 1272.7926 4289965533
-2.3100917 860.58521 1272.7926 4290492133
-34.651375 862.35132 1274.2817 4287575917
-31.186239 862.35132 1274.2817 4288102777
-27.721102 862.35132 1274.2817 4288370310
-2.3100917 862.35132 1274.2817 4290032095
-34.51376 868.37708 1272.8224 4287245149
-32.212845 868.37708 1272.8224 4287374937
-28.761467 868.37708 1272.8224 4287769187
-25.310091 868.37708 1272.8224 4288755574
-23.009174 868.37708 1272.8224 4288299386
-4.6018348 868.37708 1272.8224 4289506015
-2.3009174 868.37708 1272.8224 4289900773
-36.814678 870.13611 1274.3055 4286327648
-34.51376 870.13611 1274.3055 4286327648
-32.212845 870.13611 1274.3055 4286655077
-28.761467 870.13611 1274.3055 4287246444
-25.310091 870.13611 1274.3055 4287705968
-4.6018348 870.13611 1274.3055 4289768674
-2.3009174 870.13611 1274.3055 4290031589
-36.667889 877.87897 1274.2939 4285540957
-34.376148 877.00293 1273.5553 4286922613
-32.084404 877.00293 1273.5553 4286008151
-28.264832 876.71094 1273.3091 4287519888
-25.209175 876.12689 1272.8167 4290281939
-22.917431 876.12689 1272.8167 4289362595
-9.1669722 876.12689 1272.8167 4290295016
-6.8752294 877.00293 1273.5553 4290031845
-4.5834861 877.00293 1273.5553 4289769951
-2.291743 877.87897 1274.2939 4289704414
-28.555046 881.5979 1272.1975 4285287245
-25.128441 881.5979 1272.1975 4289299089
-22.844036 881.5979 1272.1975 4289693611
-18.275229 881.5979 1272.1975 4289888982
-31.981651 883.34436 1273.67 4287398006
-29.697248 883.34436 1273.67 4285884767
-6.8532109 883.34436 1273.67 4289571038
-4.5688071 883.34436 1273.67 4289308634
-34.128441 889.27466 1272.1304 4287714179
-31.85321 889.27466 1272.1304 4287000166
-40.954128 891.01416 1273.5969 4286262114
-37.541283 891.01416 1273.5969 4286065762
-34.128441 891.01416 1273.5969 4287908994
-37.420181 896.42621 1272.9281 4286130778
-34.018349 896.42621 1272.9281 4286328411
-31.750458 896.42621 1272.9281 4286001506
-28.348625 896.42621 1272.9281 4284953182
-22.6789 896.42621 1272.9281 4287594116
-40.822018 898.16003 1274.39 4286066771
-37.420181 898.16003 1274.39 4286198358
-34.018349 898.16003 1274.39 4286264151
-31.750458 898.16003 1274.39 4285805137
-2.26789 898.16003 1274.39 4289111509
11.33945 898.16003 1274.39 4289440476
-27.126606 901.8158 1272.2404 4285878169
-24.866055 901.8158 1272.2404 4286667942
-22.605505 901.8158 1272.2404 4286211459
-19.21468 901.8158 1272.2404 4286935931
-4.521101 901.8158 1272.2404 4289111511
-2.2605505 901.8158 1272.2404 4289111511
10.172478 901.8158 1272.2404 4289374427
-28.256882 903.54401 1273.6975 4289500346
-24.866055 903.54401 1273.6975 4288122288
-22.605505 903.54401 1273.6975 4287530147
-19.21468 903.54401 1273.6975 4284569708
-4.521101 903.54401 1273.6975 4288915413
-2.2605505 903.54401 1273.6975 4289047000
11.302752 903.54401 1273.6975 4289308121
-18.011009 911.10303 1273.531 4288713170
-15.759633 910.24243 1272.8054 4287134640
-13.508257 910.24243 1272.8054 4285558366
-10.131193 910.24243 1272.8054 4289307570
11.256881 911.10303 1273.531 4288518087
13.508257 911.10303 1273.531 4288452003
-19.136696 912.82422 1274.9822 4285493147
-15.759633 912.82422 1274.9822 4287859659
-13.508257 912.82422 1274.9822 4287596431
-10.131193 912.82422 1274.9822 4289504965
-6.7541285 912.82422 1274.9822 4289637087
-20.196331 916.43372 1272.7936 4283190125
-16.830275 916.43372 1272.7936 4286479526
-13.46422 916.43372 1272.7936 4288384690
-7.8541284 916.43372 1272.7936 4288713939
-22.440367 918.14929 1274.2401 4288585415
-4.4880733 918.14929 1274.2401 4283975792
-25.700916 923.9198 1272.5654 4284045684
-22.348623 923.9198 1272.5654 4288446404
-20.113762 923.9198 1272.5654 4290485987
-16.761467 923.9198 1272.5654 4288844242
-13.409174 923.9198 1272.5654 4285952668
-7.8220181 923.9198 1272.5654 4284499546
-29.053211 925.62836 1274.0061 4282662498
-25.700916 925.62836 1274.0061 4282991474
-15.644036 925.62836 1274.0061 4288778694
-13.409174 925.62836 1274.0061 4287990446
-11.174312 925.62836 1274.0061 4284174452
-7.8220181 925.62836 1274.0061 4283778404
-4.4697247 925.62836 1274.0061 4284042604
-33.412846 932.60303 1274.6549 4284112774
-31.185322 932.60303 1274.6549 4284309906
-28.957798 932.60303 1274.6549 4283783561
-25.616514 930.90015 1273.219 4282073439
-16.335167 931.46777 1273.6976 4285561987
-13.365138 930.90015 1273.219 4285888697
-11.137614 931.75159 1273.937 4283324831
-7.7963305 931.75159 1273.937 4284634463
-4.4550457 932.60303 1274.6549 4284235872
-2.2275229 932.60303 1274.6549 4284235872
-31.082569 937.8468 1273.8441 4284639648
-28.862385 936.99817 1273.1285 4283586952
-25.53211 936.14948 1272.413 4284243064
-22.201836 936.99817 1273.1285 4283520365
-19.981651 936.99817 1273.1285 4287467945
-17.021406 937.28107 1273.3671 4288059863
-13.321101 936.99817 1273.1285 4285624490
-11.100918 937.8468 1273.8441 4282992772
-30.979816 944.75977 1274.4409 4284375701
-28.766972 943.91394 1273.7278 4282862471
-26.554129 943.06805 1273.0145 4282662764
-22.128441 943.91394 1273.7278 4281154404
-19.915596 943.91394 1273.7278 4284246675
-16.227524 943.63202 1273.4901 4285889707
-13.277064 943.91394 1273.7278 4286083733
-8.8513765 944.75977 1274.4409 4283385683
-4.4256883 944.75977 1274.4409 4283648085
-2.2128441 943.91394 1273.7278 4283648085
-30.851376 950.40546 1272.661 4284836774
-28.647707 950.40546 1272.661 4283060363
-25.342201 950.40546 1272.661 4283392395
-22.036697 950.40546 1272.661 4284904605
-19.833027 950.40546 1272.661 4285233569
-16.527523 950.40546 1272.661 4283588495
-13.222018 950.40546 1272.661 4284374665
-11.018349 950.40546 1272.661 4282927219
-6.6110091 950.40546 1272.661 4283450972
-4.4073396 950.40546 1272.661 4283449688
-2.2036698 950.40546 1272.661 4283383895
-35.258717 952.09021 1274.0815 4288388815
-30.851376 952.09021 1274.0815 4289639666
-28.647707 952.09021 1274.0815 4284705191
-15.425688 952.09021 1274.0815 4284573575
-13.222018 952.09021 1274.0815 4284901525
-11.018349 952.09021 1274.0815 4282927478
-7.7128439 952.09021 1274.0815 4283252823
-4.4073396 952.09021 1274.0815 4283842899
-35.141285 958.09204 1273.91 4288651475
-30.748625 958.09204 1273.91 4289244655
-28.552294 958.09204 1273.91 4289113069
-26.355963 957.2525 1273.2021 4288456420
-15.374312 957.2525 1273.2021 4280575384
-13.177981 957.2525 1273.2021 4282142330
-10.981651 957.2525 1273.2021 4282405502
-7.6871557 957.2525 1273.2021 4283845714
-4.3926606 957.2525 1273.2021 4283908693
2.1963303 958.93164 1274.6179 4283514189
4.3926606 958.93164 1274.6179 4283252557
-25.173393 962.39246 1272.3038 4289508584
-21.889908 962.39246 1272.3038 4290560511
-19.700918 962.39246 1272.3038 4290494719
-16.417431 962.39246 1272.3038 4289772533
-13.133945 962.39246 1272.3038 4288850915
-10.944954 962.39246 1272.3038 4284311198
-7.6614676 962.39246 1272.3038 4282664783
-4.3779817 962.39246 1272.3038 4283318352
-2.1889908 962.39246 1272.3038 4283318352
-25.173393 964.06598 1273.7148 4289244101
-21.889908 964.06598 1273.7148 4290427371
-19.700918 964.06598 1273.7148 4290822129
-16.417431 964.06598 1273.7148 4290691836
-13.133945 964.06598 1273.7148 4290888959
-10.944954 964.06598 1273.7148 4285888697
-6.5669723 964.06598 1273.7148 4282596943
-4.3779817 964.06598 1273.7148 4283054664
-48.697247 761.23413 1277.9684 4287729609
-46.262386 759.37268 1276.3989 4287859128
0 761.23413 1277.9684 4290953977
-48.477066 769.17896 1276.8191 4286741687
1.2119266 769.17896 1276.8191 4290756599
4.8477063 770.10547 1277.6003 4290822390
-48.293579 776.53674 1276.4828 4287531460
-45.878899 776.53674 1276.4828 4287992011
1.2073394 776.53674 1276.4828 4290625268
4.8293576 776.53674 1276.4828 4290625012
7.2440367 776.53674 1276.4828 4290691061
9.6587152 776.53674 1276.4828 4290691061
12.073395 776.53674 1276.4828 4290691061
-45.704586 782.93982 1275.3417 4287269291
-43.299084 782.93982 1275.3417 4287334332
-40.893578 782.93982 1275.3417 4288518607
-38.488075 782.93982 1275.3417 4289373668
1.2027524 782.93982 1275.3417 4290559221
9.6220188 782.93982 1275.3417 4290691059
13.230275 782.93982 1275.3417 4290691059
-48.110092 784.77881 1276.8922 4286082719
-45.704586 784.77881 1276.8922 4286938028
1.2027524 784.77881 1276.8922 4290559220
9.6220188 784.77881 1276.8922 4290559473
12.027523 784.77881 1276.8922 4290888181
-45.530273 791.14691 1275.7214 4287793071
-43.133945 791.14691 1275.7214 4288518077
-40.737614 791.14691 1275.7214 4288912835
-38.341286 791.14691 1275.7214 4288257761
-35.944954 791.14691 1275.7214 4287731416
-2.3963304 791.14691 1275.7214 4290559219
-50.322937 792.97894 1277.2662 4287788174
-46.728439 792.97894 1277.2662 4287985555
-43.133945 792.97894 1277.2662 4289696423
-38.341286 792.97894 1277.2662 4290092004
-35.944954 792.97894 1277.2662 4289829088
-57.291744 799.31195 1276.0659 4285212505
-52.517429 799.31195 1276.0659 4285737053
-50.130276 799.31195 1276.0659 4286526569
-47.743118 799.31195 1276.0659 4286265186
1.193578 799.31195 1276.0659 4290427633
-57.291744 801.13696 1277.6047 4285740639
-54.904587 801.13696 1277.6047 4285806432
-52.517429 801.13696 1277.6047 4286067555
-50.130276 801.13696 1277.6047 4286725485
1.193578 801.13696 1277.6047 4290492144
4.774312 801.13696 1277.6047 4290230256
7.161468 801.13696 1277.6047 4290690807
-57.115597 805.99561 1276.4692 4285476704
-54.735779 805.99561 1276.4692 4285871462
-52.355965 805.99561 1276.4692 4286002023
-49.976147 805.99561 1276.4692 4286659697
1.1899083 805.99561 1276.4692 4290230001
4.7596331 805.99561 1276.4692 4290295280
7.1394496 806.90527 1277.2363 4290690037
10.709174 806.90527 1277.2363 4290230767
14.278899 806.90527 1277.2363 4290295279
-54.524769 814.99036 1277.5132 4285475934
-52.154129 814.99036 1277.5132 4285803615
-49.783485 814.99036 1277.5132 4286198117
-46.227524 814.08417 1276.7491 4286591079
-42.671558 813.17798 1275.9851 4286719853
-37.930275 813.17798 1275.9851 4287641972
1.1853211 814.08411 1276.7491 4290295278
4.7412844 814.08417 1276.7491 4290427627
7.1119266 814.08417 1276.7491 4290230504
10.272783 814.38623 1277.0038 4290296044
14.223853 814.99036 1277.5132 4290691309
-43.687157 821.22803 1276.2325 4286790511
-40.144955 821.22803 1276.2325 4287776388
-37.783485 821.22803 1276.2325 4287646587
1.1807339 821.22803 1276.2325 4290888181
4.7229357 821.22803 1276.2325 4290296828
7.0844035 821.22803 1276.2325 4289441519
-43.687157 823.03333 1277.7548 4286658155
-40.144955 823.03333 1277.7548 4287775872
1.1807339 823.03333 1277.7548 4285889717
4.7229357 823.03333 1277.7548 4283851681
7.0844035 823.03333 1277.7548 4282930579
-39.988991 829.23596 1276.4443 4287185266
-37.636696 829.23596 1276.4443 4287250046
0 829.23596 1276.4443 4279908462
-42.341286 831.0343 1277.9607 4286789995
-39.988991 831.0343 1277.9607 4287184753
-37.636696 831.0343 1277.9607 4287315837
0 831.0343 1277.9607 4281742425
-42.176147 835.4104 1275.1105 4286857069
-39.833027 835.4104 1275.1105 4287383413
-37.48991 835.4104 1275.1105 4287449208
-2.3431194 835.4104 1275.1105 4282400612
-42.176147 837.20172 1276.6208 4286723950
-39.833027 837.20172 1276.6208 4287645052
-42.044037 842.82983 1276.1342 4286722151
-39.708256 842.82983 1276.1342 4287182702
-37.372478 842.82983 1276.1342 4287116911
-35.036697 842.82983 1276.1342 4287643255
-32.700916 842.82983 1276.1342 4287969658
-4.6715598 842.82983 1276.1342 4280692567
-2.3357799 842.82983 1276.1342 4282140013
-46.715595 844.61554 1277.6399 4286464346
-43.211929 844.61554 1277.6399 4286726751
-39.708256 844.61554 1277.6399 4287054948
-37.372478 844.61554 1277.6399 4287447157
-35.036697 844.61554 1277.6399 4287973501
-2.3357799 844.61554 1277.6399 4281023849
-39.552292 850.72266 1276.249 4287055200
-37.225689 850.72266 1276.249 4287120502
-34.899082 850.72266 1276.249 4287712896
-31.409174 850.72266 1276.249 4288040321
-4.6532111 850.72266 1276.249 4290032611
-2.3266056 850.72266 1276.249 4287466684
-44.205505 852.50134 1277.7488 4286594651
-40.715595 852.50134 1277.7488 4286923362
-37.225689 852.50134 1277.7488 4287120502
-34.899082 852.50134 1277.7488 4287712896
-4.6532111 852.50134 1277.7488 4290229484
-2.3266056 852.50134 1277.7488 4289374431
-39.396332 859.45935 1277.0754 4286922078
-37.078899 859.45935 1277.0754 4287315052
-34.761467 858.57349 1276.3285 4287844216
0 860.34515 1277.8224 4289769705
-39.271561 865.88348 1277.26 4286720086
-36.961468 865.00049 1276.5154 4287179873
-34.651375 864.11743 1275.7709 4287377769
-31.186239 864.11743 1275.7709 4288100710
0 865.88348 1277.26 4289769955
-36.814678 871.8952 1275.7888 4285804645
-34.51376 871.8952 1275.7888 4285475936
-32.212845 871.8952 1275.7888 4285738574
-4.6018348 871.8952 1275.7888 4289637856
-2.3009174 871.8952 1275.7888 4289834978
-40.266056 873.6543 1277.272 4286526558
-36.814678 873.6543 1277.272 4285738086
-2.3009174 873.6543 1277.272 4289769439
-41.251377 881.38306 1277.2485 4286594158
-37.431805 880.79901 1276.7561 4285477217
-34.376148 880.50702 1276.5099 4287977864
-32.084404 879.63098 1275.7712 4286539354
-6.8752294 879.63098 1275.7712 4290031843
-4.5834861 879.63098 1275.7712 4289572828
-2.291743 880.50702 1276.5099 4289638110
-41.119267 886.83722 1276.6152 4286329698
-37.311924 886.25507 1276.1244 4285673310
-34.266056 885.09076 1275.1426 4288306057
-31.981651 885.09076 1275.1426 4287330907
-4.5688071 885.09076 1275.1426 4289178331
-2.2844036 885.09076 1275.1426 4289441760
-40.954128 892.75354 1275.0636 4286261334
-37.541283 892.75354 1275.0636 4286261334
0 892.75354 1275.0636 4289506521
-43.229359 895.36267 1277.2637 4285934931
-40.954128 894.49298 1276.5303 4286064219
1.1376147 895.36267 1277.2637 4289243096
9.1009178 896.23242 1277.9969 4289440476
-43.089909 899.89386 1275.8519 4285804885
-40.822018 899.89386 1275.8519 4286000976
-37.420181 899.89386 1275.8519 4286067286
-34.018349 899.89386 1275.8519 4285936217
-31.750458 899.89386 1275.8519 4285677383
-29.482569 899.89386 1275.8519 4286532692
-40.822018 901.62769 1277.3138 4286066769
-37.420181 901.62769 1277.3138 4285738321
-34.018349 901.62769 1277.3138 4286988905
-31.750458 901.62769 1277.3138 4286339200
6.8036699 901.62769 1277.3138 4289177559
9.0715599 901.62769 1277.3138 4289373914
-31.647707 905.27222 1275.1548 4287592610
-28.256882 905.27222 1275.1548 4288844474
-24.866055 905.27222 1275.1548 4287727532
-22.605505 905.27222 1275.1548 4287463840
-19.21468 905.27222 1275.1548 4286147720
-6.7816515 905.27222 1275.1548 4289176021
-4.521101 905.27222 1275.1548 4289176019
-2.2605505 905.27222 1275.1548 4289439191
6.7816515 905.27222 1275.1548 4289111763
10.172478 905.27222 1275.1548 4289439707
-31.647707 907.00043 1276.6119 4286938037
-28.256882 907.00043 1276.6119 4283385982
-24.866055 907.00043 1276.6119 4282399340
-22.605505 907.00043 1276.6119 4283513957
-19.21468 907.00043 1276.6119 4288186545
-11.302752 907.00043 1276.6119 4288716692
-6.7816515 907.00043 1276.6119 4289767388
-4.521101 907.00043 1276.6119 4289439191
-2.2605505 907.00043 1276.6119 4289636570
10.172478 907.00043 1276.6119 4289834717
-22.513762 914.54541 1276.4335 4285229709
-4.5027523 914.54541 1276.4335 4288385959
-2.2513762 914.54541 1276.4335 4287004307
-31.519266 916.2666 1277.8848 4283124082
-28.1422 916.2666 1277.8848 4286479022
-24.765137 916.2666 1277.8848 4289241826
-2.2513762 916.2666 1277.8848 4283844205
-22.440367 919.86487 1275.6866 4289569495
-4.4880733 919.86487 1275.6866 4283974238
-31.416513 921.58044 1277.1332 4283454078
-29.172478 921.58044 1277.1332 4282532976
-4.4880733 921.58044 1277.1332 4284501095
-2.2440367 921.58044 1277.1332 4284435302
-40.227524 929.04553 1276.8873 4283714895
-37.992661 929.04553 1276.8873 4284767583
-34.267887 928.47601 1276.4071 4284375173
-31.288073 928.19122 1276.167 4285228434
-29.053211 928.19122 1276.167 4283254900
-6.704587 927.33691 1275.4468 4285031535
-4.4697247 928.19122 1276.167 4285490815
-2.2348623 928.19122 1276.167 4285425278
1.1174312 929.04553 1276.8873 4285556332
-37.867889 934.30603 1276.0908 4284637031
-34.526604 934.30603 1276.0908 4284244612
-31.185322 934.30603 1276.0908 4284375947
-15.592661 934.30603 1276.0908 4286678202
-11.137614 934.30603 1276.0908 4283453575
-7.7963305 934.30603 1276.0908 4283515495
-4.4550457 934.30603 1276.0908 4283908189
-2.2275229 934.30603 1276.0908 4283908189
-37.867889 936.00897 1277.5266 4284244331
-34.526604 936.00897 1277.5266 4284769938
-7.7963305 936.00897 1277.5266 4283450206
-4.4550457 936.00897 1277.5266 4284237405
-2.2275229 936.00897 1277.5266 4284237405
-33.302753 940.39282 1275.9908 4284311185
-31.082569 940.39282 1275.9908 4284113058
-15.541285 939.54419 1275.2753 4287729620
-13.321101 939.54419 1275.2753 4286214830
-11.100918 940.39282 1275.9908 4283188347
-7.7706423 941.24152 1276.7064 4283516764
-4.4403667 941.24152 1276.7064 4283713878
-2.2201834 939.54419 1275.2753 4283647835
-33.192661 946.45154 1275.8673 4283390610
-13.277064 946.45154 1275.8673 4283978633
-11.06422 946.45154 1275.8673 4282926202
-7.7449541 946.45154 1275.8673 4283648085
-4.4256883 946.45154 1275.8673 4283648085
-2.2128441 946.45154 1275.8673 4283450705
-34.299084 948.14331 1277.2938 4284376767
-8.8513765 948.14331 1277.2938 4283319385
-33.055046 953.7749 1275.5021 4290889456
-30.851376 953.7749 1275.5021 4290164735
-37.462387 955.45966 1276.9226 4287796426
-33.055046 955.45966 1276.9226 4289769185
1.1018349 955.45966 1276.9226 4283450190
4.4073396 955.45966 1276.9226 4283384397
-37.337616 961.45032 1276.7416 4288388808
-35.141285 961.45032 1276.7416 4288388555
-31.84679 961.45032 1276.7416 4288389069
-28.552294 961.45032 1276.7416 4288126666
-8.7853212 962.28986 1277.4495 4284439147
-2.1963303 962.28986 1277.4495 4283317837
2.1963303 960.61072 1276.0337 4283645518
4.3926606 960.61072 1276.0337 4283252809
-25.173393 965.7395 1275.126 4287928252
-21.889908 965.7395 1275.126 4288190412
-19.700918 965.7395 1275.126 4288387534
-16.417431 965.7395 1275.126 4289046745
-13.133945 965.7395 1275.126 4290625023
-10.944954 965.7395 1275.126 4288124894
-21.889908 967.41296 1276.537 4287862460
-19.700918 967.41296 1276.537 4287730874
-16.417431 967.41296 1276.537 4288389054
-13.133945 967.41296 1276.537 4289507564
-10.944954 967.41296 1276.537 4289178599
-48.880733 754.737 1279.0303 4287398075
-46.436699 754.737 1279.0303 4287924419
1.2220184 754.737 1279.0303 4290757368
-51.324772 756.60547 1280.6058 4287463588
-48.880733 756.60547 1280.6058 4287793335
1.2220184 756.60547 1280.6058 4290822388
4.8880734 756.60547 1280.6058 4290953977
-51.132111 763.09564 1279.538 4287794098
-48.697247 763.09564 1279.538 4287925966
1.2174312 763.09564 1279.538 4290888184
4.8697248 763.09564 1279.538 4290953977
-53.324772 772.88513 1279.9441 4286280857
-50.092968 772.57623 1279.6837 4287333552
4.8477063 771.95856 1279.1628 4290625012
7.2715597 771.95856 1279.1628 4290691061
9.6954126 771.95856 1279.1628 4290821623
13.331193 771.95856 1279.1628 4290755573
-48.293579 778.38275 1278.0393 4286876598
4.8293576 778.38275 1278.0393 4290691059
7.2440367 778.38275 1278.0393 4290691059
9.6587152 778.38275 1278.0393 4290822390
-49.500916 780.22882 1279.5958 4286807716
4.8293576 780.22882 1279.5958 4290625012
7.2440367 780.22882 1279.5958 4290691061
-55.326607 787.53735 1279.2183 4285950342
-52.921101 788.45691 1279.9935 4287463840
-49.312843 787.53735 1279.2183 4287529641
1.2027524 787.53735 1279.2183 4290493938
4.8110094 787.53735 1279.2183 4290493426
7.2165136 787.53735 1279.2183 4290493426
9.6220188 787.53735 1279.2183 4290493680
12.027523 787.53735 1279.2183 4290822645
-57.511925 794.81097 1278.8109 4285475164
-55.115597 794.81097 1278.8109 4285804386
-52.719265 794.81097 1278.8109 4285869154
-50.322937 794.81097 1278.8109 4286461548
-47.926605 794.81097 1278.8109 4286462309
1.1981652 794.81097 1278.8109 4290493680
-62.304588 796.64294 1280.3556 4284690268
-59.908257 796.64294 1280.3556 4284624219
-55.115597 796.64294 1280.3556 4285410141
4.7926607 796.64294 1280.3556 4290559471
7.1889906 796.64294 1280.3556 4290625264
10.783486 796.64294 1280.3556 4290493680
14.377981 796.64294 1280.3556 4290559221
-62.066055 802.96198 1279.1434 4285019744
-59.678898 802.96198 1279.1434 4284953694
7.161468 802.96198 1279.1434 4290821625
10.742202 802.96198 1279.1434 4290427630
14.322936 802.96198 1279.1434 4290230256
-62.066055 804.78699 1280.6823 4285019739
-59.678898 804.78699 1280.6823 4285085789
-57.115597 808.72467 1278.7704 4285344609
-54.735779 808.72467 1278.7704 4285870953
-52.355965 808.72467 1278.7704 4286067555
-49.976147 808.72467 1278.7704 4286725485
4.7596331 808.72467 1278.7704 4290558956
7.1394496 808.72467 1278.7704 4290756334
10.709174 808.72467 1278.7704 4290427630
14.278899 808.72467 1278.7704 4290164461
-57.115597 810.54407 1280.3044 4285079122
-54.735779 810.54407 1280.3044 4285408344
-52.355965 810.54407 1280.3044 4285670230
-49.976147 810.54407 1280.3044 4286262368
11.899082 810.54407 1280.3044 4290230256
14.278899 810.54407 1280.3044 4290493678
-54.524769 817.70892 1279.8054 4285871205
-52.154129 817.70892 1279.8054 4286068066
-49.783485 817.70892 1279.8054 4286528874
-47.412846 817.70892 1279.8054 4286659433
1.1853211 816.80273 1279.0414 4290756852
4.7412844 816.80273 1279.0414 4290953977
7.1119266 816.80273 1279.0414 4290953977
10.667891 817.70892 1279.8055 4288653273
14.223853 817.70892 1279.8054 4286812363
16.594496 817.70892 1279.8054 4285430967
-43.687157 824.83875 1279.277 4286592106
-40.144955 824.83875 1279.277 4288104319
1.1807339 824.83875 1279.277 4282469521
4.7229357 824.83875 1279.277 4280959348
7.0844035 824.83875 1279.277 4283920290
-47.229359 826.6441 1280.7992 4286528617
-43.687157 826.6441 1280.7992 4286725227
2.3614678 826.6441 1280.7992 4280040047
4.7229357 826.6441 1280.7992 4283845978
7.0844035 826.6441 1280.7992 4289767347
-44.693577 832.83264 1279.4771 4286594664
0 832.83264 1279.4771 4283973736
-49.398167 834.63098 1280.9934 4286265436
-47.045872 834.63098 1280.9934 4286659676
-44.693577 834.63098 1280.9934 4286396504
1.1761467 834.63098 1280.9934 4285556877
-46.862385 838.99304 1278.1312 4286527322
-43.347706 838.99304 1278.1312 4286460509
0 838.99304 1278.1312 4282138467
-49.205505 840.78436 1279.6416 4286264162
-46.862385 840.78436 1279.6416 4286527574
-44.519264 840.78436 1279.6416 4286330196
0 840.78436 1279.6416 4282665065
-51.387157 848.18701 1280.6511 4285938004
-49.051376 847.29413 1279.8983 4286397788
-46.715595 847.29413 1279.8983 4286464597
-43.211929 847.29419 1279.8983 4286727002
-48.858715 854.28009 1279.2485 4286134361
-46.532108 854.28009 1279.2485 4286331993
-44.205505 854.28009 1279.2485 4286398042
-40.715595 854.28009 1279.2485 4286858339
-52.348625 856.05878 1280.7483 4285738067
-48.858715 856.05878 1280.7483 4286462046
-46.532108 856.05878 1280.7483 4286464596
-44.205505 856.05878 1280.7483 4286333010
-41.878899 856.05878 1280.7483 4286989405
0 856.05878 1280.7483 4290294766
-48.666054 863.88855 1280.8101 4286262615
-46.348625 863.00269 1280.0631 4286196563
-44.031193 863.00269 1280.0631 4286130770
-40.941284 862.70746 1279.8141 4286589276
1.5449542 862.70746 1279.8141 4289835749
-46.201836 869.41565 1280.2383 4286528604
-43.891743 869.41565 1280.2383 4286528604
-40.426605 868.53265 1279.4937 4286327891
-46.018349 875.41333 1278.7551 4286200156
-43.71743 875.41333 1278.7551 4286397536
-40.266056 875.41333 1278.7551 4286330986
-46.018349 877.17242 1280.2384 4286135134
-43.71743 877.17242 1280.2384 4286332256
-40.266056 877.17242 1280.2384 4286331759
0 877.17242 1280.2384 4289638367
-45.834862 884.01117 1279.4645 4286003802
-43.543118 884.01117 1279.4645 4286135388
-41.251377 883.13513 1278.7258 4286594397
-38.959633 883.13513 1278.7258 4285936467
0 884.01117 1279.4645 4289572826
-45.688072 890.33014 1279.5603 4285868625
-43.403671 889.45691 1278.824 4285934932
1.1422018 889.45691 1278.824 4289440473
-45.504585 898.84155 1280.1969 4285343566
-43.229359 899.7113 1280.9302 4286000472
1.1376147 898.84161 1280.1969 4289112795
4.5504589 898.84155 1280.1969 4289177302
6.8256879 897.97186 1279.4636 4289440474
-54.429359 905.09534 1280.2377 4284229194
-49.893578 905.09534 1280.2377 4284689484
-46.491745 905.09534 1280.2377 4284951118
-43.089909 904.22839 1279.5067 4285475412
-40.822018 904.22839 1279.5067 4285935185
-37.420181 904.22845 1279.5067 4285475922
-34.018349 904.22839 1279.5067 4287122036
1.133945 904.22839 1279.5067 4289244116
4.53578 904.22839 1279.5067 4289309140
6.8036699 905.09534 1280.2377 4289638360
-38.429359 908.72864 1278.0691 4285869910
-31.647707 908.72864 1278.0691 4286078633
-28.256882 908.72864 1278.0691 4283713135
-24.866055 908.72864 1278.0691 4282071617
-22.605505 908.72864 1278.0691 4282992719
-20.344954 908.72864 1278.0691 4287071885
-9.042202 908.72864 1278.0691 4289899228
-6.7816515 908.72864 1278.0691 4290293986
-4.521101 908.72864 1278.0691 4290097373
-2.2605505 908.72864 1278.0691 4290031580
9.042202 908.72864 1278.0691 4289373395
-54.253212 910.45685 1279.5264 4284098891
-40.689907 910.45685 1279.5264 4285476688
-37.299084 910.45685 1279.5264 4285476690
-33.908257 910.45685 1279.5264 4286003293
-31.647707 910.45685 1279.5264 4286140303
-28.256882 910.45685 1279.5264 4288316607
-24.866055 910.45685 1279.5264 4285887657
-22.605505 910.45685 1279.5264 4283324014
-4.521101 910.45685 1279.5264 4289636822
-2.2605505 910.45685 1279.5264 4288649927
11.302752 910.45685 1279.5264 4284301945
-42.950459 912.18506 1280.9835 4284231509
-40.689907 912.18506 1280.9835 4284757072
-37.299084 912.18506 1280.9835 4284889175
-33.908257 912.18506 1280.9835 4284494679
-31.647707 912.18506 1280.9835 4284369003
-28.256882 912.18506 1280.9835 4289172947
-24.866055 912.18506 1280.9835 4287594970
0 912.18506 1280.9835 4285621400
6.7816515 912.18506 1280.9835 4283713387
10.172478 912.18506 1280.9835 4283250272
13.563303 912.18506 1280.9835 4283776604
15.823853 912.18506 1280.9835 4283973984
