# .PCD v0.7 - Point Cloud Data file format
VERSION 0.7
FIELDS x y z rgb
SIZE 4 4 4 4
TYPE F F F U
COUNT 1 1 1 1
WIDTH 1154
HEIGHT 1
VIEWPOINT 0 0 0 1 0 0 0
POINTS 1154
DATA ascii
-25.592661 845.38654 1271.7498 4289354916
-23.266054 844.49719 1270.9999 4288698001
-20.163916 844.20068 1270.7499 4288698769
-16.286238 843.60779 1270.25 4288963733
-13.959633 844.49719 1270.9999 4288184497
-10.469725 844.49713 1270.9999 4290687972
-6.9798164 845.38654 1271.7498 4289638369
-23.174313 851.48669 1270.3531 4288233078
-18.53945 851.48669 1270.3531 4288173195
-16.222019 851.48669 1270.3531 4289554848
-11.587156 851.48669 1270.3531 4291079643
-18.53945 853.25836 1271.8469 4287447159
-16.222019 853.25836 1271.8469 4289420950
-13.904587 853.25836 1271.8469 4288644789
-10.42844 853.25836 1271.8469 4290555873
-6.9522934 853.25836 1271.8469 4289638371
-11.550459 858.81915 1271.3035 4290947292
-13.805505 866.61798 1271.3391 4288906419
-10.354128 866.61798 1271.3391 4291015652
-6.9027524 866.61798 1271.3391 4286742963
-11.458715 872.6228 1269.8621 4287788458
-25.209175 874.37482 1271.3394 4287771493
-20.625689 874.37482 1271.3394 4289021043
-11.458715 874.37482 1271.3394 4283186028
-24.946789 894.69238 1271.4662 4286539367
-19.277065 894.69238 1271.4662 4287453299
-20.196331 913.86035 1270.6238 4287314017
-15.708257 913.86035 1270.6238 4287908209
-13.46422 913.86035 1270.6238 4286735503
-11.220183 913.00256 1269.9005 4290485705
-8.9761467 913.00256 1269.9005 4289506269
-20.113762 920.50262 1269.6842 4286854759
-16.761467 920.50262 1269.6842 4287116898
-13.409174 920.50262 1269.6842 4286930056
-11.174312 920.50262 1269.6842 4290680257
-7.8220181 920.50262 1269.6842 4289373130
-24.583487 922.21118 1271.1249 4284895890
-22.348623 922.21118 1271.1249 4286065252
-20.113762 922.21118 1271.1249 4286591597
-16.761467 922.21118 1271.1249 4287117411
-13.409174 922.21118 1271.1249 4286666883
-11.174312 922.21118 1271.1249 4290351035
-7.8220181 922.21118 1271.1249 4289634496
-4.4697247 922.21118 1271.1249 4289307330
-13.365138 928.3457 1271.0652 4286010485
-11.137614 928.3457 1271.0652 4285681264
-7.7963305 929.19714 1271.7831 4285554283
-4.4073396 947.03601 1269.8199 4283582290
-2.2036698 948.72076 1271.2405 4283582542
-4.3926606 953.89429 1270.3706 4283582540
-24.159634 955.57343 1271.7864 4281224546
-21.963303 955.57343 1271.7864 4283327608
-19.766972 955.57343 1271.7864 4284643211
-13.177981 955.57343 1271.7864 4283517037
-6.5889907 955.57343 1271.7864 4283582042
-4.3926606 955.57343 1271.7864 4283582542
-2.1963303 955.57343 1271.7864 4283582542
-19.700918 959.04547 1269.4817 4280958867
-15.322936 959.04547 1269.4817 4282994807
-13.133945 959.04547 1269.4817 4284175476
-10.944954 959.04547 1269.4817 4283451496
-6.5669723 959.04547 1269.4817 4283581275
-4.3779817 959.04547 1269.4817 4283908945
-21.889908 960.71899 1270.8928 4281621169
-19.700918 960.71899 1270.8928 4279844758
-15.322936 960.71899 1270.8928 4282409847
-13.133945 960.71899 1270.8928 4284113263
-10.944954 960.71899 1270.8928 4282336852
-4.3779817 960.71899 1270.8928 4283908693
-41.392662 755.64972 1273.2598 4287917977
-38.957798 755.64972 1273.2598 4287194272
-7.3045874 755.64972 1273.2598 4289440463
-4.8697248 755.64972 1273.2598 4290096119
-2.4348624 755.64972 1273.2598 4290885631
-43.827522 757.51123 1274.8293 4288055480
-41.392662 757.51123 1274.8293 4289042375
-7.3045874 757.51123 1274.8293 4291411938
-4.8697248 757.51123 1274.8293 4291411699
-2.4348624 757.51123 1274.8293 4291016942
-41.205505 764.54633 1272.913 4288846540
-7.2715597 764.54633 1272.913 4290625525
-4.8477063 764.54633 1272.913 4290559219
-2.4238532 764.54633 1272.913 4290625012
-7.2715597 766.39941 1274.4755 4290690289
-4.8477063 766.39941 1274.4755 4290690039
-2.4238532 766.39941 1274.4755 4290755832
-41.049541 772.8446 1273.3698 4290031319
-37.427521 772.8446 1273.3698 4289964272
-33.805504 772.8446 1273.3698 4287467227
-4.8293576 772.8446 1273.3698 4290492660
-2.4146788 772.8446 1273.3698 4291150590
-43.464222 774.69067 1274.9263 4287134891
-41.049541 774.69067 1274.9263 4288450495
-38.634861 774.69067 1274.9263 4289172971
-2.4146788 774.69067 1274.9263 4290493428
-36.082569 779.26178 1272.2404 4287859921
-33.677063 779.26178 1272.2404 4286745555
-31.271559 779.26178 1272.2404 4285495488
-28.866055 779.26178 1272.2404 4285366730
-26.46055 779.26178 1272.2404 4285827281
-21.649542 779.26178 1272.2404 4285826252
-7.2165136 779.26178 1272.2404 4290230506
-4.8110094 779.26178 1272.2404 4290427634
-37.285324 781.10083 1273.791 4288915691
-33.677063 781.10083 1273.791 4288325350
-31.271559 781.10083 1273.791 4287733213
-28.866055 781.10083 1273.791 4286683873
-26.46055 781.10083 1273.791 4286486494
-4.8110094 781.10083 1273.791 4290230510
-2.4055047 781.10083 1273.791 4290230510
-33.548622 787.48291 1272.6321 4288388313
-31.152294 787.48291 1272.6321 4289046500
-28.755962 787.48291 1272.6321 4290099703
-26.359632 787.48291 1272.6321 4289902068
-22.765137 787.48291 1272.6321 4288457972
-19.170643 787.48291 1272.6321 4289046250
-16.774311 787.48291 1272.6321 4288453857
-14.377981 787.48291 1272.6321 4288058060
-11.981651 787.48291 1272.6321 4290623730
-7.1889906 787.48291 1272.6321 4290427882
-4.7926607 787.48291 1272.6321 4290427884
-2.3963304 787.48291 1272.6321 4290427884
-34.746788 789.31494 1274.1768 4288780251
-31.152294 789.31494 1274.1768 4289305040
-28.755962 789.31494 1274.1768 4290750442
-26.359632 789.31494 1274.1768 4292395007
-22.765137 789.31494 1274.1768 4290621439
-19.170643 789.31494 1274.1768 4290228473
-2.3963304 789.31494 1274.1768 4290691059
-33.420185 797.48694 1274.5271 4288437939
-31.033028 797.48694 1274.5271 4287319714
-28.645872 796.57446 1273.7577 4286852714
-26.258715 796.57446 1273.7577 4287708023
-23.075842 796.27032 1273.5012 4288963223
-19.097248 795.66199 1272.9883 4291473407
-16.710093 795.66199 1272.9883 4290486511
-14.322936 795.66199 1272.9883 4288452295
-7.161468 795.66199 1272.9883 4290165228
-4.774312 795.66199 1272.9883 4290164463
-2.387156 796.57446 1273.7577 4290164719
-33.317432 803.26648 1274.1682 4287777417
-30.937614 803.26648 1274.1682 4288369554
-28.557798 803.26648 1274.1682 4288567451
-26.177982 801.44714 1272.6342 4288304279
-22.608257 801.44714 1272.6342 4287315597
-19.038532 801.44714 1272.6342 4287118717
-16.658716 801.44714 1272.6342 4289290143
-14.278899 801.44714 1272.6342 4288185012
-4.7596331 801.44714 1272.6342 4289836013
-2.3798165 801.44714 1272.6342 4290098929
2.3798165 803.26648 1274.1682 4290165226
-30.818348 809.55322 1272.9287 4288693631
-28.447706 809.55322 1272.9287 4288367757
-26.077065 809.55322 1272.9287 4288959895
-22.521101 809.55322 1272.9287 4288631692
-7.1119266 809.55322 1272.9287 4289901540
-4.7412844 809.55322 1272.9287 4289442021
-2.3706422 809.55322 1272.9287 4289902572
-40.300919 811.3656 1274.4569 4286853223
-37.930275 811.3656 1274.4569 4287179887
-34.374313 811.3656 1274.4569 4287772793
-34.241287 817.61731 1273.188 4288036722
-2.3614678 817.61731 1273.188 4289704677
-37.783485 819.42261 1274.7102 4287579509
-34.241287 819.42261 1274.7102 4287380336
-9.4458714 819.42261 1274.7102 4290032875
-2.3614678 819.42261 1274.7102 4289967333
-37.636696 827.43756 1274.9281 4287646335
-35.284405 825.63922 1273.4117 4287580540
-32.148014 826.23871 1273.9171 4288236670
-9.409174 825.63922 1273.4117 4290229738
-7.056881 826.53839 1274.1699 4289769697
-4.704587 825.63922 1273.4117 4289901025
-2.3522935 826.53839 1274.1699 4289967073
-35.14679 832.72339 1272.8447 4287515262
-31.632111 832.72333 1272.8447 4288040832
-28.117432 831.8277 1272.0896 4288567449
-10.153518 832.4248 1272.593 4290754027
-7.0293579 833.61902 1273.6 4289769957
-4.6862388 833.61902 1273.6 4289770722
-28.029358 839.25836 1273.1228 4288303763
-25.693579 839.25836 1273.1228 4288435349
-9.3431196 839.25836 1273.1228 4290427882
-7.0073395 839.25836 1273.1228 4290033125
-35.036697 841.04407 1274.6284 4287904115
-31.533028 841.04407 1274.6284 4288040830
-28.029358 841.04407 1274.6284 4288435864
-25.693579 841.04407 1274.6284 4288699037
-7.0073395 841.04407 1274.6284 4289769955
-4.6715598 841.04407 1274.6284 4289704162
-27.919266 848.05457 1273.9994 4287902076
-25.592661 848.05457 1273.9994 4288494213
-23.266054 847.16522 1273.2495 4288234622
-20.939449 848.05457 1273.9994 4289089159
-16.286238 847.16522 1273.2495 4289226135
-13.959633 848.05457 1273.9994 4288579254
-10.081958 847.75812 1273.7494 4290491622
-6.9798164 848.05457 1273.9994 4290230506
-4.6532111 848.94397 1274.7493 4290493914
-23.174313 856.80176 1274.8347 4288699789
-16.222019 855.91589 1274.0878 4289027991
-13.904587 855.91589 1274.0878 4288052656
-10.042202 855.62061 1273.8387 4290293984
-6.9522934 855.91589 1274.0878 4290032610
-4.6348624 856.80176 1274.8347 4290099183
-13.860551 860.58521 1272.7926 4288315313
-10.395412 860.58521 1272.7926 4290753246
-6.9302754 860.58521 1272.7926 4290493666
-13.860551 862.35132 1274.2817 4288709812
-10.395412 862.35132 1274.2817 4290884582
-6.9302754 862.35132 1274.2817 4288651222
-4.6201835 862.35132 1274.2817 4285367486
-20.708258 868.37708 1272.8224 4288832394
-16.106422 868.37708 1272.8224 4289360042
-13.805505 868.37708 1272.8224 4288971701
-10.354128 868.37708 1272.8224 4288054208
-6.9027524 868.37708 1272.8224 4282860170
-4.6018348 868.37708 1272.8224 4280893785
-25.310091 870.13611 1274.3055 4288629380
-23.009174 870.13611 1274.3055 4288764021
-19.557798 870.13611 1274.3055 4289225874
-16.106422 870.13611 1274.3055 4289556140
-13.805505 870.13611 1274.3055 4288314802
-9.2036695 870.13611 1274.3055 4284703869
-6.9027524 870.13611 1274.3055 4282335321
-4.6018348 870.13611 1274.3055 4286282101
-32.084404 877.87897 1274.2939 4287919524
-28.64679 877.87897 1274.2939 4287850909
-25.209175 877.87897 1274.2939 4286926985
-22.917431 877.87897 1274.2939 4286985575
-19.479816 877.00293 1273.5553 4288105336
-16.042202 877.87897 1274.2939 4289159822
-13.750459 877.00293 1273.5553 4287262105
-10.312844 877.00293 1273.5553 4283780722
-20.559633 881.5979 1272.1975 4287778169
-25.128441 883.34436 1273.67 4289952173
-22.844036 883.34436 1273.67 4289691047
-19.417431 883.34436 1273.67 4287518082
-15.990826 883.34436 1273.67 4289424284
-13.706422 883.34436 1273.67 4287592862
-11.422018 883.34436 1273.67 4287790241
-25.027523 889.27466 1272.1304 4287647091
-19.339451 889.27466 1272.1304 4287712895
-31.85321 891.01416 1273.5969 4285880933
-28.440367 891.01416 1273.5969 4285352288
-25.027523 891.01416 1273.5969 4285810539
-19.339451 891.01416 1273.5969 4287648114
-15.926605 891.01416 1273.5969 4289161105
-13.651376 891.01416 1273.5969 4288249007
-11.376146 891.01416 1273.5969 4290354639
-24.946789 896.42621 1272.9281 4286606925
-22.6789 896.42621 1272.9281 4287454809
-19.277065 896.42621 1272.9281 4287453805
-15.875229 896.42621 1272.9281 4288900247
-13.60734 896.42621 1272.9281 4287986602
-10.205505 896.42621 1272.9281 4290423773
-28.348625 898.16003 1274.39 4287923823
-24.946789 898.16003 1274.39 4286870877
-22.6789 898.16003 1274.39 4287324269
-19.277065 898.16003 1274.39 4286861422
-15.875229 898.16003 1274.39 4288833174
-13.60734 898.16003 1274.39 4287199917
-10.205505 898.16003 1274.39 4289767642
-24.866055 901.8158 1272.2404 4287526231
-22.605505 901.8158 1272.2404 4287453292
-19.21468 901.8158 1272.2404 4286596711
-15.823853 901.8158 1272.2404 4288832658
-13.563303 901.8158 1272.2404 4287132329
-10.172478 901.8158 1272.2404 4289898457
-24.866055 903.54401 1273.6975 4285943381
-22.605505 903.54401 1273.6975 4287055713
-19.21468 903.54401 1273.6975 4286660189
-15.823853 903.54401 1273.6975 4288106870
-13.563303 903.54401 1273.6975 4287064737
-10.172478 903.54401 1273.6975 4289832151
-22.513762 911.10303 1273.531 4286589781
-18.011009 911.10303 1273.531 4286658911
-15.759633 909.38184 1272.0797 4288040564
-10.131193 909.38184 1272.0797 4290094552
-24.765137 912.82422 1274.9822 4285288071
-22.513762 912.82422 1274.9822 4286590808
-18.011009 912.82422 1274.9822 4286855009
-6.7541285 912.82422 1274.9822 4289111509
-4.5027523 912.82422 1274.9822 4288850133
-24.684404 916.43372 1272.7936 4285617543
-22.440367 916.43372 1272.7936 4286394208
-4.4880733 916.43372 1272.7936 4288915413
-25.806423 918.14929 1274.2401 4286605228
-22.440367 918.14929 1274.2401 4286394208
-4.4880733 918.14929 1274.2401 4288848585
-33.522934 923.9198 1272.5654 4286212254
-25.700916 923.9198 1272.5654 4285818779
-22.348623 923.9198 1272.5654 4285868906
-20.113762 923.9198 1272.5654 4286526837
-16.761467 923.9198 1272.5654 4287052638
-13.409174 923.9198 1272.5654 4286468471
-11.174312 923.9198 1272.5654 4286402678
-7.8220181 923.9198 1272.5654 4286405756
-34.640366 925.62836 1274.0061 4284244072
-31.288073 925.62836 1274.0061 4284179071
-29.053211 925.62836 1274.0061 4284507780
-25.700916 925.62836 1274.0061 4285360529
-22.348623 925.62836 1274.0061 4285548425
-20.113762 925.62836 1274.0061 4284890752
-16.761467 925.62836 1274.0061 4286399332
-7.8220181 925.62836 1274.0061 4285157211
-4.4697247 925.62836 1274.0061 4284963943
-37.867889 932.60303 1274.6549 4286219179
-34.526604 931.75159 1273.937 4286088105
-31.185322 932.60303 1274.6549 4286285506
-28.957798 932.60303 1274.6549 4282930063
-25.616514 932.60303 1274.6549 4282139236
-22.275229 931.75159 1273.937 4284700006
-20.047707 932.60303 1274.6549 4284108649
-16.706421 932.60303 1274.6549 4284241017
-13.365138 931.75159 1273.937 4285883525
-11.137614 931.75159 1273.937 4285225595
-7.7963305 931.75159 1273.9369 4285026924
-4.4550457 931.75159 1273.937 4285093747
-4.4256883 943.06805 1273.0145 4284237655
-2.2128441 943.91394 1273.7278 4283909973
-25.342201 952.09021 1274.0815 4283125116
-22.036697 952.09021 1274.0815 4284246659
-19.833027 952.09021 1274.0815 4284312452
-16.527523 952.09021 1274.0815 4283851901
-2.2036698 952.09021 1274.0815 4283648589
-28.552294 958.93164 1274.6179 4289376996
-24.891745 958.37189 1274.146 4283526086
-21.963303 957.2525 1273.2021 4279906179
-6.5889907 958.93164 1274.6179 4283581792
-2.1963303 958.09204 1273.91 4283908690
-16.417431 962.39246 1272.3038 4287078088
-10.944954 962.39246 1272.3038 4281748603
-8.7559633 962.39246 1272.3038 4282464079
-17.511927 964.06598 1273.7148 4289838062
-8.7559633 964.06598 1273.7148 4282198351
-46.262386 761.23413 1277.9684 4287398077
-43.827522 760.30341 1277.1836 4287464633
-43.629356 769.17896 1276.8191 4287927742
-43.464222 776.53674 1276.4828 4286938030
-41.049541 776.53674 1276.4828 4287924925
-38.634861 776.53674 1276.4828 4288188885
-2.4146788 776.53674 1276.4828 4290493428
-40.893578 782.93982 1275.3417 4289440224
-37.285324 782.93982 1275.3417 4289178095
-33.677063 782.93982 1275.3417 4288784105
-31.271559 782.93982 1275.3417 4288718312
-28.866055 782.93982 1275.3417 4288390896
-4.8110094 782.93982 1275.3417 4290362091
-2.4055047 782.93982 1275.3417 4290362091
-45.704586 784.77881 1276.8922 4287928255
-43.299084 784.77881 1276.8922 4287534794
-40.893578 784.77881 1276.8922 4288653018
-37.285324 784.77881 1276.8922 4288784370
14.433027 784.77881 1276.8922 4290493680
-40.737614 791.14691 1275.7214 4288518870
-38.341286 791.14691 1275.7214 4289109739
-34.746788 791.14691 1275.7214 4287592648
-31.152294 791.14691 1275.7214 4284167558
-28.755962 791.14691 1275.7214 4286780544
-26.359632 791.14691 1275.7214 4289543850
-2.3963304 791.14691 1275.7214 4290164461
14.377981 791.14691 1275.7214 4290035444
-45.530273 792.97894 1277.2662 4288383409
-43.133945 792.97894 1277.2662 4288317380
-40.737614 792.97894 1277.2662 4289501654
-38.341286 792.97894 1277.2662 4289566430
-34.746788 792.97894 1277.2662 4288115402
-31.152294 792.97894 1277.2662 4284427412
2.3963304 792.97894 1277.2662 4290362612
-40.58165 799.31195 1276.0659 4287517561
-38.194496 799.31195 1276.0659 4287847324
-34.613762 799.31195 1276.0659 4288372638
-31.033028 799.31195 1276.0659 4287910802
-28.645872 799.31195 1276.0659 4288304279
1.193578 799.31195 1276.0659 4290230767
4.774312 799.31195 1276.0659 4290230510
-45.355965 801.13696 1277.6047 4286990704
-42.968807 801.13696 1277.6047 4287056234
-40.58165 801.13696 1277.6047 4287253612
-38.194496 801.13696 1277.6047 4287448191
-35.807339 801.13696 1277.6047 4287842949
0 801.13696 1277.6047 4289968104
4.774312 801.13696 1277.6047 4290164715
7.161468 801.13696 1277.6047 4290361837
10.742202 801.13696 1277.6047 4290493167
14.322936 801.13696 1277.6047 4290493680
-42.836697 806.90527 1277.2363 4286985575
-40.456882 806.90527 1277.2363 4286985575
-38.077065 805.99561 1276.4692 4287379825
-34.507339 805.99561 1276.4692 4287642740
-30.937614 805.08594 1275.7023 4288828297
1.1899083 805.99561 1276.4692 4289968103
4.7596331 805.99561 1276.4692 4290098921
7.1394496 806.90527 1277.2363 4290230506
10.709174 806.90527 1277.2363 4290164715
-42.671558 814.08417 1276.7491 4286655838
-40.300919 814.08417 1276.7491 4286721887
-37.930275 814.08417 1276.7491 4287179371
-34.374313 813.17798 1275.9851 4288299640
1.1853211 814.08411 1276.7491 4289902051
-42.50642 821.22803 1276.2325 4286856301
-40.144955 821.22803 1276.2325 4287777403
-37.783485 821.22803 1276.2325 4287580022
-34.241287 821.22803 1276.2325 4287643767
-42.50642 823.03333 1277.7548 4286658407
-40.144955 823.03333 1277.7548 4287711095
-37.783485 823.03333 1277.7548 4287448954
0 823.03333 1277.7548 4289836515
-39.988991 829.23596 1276.4443 4287449706
-37.636696 829.23596 1276.4443 4287383931
-7.056881 829.23596 1276.4443 4289967333
-4.704587 829.23596 1276.4443 4289967585
-2.3522935 829.23596 1276.4443 4290099172
-39.988991 831.0343 1277.9607 4287187304
-37.636696 831.0343 1277.9607 4287252093
-2.3522935 831.0343 1277.9607 4290099431
-37.48991 835.4104 1275.1105 4287252858
-35.14679 835.4104 1275.1105 4287647616
-31.632111 835.4104 1275.1105 4287976066
-7.0293579 835.4104 1275.1105 4289769957
-4.6862388 835.4104 1275.1105 4289508579
-2.3431194 835.4104 1275.1105 4289705959
-37.48991 837.20172 1276.6208 4287383159
-35.14679 837.20172 1276.6208 4287975552
-31.632111 837.20172 1276.6208 4288042113
-4.6862388 837.20172 1276.6208 4289836515
-2.3431194 837.20172 1276.6208 4290099431
-39.708256 842.82983 1276.1342 4286788702
-37.372478 842.82983 1276.1342 4287180137
-35.036697 842.82983 1276.1342 4287245931
-31.533028 842.82983 1276.1342 4288169336
-28.029358 842.82983 1276.1342 4288828572
-4.6715598 842.82983 1276.1342 4289704164
-2.3357799 842.82983 1276.1342 4289769957
-39.708256 844.61554 1277.6399 4287051105
-37.372478 844.61554 1277.6399 4287312489
-35.036697 844.61554 1277.6399 4287181160
-31.533028 844.61554 1277.6399 4287639144
-4.6715598 844.61554 1277.6399 4289967585
-2.3357799 844.61554 1277.6399 4289967585
-34.899082 850.72266 1276.249 4287647087
-32.572475 850.72266 1276.249 4287711610
-27.919266 850.72266 1276.249 4288368259
-25.592661 850.72266 1276.249 4288236673
-23.266054 850.72266 1276.249 4288300408
-20.939449 850.72266 1276.249 4288431737
-4.6532111 850.72266 1276.249 4289572828
-2.3266056 850.72266 1276.249 4290164965
-39.552292 852.50134 1277.7488 4287251311
-37.225689 852.50134 1277.7488 4287449706
-34.899082 852.50134 1277.7488 4287844464
-31.409174 852.50134 1277.7488 4287778939
-27.919266 852.50134 1277.7488 4288434306
-25.592661 852.50134 1277.7488 4289091980
-23.266054 852.50134 1277.7488 4288630916
-19.776146 852.50134 1277.7488 4287578747
-4.6532111 852.50134 1277.7488 4289770207
-2.3266056 852.50134 1277.7488 4290428136
-39.396332 860.34515 1277.8224 4287382898
-37.078899 860.34515 1277.8224 4287318890
-34.761467 859.45935 1277.0754 4287779189
-31.285322 860.34515 1277.8224 4287779718
-27.809174 860.34515 1277.8224 4288173699
-25.491743 859.45935 1277.0754 4288238726
-23.174313 859.45935 1277.0754 4288500872
-19.698166 859.45935 1277.0754 4288567952
-16.222019 859.45935 1277.0754 4288832413
-4.6348624 858.57349 1276.3285 4288915956
-2.3174312 859.45935 1277.0754 4284312494
-25.411009 865.88348 1277.26 4288564609
-23.100918 865.00049 1276.5154 4288502918
-19.63578 865.00049 1276.5154 4288438162
-16.170643 864.11743 1275.7709 4289227682
-4.6201835 864.11743 1275.7709 4282998402
-2.3100917 865.00049 1276.5154 4283854219
-34.51376 871.8952 1275.7888 4287061126
-32.212845 871.8952 1275.7888 4287779202
-28.761467 871.8952 1275.7888 4286985832
-18.407339 871.8952 1275.7888 4288631947
-16.106422 871.8952 1275.7888 4290013600
-13.805505 871.8952 1275.7888 4286409885
-9.2036695 871.8952 1275.7888 4283582053
-6.9027524 871.8952 1275.7888 4287529634
-4.6018348 871.8952 1275.7888 4290555585
-34.51376 873.6543 1277.272 4288443819
-32.212845 873.6543 1277.272 4288045722
-28.761467 873.6543 1277.272 4286397546
-25.310091 873.6543 1277.272 4287184223
-23.009174 873.6543 1277.272 4287444066
-16.106422 873.6543 1277.272 4289818006
-6.9027524 873.6543 1277.272 4287800510
-4.6018348 873.6543 1277.272 4289046750
-2.3009174 873.6543 1277.272 4288388819
-34.376148 881.38306 1277.2485 4284365909
-32.084404 880.50702 1276.5099 4286665601
-28.64679 880.50702 1276.5099 4288769700
-25.209175 879.63098 1275.7712 4287782825
-22.917431 879.63098 1275.7712 4288041597
-18.333944 879.63098 1275.7712 4287975552
-16.042202 879.63098 1275.7712 4289028240
-13.750459 879.63098 1275.7712 4287920296
-9.9308863 880.21503 1276.2637 4287924147
-6.8752294 881.38306 1277.2485 4288517294
-4.5834861 881.38306 1277.2485 4289700548
-34.266056 885.96399 1275.8789 4285420634
-31.981651 885.96399 1275.8789 4285418579
-28.555046 885.96399 1275.8789 4286073174
-25.128441 885.09076 1275.1426 4290348934
-22.844036 885.96399 1275.8789 4289161624
-19.417431 885.09076 1275.1426 4287517568
-15.990826 886.83722 1276.6152 4289227152
-13.706422 886.83722 1276.6152 4287919774
-10.66055 886.25507 1276.1244 4286607763
-6.8532109 886.83722 1276.6152 4284905368
-4.5688071 886.83722 1276.6152 4281034136
-2.2844036 886.83722 1276.6152 4281363101
-31.85321 892.75354 1275.0636 4286937703
-28.440367 892.75354 1275.0636 4287067500
-22.752293 892.75354 1275.0636 4286730333
-15.926605 892.75354 1275.0636 4288965525
-13.651376 892.75354 1275.0636 4288118704
-10.238532 892.75354 1275.0636 4290161115
-37.541283 896.23242 1277.9969 4283249970
-34.128441 896.23242 1277.9969 4285817164
-31.85321 895.36267 1277.2637 4286805854
-28.440367 894.49298 1276.5303 4287858021
-6.8256879 895.36267 1277.2637 4289703136
-4.5504589 895.36267 1277.2637 4289572832
-2.2752295 895.36267 1277.2637 4289638625
-31.750458 899.89386 1275.8519 4286147923
-28.348625 899.89386 1275.8519 4287659618
-6.8036699 899.89386 1275.8519 4289308886
-4.53578 899.89386 1275.8519 4288981209
-37.420181 901.62769 1277.3138 4287859626
-31.750458 901.62769 1277.3138 4283584629
-28.348625 901.62769 1277.3138 4284632419
-6.8036699 901.62769 1277.3138 4288915413
-4.53578 901.62769 1277.3138 4288915415
-2.26789 901.62769 1277.3138 4288981209
-24.866055 905.27222 1275.1548 4285811039
-22.605505 905.27222 1275.1548 4286987106
-19.21468 905.27222 1275.1548 4286723938
-15.823853 905.27222 1275.1548 4288170876
-13.563303 905.27222 1275.1548 4286999457
-10.172478 905.27222 1275.1548 4290095066
-6.7816515 905.27222 1275.1548 4289111509
-24.866055 907.00043 1276.6119 4285288569
-22.605505 907.00043 1276.6119 4287052635
-19.21468 907.00043 1276.6119 4286855773
-13.563303 907.00043 1276.6119 4286933149
-6.7816515 907.00043 1276.6119 4289308375
-36.022018 914.54541 1276.4335 4283320962
-33.770641 914.54541 1276.4335 4281018207
-31.519266 914.54541 1276.4335 4280756804
-28.1422 914.54541 1276.4335 4286476695
-2.2513762 914.54541 1276.4335 4289244378
-36.022018 916.2666 1277.8848 4288124614
-33.770641 916.2666 1277.8848 4286545582
-31.519266 916.2666 1277.8848 4285954717
-29.267889 916.2666 1277.8848 4286415268
-2.2513762 916.2666 1277.8848 4289177807
-33.660549 919.86487 1275.6866 4287597768
-31.416513 919.86487 1275.6866 4287663813
-29.172478 919.86487 1275.6866 4288124364
-26.92844 919.86487 1275.6866 4287791038
-2.2440367 919.86487 1275.6866 4289636038
-35.904587 921.58044 1277.1332 4286080924
-31.416513 921.58044 1277.1332 4285821861
-29.172478 921.58044 1277.1332 4286216619
-4.4880733 921.58044 1277.1332 4286804100
-2.2440367 921.58044 1277.1332 4287264651
-42.462387 929.04553 1276.8873 4284768880
-40.227524 928.19122 1276.167 4285230468
-37.992661 928.19122 1276.167 4285756812
-34.640366 927.33691 1275.4468 4284968583
-31.288073 928.19122 1276.167 4284641950
-29.053211 928.19122 1276.167 4282142072
-25.700916 928.19122 1276.167 4282205034
-22.348623 927.33691 1275.4468 4286143615
-20.113762 928.19122 1276.167 4286869123
-16.761467 928.19116 1276.167 4286276224
-4.4697247 927.33691 1275.4468 4285031535
-2.2348623 928.19122 1276.167 4285687932
-40.095413 934.30603 1276.0908 4285165964
-37.867889 934.30603 1276.0908 4286087066
-34.526604 934.30603 1276.0908 4286548916
-31.185322 934.30603 1276.0908 4286680000
-28.957798 934.30603 1276.0908 4283653266
-25.616514 934.30603 1276.0908 4282796651
-22.275229 934.30603 1276.0908 4284305779
-20.047707 934.30603 1276.0908 4284108143
-15.592661 934.30603 1276.0908 4286014334
-13.365138 934.30603 1276.0908 4285555593
-7.7963305 934.30603 1276.0908 4284106071
-4.4550457 934.30603 1276.0908 4284106839
-40.095413 936.00897 1277.5266 4284046977
-37.867889 936.00897 1277.5266 4284244612
-34.526604 936.00897 1277.5266 4284050075
-31.185322 936.00897 1277.5266 4285756331
-28.957798 936.00897 1277.5266 4283519370
-25.616514 936.00897 1277.5266 4283254631
-22.275229 936.00897 1277.5266 4284567931
-20.047707 936.00897 1277.5266 4284765309
-16.706421 936.00897 1277.5266 4284829276
-13.365138 936.00897 1277.5266 4284696952
-11.137614 936.00897 1277.5266 4284434037
-7.7963305 936.00897 1277.5266 4284303962
-4.4550457 936.00897 1277.5266 4284303962
-2.2275229 936.00897 1277.5266 4284303962
-22.201836 941.24152 1276.7064 4284762496
-15.541285 941.24152 1276.7064 4284632400
-13.321101 941.24152 1276.7064 4284042593
-11.100918 941.24152 1276.7064 4284108386
-7.7706423 941.24152 1276.7064 4283845463
-4.4403667 939.54419 1275.2753 4284106839
-2.2201834 939.54419 1275.2753 4284238168
-22.128441 948.14331 1277.2938 4283388804
-19.915596 948.14331 1277.2938 4283191168
-15.489908 948.14331 1277.2938 4284704872
-26.444036 953.7749 1275.5021 4280040273
-30.851376 955.45966 1276.9226 4288720601
-28.647707 955.45966 1276.9226 4288062414
-26.444036 955.45966 1276.9226 4283531704
-30.748625 961.45032 1276.7416 4288785107
-28.552294 961.45032 1276.7416 4289969381
-25.257797 961.45032 1276.7416 4290233340
-21.963303 961.45032 1276.7416 4290102527
-19.766972 961.45032 1276.7416 4289049842
-15.374312 962.28986 1277.4495 4289048546
-13.177981 961.45032 1276.7416 4287470532
-10.981651 962.28986 1277.4495 4283125875
-6.5889907 961.45032 1276.7416 4283646819
-4.3926606 961.45032 1276.7416 4283450197
-16.417431 965.7395 1275.126 4290362869
-10.944954 965.7395 1275.126 4284243609
-8.7559633 965.7395 1275.126 4282725961
-17.511927 967.41296 1276.537 4289639402
-46.436699 754.737 1279.0303 4288055739
0 754.737 1279.0303 4290492144
-46.436699 756.60547 1280.6058 4288120521
1.2220184 756.60547 1280.6058 4290493680
-46.262386 763.09564 1279.538 4288123322
-43.827522 763.09564 1279.538 4287598009
-46.053211 772.88513 1279.9441 4287593918
1.2119266 773.81165 1280.7252 4290690039
13.331193 773.81165 1280.7252 4290822386
-43.464222 778.38275 1278.0393 4288189889
-41.049541 778.38275 1278.0393 4289374420
13.280734 778.38275 1278.0393 4290559730
-45.878899 780.22882 1279.5958 4288584386
-43.464222 780.22882 1279.5958 4288321487
1.2073394 780.22882 1279.5958 4290164983
9.6587152 780.22882 1279.5958 4290493680
13.280734 780.22882 1279.5958 4290428144
-49.312843 787.53741 1279.2183 4286611619
-45.704586 787.53735 1279.2183 4286876080
-43.299084 787.53735 1279.2183 4286940608
-40.893578 786.61786 1278.4429 4288849116
-38.488075 786.61786 1278.4429 4289505527
1.2027524 787.53735 1279.2183 4290296303
4.8110094 788.45691 1279.9935 4289968113
7.2165136 788.45691 1279.9935 4290033906
9.6220188 787.53735 1279.2183 4290100210
12.829358 787.2309 1278.9598 4290428917
-46.728439 794.81097 1278.8109 4286400377
-43.133945 794.81097 1278.8109 4287454096
-40.737614 794.81097 1278.8109 4287980440
-38.341286 794.81097 1278.8109 4288574656
-35.944954 794.81097 1278.8109 4288179898
1.1981652 794.81097 1278.8109 4290231023
4.7926607 794.81097 1278.8109 4290296814
7.1889906 794.81097 1278.8109 4290296814
11.981651 794.81097 1278.8109 4290362608
14.377981 794.81097 1278.8109 4290428405
-52.719265 796.64294 1280.3556 4285410906
-50.322937 796.64294 1280.3556 4285410906
-46.728439 796.64294 1280.3556 4286002276
-43.133945 796.64294 1280.3556 4286201701
7.1889906 796.64294 1280.3556 4290493426
10.783486 796.64294 1280.3556 4290493680
14.377981 796.64294 1280.3556 4290493428
-42.968807 802.96198 1279.1434 4287516012
-40.58165 802.96198 1279.1434 4287516012
7.161468 802.96198 1279.1434 4290164715
10.742202 802.96198 1279.1434 4290164717
14.322936 802.96198 1279.1434 4290361837
-46.549541 804.78699 1280.6823 4286659174
14.322936 804.78699 1280.6823 4290361837
-46.406422 808.72467 1278.7704 4286658144
-42.836697 808.72467 1278.7704 4286919017
1.1899083 808.72467 1278.7704 4290034140
4.7596331 808.72467 1278.7704 4290164965
7.1394496 808.72467 1278.7704 4290428136
10.709174 808.72467 1278.7704 4290427623
-46.406422 810.54407 1280.3044 4286525524
4.7596331 810.54407 1280.3044 4290032613
7.1394496 810.54407 1280.3044 4290229736
9.5192661 810.54407 1280.3044 4290361578
-46.227524 817.70898 1279.8054 4286593117
-42.671558 816.80273 1279.0414 4286789995
-40.300919 816.80273 1279.0414 4287447668
1.1853211 817.70898 1279.8054 4289836515
4.7412844 817.70892 1279.8054 4289902563
-47.229359 824.83875 1279.277 4286395741
-43.687157 824.83875 1279.277 4286658659
-40.144955 824.83875 1279.277 4287908471
1.1807339 824.83875 1279.277 4289770724
-47.229359 826.6441 1280.7992 4286528093
-43.687157 826.6441 1280.7992 4286725728
1.1807339 826.6441 1280.7992 4289902563
-42.341286 832.83264 1279.4771 4287187563
-39.988991 832.83264 1279.4771 4287319405
-47.045872 834.63098 1280.9934 4286265436
-43.517433 834.63098 1280.9934 4286659678
-39.988991 834.63098 1280.9934 4287514216
0 834.63098 1280.9934 4290099172
-39.833027 838.99304 1278.1312 4287116130
-37.48991 838.99304 1278.1312 4287245929
-2.3431194 838.99304 1278.1312 4289901540
-46.862385 840.78436 1279.6416 4286130781
-43.347706 840.78436 1279.6416 4286459742
-49.051376 848.18701 1280.6511 4286201190
-46.715595 848.18701 1280.6511 4286333280
-43.211929 848.18701 1280.6511 4286660707
-39.708256 847.29413 1279.8983 4286987619
-37.372478 847.29413 1279.8983 4287383398
-35.036697 846.40125 1279.1455 4287580261
-31.14373 846.99652 1279.6473 4287445878
-2.3357799 846.40125 1279.1455 4290428121
-39.552292 854.28009 1279.2485 4287317618
-37.225689 854.28009 1279.2485 4287187050
-34.899082 854.28009 1279.2485 4287845236
-31.409174 854.28009 1279.2485 4287779452
-27.919266 854.28009 1279.2485 4288106886
-25.592661 854.28009 1279.2485 4288567437
-19.776146 854.28009 1279.2485 4288371595
-2.3266056 854.28009 1279.2485 4288322772
-40.715595 856.05878 1280.7483 4287054702
-37.225689 856.05878 1280.7483 4287252593
-31.409174 856.05878 1280.7483 4287779456
-27.919266 856.05878 1280.7483 4288106886
-37.078899 863.88855 1280.8101 4286783051
-34.761467 863.00269 1280.0631 4287707739
-31.67156 863.29803 1280.3121 4287772790
-27.809174 863.00269 1280.0631 4288039547
-25.491743 862.11688 1279.3162 4288304513
-18.53945 862.11688 1279.3162 4288240787
0 863.00269 1280.0631 4286349496
-36.961468 869.41565 1280.2383 4286995332
-34.651375 867.6496 1278.7491 4286392657
-31.186239 867.6496 1278.7491 4286984543
-27.721102 867.6496 1278.7491 4287839864
-23.100918 869.41565 1280.2383 4287771232
-2.3100917 868.53259 1279.4937 4290096821
-36.814678 875.41333 1278.7551 4287655314
-34.51376 875.41333 1278.7551 4288247451
-6.9027524 875.41333 1278.7551 4284377995
-4.6018348 875.41333 1278.7551 4282866080
-2.3009174 875.41333 1278.7551 4281879185
-36.814678 877.17242 1280.2384 4286735213
-34.51376 877.17242 1280.2384 4287590522
-6.9027524 877.17242 1280.2384 4286216882
-4.6018348 877.17242 1280.2384 4283980965
-2.3009174 877.17242 1280.2384 4282336141
-41.251377 884.88721 1280.2031 4285752663
-36.667889 884.01117 1279.4645 4285223255
-16.042202 883.13513 1278.7258 4289555361
-13.750459 883.13513 1278.7258 4287525005
-9.1669722 883.13513 1278.7258 4286611836
-6.8752294 883.13513 1278.7258 4287138180
-4.5834861 883.13513 1278.7258 4288062124
-2.291743 883.13513 1278.7258 4288917432
-41.119267 888.58368 1278.0878 4286080081
-38.834862 888.58368 1278.0878 4287132770
-34.266056 889.45691 1278.824 4286936146
-22.844036 888.58368 1278.0878 4287516518
-9.1376143 888.58368 1278.0878 4288257747
-6.8532109 889.45691 1278.824 4288256975
-4.5688071 889.45691 1278.824 4286877651
-2.2844036 889.45691 1278.824 4286483150
-45.504585 899.7113 1280.9302 4283977590
-43.229359 899.7113 1280.9302 4283582833
-40.954128 898.84155 1280.1969 4284106084
-37.541283 897.97186 1279.4636 4282988375
-34.128441 898.84155 1280.1969 4284965250
-2.2752295 897.97186 1279.4636 4289047002
1.1376147 899.7113 1280.9302 4289179098
-46.491745 905.09534 1280.2377 4282133313
-43.089909 905.09534 1280.2377 4283511870
-40.822018 904.22839 1279.5067 4283449692
-37.420181 904.22845 1279.5067 4287265703
-34.018349 904.22839 1279.5067 4287660478
-31.750458 904.22839 1279.5067 4287921337
-28.348625 904.22845 1279.5067 4286538384
-4.53578 904.22839 1279.5067 4288915414
-2.26789 904.22839 1279.5067 4288981207
-36.168808 908.72864 1278.0691 4285357949
-33.908257 908.72864 1278.0691 4287200153
-31.647707 908.72864 1278.0691 4288646815
-28.256882 908.72864 1278.0691 4288644780
-24.866055 908.72864 1278.0691 4285023616
-6.7816515 908.72864 1278.0691 4289111511
-4.521101 908.72864 1278.0691 4288915415
-37.299084 910.45685 1279.5264 4283053663
-33.908257 910.45685 1279.5264 4282855282
-31.647707 910.45685 1279.5264 4283120987
-28.256882 910.45685 1279.5264 4287461283
-2.2605505 910.45685 1279.5264 4289047513
-40.689907 912.18506 1280.9835 4284242030
-38.429359 912.18506 1280.9835 4284373872
-36.022018 917.98779 1279.3361 4288387284
-38.273396 919.70905 1280.7874 4284829556
0 919.70905 1280.7874 4288711845
-40.392662 923.29602 1278.5797 4283056416
-38.148624 923.29602 1278.5797 4283385638
-2.2440367 923.29602 1278.5797 4286345596
0 925.0116 1280.0262 4285492085
-49.166973 932.46265 1279.7686 4282928462
-46.93211 932.46265 1279.7686 4283059791
-43.20734 931.89313 1279.2885 4283389784
-40.227524 930.75409 1278.328 4284969112
-17.878899 932.46265 1279.7686 4284369253
-11.174312 932.46265 1279.7686 4283844976
-2.2348623 931.6084 1279.0483 4284172381
-40.095413 937.71198 1278.9625 4283980641
-37.867889 937.71198 1278.9625 4284573034
-34.526604 937.71198 1278.9625 4284441487
-31.185322 937.71198 1278.9625 4284507521
-28.957798 937.71198 1278.9625 4283125868
-25.616514 937.71198 1278.9625 4283124333
-22.275229 937.71198 1278.9625 4284501888
-20.047707 937.71198 1278.9625 4285422990
-16.706421 937.71198 1278.9625 4285026644
-13.365138 937.71198 1278.9625 4283910754
-11.137614 937.71198 1278.9625 4283910754
-7.7963305 937.71198 1278.9625 4284237918
-42.322937 939.41492 1280.3984 4282465625
-40.095413 939.41492 1280.3984 4282725729
-37.867889 939.41492 1280.3984 4282988645
-34.526604 939.41492 1280.3984 4283649393
-31.185322 939.41492 1280.3984 4283979137
-28.957798 939.41492 1280.3984 4283255671
-25.616514 939.41492 1280.3984 4283189094
-20.047707 939.41492 1280.3984 4286933664
-17.820183 939.41492 1280.3984 4286474604
1.1137614 939.41492 1280.3984 4284237655
-24.422018 944.63623 1279.5687 4282274684
-22.201836 943.78754 1278.8531 4283058040
-19.981651 943.78754 1278.8531 4284900501
-16.651375 943.7876 1278.8531 4284899675
-13.321101 943.78754 1278.8531 4284504676
-11.100918 943.78754 1278.8531 4283912539
-8.8807335 943.78754 1278.8531 4283779414
-4.4403667 944.63623 1279.5687 4283516749
0 944.63623 1279.5687 4283975251
-25.53211 946.33356 1280.9999 4284113049
-17.761467 946.33356 1280.9999 4284441444
-13.321101 946.33356 1280.9999 4284176476
-11.100918 946.33356 1280.9999 4283321423
-8.8807335 946.33356 1280.9999 4283714132
-4.4403667 946.33356 1280.9999 4283843401
-13.277064 949.83502 1278.7202 4283254622
-11.06422 949.83502 1278.7202 4283254622
0 949.83502 1278.7202 4284106319
-30.979816 951.52673 1280.1466 4280631419
-28.766972 951.52673 1280.1466 4279249766
1.1064221 951.52673 1280.1466 4283909197
-33.055046 957.98669 1279.0532 4288785375
-30.851376 957.14435 1278.343 4289245410
-2.2036698 958.8291 1279.7635 4283516499
-30.748625 964.80853 1279.5731 4287861949
-28.552294 964.80853 1279.5731 4287993278
-25.257797 964.80847 1279.5731 4288191431
-21.963303 964.80853 1279.5731 4289046982
-19.766972 964.80853 1279.5731 4289376204
-15.374312 965.64807 1280.281 4290363125
-13.177981 964.80853 1279.5731 4290230004
-10.981651 965.64807 1280.281 4285558703
-7.3211007 965.08838 1279.8091 4282989149
-4.3926606 964.80853 1279.5731 4283318096
-2.1963303 964.80853 1279.5731 4283515218
16.838531 964.52863 1279.3372 4283449673
-48.880733 758.474 1282.1813 4287069112
1.2220184 758.474 1282.1813 4290493680
4.8880734 758.474 1282.1813 4290559732
-48.880733 760.34247 1283.7567 4288189115
1.2220184 760.34247 1283.7567 4290559471
4.8880734 760.34247 1283.7567 4290559732
7.3321099 760.34247 1283.7567 4290625525
-46.262386 764.95709 1281.1075 4288190407
1.2174312 764.95709 1281.1075 4290691057
-46.262386 766.8186 1282.6771 4288714437
1.2174312 766.8186 1282.6771 4290625264
4.8697248 766.8186 1282.6771 4290559480
-46.053211 775.66467 1282.2877 4288124614
1.2119266 775.66467 1282.2877 4290361588
4.8477063 775.66467 1282.2877 4290559219
7.2715597 775.66467 1282.2877 4290559219
9.6954126 775.66467 1282.2877 4290493680
-49.688992 777.5177 1283.8501 4288123828
4.8477063 777.5177 1283.8501 4290559732
7.2715597 777.5177 1283.8501 4290428403
-49.500916 782.07483 1281.1523 4287796404
1.2073394 782.07483 1281.1523 4290099697
4.8293576 782.07483 1281.1523 4290559734
7.2440367 782.07483 1281.1523 4290362612
9.6587152 782.07483 1281.1523 4290034160
12.073395 782.07483 1281.1523 4290297076
-55.537613 783.9209 1282.709 4286741146
-53.122936 783.9209 1282.709 4286742421
4.8293576 783.9209 1282.709 4290296562
7.2440367 783.9209 1282.709 4290296562
-57.732109 790.2959 1281.5442 4286144137
-55.326607 790.2959 1281.5442 4287196568
-52.921101 790.2959 1281.5442 4287263649
-49.312843 790.2959 1281.5442 4287593125
0 790.2959 1281.5442 4290164976
4.8110094 790.2959 1281.5442 4290230769
7.2165136 790.2959 1281.5442 4290230769
9.6220188 790.2959 1281.5442 4290166000
13.230275 790.2959 1281.5442 4290494710
-61.340366 792.13495 1283.0947 4285157490
-57.732109 792.13495 1283.0947 4285416814
-55.326607 792.13495 1283.0947 4285679986
-52.921101 792.13495 1283.0947 4286073976
-50.515594 792.13495 1283.0947 4286008183
9.6220188 792.13495 1283.0947 4290296814
-52.719265 799.39099 1282.6726 4286135653
-50.322937 799.39099 1282.6726 4286201446
-47.127827 799.69629 1282.9302 4286727019
-50.130276 806.61194 1282.2211 4286463065
14.322936 806.61194 1282.2211 4290230510
-54.904587 808.43701 1283.7599 4285410643
-52.517429 808.43701 1283.7599 4285671500
-50.130276 808.43701 1283.7599 4285671500
11.93578 808.43701 1283.7599 4290361578
14.322936 808.43701 1283.7599 4290032877
-49.976147 812.36346 1281.8385 4285473608
-46.406422 812.36346 1281.8385 4286394708
4.7596331 812.36346 1281.8385 4289901288
7.1394496 812.36346 1281.8385 4290098668
9.5192661 812.36346 1281.8385 4290098922
-52.355965 814.18286 1283.3726 4286068307
-49.976147 814.18286 1283.3726 4286068307
7.1394496 814.18286 1283.3726 4289836515
10.709174 814.18286 1283.3726 4289902056
14.278899 814.18286 1283.3726 4290165998
-49.783485 820.42749 1282.0977 4286134613
-46.227524 820.42749 1282.0977 4286658143
2.3706422 820.42749 1282.0977 4289902309
4.7412844 820.42749 1282.0977 4289640419
-52.154129 822.23987 1283.6259 4286002262
-49.783485 822.23987 1283.6259 4286265434
4.7412844 822.23987 1283.6259 4289574374
7.1119266 822.23987 1283.6259 4289771754
-51.952293 830.25482 1283.8436 4285871957
-49.590824 830.25482 1283.8436 4286069336
-47.229359 829.35217 1283.0825 4286396766
-44.080734 829.05127 1282.8287 4286594400
1.1807339 829.35211 1283.0825 4289705956
-49.398167 836.42932 1282.5096 4285869143
-47.045872 836.42932 1282.5096 4286329178
-43.517433 836.42932 1282.5096 4286525275
0 836.42932 1282.5096 4289966820
-49.205505 842.57568 1281.1521 4285871194
-46.862385 842.57568 1281.1521 4286394971
-43.347706 842.57568 1281.1521 4286657116
-49.205505 844.36707 1282.6625 4286069340
-46.862385 844.36707 1282.6625 4286528604
-43.347706 844.36707 1282.6625 4286725215
-49.051376 850.8656 1282.9097 4286200938
-46.715595 850.8656 1282.9097 4286267490
-43.211929 850.8656 1282.9097 4286529125
0.7785933 851.16327 1283.1606 4287402431
-48.858715 857.83752 1282.248 4285738588
-46.532108 857.83752 1282.248 4286329698
-41.878899 857.83752 1282.248 4286659174
0 857.83752 1282.248 4278203764
-48.858715 859.61621 1283.7478 4285344346
-46.532108 859.61621 1283.7478 4286067042
-44.205505 859.61621 1283.7478 4286329957
-40.715595 859.61621 1283.7478 4286921311
-37.225689 859.61621 1283.7478 4287645274
-30.245872 859.61621 1283.7478 4288764049
2.3266056 859.61621 1283.7478 4283325852
-39.396332 865.66028 1282.304 4285144402
-37.078899 865.66028 1282.304 4286129484
1.1587156 865.66028 1282.304 4289769450
-40.555046 867.43195 1283.7977 4287063954
0 867.43195 1283.7977 4287472079
-40.041592 872.35913 1282.7201 4287323791
-36.961468 871.18176 1281.7273 4287917475
0 872.06482 1282.4719 4282734728
11.550459 872.94781 1283.2164 4287472857
-40.266056 878.93152 1281.7216 4283445559
-36.814678 878.93152 1281.7216 4284037201
-2.3009174 878.93152 1281.7216 4289832390
13.805505 878.93152 1281.7216 4290756332
16.106422 878.93152 1281.7216 4290229988
-43.71743 880.69055 1283.2048 4284105554
-40.266056 880.69055 1283.2048 4283843401
1.1504587 880.69055 1283.2048 4288191659
11.504587 880.69055 1283.2048 4289242786
13.805505 880.69055 1283.2048 4289703132
16.106422 880.69055 1283.2048 4290361063
-43.543118 886.63922 1281.6804 4285883468
-36.667889 886.63922 1281.6804 4286738766
0 886.63922 1281.6804 4282538383
-45.834862 888.3913 1283.1577 4284829752
-43.543118 888.3913 1283.1577 4285685060
-41.251377 888.3913 1283.1577 4286277461
-37.813759 888.3913 1283.1577 4287133019
1.1458715 888.3913 1283.1577 4288390607
-45.688072 892.94977 1281.769 4284831581
-43.403671 893.823 1282.5054 4283581790
-41.119267 892.94977 1281.769 4284237634
-36.550457 892.07654 1281.0328 4286476112
-34.266056 892.07654 1281.0328 4287002456
-46.830276 895.56946 1283.978 4285949325
-43.403671 895.56946 1283.978 4283516528
1.1422018 895.56946 1283.978 4289179101
-46.6422 901.45068 1282.3969 4283055697
-43.229359 901.45068 1282.3969 4284042328
1.1376147 901.45068 1282.3969 4289244890
-50.055046 903.19019 1283.8635 4281280845
1.1376147 903.19019 1283.8635 4289113306
-46.491745 907.69604 1282.4305 4283911271
-43.089909 907.69604 1282.4305 4283253847
-40.822018 907.69604 1282.4305 4282529856
-38.554127 906.8291 1281.6996 4283123528
-2.26789 906.8291 1281.6996 4289047002
0 908.56293 1283.1615 4289048280
-46.341286 913.91327 1282.4407 4286085270
-42.950459 913.91327 1282.4407 4286415514
-40.689907 913.91327 1282.4407 4287467702
-38.429359 913.91327 1282.4407 4288125631
0 913.91327 1282.4407 4288719565
-46.341286 915.64148 1283.8978 4285820026
-42.950459 915.64148 1283.8978 4287465355
-40.689907 915.64148 1283.8978 4288582850
-38.429359 915.64148 1283.8978 4289569745
0 915.64148 1283.8978 4289505736
-49.530273 923.15143 1283.6898 4281546320
-46.153214 923.15143 1283.6898 4281610317
-42.776146 922.29083 1282.9641 4283450215
1.1256881 922.29083 1282.9641 4286544508
4.5027523 923.15143 1283.6898 4286016381
-47.124771 926.72723 1281.4728 4281676882
-44.880733 926.72723 1281.4728 4282005574
1.1220183 926.72723 1281.4728 4285621618
-47.124771 928.44275 1282.9193 4283059541
-44.880733 928.44275 1282.9193 4282206283
1.1220183 928.44275 1282.9193 4283779164
-49.166973 934.1712 1281.2092 4282072144
-46.93211 935.87976 1282.6499 4281413969
-43.20734 935.31024 1282.1697 4282599005
1.1174312 935.87976 1282.6499 4283845207
-42.322937 941.11786 1281.8344 4282861663
-40.095413 941.11786 1281.8344 4282859637
-37.867889 941.11786 1281.8344 4282070377
-34.526604 941.11786 1281.8344 4283190375
-31.185322 941.11786 1281.8344 4283717755
-28.957798 941.11786 1281.8344 4282730860
-25.616514 941.11786 1281.8344 4282140515
-6.682569 941.11786 1281.8344 4283648085
1.1137614 941.11786 1281.8344 4284041044
-42.322937 942.8208 1283.2703 4283388007
-37.867889 942.8208 1283.2703 4283783811
-34.526604 942.8208 1283.2703 4284638852
-31.185322 942.8208 1283.2703 4285101970
-28.957798 942.8208 1283.2703 4284444040
-26.730276 942.8208 1283.2703 4283195786
-6.682569 942.8208 1283.2703 4283648085
2.2275229 942.8208 1283.2703 4283975251
4.4550457 942.8208 1283.2703 4283974990
-42.183487 949.72827 1283.8622 4283850897
-37.743118 949.72827 1283.8622 4282733170
-34.412842 949.72827 1283.8622 4281682042
-31.082569 948.03088 1282.431 4281346157
-28.862385 948.03088 1282.431 4282464381
-7.7706423 948.03088 1282.431 4283647835
2.2201834 948.03088 1282.431 4284106319
4.4403667 949.72827 1283.8622 4283843147
-42.044037 953.21851 1281.573 4286943159
-37.618347 953.21851 1281.573 4288059836
-34.299084 953.21851 1281.573 4288652241
1.1064221 953.21851 1281.573 4283909197
4.4256883 953.21851 1281.573 4283187016
6.6385322 953.21851 1281.573 4283582031
11.06422 953.21851 1281.573 4283516749
-49.78899 954.91022 1282.9995 4286939813
-42.044037 954.91022 1282.9995 4287401913
-39.831192 954.91022 1282.9995 4288258235
-37.618347 954.91022 1282.9995 4288850372
-35.405506 954.91022 1282.9995 4288916449
1.1064221 954.91022 1282.9995 4283909197
4.4256883 954.91022 1282.9995 4283384397
6.6385322 954.91022 1282.9995 4283515983
11.06422 954.91022 1282.9995 4283253577
-55.091743 962.19855 1282.6046 4288125629
-52.888073 962.19855 1282.6046 4287995329
-50.684402 961.3562 1281.8943 4288191422
-44.073395 962.19855 1282.6046 4287798202
-37.462387 961.3562 1281.8943 4287863741
-34.156883 961.3562 1281.8943 4288191686
-2.2036698 960.51379 1281.1841 4283515481
13.222018 961.3562 1281.8943 4283711811
16.527523 960.51379 1281.1841 4283581000
-30.748625 967.32721 1281.6969 4287929281
-28.552294 967.32721 1281.6969 4287732159
-25.257797 967.32721 1281.6969 4287796921
-21.963303 967.32721 1281.6969 4287861426
-19.766972 967.32721 1281.6969 4287861426
-16.472477 967.32721 1281.6969 4288388820
-13.177981 967.32721 1281.6969 4289770733
-10.981651 967.32721 1281.6969 4285889203
-7.6871557 967.32721 1281.6969 4283452516
-4.3926606 967.32721 1281.6969 4283185998
-2.1963303 967.32721 1281.6969 4283712343
-16.472477 969.00635 1283.1127 4288060093
-13.177981 969.00635 1283.1127 4289440474
-10.981651 969.00635 1283.1127 4286742961
-7.6871557 969.00635 1283.1127 4283321457
-4.3926606 969.00635 1283.1127 4282791754
21.889908 975.78052 1283.5923 4283186502
-51.517429 754.77606 1285.6035 4287266977
-49.06422 753.83832 1284.8127 4287791299
4.9064221 753.83832 1284.8127 4290625266
7.359633 754.77606 1285.6035 4290559474
9.8128443 755.71381 1286.3942 4290559219
12.266055 755.71381 1286.3942 4290822390
-51.324772 764.07947 1286.9076 4288188329
-48.880733 763.1452 1286.1199 4288189378
4.8880734 762.21094 1285.3322 4290625527
7.3321099 763.1452 1286.1199 4290691321
9.7761469 763.1452 1286.1199 4290493937
13.442202 763.14526 1286.1199 4290427888
-51.132111 770.5415 1285.8162 4287264942
-48.697247 769.61078 1285.0314 4287198904
1.2174312 768.68005 1284.2466 4290558707
4.8697248 769.61078 1285.0314 4290493681
7.3045874 769.61078 1285.0314 4290822646
9.7394495 769.61078 1285.0314 4290756848
13.391743 768.68005 1284.2466 4290691057
-55.537613 785.76697 1284.2655 4286344603
-53.122936 785.76697 1284.2655 4286083736
-61.57431 787.61298 1285.822 4285947773
-61.340366 793.974 1284.6454 4284693859
-57.732109 793.974 1284.6454 4284822617
-55.326607 793.974 1284.6454 4284756824
-61.340366 795.81299 1286.196 4285017693
-57.732109 795.81299 1286.196 4285740639
-55.326607 795.81299 1286.196 4285806432
