# .PCD v0.7 - Point Cloud Data file format
VERSION 0.7
FIELDS x y z rgb
SIZE 4 4 4 4
TYPE F F F U
COUNT 1 1 1 1
WIDTH 1172
HEIGHT 1
VIEWPOINT 0 0 0 1 0 0 0
POINTS 1172
DATA ascii
33.445873 889.20337 785.48303 4293580000
13.506422 891.81116 785.0658 4292028488
16.684402 891.81116 785.0658 4292804652
19.862385 891.81116 785.0658 4293397310
23.040367 891.81116 785.0658 4294339227
25.423853 891.81116 785.0658 4293497003
27.807339 891.81116 785.0658 4294560478
30.190826 891.81116 785.0658 4293776609
14.26789 895.62537 785.66577 4292890746
16.910093 895.22137 785.32513 4292552522
19.816515 895.01935 785.15479 4292215071
22.987156 895.01941 785.15479 4293541501
26.422018 895.22137 785.32513 4294420167
28.53578 895.01941 785.15479 4294498534
30.913761 895.62537 785.66577 4293710304
34.084404 895.62537 785.66577 4293252063
17.337614 902.70184 785.09241 4292231021
19.701836 902.70184 785.09241 4292613430
22.85413 902.70184 785.09241 4294213440
28.370642 902.70184 785.09241 4294169572
20.442202 905.28021 784.65027 4294922553
22.014679 905.28021 784.65027 4293232966
19.655964 906.48242 785.66394 4293017926
22.800919 906.48242 785.66394 4294093881
25.945873 906.48242 785.66394 4293898161
29.090824 906.48242 785.66394 4293972441
31.449541 906.48242 785.66394 4293514968
33.022018 906.48242 785.66394 4293514968
25.100918 909.05231 785.21484 4289888383
28.238533 909.05231 785.21484 4293972957
14.020184 917.91943 784.84314 4292873018
14.020184 919.11041 785.84729 4293005372
16.35688 919.11041 785.84729 4292873004
19.472477 919.11041 785.84729 4291953200
21.809174 919.11041 785.84729 4291446552
15.541285 921.65234 785.37451 4292939567
26.357798 925.37396 785.89648 4294939234
27.908257 925.37396 785.89648 4293447617
23.201836 927.90179 785.41187 4292083737
25.431194 929.91565 783.18567 4291907706
27.74312 929.91565 783.18567 4292790709
16.954128 932.27234 785.17273 4293725778
22.348625 932.27234 785.17273 4293097899
25.431194 931.68317 784.67596 4294698190
28.256882 931.87958 784.84155 4292990668
30.825687 932.27234 785.17273 4293318620
25.370644 935.3725 785.17078 4291081700
28.445873 935.96021 785.66638 4290946257
31.521101 935.96021 785.66638 4293581279
33.827522 935.96021 785.66638 4293121498
37.798164 956.8382 784.95764 4292989146
39.310093 956.8382 784.95764 4293186267
19.655046 957.99408 785.93225 4290030978
21.922935 957.99408 785.93225 4288913042
24.946789 957.99408 785.93225 4284311425
27.970642 957.99408 785.93225 4286549607
30.238533 957.99408 785.93225 4292467179
37.798164 957.99408 785.93225 4293185755
39.310093 957.99408 785.93225 4293121244
-8.2201834 748.81329 787.44855 4286991212
44.036697 749.71106 788.20544 4293516265
-7.0238533 752.03625 786.24194 4287311694
-5.26789 752.03625 786.24194 4287969880
42.14312 752.03625 786.24194 4293647851
-10.53578 754.72113 788.50586 4287692831
-7.901835 753.37866 787.3739 4288282657
-5.2568808 754.92603 786.0625 4288282651
40.302753 754.92603 786.0625 4293582060
42.977066 754.15234 786.7182 4293515754
-10.513762 757.60535 788.32153 4288554040
-7.8853211 756.26569 787.19202 4288020507
43.22324 756.71222 787.56854 4293778413
-7.8605504 760.58563 786.9104 4288287266
-5.2403669 760.58563 786.9104 4289730604
41.340672 760.36304 786.72272 4293778411
43.669724 761.25336 787.47339 4293976555
-7.8532109 763.35681 787.93896 4288752440
-4.0672784 763.68073 786.90399 4289999183
-1.7431192 762.7923 786.15491 4290194019
37.477066 762.7923 786.15491 4293778411
40.672783 763.68073 786.90399 4294107376
43.669724 762.58875 788.59937 4293976555
-6.972477 765.45752 788.40222 4289024086
-4.3577981 765.45752 788.40222 4289483092
-1.7376146 767.75751 786.41736 4289613391
1.7376146 767.75751 786.41736 4289606227
37.358719 767.75751 786.41736 4294107883
40.900002 766.60754 787.40979 4293976813
43.57798 765.45752 788.40222 4293845485
-4.0544343 769.9715 788.28418 4291993262
40.833946 769.08594 787.53748 4293977069
43.440369 770.41437 788.65759 4293845485
-1.7321101 772.70587 786.66565 4293506759
40.704586 772.70587 786.66565 4294108142
-4.039144 775.42023 788.08234 4290549654
-1.7284404 775.55499 786.4519 4292325049
0.8642202 775.55499 786.4519 4292982995
3.4568808 775.55499 786.4519 4293051866
38.025688 775.55499 786.4519 4294238961
40.618347 776.2157 787.00891 4294107888
43.256882 775.45325 787.67413 4293977070
45.034863 775.35431 788.8988 4293912045
-4.3211012 778.19781 788.68018 4291012523
43.21101 778.19781 788.68018 4294108143
-3.4458716 781.79395 787.78833 4291080395
-1.7229358 781.13538 787.23303 4292000720
1.7229358 780.47675 786.67773 4292920803
37.904587 780.47675 786.67773 4294239220
40.77615 780.91583 787.04791 4293910766
43.073395 781.79395 787.78833 4294042609
-4.0177369 784.05377 788.82178 4289304756
-1.7192661 785.28198 788.11334 4290029769
1.1461774 783.74854 786.82031 4292069352
37.823853 783.31042 786.45093 4294238961
40.402752 784.62476 787.5592 4294107887
43.073395 783.11115 788.89893 4294240244
0.85688072 788.20551 786.65417 4290818518
39.416515 788.20551 786.65417 4294437106
-3.4275229 790.82587 788.86365 4289699496
-1.7137614 789.51569 787.75891 4288447646
0.85504586 791.02374 786.41443 4290153129
3.4201834 791.02374 786.41443 4292128177
37.622017 791.02374 786.41443 4294305263
40.559021 789.95239 788.12714 4294173938
42.844036 790.82587 788.86365 4294108404
-3.4201834 793.63849 788.61914 4290750647
-1.7100917 792.33112 787.51672 4289699496
39.902142 793.2027 788.25165 4294437108
-3.4091742 797.19531 787.69409 4290226104
-1.7045871 796.5437 787.14465 4291540935
1.7045871 795.89215 786.59521 4293250519
3.4091742 795.89215 786.59521 4293841634
37.500916 795.89215 786.59521 4294568692
40.0578 797.19531 787.69409 4294437108
-4.2614679 798.49847 788.79285 4288975003
-1.7009175 799.99536 787.43896 4289371056
1.133945 799.12848 786.70801 4291411408
4.2522936 798.69501 786.34253 4293975539
37.420185 798.69501 786.34253 4294437106
39.971558 799.99536 787.43896 4294304753
43.466972 798.49847 788.79285 4294107634
-3.401835 801.29572 788.5354 4288976039
-1.6954129 803.53674 786.50085 4290554814
1.6954129 803.53674 786.50085 4290095045
3.3908257 803.53674 786.50085 4290688201
38.994495 803.53674 786.50085 4294502897
40.689907 803.53674 786.50085 4294239992
43.373394 801.29572 788.5354 4294043124
-3.3908257 806.12909 788.68665 4290089121
-1.6954129 804.83289 787.59375 4291079360
0.84587157 806.32416 786.23499 4291211211
4.2293577 806.32416 786.23499 4291344328
6.7669725 806.32416 786.23499 4291148752
38.06422 806.32416 786.23499 4294503412
40.601833 806.32416 786.23499 4294174708
42.950459 805.69702 788.32233 4294240754
-3.3834863 808.91089 788.41602 4290019985
-1.6917431 808.26416 787.87079 4291140009
1.6917431 808.26416 787.87079 4291732937
3.3834863 807.61749 787.32556 4291671751
38.910091 807.61749 787.32556 4294569205
40.601833 808.26416 787.87079 4294240756
42.293579 808.91089 788.41602 4294174708
-1.6862385 812.42841 787.45789 4291266165
0.56207949 811.99872 787.09552 4291004077
4.2155962 811.78387 786.91443 4293707194
7.5880733 811.13928 786.37097 4293646318
38.783485 811.78381 786.91443 4294239732
40.469727 812.42841 787.45789 4294108404
-3.3724771 813.71759 788.54492 4288617772
-1.6862385 813.71759 788.54492 4289933631
0.84311926 814.45758 787.86078 4289667684
4.2100916 814.45758 787.86078 4291508059
7.5715594 814.55444 786.63434 4293566158
10.095413 813.91125 786.09204 4294698226
37.857796 814.55444 786.63434 4294370548
40.381653 815.19757 787.17664 4294239220
42.999084 813.71759 788.54492 4294107891
0 816.48395 788.26135 4289866846
4.2064219 816.48395 788.26135 4291441501
7.5467887 818.69971 786.20557 4292232564
37.797249 817.5918 787.23346 4294304500
40.381653 816.48395 788.26135 4294239474
0.83853209 821.26398 788.36768 4291056739
3.9131496 820.40924 787.64697 4291776104
38.572475 819.98187 787.28662 4294238961
40.808563 820.83661 788.00732 4294173168
43.603668 821.26398 788.36768 4293976818
0 824.01483 788.07104 4290661720
4.4623852 823.58838 787.71149 4291184238
7.5302753 822.73553 786.99243 4292364416
37.651375 822.73553 786.99243 4294305519
40.998165 824.01483 788.07104 4294238961
43.508255 824.01483 788.07104 4293977586
0 827.49316 787.07983 4290727233
4.1697249 827.49316 787.07983 4291248254
7.5055051 826.85559 786.54224 4292561289
10.007339 826.21802 786.00464 4293157750
28.354128 826.21802 786.00464 4293713896
31.689909 826.21802 786.00464 4293910248
34.191742 826.21802 786.00464 4293976302
37.805508 826.64307 786.36304 4294173423
40.863304 827.49316 787.07983 4294042350
0.83394498 828.76825 788.15491 4290317114
4.1697249 828.76825 788.15491 4290314565
7.4889908 830.23145 786.77258 4292621666
38.277065 830.23145 786.77258 4293977840
40.819267 829.49988 787.46375 4294108141
43.365139 828.76825 788.15491 4293909994
0.55474007 832.35199 788.56055 4290195537
4.1605506 831.50378 787.84534 4289921306
7.4798164 832.23395 787.15302 4291375669
38.192661 832.96411 786.46069 4293977838
40.729355 832.23395 787.15302 4293846252
44.101837 832.77606 788.91809 4293517035
4.1513762 834.23364 787.53113 4291185232
6.6422019 834.23364 787.53113 4291575651
41.51376 834.23364 787.53113 4293517800
44.004585 835.50317 788.60144 4293582312
4.1376147 838.31799 787.05078 4291709535
7.4477062 837.6853 786.51733 4291445630
38.066055 837.6853 786.51733 4293713898
40.824463 838.10712 786.87299 4293647338
43.858715 838.95056 787.58423 4293713128
0.55168194 841.11981 788.54108 4290396240
3.8532112 842.08575 787.61163 4291184734
7.1559634 840.82324 786.54718 4291513461
29.724771 840.40247 786.19238 4293777893
31.376146 840.40247 786.19238 4293909478
34.128437 840.8233 786.54718 4293909481
37.431194 840.82324 786.54718 4293844458
40.458717 841.66498 787.25684 4293581032
43.551071 841.11981 788.54108 4293582310
4.119266 845.00366 787.45587 4290924123
6.5908256 844.37378 786.9248 4291907435
29.658716 844.37378 786.9248 4293778408
32.130276 844.37378 786.9248 4293646566
34.601833 844.37378 786.9248 4293777897
37.348011 844.7937 787.27881 4294040816
40.094189 845.21362 787.63287 4293515748
3.8281345 850.37061 787.18506 4290590294
6.5541286 851.74768 786.60217 4292105554
31.951376 851.74768 786.60217 4293647334
34.447708 850.401 786.77466 4293581798
37.168194 850.84991 786.7171 4294107374
39.412846 849.68201 787.47644 4293647590
0 854.25305 788.7146 4289599814
4.0963306 853.62671 788.18646 4290852695
7.3642201 853.7179 786.95532 4292171107
10.626606 854.43549 786.25232 4292628846
29.427523 854.43549 786.25232 4293646308
31.879816 854.43549 786.25232 4293646308
34.409176 853.00037 787.65833 4293514466
37.14006 853.41797 788.01044 4293777638
39.870945 853.83545 788.36249 4293647082
4.9045873 856.3103 787.83307 4290718285
7.084404 856.10199 787.65741 4292166474
31.879816 855.68536 787.30615 4293646565
35.42202 856.10199 787.65741 4293514465
37.601833 856.93524 788.35999 4293711329
40.054131 856.93524 788.35999 4293646057
7.6036696 859.90991 786.94409 4291439162
9.7761469 859.07947 786.2439 4291635021
31.772476 859.07947 786.2439 4293646824
34.759632 859.90991 786.94409 4293646306
37.475231 860.32513 787.29419 4293711329
4.8880734 861.5708 788.34448 4291511632
7.3155961 862.99463 786.92908 4291707224
9.7541285 862.99463 786.92908 4293093240
35.765137 862.99463 786.92908 4293580513
37.390827 862.99463 786.92908 4293777893
39.875229 862.28271 787.63678 4293712102
7.3027525 865.92334 787.43646 4291443033
10.272782 866.07196 786.90771 4292895080
34.873394 865.65857 786.5592 4293909736
38.387768 866.07196 786.90771 4293646823
40.596329 865.56805 787.79089 4293515495
42.267891 864.23749 787.97705 4293516004
6.4880733 868.13867 788.65027 4291510360
40.550457 868.13867 788.65027 4293383913
42.983486 868.13867 788.65027 4293253093
7.6784406 871.8067 787.81903 4291838302
10.500917 871.23297 786.68121 4292758113
13.450152 872.02759 786.26123 4293482354
35.482571 872.9104 786.13354 4293581797
37.966972 871.23303 786.68127 4293449957
40.412846 872.11566 788.07953 4293318876
42.029358 872.73358 788.60059 4293187552
8.0642204 875.37653 788.21289 4293798751
10.483486 874.14349 787.17322 4292558454
38.708256 874.14349 787.17322 4292989907
40.321102 875.37653 788.21289 4293186521
8.0458717 878.01379 787.82056 4293073463
10.459633 877.39868 787.30188 4292424550
38.08379 877.19366 787.12897 4292989401
40.229359 878.01379 787.82056 4293187291
7.4972477 880.58746 788.24658 4290773021
10.43578 881.25916 787.94092 4292809016
13.379205 879.82715 786.73358 4293808759
32.110092 879.41803 786.38855 4293384417
34.518349 880.03174 786.90601 4293252832
37.461773 880.23633 787.07843 4293187039
40.735168 880.1203 788.72461 4293120989
13.6 883.97083 786.30322 4293608790
32 883.97083 786.30322 4293580515
34.400002 883.97083 786.30322 4293383394
37.599998 883.97083 786.30322 4293252321
4.8000002 886.41724 788.36597 4291378261
7.4605503 886.47388 787.54169 4290843965
10.125994 886.0661 787.19794 4291624990
35.159634 886.5022 787.12952 4293317341
37.578896 886.15387 787.48993 4293317852
40 886.41724 788.36597 4293252314
4.788991 890.2511 788.98254 4291513733
6.9113145 889.90088 787.81525 4291842648
10.352293 890.42096 786.50964 4292493927
31.85321 890.42096 786.50964 4293514720
34.242203 890.42096 786.50964 4293449183
37.513763 889.0307 787.95349 4293252316
39.908257 890.2511 788.98254 4293317855
4.7779818 892.85614 788.56299 4291251568
7.1669722 892.24731 788.04962 4291645009
10.328441 893.02594 786.09009 4292562565
13.506422 893.02594 786.09009 4291572824
15.889908 893.02594 786.09009 4292411430
25.423853 893.02594 786.09009 4293693874
30.985321 893.02594 786.09009 4293842657
34.163303 893.02594 786.09009 4293383647
37.427521 891.63855 787.53625 4293318111
7.4152904 895.0506 787.79718 4291711316
10.328441 894.84814 787.62646 4292100996
13.220795 895.97186 786.8299 4293351040
16.645872 896.83734 786.68774 4292824174
19.816513 896.83734 786.68774 4291493903
22.987156 896.83734 786.68774 4293339933
26.157799 896.83734 786.68774 4293759660
28.53578 896.83734 786.68774 4294301672
30.913761 896.83734 786.68774 4293645024
34.084404 896.83734 786.68774 4293383392
37.298164 895.53906 786.90106 4293252322
40.519264 895.45551 788.13867 4293318117
10.304587 899.26135 788.73157 4292302906
13.475229 898.65533 788.22058 4293351813
16.645872 898.04932 787.70959 4292626811
19.816513 898.04932 787.70959 4291887104
22.959633 898.73883 786.98297 4294005785
26.097248 899.42834 786.25635 4293559445
28.469725 899.42834 786.25635 4294039014
30.842201 899.42834 786.25635 4293580000
34.005505 899.42834 786.25635 4293449183
37.255047 898.04932 787.70959 4293185758
40.161469 898.85736 788.39093 4293383906
42.803669 899.26135 788.73157 4293187041
13.444036 901.84674 788.29541 4292760443
15.816514 900.63757 787.27588 4294270604
26.097248 900.63757 787.27588 4293957273
30.842201 900.63757 787.27588 4293842401
34.005505 900.63757 787.27588 4293318108
37.432415 901.04059 787.61572 4293121501
39.541283 901.84674 788.29541 4293187806
14.185321 905.11182 787.12439 4293483900
16.549541 904.50928 786.61639 4292296301
18.913761 903.9068 786.1084 4290642944
23.642202 903.9068 786.1084 4294945126
26.006422 903.9068 786.1084 4294618276
29.158714 903.9068 786.1084 4294168290
31.522936 903.9068 786.1084 4293580763
34.149845 904.30841 786.44708 4293318363
36.77676 904.71014 786.78571 4293187548
11.020184 907.60181 787.91577 4291297326
13.381651 907.60175 787.91577 4293406029
16.511009 908.28564 787.18433 4292493676
19.655964 907.68457 786.67749 4293150525
22.800919 907.68457 786.67749 4291729989
26.732111 907.68457 786.67749 4294757064
29.877064 907.68457 786.67749 4293643991
31.449541 908.28564 787.18433 4293251289
33.808258 908.28564 787.18433 4293251803
36.975227 907.94373 787.55005 4293186525
7.0761471 910.08893 788.70483 4290117658
10.221101 910.08893 788.70483 4291231794
13.349542 910.77002 787.97107 4292544558
16.472477 911.45105 787.2373 4292413520
19.610092 910.85138 786.73169 4293086030
22.747707 910.85138 786.73169 4292384842
25.885323 910.85138 786.73169 4293374885
29.022938 910.85138 786.73169 4293513947
32.160549 911.45105 787.2373 4293383902
34.51376 911.45105 787.2373 4293448925
36.866974 911.45105 787.2373 4293448669
40.098167 910.08893 788.70483 4293711583
42.456882 910.08893 788.70483 4293514205
10.197248 912.65039 788.24866 4291035174
13.320184 913.33008 787.51367 4292215362
16.433945 914.00983 786.77869 4292347945
19.56422 914.00983 786.77869 4293210967
22.694496 914.00983 786.77869 4293564017
25.824772 914.00983 786.77869 4293375580
28.989908 913.33008 787.51367 4293379552
32.122017 913.33008 787.51367 4293384670
34.51376 912.65039 788.24866 4293252316
36.866974 912.65039 788.24866 4293186268
39.220184 912.65039 788.24866 4293317855
10.166972 916.14313 787.9234 4290773026
12.506422 916.48157 787.55475 4291559462
16.395412 916.56293 786.31543 4292546608
19.518349 916.56293 786.31543 4291889457
22.919878 916.50861 787.1416 4293892458
25.794495 916.48157 787.55469 4294495365
28.921103 916.48157 787.55469 4293379525
32.066055 916.14307 787.92334 4293252316
35.174313 916.48151 787.55475 4292923352
37.519264 916.48157 787.55475 4292989144
39.128441 916.40295 788.79651 4293449695
10.930275 918.95044 788.32849 4290969635
13.255963 919.62592 787.58997 4292479797
17.13578 920.30139 786.85144 4292939567
19.472477 920.30139 786.85144 4292741173
22.588074 920.30139 786.85144 4293208613
25.703671 920.30139 786.85144 4293433954
28.819267 920.30139 786.85144 4293907657
31.97156 919.62592 787.58997 4293318107
35.092659 919.62592 787.58997 4293317594
37.475231 918.95044 788.32849 4293318361
39.036697 918.95044 788.32849 4293384154
10.904587 922.08777 788.35773 4290969634
13.241284 922.08783 788.35773 4292150059
16.60428 922.33868 787.69727 4292938546
19.472477 921.49231 787.85559 4293398596
22.562386 922.16638 787.11597 4292482871
25.672478 922.16638 787.11597 4292374165
28.819267 921.49231 787.85559 4294040006
31.934862 921.49231 787.85559 4293646810
35.050461 922.08777 788.35767 4293120216
37.387157 922.68329 788.85986 4292857043
10.878899 925.21674 788.38 4290773023
13.210092 925.21674 788.38 4292084778
16.03364 925.71576 787.05664 4292742712
19.415596 924.95831 787.50806 4292480306
22.258715 924.87213 787.21747 4291952667
24.866055 924.02863 787.37817 4288880128
29.493578 925.29395 787.13702 4293711300
31.822018 925.29395 787.13702 4293383390
34.967888 925.21674 788.38 4293119708
37.299084 925.21674 788.38 4292857306
10.853211 928.33728 788.39508 4290248998
12.920489 928.13971 788.22852 4291625518
16.241283 929.08435 786.40894 4292873535
19.35688 928.41449 787.15216 4292087600
22.42844 929.08435 786.40894 4293548164
29.38899 929.08435 786.40894 4293121227
31.709175 929.08435 786.40894 4293120474
34.885323 927.74463 787.89539 4292988376
37.986237 928.92999 788.89478 4293252314
40.311928 928.92999 788.89478 4293187293
10.827523 931.4494 788.40308 4286389831
13.147707 930.85815 787.90454 4290380589
15.46789 930.26685 787.40601 4292280380
19.334862 930.26685 787.40601 4292348473
32.482571 930.26685 787.40601 4293121498
34.80275 930.26685 787.40601 4293384416
37.896332 931.4494 788.40308 4293251033
40.216515 931.4494 788.40308 4293055451
13.255046 934.86462 787.35846 4289608298
16.183487 934.62897 787.15985 4291246167
19.266056 934.62897 787.15973 4291238476
22.194494 934.39325 786.96106 4291907690
28.513762 933.45062 786.16626 4291480518
31.596331 933.45062 786.16626 4293318622
34.93578 933.84344 786.49738 4292989657
37.761467 935.21814 787.65649 4293120216
40.844036 935.80731 788.15332 4293053654
19.220184 938.31128 787.64868 4288497045
22.551682 937.91943 787.3183 4292767332
25.370644 937.72351 787.15308 4290019227
28.445873 937.72351 787.15308 4291729328
31.521101 937.72351 787.15308 4293383395
34.596329 937.72351 787.15308 4293054935
13.838532 939.48676 788.63989 4279970103
16.144955 939.48676 788.63989 4284561491
19.220184 939.48676 788.63989 4291202723
22.295414 939.48676 788.63989 4290815129
25.340368 940.73462 788.38391 4293310938
28.445873 939.48676 788.63989 4293375157
31.521101 939.48676 788.63989 4293317342
33.827522 939.48676 788.63989 4293120727
25.249542 945.64233 788.5979 4291410374
28.310093 945.64233 788.5979 4292398315
31.370644 945.64233 788.5979 4292595415
33.666054 945.64233 788.5979 4293054669
16.258104 949.7746 787.72192 4290286700
19.059631 949.36194 787.81 4292319520
22.109173 949.36188 787.81006 4291208607
25.42263 948.94922 787.89813 4286938523
28.242203 948.1239 788.07422 4291344862
31.52416 948.94922 787.89813 4292792276
34.039143 949.7746 787.72192 4292922838
37.311928 950.59985 787.54578 4293120728
39.596329 950.59985 787.54578 4293120727
15.990826 951.76416 788.52747 4285480479
19.036697 951.76416 788.52747 4290679611
22.055046 952.41724 787.77008 4290025617
25.097248 952.41724 787.77008 4284506747
28.174313 951.76416 788.52747 4289308095
31.220184 951.76416 788.52747 4293645541
34.183487 953.07025 787.0127 4292856790
37.222019 953.07025 787.0127 4293120474
40.310089 952.41724 787.77008 4293252314
10.634862 955.39319 788.97144 4284575894
12.913761 955.39319 788.97144 4279575425
16.179817 955.87299 787.63184 4280228896
18.722937 955.05231 787.81201 4286541118
22.00367 954.8833 787.23346 4291475332
25.036697 954.8833 787.23346 4284174710
28.073395 954.8833 787.23346 4288192676
31.372477 955.05231 787.81201 4293056235
34.100918 956.11426 786.96326 4293119190
36.374313 956.11426 786.96332 4292988634
40.921101 956.11426 786.96332 4293384158
43.273396 955.13757 788.10181 4293252315
46.337616 955.39319 788.97144 4293055451
12.882568 957.85229 788.42883 4282331010
15.913761 957.85229 788.42883 4280092693
18.899082 959.14996 786.90686 4285097843
21.922935 959.14996 786.90686 4290227355
24.946789 959.14996 786.90686 4287196571
27.970642 959.14996 786.90686 4286938734
31.033028 958.5011 787.66785 4293121759
34.060551 958.5011 787.66785 4293120464
37.088074 958.5011 787.66785 4292989146
40.163303 957.85229 788.42883 4292989658
19.151072 960.69116 788.20636 4283393926
21.922937 960.88379 788.36877 4289175179
24.946789 960.88379 788.36877 4289500341
27.970642 960.30585 787.88147 4290288478
45.941284 748.73669 791.30798 4293449958
-10.568808 751.05768 789.34094 4287823903
45.798164 752.40436 790.47644 4293647590
-12.330276 753.75098 791.61194 4287637815
47.559631 753.75098 791.61194 4293648105
49.321102 753.75098 791.61194 4293581797
-12.291743 758.74847 791.90161 4287834413
-10.53578 757.40601 790.76965 4288291625
46.208561 757.4715 789.95282 4293845226
49.166973 758.74847 791.90161 4294239220
-10.513762 760.95447 791.14545 4288232536
46.727829 760.7312 790.95721 4294173424
-8.7339449 763.92419 789.72546 4288171119
45.416515 763.92419 789.72546 4293976303
-10.480734 765.92737 791.41443 4288444011
-7.8440366 766.79016 789.52588 4289890445
-5.2293577 766.79016 789.52588 4290942881
43.57798 766.79016 789.52588 4293845485
46.289909 765.92737 791.41443 4293911276
-16.850153 768.56708 791.02411 4287522422
-13.944954 768.1228 790.64954 4288575602
-8.1345568 768.56708 791.02411 4289430400
46.192661 768.78912 791.21136 4293977068
-6.9504585 772.40698 790.33777 4288837738
-5.2128439 771.7428 789.77771 4290416010
46.046791 772.40698 790.33777 4294108910
45.034863 776.67853 790.01526 4293912045
-6.9284406 778.00275 791.13184 4291142586
-5.1853213 779.51923 789.79443 4291932359
44.939449 779.51923 789.79443 4293977838
46.766972 778.00275 791.13184 4293977838
-6.9137616 780.84064 790.90857 4289960365
44.939449 780.84064 790.90857 4294174962
-6.8917432 785.74554 791.12024 4287525257
-5.1688075 784.42834 790.00952 4289235374
43.93486 785.08691 790.56488 4294108657
46.519264 785.74554 791.12024 4294108656
-4.5847096 787.69171 790.1452 4288578967
43.841286 787.91077 790.3299 4294042863
-6.8770642 789.88245 791.99219 4290618027
46.420185 789.88245 791.99219 4294240756
-5.1357799 793.54102 789.84491 4290881958
43.677982 793.16608 790.1828 4294042866
-6.8403668 797.56061 791.92615 4287987077
47.027523 796.90692 791.375 4293911025
-5.1137614 799.80164 789.89172 4288710800
46.023853 799.80164 789.89172 4293846000
-6.8183484 801.10486 790.99048 4288381581
-4.53578 803.02954 789.99731 4289564831
44.223854 802.59607 789.63184 4293977840
46.559021 802.0354 790.90308 4293845742
-6.8036699 805.19684 791.82471 4289297031
45.92477 805.19684 791.82471 4293977586
-5.0862384 808.0733 790.32587 4289687672
44.080734 807.42523 789.77942 4294240758
46.623856 808.72137 790.87231 4294108404
-6.7816515 810.01758 791.96521 4288687425
-4.2293577 810.85089 790.05188 4289417298
43.13945 810.20422 789.50659 4293976818
46.80489 811.92871 790.96063 4294042097
49.113762 811.40424 791.82642 4294173683
-4.2155962 815.00671 789.63184 4288224047
-1.6862385 815.00671 789.63184 4290327626
1.6862385 815.00671 789.63184 4289209172
42.999084 815.00671 789.63184 4294108146
45.528439 815.00671 789.63184 4293845233
-4.4941897 817.21704 790.62354 4289346376
-1.6825688 817.77026 789.34595 4290071366
0.84128439 817.77026 789.34595 4290794085
42.905502 817.77026 789.34595 4293976047
46.652599 816.72559 791.08124 4293845744
48.900917 817.58502 791.80579 4293846000
-3.9259939 819.91412 791.15363 4289281350
-1.6825688 819.05658 790.43054 4290005572
46.270645 819.69977 790.97284 4293714157
49.63578 820.34296 791.51514 4293846000
-3.3541284 823.82825 790.52979 4289146178
-1.6770642 822.54614 789.44873 4290070101
1.6770642 822.54614 789.44873 4291385186
46.119267 823.18719 789.98926 4293845995
49.473396 823.82825 790.52979 4294042607
53.666054 823.82825 790.52979 4293845487
-3.9082568 826.51221 791.04883 4288486196
-1.6733944 825.93384 789.68915 4288945720
1.6733944 825.29419 789.14978 4291845715
43.508255 825.29419 789.14978 4294108654
46.044037 826.2077 790.5741 4293976299
49.473396 825.11035 791.61084 4293713387
53.666054 825.11035 791.61084 4293779693
55.343121 825.11035 791.61084 4294108402
-1.66789 830.04333 789.2301 4288553786
1.66789 830.04333 789.2301 4289860941
43.365139 830.04333 789.2301 4293713900
45.033028 830.04333 789.2301 4293713900
-3.8917434 832.16864 791.02197 4289017164
-1.66789 831.95605 790.84283 4289608784
46.700916 831.95605 790.84283 4293581032
-1.6642202 835.32068 791.06372 4289277766
0.83119267 835.41052 789.83142 4290394956
46.598164 835.32068 791.06372 4293844462
-1.6605505 838.67688 791.27753 4289737799
46.495415 838.67688 791.27753 4293581546
-1.6550459 842.74646 790.78479 4289938233
1.6550459 841.48114 789.7179 4290529364
44.686237 841.48114 789.7179 4293647590
46.341286 842.74646 790.78479 4293516517
-1.6513761 845.45245 790.45032 4289546557
0.82568806 844.18994 789.38586 4290464327
44.036697 844.61078 789.74072 4293450721
47.168808 844.01178 791.85168 4293647590
-1.6477064 848.15289 790.11121 4289677358
0.82385319 847.52301 789.5802 4290593871
41.192661 847.52307 789.58014 4293516004
43.422626 847.25366 790.2251 4293318626
46.238533 846.71497 791.51489 4293581799
-1.6477064 849.41254 791.17334 4290518075
0.82110089 851.56525 789.06433 4290455376
3.2844036 851.56525 789.06433 4291050843
41.055046 851.56525 789.06433 4293515750
42.840366 849.41254 791.17334 4293317857
-1.6422018 853.44843 790.65222 4289601614
1.6422018 852.82068 790.12292 4290323794
43.518349 853.44843 790.65222 4293582310
-1.6385322 856.75836 790.82703 4290462832
1.0923548 855.92328 790.12286 4289867084
3.2770643 855.50568 789.77075 4290650693
42.601833 856.13202 790.29889 4293582053
-1.6348624 860.05988 790.99469 4290722397
0.81743121 859.435 790.46777 4290067796
3.8146791 858.60175 789.7652 4291181646
40.054131 858.18512 789.41394 4293711847
43.373394 858.72302 791.17554 4293581797
0 862.81647 789.3949 4290394714
4.0733948 862.81647 789.3949 4291315023
43.992661 862.81647 789.3949 4293516004
0.54311925 864.89258 791.14532 4290517815
4.0660548 865.74719 789.90393 4291382618
43.130276 864.77124 789.73511 4293318370
0.81284404 867.96606 791.12085 4289331227
4.0587158 868.67236 790.40839 4290911304
6.4880733 869.37872 789.69592 4291709025
42.983486 869.37872 789.69592 4293187552
45.519264 867.96606 791.12085 4293319140
0.81100917 871.85883 791.78699 4289535039
3.7847092 871.03204 791.09003 4290513430
43.794495 870.61877 790.74146 4293187552
45.416515 871.85883 791.78699 4293449443
0.80825686 875.20526 790.68457 4289470016
4.3107033 874.79327 790.33722 4290314279
6.4660549 873.96942 789.64258 4290445356
43.107037 874.38135 789.98993 4293383649
45.262386 875.20526 790.68457 4293449443
0.80825686 876.4411 791.72656 4289265716
4.0321102 877.84259 790.29224 4290445353
6.451376 876.60956 789.25256 4290641938
41.933945 876.60956 789.25256 4293186017
43.546787 877.84259 790.29224 4293777895
45.159634 877.84259 790.29224 4293580515
-1.612844 879.07562 791.33191 4288151598
0.53761464 879.9519 791.19873 4289334579
3.7571867 880.41815 790.71979 4290382900
6.4366975 880.47424 789.89514 4290707485
41.838531 881.08936 790.41376 4293121248
43.447708 881.08936 790.41376 4293450213
45.056881 881.08936 790.41376 4293318882
-1.6091744 882.93469 791.96973 4289212965
0.80458719 882.93469 791.96973 4289935917
4.0137615 883.71399 790.01074 4289929277
6.4220185 883.10028 789.49329 4291035171
40.940369 883.71399 790.01074 4293121246
44.151375 884.3277 790.5282 4293252576
46.666054 882.93469 791.96973 4293383904
0.80275232 885.55511 791.56311 4289542735
4 887.64044 789.39734 4291116388
40.799999 887.64044 789.39734 4293449183
44.151375 885.55511 791.56311 4293646305
46.559631 885.55511 791.56311 4293712354
-1.6 890.08691 791.46008 4289344074
0.53333336 889.6792 791.11627 4289345371
3.2 888.86365 790.42871 4290592631
41.599998 888.86365 790.42871 4293317855
44 889.47534 790.9444 4293647331
46.400002 890.08691 791.46008 4293582049
0.79816514 892.69196 791.04053 4289543516
3.1926606 892.08173 790.526 4290528605
40.706421 891.4715 790.01147 4293318113
43.899082 892.69196 791.04053 4293581796
0.79633027 896.50897 791.64294 4289013822
4.2434249 895.34521 789.78955 4290924636
7.1504583 896.67035 789.16296 4290986079
10.328441 896.67035 789.16296 4292099935
41.313763 896.67035 789.16296 4293383904
43.69725 896.67035 789.16296 4293516003
46.187157 896.50897 791.64294 4293187300
3.972477 898.49255 790.69922 4290788936
7.1504583 897.88513 790.18713 4291577191
44.491745 898.49255 790.69928 4293319140
-1.5853211 902.89734 791.79724 4288151579
0.79266053 902.89734 791.79724 4288675875
3.9633026 902.29132 791.28632 4289990969
7.133945 901.07928 790.2644 4291833691
10.304587 901.07935 790.2644 4292566612
41.218349 901.07935 790.2644 4293122011
43.596329 901.68536 790.77539 4293318877
45.974312 902.89734 791.79724 4293778147
0 905.4743 791.35413 4288872484
4.2177367 905.07129 791.01422 4289789989
7.1174312 904.26514 790.33447 4290248745
9.4899082 904.26514 790.33447 4290641956
12.653211 903.05591 789.31494 4292957556
40.068501 903.86206 789.99463 4293121755
43.2318 905.07129 791.01422 4293318367
4.7284403 908.72675 790.17236 4289658919
7.0926609 907.52179 789.15637 4290183200
9.4568806 907.52179 789.15637 4290641956
40.191742 907.52179 789.15637 4293252318
44.132111 908.72675 790.17236 4293121246
3.9348624 910.61139 790.45343 4289593384
7.0761471 911.29108 789.71851 4290379816
40.884403 911.29108 789.71851 4293251551
43.243118 911.29108 789.71851 4293120480
3.9311929 913.09436 791.23889 4289658918
7.0596333 913.84979 789.25989 4290314279
40.004585 913.84979 789.25989 4292989401
43.193581 913.17151 789.99597 4293054425
4.7064219 916.24854 791.28247 4289396767
7.0596333 915.6488 790.77673 4290379816
9.3908253 917.59949 789.80542 4290838561
40.741283 916.32434 790.03827 4293054936
43.117432 915.98657 790.40747 4293251802
6.7822633 919.19482 791.15063 4290379803
9.3688078 920.14423 789.33508 4290773023
37.475231 920.14423 789.33508 4293318359
39.817429 920.14423 789.33508 4293252824
43.041283 918.79602 790.81433 4292923859
7.28685 922.13379 791.01263 4290314266
9.3577986 922.60608 790.10278 4290641948
38.944954 923.87421 789.86401 4293186271
40.045868 922.18335 790.18237 4293120984
42.915596 922.27045 790.47382 4292924118
45.28257 922.53174 791.34814 4292923864
7.0100918 925.66064 791.37024 4288807701
9.3247709 926.40491 789.38171 4290904095
38.076149 926.40491 789.38171 4292988889
41.184402 926.40491 789.38171 4293120474
43.618347 925.06519 790.86816 4292857556
45.695415 925.85913 791.5376 4292989398
6.993578 928.78119 791.38538 4287719803
9.3247709 927.59308 790.38354 4288610332
41.961468 927.59308 790.38354 4293055451
43.515594 927.59308 790.38354 4293055705
45.846786 928.78119 791.38538 4293054935
7.7522936 931.89331 791.39343 4284045179
9.6784401 931.96631 790.14691 4287386990
41.280735 931.79315 789.56488 4292988887
43.929661 931.3006 790.89374 4293054678
46.51376 932.48602 791.89319 4293514972
10.311927 934.60284 791.06195 4284895548
43.310093 933.81445 790.39722 4292856272
46.403671 934.99701 791.39429 4293449177
10.788991 938.16394 790.14038 4287004784
12.844037 937.37842 789.47803 4288253312
16.183487 936.9856 789.14685 4291210143
35.449543 938.16394 790.14038 4293120727
37.761467 937.57483 789.64362 4293120473
40.844036 937.57483 789.64362 4293054425
43.926605 937.57483 789.64362 4293054422
10.018349 939.34229 791.13391 4286477198
13.069725 941.25006 790.12659 4284767615
16.144955 941.25006 790.12659 4280426535
19.220184 940.66229 789.63098 4288386432
22.295414 940.66229 789.63098 4289170854
28.445873 940.66229 789.63098 4293052618
31.521101 940.66229 789.63098 4292989144
34.596329 941.25006 790.12659 4293054673
37.716515 940.59009 790.87805 4293185240
41.06789 940.17413 790.96338 4293120217
43.635471 940.17413 790.96338 4292858073
46.238533 939.34229 791.13391 4293186271
10.763303 943.01337 791.61328 4288450426
13.053211 943.67059 790.85944 4285490807
16.106422 944.32782 790.10559 4284165450
19.174313 943.74152 789.61121 4283781432
22.242203 943.74152 789.61121 4285883793
25.310093 943.15515 789.11682 4292787931
28.377983 943.15515 789.11682 4293056229
31.445873 943.15515 789.11682 4292727767
35.280735 944.32782 790.10559 4292988876
37.627525 943.67059 790.85944 4293054167
41.515594 943.01337 791.61328 4293251549
43.053211 943.01337 791.61328 4292923612
12.76208 946.76495 790.4165 4288517318
15.302752 946.81226 789.58435 4289823859
35.196331 946.81226 789.58435 4293120212
37.537613 946.15637 790.33936 4293054934
41.317432 947.98218 790.5708 4293252314
42.847706 947.98218 790.5708 4293186259
10.686238 950.45807 790.04236 4289308554
13.23058 950.06903 789.71436 4284507285
24.425688 949.29095 789.05823 4287267231
28.242203 949.29095 789.05823 4289766371
30.53211 949.29095 789.05823 4293384154
43.56147 949.80505 790.79974 4293383384
45.908257 949.15204 791.55713 4293252062
6.1064219 951.62518 791.02637 4287004209
9.9100914 952.27686 790.26782 4288451780
12.944954 952.92847 789.50928 4284047260
15.229358 952.92847 789.50928 4281083187
46.449539 952.92847 789.50928 4293252831
48.851376 951.62518 791.02637 4293319392
4.5688071 955.25702 791.47266 4286150813
6.8532109 955.25702 791.47266 4288712872
9.6293573 955.73407 790.1308 4286215560
43.29908 956.55469 789.95068 4293318625
46.337616 956.55469 789.95068 4293122009
49.20245 955.30151 790.63812 4293318625
4.5577984 958.87769 791.90942 4278190080
7.0899081 958.49054 791.58301 4279896594
9.8752289 958.297 791.4198 4284171558
12.882568 959.01099 789.40576 4290484404
15.913761 959.01099 789.40576 4289632434
31.348013 958.96655 790.2403 4293251809
34.100918 959.01099 789.40576 4292988624
37.132111 959.01099 789.40576 4292659925
40.163303 959.01099 789.40576 4292922842
42.976147 958.96655 790.2403 4293252572
46.225689 959.01099 789.40576 4293253597
49.122936 958.49054 791.58301 4293449697
12.882568 960.16968 790.38269 4285622180
15.913761 960.74902 790.87122 4284503981
18.692354 960.94214 791.034 4285229938
21.976147 961.32837 791.35974 4288779660
25.007339 961.32837 791.35974 4283921519
28.038532 960.74902 790.87122 4287927616
30.311926 960.16968 790.38269 4292857821
34.100918 960.16968 790.38269 4292922833
36.879513 960.55591 790.70831 4292856534
40.163303 960.74902 790.87122 4293185759
43.952293 960.74902 790.87122 4293319133
46.225689 960.74902 790.87122 4293187548
49.629356 747.77075 794.41772 4293516004
51.401836 747.77075 794.41772 4293581797
-15.902752 752.78931 794.7251 4286853432
-13.546788 751.43842 793.58612 4287306794
47.708256 750.08752 792.44702 4293581797
51.242203 751.43842 793.58606 4293647590
-12.330276 755.09766 792.74731 4287769653
49.321102 755.09766 792.74731 4293977068
51.963303 755.09766 792.74731 4293911276
-14.091743 756.44434 793.88281 4287505704
51.963303 756.44434 793.88281 4294042354
-15.80367 761.43335 794.16541 4287260272
-13.169725 760.76215 793.59949 4287650382
50.044952 760.09094 793.03345 4293977331
52.678898 760.76215 793.59943 4293714415
54.434864 761.43335 794.16541 4293779953
47.311928 762.96387 792.83972 4294042863
49.940369 763.63367 793.40454 4293779951
52.568806 764.30353 793.96936 4293846000
49.783485 767.93054 793.10339 4293846002
52.403671 767.93054 793.10339 4293846000
-10.480734 769.26593 794.22937 4287850096
-8.7155962 770.78809 792.89673 4287323752
49.783485 769.26593 794.22937 4293911795
52.403671 769.26593 794.22937 4293912045
55.023853 769.26593 794.22937 4293780204
-8.7155962 772.12073 794.02039 4290614686
48.807339 772.12073 794.02039 4293977586
-7.8192658 775.06384 792.57788 4291011491
46.915596 774.3996 792.01782 4293977838
48.65321 775.72803 793.13794 4294109167
-8.6880732 777.05646 794.25806 4290157997
46.766972 779.32697 792.24841 4294109169
48.65321 777.05646 794.25806 4294174960
-10.39266 781.9754 794.48145 4286931823
-7.7871561 781.40662 792.69385 4288313499
44.939449 782.16205 792.02271 4294240754
46.667889 782.16205 792.02271 4294109167
49.365139 781.31329 793.92322 4294108912
-8.6422014 784.14417 793.69403 4288380543
48.396332 784.14417 793.69403 4294108402
-7.753211 787.72131 792.78613 4289501336
46.519264 787.06274 792.23083 4294240240
48.242203 788.37994 793.34143 4293911795
-7.7458715 790.44696 793.77625 4289632906
46.420185 791.19678 793.10046 4294306297
48.13945 791.19678 793.10046 4293911795
-7.725688 793.63385 793.19324 4288579207
47.985321 794.75647 792.17773 4293911795
-8.5688076 796.72174 793.83484 4287921808
49.699081 797.37683 794.38721 4293779439
-8.5504589 800.17542 794.13086 4289827232
49.592659 800.17542 794.13086 4293976816
-7.6706419 803.05957 792.63867 4289758614
47.728439 803.05957 792.63867 4293977073
-7.6633029 805.75574 793.604 4288302430
49.326607 806.49719 792.92114 4294305784
51.137615 805.01434 794.28687 4293976816
51.027523 807.79755 794.01758 4294108143
-6.7816515 811.31372 793.05811 4288291636
50.862385 811.31372 793.05811 4293976814
52.557796 812.60986 794.151 4293451242
-6.7669725 814.73096 793.32343 4288555843
50.188381 814.51538 793.14166 4293780207
52.444038 815.37762 793.86865 4293648364
54.13578 815.37762 793.86865 4293714411
-6.7449541 818.87415 792.89282 4288032062
53.116516 818.87415 792.89282 4293714415
-6.7449541 820.16327 793.97974 4288029496
-5.0477066 821.62927 792.59973 4287897910
52.159634 821.62927 792.59973 4293779441
-6.7302752 824.20197 794.76892 4288293685
52.159634 823.55884 794.22662 4293844978
55.524769 824.20197 794.76892 4294108402
-6.7082567 827.67462 793.77295 4287901507
-5.0311928 826.39252 792.69189 4288556857
49.752911 826.81989 793.05225 4293778668
53.107037 827.24725 793.4126 4293779179
55.343121 827.67462 793.77295 4294108656
-6.6935778 830.4115 793.4646 4288097351
-5.0201836 829.13214 792.38586 4288230216
49.086239 829.98505 793.10498 4293712618
52.827522 828.95679 794.854 4293844715
55.343121 828.95679 794.854 4294174449
-6.6935778 831.6908 794.54321 4287899454
-4.1697249 833.86871 792.45557 4288621635
49.285324 832.77979 793.49939 4293647080
-6.6715598 835.78137 794.06824 4287899960
-4.1660552 835.86841 792.83356 4288819524
49.202751 835.78137 794.06824 4293647338
-6.6568809 839.13763 794.28198 4287701299
-4.4379206 838.28937 793.56683 4288028977
48.262386 837.8653 793.20923 4293581545
-3.8746178 841.42749 793.59686 4288953655
48.986237 841.21594 793.4184 4293582056
-3.3100917 845.27704 792.91846 4289611565
47.99633 845.27704 792.91846 4293844714
-4.133945 847.25989 793.28235 4288284445
44.587154 847.97742 792.57935 4293449443
47.117432 847.25989 793.28235 4293778406
-6.6055045 849.87115 794.17609 4287830058
-4.1220183 850.94397 793.11859 4288156467
44.488075 850.67224 792.23547 4293582310
47.038528 850.22852 793.82343 4293648103
-4.943119 853.19159 794.35974 4288949828
46.959633 853.19159 794.35974 4293648355
-6.5688071 857.84259 794.3573 4287168559
-4.1055045 856.58716 793.29871 4288025149
44.339451 855.33167 792.24011 4294042348
46.80275 857.21484 793.828 4293384163
-3.8232415 860.09888 793.64362 4287628064
46.698166 859.89008 793.46759 4293516263
-1.6348624 862.55963 793.10236 4289333559
1.6348624 861.93469 792.57544 4291442005
46.321102 862.76788 793.27802 4293582056
-3.2697248 864.43445 794.68311 4288747054
-1.6293578 866.55341 792.54578 4287497244
47.411011 864.43445 794.68311 4293384934
49.045872 864.43445 794.68311 4293712615
-3.2587156 868.42188 794.12122 4288683307
-1.6293578 867.79907 793.59607 4287300884
0.81284404 869.20892 792.16882 4289462328
46.385323 868.50403 792.88245 4293319140
49.423855 868.62958 794.2962 4293646309
-3.2513762 871.69458 794.26465 4288816172
-1.6256881 870.45178 793.2168 4289671229
47.144955 870.45178 793.2168 4293580772
48.770641 871.69458 794.26465 4293448673
-4.866055 875.57898 794.92371 4286971904
-1.6220183 873.71887 793.35541 4289076011
47.038532 873.71887 793.35541 4293448930
49.201221 875.16571 794.5752 4293515240
-6.4660549 878.91278 793.81067 4287308060
-4.0412846 878.29486 793.28967 4287303198
46.878899 877.67694 792.76868 4293581797
49.303673 878.91278 793.81067 4293516265
-7.274312 880.14862 794.85266 4287437857
-3.7633028 881.13068 793.0647 4288226082
-1.612844 880.30865 792.37158 4289474618
1.612844 880.30865 792.37158 4289997891
46.772476 880.30865 792.37158 4293319138
49.248627 880.84515 794.13196 4293646820
52.536697 880.14862 794.85266 4293778408
-6.451376 882.77472 794.45093 4287764777
-4.0284405 883.46985 793.72894 4288226092
-1.6091744 884.16492 793.00696 4289805375
49.136696 883.46985 793.72894 4293646307
-4.0229359 885.39514 794.04431 4288291385
-1.6055046 886.78253 792.59814 4289672772
1.6055046 886.78253 792.59814 4289740125
46.559631 886.78253 792.59814 4293778658
48.27523 885.39514 794.04431 4293449697
-3.2110093 888.62366 794.15051 4288291905
48.700306 888.82819 794.323 4293187551
-4 893.1449 794.03864 4287895349
-1.5981652 892.61121 792.28058 4289344338
0.79816514 893.91235 792.06958 4289213520
46.400002 891.92175 793.00726 4293582051
48.799999 893.1449 794.03864 4293450724
-3.1926606 895.74292 793.61304 4288159283
-1.5963303 895.13275 793.09851 4289211460
47.889908 895.13275 793.09851 4293253345
-1.5926605 898.33533 793.18286 4289078587
0.79633027 897.72656 792.66956 4289015362
46.983486 897.72656 792.66956 4293253345
49.372478 898.94415 793.69617 4293383900
-3.1816514 901.453 794.5036 4287496213
0.7944954 900.3147 792.23572 4289342262
3.1779816 900.3147 792.23572 4290388813
47.14006 900.71967 792.57715 4293778659
49.827526 901.47852 794.08905 4293383647
-1.5853211 904.71533 793.3302 4288413734
1.5853211 904.10931 792.81921 4288741411
47.031189 904.51337 793.15985 4293318114
-1.5816513 907.8927 793.39319 4288611621
0.79082566 907.28809 792.88342 4288938274
3.1633027 906.68347 792.37366 4289527845
46.395107 907.48956 793.05341 4293120992
49.144955 906.53326 794.86304 4293384163
-1.5816513 909.10187 794.41272 4288546598
0.78807342 911.13672 792.20435 4288872737
46.578899 910.11926 793.30853 4293186013
49.031193 909.10187 794.41272 4293186271
0.78807342 912.94421 793.72839 4288938272
3.1449542 914.89764 792.7594 4289527841
46.469723 913.28198 793.35913 4293251546
48.86055 913.54663 794.23645 4293185753
0.78623855 916.70087 794.27979 4289003552
3.6654434 916.94989 793.61786 4289593631
46.334862 916.7738 793.03339 4292923348
49.270947 916.90118 794.44873 4293054939
0 919.84662 794.31628 4288741401
3.9220183 919.24695 793.81067 4289529113
46.279816 918.64728 793.30505 4292858583
50.201836 919.84662 794.31628 4293119964
0.78256881 923.58228 794.84998 4286185744
4.1700306 922.43341 793.00928 4289397526
46.899082 922.45728 792.59338 4292989144
49.003063 922.43341 793.00928 4293054679
0.78073394 926.11298 794.3678 4288179044
3.9036698 924.91925 793.36121 4286121235
49.186241 924.91925 793.36121 4293252054
-3.1155963 929.82898 794.88489 4282069543
-1.5577981 929.82898 794.88489 4278583296
1.0385321 929.03497 794.21552 4285158988
3.8917432 928.37537 793.00525 4287726232
6.2165136 929.96936 792.38721 4287003289
45.846786 929.96936 792.38721 4293186008
49.203674 928.66614 793.38116 4293317593
51.407341 929.82898 794.88489 4293251801
-1.5541284 932.34564 794.39087 4278190087
0 931.75159 793.88995 4278190096
3.8853211 931.75159 793.89001 4280364102
6.2165136 931.15747 793.38904 4280955996
48.955048 931.75159 793.88995 4293317336
4.6513762 934.85669 793.89209 4287462016
6.7186546 934.06647 793.22577 4285228411
48.581039 934.46161 793.5589 4293251545
0 936.04199 794.89148 4279109383
4.1308866 936.87622 794.72284 4284437592
7.218348 936.96796 793.05609 4287134864
9.2807341 936.17957 792.39136 4286017889
47.43486 937.36206 793.38843 4293120220
49.614677 936.04199 794.89148 4293185755
6.9357796 941.10974 792.62427 4285886612
9.7614679 940.91333 792.45874 4282004525
40.073395 941.10974 792.62433 4293054168
44.697247 941.10974 792.62433 4293186784
46.238533 941.10974 792.62433 4293318116
6.9357796 942.87726 794.11462 4286278830
9.9944954 944.18884 792.60449 4282927678
40.746788 944.18884 792.60449 4292923351
43.875229 943.53308 793.35956 4293054424
47.009174 942.87726 794.11462 4293121248
3.8440366 946.53992 794.58679 4282790691
6.9192657 945.95215 794.09125 4287593375
9.7223244 946.62787 792.91699 4285754165
44.590824 945.36438 793.5957 4293120210
47.115597 946.19159 793.42114 4293252062
49.203671 946.53992 794.58679 4293187806
0 949.01868 794.06079 4279175178
3.8293576 949.67029 793.30219 4280692781
7.6513762 950.32196 792.54358 4287464760
50.499084 950.32196 792.54358 4293516515
52.154129 949.01868 794.06079 4293582049
-3.8165135 953.95941 792.99451 4284963422
-1.5302752 952.6618 794.51648 4287331448
0.76422018 952.72565 793.26233 4286282891
3.5620794 953.18134 792.33856 4285889159
6.8697248 952.7923 792.0105 4286742388
50.377983 952.7923 792.0105 4293187552
52.700001 953.05078 792.88245 4293581538
55.788071 952.72565 793.26227 4293714146
-4.0648313 956.37872 793.29047 4278255616
-1.5266055 956.29358 794.96265 4278517760
1.017737 955.51544 794.30664 4278190087
3.8073392 956.42133 792.45435 4278190106
6.091743 956.42133 792.45435 4280352777
50.256882 956.42133 792.45435 4293646818
52.541283 956.42133 792.45435 4293647589
55.587158 956.42133 792.45435 4293846504
57.871559 956.42133 792.45435 4293648355
-3.0458715 958.16779 793.92688 4283646283
0 958.16779 793.92688 4283712584
3.0458715 958.16779 793.92688 4283980132
52.541283 958.16779 793.92688 4293778660
55.333332 957.97369 793.76324 4293845479
57.871559 957.58563 793.43604 4293977320
4.5577984 960.03918 792.88879 4288519861
6.8366971 960.61987 793.37842 4289372852
9.8752289 960.61987 793.37842 4283849596
12.66055 960.42633 793.21527 4282072122
15.952293 961.20068 793.86816 4284304341
18.944954 962.48706 792.33667 4283067152
22.029358 961.20068 793.86816 4288779199
25.300306 962.0166 793.68408 4286744653
28.106422 961.20068 793.86816 4286483021
30.891745 960.42633 793.21527 4292856802
34.183487 960.61993 793.37848 4293186265
37.475231 960.81348 793.54169 4293186011
40.51376 961.58789 794.19458 4293186530
43.272476 961.52234 793.48529 4293385182
46.337616 961.20068 793.86816 4293450206
49.122936 960.42633 793.21527 4293515742
-15.80367 764.11829 796.4292 4287326069
-13.169725 763.44702 795.86328 4288377454
54.434864 762.77582 795.29736 4294174708
-15.770642 766.98285 796.22839 4287129458
-12.850154 766.53632 795.85187 4287784805
-10.513762 765.64319 795.09888 4288575600
54.321102 765.64319 795.09888 4293846000
-15.721101 770.60138 795.35547 4287065210
-13.142202 768.32245 797.35803 4287916905
-10.480734 770.60138 795.35547 4289298826
50.656879 770.60138 795.35547 4293977586
52.403671 770.60138 795.35547 4293977838
55.023853 770.60138 795.35547 4293780204
