# .PCD v0.7 - Point Cloud Data file format
VERSION 0.7
FIELDS x y z rgb
SIZE 4 4 4 4
TYPE F F F U
COUNT 1 1 1 1
WIDTH 1161
HEIGHT 1
VIEWPOINT 0 0 0 1 0 0 0
POINTS 1161
DATA ascii
4.6018348 877.17242 1280.2384 4290686680
-34.376148 884.88721 1280.2031 4283510353
-32.084404 884.01117 1279.4645 4284826684
-28.64679 884.01117 1279.4645 4284828467
-25.209175 883.13513 1278.7258 4286804809
2.291743 883.13513 1278.7258 4284635021
4.5834861 884.88721 1280.2031 4288521412
11.458715 884.88721 1280.2031 4285563552
-31.981651 890.33014 1279.5603 4282922588
-28.174311 889.74799 1279.0695 4284566640
-25.128441 889.45691 1278.824 4283973988
-22.844036 889.45691 1278.824 4284171341
-19.417431 888.58368 1278.0878 4287724646
2.2844036 889.45691 1278.824 4290097861
4.5688071 890.33014 1279.5603 4289375962
-28.440367 898.84155 1280.1969 4283845733
-25.027523 897.97186 1279.4636 4290161370
-22.752293 897.97186 1279.4636 4289636292
2.2752295 898.84155 1280.1969 4289963987
4.5504589 898.84155 1280.1969 4289439955
6.8256879 898.84155 1280.1969 4289571541
10.238532 898.84161 1280.1969 4289440475
13.651376 898.84155 1280.1969 4289440730
15.926605 898.84155 1280.1969 4289440475
19.339451 898.84161 1280.1969 4288784077
22.752293 898.84155 1280.1969 4288256968
-27.21468 904.22839 1279.5067 4283120204
-24.946789 904.22839 1279.5067 4285159787
-22.6789 904.22839 1279.5067 4286016644
-19.277065 904.22839 1279.5067 4286148236
-15.875229 903.36151 1278.7758 4289897413
-10.205505 903.36151 1278.7758 4286072437
-6.8036699 903.36151 1278.7758 4287184751
-4.53578 904.22839 1279.5067 4286068588
-2.26789 904.22839 1279.5067 4291068599
0 904.22839 1279.5067 4290030033
-24.866055 908.72864 1278.0691 4282265160
-22.605505 908.72864 1278.0691 4282464079
-19.21468 908.72864 1278.0691 4282200651
-15.823853 908.72864 1278.0691 4285227131
-9.042202 908.72864 1278.0691 4288903566
-6.7816515 908.72864 1278.0691 4285416537
-4.521101 908.72864 1278.0691 4285869158
-2.2605505 908.72864 1278.0691 4291593150
0 908.72864 1278.0691 4290555857
-24.866055 910.45685 1279.5264 4284307573
-22.605505 910.45685 1279.5264 4286081174
-19.21468 910.45685 1279.5264 4283779430
-15.823853 910.45685 1279.5264 4284306529
-6.7816515 910.45685 1279.5264 4285284465
-4.521101 910.45685 1279.5264 4285669978
-2.2605505 910.45685 1279.5264 4292380865
0 910.45685 1279.5264 4290884838
-27.126606 912.18506 1280.9835 4287464844
-24.866055 912.18506 1280.9835 4287925395
-22.605505 912.18506 1280.9835 4287334069
-4.521101 912.18506 1280.9835 4284684633
-2.2605505 912.18506 1280.9835 4292119242
0 912.18506 1280.9835 4291146992
-27.016514 917.98779 1279.3361 4290159053
-24.765137 917.98779 1279.3361 4290751190
-22.513762 917.98779 1279.3361 4289504204
-4.5027523 917.98779 1279.3361 4284622676
-2.2513762 917.98779 1279.3361 4291004340
0 917.98779 1279.3361 4291080940
-27.016514 919.70905 1280.7874 4287396510
-24.765137 919.70905 1280.7874 4289107385
-22.513762 919.70905 1280.7874 4288846529
-2.2513762 919.70905 1280.7874 4291198612
0 919.70905 1280.7874 4290224861
-16.830275 923.29602 1278.5797 4287796412
-4.4880733 923.29602 1278.5797 4284624471
-2.2440367 923.29602 1278.5797 4289624738
0 923.29602 1278.5797 4289700035
-16.830275 925.0116 1280.0262 4282138737
-2.2440367 925.0116 1280.0262 4289166223
-13.409174 931.6084 1279.0483 4286088110
-11.174312 931.6084 1279.0483 4283061632
-8.9394493 930.75409 1278.328 4283518588
-4.4697247 930.75409 1278.328 4285883248
-2.2348623 931.6084 1279.0483 4288054946
0.74495411 931.89313 1279.2885 4288649927
4.4697247 932.46265 1279.7686 4289110739
26.818348 932.46265 1279.7686 4289440472
-11.137614 937.71198 1278.9625 4286346388
-7.7963305 937.71198 1278.9625 4285424269
-2.2275229 937.71198 1278.9625 4286544233
1.1137614 937.71198 1278.9625 4288584382
4.4550457 937.71198 1278.9625 4289111243
-13.365138 939.41492 1280.3984 4285229963
-11.137614 939.41492 1280.3984 4283979639
-7.7963305 939.41492 1280.3984 4285423240
-2.2275229 939.41492 1280.3984 4286741355
1.1137614 939.41492 1280.3984 4288321214
4.4550457 939.41492 1280.3984 4288782794
6.682569 939.41492 1280.3984 4288782794
-6.6605506 943.78754 1278.8531 4286278033
0.7400611 944.0705 1279.0917 4288057783
4.4403667 944.63623 1279.5687 4288781765
-11.100918 946.33356 1280.9999 4283058535
-7.7706423 946.33356 1280.9999 4284044426
-2.2201834 946.33356 1280.9999 4287333254
0 946.33356 1280.9999 4288122538
-28.647707 958.8291 1279.7635 4287731905
-25.342201 958.8291 1279.7635 4289177287
-22.036697 957.14435 1278.343 4289770484
-19.833027 957.14435 1278.343 4285822904
-15.425688 957.14435 1278.343 4284183709
-30.748625 964.80853 1279.5731 4287927227
-28.552294 964.80853 1279.5731 4288058557
-26.355963 964.80853 1279.5731 4288123581
-19.766972 963.96899 1278.8652 4288255430
-16.472477 964.80847 1279.5731 4289570256
-13.177981 964.80853 1279.5731 4290756059
-10.981651 965.64807 1280.281 4290755537
-4.3926606 963.96899 1278.8652 4291546367
-2.1963303 963.96899 1278.8652 4290164724
2.1963303 964.80853 1279.5731 4282665580
-43.992661 758.474 1282.1813 4282725961
19.552294 758.474 1282.1813 4290690035
-46.436699 760.34247 1283.7567 4283382378
-43.992661 760.34247 1283.7567 4283121739
19.552294 760.34247 1283.7567 4290756084
-43.827522 764.95709 1281.1075 4282662471
-41.392662 764.95709 1281.1075 4282201920
-46.262386 766.8186 1282.6771 4282003535
-43.827522 766.8186 1282.6771 4281938244
-46.053211 775.66467 1282.2877 4280033608
-43.629356 775.66467 1282.2877 4279575869
-46.053211 777.5177 1283.8501 4280163926
-45.878899 782.07483 1281.1523 4283782515
-43.464222 782.07483 1281.1523 4283717221
-48.293579 783.9209 1282.709 4283650926
-45.878899 783.9209 1282.709 4284309113
-52.921101 790.2959 1281.5442 4282331984
-50.515594 790.2959 1281.5442 4282266191
-43.299084 790.2959 1281.5442 4283321962
-40.893578 790.2959 1281.5442 4284177270
-38.488075 790.2959 1281.5442 4286803066
14.433027 790.2959 1281.5442 4290691057
16.838531 790.2959 1281.5442 4290691057
19.244038 790.2959 1281.5442 4290822642
21.649542 790.2959 1281.5442 4291151608
-52.921101 792.13495 1283.0947 4282987604
-50.515594 792.13495 1283.0947 4283842913
-45.704586 792.13495 1283.0947 4283714675
-43.299084 792.13495 1283.0947 4284372596
-40.893578 792.13495 1283.0947 4285030783
14.433027 792.13495 1283.0947 4290625266
16.838531 792.13495 1283.0947 4290625266
19.244038 792.13495 1283.0947 4290625012
-40.737614 799.39099 1282.6726 4286798715
-38.341286 799.39099 1282.6726 4287588207
-35.944954 798.47498 1281.9003 4287259259
14.377981 798.47498 1281.9003 4290623728
16.774311 799.39099 1282.6726 4290624498
19.170643 799.39099 1282.6726 4290230510
22.765137 799.39099 1282.6727 4290361841
-54.904587 806.61194 1282.2211 4285605985
-52.517429 806.61194 1282.2211 4285213009
-50.130276 806.61194 1282.2211 4285147216
-40.58165 806.61194 1282.2211 4288116866
14.322936 806.61194 1282.2211 4290361828
16.710093 806.61194 1282.2211 4290361828
19.097248 806.61194 1282.2211 4290164463
-40.58165 808.43701 1283.7599 4286868328
14.322936 808.43701 1283.7599 4290295529
16.710093 808.43701 1283.7599 4290229736
19.097248 808.43701 1283.7599 4290098670
22.677982 808.43701 1283.7599 4290296047
-38.077065 812.36346 1281.8385 4287455577
10.709174 812.36346 1281.8385 4290294516
14.278899 812.36346 1281.8385 4290361576
16.658716 812.36346 1281.8385 4290098405
19.038532 812.36346 1281.8385 4290098159
23.798164 812.36346 1281.8385 4290361839
-40.456882 814.18286 1283.3726 4286341975
11.899082 814.18286 1283.3726 4290164463
14.278899 814.18286 1283.3726 4290361837
16.658716 814.18286 1283.3726 4290230508
19.038532 814.18286 1283.3726 4289967081
22.608257 814.18286 1283.3726 4290296302
-40.300919 820.42749 1282.0977 4286535000
7.1119266 820.42749 1282.0977 4290362091
10.667891 820.42749 1282.0977 4290164715
16.594496 820.42749 1282.0977 4290427630
-40.300919 822.23987 1283.6259 4286403421
11.853211 822.23987 1283.6259 4290427882
14.223853 822.23987 1283.6259 4290362089
16.594496 822.23987 1283.6259 4290493676
18.965137 822.23987 1283.6259 4290098670
-51.952293 830.25482 1283.8436 4285223767
-42.50642 830.25482 1283.8436 4286073154
-40.144955 829.35217 1283.0825 4286008383
-37.783485 829.35217 1283.0825 4286269770
11.80734 828.44946 1282.3214 4290097132
14.168807 830.25482 1283.8436 4290493162
16.530275 830.25482 1283.8436 4290493162
18.891743 830.25482 1283.8436 4290098922
22.433945 830.25482 1283.8436 4290362091
-39.988991 836.42932 1282.5096 4285943370
-37.636696 836.42932 1282.5096 4286268737
-35.284405 836.42932 1282.5096 4286926666
14.113762 836.42932 1282.5096 4290427882
16.466055 836.42932 1282.5096 4290230760
18.818348 836.42932 1282.5096 4289901034
21.170643 836.42932 1282.5096 4289901034
-35.14679 842.57568 1281.1521 4286998133
-31.632111 842.57568 1281.1521 4288182130
4.6862388 842.57568 1281.1521 4289704164
7.0293579 842.57568 1281.1521 4290164715
10.544037 842.57568 1281.1521 4290230506
14.058716 842.57568 1281.1521 4290231273
16.401834 842.57568 1281.1521 4290165480
-37.48991 844.36707 1282.6625 4287854221
-35.14679 844.36707 1282.6625 4287985808
11.715596 844.36707 1282.6625 4290886637
14.058716 844.36707 1282.6625 4290624230
16.401834 844.36707 1282.6625 4290492644
21.088074 844.36707 1282.6625 4290295020
-42.044037 851.75842 1283.6626 4285411145
-39.708256 851.75842 1283.6626 4286792798
-37.372478 850.8656 1282.9097 4286993019
-35.036697 850.8656 1282.9097 4287848584
-31.922323 850.56793 1282.6587 4288570248
-28.029358 849.97272 1282.1569 4288633714
2.3357799 849.97272 1282.1569 4288714187
4.6715598 850.8656 1282.9097 4284767881
7.0073395 850.8656 1282.9097 4284570502
10.511009 850.8656 1282.9097 4285492094
14.014679 851.75842 1283.6626 4283451769
-37.225689 857.83752 1282.248 4286596459
-34.899082 857.83752 1282.248 4286596459
-27.919266 857.83752 1282.248 4287379286
-25.592661 857.83752 1282.248 4290011263
-19.776146 857.83752 1282.248 4289824188
2.3266056 857.83752 1282.248 4282205047
4.6532111 857.83752 1282.248 4281745759
6.9798164 857.83752 1282.248 4283982721
9.3064222 857.83752 1282.248 4284704659
-40.715595 859.61621 1283.7478 4284102487
-37.225689 859.61621 1283.7478 4285217886
6.9798164 859.61621 1283.7478 4284771722
9.3064222 859.61621 1283.7478 4286545830
-37.078899 865.66028 1282.304 4284368975
2.3174312 865.66028 1282.304 4285753749
4.6348624 865.66028 1282.304 4285623211
-37.078899 867.43195 1283.7977 4285356374
2.3174312 867.43195 1283.7977 4290162900
4.6348624 867.43195 1283.7977 4289834969
6.9522934 867.43195 1283.7977 4289571540
-36.961468 872.06482 1282.4719 4285487690
2.3100917 871.18176 1281.7273 4291083250
4.6201835 872.06482 1282.4719 4291148000
6.9302754 872.94781 1283.2164 4289765841
-48.319267 878.93152 1281.7216 4283841864
-36.814678 878.93152 1281.7216 4284504659
-34.51376 878.93152 1281.7216 4284570452
-32.212845 878.93152 1281.7216 4285686096
-29.911926 878.93152 1281.7216 4287659629
2.3009174 878.93152 1281.7216 4284765076
4.6018348 878.93152 1281.7216 4285157281
6.9027524 878.93152 1281.7216 4283841421
9.2036695 878.93152 1281.7216 4283705682
-48.319267 880.69055 1283.2048 4283971917
-46.018349 880.69055 1283.2048 4284035917
-40.266056 880.69055 1283.2048 4283644238
-36.814678 880.69055 1283.2048 4284634189
-34.51376 880.69055 1283.2048 4284502347
4.6018348 880.69055 1283.2048 4283650928
6.9027524 880.69055 1283.2048 4281150538
10.354128 880.69055 1283.2048 4283714698
-41.251377 886.63922 1281.6804 4283249227
-37.813759 886.63922 1281.6804 4284369257
-34.376148 886.63922 1281.6804 4283054690
-32.084404 886.63922 1281.6804 4283049533
-29.79266 886.63922 1281.6804 4283049533
4.5834861 886.63922 1281.6804 4289837015
6.8752294 886.63922 1281.6804 4288981707
10.312843 886.63922 1281.6804 4287337426
13.750459 886.63922 1281.6804 4283522500
-43.543118 888.3913 1283.1577 4285816944
-41.251377 888.3913 1283.1577 4286016385
-37.813759 888.3913 1283.1577 4287134615
-34.376148 888.3913 1283.1577 4284174192
6.8752294 888.3913 1283.1577 4289442012
10.312843 888.3913 1283.1577 4289507555
13.750459 888.3913 1283.1577 4289573857
-34.266056 893.823 1282.5054 4282528098
-31.981651 892.94977 1281.769 4284306284
-28.555046 892.07654 1281.0328 4287200416
2.2844036 892.07654 1281.0328 4289833946
4.5688071 892.07654 1281.0328 4289572566
6.8532109 892.94977 1281.769 4289572309
10.279816 892.94977 1281.769 4289506267
-36.550457 895.56946 1283.978 4282659143
-34.266056 895.56946 1283.978 4282659143
-31.981651 895.56946 1283.978 4282463293
-31.85321 901.45068 1282.3969 4283842899
-29.577982 901.45068 1282.3969 4283184713
2.2752295 901.45068 1282.3969 4289701069
4.5504589 901.45068 1282.3969 4289439439
6.8256879 901.45068 1282.3969 4289834196
10.238532 901.45068 1282.3969 4289570775
13.651376 901.45068 1282.3969 4289111509
15.926605 901.45068 1282.3969 4288190407
19.339451 901.45068 1282.3969 4287730874
22.752293 901.45068 1282.3969 4288059603
-31.85321 903.19019 1283.8635 4284301906
-29.577982 903.19019 1283.8635 4284170063
2.2752295 903.19019 1283.8635 4289964240
4.5504589 903.19019 1283.8635 4289636822
6.8256879 903.19019 1283.8635 4289242064
10.238532 903.19019 1283.8635 4288385469
13.651376 903.19019 1283.8635 4286611375
15.926605 903.19019 1283.8635 4288453579
19.339451 903.19019 1283.8635 4288981202
22.752293 903.19019 1283.8635 4289965787
-28.348625 907.69604 1282.4305 4283451486
2.26789 908.56293 1283.1615 4290292701
4.53578 908.56293 1283.1615 4288390355
-27.126606 913.91327 1282.4407 4289439942
-2.2605505 913.91327 1282.4407 4291791528
-29.387156 915.64148 1283.8978 4289174486
2.2605505 915.64148 1283.8978 4290488547
-27.016514 922.29083 1282.9641 4283848551
-24.765137 922.29083 1282.9641 4284045929
-22.513762 922.29083 1282.9641 4283912572
-20.262384 922.29083 1282.9641 4284109951
2.2513762 922.29083 1282.9641 4289765834
4.5027523 923.15143 1283.6898 4289373397
-26.92844 926.72723 1281.4728 4281877889
-22.440367 926.72723 1281.4728 4280889697
-20.196331 926.72723 1281.4728 4280231766
-16.830275 926.72723 1281.4728 4280762710
2.2440367 926.72723 1281.4728 4289833174
4.4880733 926.72723 1281.4728 4289374168
-25.806423 928.44275 1282.9193 4285561254
-22.440367 928.44275 1282.9193 4286286256
-20.196331 928.44275 1282.9193 4285628325
-16.830275 928.44275 1282.9193 4285037210
2.2440367 928.44275 1282.9193 4289242064
4.4880733 928.44275 1282.9193 4288848083
-35.757797 935.87976 1282.6499 4283122502
-26.073395 935.31024 1282.1697 4284107347
-22.348623 935.87976 1282.6499 4284768587
-15.644036 935.87976 1282.6499 4286412154
-13.409174 935.02551 1281.9296 4287201961
-2.2348623 934.1712 1281.2092 4287333256
2.2348623 934.1712 1281.2092 4289110991
4.4697247 934.1712 1281.2092 4289242066
7.8220181 935.87976 1282.6499 4288848073
-22.275229 941.11786 1281.8344 4284046686
-13.365138 941.11786 1281.8344 4285426292
-11.137614 941.11786 1281.8344 4283715675
-8.9100914 941.11786 1281.8344 4284634239
-2.2275229 941.11786 1281.8344 4287068775
2.2275229 941.11786 1281.8344 4289110982
4.4550457 941.11786 1281.8344 4289044935
7.7963305 941.11786 1281.8344 4288913605
-22.275229 942.8208 1283.2703 4282011759
-20.047707 942.8208 1283.2703 4282340981
-13.365138 942.8208 1283.2703 4284702070
-11.137614 942.8208 1283.2703 4283188831
-8.9100914 942.8208 1283.2703 4284500591
-2.2275229 942.8208 1283.2703 4287528318
7.7963305 942.8208 1283.2703 4288716226
-26.642202 949.72827 1283.8622 4280821325
-22.201836 948.87958 1283.1466 4282401637
-19.981651 948.03088 1282.431 4284372867
-13.321101 948.03088 1282.431 4286808488
1.1100917 948.03088 1282.431 4286805395
-26.554129 953.21851 1281.573 4284308859
1.1064221 953.21851 1281.573 4283647594
4.4256883 953.21851 1281.573 4283120987
6.6385322 953.21851 1281.573 4283581538
-33.192661 954.91022 1282.9995 4287531695
-26.554129 954.91022 1282.9995 4287533718
1.1064221 954.91022 1282.9995 4283648123
8.8513765 954.91022 1282.9995 4282922581
11.06422 954.91022 1282.9995 4284764785
-39.666054 962.19855 1282.6046 4287992244
-37.462387 962.19855 1282.6046 4288189880
-33.789604 961.63696 1282.1311 4287993012
-30.851376 960.51379 1281.1841 4288255430
-28.647707 960.51379 1281.1841 4288650188
-24.974924 961.07538 1281.6576 4288978890
-22.036697 961.3562 1281.8943 4289308373
0.73455662 961.07538 1281.6576 4284310650
6.6110091 962.19855 1282.6046 4283320930
19.833027 962.19855 1282.6046 4283973965
22.036697 962.19855 1282.6046 4283516499
-28.552294 967.32721 1281.6969 4287993528
-15.374312 967.32721 1281.6969 4287794870
-13.177981 967.32721 1281.6969 4287598774
-10.981651 967.32721 1281.6969 4287664567
-6.5889907 967.32721 1281.6969 4288913098
-4.3926606 967.32721 1281.6969 4289505765
-2.1963303 967.32721 1281.6969 4290690039
-10.981651 969.00635 1283.1127 4287860915
-7.6871557 969.00635 1283.1127 4287860913
-46.611008 754.77606 1285.6035 4282855255
-46.436699 762.21094 1285.3322 4282922831
-48.697247 770.5415 1285.8162 4282071642
-46.262386 768.68005 1284.2466 4283189342
-43.827522 768.68005 1284.2466 4283386723
-49.688992 779.37079 1285.4126 4284045167
-53.324772 781.22388 1286.9751 4283716188
-50.900917 781.22388 1286.9751 4283781981
-53.122936 785.76697 1284.2655 4282202195
-49.500916 785.76697 1284.2655 4281676116
-45.878899 785.76697 1284.2655 4282860911
-48.293579 787.61298 1285.822 4282397039
-45.878899 787.61298 1285.822 4282989176
-52.921101 793.974 1284.6454 4284564823
-49.312843 793.974 1284.6454 4284828009
-45.704586 793.974 1284.6454 4285288571
-43.299084 793.974 1284.6454 4285354616
16.838531 793.974 1284.6454 4290558710
-52.921101 795.81299 1286.196 4285219676
-50.515594 795.81299 1286.196 4285482591
-45.704586 795.81299 1286.196 4286140537
-43.299084 795.81299 1286.196 4285943664
-46.728439 803.97107 1286.5344 4285876572
-43.133945 803.97107 1286.5344 4286669420
-40.737614 802.13904 1284.9897 4287983745
16.774311 802.13904 1284.9897 4290164713
19.170643 802.13904 1284.9897 4290032877
22.365747 803.36035 1286.0195 4290427633
-52.517429 811.17444 1286.0681 4284890706
-50.130276 812.08698 1286.8374 4285682525
-47.743118 812.08698 1286.8374 4285617750
-42.968807 812.08698 1286.8374 4286473561
-40.58165 810.26196 1285.2987 4286933592
21.484404 810.26196 1285.2987 4290361074
-52.355965 817.82166 1286.4407 4285224273
-49.976147 817.82166 1286.4407 4285026894
-46.406422 817.82166 1286.4407 4285812047
-42.836697 816.91199 1285.6736 4286207313
11.899082 816.00226 1284.9066 4290098922
14.278899 816.91199 1285.6736 4290164461
16.658716 816.00226 1284.9066 4290230256
19.038532 816.91199 1285.6736 4290033129
22.608257 816.91193 1285.6737 4290296044
-45.042202 824.05225 1285.1539 4285484115
-42.671558 824.05225 1285.1539 4285811783
-40.300919 824.05225 1285.1539 4286074699
14.223853 824.05225 1285.1539 4289967081
16.594496 824.05225 1285.1539 4290361839
18.965137 824.05225 1285.1539 4290098922
22.521101 824.05225 1285.1539 4290492909
-46.227524 825.86462 1286.6821 4285156433
-42.671558 825.86462 1286.6821 4285614904
14.223853 825.86462 1286.6821 4290164715
16.594496 825.86462 1286.6821 4290559473
18.965137 825.86462 1286.6821 4290230506
22.521101 825.86462 1286.6821 4290427883
-51.952293 833.86554 1286.8882 4285355366
-49.590824 833.86554 1286.8882 4284960865
-47.229359 833.86554 1286.8882 4285287767
-43.687157 832.96289 1286.1271 4285549393
-39.988991 838.22766 1284.026 4285747787
-37.636696 838.22766 1284.026 4286270538
-35.284405 838.22766 1284.026 4286270538
16.466055 838.22766 1284.026 4290428134
18.818348 838.22766 1284.026 4289966829
-39.988991 840.026 1285.5424 4286539906
-37.636696 840.026 1285.5424 4286800755
18.818348 840.026 1285.5424 4289967081
21.170643 840.026 1285.5424 4290098668
-42.176147 847.94971 1285.6833 4285742156
-39.833027 847.05408 1284.9281 4286862188
-37.48991 846.15839 1284.1729 4287391624
14.058716 847.05408 1284.9281 4290228183
16.401834 847.05408 1284.9281 4290754270
18.744955 847.05408 1284.9281 4290557674
21.088074 847.05408 1284.9281 4290886637
-42.044037 853.54419 1285.1682 4284757074
-39.708256 853.54419 1285.1682 4286204520
-37.372478 853.54419 1285.1682 4286859895
11.678899 853.54419 1285.1682 4281347418
14.014679 853.54419 1285.1682 4282203228
-43.211929 855.3299 1286.6738 4283839051
-39.708256 855.3299 1286.6738 4285614177
11.678899 855.3299 1286.6738 4285559968
14.014679 855.3299 1286.6738 4285099154
16.350458 855.3299 1286.6738 4284770188
-44.205505 862.28424 1285.9976 4284367949
-40.715595 862.2843 1285.9976 4284041034
6.9798164 862.28424 1285.9976 4283979668
10.469725 862.2843 1285.9976 4286876075
-40.555046 869.20361 1285.2916 4284830785
6.9522934 869.20361 1285.2916 4291214555
-46.348625 870.97534 1286.7854 4284501063
-40.555046 870.97534 1286.7854 4284764235
10.42844 870.97534 1286.7854 4285822109
-48.511925 874.71393 1284.7056 4284632652
-46.201836 874.71393 1284.7056 4284697663
-40.426605 874.71393 1284.7056 4284698197
6.9302754 874.71393 1284.7056 4288515510
9.2403669 874.71393 1284.7056 4285422727
-46.201836 876.47998 1286.1947 4284168519
-40.426605 876.47998 1286.1947 4284234825
11.550459 876.47998 1286.1947 4286666368
13.860551 876.47998 1286.1947 4289302449
-49.086243 883.03595 1285.1824 4283775056
-46.018349 883.32922 1285.4296 4283576408
-43.71743 883.32922 1285.4296 4283576408
-40.266056 882.44965 1284.688 4282593082
-36.814678 882.44965 1284.688 4283246924
6.9027524 882.44965 1284.688 4287534260
9.2036695 882.44965 1284.688 4286155690
13.805505 882.44965 1284.688 4281163937
-43.543118 890.14331 1284.635 4286017646
-41.251377 890.14331 1284.635 4286344846
-37.813759 890.14331 1284.635 4286805656
-34.376148 890.14331 1284.635 4285424005
13.750459 890.14331 1284.635 4289901025
-41.251377 891.89539 1286.1123 4283317087
-37.813759 891.89539 1286.1123 4282856543
16.042202 891.89539 1286.1123 4289638110
-34.266056 897.31592 1285.4506 4283711311
-31.981651 897.31592 1285.4506 4283186498
25.128441 898.18909 1286.1868 4289178080
27.412844 899.06232 1286.9231 4289704677
-34.128441 904.92957 1285.3301 4283253840
-31.85321 904.92957 1285.3301 4283384145
2.2752295 904.92957 1285.3301 4290227148
4.5504589 904.92957 1285.3301 4289045718
6.8256879 904.92957 1285.3301 4288650960
10.238532 904.92957 1285.3301 4286875313
13.651376 904.92957 1285.3301 4287663786
15.926605 904.92957 1285.3301 4289439940
19.339451 904.92957 1285.3301 4290229475
22.752293 904.92957 1285.3301 4290032611
-34.128441 906.66901 1286.7968 4284835966
-31.85321 906.66901 1286.7968 4284177772
6.8256879 906.66901 1286.7968 4285824171
10.238532 906.66901 1286.7968 4286611625
13.651376 906.66901 1286.7968 4289833937
15.926605 906.66901 1286.7968 4290623197
19.339451 906.66901 1286.7968 4290229222
22.752293 906.66901 1286.7968 4289770468
-31.750458 910.29675 1284.6234 4285492335
-29.482569 910.29675 1284.6234 4286018680
2.26789 910.29675 1284.6234 4290752235
4.53578 910.29675 1284.6234 4288454860
6.8036699 910.29675 1284.6234 4285099417
20.411009 910.29675 1284.6234 4289966820
-34.018349 912.03064 1286.0853 4285099408
-31.750458 912.03064 1286.0853 4286082453
-29.482569 912.03064 1286.0853 4289043138
2.26789 912.03064 1286.0853 4290094827
4.53578 912.03064 1286.0853 4287535559
6.8036699 912.03064 1286.0853 4286680250
9.0715599 912.03064 1286.0853 4287797421
13.60734 912.03064 1286.0853 4290098157
15.875229 912.03064 1286.0853 4289900521
20.411009 912.03064 1286.0853 4289967081
22.6789 912.03064 1286.0853 4289639917
-31.647707 917.36969 1285.355 4285814916
-29.387156 917.36969 1285.355 4287196568
2.2605505 917.36969 1285.355 4289830103
4.521101 917.36969 1285.355 4288451521
-36.168808 919.0979 1286.8123 4281346386
-33.908257 919.0979 1286.8123 4282399074
-31.647707 919.0979 1286.8123 4282796119
-29.387156 919.0979 1286.8123 4284177772
4.521101 919.0979 1286.8123 4289109965
6.7816515 919.0979 1286.8123 4289570516
20.344954 919.0979 1286.8123 4289770209
-37.147705 926.59381 1286.5924 4285885821
-31.519266 925.73322 1285.8667 4285164688
-29.267889 925.73322 1285.8667 4284967052
-24.765137 924.87262 1285.1411 4281285751
6.7541285 925.73322 1285.8667 4289177047
15.759633 926.59381 1286.5924 4289177557
24.765137 925.73322 1285.8667 4289439969
-38.148624 931.87396 1285.8124 4283450724
-34.78257 931.87396 1285.8124 4283255373
-31.416513 931.87396 1285.8124 4283517543
-29.172478 931.01617 1285.0891 4285359495
-25.432417 930.73022 1284.848 4286149776
-22.440367 931.01617 1285.0891 4286478757
-20.196331 931.01617 1285.0891 4286149792
-16.830275 931.01617 1285.0891 4286939815
7.4801221 931.30206 1285.3302 4289110223
24.684404 931.01617 1285.0891 4289307864
-34.640366 937.58838 1284.0905 4283713614
-29.053211 937.58838 1284.0905 4285553756
-25.700916 937.58838 1284.0905 4285683291
-22.348623 937.58838 1284.0905 4286015588
-20.113762 937.58838 1284.0905 4286870897
-16.761467 937.58838 1284.0905 4286479737
8.9394493 937.58838 1284.0905 4288848839
-34.640366 941.00549 1286.9717 4283519842
-31.288073 940.15125 1286.2515 4283783000
-29.053211 940.15125 1286.2515 4283783257
-25.700916 940.15118 1286.2515 4283519075
-20.113762 939.29694 1285.5311 4285362546
-16.761467 940.15125 1286.2515 4285032815
11.174312 940.15125 1286.2515 4288782274
17.878899 941.00549 1286.9717 4288848072
20.113762 941.00549 1286.9717 4288782278
22.348623 941.00549 1286.9717 4288321989
24.583487 940.15125 1286.2515 4288848588
-22.275229 944.5238 1284.7062 4284573073
-20.047707 944.5238 1284.7062 4284770709
-15.592661 944.5238 1284.7062 4284374665
-13.365138 944.5238 1284.7062 4284177272
2.2275229 944.5238 1284.7062 4289569984
4.4550457 944.5238 1284.7062 4289372103
7.7963305 944.5238 1284.7062 4289109187
-33.412846 946.22675 1286.142 4281611859
-31.185322 946.22675 1286.142 4282200150
-25.616514 946.22675 1286.142 4282529895
-16.706421 946.22675 1286.142 4285493380
4.4550457 946.22675 1286.142 4288253354
6.682569 946.22675 1286.142 4289240249
-34.412842 952.27429 1286.009 4286151072
-31.082569 952.27429 1286.009 4285822876
-28.862385 952.27429 1286.009 4285099152
-24.422018 952.27429 1286.009 4288585904
13.321101 953.12292 1286.7246 4285882746
17.761467 953.12292 1286.7246 4285096324
22.201836 953.12292 1286.7246 4282265943
24.422018 953.12292 1286.7246 4282989667
-33.192661 956.60193 1284.4259 4288123581
-30.979816 956.60193 1284.4259 4287731905
1.1064221 956.60193 1284.4259 4283319665
7.7449541 956.60193 1284.4259 4283517273
11.06422 956.60193 1284.4259 4283057742
13.277064 956.60193 1284.4259 4282990936
-37.618347 958.2937 1285.8523 4287071924
-35.405506 958.2937 1285.8523 4287400362
4.4256883 958.2937 1285.8523 4282924889
7.7449541 958.2937 1285.8523 4283648608
11.06422 958.2937 1285.8523 4283450970
13.277064 958.2937 1285.8523 4283384145
16.596331 958.2937 1285.8523 4283647826
19.915596 958.2937 1285.8523 4283516749
-40.767891 963.88324 1284.0251 4288387257
-37.462387 963.88324 1284.0251 4288255673
-33.7896 964.44482 1284.4987 4288124090
-30.851376 965.56799 1285.4457 4287993528
-24.974924 965.00641 1284.9722 4287926714
-22.036697 964.72559 1284.7354 4287991994
-19.833027 964.72559 1284.7354 4287991994
-17.629358 965.56799 1285.4457 4287729077
0 964.72559 1284.7354 4290886372
6.6110091 963.88324 1284.0251 4283712354
17.629358 963.88324 1284.0251 4283579212
22.036697 964.72559 1284.7354 4283450190
24.240368 964.72559 1284.7354 4283450190
-25.342201 967.25269 1286.8662 4287993017
-22.036697 967.25269 1286.8662 4288057788
-19.833027 967.25269 1286.8662 4288057788
-16.527523 967.25269 1286.8662 4287926201
-13.222018 967.25269 1286.8662 4287729329
-4.4073396 967.25269 1286.8662 4288586169
-2.2036698 967.25269 1286.8662 4290559959
0 967.25269 1286.8662 4290557422
22.036697 967.25269 1286.8662 4283318352
-49.06422 757.58936 1287.9755 4281869139
-49.06422 759.46484 1289.5569 4280949041
-48.880733 765.94794 1288.4832 4282202447
-48.697247 772.40302 1287.3857 4280823124
-48.697247 774.26447 1288.9552 4281413994
-48.293579 789.45898 1287.3785 4283648626
-52.921101 797.65204 1287.7466 4285481044
-49.312843 797.65204 1287.7466 4285481310
-45.704586 797.65204 1287.7466 4286139760
-43.299084 797.65204 1287.7466 4286141039
-52.921101 799.49109 1289.2972 4285346385
-49.312843 799.49109 1289.2972 4285150289
-45.704586 799.49109 1289.2972 4286533224
-43.299084 799.49109 1289.2972 4286470506
24.055046 799.49109 1289.2972 4290230510
-55.115597 805.80304 1288.0791 4285343835
-52.719265 805.80304 1288.0791 4284755275
-50.322937 805.80304 1288.0791 4285676377
-46.728439 805.80304 1288.0791 4286273375
-43.133945 805.80304 1288.0791 4286736999
-50.322937 807.63507 1289.6239 4286138727
-46.728439 807.63507 1289.6239 4286143072
-43.133945 807.63507 1289.6239 4286802262
-52.517429 813.91199 1288.3762 4285156429
-50.130276 813.91199 1288.3762 4286011738
-46.549541 813.91199 1288.3762 4286143572
-49.976147 821.46045 1289.5088 4284961103
-46.803059 820.2475 1288.486 4285549908
-42.836697 819.64099 1287.9747 4285877076
22.608257 819.64099 1287.9747 4290361585
-49.783485 827.677 1288.2102 4284960851
-46.227524 827.677 1288.2102 4285352529
-52.154129 829.48938 1289.7384 4285223771
-49.783485 829.48938 1289.7384 4284894806
-47.412846 829.48938 1289.7384 4285090132
-51.952293 835.6709 1288.4104 4285420400
-49.590824 835.6709 1288.4104 4285025643
-47.229359 835.6709 1288.4104 4285354074
-43.687157 835.6709 1288.4104 4285419344
-51.952293 837.47626 1289.9326 4284957026
-49.590824 837.47626 1289.9326 4285746799
-47.229359 837.47626 1289.9326 4285486175
-43.687157 837.47626 1289.9326 4286539385
-42.341286 841.82434 1287.0586 4287656095
-39.988991 841.82434 1287.0586 4288050853
18.818348 841.82434 1287.0586 4290097384
-43.517433 843.62268 1288.575 4286139240
-51.548622 850.63672 1287.949 4283577418
-49.205505 850.63672 1287.949 4283643211
-46.862385 850.63672 1287.949 4284559693
-44.519264 850.63672 1287.949 4284888658
16.401834 850.63672 1287.949 4282991981
18.744955 850.63672 1287.949 4284767591
21.088074 850.63672 1287.949 4285886329
-51.387157 857.1156 1288.1796 4284237364
-49.051376 857.1156 1288.1796 4283316262
-46.715595 857.1156 1288.1796 4283315272
-44.379818 857.1156 1288.1796 4283512651
11.678899 857.1156 1288.1796 4288322241
14.014679 857.1156 1288.1796 4288320442
16.350458 857.1156 1288.1796 4288189113
-51.387157 858.90131 1289.6852 4284501063
-49.051376 858.90131 1289.6852 4283448375
-46.715595 858.90131 1289.6852 4283511872
14.014679 858.90131 1289.6852 4290426084
16.350458 858.90131 1289.6852 4290163168
-48.858715 865.84167 1288.9971 4283976006
-46.532108 865.84167 1288.9971 4284304700
-44.205505 865.84167 1288.9971 4284699459
-40.715595 864.95233 1288.2472 4284829259
10.469725 865.84167 1288.9971 4290361301
13.959633 866.73102 1289.7469 4290623969
16.286238 865.84167 1288.9971 4289045717
19.776146 866.73102 1289.7469 4285363120
-44.031193 872.74707 1288.2793 4284237112
11.587156 872.74707 1288.2793 4282856799
16.222019 872.74707 1288.2793 4284633739
-44.031193 874.51874 1289.7732 4283839554
16.222019 874.51874 1289.7732 4289631414
19.698166 874.51874 1289.7732 4284900745
23.174313 874.51874 1289.7732 4281153622
25.491743 874.51874 1289.7732 4283324792
-43.891743 878.24609 1287.6838 4283969868
13.860551 878.24609 1287.6838 4287795883
16.170643 878.24609 1287.6838 4288322227
16.170643 880.01221 1289.173 4280900764
19.63578 880.01221 1289.173 4280237706
-48.319267 886.84729 1288.396 4283251532
-46.018349 886.84729 1288.396 4284173652
16.106422 886.84729 1288.396 4289770466
18.407339 887.72687 1289.1376 4289968356
-41.251377 893.64746 1287.5896 4281871183
-38.959633 893.64746 1287.5896 4281805390
-36.667889 895.39954 1289.0669 4283645518
25.128441 901.68201 1289.1318 4289834716
-34.128441 908.40845 1288.2634 4284769160
10.238532 908.40845 1288.2634 4286287298
13.651376 908.40845 1288.2634 4290294514
15.926605 908.40845 1288.2634 4290623478
18.201836 908.40845 1288.2634 4290098407
22.752293 908.40845 1288.2634 4289770470
25.027523 908.40845 1288.2634 4289770470
-36.403671 910.14789 1289.7301 4286217632
11.376146 910.14789 1289.7301 4289902540
18.201836 910.14789 1289.7301 4289638117
25.027523 910.14789 1289.7301 4289508075
-58.965137 913.7644 1287.5472 4283378501
-36.28624 913.7644 1287.5472 4286215826
-34.018349 913.7644 1287.5472 4286215826
-31.750458 913.7644 1287.5472 4286608815
4.53578 913.7644 1287.5472 4288189124
6.8036699 913.7644 1287.5472 4287662780
10.205505 913.7644 1287.5472 4289637853
13.60734 913.7644 1287.5472 4289901286
15.875229 913.7644 1287.5472 4289638371
20.411009 913.7644 1287.5472 4290098670
22.6789 913.7644 1287.5472 4289901555
-58.965137 915.49823 1289.0092 4283115847
-56.697247 915.49823 1289.0092 4283050054
-37.420181 915.49823 1289.0092 4282134869
-34.018349 915.49823 1289.0092 4283581549
6.8036699 915.49823 1289.0092 4289043401
10.205505 915.49823 1289.0092 4290228445
13.60734 915.49823 1289.0092 4289704675
15.875229 915.49823 1289.0092 4289638882
19.277065 915.49823 1289.0092 4289704677
22.6789 915.49823 1289.0092 4290032875
-37.299084 920.82611 1288.2694 4281217103
-33.908257 920.82611 1288.2694 4281744476
-31.647707 920.82611 1288.2694 4280893785
-29.387156 920.82611 1288.2694 4281222493
6.7816515 920.82611 1288.2694 4289439191
9.042202 920.82611 1288.2694 4289308375
15.823853 920.82611 1288.2694 4289636572
20.344954 920.82611 1288.2694 4289637085
24.866055 920.82611 1288.2694 4289375712
-40.689907 922.55432 1289.7266 4282729045
-37.299084 922.55432 1289.7266 4283649885
-33.908257 922.55432 1289.7266 4284110431
10.172478 922.55432 1289.7266 4289111766
13.563303 922.55432 1289.7266 4289308121
15.823853 922.55432 1289.7266 4289373914
19.21468 922.55432 1289.7266 4289571295
22.605505 922.55432 1289.7266 4289308386
-40.524769 928.315 1288.0437 4282858331
-37.147705 928.315 1288.0437 4285819512
-31.519266 928.315 1288.0437 4286806943
10.131193 928.315 1288.0437 4289242829
13.508257 928.315 1288.0437 4289308371
15.759633 928.315 1288.0437 4289242577
20.262384 928.315 1288.0437 4289308375
22.513762 928.315 1288.0437 4289308123
11.256881 930.03619 1289.4949 4289044170
13.508257 930.03619 1289.4949 4288978638
15.759633 930.03619 1289.4949 4289176273
19.136696 930.03619 1289.4949 4289110482
22.513762 930.03619 1289.4949 4289242068
-38.148624 934.44739 1287.9822 4283318618
-33.660549 933.58954 1287.2589 4283649102
-31.416513 934.44739 1287.9822 4284567373
-29.172478 933.58954 1287.2589 4284436556
-20.196331 933.58954 1287.2589 4285623896
-17.952293 933.58954 1287.2589 4285688687
11.220183 934.44739 1287.9822 4288848328
13.46422 934.44739 1287.9822 4288913614
16.456268 934.73334 1288.2233 4289045199
20.196331 935.30518 1288.7056 4289044685
22.440367 935.30518 1288.7056 4289044431
24.684404 934.44739 1287.9822 4289110481
-37.992661 943.56836 1289.1326 4282334297
-35.012844 943.28363 1288.8925 4282927456
-31.288073 942.71411 1288.4124 4284045934
-29.053211 943.56836 1289.1326 4283254628
-25.700916 942.71411 1288.4124 4284637583
-17.878899 942.71411 1288.4124 4284440458
11.174312 943.56836 1289.1326 4288912578
13.409174 943.56836 1289.1326 4288912838
16.761467 943.56836 1289.1326 4289109704
20.113762 943.56836 1289.1326 4289241033
22.348623 943.56836 1289.1326 4288715713
24.583487 943.56836 1289.1326 4287926453
-34.526604 947.92969 1287.5779 4280624712
-31.185322 947.92969 1287.5779 4280625498
-28.957798 947.92969 1287.5779 4280296276
-24.502752 947.92969 1287.5779 4281216083
-35.640366 949.63269 1289.0138 4284770705
-37.743118 954.82031 1288.1558 4286939043
-35.522934 954.82031 1288.1558 4287202479
16.651375 954.82031 1288.1558 4283319647
19.981651 954.82031 1288.1558 4283187293
22.201836 955.66895 1288.8713 4283319384
24.422018 955.66895 1288.8713 4283319385
4.4256883 959.98547 1287.2788 4281939277
8.8513765 959.98547 1287.2788 4283844957
11.06422 959.98547 1287.2788 4283516249
13.277064 959.98547 1287.2788 4283843151
16.596331 959.98547 1287.2788 4283711308
4.4256883 961.67719 1288.7052 4282067785
8.8513765 961.67719 1288.7052 4283450974
11.06422 961.67719 1288.7052 4283385181
13.277064 961.67719 1288.7052 4283515985
15.489908 961.67719 1288.7052 4283384143
19.915596 961.67719 1288.7052 4283776591
-13.222018 968.93744 1288.2866 4287729075
-11.018349 968.93744 1288.2866 4287794868
-8.8146791 968.93744 1288.2866 4287729329
-4.4073396 968.93744 1288.2866 4286876065
-2.2036698 968.93744 1288.2866 4288718269
26.444036 968.93744 1288.2866 4283252809
-49.06422 761.34033 1291.1383 4280556089
-51.517429 763.21582 1292.7196 4282001742
-51.324772 767.81641 1290.0586 4282530135
-51.324772 769.68494 1291.634 4282401868
-48.293579 793.15112 1290.4916 4285548657
-45.530273 809.46704 1291.1686 4286473059
-50.130276 817.56201 1291.4539 4285157453
-52.355965 823.27979 1291.0428 4285026644
-49.976147 823.27979 1291.0428 4285026644
-51.952293 839.28162 1291.4548 4285153124
-49.590824 839.28162 1291.4548 4286206069
-47.229359 839.28162 1291.4548 4286207582
-44.867889 839.28162 1291.4548 4287655028
-51.952293 841.08698 1292.9771 4284821849
-49.590824 841.08698 1292.9771 4284953435
-47.229359 841.08698 1292.9771 4285085775
-51.750458 845.42102 1290.0913 4283969620
-49.398167 845.42102 1290.0913 4284101207
-47.045872 845.42102 1290.0913 4284755279
-44.693577 845.42102 1290.0913 4286005090
23.522936 845.42102 1290.0913 4290886122
23.522936 847.21942 1291.6075 4288382642
-51.548622 853.32373 1290.2145 4283840317
-49.205505 853.32373 1290.2145 4283708731
-46.862385 853.32373 1290.2145 4283511116
18.744955 853.32373 1290.2145 4287267481
21.088074 853.32373 1290.2145 4288385705
18.744955 855.11505 1291.7249 4289572044
21.088074 855.11505 1291.7249 4290229974
-51.387157 860.68701 1291.1909 4284631870
-49.051376 860.68701 1291.1909 4283710768
-46.715595 860.68701 1291.1909 4283842116
14.014679 860.68701 1291.1909 4290557674
16.350458 860.68701 1291.1909 4289833694
18.686239 860.68701 1291.1909 4287928264
21.022018 860.68701 1291.1909 4283585926
-51.387157 862.47278 1292.6965 4284041546
14.014679 862.47278 1292.6965 4290362612
18.686239 862.47278 1292.6965 4285365699
22.189907 862.47278 1292.6965 4285559971
25.693579 862.47278 1292.6965 4288583087
-44.205505 868.50977 1291.2467 4284501063
13.959633 868.50977 1291.2467 4285355678
16.286238 868.50977 1291.2467 4286079400
19.776146 868.50977 1291.2467 4283584393
23.266054 868.50977 1291.2467 4283256961
25.592661 868.50977 1291.2467 4288257229
13.959633 870.28845 1292.7465 4283910017
19.776146 870.28845 1292.7465 4282794336
23.266054 870.28845 1292.7465 4282730860
25.592661 870.28845 1292.7465 4288125629
19.698166 876.29041 1291.267 4284310419
23.174313 877.17627 1292.0139 4281419362
25.491743 877.17627 1292.0139 4281550948
27.809174 876.29041 1291.267 4282533978
16.170643 881.77826 1290.6621 4282930620
18.480734 881.77826 1290.6621 4281224583
19.63578 883.54431 1292.1511 4288587475
23.100918 883.54431 1292.1511 4285501621
25.411009 883.54431 1292.1511 4286949067
-46.018349 889.48596 1290.6208 4284440166
-43.71743 889.48596 1290.6208 4283124049
19.557798 889.48596 1290.6208 4289769439
23.009174 889.48596 1290.6208 4289768924
-46.018349 891.245 1292.104 4283453272
-43.71743 891.245 1292.104 4282268742
-41.251377 897.15161 1290.5442 4282004289
-36.667889 898.02759 1291.2828 4283382860
-34.376148 898.02759 1291.2828 4283711826
-36.550457 904.3017 1291.3408 4286020240
-37.692657 906.04816 1292.8134 4286676379
-56.880733 911.88733 1291.1967 4283181122
-52.330276 911.88733 1291.1967 4283049283
-38.678898 911.88733 1291.1967 4285952627
18.201836 911.88733 1291.1967 4289769705
25.027523 911.88733 1291.1967 4289769968
-43.229359 913.62671 1292.6633 4282263111
-40.954128 913.62671 1292.6633 4281280068
-58.965137 917.23206 1290.4711 4282460747
-56.697247 917.23206 1290.4711 4282526540
-43.089909 917.23206 1290.4711 4281871437
-40.822018 917.23206 1290.4711 4281280595
-38.554127 917.23206 1290.4711 4281149010
10.205505 917.23206 1290.4711 4289900762
13.60734 917.23206 1290.4711 4289835230
15.875229 917.23206 1290.4711 4289901023
18.14312 917.23206 1290.4711 4289704416
22.6789 917.23206 1290.4711 4289901540
-43.089909 918.96588 1291.933 4281217355
-40.822018 918.96588 1291.933 4281676882
11.33945 918.96588 1291.933 4289308375
13.60734 918.96588 1291.933 4289439193
18.14312 918.96588 1291.933 4289571292
22.6789 918.96588 1291.933 4288980955
-45.21101 926.01074 1292.6409 4282991464
-42.950459 925.14661 1291.9124 4282136922
-40.689907 924.28253 1291.1837 4283252827
-33.908257 925.14661 1291.9124 4286478715
10.172478 924.28253 1291.1837 4288915411
13.563303 924.28253 1291.1837 4289308886
18.837921 924.85858 1291.6694 4289242328
22.605505 924.28253 1291.1837 4289177307
19.136696 931.75739 1290.9462 4289307857
22.513762 931.75739 1290.9462 4289242068
-38.148624 937.87854 1290.8752 4283056985
-34.78257 937.02069 1290.152 4283122520
13.46422 937.87854 1290.8752 4288781764
16.456268 937.59259 1290.6342 4288782022
20.196331 937.02069 1290.152 4288782280
22.440367 937.02069 1290.152 4288651464
-37.992661 946.98547 1292.0139 4282337134
8.9394493 947.83978 1292.7343 4284960892
11.174312 946.98547 1292.0139 4288120242
13.409174 946.98547 1292.0139 4288646063
16.761467 946.98553 1292.0139 4288581560
20.113762 946.98547 1292.0139 4286345887
22.348623 946.98547 1292.0139 4284963975
24.583487 947.83978 1292.7343 4282923624
-37.867889 951.33563 1290.4497 4286216086
4.4550457 952.18713 1291.1677 4283450206
6.682569 951.33563 1290.4497 4282989401
15.592661 951.33563 1290.4497 4286672262
20.047707 951.33563 1290.4497 4282990947
-42.044037 963.3689 1290.1316 4288255673
-39.831192 964.21478 1290.8448 4288058038
-37.618347 964.21478 1290.8448 4287992246
-34.667892 964.49677 1291.0826 4287926969
-30.979816 965.06067 1291.5581 4287861942
-28.766972 965.06067 1291.5581 4287861942
2.2128441 964.21478 1290.8448 4284964758
7.7449541 963.3689 1290.1316 4283449172
11.06422 964.21478 1290.8448 4283449949
13.277064 964.21478 1290.8448 4283580497
16.596331 964.21478 1290.8448 4283645782
19.915596 964.21478 1290.8448 4283579994
24.341284 965.06067 1291.5581 4283318352
-34.299084 966.75238 1292.9845 4287861178
-30.979816 966.75238 1292.9845 4287665078
-28.766972 966.75238 1292.9845 4287796665
-25.447706 966.75238 1292.9845 4287796919
-22.128441 966.75238 1292.9845 4287796667
-19.915596 966.75238 1292.9845 4287862460
-16.596331 966.75238 1292.9845 4287861176
-6.6385322 966.75238 1292.9845 4287400364
0 966.75238 1292.9845 4289309667
16.596331 966.75238 1292.9845 4283646548
19.915596 966.75238 1292.9845 4283383895
22.128441 966.75238 1292.9845 4283318604
24.341284 966.75238 1292.9845 4283318604
-51.710091 758.60126 1295.3689 4280753220
-51.324772 771.55341 1293.2095 4283189842
23.522936 849.91693 1293.8821 4287006883
18.744955 856.90637 1293.2354 4289507805
22.259632 856.90637 1293.2354 4284576937
23.431192 858.69775 1294.7457 4282864465
25.774311 858.69775 1294.7457 4282996052
23.357798 864.25848 1294.2023 4285623728
25.693579 864.25848 1294.2023 4288518620
20.85688 879.8338 1294.2546 4279842930
23.174313 879.8338 1294.2546 4280566893
25.491743 879.8338 1294.2546 4281421946
-48.511925 887.07654 1295.1294 4283519068
20.790825 885.31042 1293.6403 4289047254
23.100918 885.31042 1293.6403 4288981209
25.411009 885.31042 1293.6403 4289244124
-46.018349 893.00409 1293.5872 4282859096
-43.71743 893.00409 1293.5872 4281609029
-40.266056 893.00409 1293.5872 4282199875
-48.319267 894.76312 1295.0704 4283514961
-46.018349 894.76312 1295.0704 4282859348
-43.71743 894.76312 1295.0704 4281675074
-39.115597 894.76312 1295.0704 4282596426
-48.126606 902.40771 1294.9761 4284366425
-41.251377 902.40771 1294.9761 4285754755
-38.195717 901.23969 1293.9912 4284767088
25.209175 902.40771 1294.9761 4289704675
-52.541283 907.79456 1294.2859 4283310659
-50.256882 907.79456 1294.2859 4282918204
-41.119267 907.79456 1294.2859 4283781218
-38.834862 907.79456 1294.2859 4286544524
-54.825687 909.54102 1295.7584 4283049283
-50.256882 909.54102 1295.7584 4282787649
-46.830276 909.54102 1295.7584 4282394692
-43.403671 909.54102 1295.7584 4281804357
-41.119267 909.54102 1295.7584 4282860100
-46.6422 916.23584 1294.8633 4281741390
-46.491745 920.69971 1293.3949 4282137423
-43.089909 920.69971 1293.3949 4281808974
-46.491745 922.43353 1294.8568 4282662489
-44.403671 961.60974 1293.8804 4288189880
4.4403667 961.60974 1293.8804 4282856517
-46.623852 963.30707 1295.3115 4288321464
-43.293579 963.30707 1295.3115 4287993017
4.4403667 963.30707 1295.3115 4282857799
7.7706423 963.30707 1295.3115 4283120979
-28.766972 968.44415 1294.4109 4288453314
-25.447706 968.44415 1294.4109 4288190391
-22.128441 968.44415 1294.4109 4287993017
-19.915596 968.44415 1294.4109 4288058810
-2.2128441 968.44415 1294.4109 4288322481
26.554129 968.44415 1294.4109 4283120709
-51.902752 753.9726 1298.0062 4281080134
25.976147 846.50305 1297.5438 4287334539
23.522936 852.61444 1296.1565 4286152932
25.875229 853.51361 1296.9147 4281748124
-48.511925 889.72559 1297.363 4283977055
-48.319267 896.52222 1296.5536 4283907924
-46.018349 896.52222 1296.5536 4282924109
-43.71743 896.52222 1296.5536 4283582040
-40.266056 896.52222 1296.5536 4283452766
27.61101 896.52222 1296.5536 4289638117
-49.469727 898.28125 1298.0369 4283775067
-46.018349 898.28125 1298.0369 4284174933
-43.71743 898.28125 1298.0369 4284766813
-41.416515 898.28125 1298.0369 4284700786
-55.001835 905.91187 1297.9307 4283573831
-49.272476 905.03583 1297.192 4282983995
-45.834862 905.91187 1297.9307 4282003022
-43.543118 905.03583 1297.192 4283977057
-41.251377 904.15979 1296.4534 4285623170
-52.541283 911.28748 1297.231 4282787145
-50.256882 911.28748 1297.231 4282724166
-46.830276 911.28748 1297.231 4282460742
-52.541283 913.03394 1298.7036 4282133327
-50.256882 913.03394 1298.7036 4281871949
-52.330276 918.84503 1297.0632 4281280070
-50.055046 918.84503 1297.0632 4281478976
-40.524769 938.64221 1296.7512 4283320930
-48.844036 965.00439 1296.7427 4287993528
-46.623852 965.00439 1296.7427 4287993528
-43.293579 965.00439 1296.7427 4287796667
-39.963303 965.00439 1296.7427 4288123831
-37.743118 965.00439 1296.7427 4288123831
2.2201834 965.00439 1296.7427 4284836000
4.4403667 965.00439 1296.7427 4282859850
7.7706423 965.00439 1296.7427 4282924624
11.100918 965.00439 1296.7427 4283252827
13.321101 965.00439 1296.7427 4283777358
-48.844036 966.70178 1298.1738 4287993017
-39.963303 966.70178 1298.1738 4288058040
-37.743118 966.70178 1298.1738 4288518591
-34.412842 966.70178 1298.1738 4287860924
-31.082569 966.70178 1298.1738 4287926970
-16.651375 966.70178 1298.1738 4287533749
-13.321101 966.70178 1298.1738 4287466932
-11.100918 966.70178 1298.1738 4287466932
-8.8807335 966.70178 1298.1738 4287532977
-4.4403667 966.70178 1298.1738 4287072415
0 966.70178 1298.1738 4289241816
11.100918 966.70178 1298.1738 4283187034
17.761467 966.70178 1298.1738 4283252557
19.981651 966.70178 1298.1738 4283186764
22.201836 966.70178 1298.1738 4283186502
24.422018 966.70178 1298.1738 4283186502
25.976147 848.30841 1299.066 4282797696
-50.822018 892.37476 1299.5967 4283252046
-50.822018 894.14087 1301.0858 4283644753
-49.469727 900.91992 1300.2616 4283576647
-46.018349 900.91992 1300.2616 4284568933
-43.71743 900.04034 1299.52 4286016383
-55.001835 909.41602 1300.8851 4282787145
-54.825687 914.78033 1300.1761 4281542986
-52.541283 914.78033 1300.1761 4281411400
-50.256882 914.78033 1300.1761 4281149766
-54.825687 916.52679 1301.6487 4281542986
-46.777981 964.95929 1301.9368 4287993017
-43.436699 964.95929 1301.9368 4287992765
-6.682569 964.95929 1301.9368 4287401391
2.2275229 964.95929 1301.9368 4285557408
4.4550457 964.95929 1301.9368 4283055944
7.7963305 964.95929 1301.9368 4282924110
13.365138 964.95929 1301.9368 4283252809
15.592661 964.95929 1301.9368 4283318602
-33.302753 968.39911 1299.605 4288057788
-31.082569 968.39911 1299.605 4287927735
-28.862385 968.39911 1299.605 4287861942
-25.53211 968.39911 1299.605 4287926199
-2.2201834 968.39911 1299.605 4288781749
24.422018 968.39911 1299.605 4283252296
-55.001835 911.16803 1302.3624 4282067533
-49.005505 967.51379 1304.0906 4287926710
-46.777981 966.66229 1303.3727 4288058038
-43.065445 967.22998 1303.8513 4287598775
-40.095413 967.51379 1304.0906 4288058037
-37.867889 967.51379 1304.0906 4288189367
-34.897858 967.79761 1304.33 4287926454
-31.185322 968.36523 1304.8086 4287730612
-28.957798 968.36523 1304.8086 4287730612
-22.275229 966.66229 1303.3727 4287729338
