# .PCD v0.7 - Point Cloud Data file format
VERSION 0.7
FIELDS x y z rgb
SIZE 4 4 4 4
TYPE F F F U
COUNT 1 1 1 1
WIDTH 1175
HEIGHT 1
VIEWPOINT 0 0 0 1 0 0 0
POINTS 1175
DATA ascii
58.376148 844.06964 801.05664 4293451494
-1.66789 846.61987 803.20703 4289362554
0 846.61987 803.20703 4289103219
59.911926 848.04376 801.7915 4293386214
61.711926 846.61987 803.20703 4293188836
64.21376 846.61987 803.20703 4293188836
66.715599 846.61987 803.20703 4292925663
-1.6642202 850.58838 803.93701 4287178298
0.55351681 850.21387 802.74921 4289292117
58.949539 850.73718 801.44641 4293583338
61.576145 849.3161 802.86426 4293123042
64.072479 849.95227 803.40063 4293450981
1.6605505 852.64148 803.05206 4289546573
59.779816 852.00671 802.51685 4293582310
61.440369 852.64148 803.05206 4293582310
1.6550459 857.29736 803.05371 4286718521
3.3100917 856.0321 801.98688 4289018420
58.754124 856.66461 802.52032 4293582310
61.236698 857.29736 803.05371 4293648356
3.8532112 859.33984 802.15985 4288619054
56.14679 859.33984 802.15985 4293648104
61.100918 860.60236 803.22437 4293517539
4.119266 862.63928 802.32574 4287704621
60.965137 863.2691 802.85681 4293846765
1.6477064 864.52881 803.91895 4284877312
4.1055045 866.63098 801.76733 4283173401
58.493576 864.52881 803.91895 4293780976
60.761467 866.63098 801.76733 4294636284
1.6422018 869.14191 803.88452 4281601792
4.0999999 868.58575 802.1076 4284423230
1.6385322 871.79041 803.50171 4285024000
4.090826 871.23572 801.72583 4285604640
58.855045 871.93359 801.00623 4292533497
3.2697248 873.18347 802.06018 4284828416
61.307343 874.43335 803.11401 4278190129
3.2587156 877.76434 801.99854 4287725098
1.6275229 880.32373 802.84851 4287063556
3.2513762 880.39459 801.60022 4288380486
58.524769 880.39459 801.60022 4278190080
1.6256881 882.88025 803.69617 4288770833
4.0550461 883.63928 801.72003 4286999612
4.0467892 886.53149 802.19659 4285607965
7.274312 887.56366 801.10486 4284751360
9.6990824 887.56366 801.10486 4284884015
56.770641 885.49933 803.28833 4290556590
4.8495412 889.41742 802.66791 4287640380
6.4660549 889.41742 802.66791 4287575099
4.838532 893.25549 803.28802 4284285712
7.2577982 892.02246 802.24835 4284943649
9.6770639 891.40594 801.72852 4284356406
58.062386 893.87201 803.80786 4293516517
4.8275228 896.46722 803.38 4288967769
7.2412844 894.62189 801.82397 4283826183
56.321102 894.00677 801.3053 4293582310
57.930275 896.46722 803.38 4293121757
6.9571862 898.23846 802.25751 4291143101
56.192661 897.82935 801.91248 4293385701
4.8165135 900.28418 803.9823 4289437092
6.4000001 902.31903 801.77393 4287663786
57.599998 902.31903 801.77393 4293189088
4.8000002 904.76544 803.83667 4278190098
6.927217 904.40118 802.65753 4281741903
58.333946 904.83069 802.58368 4293385697
60.799999 904.76544 803.83667 4293451746
7.4434247 907.37939 802.55267 4279764742
9.5559635 908.685 801.90942 4282911245
57.401836 907.4007 802.13458 4293451492
7.1669722 910.51135 803.4494 4281664256
10.328441 911.24786 801.45435 4285277186
58.132111 910.51135 803.4494 4293385188
7.9449539 913.07007 802.99078 4286996046
9.5339451 913.07007 802.99078 4286996560
57.203671 912.46271 802.47864 4293385188
10.568808 915.8252 802.69775 4290224286
57.07156 915.62317 802.52747 4293319138
7.880734 923.18646 802.3645 4280365097
9.4568806 921.98151 801.34839 4290947773
56.741283 922.58398 801.85645 4293516254
7.3431191 925.67596 802.71948 4279833864
9.4348621 926.31824 802.38898 4282069546
56.609173 925.71716 801.8822 4293516004
58.181652 926.31824 802.38898 4293582053
3.9311926 928.12152 803.90942 4283183659
7.0669727 928.78149 803.15796 4282393890
10.197248 928.84186 801.90082 4281737246
52.555046 928.24219 801.39514 4293450724
55.692661 928.24219 801.39514 4293516516
7.0596333 930.64093 803.41772 4282789164
9.4128437 930.64093 803.41772 4280883214
45.388992 931.95819 801.91235 4293516769
53.21468 931.95819 801.91235 4293582308
55.562386 931.95819 801.91235 4293253344
57.910091 931.95819 801.91235 4293582310
10.417125 934.82788 802.58789 4284101164
13.272477 934.4693 801.41357 4278190080
43.7211 934.4693 801.41357 4293648355
46.144039 934.08099 803.04822 4293319649
49.186237 935.06616 801.91681 4293385442
52.171253 933.95245 803.59393 4293517285
54.779816 934.35132 803.93018 4293057249
59.475231 934.35132 803.93018 4293319654
10.904587 938.16559 801.91418 4290223991
13.241284 938.16559 801.91418 4288645802
43.618347 938.16559 801.91418 4293319138
45.955048 938.16559 801.91418 4293582563
49.070641 938.16559 801.91418 4293516768
52.309174 936.85681 803.42664 4293385698
10.376759 940.58496 803.08203 4285355604
12.95107 941.05865 801.73749 4291211974
34.967888 941.25671 801.90448 4291530619
40.925385 941.05865 801.73749 4293583075
43.515594 940.66266 801.40356 4293056734
45.846786 940.66266 801.40356 4293517027
48.955048 940.66266 801.40356 4293516769
52.125687 940.00964 802.16095 4293385953
54.394497 941.85077 802.4054 4293319904
10.101835 943.03894 803.4071 4283777026
12.403669 944.33942 801.88757 4285093203
10.077982 946.71008 803.88647 4283516178
12.403669 945.52472 802.88708 4284891904
7.7339449 949.18738 803.35925 4281013760
9.2807341 949.18738 803.35925 4280953856
12.374312 948.00488 802.36218 4287255352
58.777981 949.18738 803.35925 4293056736
10.788991 951.71466 801.5661 4280559135
12.330276 951.12549 801.06934 4284434212
58.568806 952.89301 802.55963 4292793302
60.110092 953.48218 803.0564 4292793298
7.6880732 955.94403 802.51624 4280686936
58.429359 955.94403 802.51624 4292858069
7.6880732 957.11957 803.50732 4279173138
9.7149849 958.79132 802.30078 4280232494
56.755962 958.40039 801.97119 4293121761
58.359634 958.34631 803.23364 4292923865
64.579819 957.11957 803.50732 4292989405
10.724771 960.79846 802.68518 4280491580
13.015596 961.11731 802.29993 4278262296
16.077065 961.11725 802.29993 4278916395
19.13945 961.11731 802.29999 4278459908
21.933945 961.6311 802.0791 4280306439
25.249542 962.02106 802.40796 4287337115
41.317432 962.02106 802.40796 4293385437
43.612846 962.02106 802.40796 4293319391
46.673393 961.4361 801.91473 4293253852
49.733948 961.4361 801.91467 4293122012
52.794495 961.4361 801.91467 4292991195
55.855045 961.4361 801.91473 4292989917
58.289909 960.74585 803.94885 4293055451
67.332108 962.02106 802.40796 4293056218
31.333946 963.82715 802.6228 4286675049
34.43119 963.19098 803.39441 4284644179
37.401833 964.46332 801.8512 4292793311
40.504585 963.82715 802.6228 4293385183
43.612846 963.19098 803.39441 4293122526
49.733948 963.19098 803.39441 4292923865
55.089909 963.19098 803.39441 4293187806
-10.65688 757.08929 804.89087 4285742676
-10.370643 796.69751 804.27869 4285016359
-7.753211 802.21057 805.00305 4287509043
-7.753211 804.18634 806.66895 4287177512
-5.1577983 805.65515 805.29138 4287902260
-4.2807341 811.8653 805.29553 4287568437
-5.1302752 814.55658 806.25671 4287564835
-3.4091742 817.39453 804.72546 4287180055
-3.4091742 819.34924 806.37366 4288437825
-3.401835 822.10156 806.07837 4288505671
-3.3908257 826.86761 806.17273 4288245059
-3.3834863 830.89783 806.95496 4287982909
64.28624 828.31116 804.77393 4293121759
64.077065 833.05475 804.84949 4293319392
62.255047 835.77899 804.5304 4293253858
63.937614 835.77899 804.5304 4293385188
-3.3651376 837.06531 805.61499 4288245804
-3.3541284 840.49591 804.5835 4288773726
-3.7678895 844.12811 805.68402 4288766562
61.078899 843.20471 804.25146 4293385701
63.588989 843.20471 804.25146 4293319652
-1.66789 847.89502 804.2821 4289686114
66.715599 847.89502 804.2821 4293319652
-3.3357799 849.80768 805.89484 4287049278
-1.6642202 851.86072 805.00977 4285933362
0 851.86072 805.00977 4286980394
64.072479 851.86072 805.00977 4293451494
66.715599 849.1701 805.3573 4293253345
-3.3284404 853.13306 806.08264 4283891971
-1.6642202 853.13306 806.08264 4285536539
0 854.54572 804.65771 4287112757
-1.6605505 855.81525 805.72815 4283505414
0 855.81525 805.72815 4285732148
-1.6550459 859.828 805.1875 4282790150
0.55168194 859.61713 805.0097 4284943662
58.754128 859.19531 804.65405 4293583078
-1.6513761 863.12732 805.35327 4283578657
0.82568806 862.49609 804.82104 4285009963
56.14679 861.86481 804.28882 4293978351
58.623856 861.86481 804.28882 4293780972
-3.3027523 864.38983 806.41785 4286996754
-1.6513761 864.38983 806.41785 4285549312
0.82385319 865.08911 805.69946 4283893760
-1.6477064 867.04816 806.04321 4288180550
0 867.04816 806.04321 4287259938
-1.6422018 871.02515 805.47241 4287786792
0 871.02515 805.47241 4286667776
-1.6385322 874.29578 805.61414 4286209035
1.0911316 874.34064 804.77997 4287259142
61.307343 875.68323 804.16785 4278454294
63.902752 874.29572 805.61407 4278980898
-1.6348624 876.93311 805.22168 4286471987
0 877.55798 805.7486 4285879296
61.034866 877.34967 805.57294 4279243029
0 881.50134 805.14941 4286468096
58.656879 880.87854 804.62427 4278917915
0.81284404 883.43506 805.47192 4286927360
58.656879 882.74695 806.19971 4286078101
-1.6256881 886.60883 806.83997 4288435015
1.0825688 886.65143 806.00385 4287252020
3.2440367 887.35938 804.85675 4286850865
56.770641 887.35938 804.85675 4294305778
-1.6220183 889.21948 806.42505 4288106064
1.6220183 889.21948 806.42505 4285933627
58.392662 889.21948 806.42505 4293582310
60.014679 889.21948 806.42505 4294108654
1.6165137 893.74286 806.31494 4283107072
3.2330275 891.8891 804.75195 4285270815
59.811008 892.50702 805.27295 4293845739
61.427525 893.74286 806.31494 4293517800
3.225688 895.72156 805.36737 4286338861
59.675228 895.72156 805.36737 4293582820
61.288074 896.33807 805.88721 4293715682
1.612844 897.57111 806.92688 4290219369
4.0229359 898.31256 804.93591 4291014293
58.734863 898.31256 804.93591 4293385953
61.148624 898.92767 805.45459 4293059037
3.7486238 901.46954 805.8537 4287530144
59.403671 901.5116 805.01721 4293319904
61.811928 902.12531 805.53467 4293320413
4.8000002 905.98865 804.86816 4278190080
59.200001 905.98865 804.86816 4293451494
61.599998 905.98865 804.86816 4293779950
3.7296636 908.06812 805.74933 4283319614
6.3853211 908.55725 804.41772 4280811520
59.06422 908.55725 804.41772 4293451494
61.530273 907.88452 805.15863 4293582823
4.788991 910.38782 805.9613 4282530877
61.724773 910.18439 805.78979 4293648103
6.8954124 913.59515 805.17755 4290421647
58.86055 913.61499 804.7583 4293450724
61.051987 913.1496 805.67383 4293582563
6.8856263 916.51202 805.89288 4291212979
9.5119267 917.44122 804.0603 4292134101
57.07156 917.44122 804.0603 4293319904
7.9266057 918.6532 805.08228 4290226322
4.7449541 922.40289 805.62781 4280025088
6.3266053 921.19373 804.60828 4278190080
4.7284403 925.59644 804.39648 4281999882
6.3045874 925.59644 804.39648 4281476357
1.5724771 929.32367 804.9231 4284431666
3.9311926 929.32367 804.9231 4283249965
3.9311926 931.12695 806.44354 4282462007
7.0596333 931.84027 804.42896 4282392859
9.4128437 931.84027 804.42896 4281073920
53.339451 931.84027 804.42896 4293451746
55.692661 931.84027 804.42896 4293188318
58.045872 931.84027 804.42896 4293714663
4.7064219 933.63934 805.94592 4286407302
7.0550461 933.96655 805.56787 4285685353
9.3908253 935.54791 804.93909 4284368671
55.911316 934.27557 805.61035 4293122528
58.568806 933.83917 806.11444 4293319396
7.0431194 937.34277 806.45245 4282199622
9.3688078 938.05054 804.43323 4280090624
54.651375 938.05054 804.43323 4293189088
7.28685 940.0401 806.11078 4282001727
7.2697244 943.72339 806.60034 4284302096
10.101835 944.22705 804.40894 4282990080
9.2807341 950.36993 804.35632 4281612113
61.871559 951.55249 805.35339 4293056218
63.41835 951.55249 805.35339 4293122011
60.88073 955.24963 804.54663 4293055709
63.192661 955.24963 804.54669 4292924126
6.9192657 958.88287 804.99408 4293843949
9.225688 959.47064 805.48962 4289306072
59.966972 958.88287 804.99408 4293186780
61.651375 957.01715 806.03699 4292989405
63.887157 958.2439 805.76331 4292923612
66.629967 958.68695 804.82892 4293055454
4.612844 960.64612 806.48083 4292000977
6.9192657 960.64612 806.48083 4291806942
9.9944954 960.64612 806.48083 4292333279
13.038532 961.91852 804.93762 4292466395
16.106422 961.91852 804.93762 4293650168
19.174313 961.91852 804.93762 4287406508
22.295414 960.64612 806.48083 4278204701
25.339451 961.28235 805.70923 4278260272
28.377983 961.91852 804.93762 4285681029
46.78532 961.91852 804.93762 4293187804
52.921101 961.91852 804.93762 4293187804
56.755962 961.91852 804.93762 4293121757
59.128441 961.28235 805.70923 4293055964
61.504585 960.64612 806.48083 4292989405
63.042202 960.64612 806.48083 4292989405
29.144955 963.09125 805.92639 4286017396
31.445873 963.09125 805.92639 4284505761
34.43119 964.36084 804.38086 4286479552
36.726604 964.36084 804.38086 4291016649
44.484406 963.09125 805.92639 4293187552
49.85321 963.09125 805.92639 4293122013
53.688072 963.67761 806.42078 4293055966
55.988991 963.67761 806.42078 4292859099
58.289909 963.09125 805.92639 4293122011
-10.337615 806.82074 808.89026 4286915110
-7.753211 806.16211 808.33496 4287045674
-6.8770642 809.59833 808.61621 4287173419
-5.1577983 808.28394 807.50793 4287044650
-6.8550458 814.40924 808.74847 4286712344
-5.1302752 815.86395 807.35901 4287303209
-6.8403668 818.4787 809.56372 4286653709
-5.1302752 817.17133 808.46143 4289018675
-6.8183484 821.95557 808.57129 4286858768
-5.1137614 820.6524 807.47253 4289614395
-7.6633029 823.98047 808.97064 4287445038
-4.53578 823.83539 807.54028 4288768829
-6.8036699 826.00269 809.36768 4287191356
-4.662385 829.13586 808.08533 4288244302
-4.2293577 832.83789 808.5907 4288242765
-5.0587158 836.92218 808.11035 4289358957
-6.7449541 838.2113 809.19739 4286921035
-5.0477066 839.638 807.78418 4290671236
65.620186 839.638 807.78418 4293253858
-10.095413 842.21069 809.95349 4286783008
-6.7302752 842.21069 809.95349 4286849839
-6.7082567 845.62445 808.90771 4287637815
-5.0311928 844.34229 807.82666 4288165443
-7.5394492 847.61426 809.27753 4287050549
-5.0201836 847.68237 808.02692 4287115318
-6.6715598 851.72034 807.50757 4285474358
-5.0036697 851.72034 807.50757 4282908686
-6.6715598 853.63306 809.1203 4284420657
-4.1660552 853.70044 807.86908 4283305495
-4.1605506 856.31384 808.76453 4286599496
-3.321101 859.62372 808.93933 4287065430
-4.1284404 866.28357 808.01459 4286401585
-3.8483181 868.68427 808.29474 4285679636
-3.2954128 870.82721 809.22961 4285748484
-1.6385322 876.80115 807.72656 4287656274
62.264221 877.42749 808.25464 4278847757
63.902752 877.42749 808.25464 4278190080
-3.2733946 880.61951 809.63806 4286331179
-1.6348624 880.05774 807.85638 4284951828
61.14386 880.93262 808.59406 4282334792
63.831192 880.61951 809.63806 4278190080
-1.6293578 883.99261 807.25 4287646017
0 883.99261 807.25 4287714861
58.656879 883.99261 807.25 4294436590
-3.2513762 887.85168 807.88794 4288435029
0 887.85168 807.88794 4287446866
58.656879 885.23828 808.30042 4294502901
61.031193 886.54498 808.09418 4293844973
-3.2440367 890.45953 807.4707 4288172883
-1.6220183 890.45953 807.4707 4287317575
0.81100917 890.45953 807.4707 4284816446
61.636696 890.45953 807.4707 4294306297
-3.2440367 892.31958 809.039 4286531671
-1.6220183 891.69958 808.51624 4284821054
0 892.31958 809.039 4282714624
63.258717 892.31958 809.039 4293912809
-3.2330275 896.21454 808.39905 4284035382
-1.6165137 895.59662 807.87805 4281928466
0.80825686 895.59662 807.87805 4284560142
63.044037 896.21454 808.39905 4292532436
-3.2330275 897.45038 809.44104 4284163608
-1.612844 898.80414 807.96643 4282913798
0.806422 898.12726 808.70374 4288444044
62.900917 898.80414 807.96643 4292794580
-1.612844 900.03717 809.0061 4286127632
1.0727829 901.3479 808.36719 4288970632
1.6055046 905.19385 808.12207 4288710300
3.2110093 903.96643 807.08716 4286607459
64.366974 903.84857 809.60376 4293253860
1.6055046 906.42126 809.15698 4289232824
64.220184 906.42126 809.15698 4293385188
1.6 910.2699 808.47797 4290146692
3.2 909.65833 807.96228 4288057747
3.8311927 913.19482 808.328 4287716966
59.06422 913.43884 808.53381 4293517539
61.388077 914.71619 808.3028 4293254113
63.85321 913.4389 808.53387 4293385443
3.9816513 916.59937 808.58264 4287119149
3.972477 919.14404 808.11218 4282452480
1.5853211 922.89514 808.65894 4283643938
3.1706421 922.28918 808.14795 4282658069
3.1522937 929.21136 807.44446 4283316276
3.1449542 932.93018 807.96399 4282654546
3.925688 935.38647 808.72711 4286073899
6.2752295 935.43835 807.46289 4286541446
56.477066 935.43835 807.46289 4293253597
58.899082 935.38641 808.72705 4293319393
61.326607 934.13239 808.97766 4293055712
3.9220183 937.23743 808.97974 4287392036
56.477066 936.63776 808.47412 4293254110
4.6954126 939.73584 808.47028 4287326227
6.2458715 941.63184 807.45276 4285026083
4.6844039 942.82556 808.45935 4286999331
61.651375 958.19543 807.03052 4292923612
64.733948 959.37378 808.02405 4292923612
67.045868 959.37378 808.02405 4292858585
-1.5376147 962.99719 808.46313 4290880670
3.8440366 961.82166 807.47205 4291079611
6.9192657 961.82166 807.47205 4291674051
9.9944954 961.82166 807.47205 4292333265
13.069725 962.40942 807.96765 4292990685
16.401222 962.21356 807.80243 4294109948
19.476454 962.21356 807.80243 4291873521
22.348625 960.55212 809.01758 4282800564
25.400002 961.18689 808.24481 4286480273
28.445873 962.40942 807.96759 4285162345
32.289909 962.99719 808.46313 4282138248
35.365139 962.99719 808.46313 4289766527
37.671562 962.40942 807.96759 4292265432
40.796329 961.18689 808.24481 4293319390
43.053211 961.82166 807.47205 4293187552
46.897247 962.40942 807.96765 4293188062
49.972477 962.99719 808.46313 4293318368
52.2789 962.40942 807.96759 4293187552
59.454437 962.60529 808.13281 4293056217
61.504585 962.40942 807.96759 4292727001
63.606121 961.79034 808.31757 4293055710
66.27523 960.55212 809.01758 4293055199
53.816513 964.17267 809.45435 4293187554
56.122936 964.17267 809.45435 4293056218
58.429359 964.17267 809.45435 4292990674
63.042202 964.17267 809.45435 4293319644
-10.337615 808.79651 810.55615 4286912027
-8.6146793 808.79651 810.55615 4286780441
-12.060551 810.77234 812.22217 4286318614
-10.337615 810.77234 812.22217 4286514462
-8.5963306 812.22711 810.83264 4286777378
-8.5963306 813.5415 811.94092 4286450200
-11.13945 818.33978 812.06262 4286318359
-8.5688076 817.0296 810.95789 4286253082
-11.115597 821.09344 811.76843 4286252826
-8.5504589 819.78607 810.66614 4287305770
-11.079817 824.56189 810.76892 4285990163
-8.5229359 824.56189 810.76892 4289741651
-13.636697 825.86511 811.86768 4286185490
-11.079817 826.51666 812.41699 4285990416
-7.9498467 826.77881 811.76611 4289154633
-7.3706422 829.47028 812.2915 4288302674
-8.4770641 833.34839 811.63721 4288622384
-10.172477 834.64453 812.7301 4286451217
-7.612844 835.42456 810.77173 4287247414
-16.046789 838.4325 811.34595 4286251020
-13.533945 837.36462 812.40759 4286251022
-10.977064 838.4325 811.34595 4287043103
-7.5880733 839.50043 810.2843 4286915629
-16.300306 841.2193 811.73364 4286251790
-11.80367 841.4342 811.91479 4287566635
-8.4311924 840.78961 811.37134 4286848801
-10.656269 844.35455 811.76117 4287110701
-8.4128437 843.49701 811.03809 4287309103
-10.900917 848.18872 811.06982 4287308079
-8.3853207 848.18872 811.06982 4287180083
-10.889908 850.17578 811.43726 4287308849
-8.3669729 850.88068 810.72363 4286852138
-8.3669729 852.15997 811.80237 4286523949
-6.6715598 856.18323 811.27057 4284488993
-7.2177372 859.45245 812.28302 4284817177
-4.9871559 859.55774 810.19171 4286792498
-4.9816513 862.16272 811.0802 4286332183
-4.9651375 868.05237 812.12207 4284358704
-4.1247706 871.39459 811.01605 4284691485
-3.2954128 873.34656 811.35388 4284827175
-3.2844036 876.67474 810.23608 4283111168
-3.2697248 883.18243 810.49097 4288237636
62.124771 883.18243 810.49097 4289829588
63.759632 883.18243 810.49097 4281671255
-4.8880734 887.72961 810.401 4288500557
-4.8880734 888.97528 811.45129 4287779915
-4.8770642 891.58026 811.03174 4288107331
-4.866055 895.41974 811.65302 4286332224
-3.2330275 899.30408 811.00409 4283827456
64.660553 898.68622 810.48303 4293385685
-3.2330275 901.15784 812.56714 4283498496
-1.612844 901.88672 810.56561 4287446826
0 901.88672 810.56561 4287328894
64.513763 901.2702 810.04578 4293582310
-1.612844 903.73627 812.12512 4286589740
0 905.0788 810.64099 4286008967
-1.6091744 906.92413 812.19696 4283826178
0 907.59259 811.45258 4283370013
1.6 913.32794 811.0564 4284482054
0.79816514 917.1001 811.62085 4284552461
59.06422 915.8797 810.5918 4293712865
60.660549 916.48987 811.10632 4293319141
0 918.3205 812.6499 4283841321
1.5816513 929.05347 811.23535 4280360740
1.5816513 930.86719 812.76477 4278912031
3.1522937 932.82629 810.49255 4281139200
1.5761468 934.03125 811.50854 4282003003
61.469727 934.03125 811.50854 4292989919
1.5724771 937.13782 811.51172 4286732882
3.5298166 940.53577 811.76074 4286077978
67.285324 959.23889 811.83447 4292990171
-1.5412844 962.90875 811.00464 4292264401
0.77064222 961.73041 810.01111 4291013287
3.8532109 962.31958 810.50787 4292396489
6.9357796 962.31958 810.50793 4292660435
10.018349 962.31958 810.50793 4292792794
13.100918 962.90875 811.00464 4293187554
15.926605 962.51593 810.67352 4293319662
19.009174 962.51593 810.67352 4294438911
22.605505 962.12323 810.34229 4294375167
25.688074 962.12323 810.34229 4294967295
28.513762 962.31958 810.50787 4290032819
31.596331 962.31958 810.50787 4278985268
34.678902 962.31958 810.50787 4288781950
37.761467 962.31958 810.50787 4292134359
40.844036 961.73041 810.01111 4293450976
44.183487 962.12323 810.34229 4293188060
47.009174 962.90875 811.00464 4293450976
50.091743 962.90875 811.00464 4293318368
52.403671 962.90875 811.00464 4293253347
60.880733 962.90875 811.00464 4293056214
64.733948 961.73041 810.01111 4293253599
67.816513 961.73041 810.01111 4293121496
53.174313 964.0871 811.99817 4293187552
55.48624 964.0871 811.99817 4293187804
57.798164 964.0871 811.99817 4293056217
63.192661 964.0871 811.99817 4293122011
70.899086 965.26538 812.9917 4292793048
-12.060551 812.08954 813.33276 4286384407
-10.337615 812.08954 813.33276 4286450200
-12.034863 814.8559 813.04919 4286449430
-10.315597 814.8559 813.04919 4286253082
-13.636697 828.47144 814.06531 4286251535
-11.079817 828.47144 814.06531 4286055440
-15.308257 832.50452 814.84985 4285923337
-13.60734 831.85431 814.30164 4286119938
-11.33945 831.63751 814.1189 4286449161
-15.225688 839.95129 814.58862 4286251785
-13.533945 839.30463 814.04333 4286251031
-15.176147 844.01245 814.08875 4286317324
-13.489908 843.36786 813.54529 4286251552
-10.900917 850.75299 813.23193 4287310133
-10.621407 852.46246 814.67334 4287180861
-8.3761463 853.37683 814.13635 4286064691
-6.6568809 862.03918 813.59204 4284754464
-6.6201835 869.31769 813.18896 4284622115
-7.4477067 871.21558 814.78931 4286393142
-4.9651375 870.58301 814.25586 4283830816
-7.1559634 874.91058 815.28864 4286983472
-4.9504585 874.94849 814.44855 4286063653
-4.943119 878.38531 815.60242 4288035903
-4.9266057 881.69666 814.47046 4288563270
-6.5688071 882.95215 815.52893 4287644991
-7.3733945 885.56982 815.12012 4287449410
-6.5394497 888.18188 814.70642 4287844160
-7.0605507 892.71222 814.60223 4287517520
-6.5027523 895.93018 814.69952 4287055180
-4.866055 898.51984 814.26691 4284619039
-4.0495415 901.38678 814.72223 4284877341
-3.2330275 903.62952 814.65125 4284744704
-3.225688 906.81885 814.7243 4285597976
-1.612844 907.43536 815.24414 4285399311
0 908.76947 813.75293 4284219398
-1.6091744 911.22992 815.82751 4285991950
0 911.33099 813.29675 4285204244
59.403671 911.33099 813.29675 4293845986
0 912.55841 814.33167 4286253332
-3.2 916.99756 814.15051 4282983718
-1.6 916.99756 814.15051 4283838770
-3.2 918.22083 815.18188 4283116851
-1.5963303 919.54089 813.67896 4283577402
0 920.15112 814.19342 4282195214
0 925.82544 813.74573 4283520090
-3.1779816 928.25507 815.79431 4285157681
-1.5853211 929.5611 814.27954 4286539334
0 928.95508 813.76855 4285096562
64.205505 929.5611 814.27954 4293120991
-1.5853211 930.77313 815.30139 4284238920
0 930.77313 815.30139 4284042843
64.132111 931.4248 814.54285 4292990177
-1.5816513 934.49475 815.82336 4278845440
0 933.89014 815.3136 4281995792
58.521099 933.28558 814.80383 4293253597
1.5761468 938.24866 815.06451 4283845678
64.471558 941.3454 815.05945 4292794078
41.862385 959.74878 814.88037 4293319138
-3.0972476 960.97345 814.60498 4292594648
-1.5504587 960.93414 815.87988 4293517287
1.0324159 960.98657 814.17999 4293121235
3.8761468 960.93414 815.87988 4293713378
6.9605503 962.19525 814.32715 4293648355
10.066973 961.5647 815.10352 4293384931
13.147707 962.19525 814.32715 4293450470
16.241283 962.19525 814.32715 4293385194
19.334862 962.19525 814.32715 4293846516
22.170645 961.80109 813.99481 4294637055
25.304588 960.96039 815.02997 4294967295
28.403059 960.96039 815.02997 4294967295
31.501528 960.96039 815.02997 4288983980
34.029358 961.01276 813.33008 4286152548
38.669724 961.01276 813.33008 4293385708
40.216515 961.01276 813.33008 4293516517
43.310093 961.01276 813.33008 4293188317
47.177063 962.19525 814.32715 4293056218
49.49725 962.19525 814.32715 4293121757
51.044037 962.19525 814.32715 4293253599
61.098167 962.19525 814.32715 4293122010
65.042206 960.97345 814.60498 4293122010
67.365135 960.97345 814.60498 4293056217
69.68808 960.97345 814.60498 4293056217
54.911011 963.37781 815.32422 4293253343
60.324772 963.37781 815.32422 4293121757
63.41835 963.37781 815.32422 4293055964
-9.9633026 869.77979 817.50269 4287114040
-13.240367 875.64417 818.52332 4287380038
-9.930275 874.37891 817.45636 4287115059
-8.2752295 874.37891 817.45642 4287114805
-10.733945 877.646 817.59509 4287182140
-7.7064223 877.43555 817.41766 4287312950
-11.533945 880.90466 817.72668 4287249722
-7.4146786 880.27484 817.19562 4287445557
-10.710092 882.16437 818.78882 4287053881
-8.1743116 890.68164 816.81409 4287977810
-9.8091745 893.18134 818.92188 4287715413
-8.1467886 895.82642 817.22797 4286991434
-7.0507646 898.17554 817.46478 4286262326
-6.4880733 902.23999 817.40363 4286320424
-4.866055 902.23999 817.40363 4285925666
-6.4880733 904.10004 818.97205 4286253852
-6.4660549 907.33704 817.77722 4286253852
-4.4435778 907.6698 817.40393 4286122777
-1.612844 908.6684 816.28381 4286057491
-3.7633026 910.72345 818.01654 4285208085
-1.6091744 912.46014 816.86475 4284224011
-3.1779816 929.46985 816.8186 4283910212
-3.1706421 931.98511 816.32336 4280888343
-1.5853211 931.98511 816.32336 4278256896
57.203671 931.89941 818.86719 4293121759
61.34679 931.95654 817.17133 4293055964
64.205505 931.98511 816.32336 4292990427
-3.1706421 933.8031 817.85626 4283778094
-1.5816513 935.70392 816.8429 4282000151
0 935.70392 816.8429 4281147904
58.656879 933.8031 817.85626 4293187553
60.242203 933.19708 817.34534 4293187804
63.412846 933.8031 817.85626 4292990683
64.84771 936.91315 817.86255 4292925150
-4.6623855 959.67297 817.4325 4293713896
0 959.67297 817.4325 4293582049
34.967888 959.67297 817.4325 4284650389
38.076149 959.67297 817.4325 4291478719
41.184402 959.67297 817.4325 4293254113
43.515594 959.67297 817.4325 4293189088
45.069725 959.67297 817.4325 4293057501
-3.8816514 961.4903 817.6568 4293714412
-1.5504587 962.11951 816.87927 4293451242
0.77522933 961.4903 817.6568 4293516517
3.8761468 962.11951 816.87927 4293582564
6.9770641 962.11951 816.87927 4293385437
10.077982 962.11951 816.87927 4293384936
13.178899 962.11951 816.87927 4293385188
16.299999 961.4903 817.6568 4293384935
19.402752 961.4903 817.6568 4293516767
22.507339 961.4903 817.6568 4294373879
25.582569 962.11951 816.87927 4294967295
28.751377 960.86108 818.43433 4294967295
31.859632 960.86108 818.43433 4294967295
34.967888 960.86108 818.43433 4287796153
38.076149 960.86108 818.43433 4290820801
41.184402 960.86108 818.43433 4293254881
43.515594 960.86108 818.43433 4293189085
45.846786 960.86108 818.43433 4293056730
48.896332 961.4903 817.6568 4293121756
51.940369 962.11951 816.87927 4293253601
58.211929 961.4903 817.6568 4292990426
62.018349 962.11951 816.87927 4293121757
65.273392 960.86108 818.43433 4292990173
67.444954 962.11951 816.87927 4292990684
69.770645 962.11951 816.87927 4292793559
-1.5504587 963.30481 817.87878 4293253862
70.748016 964.11841 817.69269 4292530131
-9.9082565 879.53967 819.19177 4287446583
-9.7761469 898.94055 819.85376 4286856764
-8.1467886 898.94055 819.85376 4285540905
-9.7761469 900.18616 820.90405 4286654771
-8.1284399 902.14453 819.93927 4285862688
-4.838532 912.36749 819.40271 4283114034
-3.1706421 935.62109 819.38916 4281345813
-1.5853211 935.62109 819.38916 4280556298
0 935.62109 819.38916 4281082898
61.440979 933.51923 820.23291 4293122015
63.412846 935.62109 819.38916 4292925150
-3.1706421 936.83307 820.41101 4278191122
61.827522 936.83307 820.41101 4292925148
63.412846 936.83307 820.41101 4292794078
-3.628746 962.02777 820.29004 4293319911
0.77798164 962.01697 820.71692 4293253602
3.8853211 962.04926 819.43616 4293319391
7.2587152 962.02777 820.29004 4293187804
10.113762 962.01691 820.71692 4293187810
13.225689 962.01697 820.71692 4293188320
16.346788 961.70306 821.1062 4293055966
19.449543 962.01697 820.71692 4292858839
22.561468 962.01697 820.71692 4292398292
25.673393 962.01697 820.71692 4293254373
28.819267 960.79364 820.99353 4294967295
31.934862 960.79364 820.99353 4294967295
35.829357 960.79364 820.99353 4291677645
38.944954 960.79364 820.99353 4292795095
40.50275 960.79364 820.99353 4292925913
42.839447 961.3891 821.49561 4293122779
45.955048 961.38916 821.49561 4292990684
48.771866 961.60919 820.80908 4293055965
51.84465 962.02777 820.29004 4293122270
55.236698 962.01691 820.71692 4293122274
58.348625 962.01691 820.71692 4293121759
61.696026 962.02777 820.29004 4293121756
64.572479 962.01697 820.71692 4292924377
67.398163 962.02765 820.29004 4292858842
-1.5541284 963.23737 820.43799 4293451240
3.8853211 963.23737 820.43799 4293253597
6.2165136 963.23737 820.43799 4293122011
49.732109 963.23737 820.43799 4293056988
52.840366 963.23737 820.43799 4293253862
60.611008 963.23737 820.43799 4293187552
68.381653 963.23737 820.43799 4292793046
70.712845 963.83142 820.9389 4292924631
-6.2458715 959.53815 822.55103 4293451753
34.352295 959.53815 822.55103 4294967295
37.475231 959.53815 822.55103 4290821305
-6.2458715 961.32874 824.06079 4293452009
-4.1639142 961.52765 824.22852 4293254118
1.5614679 961.92566 824.56409 4293253345
10.930275 961.92566 824.56409 4293055199
13.272477 961.92566 824.56409 4293055966
17.176147 961.92566 824.56409 4293121759
18.737616 961.92566 824.56409 4292990173
28.887157 960.73187 823.5575 4294967036
32.790825 960.73187 823.5575 4294967295
35.393269 961.12982 823.89307 4294506744
37.475231 960.73187 823.5575 4292597480
39.817429 960.73187 823.5575 4292794334
42.940369 961.92566 824.56409 4293122268
46.844036 961.92566 824.56409 4292727255
49.186241 961.92566 824.56409 4293122268
52.309174 961.92566 824.56409 4293122525
55.43211 961.92566 824.56409 4293056223
57.774311 961.92566 824.56409 4293121759
-1.5577981 963.17554 823.00183 4293253347
0 963.17554 823.00183 4293253345
3.8944955 963.17554 823.00183 4293055964
7.0100918 963.17554 823.00183 4293055966
9.3467894 963.17554 823.00183 4292989405
45.176147 963.17554 823.00183 4293187806
59.196331 963.17554 823.00183 4293187552
61.533028 963.17554 823.00183 4293121758
64.648621 963.17554 823.00183 4292924378
67.764221 963.17554 823.00183 4293055449
70.879814 963.771 823.50397 4293055705
73.216515 964.36652 824.0061 4292989655
29.807339 959.42572 827.68835 4293384415
31.874619 959.44354 826.83136 4294505720
-6.2605505 961.87225 827.13501 4293648103
-3.9128439 961.87225 827.13501 4293450726
0.78256881 961.87225 827.13501 4293319392
6.2605505 961.87225 827.13501 4293121761
10.173394 961.87225 827.13501 4293055966
15.651376 960.67566 826.12622 4293187552
20.346788 960.67566 826.12622 4292858843
22.694496 960.67566 826.12622 4292923864
25.824772 960.67566 826.12622 4292397518
28.172478 960.67566 826.12622 4292266191
35.215599 961.27393 826.63062 4294967295
37.563301 960.67566 826.12622 4294967295
39.911011 960.67566 826.12622 4292728540
43.041283 961.87225 827.13501 4292859616
45.388992 961.87225 827.13501 4292925150
50.084404 961.87225 827.13501 4293056216
52.43211 961.87225 827.13501 4293188060
55.562386 961.87225 827.13501 4293121758
57.910091 961.87225 827.13501 4293121759
62.605503 961.87225 827.13501 4293055964
64.953209 961.87225 827.13501 4292990171
67.300919 961.87225 827.13501 4293055964
-1.5614679 963.11938 825.57056 4293253349
3.9036698 963.11938 825.57056 4293121759
7.8073397 963.11938 825.57056 4293121761
59.335781 963.11938 825.57056 4293121757
60.897247 963.11938 825.57056 4293121757
68.70459 963.11938 825.57056 4292990169
70.266052 963.11938 825.57056 4292858839
28.304586 959.37799 830.26404 4292266189
31.449541 959.37799 830.26404 4292333281
0.78440368 961.82446 829.71094 4293319390
3.9220183 961.82446 829.71094 4293056218
7.0596333 961.82446 829.71094 4293121759
10.197248 961.82446 829.71094 4293318622
13.334863 960.62506 828.69958 4293121248
16.472477 960.62506 828.69958 4293121757
19.610092 960.62506 828.69958 4292989921
22.747707 960.62506 828.69958 4293055453
25.885323 960.62506 828.69958 4292594904
29.807339 960.62506 828.69958 4292529104
32.944954 960.62506 828.69958 4294833151
34.51376 961.22473 829.20526 4294045175
37.128441 961.42462 829.37384 4294967295
40.004585 961.22473 829.20532 4293715439
43.142204 961.82446 829.71094 4292728286
46.541286 961.42462 829.37384 4292990683
49.155964 961.42462 829.37384 4293122011
52.555046 961.82446 829.71094 4293253083
55.692661 961.82446 829.71094 4293318879
58.830276 961.82446 829.71094 4293253086
61.967888 961.82446 829.71094 4293252827
65.105499 961.82446 829.71094 4293121755
67.458717 961.82446 829.71094 4293056218
-6.2605505 963.06879 828.14392 4293582310
-3.9174311 963.04626 829.43304 4293516516
-1.5669725 963.04626 829.43304 4293319394
37.651375 963.0238 830.72217 4294967295
62.752293 963.0238 830.72217 4293318620
68.162384 963.04626 829.43304 4293056218
70.51284 963.04626 829.43311 4293187547
72.165138 963.0238 830.72217 4293647840
0.78623855 961.78235 832.29138 4293254110
3.9311926 961.78235 832.29138 4293121241
7.0761471 961.78235 832.29138 4293187804
10.233945 961.16156 833.07599 4293319390
13.381652 960.56042 832.56921 4293187035
16.530275 960.56049 832.56915 4293055959
19.655962 961.18127 831.78455 4292989405
22.813763 960.87085 832.17688 4293121244
25.945871 961.18127 831.78455 4292792787
29.107338 960.87085 832.17688 4292727510
31.449541 961.18127 831.78455 4292266711
33.546177 961.38165 831.95343 4292200919
36.953209 962.38342 832.79822 4294373373
40.098167 962.38342 832.79822 4294637053
42.981037 962.18311 832.62921 4292793826
46.388073 961.78235 832.29138 4292925405
49.795105 962.18311 832.62921 4293056220
52.677982 962.38342 832.79822 4293187549
55.822937 962.38342 832.79822 4293122014
59.229969 962.18311 832.62921 4293187802
61.850769 962.5838 832.9671 4293253081
64.471558 962.38342 832.79822 4293318620
66.568199 962.5838 832.9671 4293319390
69.975227 962.9845 833.30505 4294108654
72.165138 964.22321 831.7334 4294042861
-3.1522937 961.74573 834.87659 4292793309
-1.5761468 961.74573 834.87659 4293188067
1.5761468 961.74573 834.87659 4293189088
20.489908 961.74573 834.87659 4293055964
23.642202 961.74573 834.87659 4293121246
26.794495 961.74573 834.87659 4292596183
29.946789 961.74573 834.87659 4292662493
31.522936 961.74573 834.87659 4292727255
34.149845 962.14746 835.21533 4292135118
36.251377 962.34827 835.38464 4292859098
40.979816 962.95074 835.8927 4294965759
44.132111 961.74573 834.87659 4292859103
46.49633 961.74573 834.87659 4293122527
49.648624 962.34827 835.38464 4292925149
52.800919 962.95074 835.8927 4292990685
55.953209 962.95074 835.8927 4293187806
58.842815 962.54907 835.55402 4293187808
61.469727 962.95074 835.8927 4293187804
63.833946 962.95074 835.8927 4293450976
66.986237 962.95074 835.8927 4293977318
69.350456 962.95074 835.8927 4294174710
67.774315 964.1557 836.90869 4292859101
70.84404 964.17114 835.61365 4290227900
73.205505 964.17114 835.61365 4288444540
75.655045 964.1557 836.90869 4286202944
-6.3339448 959.87427 838.53076 4293451495
-4.7504587 959.87427 838.53076 4293451752
0.52844036 959.86981 838.96307 4293319907
3.9587154 959.87427 838.53076 4293187550
7.1256881 959.87427 838.53076 4293384927
10.292661 959.87427 838.53076 4293121247
13.459633 959.87427 838.53076 4293253086
16.626606 959.87427 838.53076 4293187039
18.979816 959.88763 837.23401 4293055964
22.705811 959.86981 838.96307 4293055453
25.874006 959.86981 838.96307 4292793305
28.469725 959.88763 837.23401 4292530651
-3.1633027 961.09686 838.25354 4293319654
-1.5816513 961.09686 838.25354 4293319654
19.770641 961.09686 838.25354 4293384670
28.469725 961.09686 838.25354 4292727266
30.842201 961.70142 838.76331 4292727002
33.741898 961.90302 838.93329 4292397774
37.432415 961.90302 838.93329 4292661728
39.541283 961.09686 838.25354 4294966271
43.495415 961.09686 838.25354 4292728030
46.658714 961.09686 838.25354 4293188064
49.031193 961.09686 838.25354 4293056988
52.194496 962.30603 839.27307 4292991195
56.148624 962.30603 839.27307 4293122267
58.521099 962.30603 839.27307 4293253597
60.893578 962.30603 839.27307 4293450461
64.056885 962.30603 839.27307 4294174186
66.429359 962.30603 839.27307 4294438389
69.592659 962.30603 839.27307 4290557635
74.078896 965.36066 837.92468 4286532129
75.655045 965.36066 837.92468 4286991674
-6.3559632 959.83978 842.42578 4293254631
-4.7669725 959.83978 842.42578 4293385960
0 959.83978 842.42578 4293187552
-3.1706421 961.67889 841.36041 4293450981
-1.5853211 961.67889 841.36041 4293385188
1.5853211 961.07288 840.84949 4293319138
3.9633026 961.07288 840.84949 4292990943
7.133945 961.07288 840.84949 4293187554
10.304587 961.07288 840.84949 4293121759
13.475229 961.07288 840.84949 4293450463
16.645872 961.07288 840.84949 4293121759
19.816513 961.07288 840.84949 4293187804
22.987156 961.07288 840.84949 4293121761
26.157799 961.07288 840.84949 4292924634
28.53578 961.07288 840.84949 4292595161
40.42569 961.07288 840.84949 4294966271
43.596329 961.07288 840.84949 4292662239
46.766972 961.07288 840.84949 4293188064
49.937614 961.07288 840.84949 4293056989
53.900917 961.07288 840.84949 4293056988
55.48624 962.28491 841.87134 4293189085
57.86422 962.28491 841.87134 4293582562
61.034863 962.28491 841.87134 4294042341
64.205505 962.28491 841.87134 4294306033
-3.1706421 963.49689 842.89331 4293516517
-1.5853211 963.49689 842.89331 4293516517
64.205505 963.49689 842.89331 4289765548
67.298164 963.50604 841.59302 4288973712
70.465134 963.50604 841.59302 4285943377
73.396942 963.50299 842.02643 4286269222
-7.1761465 958.59888 845.30359 4293582569
-6.3559632 962.26935 844.47437 4293385188
-4.7669725 961.66199 843.96222 4293516517
0.7944954 961.66193 843.96222 4293319907
3.7076454 961.45947 843.7915 4292990946
7.1504583 961.05457 843.45007 4293056484
10.328441 961.05457 843.45007 4293187552
13.506422 961.05457 843.45007 4293319390
16.949234 961.45947 843.7915 4293187807
19.862385 961.66199 843.96228 4293319133
23.040367 961.05457 843.45007 4293121507
25.423853 961.05457 843.45007 4292990171
27.807339 961.05457 843.45007 4292924378
30.985321 961.05457 843.45007 4292726999
34.163303 961.05457 843.45007 4292265935
37.341286 961.05457 843.45007 4292462805
40.519264 961.05457 843.45007 4294967295
43.69725 961.05457 843.45007 4292991202
46.875229 961.05457 843.45007 4293188062
50.318043 961.45947 843.7915 4292990683
52.436699 961.05457 843.45007 4293254110
54.820183 961.66199 843.96222 4293254879
57.998165 962.26935 844.47437 4294240492
61.176147 962.26935 844.47437 4294172911
-3.972477 963.48413 845.49854 4293516262
-1.5889908 963.48413 845.49854 4293385188
61.176147 963.48413 845.49854 4292595415
64.354126 963.48413 845.49854 4287063940
67.532112 963.48413 845.49854 4285349668
70.337616 964.70459 844.78363 4286861377
73.093575 963.48413 845.49854 4287255368
-9.5779819 959.81439 847.63647 4293385188
-7.9816513 958.59393 846.60742 4293714411
31.128441 959.81439 847.63647 4292661975
34.321098 959.81439 847.63647 4292332240
37.513763 959.81439 847.63647 4292265939
41.504585 959.81439 847.63647 4294967295
-7.4324155 961.8537 846.73981 4293516517
0.79633027 962.25952 847.08203 4293516769
4.2470946 961.8537 846.73981 4292990430
7.1669722 961.65076 846.56873 4293188065
10.352293 961.6507 846.56873 4293253598
13.537615 961.6507 846.56873 4293187806
16.457491 961.8537 846.73981 4293319138
19.908257 962.25952 847.08203 4293253851
23.120182 961.03833 847.36041 4293055966
25.511927 961.03833 847.36041 4292792282
27.903671 961.03833 847.36041 4292727256
39.816513 961.04187 846.05542 4294965759
43.848625 961.03833 847.36047 4293056998
47.010094 961.34448 846.96454 4293188064
49.372478 961.6507 846.56873 4293055966
52.106419 961.03711 847.79541 4293450977
54.722935 961.44537 847.26758 4293648610
58.132111 962.25952 847.08203 4294503664
-6.3706422 963.47711 848.10876 4293319142
-3.9779816 964.08801 847.3158 4293384934
-1.5889908 964.69897 846.52283 4293253345
0.79633027 963.47711 848.10876 4293319392
3.1853211 963.47711 848.10876 4293384163
7.1669722 963.47711 848.10876 4293384417
9.5559635 963.47711 848.10876 4293319138
61.317429 963.47711 848.10876 4285814384
64.354126 964.69897 846.52283 4286464837
67.532112 965.30634 847.03503 4287321150
70.974922 965.50885 847.20575 4287255107
73.093575 964.69897 846.52283 4287386693
31.200001 959.81006 850.2489 4292792791
34.400002 959.81006 850.2489 4292529362
37.599998 959.81006 850.2489 4292528856
40.799999 959.81006 850.2489 4294965503
4.788991 962.25519 849.69446 4293318370
11.174312 962.25519 849.69446 4293187552
13.568808 962.25519 849.69446 4293187552
16.761467 962.25519 849.69446 4293121505
19.954128 962.25519 849.69446 4293187552
22.4 961.03326 851.28027 4292859101
24.799999 961.03326 851.28027 4292660952
28 961.03326 851.28027 4292594646
38.400002 961.03326 851.28027 4292858851
41.599998 961.03326 851.28027 4293913343
44 961.03326 851.28027 4292333793
46.400002 961.03326 851.28027 4293056734
48.799999 961.03326 851.28027 4293253345
52 961.03326 851.28027 4294043113
55.073395 962.25519 849.69446 4294436853
58.266056 962.25519 849.69446 4290752443
-3.7223241 964.28876 850.53711 4293384933
-1.5944954 964.69531 850.44391 4293319394
0.79816514 963.47559 850.72351 4293319395
3.1926606 963.47559 850.72351 4293318118
59.06422 963.47559 850.72351 4285617514
61.388073 964.69531 850.44385 4286202907
64.502747 965.30353 849.64868 4287058234
67.68808 965.91229 850.16199 4287321926
70.077065 965.91229 850.16199 4287190341
31.307339 959.20044 853.65894 4292463312
34.518349 959.20044 853.65894 4292398032
36.926605 959.20044 853.65894 4292398290
40.137615 959.20044 853.65894 4294635261
4.8000002 962.25647 852.31165 4293318118
7.1999998 962.25647 852.31165 4293253345
10.4 962.25647 852.31165 4293121505
13.6 962.25647 852.31165 4293384931
16.827522 961.34216 853.50275 4293187552
20.03578 961.34216 853.50275 4292990173
22.477064 960.42786 854.69385 4292859355
24.885323 960.42786 854.69385 4292661208
28.096329 960.42786 854.69385 4292594391
31.307339 960.42786 854.69385 4292463058
34.518349 960.42786 854.69385 4292397520
37.729355 960.42786 854.69385 4293187808
40.940369 960.42786 854.69385 4293846771
44.151375 960.42786 854.69385 4291741652
46.559631 960.42786 854.69385 4292991202
48.882568 961.34216 853.50275 4293779430
52.178902 960.42786 854.69385 4294503664
55.200001 962.25647 852.31165 4293318620
57.599998 962.25647 852.31165 4289894059
-3.1926606 965.91638 852.78149 4293188319
-1.5963303 965.91638 852.78149 4293254112
0.80000001 964.09131 853.8587 4293253346
3.2 963.47968 853.34302 4293121248
56 963.47968 853.34302 4283774804
58.400002 964.09125 853.85876 4286594370
61.458717 965.91638 852.78149 4287517509
64.651375 965.91638 852.78149 4287451968
67.922935 965.30963 853.57794 4287320896
4.2813454 962.47357 856.41876 4293121760
7.2247705 962.26898 856.24634 4293121756
10.43578 961.65527 855.72888 4293121248
13.64679 961.65527 855.72888 4293121248
16.896332 960.43903 857.31934 4293055455
20.114677 960.43903 857.31934 4292989919
22.52844 960.43903 857.31934 4292793307
24.942204 960.43903 857.31934 4292660953
28.160549 960.43903 857.31934 4292462804
31.378899 960.43903 857.31934 4292528595
34.597248 960.43903 857.31934 4292134604
37.771561 961.04712 856.52411 4293780457
40.986237 961.04712 856.52411 4291874268
43.447708 960.43903 857.31934 4289900997
45.861465 960.43903 857.31934 4292136145
49.022934 961.04712 856.52411 4294172914
52.178902 961.65527 855.72888 4291541444
55.122326 962.47357 856.41876 4285678934
0.80275232 964.11011 857.79871 4293121761
4.0137615 964.11011 857.79871 4293187552
55.389908 964.11011 857.79871 4286991144
58.400002 965.92615 855.40576 4287386693
61.599998 965.92615 855.40576 4287518022
64 965.92615 855.40576 4287321150
59.200001 967.14935 856.43726 4287320648
61.599998 967.14935 856.43726 4287255102
7.2412844 962.89948 859.39392 4293122011
10.465137 961.98169 859.27405 4293187553
13.693579 961.67902 859.67291 4292989920
16.934864 961.07227 860.46948 4293121505
20.160549 961.07227 860.46942 4292858335
22.579817 960.45575 859.94958 4292858589
25.267889 960.86676 860.29614 4292660697
28.22477 961.07227 860.46948 4292397267
31.450459 961.07227 860.46948 4292265680
34.676147 961.07227 860.46948 4292858074
37.575535 961.67578 859.23413 4294174702
41.079819 961.0625 859.15308 4291412425
43.546787 960.45575 859.94958 4290096310
45.966057 960.45575 859.94958 4292726231
49.1633 961.37567 860.07117 4290225084
52.298164 962.28436 858.87524 4287257965
70.803673 961.66925 858.35657 4287320900
0.80275232 965.33752 858.83362 4293055966
4.0137615 965.33752 858.83362 4293187552
7.2412844 964.1297 860.43127 4292990939
52.298164 964.1297 860.43127 4285547296
55.452293 964.73364 859.63245 4287189312
57.798164 965.33752 858.83362 4287254854
0.80275232 966.56494 859.86853 4293055455
4.0137615 966.56494 859.86853 4293055968
6.4220185 966.56494 859.86853 4292925148
56.192661 966.56494 859.86853 4287320896
58.600914 967.17865 860.38599 4287189309
10.483486 962.92181 862.02893 4293121759
13.740367 961.71393 863.62646 4293055199
16.973394 961.71393 863.62646 4293055966
19.398165 961.71393 863.62646 4292858341
22.092356 961.302 863.27911 4292660448
24.786545 961.302 863.27911 4292528603
28.28899 961.71393 863.62646 4292463058
31.522018 961.71393 863.62646 4292397520
34.755043 961.71393 863.62646 4293713900
38.257492 961.302 863.27911 4293319910
40.412846 961.09601 863.10547 4291214787
42.837616 961.09601 863.10547 4291280068
46.070641 961.09601 863.10547 4291803344
49.191742 962.92181 862.02893 4285090677
52.417431 964.15485 863.06848 4287058750
54.711926 965.35992 861.46851 4287320896
55.516514 967.20526 863.02448 4287255357
10.507339 962.94977 864.66846 4292792544
13.740367 962.94977 864.66846 4292726490
16.973394 962.94977 864.66846 4292923612
19.398165 962.94977 864.66846 4292661210
21.822937 962.94977 864.66846 4292529368
25.055964 962.94977 864.66846 4292397269
28.28899 962.94977 864.66846 4292397524
31.522018 962.94977 864.66846 4292858586
34.755043 962.94977 864.66846 4292925149
37.988075 962.94977 864.66846 4291411913
40.412846 962.94977 864.66846 4291806160
42.837616 962.94977 864.66846 4291738057
46.070641 962.94977 864.66846 4287790743
49.303673 962.94977 864.66846 4285484365
13.740367 964.18561 865.71057 4292726236
17.781651 964.18561 865.71057 4292858071
19.398165 964.18561 865.71057 4292660945
21.822937 964.18561 865.71057 4292463310
37.988075 964.18561 865.71057 4291673538
40.412846 964.80353 866.23157 4290224304
46.878899 964.18561 865.71057 4285483322
49.303673 964.18561 865.71057 4286599189
52.477062 965.40466 865.4303 4287255354
54.711926 969.05066 864.58044 4287255352
16.220184 962.38226 868.11401 4292858071
25.141285 962.38226 868.11401 4292528852
28.385323 962.38226 868.11401 4292528855
31.629358 962.38226 868.11401 4293187298
34.873394 962.38226 868.11401 4292332493
42.983486 962.38226 868.11401 4290158507
45.416515 962.38226 868.11401 4287588442
17.842201 963.62231 869.15967 4292660695
19.46422 963.62231 869.15967 4292594900
21.897247 963.62231 869.15967 4292594387
25.141285 963.62231 869.15967 4292528597
28.385323 963.62231 869.15967 4292660955
31.629358 963.62231 869.15967 4292463576
34.873394 963.62231 869.15967 4291805130
