# .PCD v0.7 - Point Cloud Data file format
VERSION 0.7
FIELDS x y z rgb
SIZE 4 4 4 4
TYPE F F F U
COUNT 1 1 1 1
WIDTH 1170
HEIGHT 1
VIEWPOINT 0 0 0 1 0 0 0
POINTS 1170
DATA ascii
36.866974 912.65039 788.24866 4294240492
13.30367 916.40295 788.79651 4290315291
16.694801 916.00409 788.46021 4291757629
19.272781 916.50873 787.1416 4292022838
22.641285 916.56293 786.31543 4292151596
25.503977 916.96088 786.65088 4292942680
29.1474 916.96088 786.65088 4293950110
31.799997 916.45532 787.96869 4293372629
35.215599 916.40295 788.79651 4294372339
13.272477 918.95044 788.32849 4290445856
16.395412 918.95044 788.32849 4291692088
19.472477 920.30139 786.85144 4291958584
22.588074 920.30139 786.85144 4292086071
25.703671 920.30139 786.85144 4293398587
29.598166 920.30139 786.85144 4294199680
31.934862 920.30139 786.85144 4293111255
35.092659 919.62592 787.58997 4294438389
17.13578 922.68329 788.85986 4291629881
19.472477 922.08777 788.35767 4292023606
22.534863 922.84045 786.37634 4291891249
25.64312 922.84045 786.37634 4293332542
28.751377 922.84045 786.37634 4293409638
31.934862 921.49231 787.85559 4292914129
34.271561 921.49231 787.85559 4294964731
37.387157 922.68329 788.85986 4294306285
20.203671 925.21674 788.38 4292813889
22.534863 924.62268 787.87903 4291957297
25.612844 925.29401 787.13708 4293398585
27.908257 926.55933 786.89587 4292750688
34.967888 924.02863 787.37817 4294767095
37.986237 926.55933 786.89587 4294043881
20.155964 928.92999 788.89478 4292551218
22.481651 928.33728 788.39514 4291629368
25.551376 928.41449 787.15216 4293266740
27.842201 929.08435 786.40894 4292618840
35.576145 929.08435 786.40894 4294371312
37.896332 929.08435 786.40894 4293845734
40.989906 929.08435 786.40894 4293450461
21.655046 931.4494 788.40308 4292351805
25.522018 930.85815 787.90454 4293136183
27.842201 930.26685 787.40601 4292619097
37.122936 930.26685 787.40601 4293977320
44.85688 931.4494 788.40308 4293647842
47.177063 930.85815 787.90454 4293713379
49.49725 930.85815 787.90454 4293844707
51.044037 931.4494 788.40308 4294238696
20.036697 935.21814 787.65656 4289941825
22.502752 934.86462 787.35852 4289931848
25.174311 935.02173 787.49097 4291956257
28.359634 934.39325 786.96106 4293015126
31.596329 934.03979 786.66296 4292967319
34.678902 934.03979 786.66296 4294698221
37.915596 934.39325 786.96106 4293647842
40.998161 934.39325 786.96106 4293582304
43.772476 934.86462 787.35852 4293648098
47.009174 935.80731 788.15332 4293845734
26.13945 937.13574 786.65747 4293863481
29.21468 937.13574 786.65747 4293804630
31.521101 937.72351 787.15308 4293228689
34.596333 937.72351 787.15308 4294630891
37.415295 937.91943 787.3183 4293779946
40.49052 937.91943 787.3183 4293516513
43.053211 938.31128 787.64868 4293385437
31.521101 939.48676 788.63989 4293491333
34.824463 940.31866 788.46924 4294695651
37.626606 940.73462 788.38391 4293845222
40.674313 941.06531 788.00873 4293712866
43.822018 939.48676 788.63989 4293647842
46.897247 939.48676 788.63989 4293581533
49.203671 939.48676 788.63989 4293844964
37.491745 944.47241 787.61145 4294107879
31.370644 945.64233 788.5979 4292191903
34.43119 945.64233 788.5979 4294036452
37.491745 945.64233 788.5979 4294042597
40.552292 945.64233 788.5979 4293778404
42.847706 945.64233 788.5979 4293778658
25.128441 949.43555 786.56409 4279241007
28.208256 949.36188 787.81006 4281350970
31.257799 949.36194 787.81 4290814910
34.307339 949.36188 787.81006 4293709276
37.118042 948.94922 787.89813 4294108393
40.406422 949.36188 787.81006 4293910242
43.184097 949.7746 787.72192 4294107364
15.990826 951.76416 788.52747 4281015834
19.798164 951.76416 788.52747 4281410857
22.082569 951.76416 788.52747 4281281072
25.340673 952.24774 787.19116 4279965468
28.174313 951.76416 788.52747 4281218368
31.181652 952.41724 787.77008 4289107116
34.183487 953.07025 787.0127 4293843431
37.475231 952.68311 786.68622 4294042856
40.260551 953.07025 787.0127 4294173416
43.29908 953.07025 787.0127 4294107620
45.688072 951.76416 788.52747 4293516253
16.711927 954.8125 788.48175 4279505194
18.966972 955.46332 787.72253 4279899163
21.988991 955.78845 787.34259 4281279014
24.249542 956.11426 786.96332 4281411107
28.038532 955.53491 786.47485 4281808445
30.311926 955.53491 786.47485 4286872723
37.132111 955.53491 786.47485 4294437103
40.415905 955.92114 786.80048 4293976296
43.194496 956.11426 786.96332 4294041829
46.009785 955.87299 787.63184 4293911782
48.616512 955.39319 788.97144 4294042600
16.67156 957.85229 788.42883 4280680561
18.944954 957.85229 788.42883 4280614928
21.948624 958.5011 787.66785 4280420882
24.946789 959.14996 786.90686 4280359713
27.970642 959.14996 786.90686 4281874236
30.994495 959.14996 786.90686 4289173688
34.018349 959.14996 786.90686 4293580775
37.042202 959.14996 786.90686 4294372078
40.066055 959.14996 786.90686 4294108136
43.089909 959.14996 786.90686 4294107884
46.170643 958.5011 787.66785 4294173677
48.499084 957.85229 788.42883 4294108393
24.946789 960.88379 788.36877 4279702551
27.970644 960.88379 788.36877 4280558129
30.994495 960.88379 788.36877 4288975797
34.018349 960.88379 788.36877 4292923578
37.042202 960.88379 788.36877 4294372593
40.066055 960.88379 788.36877 4294174701
43.089909 960.88379 788.36877 4294042091
46.113762 960.88379 788.36877 4294370796
-8.8348627 748.73669 791.30798 4285464578
51.242203 747.3858 790.16907 4293713898
-12.330276 752.40436 790.47644 4285205530
-10.568808 752.40436 790.47644 4285924869
-7.9266057 751.73102 789.90869 4286185472
49.321102 751.05768 789.34094 4293976816
51.963303 751.73102 789.90869 4293779439
54.605503 751.73102 789.90869 4293779440
-10.568808 753.75098 791.61194 4285925903
-15.80367 756.7348 790.20367 4283894294
-13.169725 756.7348 790.20361 4285008669
-10.53578 758.74847 791.90161 4286648862
-7.901835 757.40607 790.76971 4286317325
-5.2568808 758.94495 789.45117 4289208881
50.922935 756.7348 790.20367 4294043380
52.678898 756.7348 790.20367 4294043375
55.312843 756.73474 790.20367 4294109168
-5.2568808 760.95447 791.14545 4290458181
52.403671 763.92419 789.72546 4293911793
54.150459 763.92419 789.72546 4294306551
-3.4862385 766.79016 789.52588 4288965248
47.06422 766.79016 789.52588 4294240754
50.550457 766.79016 789.52588 4294174962
52.348625 766.69263 790.75165 4294306804
54.994495 766.30994 791.08301 4294306805
57.522934 766.79016 789.52588 4294109940
50.550457 768.78912 791.21136 4294240757
57.522934 768.1228 790.64954 4294240756
-3.4752293 771.7428 789.77771 4288504447
46.915596 771.7428 789.77771 4293977838
48.65321 771.7428 789.77771 4293911791
49.313763 778.76099 790.46313 4294701561
50.124771 780.84064 790.90857 4294635259
49.965137 784.42834 790.00952 4294635261
51.688072 785.74554 791.12024 4294437369
-4.011621 787.69171 790.1452 4286727774
49.858715 787.2536 789.77576 4294700795
52.437614 788.56799 790.88403 4294503162
-5.1577983 789.88245 791.99219 4283569704
52.437614 789.88245 791.99219 4294568953
-4.2844038 792.7912 790.52069 4286193478
47.882568 794.94586 789.72144 4294438137
49.64587 793.54102 789.84491 4294372344
51.412846 793.44629 791.073 4294568953
-4.2752295 796.90692 791.375 4286714416
52.157799 796.90692 791.375 4294437880
-3.4091742 799.80164 789.89172 4286256948
51.137615 799.80164 789.89172 4294568953
-3.9749234 802.0354 790.90308 4286320424
-1.7009175 802.59607 789.63184 4292641181
49.326607 802.59607 789.63184 4294701307
51.669113 802.03534 790.90308 4294701306
-5.1027522 805.19684 791.82471 4287302940
51.027523 805.19684 791.82471 4294569720
-4.2385321 808.0733 790.32587 4287500836
50.014679 808.0733 790.32587 4294504439
-3.8091745 811.12756 790.93921 4287827237
-1.6917431 810.20422 789.50659 4290524748
1.6917431 810.85089 790.05188 4289349965
4.2293577 810.20422 789.50659 4292051847
47.368809 810.20422 789.50659 4294439154
49.906422 811.49756 790.59717 4294438902
52.500916 811.40424 791.82642 4294569977
-1.6862385 815.00671 789.63184 4290261583
0.84311926 815.00671 789.63184 4289411167
4.2155962 815.00671 789.63184 4289999956
48.900917 815.00671 789.63184 4294504443
-3.3724771 816.94043 791.26233 4287958822
-1.6862385 816.94043 791.26233 4289735234
1.124159 817.21704 790.62354 4290067551
4.2100916 817.03308 790.03241 4290596440
47.111927 817.77026 789.34595 4294372346
49.744034 816.29584 790.71887 4294569466
52.273396 816.94043 791.26233 4294503927
-1.6825688 820.34296 791.51514 4289668158
0.56085628 819.91412 791.15363 4289936216
3.3651376 819.05658 790.43054 4290793806
49.63578 819.05658 790.43054 4294503928
52.159634 820.34296 791.51514 4294568953
0.83853209 823.82825 790.52979 4289340224
3.3541284 822.54614 789.44873 4290795101
49.473396 822.54614 789.44873 4294240758
51.988991 823.82825 790.52979 4294766335
-1.6770642 825.11035 791.61084 4288154402
0.83669722 827.21313 790.76782 4289469775
3.9045868 825.72064 789.50934 4290260539
49.644032 825.72064 789.50934 4294174709
52.51009 826.02448 791.50958 4294371833
4.1697249 830.04333 789.2301 4289997646
49.202751 830.04333 789.2301 4294372346
0.83394498 831.95605 790.84283 4289276244
50.036697 831.31848 790.3053 4294305784
52.538532 832.59363 791.38037 4294240752
0.83211011 835.32068 791.06372 4289472858
4.1559634 835.41052 789.83142 4290002518
49.06789 835.04749 790.17938 4294306804
0.83027524 839.31165 791.81274 4289539921
49.816513 838.67688 791.27753 4293977586
0.82752293 842.74646 790.78479 4289012016
3.8617737 841.90289 790.07355 4289872960
47.99633 841.48114 789.7179 4294174962
49.651375 842.74646 790.78479 4294109169
0.82752293 844.01178 791.85168 4288480541
4.1284404 844.82117 789.91809 4289469731
6.6055045 844.18994 789.38586 4290791266
47.889908 844.18994 789.38586 4294438387
49.541283 845.45245 790.45032 4293977840
52.133945 844.01178 791.85168 4294239983
54.616512 844.01178 791.85168 4294831348
0.82568806 846.71497 791.51489 4288349725
4.3938837 847.73297 789.75714 4289660983
6.5908256 846.89319 789.04907 4289535805
47.234253 847.31305 789.40314 4294241010
49.541283 846.71497 791.51489 4294174449
51.192661 846.71497 791.51489 4294240242
4.1110091 850.48889 790.11884 4289396774
46.80275 851.56525 789.06433 4293977325
49.431194 849.41254 791.17334 4294108654
4.1055045 853.44843 790.65222 4289265953
46.80275 852.82068 790.12292 4294241008
49.266056 854.07617 791.18152 4294240240
4.3694191 856.34082 790.47491 4289332259
6.5541286 855.50568 789.77075 4289986601
44.240368 855.50568 789.77075 4294109167
46.698166 856.13202 790.29889 4294372593
1.6385322 858.01105 791.8833 4288086551
4.0889912 859.70386 791.34857 4289201185
7.084404 858.60175 789.7652 4289986588
9.8091745 858.18512 789.41394 4290445346
43.596329 858.60175 789.7652 4294043633
46.593578 860.05994 790.99469 4294043118
49.155964 858.01105 791.8833 4294042859
7.3321099 862.81647 789.3949 4289921056
43.992661 862.81647 789.3949 4294635513
4.3412843 865.36432 790.6712 4289276210
7.0446486 865.89471 789.37433 4289994037
43.893578 865.48035 789.02502 4294306803
46.672779 864.94922 790.32111 4294109168
48.770641 866.72321 790.07288 4293978090
4.8770642 867.96606 791.12085 4290468187
7.2990828 869.37872 789.69592 4290595689
46.227524 869.37872 789.69592 4293713896
49.528442 868.67236 790.40839 4294108654
4.3253822 871.4455 791.43848 4289869614
47.038532 870.61877 790.74146 4294109167
49.471558 871.23877 791.26422 4294109170
51.904587 871.85883 791.78699 4293977068
4.8495412 875.20526 790.68457 4289470261
7.0048928 874.38135 789.98993 4290193217
46.340057 874.38135 789.98993 4294043631
49.303673 875.20526 790.68457 4294108654
4.8495412 876.4411 791.72656 4288611359
7.5314984 876.96442 790.42383 4289531151
10.214679 877.02057 789.59912 4290785320
43.546787 876.60956 789.25256 4294174960
45.966057 877.22607 789.7724 4294174447
49.248627 877.14185 791.0094 4294108654
51.728439 876.4411 791.72656 4294438137
8.0550461 880.39001 791.13214 4288743186
10.470642 879.7749 790.61353 4289789982
46.666054 880.47424 789.89514 4294437617
49.108261 880.73975 790.77295 4294371831
7.23211 883.63123 791.24896 4290327372
10.43578 883.10028 789.49329 4289986561
44.418961 883.50946 789.8382 4294109166
46.559631 883.71399 790.01074 4294635766
49.024773 883.63123 791.24896 4291874558
51.49358 882.93469 791.96973 4285237713
7.211009 886.59778 790.48022 4290788450
10.4 887.64044 789.39734 4291056744
44 887.64044 789.39734 4294371825
46.400002 887.64044 789.39734 4293978351
48.967888 885.55511 791.56311 4283261037
4 890.08691 791.46008 4289143629
44.799999 888.86365 790.42871 4294372594
46.400002 889.47528 790.9444 4294241006
48.533337 889.6792 791.11627 4292664015
7.183486 892.08173 790.526 4289934157
10.376146 891.4715 790.01147 4290857050
44.165134 891.87836 790.35449 4294307055
47.091743 892.69196 791.04053 4294832890
7.1669722 895.90021 791.12964 4290202444
10.193027 895.04785 790.41089 4290525764
13.251376 895.80487 789.30518 4291314016
43.001835 894.07373 789.5896 4294438639
46.080734 896.67035 789.16296 4294373107
7.1504583 899.09991 791.21143 4289279297
10.593272 898.69501 790.86993 4290789716
13.24159 898.29004 790.52856 4291314512
47.14006 898.29004 790.52856 4294306547
7.9266057 902.89734 791.79724 4289331237
10.304587 902.89734 791.79724 4289396772
13.475229 901.07935 790.2644 4291378771
46.50275 901.28131 790.43475 4294438386
49.937614 902.89734 791.79724 4293978094
7.908257 905.4743 791.35413 4289396779
9.4899082 905.4743 791.35413 4289527839
13.444036 903.66052 789.82471 4291372612
15.816514 903.05591 789.31494 4292498041
44.28624 903.05591 789.31494 4294635761
47.449543 904.86975 790.8443 4294109679
49.031193 905.4743 791.35413 4294635763
11.033028 907.52179 789.15637 4289593376
12.609175 907.52179 789.15637 4290183201
46.233639 908.32513 789.83368 4294241009
7.0926609 909.9317 791.18835 4289332003
9.4348621 911.29108 789.71851 4289858323
40.098167 911.29108 789.71851 4293977066
43.243118 911.29108 789.71851 4294832636
46.49633 909.9317 791.18835 4294043377
7.8623853 913.09436 791.23889 4289268502
10.197248 913.84979 789.25989 4289792538
13.334863 913.84979 789.25989 4290576674
15.688073 913.84979 789.25989 4291100724
32.944954 913.84979 789.25989 4294957567
34.51376 913.84979 789.25989 4294700791
36.866974 913.84979 789.25989 4294174959
40.329662 913.34619 790.57928 4293911531
43.243118 913.09436 791.23889 4294306035
10.190825 915.98657 790.40747 4289727520
37.607338 916.32434 790.03827 4294109421
39.220184 915.6488 790.77679 4293912043
10.955963 919.39429 791.31879 4289397793
13.287156 919.47009 790.07471 4290511147
16.395412 920.14423 789.33508 4291757889
35.913761 920.14423 789.33508 4294241007
37.563301 918.79602 790.81433 4294175214
10.930275 922.53174 791.34814 4289396771
13.256882 922.60608 790.10278 4290511662
16.10948 923.02881 790.02319 4291103279
18.693579 923.87421 789.86401 4291498285
6.2311926 926.2561 791.87231 4286775568
10.904587 925.66064 791.37024 4288350994
13.210092 926.40491 789.38171 4290512685
16.318348 926.40491 789.38171 4291236402
19.426605 926.40491 789.38171 4292025136
55.301834 926.2561 791.87231 4293977319
10.878899 928.78119 791.38538 4287521663
13.210092 927.59308 790.38354 4288415269
16.318348 927.59308 790.38354 4290516542
18.649542 927.59308 790.38354 4291695910
52.063301 927.59308 790.38354 4294042856
54.394497 928.78119 791.38538 4293976555
13.437309 930.51044 790.22736 4286067285
16.26055 931.37366 789.64722 4287825198
19.107645 930.95428 789.72955 4291037704
47.177063 932.63196 789.40015 4293714148
49.614677 931.30066 790.89368 4293845734
52.198776 931.3006 790.89374 4293911274
13.921101 934.40576 790.89575 4286078562
16.241283 933.81445 790.39722 4289691029
18.561468 933.81445 790.39722 4290087547
49.49725 933.81445 790.39722 4293845734
51.817429 934.40576 790.89575 4293714150
16.183487 937.57477 789.64368 4287392650
19.266056 937.57483 789.64362 4289630848
22.348623 937.57477 789.64368 4288049052
25.431192 937.57483 789.64362 4288827224
28.513762 937.57483 789.64362 4291511903
44.697247 936.9856 789.14685 4293648353
47.009174 936.9856 789.14685 4293714402
50.348621 937.37842 789.47803 4293713891
53.174313 938.16394 790.14038 4293648355
16.913761 940.66229 789.63098 4285029197
19.232111 940.9201 790.50232 4284368723
22.348625 939.34229 791.13391 4289238164
26.201836 939.34229 791.13391 4289101474
28.462387 940.92004 790.50232 4290602907
31.521101 940.66229 789.63098 4293033334
33.827522 940.66229 789.63098 4294234832
44.078289 941.05414 789.96143 4293909734
46.897247 941.25006 790.12659 4293910243
50.091743 939.34229 791.13391 4293976805
19.988991 943.01337 791.61328 4280292653
22.295414 943.01337 791.61328 4283317821
26.13945 943.01337 791.61328 4287527042
28.411011 943.67059 790.85944 4289299828
31.445873 943.15515 789.11682 4292904589
34.513763 943.15515 789.11682 4294234592
40.649544 943.15515 789.11682 4293712865
43.71743 943.74146 789.61121 4293646815
46.78532 944.32782 790.10559 4293909728
49.972477 943.01337 791.61328 4293714148
44.377983 946.81226 789.58435 4293975521
46.92844 947.20221 789.91315 4294041572
49.086239 945.50055 791.09436 4293582562
10.711926 949.15204 791.55713 4284890735
12.976147 950.45807 790.04236 4282195537
18.319265 950.45807 790.04236 4281410857
22.13578 949.29095 789.05823 4280557099
24.425688 949.29095 789.05823 4279898145
46.56147 949.87451 789.55029 4293910756
49.675232 949.80505 790.79974 4293911525
10.686238 951.62518 791.02637 4284170608
12.959633 952.27686 790.26782 4281016617
15.229358 952.92847 789.50928 4278321666
47.21101 952.92847 789.50928 4294109158
48.733944 952.92847 789.50928 4293977318
13.706422 955.25702 791.47266 4286075773
15.211009 955.32373 790.22083 4280684129
50.13578 956.55469 789.95068 4294108393
51.655045 956.55469 789.95068 4294239722
16.205505 958.49054 791.58301 4287727006
18.707033 958.96655 790.2403 4288777915
21.976147 959.01099 789.40576 4284371571
49.256882 959.01099 789.40576 4294239722
51.530273 959.01099 789.40576 4294239722
55.453209 957.71619 790.93005 4294043113
19.197554 960.94214 791.034 4281347190
21.976149 960.74902 790.87122 4286803098
24.976147 961.97302 790.59521 4290817457
27.970642 962.61761 789.83069 4282342276
31.069725 961.32837 791.35974 4287400083
34.100918 961.32837 791.35974 4292069030
37.042202 962.61761 789.83069 4294504177
40.066055 962.61761 789.83069 4294371562
43.089909 962.61761 789.83069 4294107109
46.113762 962.61761 789.83069 4294632683
49.256882 960.74902 790.87122 4294238694
52.035473 960.55591 790.70831 4294371308
55.319267 960.16968 790.38269 4294108906
43.845871 963.7735 790.8053 4294568942
46.869724 963.7735 790.8053 4294240746
-10.568808 755.09766 792.74731 4286387221
-13.21101 756.44434 793.88281 4286386465
-13.169725 760.76215 793.59949 4286188826
-10.53578 760.09094 793.03345 4286779930
-7.901835 760.09094 793.03345 4286448654
-10.513762 762.96387 792.83972 4286649375
-7.8853211 763.63367 793.40454 4286317326
-5.2568808 763.63367 793.40454 4291708753
-5.2403669 767.93054 793.10339 4290853441
52.403671 767.93054 793.10339 4294306549
54.150459 767.93054 793.10339 4294372342
-6.9871559 769.26593 794.22937 4287037440
-5.2293577 770.78809 792.89673 4290720054
50.550457 770.78809 792.89673 4294372344
52.293579 770.78809 792.89673 4294438389
55.023853 769.26593 794.22937 4294569720
-5.2293577 772.12073 794.02039 4290325548
52.293579 772.12073 794.02039 4294635000
54.036697 772.12073 794.02039 4294700793
50.390827 774.3996 792.01782 4294569718
52.128441 775.72803 793.13794 4294569720
52.91468 778.19171 793.25323 4294569720
52.829357 780.65118 793.36499 4294569466
53.58165 783.48346 793.13696 4294700541
55.310093 783.48346 793.13696 4294767102
57.038532 784.80487 794.2511 4294569466
-6.8917432 788.37994 793.34143 4283503911
-5.1688075 787.06274 792.23083 4285675857
55.133945 787.72131 792.78613 4294306550
-6.8770642 791.19678 793.10046 4285989940
53.297249 791.19678 793.10046 4294897918
55.016514 791.19678 793.10046 4294438387
-6.8770642 792.51123 794.20874 4288094258
-5.1412845 794.75647 792.17773 4286449432
53.126606 794.75647 792.17773 4294438137
54.840366 794.75647 792.17773 4294438389
-7.4262996 796.94012 794.01898 4288225329
55.982876 796.50342 793.6507 4294438391
-6.8403668 800.17542 794.13086 4288355379
55.292965 799.73956 793.76343 4294635514
-6.8183484 803.71118 793.18811 4288355628
-5.1137614 802.40802 792.08923 4286842139
52.842201 803.05957 792.63867 4294701305
-6.8183484 805.01434 794.28687 4288355628
52.728439 806.49719 792.92114 4294635259
54.546787 805.01434 794.28687 4294701055
-6.8036699 807.79755 794.01758 4288421678
54.429359 807.79755 794.01758 4294305784
-6.7816515 812.60986 794.151 4288094258
-5.0862384 811.31372 793.05811 4287895591
55.100918 811.96179 793.60455 4294306552
-5.0752292 814.73096 793.32343 4287633195
54.699696 814.94653 793.50519 4294372344
-4.2238531 817.77258 793.92603 4286908699
53.959633 818.87415 792.89282 4294240756
55.827522 816.67096 794.95923 4294438391
57.519264 816.67096 794.95923 4294569466
-3.3724771 820.16327 793.97974 4287759398
-1.6825688 821.62927 792.59973 4288153900
53.842201 821.62927 792.59973 4294175733
55.524769 821.62927 792.59973 4294372855
57.332111 820.16327 793.97974 4294373109
-3.3651376 823.55884 794.22662 4287890716
55.524769 822.91565 793.68433 4294372344
57.20734 823.55884 794.22662 4294307315
-1.6770642 826.39252 792.69189 4289206063
53.666054 826.39252 792.69189 4294306551
55.343121 826.39252 792.69189 4294569466
57.020184 827.67462 793.77295 4294240754
-3.3541284 828.95679 794.854 4287627275
-1.6733944 829.77185 792.92523 4289206053
52.711926 829.13214 792.38586 4294437621
55.779816 829.98505 793.10498 4294372080
-3.3467889 831.6908 794.54321 4287430665
-1.66789 833.86871 792.45557 4289072673
52.538532 833.86871 792.45557 4294043116
55.967888 832.77979 793.49939 4294371825
-3.3357799 835.78137 794.06824 4287758615
-1.66789 835.14386 793.53064 4289271340
0.83211011 836.59302 792.13647 4289671520
52.481651 835.86841 792.83356 4294306804
55.874313 835.78137 794.06824 4294504183
-3.3284404 839.13763 794.28198 4287957529
-1.6642202 837.8653 793.20923 4288679462
52.422935 837.8653 793.20923 4294306549
55.751373 838.50146 793.74561 4294372341
-1.6605505 841.21594 793.4184 4287891226
52.307343 840.58118 792.88318 4294240498
55.628441 841.21594 793.4184 4294569206
58.119267 841.85065 793.95361 4294569207
-1.6550459 845.27704 792.91846 4288417578
52.961468 845.27704 792.91846 4294241005
55.444038 845.27704 792.91846 4294635510
58.754128 845.27704 792.91846 4294635512
-1.6550459 846.54236 793.98535 4288417058
0.82568806 847.97742 792.57935 4288350238
52.018349 847.97742 792.57935 4294307058
55.321102 847.97742 792.57935 4294110195
58.623856 847.97742 792.57935 4294109426
-1.6513761 849.87115 794.17609 4288022555
0.82477063 850.94403 793.11859 4288349468
3.2954128 850.67224 792.23547 4289134622
49.431194 850.67224 792.23547 4294240754
51.93211 850.94397 793.11859 4294372595
55.321102 849.87115 794.17609 4294373109
58.623856 849.87115 794.17609 4294175218
61.100918 849.87115 794.17609 4294109167
-1.6477064 853.19159 794.35974 4287826195
52.726604 853.19159 794.35974 4294175731
55.198166 853.19159 794.35974 4294372599
58.493576 853.19159 794.35974 4294043635
60.965137 853.19159 794.35974 4293912558
-1.6422018 857.84259 794.3573 4287692820
0.54740059 855.75018 792.59296 4288283421
50.360859 855.75018 792.59296 4294174701
52.550457 857.21484 793.828 4293912045
55.013763 857.84259 794.3573 4294109168
57.477066 857.84259 794.3573 4294372596
0.81926608 859.26373 792.93945 4288086040
50.248318 859.68134 793.2915 4294108909
52.433029 860.51642 793.99573 4293648103
55.710091 860.51642 793.99573 4294174960
0.81743121 862.55957 793.10236 4288941359
3.2697248 861.93469 792.57544 4289273904
49.863304 862.55963 793.10236 4294043884
52.315598 863.18457 793.62927 4294108908
-1.6348624 864.43445 794.68311 4287251550
0.81467891 866.55341 792.54578 4287959061
3.2587156 866.55341 792.54578 4290336600
53.133026 864.43445 794.68311 4294174701
-7.3321099 869.04474 794.64636 4286401619
-3.2587156 869.04474 794.64636 4290346408
-1.6293578 868.42188 794.12122 4286069595
0.81284404 868.50403 792.88245 4288219424
3.2513762 869.20892 792.16882 4290336291
52.895412 868.50403 792.88245 4294109421
55.398167 869.04474 794.64636 4294042861
-1.6256881 871.69458 794.26465 4285476656
0.81284404 870.45178 793.2168 4287825926
53.647705 871.07318 793.74072 4294108910
0.81100917 874.33887 793.87817 4288022551
3.2440367 874.33887 793.87817 4288942120
52.715595 873.71887 793.35541 4294438646
55.959633 875.57898 794.92371 4288718032
4.8495412 878.29486 793.28967 4288878382
6.4660549 877.67694 792.76868 4289200128
52.536697 877.67694 792.76868 4294373375
55.769722 878.91278 793.81067 4278198115
4.838532 881.54169 793.41125 4289474364
6.451376 880.30865 792.37158 4289996606
52.686237 880.71967 792.71808 4285823910
55.707336 880.84515 794.13196 4278190105
4.8275228 884.16492 793.00696 4289673303
52.298164 884.16492 793.00696 4278190121
55.64312 882.77472 794.45093 4279045392
4.8275228 885.39514 794.04431 4291384705
6.4220185 886.78253 792.59814 4290992227
49.770641 886.78253 792.59814 4278390528
52.239449 886.08887 793.32123 4278190080
55.516514 885.39514 794.04431 4278782510
52.178902 888.62366 794.15051 4287726733
54.587154 889.23737 794.66797 4278190194
57.798164 889.23737 794.66797 4278190089
1.0666667 892.12567 793.1792 4287759648
3.9972477 892.26648 792.64392 4289670214
47.889908 893.91235 792.06958 4294701304
49.599998 891.92175 793.00726 4294964734
52 893.1449 794.03864 4294966271
55.466663 893.34882 794.21051 4291872973
1.5963303 895.13275 793.09851 4287955492
3.9908257 895.13275 793.09851 4289670959
49.48624 895.13275 793.09851 4294701558
51.614681 895.94629 793.78448 4294504179
54.27523 896.35315 794.12756 4294635513
1.5926605 897.72656 792.66956 4287823898
3.7162077 898.13239 793.01172 4288746286
49.372478 897.72656 792.66956 4294240754
52.557796 898.94415 793.69617 4294372594
54.150459 898.94415 793.69617 4294241007
1.0605505 901.02264 794.57666 4287758869
4.1313763 901.77246 793.46484 4288939814
6.8856263 900.71967 792.57715 4289469490
10.328441 900.3147 792.23572 4290259535
50.053211 900.3147 792.23572 4294109422
52.436699 901.52954 793.26001 4294109167
54.852295 901.79498 794.13782 4294043629
4.7559633 905.32129 793.84119 4288610333
6.3412843 904.10931 792.81921 4289069095
50.730274 904.71533 793.3302 4294109167
52.315598 904.71533 793.3302 4294043374
0.79266053 906.53326 794.86304 4287824154
3.957798 907.21301 794.12811 4288545307
7.1174312 906.68347 792.37366 4289527843
49.558411 907.48956 793.05341 4294109422
53.108257 906.53326 794.86304 4294108908
55.48624 906.53326 794.86304 4293779943
1.5816513 909.10187 794.41272 4287889425
3.9541283 909.10187 794.41272 4288414232
6.3045874 911.13672 792.20435 4289136411
46.49633 911.13672 792.20435 4294174706
49.736694 910.11926 793.30853 4294241007
52.194496 909.10187 794.41272 4293912043
6.8189607 914.04565 792.91309 4289137689
40.884403 914.89764 792.7594 4293780457
43.243118 914.89764 792.7594 4294174959
46.49633 912.94415 793.72839 4294174703
49.385937 913.14502 793.89777 4294108910
4.7174311 916.70087 794.27985 4288348189
7.0596333 917.44788 792.2937 4289334544
9.4128437 917.44788 792.2937 4289661733
40.329662 916.94989 793.61786 4294109419
42.981037 916.50049 794.1109 4294109420
47.174313 916.70087 794.27985 4293911019
49.533028 916.70087 794.27985 4293844969
52.677982 917.30194 794.78662 4293910503
4.7064219 919.84662 794.31628 4288413725
7.3211007 919.04706 793.64209 4289134626
9.4128437 918.64728 793.30505 4289331231
39.220184 918.64728 793.30505 4294240492
47.06422 919.84662 794.31628 4293844968
49.417431 919.84662 794.31628 4293779175
54.908257 919.84662 794.31628 4294239470
4.6844039 923.72546 792.35461 4288020503
6.7712541 922.88007 792.51385 4289003547
9.3798161 922.45728 792.59338 4289528347
51.64954 921.78748 793.33661 4293845224
4.6844039 924.91925 793.36121 4285924108
7.8073397 924.91925 793.36121 4286578700
9.3688078 924.91925 793.36121 4287304980
52.840366 929.96936 792.38721 4293977068
55.518658 929.47876 793.71759 4293779939
57.638531 928.638 793.88074 4293780191
55.171562 931.75159 793.88995 4293779942
57.50275 932.34564 794.39087 4293977318
54.266056 933.67133 792.89258 4293713896
24.748625 937.36206 793.38843 4289759405
52.590824 937.36206 793.38843 4293845988
54.201836 937.29333 794.63849 4293780196
22.348625 940.52057 792.12756 4285419851
25.174314 940.91333 792.45874 4288576150
50.091743 940.52057 792.12756 4294173414
52.403671 941.10974 792.62433 4293911527
19.988991 944.18884 792.60449 4280360997
22.295414 944.18884 792.60449 4280228114
50.741283 944.18884 792.60449 4293714148
52.2789 944.18884 792.60449 4293845734
9.2036695 947.25964 792.57758 4281602892
19.988991 945.36438 793.5957 4280952102
49.85321 946.67328 792.08313 4293846502
52.216515 946.60522 793.33386 4293912294
6.9027524 949.01868 794.06079 4278190361
9.1816511 950.32196 792.54358 4281473096
50.499084 950.32196 792.54358 4294043111
52.029358 950.32196 792.54358 4294043111
6.8862386 952.6618 794.51648 4285885335
9.9284401 953.05078 792.88245 4285620866
12.721713 953.18134 792.33856 4282594910
50.377983 952.7923 792.0105 4294239722
52.667892 953.37585 792.5025 4294108392
4.5798163 956.29358 794.96265 4278190080
6.8697248 956.29358 794.96265 4278190080
9.6685019 955.51544 794.30664 4283442491
12.944954 956.42133 792.45435 4288240743
15.229358 956.42133 792.45435 4290354369
53.302753 956.42133 792.45435 4294305515
10.152905 958.36182 794.09052 4280163617
12.944954 958.16779 793.92688 4280490260
56.348625 958.74994 794.41772 4293977066
58.633026 957.58563 793.43604 4293911525
60.917431 957.58563 793.43604 4294108393
15.952294 960.61987 793.37842 4280493885
18.707033 962.4455 793.17358 4283784314
22.247095 962.4455 793.17358 4283256398
25.300306 962.0166 793.68408 4285230467
28.072475 962.42468 793.59204 4287327138
31.144955 961.20068 793.86816 4289105795
34.163303 962.10303 793.97491 4291941311
37.177063 962.42462 793.59204 4294306800
40.211926 962.42462 793.59204 4294240232
42.436699 962.48706 792.33667 4294371562
45.467892 962.48706 792.33667 4294240746
49.376144 961.20068 793.86816 4294239720
52.41468 960.61993 793.37848 4294173673
54.693577 960.03918 792.88879 4294174701
57.732109 960.03918 792.88879 4293714148
43.194496 963.64575 793.3136 4294306801
45.467892 963.64575 793.3136 4294044396
-12.291743 762.77582 795.29736 4286254366
-10.53578 763.44702 795.86328 4286712094
-10.53578 765.46075 797.56116 4286844190
-8.1773701 766.08966 795.4754 4286842644
56.073395 765.64319 795.09888 4294174708
-7.0091743 768.32245 797.35803 4287365120
55.897247 770.60138 795.35547 4294831611
-5.2293577 773.45331 795.14404 4288293671
54.908257 773.45331 795.14404 4294569208
55.779816 774.78595 796.2677 4294372857
55.603668 778.38489 795.37817 4294701307
58.891743 785.948 797.83105 4294569718
57.470642 787.11737 796.20093 4294503926
-12.607951 795.57812 796.79474 4286917421
-10.315597 795.79718 796.97943 4288094258
-8.5688076 798.68701 795.49194 4288290871
56.554127 799.99719 796.59656 4294570237
58.267891 798.68701 795.49194 4294372344
-10.282569 801.30737 797.70129 4288094258
-8.5504589 802.13647 795.78436 4287962672
55.57798 802.13647 795.78436 4294635517
58.267891 801.30737 797.70129 4294306551
-10.26055 804.09753 797.43787 4288028726
-8.5229359 806.3175 795.38562 4288028726
56.251377 806.3175 795.38562 4294437369
58.998165 804.09753 797.43787 4294306551
-13.636697 807.62073 796.4845 4287701812
-10.795718 808.05518 796.85077 4287898676
-7.6541286 809.0979 795.11401 4288225328
56.130276 809.0979 795.11401 4294240504
58.808258 808.27234 797.03387 4294306552
-8.5045872 811.04846 796.75867 4287635762
58.681648 811.04846 796.75867 4294372347
61.233028 811.69861 797.30688 4294240758
-6.7816515 814.55408 795.79034 4287634733
58.491745 814.55408 795.79034 4294503932
-7.6293578 816.49835 797.42969 4287635237
-5.0752292 817.96436 796.04968 4286779928
59.21101 817.96436 796.04968 4294504695
-6.7669725 819.25769 797.14026 4287695136
-5.0587158 821.45245 795.06677 4287497757
59.018349 821.45245 795.06677 4294373109
-11.80367 823.38611 796.6972 4287177764
-6.7449541 824.0307 797.24072 4287433247
-5.0587158 823.38611 796.6972 4287235871
59.018349 822.74158 796.15369 4294504693
-4.2064219 826.13147 796.39581 4287235091
-5.0311928 830.23889 795.93506 4286645013
-6.7082567 831.521 797.01611 4287171861
-5.0201836 832.97009 795.62195 4286908688
56.895412 832.97009 795.62195 4294568955
-10.040367 835.52875 797.7793 4286910483
-7.5302753 835.52875 797.7793 4287105811
-5.0201836 834.24945 796.70068 4287235089
58.568806 834.24945 796.70068 4294306551
-6.6715598 838.96918 796.7561 4287171861
-5.0036697 838.33167 796.21857 4287104786
58.376148 837.69409 795.68103 4294306549
-10.007339 840.24432 797.8313 4286713622
-7.22263 841.14771 797.72101 4286976023
-4.4379206 841.68219 796.42755 4287302424
59.911926 840.40991 795.35486 4294174960
-3.8746178 844.38965 796.09442 4287366423
-3.3100917 847.80762 795.05225 4287561754
-4.1357799 850.06226 796.29932 4287366929
-3.8532112 853.86908 797.54706 4287431187
-1.6477064 854.45129 795.42188 4287890714
55.198166 854.45129 795.42188 4294175219
58.493576 854.45129 795.42188 4293912305
61.78899 854.45129 795.42188 4293978351
-3.2954128 856.97064 797.54614 4287692804
59.317432 856.34082 797.01508 4293912299
61.78899 856.34082 797.01501 4294043887
-1.6422018 859.09808 795.41589 4287954952
54.192661 859.09808 795.41589 4294174447
58.024464 859.93506 796.12158 4294043117
61.582569 860.35358 796.47449 4294174703
-4.1018353 862.31543 796.82062 4288895079
-1.6385322 861.76904 795.05188 4287299591
55.163914 862.18658 795.40399 4294174446
58.233948 862.31543 796.82062 4293977068
61.582569 861.60907 797.53308 4294372339
64.045868 861.60907 797.53308 4294965247
-9.8091745 866.93414 796.79089 4286796380
-6.5541286 864.27441 797.16431 4287057487
-4.3633027 865.63092 796.56415 4289952645
55.58532 865.68427 795.73706 4293977068
57.85199 865.16095 797.03986 4294240239
61.444954 864.27441 797.16431 4294635766
63.902752 864.27441 797.16431 4294899453
-7.3568807 868.18402 797.84473 4286659642
58.855045 868.18402 797.84473 4294111484
61.307343 868.18402 797.84473 4290427861
63.759632 868.18402 797.84473 4281020504
-7.0605507 872.36652 797.44708 4285989645
-4.0715599 871.26355 795.86328 4289614185
-1.6256881 872.93744 795.31262 4286453848
55.856884 872.05511 795.44061 4293452783
57.842201 870.91321 796.2218 4290562526
61.100918 872.15894 797.27209 4278457386
63.544952 872.15894 797.27209 4278190379
-4.06422 874.8017 796.88452 4286972956
-1.6256881 874.80176 796.88452 4286972444
58.524769 874.1803 796.3606 4278198912
60.692352 875.00885 797.05914 4278913859
0.81100917 877.43909 796.49213 4288087307
3.2440367 877.43909 796.49213 4289209913
58.392662 877.43909 796.49213 4278191410
60.014679 878.05908 797.01489 4279247436
3.2330275 881.38446 795.89465 4289344338
58.194496 881.38446 795.89465 4280623421
3.2330275 882.6203 796.93677 4289279072
59.002754 883.23822 797.45776 4279307814
55.78471 887.03546 795.42731 4278190115
58.062386 885.24078 796.53015 4278256679
52.981651 890.46484 795.70288 4294964221
54.587154 890.46484 795.70288 4294108656
58.600918 890.46484 795.70288 4279707431
58.600918 891.69226 796.73779 4282332773
61.009174 891.69226 796.73779 4278190080
-1.6 896.20294 796.61707 4286513165
56 894.97974 795.58569 4294767100
58.400002 895.59137 796.10138 4294043631
61.600002 895.59131 796.10144 4285163628
-1.5963303 898.79395 796.18567 4286906386
0.79816514 897.57355 795.15662 4287561756
55.871559 897.57355 795.15662 4294767352
58.266056 898.79395 796.18567 4294240753
61.458717 898.79395 796.18567 4294765555
-1.5944954 901.30566 796.99536 4286776336
0 901.37939 795.74951 4287758351
57.911926 901.33026 796.58008 4293845739
61.458717 900.0144 797.2146 4294832117
-1.5889908 905.17389 796.33289 4286513163
0.7944954 903.95911 795.30859 4287890970
3.1779816 903.95911 795.30859 4288741407
54.820183 903.95911 795.30859 4294109421
58.066055 904.49426 797.06787 4293911273
-1.5889908 906.38867 797.35718 4286710542
0.79266053 908.35132 796.39594 4287561740
53.900917 907.7453 795.88501 4293713896
55.48624 908.35132 796.39594 4293648104
57.137615 907.67297 797.13202 4293779944
0.52844036 910.21649 797.09668 4287496206
3.9541283 910.91565 795.94208 4288348185
50.612843 910.31104 795.43225 4294109421
52.985321 910.91565 795.94202 4293780202
55.3578 911.5202 796.4519 4293714409
57.07156 910.16925 797.92883 4293648616
0 912.72943 797.47144 4287561744
3.1522937 914.75165 795.25244 4288282650
45.708256 914.75165 795.25244 4293912043
52.800919 914.75165 795.25244 4294042860
55.3578 912.72943 797.47144 4294240494
0 917.16156 797.28442 4287299609
3.1522937 915.9566 796.26843 4288217117
44.132111 916.55908 796.77643 4293845991
45.708256 916.55908 796.77643 4293911784
55.165138 915.9566 796.26843 4294239724
3.1449542 918.50415 795.80029 4288282650
40.884403 918.50415 795.80029 4294043113
42.456882 918.50415 795.80029 4293977320
53.464222 918.50415 795.80029 4293844968
3.1376147 921.64563 795.83319 4287169044
47.06422 921.04596 795.32751 4293516004
49.417431 921.04596 795.32751 4293911017
53.339451 921.04596 795.32751 4293581795
54.908257 921.04596 795.32751 4293910759
56.344955 924.77887 795.85889 4293846500
58.815292 928.89844 796.71631 4294042342
55.992661 934.2818 796.89551 4293714146
57.960091 934.06183 797.146 4293845732
55.816513 938.41272 796.89038 4293647590
57.366974 938.41272 796.89038 4294108141
54.653214 940.51544 796.04736 4293648355
57.366974 939.59802 797.88977 4293845734
4.6238532 944.05554 795.10815 4285025079
7.7064219 944.05554 795.10815 4280091693
53.944954 944.05554 795.10815 4293912293
55.684402 942.09222 797.37683 4293977318
57.231194 942.09222 797.37683 4293845988
4.612844 947.71539 795.578 4279763234
6.9357796 945.23389 796.10168 4279173138
53.880733 946.47461 795.83984 4293977575
55.48624 945.82306 796.59845 4293977575
3.8440366 949.4787 797.06476 4285949833
6.9027524 950.19141 795.04956 4284310907
53.688072 950.19141 795.04956 4294108391
56.122936 949.4787 797.06476 4294240237
58.429359 950.06647 797.5603 4294240744
4.0868502 952.57758 796.18945 4281737799
6.8862386 953.83167 795.50293 4280684861
55.222019 951.36414 796.03833 4294108908
3.0605505 955.58655 796.9826 4283583053
4.5798163 958.62775 796.93085 4291344573
6.8697248 958.62775 796.93085 4290819023
9.6525993 959.87451 796.23798 4288122563
12.944954 959.91425 795.39941 4284374926
53.302753 959.91425 795.39941 4294239722
55.886242 959.87451 796.23798 4294043114
58.473392 959.05664 796.42041 4293713893
61.827522 957.46069 795.94678 4294239976
10.66055 961.07855 796.38123 4292662755
12.944954 961.07855 796.38123 4293780470
15.990826 961.07855 796.38123 4294899199
19.036697 961.66071 796.87207 4294967295
22.082569 961.66071 796.87207 4293059042
24.874619 961.85474 797.03564 4278190226
28.174313 962.24286 797.36292 4284713005
31.220184 961.66071 796.87207 4288842681
34.266052 962.24286 797.36292 4291412928
37.311928 962.24286 797.36292 4294568954
40.357796 962.24286 797.36292 4294306285
47.21101 961.66071 796.87207 4294043884
49.749237 961.46661 796.7085 4294109417
52.541283 961.07855 796.38123 4294043113
54.825687 961.07855 796.38123 4294240492
43.29908 963.52368 795.82678 4294503925
45.57798 963.52368 795.82678 4294109421
-13.21101 761.83093 798.42468 4286189343
-8.7798166 766.80316 798.69312 4286847520
-7.0091743 769.66211 798.48755 4285530368
59.078899 785.02698 800.97864 4294569718
60.816513 783.69855 799.85852 4294438389
-13.783486 794.96594 798.89453 4287114290
-12.922018 796.28314 800.00525 4286916145
-10.315597 797.7688 798.64185 4288094258
58.455048 797.7688 798.64185 4294043892
-12.034863 799.08313 799.75012 4287374646
-11.970642 806.71228 799.64258 4288161081
59.85321 805.40491 798.54028 4294701309
-13.636697 810.22705 798.68213 4287701562
-10.795719 810.66144 799.04834 4287569714
-8.5045872 812.99902 798.40332 4287766321
61.233028 812.99902 798.40332 4294174962
-10.205504 814.29938 799.49976 4287569701
-10.172477 817.79449 798.52258 4287307560
-8.4770641 817.79449 798.52258 4286978595
-10.150458 821.19769 798.776 4287175200
-7.8948007 820.98212 798.59424 4287041821
-13.489908 827.89813 800.50159 4287040288
-10.960551 826.60895 799.41461 4286910491
-7.8691125 825.74957 798.68994 4286778649
-11.777982 830.63367 800.19202 4286582552
-7.5715594 828.7041 798.56506 4286975002
-10.062386 832.80316 798.09717 4286845210
-7.5467887 832.80316 798.09717 4287040278
-10.889908 836.08777 799.55865 4286712853
-8.3669729 836.80811 798.85803 4286976026
-11.713761 838.0874 799.93677 4286777616
-10.007339 842.15698 799.44397 4286647059
-8.3394499 841.51941 798.90637 4286911001
-9.985321 845.49915 799.64587 4286974230
-7.7663612 844.65094 798.93066 4286974740
-9.985321 846.77148 800.71875 4286711825
-7.2018352 847.2995 799.41992 4286842383
-6.6422019 849.46771 800.3761 4287038991
-4.9651375 851.60352 798.25281 4287170577
-6.6201835 853.50146 799.85315 4287104272
-4.9541283 856.18359 799.4986 4286316550
-6.5908256 859.49005 799.67041 4286459956
-3.2954128 858.23035 798.60828 4287037444
58.987156 865.5271 798.22058 4294963199
61.444954 865.5271 798.22058 4293780470
63.902752 865.5271 798.22058 4288124073
-8.1743116 869.4339 798.89856 4286119949
62.124771 869.4339 798.89856 4278190147
-9.7761469 875.27301 799.89795 4284153856
-7.0605507 874.85773 799.54785 4286253073
63.544952 874.65015 799.3728 4279242531
-9.7761469 876.51868 800.94824 4284616469
-6.5174313 876.51868 800.94824 4286383637
-4.06422 877.28748 798.98047 4286711832
-1.6256881 877.28748 798.98041 4286382100
61.776146 877.28748 798.98041 4278980895
63.401836 877.90887 799.50439 4278190853
-4.8770642 879.15173 800.55237 4286449180
-1.6256881 879.15173 800.55237 4286513175
0.81100917 879.57233 798.94489 4288680228
60.825684 880.53918 799.10608 4281075484
59.811008 885.09198 799.02075 4278190089
61.427525 886.32782 800.06287 4278190091
-3.2183487 892.77655 800.26807 4286842130
-4.0137615 895.98822 800.36011 4286644755
-4 899.26099 799.1955 4286579217
-6.4000001 901.09583 800.74255 4286185477
-3.7284403 901.59528 799.41962 4286448139
59.06422 901.2348 798.24365 4293714409
61.458717 901.84503 798.75818 4294108141
63.85321 901.84497 798.75818 4294501873
-3.1853211 905.03217 798.82947 4286644749
58.92844 905.03217 798.82947 4293977066
61.388992 904.35388 799.56555 4293713896
63.706421 905.03217 798.82947 4293647590
-3.1853211 906.85858 800.36945 4286710025
-1.5889908 908.21094 798.89362 4286578695
58.79266 908.21094 798.89362 4293779945
61.28257 907.19629 800.00018 4293648358
63.706421 906.85858 800.36945 4293779941
-1.5889908 910.03308 800.43005 4286906888
1.5853211 911.38123 798.95068 4287758355
57.86422 911.38123 798.95068 4293713896
61.176147 910.03308 800.43005 4293713896
1.0556575 913.44574 799.81934 4287496218
56.939449 913.9386 798.49097 4293779941
58.656879 913.19922 800.48358 4293648354
60.242203 912.59326 799.97266 4293779689
-1.5816513 916.35699 800.53003 4286644240
56.939449 915.75238 800.02026 4293714402
0.78807342 918.96906 798.80841 4285989126
44.132111 918.36658 798.30042 4293844451
45.708256 918.36658 798.30042 4294041829
0 922.11066 798.84119 4284567388
59.196331 934.59277 798.90161 4294107622
59.056881 937.69226 798.89899 4294043372
61.461468 937.63049 800.15491 4294109164
3.1009173 941.96869 799.88867 4282790461
58.917431 941.37604 799.38898 4293845734
60.467892 941.37604 799.38898 4294043113
1.5504587 943.15405 800.88818 4283442468
3.8669724 943.86597 798.87244 4281605684
57.793274 943.62866 799.54437 4293911782
60.467892 943.15405 800.88818 4293910757
1.5467891 945.63977 800.36804 4287524447
3.0825689 947.59052 798.08875 4286674838
57.798164 947.59052 798.08875 4294108648
-1.5412844 949.35803 799.57904 4281935915
0.77064222 948.76886 799.08228 4285816412
-3.8440366 953.59302 800.53381 4288249727
-1.5376147 953.00525 800.03827 4282464316
0.76880735 952.41754 799.54266 4281936935
59.198166 951.242 798.55151 4293977318
-3.0678899 956.05499 799.99365 4290357408
-1.533945 956.05499 799.99365 4287528309
0 956.05499 799.99365 4290291833
-3.0678899 957.22766 800.98242 4289897389
-1.533945 957.22766 800.98242 4290094511
0.76697248 957.22766 800.98242 4291540916
3.5706422 958.51141 799.44873 4292199118
59.680737 958.51141 799.44873 4294240236
61.82312 958.27734 799.25146 4294241003
65.252113 957.76385 799.86493 4294241007
6.8697248 961.54553 799.39099 4293317855
9.9229355 960.96198 798.89893 4293121759
13.23058 961.35101 799.22699 4294438132
16.029358 960.96198 798.89893 4294966527
19.082569 961.54553 799.39099 4294967295
21.881346 961.74005 799.55499 4294967295
25.188992 962.12909 799.88306 4294967295
28.242203 962.12909 799.88306 4287281078
31.295414 962.12909 799.88306 4280376967
33.58532 962.12909 799.88306 4289765537
37.401833 962.12909 799.88306 4294110202
40.455048 962.12909 799.88306 4294241259
49.614677 961.54553 799.39099 4294108904
52.667892 961.54553 799.39099 4294042089
55.7211 961.54553 799.39099 4294108901
58.011009 960.96198 798.89893 4294043111
44.165138 963.4071 798.3446 4294372594
-12.368808 760.89447 801.5592 4286123298
-10.601835 762.24536 802.69812 4287242278
-10.568808 766.54425 802.3988 4283440672
-8.8073397 766.54425 802.3988 4283045914
61.009174 782.78174 803.00952 4294438389
-15.506422 797.60034 801.11584 4286070074
-13.783486 797.60034 801.11584 4287243059
-13.783486 798.91754 802.22644 4287505203
-11.713761 839.36676 801.01538 4286713620
-11.713761 840.64606 802.09412 4286581009
-11.675229 844.70715 801.59424 4286646801
-10.830275 847.33179 802.49927 4286711055
-8.3211012 848.04376 801.7915 4286710288
-11.087461 850.21387 802.74921 4286513936
-8.3027525 850.73718 801.44641 4286973212
-10.793578 852.64148 803.05206 4286119944
-8.3027525 852.64148 803.05206 4286382094
-9.930275 856.0321 801.98688 4286522932
-7.7235475 856.66473 802.52032 4286591291
-9.8091745 871.93359 801.00623 4283826176
-8.1743116 871.93359 801.00623 4285467914
-11.444036 873.80841 802.5871 4283704868
-8.1743116 874.43335 803.11401 4284550675
-6.5174313 877.76434 801.99854 4286383387
61.636696 883.01929 801.19727 4282056755
-6.451376 893.87201 803.80786 4286514710
-4.8165135 900.28418 803.9823 4285990664
-6.4000001 904.15381 803.32098 4286384398
-4.788991 904.896 801.33069 4286121483
-4.2544341 907.37939 802.55267 4286317323
63.706421 908.685 801.90942 4293779171
-3.1853211 910.51135 803.4494 4286644237
-1.5889908 911.24786 801.45435 4286840845
61.970642 911.24786 801.45435 4293648103
63.559631 911.24786 801.45435 4293449697
-1.5889908 912.46271 802.47864 4286644241
61.176147 913.07007 802.99072 4293517031
63.559631 913.07007 802.99078 4293516258
-3.1706421 916.22919 803.03845 4284812298
-1.5816513 917.56616 801.54968 4284483590
58.656879 915.62317 802.52747 4293911781
-1.5816513 918.77533 802.56921 4285090917
58.521099 918.77533 802.56921 4293780706
0.77889907 938.16559 801.91418 4284173339
0.5180428 940.62329 802.24243 4281273347
0 944.33942 801.88757 4284366384
60.467892 944.33942 801.88757 4294108391
-6.1504588 955.94403 802.51624 4290752418
-4.612844 955.35632 802.02063 4290883983
1.5376147 954.76855 801.52502 4291805329
-6.1504588 957.11957 803.50732 4290290320
-3.8403668 957.76001 802.73926 4290290339
-1.533945 958.98676 802.46558 4291605442
0.76697248 958.98676 802.46558 4292198352
3.0678899 958.98676 802.46558 4292791004
59.823853 959.57312 802.95996 4294569457
62.380428 959.18219 802.63037 4294438640
64.937004 959.18219 802.63037 4294043884
0 960.74585 803.94885 4294107620
4.0831804 961.20605 802.59277 4294041834
6.8862386 962.02106 802.40796 4294240240
9.9467888 961.4361 801.91467 4294108398
12.752294 961.6311 802.0791 4294437881
16.077982 961.11731 802.29999 4294702591
19.414068 960.78094 803.10645 4294967295
22.188992 962.02106 802.40796 4294967295
25.280735 961.38342 803.17841 4294967295
28.310093 962.02106 802.40796 4291874771
31.370644 962.02106 802.40796 4283919981
34.714375 961.20599 802.59277 4290951874
37.491745 962.02106 802.40796 4294438393
40.552292 962.02106 802.40796 4294373098
43.427521 960.78094 803.10645 4294307056
46.729355 960.79846 802.68518 4294108906
49.478901 961.6311 802.0791 4294108392
52.794495 962.02106 802.40796 4294239726
