# .PCD v0.7 - Point Cloud Data file format
VERSION 0.7
FIELDS x y z rgb
SIZE 4 4 4 4
TYPE F F F U
COUNT 1 1 1 1
WIDTH 1172
HEIGHT 1
VIEWPOINT 0 0 0 1 0 0 0
POINTS 1172
DATA ascii
0.87339449 767.93054 793.10339 4291472055
41.049541 767.93054 793.10339 4294634485
-4.3669724 769.26593 794.22937 4287134860
-1.7431192 770.78809 792.89673 4288581542
0.87155962 770.78809 792.89673 4290226072
3.4862385 770.78809 792.89673 4293187263
37.477066 770.78809 792.89673 4294765556
41.007339 770.02698 793.56305 4294699508
-3.4862385 772.12073 794.02039 4290096049
-1.7431192 772.12073 794.02039 4290622393
0.87155962 772.12073 794.02039 4290228918
38.348625 772.12073 794.02039 4294831350
40.963303 772.12073 794.02039 4294831351
4.0544343 774.84247 792.39117 4289243845
6.9504585 774.3996 792.01782 4289242566
34.752293 774.3996 792.01782 4294831348
37.069118 775.28522 792.76459 4294897141
-1.7376146 777.05646 794.25806 4287861149
0.86880732 777.05646 794.25806 4290095031
4.3302751 779.32697 792.24841 4290950855
34.6422 779.32697 792.24841 4294897395
37.300919 778.19171 793.25323 4294962933
39.965137 777.05646 794.25806 4294831348
-1.7321101 781.9754 794.48145 4286283148
0.86605507 781.31329 793.92322 4288058513
4.3211012 782.16205 792.02271 4290359988
6.9137616 782.16205 792.02271 4291543004
34.568806 782.16205 792.02271 4294831346
37.529053 781.09259 793.73712 4294897395
39.838531 781.9754 794.48145 4294831346
-1.7284404 784.80487 794.2511 4288058028
0.8642202 784.14417 793.69403 4287794576
3.4568808 783.48346 793.13696 4287991188
34.568806 783.48346 793.13696 4294962675
37.161469 784.14417 793.69403 4294963189
39.754128 784.80487 794.2511 4294897908
-1.7229358 788.37994 793.34143 4287663252
1.1486238 787.94086 792.97119 4287859339
3.4458716 787.06274 792.23083 4287925404
34.458717 787.06274 792.23083 4294962421
36.755962 787.94086 792.97119 4294898167
-3.4458716 789.69714 794.45203 4288056202
-1.7192661 791.19678 793.10046 4287924360
0.85963303 791.19678 793.10046 4288582281
36.964218 791.19678 793.10046 4294898165
39.627522 789.69714 794.45203 4294897906
-3.4385321 792.51123 794.20874 4289898917
-1.7137614 794.75647 792.17773 4290491054
0.85688072 794.75647 792.17773 4290952364
3.4275229 794.75647 792.17773 4290556096
35.988991 794.75647 792.17773 4294962676
37.702751 794.75647 792.17773 4294897908
39.543118 792.51123 794.20874 4294963702
-4.2844038 796.72174 793.83484 4291338913
0 796.06665 793.28247 4292724393
37.702751 796.06665 793.28247 4294831861
40.273396 796.72174 793.83484 4294831605
-3.4201834 799.52173 793.57971 4292191116
-1.7100917 798.86798 793.02856 4292457390
0.85504586 799.52173 793.57971 4294298806
3.9902141 799.30377 793.396 4293908717
32.491745 798.86798 793.02856 4294963188
35.911926 798.86798 793.02856 4294897654
37.622017 799.52173 793.57971 4294766325
39.332111 799.52173 793.57971 4294832118
-3.4091742 803.71118 793.18811 4288741376
-1.7045871 803.05957 792.63867 4291121469
0 803.71118 793.18811 4289331200
4.5455661 803.27679 792.82178 4292572310
7.3865438 802.84247 792.45557 4294624485
11.079817 802.40802 792.08923 4294236897
13.636697 802.40802 792.08923 4293293958
17.045872 802.40802 792.08923 4294472342
32.387157 802.40802 792.08923 4294897393
35.228134 802.84247 792.45557 4294832372
37.500916 803.71118 793.18811 4294569716
-3.4091742 805.01434 794.28687 4289136674
-1.7045871 805.01434 794.28687 4288873503
0.85229355 805.01434 794.28687 4289265664
4.2559633 805.75574 793.604 4290973968
6.8036699 806.49719 792.92114 4292439925
34.868805 806.49719 792.92114 4294897907
37.500916 805.01434 794.28687 4294569716
39.205505 805.01434 794.28687 4294569716
-1.7009175 807.79755 794.01758 4290069078
4.2522936 807.79755 794.01758 4290452257
37.420185 807.79755 794.01758 4294766838
-1.6954129 812.60986 794.151 4290794864
1.6954129 812.60986 794.151 4290594907
4.2385321 811.96179 793.60455 4290847302
6.7816515 811.31372 793.05811 4291371335
35.603668 811.31372 793.05811 4294831859
37.864223 812.1778 793.78668 4294436847
-1.6917431 815.37762 793.86865 4291189358
4.5113149 814.94653 793.50519 4290716490
6.7669725 814.73096 793.32343 4291768911
32.14312 814.08429 792.7782 4293977320
34.962688 814.51538 793.14166 4294108393
37.218349 815.37762 793.86865 4294173416
-1.6917431 816.67096 794.95923 4290920029
0.84587157 816.67096 794.95923 4291381091
4.2293577 816.67096 794.95923 4290654792
7.5880733 818.87415 792.89282 4292952932
32.038532 818.87415 792.89282 4294437617
34.56789 818.87415 792.89282 4294502897
38.06422 816.67096 794.95923 4294305004
-1.6862385 820.16327 793.97974 4290392134
1.6862385 820.16327 793.97974 4291578445
4.2155962 820.16327 793.97974 4290717767
7.5788989 820.89624 793.28973 4292755039
28.60367 821.62927 792.59973 4294569970
31.127522 821.62927 792.59973 4294503412
34.531193 820.89624 793.28973 4294502897
37.940369 820.16327 793.97974 4294633712
-1.6825688 824.20197 794.76892 4290852437
1.6825688 824.20197 794.76892 4290981706
4.2064219 823.55884 794.22662 4291105606
6.7302752 822.91565 793.68433 4291564592
35.333946 822.91565 793.68433 4294567922
37.57737 823.77319 794.40741 4294766068
1.6770642 827.67462 793.77295 4291113796
5.0311928 826.39252 792.69189 4289990975
6.7082567 826.39252 792.69189 4291299646
31.86422 826.39252 792.69189 4294503410
35.218349 826.39252 792.69189 4294568694
37.733944 827.67462 793.77295 4294306801
-1.6770642 828.95679 794.854 4291112272
0.83669722 829.68414 794.1593 4290917183
4.183486 829.77185 792.92523 4292235593
7.5302753 829.13214 792.38586 4292235117
10.040367 829.13214 792.38586 4293082971
28.447706 829.13214 792.38586 4294436852
30.957798 829.77179 792.92517 4294437873
34.304588 829.77179 792.92517 4294306031
37.651375 830.4115 793.4646 4294372594
40.249542 828.95679 794.854 4294241007
1.6733944 831.6908 794.54321 4290721852
4.1697249 833.86871 792.45557 4291172912
26.686239 833.86871 792.45557 4294700791
28.354128 833.86871 792.45557 4294437619
30.855965 833.86871 792.45557 4294306803
34.191742 833.86871 792.45557 4294174699
37.651375 831.6908 794.54321 4294306287
40.161469 831.6908 794.54321 4294174447
-3.3357799 836.41895 794.60583 4290130497
-1.66789 835.78137 794.06824 4290722893
1.1119267 835.9939 794.24738 4291186252
4.1605506 836.59302 792.13647 4290647626
26.627523 836.59302 792.13647 4294964472
28.291742 836.59302 792.13647 4294635250
30.855965 835.14386 793.53064 4294504180
34.191742 835.14386 793.53064 4294240492
37.805508 835.56885 793.88898 4294241007
40.029358 836.41895 794.60583 4294042861
-1.6642202 839.13763 794.28198 4290724179
1.6642202 839.13763 794.28198 4291778373
3.3284404 837.8653 793.20923 4291906142
29.123852 837.8653 793.20923 4294438386
31.620184 838.50146 793.74561 4294504182
34.116516 838.50146 793.74561 4294175213
37.167583 838.71356 793.92438 4294241007
1.6605505 841.85065 793.95361 4290789444
4.1513762 840.58118 792.88318 4292498025
29.059633 840.58118 792.88318 4294306031
31.550459 841.85065 793.95361 4294306801
34.041283 841.85065 793.95361 4294306801
36.532108 841.85065 793.95361 4294372594
4.1376147 845.27704 792.91846 4291837549
31.445871 845.27704 792.91846 4294241007
33.100918 845.27704 792.91846 4294240754
1.6550459 846.54236 793.98535 4292299111
4.1321101 847.25989 793.28235 4291842396
6.6055045 847.97742 792.57935 4292627562
9.9082565 847.97742 792.57935 4293352303
24.770641 847.97742 792.57935 4294954466
28.899082 847.97742 792.57935 4294372077
31.376146 847.97742 792.57935 4294175212
33.92844 846.54236 793.98535 4294174447
36.411011 846.54236 793.98535 4294241005
4.1256881 850.22852 793.82343 4292040532
7.1449542 850.61475 793.0589 4292628852
9.8862381 850.67224 792.23547 4293153393
25.53945 850.67224 792.23547 4294959337
29.109482 851.0921 792.58954 4294372078
31.341284 850.58594 793.4707 4294240494
33.577984 850.08154 794.35352 4294371566
36.330276 850.50238 794.70837 4294241005
4.943119 853.19159 794.35974 4293682267
6.5908256 853.19159 794.35974 4292960123
32.954128 853.19159 794.35974 4294241007
4.9266057 857.21484 793.828 4292486993
7.1162076 856.58716 793.29865 4292366161
9.8532114 855.33167 792.24011 4293022570
28.738533 855.33167 792.24011 4294174700
32.022934 856.58716 793.29871 4294241006
34.48624 857.84259 794.3573 4294306799
4.9155965 860.51642 793.99573 4290317367
7.6464829 860.09888 793.64362 4293011235
10.650459 859.89008 793.46753 4293806931
13.108257 859.26373 792.93945 4294140799
18.023853 859.26373 792.93945 4294929796
25.397247 859.26373 792.93945 4294892266
28.947401 859.68134 793.2915 4294438127
31.678289 860.09888 793.64362 4294307055
8.1743116 863.18457 793.62927 4290117684
10.626606 863.18457 793.62927 4293139471
13.89633 862.55957 793.10236 4294204776
17.166054 862.55957 793.10236 4294733727
19.618349 862.55963 793.10236 4294804105
22.070642 862.55957 793.10236 4294216857
25.612844 862.35132 792.92676 4294959341
28.337616 862.76788 793.27802 4294765809
31.062386 863.18457 793.62927 4294635761
7.3568807 864.43445 794.68311 4293156721
10.626606 864.43445 794.68311 4292494915
13.89633 864.43445 794.68311 4292542528
17.138531 865.4939 793.61444 4293936764
19.618349 864.43445 794.68311 4294870675
21.99633 866.55341 792.54578 4294348446
25.255047 866.55341 792.54578 4294958056
28.513762 866.55341 792.54578 4294634994
31.879816 864.43445 794.68311 4294437874
34.332111 864.43445 794.68311 4294568692
7.3321099 869.04474 794.64636 4292957295
10.862386 868.62946 794.2962 4293221747
13.849541 867.79907 793.59607 4292085856
17.089909 868.50403 792.88245 4293931861
19.552294 867.79907 793.59607 4294798486
21.970642 868.50403 792.88245 4294477992
25.198166 869.20892 792.16882 4294957543
28.482569 868.50403 792.88245 4294634481
31.772476 868.42188 794.12122 4294372593
34.216515 869.04474 794.64636 4294635765
10.566973 871.69458 794.26465 4293813106
13.818348 870.45178 793.2168 4293482619
17.882568 870.45178 793.2168 4293927487
21.133945 870.45178 793.2168 4294930063
29.262384 870.45178 793.2168 4294635511
31.429968 871.28027 793.91534 4294438388
8.1100922 875.57898 794.92371 4292566896
10.272782 874.75226 794.22675 4293483383
13.787156 873.09888 792.83264 4293550729
17.031193 873.09888 792.83264 4292549193
19.46422 873.09888 792.83264 4293142563
22.167585 873.51221 793.18115 4294279575
25.411621 873.51221 793.18115 4294892269
28.385323 873.71887 793.35541 4294700534
31.359022 875.16571 794.5752 4294635509
34.062386 875.57898 794.92371 4294372594
8.0825691 878.91278 793.81067 4292438378
10.507339 878.29486 793.28967 4293811844
21.822937 877.67694 792.76868 4294141588
25.055964 877.67694 792.76868 4294889957
28.288992 878.29486 793.28967 4294700276
30.713762 878.91278 793.81067 4294701558
4.8495412 880.14862 794.85266 4293083251
7.2651377 880.84515 794.13196 4293354045
11.289908 880.30865 792.37158 4294074504
12.902752 880.30865 792.37158 4293878136
22.579817 880.30865 792.37158 4293159037
24.999083 880.30865 792.37158 4294822874
28.22477 881.54169 793.41125 4294832372
31.487156 880.84515 794.13196 4294833145
33.946789 880.14862 794.85266 4294965247
7.2577982 882.77472 794.45093 4292347440
9.6550455 884.16492 793.00696 4292021807
28.965137 884.16492 793.00696 4294701556
31.415596 883.46985 793.72894 4294767350
33.869724 882.77472 794.45093 4294701556
7.2412844 885.39514 794.04431 4292616037
10.43578 886.78253 792.59814 4292487727
12.844037 886.78253 792.59814 4293414501
28.899082 886.78253 792.59814 4294899190
31.307339 886.78253 792.59814 4294701554
34.518349 886.78253 792.59814 4294635507
-1.6055046 889.23737 794.66797 4290274941
4.2813454 888.82819 794.323 4291569227
7.2247705 888.62366 794.15051 4292947550
9.6330271 888.62366 794.15051 4293416515
35.321102 888.62366 794.15051 4294701302
37.461773 888.82819 794.323 4294503924
7.1999998 893.1449 794.03864 4293214543
10.559999 892.77795 793.72919 4293745775
13.591743 892.26648 792.64392 4293284469
16.761467 893.91235 792.06958 4293808227
19.155964 893.91235 792.06958 4293675876
28.245871 892.58527 792.69464 4294964216
31.200001 891.92169 793.00732 4294636023
34.240002 892.77795 793.72919 4294767096
10.376146 896.35315 794.12756 4293417344
12.770642 895.13275 793.09851 4294009213
28.733946 895.74292 793.61304 4294833402
31.128441 895.74292 793.61304 4294701560
11.148623 898.94415 793.69617 4293551735
13.272171 898.13239 793.01172 4293943171
19.111927 897.72656 792.66956 4294137471
27.871559 898.33533 793.18286 4294897912
31.056881 898.94415 793.69617 4294833146
7.9541283 901.453 794.5036 4294332561
10.328441 902.1369 793.77216 4293617780
13.771255 901.12457 792.91864 4293745024
16.684402 900.92212 792.74792 4294533001
19.465137 901.22583 793.00391 4294600345
23.199266 901.52948 793.26001 4294348963
25.423853 901.52954 793.26001 4294432482
27.648441 901.77246 793.46484 4294831606
31.056881 900.16174 794.7229 4294569717
10.304587 905.32129 793.84119 4293942142
13.475229 904.71533 793.3302 4293879434
16.645872 904.71533 793.3302 4294269042
20.080734 904.9173 793.50049 4294865814
22.194496 905.32129 793.84119 4294146445
7.133945 906.53326 794.86304 4293142340
10.304587 906.53326 794.86304 4293873786
13.475229 906.53326 794.86304 4294141582
16.645872 906.53326 794.86304 4294204264
19.816513 906.53326 794.86304 4294667111
22.987156 906.53326 794.86304 4294547633
26.157799 906.53326 794.86304 4294631403
10.280734 909.10187 794.41272 4293595718
13.444036 909.10187 794.41272 4294134144
16.60734 909.10187 794.41272 4294009213
19.770641 909.10187 794.41272 4294601071
22.933945 909.10187 794.41272 4294680499
25.306421 909.10187 794.41272 4294365918
10.507646 913.14502 793.89777 4293398059
13.659939 913.14502 793.89777 4293860928
16.812231 913.14502 793.89777 4294592640
19.701836 912.94415 793.72839 4294800264
22.591438 913.14502 793.89777 4294611886
25.218349 913.54663 794.23645 4294562270
9.4348621 917.30194 794.78662 4292414507
14.152293 917.30194 794.78662 4293462581
16.511009 916.70087 794.27979 4293792050
19.655962 916.70087 794.27979 4294460801
22.800919 916.70087 794.27979 4294806186
25.159634 916.09979 793.77307 4294692832
16.472477 919.84662 794.31628 4293461058
19.610092 919.84662 794.31628 4294189396
23.53211 919.84662 794.31628 4294940612
25.100918 919.24695 793.81067 4294692318
14.086239 923.58228 794.84998 4293264683
17.216515 923.58228 794.84998 4294909525
19.56422 922.38574 793.84106 4294389589
22.416513 922.83228 793.34552 4294405262
25.563913 923.18341 794.51367 4294626539
14.053211 926.11298 794.3678 4292872491
15.614679 924.91925 793.36121 4293724995
18.737616 924.91925 793.36121 4293992517
25.764221 926.11298 794.3678 4294559719
28.887157 926.11298 794.3678 4294766836
14.020184 929.23352 794.38281 4293528888
16.346788 928.37537 793.00525 4294316362
19.449541 928.70819 792.63184 4294454597
22.96468 928.97089 793.50732 4294533245
25.703669 929.23346 794.38281 4294230230
28.819267 929.82898 794.88489 4294635766
31.155964 929.82898 794.88489 4294438641
13.987156 932.34564 794.39087 4293594944
16.318348 931.75159 793.89001 4294186567
19.426605 931.75153 793.89001 4294520897
21.757797 931.75159 793.88995 4293869657
19.608562 937.71045 794.5542 4294586178
21.680735 937.29333 794.63849 4294062671
13.007339 952.6618 794.51648 4289951023
16.06789 952.6618 794.51648 4290086457
19.128441 952.07684 794.02332 4285422353
21.933945 952.27179 794.18768 4288772279
25.249542 952.6618 794.51648 4292461529
27.544954 952.6618 794.51648 4294964990
6.6152902 955.90454 794.63458 4284497171
9.9229355 956.29358 794.96265 4289959513
12.976147 955.71002 794.47058 4291794223
16.029358 955.71002 794.47058 4291931249
18.828135 955.51544 794.30664 4291142029
22.13578 955.12646 793.97864 4285354103
25.188992 955.12646 793.97864 4292067544
28.242203 955.71002 794.47064 4294767867
31.295414 956.29358 794.96265 4294569970
34.348625 956.29358 794.96265 4294306801
36.638531 956.29358 794.96265 4294438641
16.752293 958.74994 794.41772 4287850867
19.29052 958.36182 794.09052 4288376928
22.082567 958.16779 793.92688 4284436338
25.128441 958.16779 793.92688 4290557643
27.412844 958.16779 793.92688 4294966015
31.981651 958.74994 794.41772 4294569970
34.266052 958.74994 794.41772 4294438130
36.550457 958.74994 794.41772 4294569716
-7.9761467 749.12585 795.56018 4287299584
44.311928 749.12585 795.56018 4294633715
-10.634862 751.836 797.84534 4288293894
-8.8623857 751.15845 797.27405 4288224265
44.311928 750.4809 796.70276 4294502899
46.970642 751.836 797.84534 4294700021
-7.951376 754.81555 796.43359 4289808434
44.174313 754.14014 795.86414 4294699508
45.941284 755.49103 797.00305 4294700273
-7.0458717 757.79095 795.01831 4289551209
44.036697 757.79095 795.01831 4294568946
-8.2201834 759.58649 796.53223 4292521399
44.036697 759.13763 796.15381 4294700021
45.798164 760.48425 797.28918 4294700275
-7.0238533 763.44702 795.86328 4289436322
43.899082 762.77582 795.29736 4294700021
45.655045 764.11829 796.4292 4294568944
-7.8944955 766.2218 796.89478 4286935929
-5.2568808 765.64319 795.09888 4287333258
43.807339 766.31299 795.66364 4294831350
45.655045 765.46075 797.56116 4294700525
-7.0091743 768.32245 797.35803 4288649886
-5.2403669 770.60138 795.35547 4289176230
43.669724 770.60138 795.35547 4294896889
45.559631 768.32245 797.35803 4294633967
-6.9871559 772.60455 797.04443 4286677392
-4.3577981 773.45331 795.14404 4289439154
-1.7431192 773.45331 795.14404 4290754244
0.87155962 773.45331 795.14404 4291017680
40.963303 773.45331 795.14404 4294831608
43.669724 771.93683 796.48145 4294831611
45.416515 772.60455 797.04443 4294700273
-6.972477 776.11859 797.39136 4285886591
-4.6483178 775.23016 796.64227 4286414220
41.834862 774.78595 796.2677 4294896889
43.57798 775.45227 796.82953 4294897401
-4.0544343 779.27051 796.12482 4286478979
-1.7376146 778.38489 795.37817 4286611334
0 778.38489 795.37817 4287861387
41.123547 778.82764 795.75146 4294700019
43.440369 779.71332 796.49817 4294831348
-5.2128439 781.04175 797.61829 4286543740
45.177982 781.04175 797.61829 4294569455
-6.9284406 785.948 797.83105 4288320905
-4.3302751 783.96167 796.15631 4286413447
41.570641 783.96167 796.15631 4294831862
43.302753 784.62378 796.71454 4294766071
-6.9137616 788.7691 797.59363 4288518048
-4.3211012 786.78699 795.92236 4287334277
40.618347 786.78699 795.92236 4294897912
43.21101 788.7691 797.59363 4294963450
-5.1688075 791.01434 795.56274 4289504943
41.35046 791.01434 795.56274 4294963707
-7.753211 792.99011 797.22864 4291269765
-5.1577983 793.82556 795.31702 4290880674
41.262386 793.82556 795.31702 4294897654
44.222015 792.77057 797.04352 4294831861
-6.8770642 795.14001 796.42529 4290678932
42.981651 795.14001 796.42529 4294831348
-6.8550458 799.3421 796.04425 4289545785
-5.1412845 798.68701 795.49194 4291002462
41.130276 798.68701 795.49194 4294766836
42.844036 799.3421 796.04425 4294767094
-6.8403668 802.79016 796.33557 4288551727
-5.1302752 802.13647 795.78436 4288353057
1.7100917 801.48279 795.23315 4291301391
40.472172 801.91864 795.60059 4294438131
43.655045 802.04877 797.01843 4294503411
46.271561 801.30737 797.70129 4294701045
-6.8403668 804.09753 797.43787 4289280576
-4.2614679 806.3175 795.38562 4290266964
0.85229355 806.3175 795.38562 4290856264
40.0578 806.3175 795.38562 4294569203
43.607338 804.09753 797.43787 4294568946
-6.8183484 808.92389 797.58325 4288492079
-4.2577982 808.35931 795.79926 4290400607
-1.7009175 809.0979 795.11401 4289741662
0.85045874 808.35931 795.79926 4290922310
3.401835 809.0979 795.11401 4291307855
40.015594 808.35931 795.79926 4294700277
43.182873 808.4895 797.21698 4294634997
-4.53578 810.83173 796.57593 4290269013
0 810.39825 796.21045 4291318630
40.822018 810.39825 796.21045 4294174701
43.373394 811.69861 797.30688 4294700789
-3.3908257 814.55408 795.79034 4290330714
0.84770644 813.90601 795.2439 4291186528
38.994495 813.90601 795.2439 4294239209
40.689907 814.55408 795.79034 4294437101
42.385323 815.20215 796.33679 4294766066
-4.2348623 817.23132 796.73969 4289473087
0 817.96436 796.04968 4291315273
40.601833 817.96436 796.04968 4294633969
43.187157 817.23132 796.73969 4294634483
-4.2293577 819.25769 797.14026 4289541953
-1.6862385 821.45245 795.06677 4290065735
0.84311926 821.45245 795.06677 4290783044
3.3724771 821.45245 795.06677 4290838584
38.783485 821.45245 795.06677 4294962934
40.601833 819.25769 797.14026 4294962164
42.293579 819.25769 797.14026 4294633455
-3.9345567 823.60101 796.87842 4289470519
0 822.74158 796.15369 4290981706
40.469727 822.74158 796.15369 4294568692
42.999084 824.0307 797.24072 4294241521
-3.3651376 826.77466 796.93811 4289730619
-1.6825688 825.48828 795.85352 4290982990
0 825.48828 795.85352 4290982210
40.381653 825.48828 795.85352 4294175731
42.06422 826.77466 796.93811 4294306801
-1.6770642 830.23889 795.93506 4291112263
0 830.23889 795.93506 4291182403
41.926605 830.23889 795.93506 4294306290
-3.3467889 832.97009 795.62195 4290196551
0 832.97009 795.62195 4291249732
40.998165 832.97009 795.62195 4294437619
43.603668 831.521 797.01611 4294241007
-5.0201836 835.52875 797.7793 4289409618
41.834862 834.24945 796.70068 4294306290
43.508255 835.52875 797.7793 4294175212
-3.8917434 838.54419 796.39777 4290133577
0 837.69409 795.68103 4291317822
41.141285 838.11914 796.03937 4294306032
-3.8868504 841.62701 797.25311 4290331968
-1.6642202 840.40991 795.35486 4290464586
0 840.40991 795.35486 4290986824
38.277065 840.40991 795.35486 4294241007
40.380276 841.32275 796.77856 4294174958
43.365139 840.24432 797.8313 4294175212
-3.321101 845.65918 797.16479 4290398268
-1.6605505 843.75488 795.55914 4290463807
0.55351681 843.54327 795.38068 4290721617
34.871559 843.12018 795.02393 4294569718
37.777523 844.07227 795.82678 4294241007
39.85321 845.65918 797.16479 4294306287
-1.6550459 847.80762 795.05225 4290793026
0.82752293 847.80762 795.05225 4291315552
34.755962 847.80762 795.05225 4294174701
36.411011 847.80762 795.05225 4294241005
-1.6550459 849.70557 796.65259 4291121253
0.8266055 850.06226 796.29932 4290987355
3.3027523 851.76489 795.77283 4291971906
34.678898 851.76489 795.77283 4294569716
37.487461 850.39203 796.35938 4294241007
39.7211 849.70557 796.65259 4294371825
-1.6513761 853.65863 797.36957 4289528856
0.55045873 853.44824 797.19214 4290515226
3.2954128 854.45129 795.42188 4290907693
34.601833 854.45129 795.42188 4294306801
37.404282 853.92285 796.7204 4294372594
39.633026 853.65863 797.36957 4294569714
1.6477064 856.34082 797.01508 4290714652
3.2954128 855.711 796.48401 4290974279
37.073395 856.34082 797.01508 4294438387
39.544952 856.97064 797.54614 4294635765
1.6422018 860.35358 796.47449 4291250245
3.2844036 859.72583 795.94519 4291505992
34.48624 859.09808 795.41589 4294438387
36.675842 859.93506 796.12158 4294438387
39.412846 860.35358 796.47449 4294635511
1.6422018 861.60907 797.53308 4291777884
4.3694191 862.60419 795.75604 4292103269
6.5541286 861.76904 795.05188 4291693389
32.770641 861.76904 795.05188 4294634998
34.409176 861.76904 795.05188 4294634998
36.866974 863.02173 796.10815 4294307055
40.233948 861.60907 797.53308 4294438387
1.6385322 864.27441 797.16431 4292895086
4.3620796 865.63092 796.56415 4292104316
7.3568807 865.68427 795.73706 4293289065
9.8091745 865.68427 795.73706 4293022066
32.697247 865.68427 795.73706 4294503410
35.42202 866.10089 796.08838 4294569970
37.644035 865.60425 796.9776 4294570226
40.144035 864.27441 797.16431 4294635763
-1.6348624 868.18402 797.84473 4291052096
3.2697248 868.18402 797.84473 4291577939
37.601833 868.18402 797.84473 4294635763
39.236698 868.18402 797.84473 4294635763
4.4807339 871.84753 797.00952 4292367473
7.3238535 871.61389 795.50464 4292630118
32.51376 872.93744 795.31262 4294569716
34.991745 871.61395 795.50464 4294635765
37.475231 871.53607 796.74695 4294701558
39.104588 872.78174 797.79724 4294635511
3.2513762 875.42316 797.40845 4291443039
6.5027523 874.1803 796.3606 4293159033
35.765137 874.1803 796.3606 4294569716
37.390827 874.80176 796.88452 4294767352
1.6220183 878.05908 797.01489 4291892508
4.0550461 877.43909 796.49213 4292690799
6.4880733 876.81903 795.96936 4292964722
32.440369 876.81903 795.96936 4294701304
35.14373 877.23242 796.31787 4294569717
37.306423 878.05908 797.01489 4294766840
1.6165137 881.38446 795.89465 4290248708
4.0412846 881.38446 795.89465 4291559981
35.563301 881.38446 795.89465 4294831861
-3.2330275 883.85614 797.97876 4290337647
-1.6165137 882.6203 796.93677 4289266688
0.80825686 883.23822 797.45776 4289663787
4.03578 883.31403 796.21368 4291890461
37.988075 883.23822 797.45776 4294569717
-3.225688 886.47382 797.56982 4291788436
-1.612844 885.24078 796.53015 4289350496
1.0727829 887.4455 795.77313 4290856320
3.2183487 886.62537 795.08154 4290511651
-3.2183487 889.08588 797.15613 4291395462
-1.6055046 890.46484 795.70288 4291461255
0.80275232 889.77539 796.4295 4291914903
4.0137615 890.46484 795.70288 4290387505
37.729355 890.46484 795.70288 4294832632
40.137615 890.46484 795.70288 4294833145
-1.6055046 892.91968 797.77271 4293677640
1.6055046 892.30597 797.25525 4290405249
3.7461774 892.10138 797.08276 4289924625
37.996941 892.10138 797.08276 4294701560
40.672787 892.51056 797.42773 4294898938
4.8000002 895.59131 796.10138 4291041811
6.9333329 895.38745 795.9295 4292426842
34.666668 895.38745 795.9295 4294504437
36.799999 895.59131 796.10138 4294635511
-1.6 897.42615 797.64844 4287849984
1.6 897.42615 797.64844 4284033574
3.9944954 898.11005 796.91705 4288943122
7.183486 898.18372 795.67114 4292819826
9.5779819 897.57355 795.15662 4293748857
34.081955 897.93121 796.33026 4294635767
37.599998 897.42615 797.64844 4294635508
4.253211 900.87524 797.06842 4290059528
6.3706422 901.37939 795.74951 4291700594
31.322325 901.78522 796.09174 4294504434
34.281651 901.30566 796.99536 4294570228
36.715595 900.0144 797.2146 4294569716
1.5926605 903.81458 797.80286 4287127316
3.9761467 904.49426 797.06787 4289534724
7.1504583 903.95911 795.30859 4292949095
23.834862 903.95911 795.30859 4294944443
25.423853 903.95911 795.30859 4294168285
28.072172 904.36401 795.65009 4294963705
30.72049 904.76898 795.99146 4294504178
34.203671 904.49426 797.06787 4294636020
37.427521 903.81458 797.80286 4294438641
3.972477 906.38867 797.35718 4288680960
6.8697248 908.14935 796.22559 4291624998
26.950459 908.35132 796.39594 4294962681
28.53578 908.35132 796.39594 4294898940
30.649542 908.14923 796.22559 4294504180
34.163303 906.38867 797.35718 4294372848
37.341286 906.38867 797.35718 4294241776
4.7559633 910.16925 797.92883 4290445312
7.3810401 911.11719 796.112 4291887144
9.4899082 910.31104 795.43225 4292214801
12.653211 910.31104 795.43225 4293672012
23.724771 910.31104 795.43225 4294948043
26.097248 910.91565 795.94208 4294761963
28.53578 910.16925 797.92883 4294635765
30.913761 910.16925 797.92883 4294635764
33.291744 910.16925 797.92883 4294569970
36.462387 910.16925 797.92883 4294372848
7.1036696 913.74054 796.36194 4291952679
10.244954 914.75165 795.25244 4292477733
13.397247 914.75165 795.25244 4293328944
4.7284403 917.16156 797.28442 4291035164
7.0926609 915.9566 796.26843 4291756069
11.033028 915.9566 796.26843 4292809264
12.609175 915.9566 796.26843 4293330739
26.794495 915.9566 796.26843 4294961656
28.370642 917.16156 797.28442 4294833399
31.522936 917.16156 797.28442 4294569716
7.2333946 919.70624 796.81396 4291756071
9.9590216 918.90485 796.13818 4292609321
13.103976 918.90485 796.13818 4293461810
26.732111 919.10522 796.30713 4294960636
28.304586 919.7063 796.81396 4294701558
31.449541 919.7063 796.81396 4294570740
10.197248 922.24536 796.33887 4292937516
13.334863 921.64563 795.83319 4293462318
16.472477 921.04596 795.32751 4293659972
23.53211 921.04596 795.32751 4294939063
29.284403 921.84552 796.00177 4294701813
32.160549 922.24536 796.33887 4294635763
10.173394 925.37714 796.36334 4293134895
12.521101 924.77887 795.85889 4293398835
32.08532 924.77887 795.85889 4294504434
35.215599 925.9754 796.8678 4294504182
10.310091 928.47351 796.88123 4292479536
12.491743 927.90363 795.87756 4293200179
28.887157 927.30676 795.37427 4294833145
32.270336 927.70465 795.70978 4294636019
35.133026 929.09741 796.88403 4294438386
37.519264 928.43311 797.63202 4294569970
39.082569 928.43311 797.63202 4294504177
10.904587 932.21088 796.89331 4290315081
12.462385 931.0199 795.88904 4293068600
23.366972 931.0199 795.88904 4294925941
25.703669 931.61536 796.39124 4294163668
28.819267 931.61542 796.39117 4294570232
31.93486 931.61536 796.39117 4294503923
7.0100918 933.40179 797.89746 4290217879
10.10734 934.9859 797.27112 4289291168
13.054678 934.48425 796.19403 4292230222
16.318348 934.12781 795.89355 4293335621
19.167585 933.92975 795.72656 4294388553
22.793884 933.92975 795.72656 4294592095
25.64312 935.31604 796.89532 4294032334
28.785322 934.65594 797.64685 4294702073
31.650764 934.23785 797.73041 4294504178
35.050461 933.40179 797.89746 4294372594
38.166054 933.40179 797.89746 4294438387
13.437309 938.01758 796.55731 4289564820
16.279816 937.82001 796.39075 4290261124
23.25688 937.22736 795.89099 4294919012
25.582569 938.41272 796.89038 4293898952
10.853211 939.59802 797.88977 4280026372
13.178899 939.59802 797.88977 4286597200
16.241283 940.90967 796.37976 4291799492
19.334862 940.31836 795.88116 4292565346
22.42844 940.31836 795.88123 4293999194
25.553211 940.25385 797.13477 4293897926
28.683487 939.59802 797.88977 4294635768
31.009174 939.59802 797.88977 4294438387
35.660549 939.59802 797.88977 4294767354
37.21101 939.59802 797.88977 4294701810
10.827523 942.09222 797.37683 4281794588
13.147707 942.09222 797.37683 4285873747
16.241283 942.09222 797.37683 4290947485
19.334862 942.09222 797.37683 4290935997
22.42844 942.09222 797.37683 4292365131
24.748625 942.09222 797.37683 4291853980
6.1651378 946.41223 797.09521 4290347050
10.018349 946.41223 797.09521 4289362193
13.069725 947.71539 795.578 4285284628
16.414679 946.88818 795.75262 4283505455
19.24312 946.47461 795.83984 4289756026
22.348623 945.82306 796.59839 4291199164
25.431194 946.41223 797.09521 4292717500
-4.612844 950.06647 797.5603 4280494157
6.9192657 950.06647 797.5603 4290613825
9.9944954 949.4787 797.06476 4289889075
13.053211 949.54114 795.80939 4287847968
16.106422 950.19141 795.04956 4287059997
23.009174 950.19141 795.04956 4288837053
25.370644 948.89093 796.56921 4293179079
27.677065 948.89093 796.56921 4294964990
31.521101 950.06647 797.5603 4294371829
34.596329 950.06647 797.5603 4294503664
3.8256879 953.83167 795.50293 4283309128
7.6513762 953.83167 795.50293 4288509753
10.210397 953.00909 795.6814 4290150976
29.110092 952.5979 795.77063 4294372596
31.370644 953.83167 795.50293 4294306287
34.43119 953.83167 795.50293 4294437871
1.5302752 956.17151 797.47583 4287794831
3.8256879 955.58655 796.9826 4286008166
38.256882 955.00159 796.48938 4294701556
40.552292 956.17151 797.47583 4294504177
6.8697243 958.62787 796.93085 4287061638
9.9229355 958.62787 796.93085 4286541459
12.976147 958.62787 796.93085 4285884003
15.876697 958.86121 797.12762 4284241794
19.070642 959.53302 797.04004 4285025332
22.109173 959.85461 796.65717 4282728314
24.89419 959.87451 796.23798 4287531931
28.381649 959.11853 796.82141 4294833659
31.142756 958.86121 797.12762 4294634995
34.266052 959.91425 795.39941 4294569972
37.761467 958.9494 796.54797 4294569973
40.455048 959.21143 797.42285 4294570225
42.744953 958.62781 796.93079 4294636534
25.889908 961.07855 796.38123 4294766591
34.266052 961.07855 796.38123 4294438384
36.550457 961.07855 796.38123 4294372594
-12.433027 748.94202 798.02124 4286185472
-10.65688 748.94202 798.02124 4286906368
46.179817 748.94202 798.02124 4294765818
-12.433027 750.97888 799.73865 4287895841
49.732109 750.29993 799.16614 4294700021
52.396332 751.65778 800.31116 4294437364
55.060551 751.65778 800.31116 4294306036
-12.407339 754.54614 800.13049 4290660645
-10.634862 753.19104 798.98792 4288759823
47.85688 753.19104 798.98792 4294700273
49.629356 753.86859 799.5592 4294634485
51.401836 754.54614 800.13049 4294569205
-10.601835 757.51733 798.71161 4290743443
47.119263 757.29218 798.52179 4294569202
49.475231 758.19275 799.28113 4294569205
52.125687 758.19275 799.28113 4294503412
54.776146 758.19275 799.28113 4294437619
-10.601835 759.54358 800.42017 4286538098
-8.8073397 761.83093 798.42468 4287327614
47.559631 761.83093 798.42468 4294766066
49.475231 759.54358 800.42017 4294634998
52.125687 759.54358 800.42017 4294503155
55.486237 761.83093 798.42468 4294239981
-12.330276 764.52423 800.69568 4288315524
-10.568808 763.85095 800.12793 4287000429
47.559631 763.17761 799.56018 4294964211
49.321102 763.85095 800.12793 4294700277
51.669724 763.62646 799.93866 4294568947
55.486237 763.85095 800.12793 4294371568
-8.7798166 766.80316 798.69312 4289238412
47.411011 766.80316 798.69312 4294831346
52.678898 766.80316 798.69312 4294569459
-10.53578 768.81689 800.39093 4286672477
-8.7614679 769.66211 798.48755 4289172618
47.311928 769.66211 798.48755 4294766066
50.044952 768.81689 800.39093 4294766068
52.678898 768.81689 800.39093 4294503154
-8.7614679 771.00177 799.61707 4286211920
47.311928 771.00177 799.61707 4294766066
49.06422 771.67163 800.18188 4294766324
52.568806 772.34143 800.7467 4294700021
-8.7339449 774.60767 798.7334 4286408559
46.289909 774.60767 798.7334 4294766066
48.910091 775.94312 799.8595 4294898168
-10.480734 777.27856 800.98547 4286011736
-7.8440361 778.11755 799.07684 4286343273
46.483181 777.89545 798.88959 4294700529
49.732109 778.03119 800.31207 4294832634
-7.8330274 781.24329 799.75031 4285817437
46.046791 782.37012 798.7384 4294569970
48.807339 780.11646 800.76221 4294306803
-10.425688 785.02698 800.97864 4287263604
-8.6880732 783.69855 799.85852 4288118911
46.046791 783.69855 799.85852 4294832629
48.65321 783.69855 799.85852 4294503414
-8.6605501 787.27222 798.94763 4289040015
45.900917 787.27222 798.94763 4294963961
48.499084 787.27222 798.94763 4294306287
-10.370643 791.41193 799.82202 4288961341
-8.6422014 790.09052 798.70776 4291536290
46.667889 790.75122 799.26489 4294831861
48.396332 790.75122 799.26489 4294437616
-10.370643 792.73328 800.93616 4288237352
-8.6146793 794.96594 798.89453 4289553469
44.796329 794.96594 798.89453 4294700791
46.519264 794.96594 798.89453 4294569205
49.260551 792.73328 800.93616 4294569205
-10.337615 796.28314 800.00525 4287102976
-8.5963306 797.7688 798.64185 4288155648
44.700916 797.7688 798.64185 4294438389
46.519264 796.28314 800.00525 4294438389
-10.315597 800.39758 800.85828 4287703306
-8.5963306 799.08313 799.75012 4288225539
48.999084 800.39758 800.85828 4294569716
-8.5688076 803.27264 799.3584 4289084980
47.128441 803.27264 799.3584 4294569459
-7.6954126 806.05859 799.09143 4288559158
44.462387 805.40491 798.54028 4294503410
46.742508 806.27655 799.27515 4294438131
-8.5504589 808.01965 800.745 4288888389
47.882568 808.01965 800.745 4294438387
-7.3816514 812.01984 799.32172 4288621356
-5.1027522 812.99902 798.40332 4289474618
44.223854 812.99902 798.40332 4294372596
46.876144 811.53021 799.78088 4294372595
49.433029 812.83337 800.87964 4294174960
51.989906 812.83337 800.87964 4294372848
-7.6541286 814.94958 800.04797 4288949305
46.491741 815.16632 800.23071 4294437617
-6.7816515 817.79449 798.52258 4289017658
44.080734 817.79449 798.52258 4294305517
-11.020184 820.38684 800.70837 4287960609
-7.6174312 820.83258 799.12219 4289013808
-5.0752292 820.55103 798.23071 4289017131
43.13945 820.55103 798.23071 4294306031
46.308258 820.44061 799.88165 4294306800
50.014679 820.38684 800.70837 4294371822
52.557796 819.73877 800.16193 4294372078
54.253212 819.73877 800.16193 4294306798
-13.533945 823.13776 800.41187 4287499529
-10.99633 823.13776 800.41187 4287695893
47.368809 823.13776 800.41187 4294306801
52.444038 823.13776 800.41187 4294174701
-11.80367 827.89813 800.50159 4287901994
-7.5880733 826.60895 799.41455 4289145918
-5.0587158 825.96448 798.87115 4288420404
43.842201 825.31989 798.32764 4294241259
46.090519 826.60907 799.41461 4294372592
-7.5715594 830.63367 800.19202 4288752450
-4.2064219 828.7041 798.56506 4289803068
43.746788 828.06097 798.02271 4294043113
45.429359 829.99048 799.64972 4294306543
-5.0311928 832.80316 798.09717 4289540686
43.603668 832.80316 798.09717 4294043113
-7.5431185 835.08649 799.36841 4288818497
43.508255 836.80811 798.85803 4294175212
45.280735 834.72632 799.71875 4294241005
-7.5302753 838.0874 799.93677 4289345601
45.181652 838.0874 799.93677 4294175212
-10.007339 842.79456 799.98157 4288227111
-7.7834868 841.94452 799.26483 4288753970
-5.0036697 841.51941 798.90637 4289081907
41.697247 841.51941 798.90637 4294306801
43.365139 842.79456 799.98157 4294437871
-6.6568809 844.86304 799.1095 4289146668
-4.9926605 844.86304 799.1095 4289475377
41.605503 844.22687 798.57312 4294437617
43.269726 845.49915 799.64587 4294503151
-6.6568809 846.77148 800.71875 4289407008
-3.8746178 847.77509 798.94891 4290593615
41.51376 847.56348 798.77045 4294437618
43.269726 846.77148 800.71875 4294437617
-4.1458716 850.53564 799.31445 4289593633
41.376148 851.60352 798.25281 4294569459
43.174313 849.46771 800.3761 4294306801
-4.4134555 853.29059 799.67529 4289005083
41.376148 852.86884 799.3197 4294569970
43.858715 853.50146 799.85315 4294372593
-3.8532112 856.39404 799.67603 4290131522
-1.6513761 855.55237 798.96631 4290521153
0 855.55237 798.96631 4291245112
41.284405 855.55237 798.96631 4294372594
43.761467 856.18359 799.4986 4294175214
-3.2954128 860.74969 800.73254 4290197834
-1.6477064 858.86023 799.13934 4290528339
0 858.86023 799.13934 4291382607
41.192661 858.23035 798.60828 4294306803
43.389603 859.48999 799.67041 4294306800
-1.6422018 862.8645 798.59167 4290526799
0 862.8645 798.59167 4290986833
42.697247 862.8645 798.59167 4294372594
-3.8293579 865.42505 799.8786 4289342514
-1.6385322 865.5271 798.22058 4290722632
0.81926608 866.15344 798.74866 4291052641
3.2770643 865.5271 798.22058 4291775083
40.417126 865.94464 798.57257 4294701556
43.470642 865.45056 799.46405 4294569972
-3.2770643 868.03241 800.33301 4289408319
-1.6348624 869.4339 798.89856 4291776867
0.81743121 868.73315 799.61578 4291254383
3.2697248 869.4339 798.89856 4291973480
40.054131 869.4339 798.89856 4294635763
43.421101 868.03241 800.33301 4294701304
-3.2697248 870.68378 799.95239 4290261581
-1.6348624 870.68378 799.95239 4293024887
0.81743121 870.68378 799.95239 4291645807
40.871559 870.68378 799.95239 4294635511
42.50642 870.68378 799.95239 4294701304
-3.2587156 875.27301 799.89795 4289462295
-1.6293578 874.02734 798.84766 4290778933
1.6293578 874.02734 798.84766 4290584372
39.919266 874.65015 799.3728 4294767097
-4.069725 877.21375 800.22632 4289069064
-1.6256881 876.66602 798.45642 4289658906
0 876.66602 798.45642 4290379780
39.588989 877.03119 799.63641 4294767097
42.363304 876.51868 800.94824 4294833912
-4.0550461 881.15918 799.62885 4289409336
-1.6220183 879.29913 798.06055 4290183943
0 879.91919 798.58331 4289986565
38.117432 879.91919 798.58331 4294766582
40.596329 880.46545 800.35199 4294767097
-6.4660549 886.32782 800.06287 4289680485
-4.8440366 886.39941 798.81512 4291918738
40.412846 885.09198 799.02075 4294767354
42.029358 886.32782 800.06287 4294636534
-4.0321102 889.5564 800.16901 4289083933
-1.6091744 890.3161 798.19348 4293103960
0 890.3161 798.19348 4292246426
41.838531 890.3161 798.19348 4294899192
43.546787 890.17291 800.68884 4294899192
-3.2183487 892.16144 799.74939 4286971904
0 892.16144 799.74939 4290407307
43.447708 892.77655 800.26807 4294701558
-3.2110093 895.37451 799.84265 4287192320
-1.6055046 894.14709 798.80762 4290789946
0.80275232 894.7608 799.32513 4286924631
3.2110093 894.14709 798.80762 4288741376
38.532108 894.14709 798.80762 4294635765
41.100918 895.12903 799.63562 4294701814
43.348625 896.60193 800.87756 4294569970
-3.2 899.26099 799.1955 4287590656
-1.6 898.64941 798.67981 4288115968
0.53333336 899.05713 799.02362 4287720219
38.400002 898.64941 798.67981 4294701556
40.533333 899.46484 799.36737 4294569714
-3.2 901.09583 800.74255 4289431552
-1.5963303 901.84497 798.75818 4287787776
0.79816514 901.84497 798.75818 4288114730
3.1926606 901.2348 798.24365 4289203456
37.513763 901.2348 798.24365 4294569714
40.706421 902.4552 799.27271 4294307056
43.200001 901.09583 800.74255 4294241007
-3.1926606 903.6756 800.30164 4290483502
-1.5926605 905.03217 798.82947 4290944053
0.79633027 904.35388 799.56555 4288312405
40.612846 905.03217 798.82947 4294307055
-3.1853211 907.46741 800.88281 4288020480
-1.5908257 907.53406 799.63092 4290200071
0.7944954 907.8725 799.26221 4288425996
3.7076454 908.00848 798.7229 4289463296
31.779816 907.60352 798.38147 4294438387
34.428135 908.00848 798.7229 4294372593
37.606113 908.00848 798.7229 4294372849
40.543121 907.87244 799.26221 4294438897
43.001835 907.46741 800.88281 4294373359
-1.5889908 910.03308 800.43005 4288676610
0.79266053 910.70715 799.69037 4289201423
3.9633026 911.38123 798.95068 4290510867
26.950459 911.38123 798.95068 4294962172
28.53578 911.38123 798.95068 4294965240
30.913761 911.38123 798.95068 4294833396
34.084404 911.38123 798.95068 4294636018
37.255047 911.38123 798.95068 4294372848
40.42569 911.38123 798.95068 4294504688
42.902752 910.03308 800.43005 4294373357
-1.5853211 913.19922 800.48358 4286844698
0.52844036 912.99725 800.31329 4290053150
3.9541283 913.9386 798.49097 4290969624
28.53578 912.59326 799.97266 4294833399
30.878899 913.26593 799.23181 4294569970
34.348621 912.99725 800.31329 4294569970
37.255047 913.19922 800.48364 4294504177
40.42569 913.19922 800.48358 4294241005
42.803669 913.80524 800.99451 4294241005
-1.5816513 916.35699 800.53003 4283706169
1.5816513 915.75238 800.02026 4290381341
3.1633027 915.14777 799.5105 4291166238
30.051376 915.14777 799.5105 4294438641
34.005505 915.75238 800.02026 4294438387
37.168808 916.35699 800.53003 4294306799
39.541283 916.35699 800.53003 4294241005
-1.5761468 920.77649 800.3324 4283841142
0 920.77649 800.3324 4288544768
3.940367 918.96906 798.80841 4291231775
6.3045874 918.36658 798.30042 4291559458
33.887154 918.96906 798.80841 4294438899
37.039452 919.57153 799.31641 4294372849
40.979816 920.77649 800.3324 4294438639
-1.5724771 923.31281 799.85486 4285677685
1.5724771 922.71173 799.34802 4290514718
3.6691132 922.51141 799.17902 4291100694
7.0761471 922.11066 798.84119 4292018212
34.594494 922.11066 798.84119 4294635511
36.953209 922.11066 798.84119 4294504179
40.098167 922.71173 799.34802 4294372848
-3.9311926 924.51501 800.86853 4287856024
-1.5724771 924.51501 800.86853 4282914911
0.78623855 924.51501 800.86853 4289265670
4.1859326 925.00079 799.53418 4291100679
7.0596333 925.24377 798.867 4292281125
37.651375 924.6441 798.36133 4294438641
40.004585 925.24377 798.867 4294307055
42.456882 924.51501 800.86853 4294241005
-1.5688074 927.04285 800.38391 4283181862
3.9220183 927.04285 800.38391 4288679936
7.0504589 927.70569 799.63477 4289859598
40.693577 928.9668 799.39008 4294438387
42.308258 928.30396 800.13922 4294372594
3.9073396 931.42175 800.15198 4289629576
7.0266056 930.888 798.39392 4289291371
9.3688078 930.888 798.39392 4289658943
35.133026 930.888 798.39392 4294110192
37.475231 930.888 798.39392 4294438387
39.817429 931.48486 798.89722 4294569459
43.041283 930.76166 800.90344 4294503409
4.6733947 935.18823 799.40369 4282192413
7.2697244 934.98975 799.23633 4287125059
9.3467894 935.78369 799.90576 4289370483
32.71376 934.59277 798.90161 4294635765
35.050461 934.59277 798.90161 4294372596
38.425686 934.98975 799.23633 4294569711
40.50275 935.18823 799.40369 4294569713
42.159634 933.27551 800.40698 4294569457
3.8889909 937.63049 800.15491 4288966013
6.7345567 937.89032 799.06592 4283511041
10.101835 937.69226 798.89899 4285422407
28.751377 937.09821 798.39807 4294636023
32.118652 937.49432 798.73199 4294569973
34.708866 937.49432 798.73199 4294569718
38.076149 937.69226 798.89899 4294636015
40.407341 938.28638 799.3999 4294438641
42.060551 936.97467 800.90991 4294569970
4.6623855 939.47449 800.40173 4289556615
6.9770641 941.37604 799.38892 4286928423
9.3027525 941.37604 799.38898 4284951327
26.357798 940.78339 798.88928 4294957816
28.941895 941.17847 799.22241 4294438389
31.551682 940.74219 799.72656 4294504178
34.905502 941.04883 799.76709 4294504179
37.986237 941.37604 799.38898 4294701556
40.407341 939.47449 800.40173 4294701556
4.6513762 943.15405 800.88818 4290609568
7.7339449 944.45728 799.37097 4289886499
10.827523 943.27472 798.3739 4287846428
13.147707 943.27472 798.3739 4284431902
15.46789 943.27472 798.3739 4281401379
25.522018 943.27472 798.3739 4293108158
28.357798 944.06305 799.03857 4294833145
31.784403 943.15405 800.88818 4294503410
34.885323 943.15405 800.88818 4294504182
37.21101 943.15405 800.88818 4294635763
4.640367 945.63977 800.36804 4290413991
6.9357796 947.59052 798.08875 4291927132
9.2477064 947.59052 798.08875 4291665505
29.284403 947.59052 798.08875 4294372596
31.654129 946.61511 799.22839 4294503412
34.742203 946.61511 799.22839 4294569459
37.122936 945.63977 800.36804 4294306799
-6.9357796 949.9472 800.07581 4281283128
-3.0825689 948.76886 799.08228 4280953931
4.6238532 948.76886 799.08228 4289232277
37.761467 949.35803 799.57904 4294635763
40.073395 949.9472 800.07581 4294701556
-9.225688 953.59302 800.53381 4284502069
-6.6629968 953.20117 800.20343 4285222474
-3.8440366 951.82971 799.04712 4280426037
-1.5376147 951.82971 799.04712 4278979617
0.76880735 953.00525 800.03827 4285225561
36.902752 951.242 798.55151 4294438641
40.746788 952.41748 799.54272 4294701559
-3.8348622 955.46863 799.49927 4287001204
-1.533945 955.46863 799.49921 4286937233
0 956.05499 799.99365 4286872707
-3.8348622 957.22766 800.98242 4278190093
-1.533945 957.22766 800.98242 4278190104
1.5302752 958.51141 799.44873 4281281839
3.8256881 958.51129 799.44873 4282199345
6.8862386 959.68121 800.43506 4282005276
10.711926 959.68121 800.43506 4287996832
13.007339 959.68121 800.43506 4288784595
16.06789 959.68121 800.43506 4285751644
18.363302 959.68121 800.43506 4284302592
43.393269 958.47339 800.28876 4294372848
9.1596327 960.96198 798.89893 4286286215
19.845871 960.96198 798.89893 4286210580
22.390213 961.35101 799.22699 4282464887
25.188992 961.54553 799.39099 4288649908
28.242203 961.54553 799.39099 4294767866
31.295414 961.54553 799.39099 4294307056
34.348625 961.54553 799.39099 4294438642
37.401833 961.54553 799.39099 4294307055
40.455048 960.96198 798.89893 4294307051
-16.034863 749.35785 802.29602 4285927702
-14.253211 748.67676 801.72174 4286711822
51.667889 747.99573 801.14746 4294568692
-16.034863 750.71991 803.44446 4286519839
-13.758716 754.75543 802.26904 4287968808
53.284405 753.01569 801.45605 4294372596
55.060551 753.01569 801.45605 4294306803
-15.952293 758.61133 803.55823 4289100116
-13.293577 757.93384 802.98694 4288441195
-12.368808 760.89447 801.5592 4287719542
-15.902752 762.24536 802.69812 4289105277
-14.135779 762.24536 802.69812 4289697177
-15.853211 766.54425 802.3988 4289300862
-13.21101 766.54425 802.3988 4288249981
51.082569 765.87091 801.83105 4294700275
55.192657 766.31982 802.20953 4294568947
-10.53578 770.83051 802.08887 4285619299
50.922935 770.83051 802.08887 4294766836
54.434864 770.83051 802.08887 4294897656
-13.142202 773.68103 801.87622 4288841621
-10.513762 773.68103 801.87622 4286275164
50.816513 773.68103 801.87622 4294898168
52.568806 773.68103 801.87622 4294765303
54.434864 772.17297 803.2207 4294962939
-16.64679 775.02069 803.00574 4289566595
-13.142202 775.02069 803.00574 4288906380
52.568806 775.02069 803.00574 4294897405
-19.21468 778.61401 802.11145 4288051834
-17.46789 778.61401 802.11145 4288052588
-13.100918 779.94946 803.23743 4288051321
-10.480734 778.61401 802.11145 4285879625
50.656879 779.28174 802.67444 4294832634
52.403671 778.61401 802.11145 4294831863
-19.174313 782.78174 803.00952 4289101946
-17.431192 782.78174 803.00952 4288842372
-13.073395 782.78174 803.00952 4288579712
-10.458715 781.4491 801.88586 4287132016
50.550457 782.78174 803.00952 4294898168
-19.982569 787.68384 803.21875 4288909185
-15.638532 787.68384 803.21875 4289830814
-13.03211 787.01965 802.65869 4289566097
-10.425688 786.35541 802.09863 4289035899
50.390827 786.35541 802.09863 4294898170
52.128441 787.68384 803.21875 4294831863
55.603668 787.68384 803.21875 4294634998
-12.124771 790.58276 801.73901 4286867057
50.231194 789.92065 801.18079 4294700273
