# .PCD v0.7 - Point Cloud Data file format
VERSION 0.7
FIELDS x y z rgb
SIZE 4 4 4 4
TYPE F F F U
COUNT 1 1 1 1
WIDTH 1163
HEIGHT 1
VIEWPOINT 0 0 0 1 0 0 0
POINTS 1163
DATA ascii
-2.26789 891.22473 1268.5424 4291149559
0 891.22473 1268.5424 4290951919
-24.866055 896.63116 1267.8689 4288033398
-22.605505 896.63116 1267.8689 4288229214
-19.21468 896.63116 1267.8689 4288690805
-15.823853 895.76709 1267.1403 4289352600
-13.563303 895.76709 1267.1403 4288895126
-10.172478 895.76709 1267.1403 4288242842
-6.7816515 895.76709 1267.1403 4291208916
-4.521101 896.63116 1267.8689 4290427380
-2.2605505 896.63116 1267.8689 4290625016
-6.704587 917.08551 1266.803 4291594946
-15.644036 918.79407 1268.2437 4287641972
-13.409174 918.79407 1268.2437 4287903611
-11.174312 918.79407 1268.2437 4287508853
-7.8220181 918.79407 1268.2437 4288635292
-4.4697247 918.79407 1268.2437 4290162664
-2.2348623 918.79407 1268.2437 4290228713
-20.047707 925.7912 1268.9113 4285095042
-15.592661 925.7912 1268.9113 4286870436
-13.365138 924.9397 1268.1934 4287190923
-11.137614 924.9397 1268.1934 4286138235
-7.7963305 924.93976 1268.1934 4287784339
-4.4550457 924.9397 1268.1934 4289965283
-2.2275229 925.7912 1268.9113 4290425071
-11.100918 929.36011 1266.6884 4285948051
-6.6605506 929.36011 1266.6884 4289169579
-4.4403667 929.36011 1266.6884 4289963990
-13.321101 931.05743 1268.1195 4284966301
-11.100918 931.05743 1268.1195 4284834714
-7.7706423 931.05743 1268.1195 4287461780
-4.4403667 931.05743 1268.1195 4288383941
-2.2201834 931.05743 1268.1195 4290094302
-19.833027 945.35132 1268.3994 4282336624
-16.527523 945.35132 1268.3994 4285229211
-13.222018 945.35132 1268.3994 4286941119
-11.018349 945.35132 1268.3994 4285296551
-19.766972 950.53607 1267.5391 4285294724
-16.472477 950.53607 1267.5391 4285759137
-13.177981 950.53607 1267.5391 4285890761
-10.981651 950.53607 1267.5391 4283851179
-24.159634 952.21521 1268.9548 4280238433
-21.963303 952.21521 1268.9548 4281881706
-19.766972 952.21521 1268.9548 4283263359
-16.472477 952.21521 1268.9548 4284840597
-13.177981 952.21521 1268.9548 4286283455
-10.981651 952.21521 1268.9548 4284507044
-7.6871557 952.21521 1268.9548 4284573309
-4.3926606 952.21521 1268.9548 4284636288
-19.700918 957.37195 1268.0707 4285367245
-16.417431 957.37195 1268.0707 4279581130
-13.133945 957.37195 1268.0707 4278399600
-10.944954 957.37195 1268.0707 4280702355
-8.7559633 957.37195 1268.0707 4283919525
-4.3779817 957.37195 1268.0707 4284177034
-22.907339 962.50623 1267.1677 4290692095
-19.634863 962.50623 1267.1677 4292073983
-16.362385 962.50623 1267.1677 4291153663
-13.089909 962.50623 1267.1677 4290694399
-10.908257 962.50623 1267.1677 4290299647
-21.816513 964.17413 1268.574 4289112554
-19.634863 964.17413 1268.574 4290362621
-16.362385 964.17413 1268.574 4290626811
-41.392662 753.78827 1271.6902 4288384692
-37.740364 753.78827 1271.6902 4288777400
-38.781651 760.84021 1269.7881 4288779200
2.4238532 760.84021 1269.7881 4291874559
4.8477063 760.84021 1269.7881 4291217919
-41.205505 762.6933 1271.3506 4287332270
4.8477063 762.6933 1271.3506 4291743999
-45.878899 770.07556 1271.0349 4287530171
-43.464222 770.07556 1271.0349 4287465152
-41.049541 769.15259 1270.2567 4288518089
2.4146788 770.07556 1271.0349 4291677695
4.8293576 770.9986 1271.8132 4291743999
-45.704586 775.58368 1269.1392 4286871744
-43.299084 775.58368 1269.1392 4286610371
-40.893578 775.58368 1269.1392 4287268558
-37.285324 775.58368 1269.1392 4287465433
2.4055047 775.58368 1269.1392 4291810559
-48.110092 777.42273 1270.6898 4286016435
-45.704586 777.42273 1270.6898 4287003330
2.4055047 777.42273 1270.6898 4291547135
4.8110094 777.42273 1270.6898 4291217919
-46.728439 784.73486 1270.3149 4286283709
-43.133945 783.81885 1269.5426 4286482365
-40.737614 783.81885 1269.5426 4287535309
2.3963304 784.73486 1270.3149 4291547135
4.7926607 785.65088 1271.0874 4291612415
7.1889906 785.65088 1271.0874 4291612415
-40.58165 792.92444 1270.6802 4288451536
-38.194496 792.92444 1270.6802 4288517340
2.387156 793.83698 1271.4495 4291349759
7.161468 792.92444 1270.6802 4291481087
11.93578 793.83698 1271.4495 4291481599
14.322936 793.83698 1271.4495 4291481599
-40.456882 797.80835 1269.5659 4288575408
-38.077065 797.80835 1269.5659 4289035177
-35.697247 797.80835 1269.5659 4289495728
-2.3798165 797.80835 1269.5659 4291020799
0 797.80835 1269.5659 4291218175
16.658716 797.80835 1269.5659 4291480575
-40.456882 799.62775 1271.1001 4287774855
-38.077065 799.62775 1271.1001 4287773819
-35.697247 799.62775 1271.1001 4287905662
2.3798165 799.62775 1271.1001 4291480063
16.658716 799.62775 1271.1001 4291349759
-33.188992 805.92847 1269.8724 4288367746
-30.818348 805.92847 1269.8724 4289025419
-28.447706 805.92847 1269.8724 4288958872
-26.077065 805.92847 1269.8724 4289419423
-22.521101 805.92847 1269.8724 4289025951
-18.965137 805.92847 1269.8724 4288109241
-16.594496 805.92847 1269.8724 4291069927
-14.223853 805.92847 1269.8724 4291080447
-10.667891 805.92847 1269.8724 4291675135
-7.1119266 805.92847 1269.8724 4291480319
-4.7412844 805.92847 1269.8724 4291350015
-2.3706422 805.92847 1269.8724 4291416063
0 805.92847 1269.8724 4291481599
16.594496 805.92847 1269.8724 4291481599
-34.374313 807.74084 1271.4006 4288630663
-30.818348 807.74084 1271.4006 4289091217
-28.447706 807.74084 1271.4006 4289090461
-26.077065 807.74084 1271.4006 4289748647
-22.521101 807.74084 1271.4006 4289222298
-18.965137 807.74084 1271.4006 4288303261
-16.594496 807.74084 1271.4006 4290671809
-14.223853 807.74084 1271.4006 4289827037
-10.667891 807.74084 1271.4006 4292331519
-7.1119266 807.74084 1271.4006 4291612159
-2.3706422 807.74084 1271.4006 4291350270
0 807.74084 1271.4006 4291480831
-40.144955 815.81189 1271.6658 4287180906
-34.241287 814.90924 1270.9047 4288035956
-30.699083 814.00653 1270.1436 4289090701
-28.337614 814.00653 1270.1436 4289220766
-25.976147 814.00653 1270.1436 4290076074
-22.433945 814.00653 1270.1436 4290076574
-18.891743 814.00653 1270.1436 4289814702
-16.530275 814.00653 1270.1436 4289814702
-14.168807 814.00653 1270.1436 4288634800
-10.626606 814.00653 1270.1436 4291010027
-7.0844035 814.00653 1270.1436 4292135167
-4.7229357 814.00653 1270.1436 4291612671
-2.3614678 814.00653 1270.1436 4291678463
0 814.90918 1270.9047 4291283454
-37.636696 823.84088 1271.8954 4288039801
-35.284405 822.94171 1271.1372 4288039800
-32.93211 822.94171 1271.1372 4288366209
2.3522935 822.94171 1271.1372 4291086078
-35.14679 830.03638 1270.5792 4288236160
-31.632109 829.14069 1269.824 4288696194
-28.117432 829.14069 1269.824 4288761757
-25.774311 828.245 1269.0688 4289485219
2.3431194 829.14069 1269.824 4291152126
-31.533028 835.68689 1270.1115 4288629885
-28.029358 835.68689 1270.1115 4288826273
-25.693579 835.68689 1270.1115 4289286824
-22.189907 835.68689 1270.1115 4289419680
-18.686239 835.68689 1270.1115 4289550503
-16.350458 835.68689 1270.1115 4289945004
-14.014679 835.68689 1270.1115 4288699552
-10.511009 835.68689 1270.1115 4290351057
0 835.68689 1270.1115 4290822909
-35.036697 837.47266 1271.6172 4287775859
-31.533028 837.47266 1271.6172 4288629885
-28.029358 837.47266 1271.6172 4288827041
-25.693579 837.47266 1271.6172 4289419177
-22.189907 837.47266 1271.6172 4289419426
0 837.47266 1271.6172 4290757629
-31.409174 845.38654 1271.7498 4288230515
-27.919266 845.38654 1271.7498 4288428926
-25.592661 845.38654 1271.7498 4289218185
-23.266054 844.49719 1270.9999 4288825480
-19.776146 844.49719 1270.9999 4289221011
-16.286238 843.60779 1270.25 4290011553
-13.959633 843.60779 1270.25 4288765345
-10.081958 844.20068 1270.7499 4289826001
-6.9798164 844.49719 1270.9999 4292066559
-4.6532111 844.49719 1270.9999 4291217661
-2.3266056 844.49719 1270.9999 4291020283
0 844.49719 1270.9999 4290758141
-27.809174 851.48669 1270.3531 4288429955
-25.491743 851.48669 1270.3531 4289943193
-23.174313 851.48669 1270.3531 4289945256
-19.698166 851.48669 1270.3531 4289682336
-13.904587 851.48669 1270.3531 4288828560
-10.42844 851.48669 1270.3531 4289887936
-6.9522934 851.48669 1270.3531 4292723967
-4.6348624 851.48669 1270.3531 4291678458
-2.3174312 851.48669 1270.3531 4291415030
-30.126606 853.25836 1271.8469 4287969892
-27.809174 853.25836 1271.8469 4287767148
-25.491743 853.25836 1271.8469 4289806731
-23.174313 853.25836 1271.8469 4289221270
-20.85688 853.25836 1271.8469 4289747614
-2.3174312 853.25836 1271.8469 4291087098
0 853.25836 1271.8469 4291151871
-27.721102 857.0531 1269.8145 4287965808
-25.411009 857.0531 1269.8145 4288557945
-23.100918 857.0531 1269.8145 4288693615
-19.63578 857.0531 1269.8145 4289747090
-16.170643 857.0531 1269.8145 4290011050
-13.860551 857.0531 1269.8145 4289158816
-9.2403669 857.0531 1269.8145 4289170894
-6.9302754 857.0531 1269.8145 4292394495
-4.6201835 857.0531 1269.8145 4291349757
-2.3100917 857.0531 1269.8145 4291546879
0 857.0531 1269.8145 4291217919
-31.186239 858.81915 1271.3035 4288366715
-25.411009 858.81915 1271.3035 4288299132
-20.790825 858.81915 1271.3035 4289546374
0 858.81915 1271.3035 4290167295
-34.51376 865.73846 1270.5975 4287309414
-32.212845 865.73846 1270.5975 4287703920
-23.009174 865.73846 1270.5975 4289415803
-19.557798 865.73846 1270.5975 4288691830
-16.106422 864.85895 1269.856 4290271130
-10.354128 864.85895 1269.856 4290018751
-6.9027524 864.85895 1269.856 4292589560
-2.3009174 864.85895 1269.856 4287334871
0 865.73846 1270.5975 4282080402
-34.376148 872.6228 1269.8621 4287512160
-32.084404 872.6228 1269.8621 4287641188
-22.917431 872.6228 1269.8621 4288097142
-19.479816 872.6228 1269.8621 4288492152
-16.042202 872.6228 1269.8621 4289150334
-13.750459 872.6228 1269.8621 4288760707
-10.312843 872.6228 1269.8621 4289819824
-6.8752294 872.6228 1269.8621 4285483915
-4.5834861 872.6228 1269.8621 4282799213
-2.291743 872.6228 1269.8621 4281088595
0 872.6228 1269.8621 4281421174
-36.667889 874.37482 1271.3394 4287777905
-34.376148 874.37482 1271.3394 4287777905
-18.333944 874.37482 1271.3394 4288625526
-16.042202 874.37482 1271.3394 4289020027
-13.750459 874.37482 1271.3394 4288825467
-10.312843 874.37482 1271.3394 4289687467
-6.8752294 874.37482 1271.3394 4287918261
-4.5834861 874.37482 1271.3394 4285825205
-2.291743 874.37482 1271.3394 4284772516
0 874.37482 1271.3394 4283788951
-34.266056 878.10498 1269.2524 4287646571
-31.981651 878.10498 1269.2524 4288237425
-19.417431 878.10498 1269.2524 4288958597
-13.706422 878.10498 1269.2524 4288759420
-10.279816 878.10498 1269.2524 4289356703
-6.8532109 878.10498 1269.2524 4290743244
-4.5688071 878.10498 1269.2524 4289306335
-2.2844036 878.10498 1269.2524 4289109213
0 878.10498 1269.2524 4288387021
-36.550457 879.85144 1270.725 4287315821
-10.279816 879.85144 1270.725 4288633749
-6.8532109 879.85144 1270.725 4288965291
0 879.85144 1270.725 4289500096
-37.162079 886.95538 1270.1748 4286921574
-34.128441 885.79584 1269.197 4287447657
-31.85321 886.66553 1269.9304 4287973477
-22.752293 885.79584 1269.197 4288500865
-18.201836 885.79584 1269.197 4289289121
-9.1009178 885.79584 1269.197 4288571033
2.2752295 887.53528 1270.6637 4289506780
-37.420181 892.95856 1270.0043 4286657884
-34.018349 892.95856 1270.0043 4287052383
-31.750458 892.95856 1270.0043 4287444579
-28.348625 892.95856 1270.0043 4287640943
-24.946789 892.95856 1270.0043 4288823945
-22.6789 892.95856 1270.0043 4288960108
-19.277065 892.95856 1270.0043 4289552012
-4.53578 892.95856 1270.0043 4290887922
-2.26789 892.95856 1270.0043 4290953715
0 892.95856 1270.0043 4290756584
-40.822018 894.69238 1271.4662 4285998676
-37.420181 894.69238 1271.4662 4286261591
-34.018349 894.69238 1271.4662 4286919264
-31.750458 894.69238 1271.4662 4287180639
-28.348625 894.69238 1271.4662 4287376743
0 894.69238 1271.4662 4290428907
-28.256882 898.35938 1269.326 4287245665
-24.866055 898.35938 1269.326 4287837036
-22.605505 898.35938 1269.326 4287967330
-19.21468 898.35938 1269.326 4287966571
-15.823853 898.35938 1269.326 4289610381
-13.563303 898.35938 1269.326 4288631168
-10.172478 898.35938 1269.326 4288571032
-6.7816515 898.35938 1269.326 4291603167
-4.521101 898.35938 1269.326 4290493174
-2.2605505 898.35938 1269.326 4290361587
0 898.35938 1269.326 4290100205
-28.256882 900.08759 1270.7832 4287115364
-24.866055 900.08759 1270.7832 4287705968
-22.605505 900.08759 1270.7832 4288165738
-19.21468 900.08759 1270.7832 4288296297
-15.823853 900.08759 1270.7832 4289085043
-13.563303 900.08759 1270.7832 4288299384
-10.172478 900.08759 1270.7832 4287580287
-6.7816515 900.08759 1270.7832 4292190679
-4.521101 900.08759 1270.7832 4290493174
-2.2605505 900.08759 1270.7832 4290361587
0 900.08759 1270.7832 4290100203
-18.011009 905.93945 1269.1771 4288431213
-15.759633 905.93945 1269.1771 4288233578
-13.508257 905.93945 1269.1771 4288231540
-10.131193 905.93945 1269.1771 4287184755
-19.136696 907.66064 1270.6284 4288430450
-15.759633 907.66064 1270.6284 4288233832
-13.508257 907.66064 1270.6284 4288363642
-10.131193 907.66064 1270.6284 4287250037
-6.7541285 907.66064 1270.6284 4291794374
-4.5027523 907.66064 1270.6284 4290295531
-2.2513762 907.66064 1270.6284 4290295531
0 907.66064 1270.6284 4290100205
-16.830275 914.71814 1271.347 4287971189
-13.46422 914.71814 1271.347 4288032630
-11.220183 914.71814 1271.347 4287901044
-8.9761467 914.71814 1271.347 4286331506
-4.4880733 914.71814 1271.347 4290292969
-2.2440367 913.86035 1270.6238 4290687985
0 914.71814 1271.347 4290032615
-16.761467 920.50262 1269.6842 4287510650
-13.409174 920.50262 1269.6842 4287771764
-11.174312 920.50262 1269.6842 4287705970
-7.8220181 920.50262 1269.6842 4288308892
-4.4697247 920.50262 1269.6842 4290097638
-2.2348623 920.50262 1269.6842 4290295018
0 920.50262 1269.6842 4289967333
-20.113762 922.21118 1271.1249 4286405271
-16.761467 922.21118 1271.1249 4286400907
-2.2348623 922.21118 1271.1249 4290623719
0 922.21118 1271.1249 4290099685
-20.047707 928.3457 1271.0652 4283322471
-16.706421 928.34564 1271.0652 4285493160
-13.365138 927.4942 1270.3472 4287263910
-8.9100914 927.4942 1270.3472 4286077309
-2.2275229 927.4942 1270.3472 4290950885
0 928.3457 1271.0652 4290228449
-13.321101 932.75476 1269.5507 4285952666
-11.100918 932.75476 1269.5507 4284834185
-8.8807335 932.75476 1269.5507 4285360768
-4.4403667 932.75476 1269.5507 4287925408
-19.981651 934.45215 1270.9818 4282860911
-17.761467 934.45215 1270.9818 4284375449
-13.321101 934.45215 1270.9818 4285561000
-11.100918 934.45215 1270.9818 4283126658
-8.8807335 934.45215 1270.9818 4282139232
-4.4403667 934.45215 1270.9818 4284440708
0 934.45215 1270.9818 4283320680
-19.915596 941.37634 1271.588 4282665074
-16.596331 940.53052 1270.8748 4285492902
-13.277064 940.53046 1270.8748 4286085553
-11.06422 940.53046 1270.8748 4285362086
-7.7449541 940.53052 1270.8748 4284968317
-4.4256883 940.53046 1270.8748 4284898442
-24.240368 947.03601 1269.8199 4285427606
-22.036697 947.03601 1269.8199 4284178065
-19.833027 947.03601 1269.8199 4283191170
-16.527523 947.03601 1269.8199 4285033125
-13.222018 947.03601 1269.8199 4286415807
-11.018349 947.03601 1269.8199 4284573603
-7.7128439 947.03601 1269.8199 4284244864
-4.4073396 947.03601 1269.8199 4285029766
-30.851376 948.72076 1271.2405 4282136172
-28.647707 948.72076 1271.2405 4282991225
-25.342201 948.72076 1271.2405 4283715713
-22.036697 948.72076 1271.2405 4284899967
-7.7128439 948.72076 1271.2405 4282014580
-4.4073396 948.72076 1271.2405 4284964740
-25.257797 953.89429 1270.3706 4283265953
-21.963303 953.89429 1270.3706 4282736282
-19.766972 953.89429 1270.3706 4282012302
-16.472477 953.89429 1270.3706 4279516822
-13.177981 953.89429 1270.3706 4282793362
-10.981651 953.89429 1270.3706 4284437930
-7.6871557 953.89429 1270.3706 4285886873
-4.3926606 953.89429 1270.3706 4284439690
-28.552294 955.57343 1271.7864 4287337424
-25.257797 955.57343 1271.7864 4286813651
-21.963303 955.57343 1271.7864 4286025176
-6.5889907 955.57343 1271.7864 4283656096
0 955.57343 1271.7864 4284434785
-25.173393 959.04547 1269.4817 4289837558
-21.889908 959.04547 1269.4817 4290561791
-19.700918 959.04547 1269.4817 4290956543
-16.417431 959.04547 1269.4817 4290693630
-13.133945 959.04547 1269.4817 4286426079
-10.944954 959.04547 1269.4817 4286557666
-7.6614676 959.04547 1269.4817 4285238751
-26.267889 960.71899 1270.8928 4289638898
-7.6614676 960.71899 1270.8928 4288652525
-19.634863 965.84198 1269.9803 4289442010
-16.362385 965.84198 1269.9803 4290626018
-41.392662 755.64972 1273.2598 4289106114
4.8697248 755.64972 1273.2598 4291612415
-43.827522 757.51123 1274.8293 4287855534
-41.392662 757.51123 1274.8293 4288118706
7.3045874 757.51123 1274.8293 4291547135
-43.629356 764.54633 1272.913 4287730110
-41.205505 764.54633 1272.913 4288124868
4.8477063 764.54633 1272.913 4291810047
7.2715597 764.54633 1272.913 4291743999
9.6954126 764.54633 1272.913 4291480575
13.331193 764.54633 1272.913 4291677951
4.8477063 766.39941 1274.4755 4291678719
7.2715597 766.39941 1274.4755 4291678719
9.6954126 766.39941 1274.4755 4291678719
13.331193 766.39941 1274.4755 4291678719
-48.293579 772.8446 1273.3698 4285950642
4.8293576 772.8446 1273.3698 4291678719
7.2440367 772.8446 1273.3698 4291547391
9.6587152 772.8446 1273.3698 4291810047
13.280734 772.8446 1273.3698 4291810047
-53.122936 774.69067 1274.9263 4286673055
-50.708256 774.69067 1274.9263 4286409883
7.2440367 774.69067 1274.9263 4291415551
9.6587152 774.69067 1274.9263 4291612159
12.073395 774.69067 1274.9263 4291546367
-52.921101 779.26178 1272.2404 4286411430
-49.312843 779.26178 1272.2404 4286807223
2.4055047 779.26178 1272.2404 4291810303
4.8110094 779.26178 1272.2404 4291612415
7.2165136 779.26178 1272.2404 4291743999
9.6220188 779.26178 1272.2404 4291481599
12.027523 779.26178 1272.2404 4291547391
-52.921101 781.10083 1273.791 4286411945
-50.515594 781.10083 1273.791 4286609324
4.8110094 781.10083 1273.791 4291283967
7.2165136 781.10083 1273.791 4291415551
9.6220188 781.10083 1273.791 4291283967
13.230275 781.10083 1273.791 4291480575
-50.322937 787.48291 1272.6321 4286543281
-47.926605 787.48291 1272.6321 4285823156
2.3963304 787.48291 1272.6321 4291480575
4.7926607 787.48291 1272.6321 4291480831
7.1889906 787.48291 1272.6321 4291546623
10.783486 787.48291 1272.6321 4291152639
14.377981 787.48291 1272.6321 4291415551
-50.322937 789.31494 1274.1768 4287330735
-46.728439 789.31494 1274.1768 4286872762
-43.133945 789.31494 1274.1768 4287136706
2.3963304 789.31494 1274.1768 4291349759
4.7926607 789.31494 1274.1768 4291283455
10.783486 789.31494 1274.1768 4291416062
14.377981 789.31494 1274.1768 4291415807
-46.151684 796.8786 1274.0142 4287449987
-42.968807 796.57446 1273.7577 4287846294
2.387156 795.66199 1272.9883 4291415551
4.774312 796.57446 1273.7577 4291218175
7.161468 796.57446 1273.7577 4291350015
10.742201 796.57446 1273.7577 4291350015
14.322936 796.57446 1273.7577 4291415295
-42.836697 801.44714 1272.6342 4287182968
-40.456882 802.35681 1273.4011 4287513212
-38.077065 802.35681 1273.4011 4287709048
-35.697247 802.35681 1273.4011 4287972220
2.3798165 802.35681 1273.4011 4291415807
4.7596331 802.35681 1273.4011 4291415548
7.1394496 802.35681 1273.4011 4291547389
10.709174 802.35681 1273.4012 4291218175
14.278899 802.35681 1273.4011 4291349759
16.658716 801.44714 1272.6342 4291349759
-37.930275 809.55322 1272.9287 4288038776
-34.374313 809.55322 1272.9287 4288433539
-30.818348 809.55322 1272.9287 4288894351
1.1853211 809.55322 1272.9287 4291086591
-42.671558 811.3656 1274.4569 4287117163
-40.300919 811.3656 1274.4569 4286788198
-37.930275 811.3656 1274.4569 4287576165
2.3706422 811.3656 1274.4569 4291546879
4.7412844 811.3656 1274.4569 4291283711
-40.144955 817.61731 1273.188 4287315569
-37.783485 817.61731 1273.188 4287840116
-35.42202 817.61731 1273.188 4288103288
2.3614678 817.61731 1273.188 4291020031
-40.144955 819.42261 1274.7102 4287252597
-37.783485 819.42261 1274.7102 4288171128
4.7229357 819.42261 1274.7102 4291217918
-39.988991 827.43756 1274.9281 4287580022
-37.636696 826.53839 1274.1699 4287907193
-35.284405 825.63922 1273.4117 4288038776
4.704587 826.53839 1274.1699 4290954494
-37.48991 833.61902 1273.6 4287841654
-35.14679 832.72339 1272.8447 4288170107
-32.803669 831.8277 1272.0896 4288433021
-28.117432 831.8277 1272.0896 4288563101
2.3431194 832.72339 1272.8447 4291085566
4.6862388 832.72339 1272.8447 4290954745
7.0293579 833.61902 1273.6 4291678463
-35.036697 839.25836 1273.1228 4288297335
-31.533028 839.25836 1273.1228 4288695666
-28.029358 839.25836 1273.1228 4289089698
-25.693579 839.25836 1273.1228 4289550249
-22.189907 839.25836 1273.1228 4289813671
-35.036697 841.04407 1274.6284 4288622455
-31.533028 841.04407 1274.6284 4288429421
-28.029358 841.04407 1274.6284 4288560525
-25.693579 841.04407 1274.6284 4289152663
-39.552292 848.94397 1274.7493 4287244136
-37.225689 848.94397 1274.7493 4287243619
-34.899082 848.94397 1274.7493 4287572583
-31.409174 848.05457 1273.9994 4288164973
-27.919266 847.16522 1273.2495 4288561540
-25.592661 847.16522 1273.2495 4289745815
-20.939449 847.16522 1273.2495 4289221267
-4.6532111 847.16522 1273.2495 4291283964
-2.3266056 847.16522 1273.2495 4291086328
0 848.05457 1273.9994 4291217910
-39.396332 856.80176 1274.8347 4287187061
-37.078899 856.80176 1274.8347 4287448954
-34.761467 856.80176 1274.8347 4287777919
-31.285322 855.03009 1273.3408 4287905128
2.3174312 856.80176 1274.8347 4286351312
4.6348624 856.80176 1274.8347 4282671781
-34.651375 860.58521 1272.7926 4288366978
2.3100917 862.35132 1274.2817 4282412216
4.6201835 862.35132 1274.2817 4284246700
-36.814678 868.37708 1272.8224 4287046487
-36.814678 870.13611 1274.3055 4287512160
2.3009174 870.13611 1274.3055 4285434290
-37.813759 877.00293 1273.5553 4287121005
-16.042202 876.12689 1272.8167 4288694140
2.291743 877.87897 1274.2939 4289565889
4.5834861 877.87897 1274.2939 4290816969
-36.550457 881.5979 1272.1975 4287316071
2.2844036 881.5979 1272.1975 4287663269
4.5688071 881.5979 1272.1975 4288322992
-38.834862 883.34436 1273.67 4286724967
2.2844036 883.34436 1273.67 4287011012
4.5688071 883.34436 1273.67 4285107391
-37.541283 889.27466 1272.1304 4286723679
-34.128441 889.27466 1272.1304 4287117411
-31.85321 889.27466 1272.1304 4287640929
2.2752295 889.27466 1272.1304 4290951919
4.5504589 889.27466 1272.1304 4290756082
-40.954128 891.01416 1273.5969 4286329178
2.2752295 891.01416 1273.5969 4290756584
4.5504589 891.01416 1273.5969 4290822892
-40.822018 896.42621 1272.9281 4285998676
-37.420181 896.42621 1272.9281 4286130005
-34.018349 896.42621 1272.9281 4286985314
-31.750458 896.42621 1272.9281 4287114846
2.26789 896.42621 1272.9281 4290297328
4.53578 896.42621 1272.9281 4290362862
-37.420181 898.16003 1274.39 4286195545
-34.018349 898.16003 1274.39 4286918501
-31.750458 898.16003 1274.39 4286853725
2.26789 898.16003 1274.39 4290363375
4.53578 898.16003 1274.39 4290559471
-28.256882 901.8158 1272.2404 4287114342
-24.866055 901.8158 1272.2404 4287441513
-22.605505 901.8158 1272.2404 4287770478
-19.21468 901.8158 1272.2404 4288494450
-15.823853 901.8158 1272.2404 4288626287
-13.563303 901.8158 1272.2404 4288231544
-10.172478 901.8158 1272.2404 4287119479
-6.7816515 901.8158 1272.2404 4291863247
-4.521101 901.8158 1272.2404 4290427882
-2.2605505 901.8158 1272.2404 4290362089
0 901.8158 1272.2404 4290034410
-28.256882 903.54401 1273.6975 4287244638
-24.866055 903.54401 1273.6975 4287704933
-22.605505 903.54401 1273.6975 4287574382
-20.344954 903.54401 1273.6975 4288561277
-6.7816515 903.54401 1273.6975 4291927241
-4.521101 903.54401 1273.6975 4290230256
-2.2605505 903.54401 1273.6975 4290230256
0 903.54401 1273.6975 4290165996
-24.765137 910.24243 1272.8054 4287510372
-22.513762 910.24243 1272.8054 4287575658
-19.136696 910.24243 1272.8054 4288167537
-15.759633 910.24243 1272.8054 4288299379
-13.508257 910.24243 1272.8054 4288364153
-10.131193 910.24243 1272.8053 4287117681
-6.7541285 910.24243 1272.8054 4291660994
-4.5027523 910.24243 1272.8054 4289899499
-2.2513762 909.38184 1272.0797 4290360563
0 910.24243 1272.8054 4290099947
-24.765137 912.82422 1274.9822 4287050855
-22.513762 912.82422 1274.9822 4287640938
-20.262384 912.82422 1274.9822 4288233076
-20.196331 916.43372 1272.7936 4287052399
-17.952293 916.43372 1272.7936 4287773558
0 916.43372 1272.7936 4289769955
-22.440367 918.14929 1274.2401 4286794372
-20.196331 918.14929 1274.2401 4286794372
-24.583487 923.9198 1272.5654 4284898440
-22.348623 923.9198 1272.5654 4284831871
-17.878899 923.9198 1272.5654 4286804643
0 923.9198 1272.5654 4289770731
-29.053211 925.62836 1274.0061 4283780216
-25.700916 925.62836 1274.0061 4283780211
-22.348623 925.62836 1274.0061 4283321180
-46.777981 932.60303 1274.6549 4283777106
-43.436699 932.60303 1274.6549 4282792287
-40.095413 932.60303 1274.6549 4282201432
-37.867889 932.60303 1274.6549 4281938516
-34.526604 932.60303 1274.6549 4282069593
-31.185322 932.60303 1274.6549 4282201432
-28.957798 932.60303 1274.6549 4282399067
-25.616514 932.60303 1274.6549 4282333020
-22.275229 931.75159 1273.937 4281348444
-20.047707 930.90015 1273.219 4282599283
-16.335167 931.46777 1273.6976 4285887924
-6.682569 931.75159 1273.937 4285362057
-2.2275229 931.75159 1273.937 4285755276
0 930.90015 1273.219 4289504159
20.047707 930.90015 1273.219 4290888937
-42.183487 936.99817 1273.1285 4282136670
-33.302753 937.8468 1273.8441 4281347921
-25.53211 937.8468 1273.8441 4282464603
-22.201836 936.99817 1273.1285 4281610842
-19.981651 936.99817 1273.1285 4282861166
-16.651375 936.14948 1272.413 4285690276
-13.321101 936.14948 1272.413 4285822123
-11.100918 936.14948 1272.413 4283453575
-7.7706423 936.14948 1272.413 4283718268
-4.4403667 936.14948 1272.413 4284111229
-2.2201834 936.99817 1273.1285 4283913083
0 936.99817 1273.1285 4284370539
-33.192661 944.75977 1274.4409 4284769673
-30.979816 944.75977 1274.4409 4284835468
-28.766972 944.75977 1274.4409 4285822363
-25.816513 943.63202 1273.4901 4283850121
-22.128441 943.06805 1273.0145 4281744744
-7.7449541 943.06805 1273.0145 4284310655
-4.4256883 943.06805 1273.0145 4284700294
-2.2128441 943.06805 1273.0145 4284371585
0 943.91394 1273.7278 4284239718
-30.851376 950.40546 1272.661 4279446630
-28.647707 950.40546 1272.661 4279248994
-26.444036 950.40546 1272.661 4280304226
-30.851376 952.09021 1274.0815 4286879440
-28.647707 952.09021 1274.0815 4285563580
-2.2036698 952.09021 1274.0815 4283847554
0 952.09021 1274.0815 4284173927
-30.748625 958.09204 1273.91 4289243372
-28.552294 958.09204 1273.91 4289638130
-4.3926606 958.09204 1273.91 4284443282
-2.1963303 958.93164 1274.6179 4283386471
-25.173393 962.39246 1272.3038 4289046243
-13.133945 962.39246 1272.3038 4291087359
-10.944954 962.39246 1272.3038 4291416063
-7.6614676 962.39246 1272.3038 4291742975
-24.078899 964.06598 1273.7148 4289047004
-21.889908 964.06598 1273.7148 4288783823
-13.133945 964.06598 1273.7148 4290823672
-10.944954 964.06598 1273.7148 4291416063
-8.7559633 964.06598 1273.7148 4291743743
-46.262386 761.23413 1277.9684 4287925434
-43.827522 759.37268 1276.3989 4287068842
7.3045874 759.37268 1276.3989 4291743999
9.7394495 759.37268 1276.3989 4291678207
13.391743 759.37268 1276.3989 4291744255
-49.688992 769.17896 1276.8191 4286278817
7.2715597 768.25244 1276.038 4291743999
9.6954126 768.25244 1276.038 4291678719
13.331193 768.25244 1276.038 4291678719
-52.921101 782.93982 1275.3417 4286346672
-50.515594 782.93982 1275.3417 4286346672
9.6220188 782.93982 1275.3417 4291283711
13.230275 782.93982 1275.3417 4291415039
-50.322937 791.14691 1275.7214 4287263649
-46.728439 791.14691 1275.7214 4287002535
-43.133945 791.14691 1275.7214 4287069366
4.7926607 791.14691 1275.7214 4290889215
9.5853214 791.14691 1275.7214 4291415807
-52.719265 792.97894 1277.2662 4287128173
-50.322937 792.97894 1277.2662 4287654517
-47.926605 792.97894 1277.2662 4287720084
-52.517429 799.31195 1276.0659 4286199155
-46.549541 799.31195 1276.0659 4286789493
-52.517429 801.13696 1277.6047 4286200940
-50.130276 801.13696 1277.6047 4286595442
-46.549541 801.13696 1277.6047 4286792309
-42.968807 801.13696 1277.6047 4287316854
-42.836697 805.99561 1276.4692 4287448439
-40.456882 805.99561 1276.4692 4287514489
-38.077065 805.08594 1275.7023 4288038524
2.3798165 805.08594 1275.7023 4291546623
4.7596331 805.99561 1276.4692 4291218175
7.1394496 805.99561 1276.4692 4291283711
10.709173 805.99561 1276.4692 4291414271
14.278899 805.99561 1276.4692 4291414271
16.658716 805.99561 1276.4692 4291677439
19.038532 805.99561 1276.4692 4291349247
21.418348 806.90527 1277.2363 4291348735
-45.042202 814.99036 1277.5132 4286659424
-42.671558 814.08417 1276.7491 4287314030
-37.930275 813.17798 1275.9851 4287508835
2.3706422 813.17798 1275.9851 4291020285
4.7412844 814.08417 1276.7491 4291086079
7.1119266 814.08417 1276.7491 4291349247
9.4825687 814.08417 1276.7491 4290823675
-42.50642 821.22803 1276.2325 4287317102
-40.144955 821.22803 1276.2325 4287448945
4.7229357 821.22803 1276.2325 4291086076
7.0844035 821.22803 1276.2325 4291152125
-42.50642 823.03333 1277.7548 4287186548
-40.144955 823.03333 1277.7548 4287318390
7.0844035 823.03333 1277.7548 4291151871
-42.341286 829.23596 1276.4443 4287052653
-39.988991 829.23596 1276.4443 4287710327
-37.636696 829.23596 1276.4443 4287643507
7.056881 829.23596 1276.4443 4291151871
9.409174 829.23596 1276.4443 4291217918
-42.341286 831.0343 1277.9607 4287117424
-39.988991 831.0343 1277.9607 4288038526
10.585321 831.0343 1277.9607 4291021053
14.113762 831.0343 1277.9607 4291087098
-39.833027 835.4104 1275.1105 4287840632
-37.48991 835.4104 1275.1105 4287775859
2.3431194 835.4104 1275.1105 4291086847
4.6862388 835.4104 1275.1105 4291218430
7.0293579 835.4104 1275.1105 4291218430
9.3724775 835.4104 1275.1105 4290758397
-42.176147 837.20172 1276.6208 4286983261
-39.833027 837.20172 1276.6208 4287246432
-37.48991 837.20172 1276.6208 4287573869
2.3431194 837.20172 1276.6208 4291218175
4.6862388 837.20172 1276.6208 4291218428
7.0293579 837.20172 1276.6208 4291218428
10.544037 837.20172 1276.6208 4291020543
18.744955 837.20172 1276.6208 4291218943
-39.708256 842.82983 1276.1342 4286784083
-37.372478 842.82983 1276.1342 4287307110
-35.036697 842.82983 1276.1342 4288359798
2.3357799 842.82983 1276.1342 4291283967
4.6715598 842.82983 1276.1342 4291218175
-42.044037 844.61554 1277.6399 4286851161
-39.708256 844.61554 1277.6399 4286785368
-37.372478 844.61554 1277.6399 4287242337
-35.036697 844.61554 1277.6399 4287834475
2.3357799 844.61554 1277.6399 4291349503
4.6715598 844.61554 1277.6399 4290889727
-39.552292 850.72266 1276.249 4287181673
-37.225689 850.72266 1276.249 4287509870
-34.899082 850.72266 1276.249 4287773042
-32.572475 850.72266 1276.249 4288364394
2.3266056 850.72266 1276.249 4291283711
-40.715595 852.50134 1277.7488 4287382384
-37.225689 852.50134 1277.7488 4287841150
-34.899082 852.50134 1277.7488 4288104321
2.3266056 852.50134 1277.7488 4291020799
4.6532111 852.50134 1277.7488 4288522745
-39.396332 859.45935 1277.0754 4287183720
-37.078899 859.45935 1277.0754 4287575409
2.3174312 858.57349 1276.3285 4282405291
4.6348624 858.57349 1276.3285 4280570725
6.9522934 860.34515 1277.8224 4283325598
10.42844 860.34515 1277.8224 4283847819
-39.271561 865.00049 1276.5154 4286654806
-36.961468 864.11743 1275.7709 4286979679
2.3100917 865.00049 1276.5154 4287009198
4.6201835 865.00049 1276.5154 4288912102
6.9302754 865.88348 1277.26 4289700580
-39.115597 871.8952 1275.7888 4286988916
2.3009174 871.8952 1275.7888 4283591829
4.6018348 871.8952 1275.7888 4284050852
-39.115597 873.6543 1277.272 4286858102
2.3009174 873.6543 1277.272 4286939575
4.6018348 873.6543 1277.272 4288517296
6.9027524 873.6543 1277.272 4290425293
-41.251377 880.50702 1276.5099 4286593895
-38.959633 879.63098 1275.7712 4286922860
6.8752294 880.50702 1276.5099 4286879931
9.1669722 881.38306 1277.2485 4281953464
-43.403671 886.83722 1276.6152 4286198369
-41.119267 885.96399 1275.8789 4286395744
4.5688071 885.09076 1275.1426 4287074797
6.8532109 885.96399 1275.8789 4288783853
9.1376143 885.96399 1275.8789 4287338726
-45.504585 892.75354 1275.0636 4285407572
-43.229359 892.75354 1275.0636 4285671001
2.2752295 892.75354 1275.0636 4290362858
4.5504589 892.75354 1275.0636 4290362860
6.8256879 892.75354 1275.0636 4290559982
9.1009178 892.75354 1275.0636 4290099951
-43.229359 895.36267 1277.2637 4285671511
-40.954128 896.23242 1277.9969 4286064725
6.8256879 895.36267 1277.2637 4290559728
10.238532 895.36267 1277.2637 4290427889
13.651376 896.23242 1277.9969 4290363121
15.926605 896.23242 1277.9969 4290297328
18.960245 895.65259 1277.5082 4290099435
-37.420181 899.89386 1275.8519 4286196061
-34.018349 899.89386 1275.8519 4286524257
-31.750458 899.89386 1275.8519 4286655329
2.26789 899.89386 1275.8519 4290297582
4.53578 899.89386 1275.8519 4290493678
6.8036699 899.89386 1275.8519 4290493678
-37.420181 901.62769 1277.3138 4286196823
-34.018349 901.62769 1277.3138 4286196311
-31.750458 901.62769 1277.3138 4286783831
2.26789 901.62769 1277.3138 4290297582
4.53578 901.62769 1277.3138 4290297068
6.8036699 901.62769 1277.3138 4290362862
9.0715599 901.62769 1277.3138 4290428405
19.277065 901.62769 1277.3138 4290362092
-28.256882 905.27222 1275.1548 4287376742
-24.866055 905.27222 1275.1548 4287574884
-22.605505 905.27222 1275.1548 4287574380
2.2605505 905.27222 1275.1548 4290165998
-36.168808 907.00043 1276.6119 4286196311
-31.647707 907.00043 1276.6119 4286721372
-28.256882 907.00043 1276.6119 4287247714
2.2605505 907.00043 1276.6119 4289969648
4.521101 907.00043 1276.6119 4289968878
-27.016514 914.54541 1276.4335 4285936996
-24.765137 914.54541 1276.4335 4285805410
-22.513762 914.54541 1276.4335 4286591849
2.2513762 914.54541 1276.4335 4289901540
4.5027523 914.54541 1276.4335 4289901288
20.262384 914.54541 1276.4335 4290692856
-27.016514 916.2666 1277.8848 4286470533
-24.765137 916.2666 1277.8848 4286273155
2.2513762 916.2666 1277.8848 4289901540
4.5027523 916.2666 1277.8848 4289769957
6.7541285 916.2666 1277.8848 4290098922
9.0055046 916.2666 1277.8848 4289968104
20.262384 916.2666 1277.8848 4290495222
-25.806423 919.86487 1275.6866 4286933151
-22.440367 919.86487 1275.6866 4286734237
2.2440367 919.86487 1275.6866 4289836513
-29.172478 921.58044 1277.1332 4284502905
-26.92844 921.58044 1277.1332 4284832647
2.2440367 921.58044 1277.1332 4289902574
4.4880733 921.58044 1277.1332 4290034410
20.196331 921.58044 1277.1332 4290428914
-46.93211 929.04553 1276.8873 4283976536
-43.579819 929.04553 1276.8873 4282925656
-40.227524 928.19122 1276.167 4282200403
-37.992661 929.04553 1276.8873 4282265943
-34.267887 928.47601 1276.4071 4281937497
-31.288073 929.04553 1276.8873 4281806422
-29.053211 928.19122 1276.167 4281938010
-25.700918 928.19122 1276.167 4282003802
-22.348623 927.33691 1275.4468 4281021007
2.2348623 928.19122 1276.167 4290162625
4.4697247 928.19122 1276.167 4290294234
7.4495411 928.47601 1276.4071 4290689250
17.133944 928.47601 1276.4071 4290626025
-46.777981 934.30603 1276.0908 4282660690
-44.550457 934.30603 1276.0908 4282530142
-40.095413 934.30603 1276.0908 4282135386
-37.867889 934.30603 1276.0908 4282135386
-34.526604 934.30603 1276.0908 4281742679
-31.185322 934.30603 1276.0908 4281874268
-28.957798 934.30603 1276.0908 4282071390
-25.616514 934.30603 1276.0908 4282398561
2.2275229 934.30603 1276.0908 4284042604
-49.005505 936.00897 1277.5266 4282071642
-46.777981 936.00897 1277.5266 4281479762
-44.550457 936.00897 1277.5266 4281874014
-40.095413 936.00897 1277.5266 4282265943
-37.867889 936.00897 1277.5266 4282265943
-35.640366 936.00897 1277.5266 4281610837
-31.185322 936.00897 1277.5266 4281676886
-28.957798 936.00897 1277.5266 4281940059
2.2275229 936.00897 1277.5266 4284895853
4.4550457 936.00897 1277.5266 4284370799
7.7963305 936.00897 1277.5266 4283845730
11.137614 936.00897 1277.5266 4287268496
16.706421 936.00897 1277.5266 4288717512
-46.623852 939.54419 1275.2753 4281742679
-42.183487 940.39282 1275.9908 4282336359
-39.963303 940.39282 1275.9908 4282271847
-37.743118 941.24152 1276.7064 4283457147
-33.302753 941.24152 1276.7064 4284115073
-31.082569 941.24152 1276.7064 4284310404
-28.862385 941.24152 1276.7064 4284178817
-25.53211 939.54419 1275.2753 4281283673
-22.201836 939.54419 1275.2753 4280954712
-2.2201834 939.54419 1275.2753 4284371585
1.1100917 940.39282 1275.9908 4284437351
4.4403667 941.24152 1276.7064 4284568685
7.7706423 940.39282 1275.9908 4284108649
11.100918 940.39282 1275.9908 4285293434
13.321101 941.24152 1276.7064 4284174190
16.651375 941.24152 1276.7064 4284766074
-39.831192 946.45154 1275.8673 4280756829
-37.618347 946.45154 1275.8673 4281480553
-33.192661 946.45154 1275.8673 4282135918
-2.2128441 946.45154 1275.8673 4283977588
0 946.45154 1275.8673 4283845478
-39.831192 948.14331 1277.2938 4280494691
-33.192661 948.14331 1277.2938 4280691052
-2.2128441 948.14331 1277.2938 4283912566
1.1064221 948.14331 1277.2938 4284107886
-37.462387 953.7749 1275.5021 4288454583
-30.851376 953.7749 1275.5021 4289245421
-2.2036698 953.7749 1275.5021 4283453311
2.2036698 953.7749 1275.5021 4284632163
-33.055046 955.45966 1276.9226 4289308888
-2.2036698 955.45966 1276.9226 4282210187
1.1018349 955.45966 1276.9226 4284369505
6.6110091 955.45966 1276.9226 4284108134
-43.926605 962.28986 1277.4495 4289047000
-30.748625 961.45032 1276.7416 4288980702
-28.552294 961.45032 1276.7416 4288849372
-26.355963 962.28986 1277.4495 4288783575
-6.5889907 962.28986 1277.4495 4291480319
-4.3926606 961.45032 1276.7416 4290162671
-2.1963303 961.45032 1276.7416 4283122819
4.3926606 962.28986 1277.4495 4284106337
6.5889907 961.45032 1276.7416 4284303201
-21.889908 965.7395 1275.126 4288848337
-19.700918 965.7395 1275.126 4288848337
-16.417431 965.7395 1275.126 4288586453
-13.133945 965.7395 1275.126 4288586460
-19.700918 967.41296 1276.537 4288586199
-16.417431 967.41296 1276.537 4288323792
-46.436699 754.737 1279.0303 4287460008
9.7761469 754.737 1279.0303 4291743999
13.442202 754.737 1279.0303 4291743999
-48.880733 756.60547 1280.6058 4286409635
-46.436699 756.60547 1280.6058 4286672551
-48.697247 763.09564 1279.538 4287004332
-57.732109 788.45691 1279.9935 4284949588
-55.326607 787.53735 1279.2183 4287517054
-52.921101 787.53735 1279.2183 4286672030
-57.511925 794.81097 1278.8109 4285935453
-55.115597 794.81097 1278.8109 4286658920
-52.719265 794.81097 1278.8109 4286332008
-50.322937 794.81097 1278.8109 4286332008
-57.511925 796.64294 1280.3556 4285673310
-55.115597 796.64294 1280.3556 4286068068
-50.322937 796.64294 1280.3556 4286199155
-52.517429 802.96198 1279.1434 4286265448
-50.130276 802.96198 1279.1434 4286594412
-46.549541 802.96198 1279.1434 4286922862
-52.517429 804.78699 1280.6823 4286265186
-46.549541 804.78699 1280.6823 4286922864
-45.216515 808.72467 1278.7704 4286789223
7.1394496 808.72467 1278.7704 4291217663
10.709174 808.72467 1278.7704 4291282943
14.278899 808.72467 1278.7704 4291348479
16.658716 808.72467 1278.7704 4291348479
19.038532 808.72467 1278.7704 4291217663
-46.406422 810.54407 1280.3044 4286788959
11.899082 810.54407 1280.3044 4291086847
14.278899 810.54407 1280.3044 4291218175
16.658716 810.54407 1280.3044 4291086847
19.038532 810.54407 1280.3044 4290955007
-45.832417 818.01099 1280.0602 4286662245
-42.671558 816.80273 1279.0414 4287120754
7.1119266 816.80273 1279.0414 4291152125
10.272783 818.01099 1280.0602 4290823929
-47.229359 824.83875 1279.277 4286725987
-43.687157 824.83875 1279.277 4287054187
7.0844035 824.83875 1279.277 4291085823
9.4458714 824.83875 1279.277 4291152125
-47.229359 826.6441 1280.7992 4286791010
-44.867889 826.6441 1280.7992 4286791010
11.80734 826.6441 1280.7992 4291217918
14.168807 826.6441 1280.7992 4291087100
16.530275 826.6441 1280.7992 4291218430
-43.517433 832.83264 1279.4771 4286984805
11.761468 832.83264 1279.4771 4291021567
14.113762 832.83264 1279.4771 4291284223
16.466055 832.83264 1279.4771 4291284223
-47.045872 834.63098 1280.9934 4286128729
-44.693577 834.63098 1280.9934 4286392157
14.113762 834.63098 1280.9934 4291350270
16.466055 834.63098 1280.9934 4291350270
-42.176147 838.99304 1278.1312 4286914903
-39.833027 838.99304 1278.1312 4286914903
-37.48991 838.99304 1278.1312 4287175009
2.3431194 838.99304 1278.1312 4291153151
4.6862388 838.99304 1278.1312 4291284223
7.0293579 838.99304 1278.1312 4291218430
10.544037 838.99304 1278.1312 4291217148
14.058716 838.99304 1278.1312 4291480831
16.401834 838.99304 1278.1312 4291546623
18.744955 838.99304 1278.1312 4291218943
-43.347706 840.78436 1279.6416 4286786137
7.0293579 840.78436 1279.6416 4291283967
10.544037 840.78436 1279.6416 4291350270
14.058716 840.78436 1279.6416 4291415807
16.401834 840.78436 1279.6416 4291547647
18.744955 840.78436 1279.6416 4291350527
-46.715595 848.18701 1280.6511 4286458977
-42.822632 847.5918 1280.1493 4286654561
2.3357799 846.40125 1279.1455 4291678456
4.6715598 847.29413 1279.8983 4291349503
7.0073395 847.29413 1279.8983 4290099179
10.511009 847.29419 1279.8983 4290164454
-44.205505 854.28009 1279.2485 4286793329
-41.878899 854.28009 1279.2485 4286529387
6.9798164 854.28009 1279.2485 4280895370
9.3064222 854.28009 1279.2485 4281025394
-44.205505 856.05878 1280.7483 4286989168
-41.878899 856.05878 1280.7483 4287185005
6.9798164 856.05878 1280.7483 4280307810
10.469725 856.05878 1280.7483 4282012293
-41.71376 863.00269 1280.0631 4286457427
6.9522934 862.11688 1279.3162 4287202522
10.42844 863.00275 1280.0631 4285559719
-39.271561 867.6496 1278.7491 4287247725
4.6201835 867.6496 1278.7491 4287928014
6.9302754 868.53259 1279.4937 4289443822
10.395412 868.53259 1279.4937 4288520894
-41.416515 875.41333 1278.7551 4286924404
6.9027524 875.41333 1278.7551 4291540692
9.2036695 875.41333 1278.7551 4290756332
10.354128 877.17242 1280.2384 4285100978
13.805505 877.17242 1280.2384 4282604160
11.458715 884.01117 1279.4645 4286812382
13.750459 884.01117 1279.4645 4286353347
16.042202 884.01117 1279.4645 4286616518
18.333944 884.88721 1280.2031 4287014887
-45.688072 888.58368 1278.0878 4285737818
-43.403671 888.58368 1278.0878 4285869660
6.8532109 888.58368 1278.0878 4291217907
10.66055 889.16583 1278.5786 4290560499
13.706422 890.33014 1279.5603 4290363123
15.990826 890.33014 1279.5603 4290428916
18.275229 890.33014 1279.5603 4290494459
-43.229359 898.84155 1280.1969 4285606740
-40.954128 898.84155 1280.1969 4285868118
10.617737 898.5517 1279.9525 4290296819
13.651376 898.84155 1280.1969 4290033648
15.926605 898.84155 1280.1969 4290230770
19.339451 897.97186 1279.4636 4290165233
-37.798161 903.93945 1279.2631 4286064983
-34.018349 904.22839 1279.5067 4286327127
-31.750458 903.36151 1278.7758 4286784098
4.53578 903.36151 1278.7758 4290165998
6.8036699 904.22839 1279.5067 4290034670
10.205505 904.22845 1279.5067 4290099439
20.411009 905.09534 1280.2377 4290692858
22.6789 903.36151 1278.7758 4290626549
-33.908257 908.72864 1278.0691 4286262617
-31.647707 908.72864 1278.0691 4286655579
-28.256882 908.72864 1278.0691 4286983774
2.2605505 908.72864 1278.0691 4290493676
4.521101 908.72864 1278.0691 4290230506
6.7816515 908.72864 1278.0691 4290230506
-31.647707 910.45685 1279.5264 4286524759
-28.256882 910.45685 1279.5264 4286853471
2.2605505 910.45685 1279.5264 4290098409
4.521101 910.45685 1279.5264 4290163177
6.7816515 910.45685 1279.5264 4290229227
20.344954 910.45685 1279.5264 4290626811
-36.168808 912.18506 1280.9835 4284690266
-33.908257 912.18506 1280.9835 4284690266
-31.647707 912.18506 1280.9835 4285609301
-29.387156 912.18506 1280.9835 4285806936
6.7816515 912.18506 1280.9835 4289967081
9.042202 912.18506 1280.9835 4290033129
18.084404 912.18506 1280.9835 4290495476
4.5027523 917.98779 1279.3361 4289968102
6.7541285 917.98779 1279.3361 4290165480
9.0055046 917.98779 1279.3361 4290034410
20.262384 917.98779 1279.3361 4290560756
-42.776146 919.70905 1280.7874 4282067533
-40.524769 919.70905 1280.7874 4282200400
-37.147705 919.70905 1280.7874 4283252831
-33.770641 919.70905 1280.7874 4284107882
-31.519266 919.70905 1280.7874 4283910769
6.7541285 919.70905 1280.7874 4290100203
9.0055046 919.70905 1280.7874 4290034923
13.508257 919.70905 1280.7874 4290363373
18.011009 919.70905 1280.7874 4290034412
-42.636696 923.29602 1278.5797 4281870933
-40.392662 923.29602 1278.5797 4281936199
-38.148624 923.29602 1278.5797 4282923094
-34.78257 923.29602 1278.5797 4283452001
-31.416513 923.29602 1278.5797 4283780216
2.2440367 923.29602 1278.5797 4290820594
4.4880733 923.29602 1278.5797 4290493162
6.73211 923.29602 1278.5797 4290493162
17.952293 923.29602 1278.5797 4290166250
-42.636696 925.0116 1280.0262 4282201943
-38.148624 925.0116 1280.0262 4282200400
-35.904587 925.0116 1280.0262 4282134105
-31.416513 925.0116 1280.0262 4281938012
8.9761467 925.0116 1280.0262 4290033129
11.220183 925.0116 1280.0262 4290493680
13.46422 925.0116 1280.0262 4290100455
15.708257 925.0116 1280.0262 4290363371
-49.166973 931.6084 1279.0483 4283383124
2.2348623 930.75409 1278.328 4283649645
4.4697247 931.6084 1279.0483 4284237683
7.8220177 931.6084 1279.0483 4285225861
11.174312 931.6084 1279.0483 4287266729
13.409174 931.6084 1279.0483 4288252355
16.761467 931.6084 1279.0483 4290226904
20.113762 931.6084 1279.0483 4290754263
-51.233028 937.71198 1278.9625 4282728028
-49.005505 937.71198 1278.9625 4282203230
-44.550457 937.71198 1278.9625 4281744224
-37.867889 937.71198 1278.9625 4281415511
-34.526604 937.71198 1278.9625 4281481304
-31.185322 937.71198 1278.9625 4281285208
-28.957798 937.71198 1278.9625 4281219415
2.2275229 937.71198 1278.9625 4284503144
4.4550457 937.71198 1278.9625 4284502642
13.365138 937.71198 1278.9625 4287728786
15.592661 937.71198 1278.9625 4288912804
-51.233028 939.41492 1280.3984 4282402658
-49.005505 939.41492 1280.3984 4282665317
-46.777981 939.41492 1280.3984 4282994025
-44.550457 939.41492 1280.3984 4282994800
-35.640366 939.41492 1280.3984 4283983743
-51.06422 942.93884 1278.1376 4283123549
-46.623852 942.93884 1278.1376 4283321964
-42.183487 943.78754 1278.8531 4282597987
-39.963303 942.93884 1278.1376 4283651962
-37.743118 942.93884 1278.1376 4284178306
-35.522934 944.63623 1279.5687 4281806953
-2.2201834 942.93884 1278.1376 4284371835
2.2201834 943.78754 1278.8531 4284239977
4.4403667 943.78754 1278.8531 4284239975
7.7706423 943.7876 1278.8531 4284174440
11.100918 943.78754 1278.8531 4284043112
13.321101 943.78754 1278.8531 4284042593
16.281343 943.50464 1278.6146 4284108386
-37.743118 946.33356 1280.9999 4280494691
-35.522934 946.33356 1280.9999 4280822639
7.7706423 946.33356 1280.9999 4284173927
11.100918 946.33356 1280.9999 4284108134
13.321101 946.33356 1280.9999 4284108134
16.651375 946.33356 1280.9999 4284305510
-37.618347 949.83502 1278.7202 4286812602
2.2128441 949.83502 1278.7202 4284173927
7.7449541 949.83502 1278.7202 4284304741
11.06422 949.83502 1278.7202 4284174179
-39.831192 951.52673 1280.1466 4288191411
-34.299084 951.52673 1280.1466 4289442012
4.4256883 951.52673 1280.1466 4284108134
7.7449541 951.52673 1280.1466 4284108132
11.06422 951.52673 1280.1466 4284042593
-40.767891 958.8291 1279.7635 4289113303
-37.462387 957.98669 1279.0532 4288915412
-34.156883 957.98669 1279.0532 4288981196
1.1018349 957.98669 1279.0532 4284038491
8.8146791 957.98669 1279.0532 4283976800
-30.748625 963.96899 1278.8652 4288981722
-28.552294 964.80853 1279.5731 4289047513
-24.891745 964.52863 1279.3372 4288783575
-21.963303 965.64807 1280.281 4288783321
-13.177981 965.64807 1280.281 4288389330
-10.981651 964.80853 1279.5731 4288849885
-7.6871562 964.80847 1279.5731 4289705453
-4.3926606 964.80853 1279.5731 4290492926
-2.1963303 964.80853 1279.5731 4284637350
4.3926606 963.96899 1278.8652 4283844957
7.3211007 964.52863 1279.3372 4284106844
-48.880733 758.474 1282.1813 4287004332
-51.324772 760.34247 1283.7567 4287397797
-51.132111 764.95709 1281.1075 4286410137
-56.001835 766.8186 1282.6771 4286471303
-53.566971 766.8186 1282.6771 4286475928
-57.732109 790.2959 1281.5442 4285541209
-55.326607 790.2959 1281.5442 4287186034
-58.710091 799.39099 1282.6726 4285673054
-55.115597 799.39099 1282.6726 4286002020
-52.517429 806.61194 1282.2211 4286265686
-50.130276 806.61194 1282.2211 4286397016
-47.743118 806.61194 1282.2211 4286526307
21.484404 806.61194 1282.2211 4291217663
-54.904587 808.43701 1283.7599 4285867612
