# .PCD v0.7 - Point Cloud Data file format
VERSION 0.7
FIELDS x y z rgb
SIZE 4 4 4 4
TYPE F F F U
COUNT 1 1 1 1
WIDTH 1171
HEIGHT 1
VIEWPOINT 0 0 0 1 0 0 0
POINTS 1171
DATA ascii
19.677982 910.61139 790.45343 4292153647
22.800919 911.29108 789.71851 4292545072
25.945873 911.29108 789.71851 4292608055
29.090824 911.29108 789.71851 4293935984
31.449541 911.29108 789.71851 4294148522
33.808258 911.29108 789.71851 4294690270
36.953209 911.29108 789.71851 4294963446
40.098167 911.29108 789.71851 4294701298
43.344036 909.9317 791.18835 4294898934
17.297247 913.69543 791.74573 4291040044
19.655964 913.09436 791.23889 4292152621
23.062998 912.89404 791.07001 4292678968
25.945871 913.09436 791.23889 4292415291
29.090824 912.49329 790.73206 4293869932
32.197247 913.17151 789.99597 4294416067
34.51376 913.84979 789.25989 4294694370
36.911011 913.17151 789.99597 4294897656
40.098167 912.49329 790.73206 4294701558
43.243118 913.09436 791.23889 4294767350
20.394495 916.24854 791.28247 4292416566
22.486238 915.84869 790.94531 4292546356
25.885323 916.24854 791.28247 4292482628
29.022936 915.6488 790.77679 4293671270
32.160549 915.6488 790.77679 4294283448
34.981655 916.74933 789.96063 4294563301
37.099079 915.89923 790.11591 4294963963
40.004585 915.6488 790.77679 4294833144
42.3578 916.24854 791.28247 4294898422
22.694496 919.99261 791.82324 4292415019
25.824772 919.39429 791.31885 4293070407
29.737616 918.79602 790.81433 4294918255
32.867889 919.39429 791.31879 4294935473
35.476456 919.19489 791.15063 4294696428
37.563301 919.39429 791.31879 4294965755
39.911011 919.39435 791.31879 4294767347
22.613762 923.203 790.60608 4292283434
25.703671 923.87421 789.86401 4293464907
28.853212 922.60608 790.10278 4293666119
31.699694 923.02881 790.02319 4293413480
34.817738 923.02881 790.02319 4294295782
38.166054 923.87421 789.86401 4294899704
40.50275 923.87421 789.86401 4294701556
19.732109 925.85913 791.5376 4292283698
22.588074 925.06519 790.86816 4292349740
25.703671 925.06519 790.86816 4293464139
28.784405 925.73505 790.12494 4293863497
31.934862 925.06519 790.86816 4293544803
35.050461 925.06519 790.86816 4294163936
38.076149 926.40491 789.38171 4294767861
40.407341 926.40491 789.38171 4294569968
42.839447 925.06519 790.86816 4294504176
46.733944 926.2561 791.87231 4294701806
20.203671 928.78119 791.38538 4291958064
21.757797 928.18713 790.88446 4292545073
25.64312 927.59308 790.38354 4293267781
27.974312 927.59308 790.38354 4293203527
31.859632 927.59308 790.38354 4293609567
34.967888 927.59308 790.38354 4293703385
41.961468 927.59308 790.38354 4294767604
43.515594 927.59308 790.38354 4294635763
45.846786 928.18713 790.88446 4294701810
48.177982 928.78119 791.38538 4294701808
21.706423 931.89331 791.39343 4291757607
25.552294 931.37366 789.64722 4293334849
28.649542 931.37366 789.64722 4294125127
31.746788 931.37366 789.64722 4293539936
34.865139 931.04077 790.02057 4293305801
37.122936 932.63196 789.40015 4294965759
41.763302 932.63196 789.40015 4294833395
44.162388 931.04089 790.02063 4294569970
46.51376 931.89331 791.39343 4294701297
48.06422 932.48602 791.89319 4294964213
29.38899 934.40576 790.89575 4294322523
30.93578 933.81445 790.39722 4293341012
34.80275 934.40576 790.89575 4293170874
37.122936 934.40576 790.89575 4294966271
44.85688 934.40576 790.89575 4294832370
46.403671 934.99701 791.39429 4294898422
23.119267 937.57477 789.64362 4290404976
25.431194 937.57477 789.64368 4289801294
27.74312 937.57477 789.64362 4292285756
31.85321 937.37842 789.47803 4293207881
38.532108 937.57477 789.64362 4294898422
40.844036 937.57483 789.64362 4294833140
43.155964 936.9856 789.14685 4294963700
23.119267 939.34229 791.13391 4291277758
25.431194 939.34229 791.13391 4289751739
32.366974 939.34229 791.13391 4292422979
38.532108 939.34229 791.13391 4294964473
40.844036 939.34229 791.13391 4294898420
43.926605 939.34229 791.13391 4294898422
23.06422 943.01337 791.61328 4281073670
25.370644 943.01337 791.61328 4288905505
39.977982 943.01337 791.61328 4294964986
36.638531 950.45807 790.04236 4293512923
39.787155 949.15204 791.55713 4294965755
32.058716 951.62518 791.02637 4285940019
35.111927 951.62518 791.02637 4293113343
37.401833 951.62518 791.02637 4293977058
40.455048 951.62518 791.02637 4294899190
44.271561 951.62518 791.02637 4294701558
28.13945 955.90588 790.71167 4291071051
38.027523 955.32373 790.22083 4294965759
40.309174 955.32373 790.22083 4294898932
43.149845 954.86896 791.14545 4294832626
46.703365 954.86896 791.14545 4294767605
49.495415 954.67493 790.98181 4294701298
51.779816 955.25702 791.47266 4294831863
28.866055 957.71619 790.93005 4292186690
31.866055 958.94434 790.65759 4290217073
34.100918 959.01099 789.40576 4289299812
37.132111 959.01099 789.40576 4293581290
40.163303 959.01099 789.40576 4294963961
43.29908 958.297 791.4198 4294831858
46.337612 958.297 791.4198 4294635250
49.376144 958.297 791.4198 4294766580
52.161469 958.10333 791.25653 4294767094
30.311926 960.16968 790.38269 4289957233
34.100918 960.16968 790.38269 4287726186
37.132111 960.16968 790.38269 4292659947
40.163303 960.16968 790.38269 4294898938
-7.0678897 752.11389 794.15558 4288115052
-5.3009176 750.08752 792.44702 4289295716
55.365131 750.9881 793.20636 4294633970
-5.2844038 755.09766 792.74731 4287587940
-7.0458717 756.44434 793.88281 4283174162
-7.901835 761.43335 794.16541 4282717979
-5.26789 760.09094 793.03345 4283041298
-7.0091743 764.30353 793.96936 4282521381
-5.2568808 763.63367 793.40454 4282717728
-10.480734 767.93054 793.10339 4281998617
-8.7339449 767.93054 793.10339 4281998617
-5.2403669 767.93054 793.10339 4282194463
55.023853 767.93054 793.10339 4294503412
57.644035 767.93054 793.10339 4294898170
-10.458715 770.78809 792.89673 4281932324
-7.8513761 770.02698 793.56305 4281998117
-4.3577981 770.78809 792.89673 4282326565
52.293579 770.78809 792.89673 4294765814
54.966972 770.02698 793.56305 4294568691
57.644035 769.26593 794.22937 4294964475
-12.201835 772.12073 794.02039 4281738525
-10.458715 772.12073 794.02039 4281411107
-7.8440366 772.12073 794.02039 4281345317
-5.2293577 772.12073 794.02039 4281016099
54.908257 772.12073 794.02039 4294634227
-3.4752293 775.06384 792.57788 4281147171
52.997246 775.06384 792.57788 4294897914
-4.338532 778.19171 793.25323 4281142036
55.427525 779.32697 792.24841 4294898940
-4.3266053 782.06873 793.25208 4283905333
55.310093 782.16205 792.02271 4294964731
57.159634 780.65118 793.36499 4294964731
-4.0330276 784.36444 793.8797 4287198578
58.190826 783.92389 793.5083 4294767350
-4.3073397 788.37994 793.34143 4285558904
56.282574 787.50177 792.60107 4294963964
58.579815 788.37994 793.34143 4294964220
60.302753 788.37994 793.34143 4294963963
-4.3036699 790.44696 793.77625 4282992467
55.936699 790.44696 793.77625 4294963707
58.579815 789.69714 794.45203 4294964735
60.302753 789.69714 794.45203 4294963967
-4.2844038 794.75647 792.17773 4278453771
53.126606 794.75647 792.17773 4294964220
54.840366 794.75647 792.17773 4294963964
-8.5688076 796.06665 793.28247 4280221952
54.840366 796.06665 793.28247 4294898170
-7.4103971 799.30377 793.396 4285547314
53.012844 798.86798 793.02856 4294898940
54.722935 799.52173 793.57971 4294767609
-4.2614679 803.05957 792.63867 4286870641
-1.7045871 803.05957 792.63867 4286675563
1.7045871 803.05957 792.63867 4286612344
-4.2614679 805.01434 794.28687 4288120720
-1.7045871 805.01434 794.28687 4287266436
0.85045874 806.49719 792.92114 4284768376
3.401835 806.49719 792.92114 4283321421
54.429359 806.49719 792.92114 4294899453
-1.7009175 807.79755 794.01758 4289239447
0.85045874 807.79755 794.01758 4289831330
0.84770644 811.96179 793.60455 4290802549
3.3908257 811.31372 793.05811 4292190388
55.948624 811.31372 793.05811 4294964733
3.9474003 814.51538 793.14166 4291054689
55.263611 814.51538 793.14166 4294701819
0.84587157 816.67096 794.95923 4290264127
4.2155962 818.87415 792.89282 4290915400
53.959633 818.87415 792.89282 4294569718
55.827522 816.67096 794.95923 4294964733
57.519264 816.67096 794.95923 4294965501
1.6862385 820.16327 793.97974 4290262844
4.2100916 820.89624 793.28973 4290849100
53.842201 821.62927 792.59973 4294767352
55.64587 820.16327 793.97974 4294898938
0.84128439 824.20197 794.76892 4290256700
3.3651376 822.91565 793.68433 4290649413
53.842201 822.91565 793.68433 4294701304
55.524769 823.55884 794.22662 4294832889
1.6770642 827.67462 793.77295 4290717768
3.3541284 826.39252 792.69189 4290781000
53.107037 826.81989 793.05225 4294833144
55.343121 827.67462 793.77295 4294964985
0.83669722 829.68414 794.1593 4290257215
3.3467889 829.77185 792.92523 4290913350
52.433025 829.98505 793.10498 4294898680
55.343121 828.95679 794.854 4294964985
0.83669722 831.6908 794.54321 4289863225
4.1697249 833.86871 792.45557 4291311940
52.626602 832.77979 793.49939 4294832374
55.222019 831.6908 794.54321 4294964470
0.83394498 836.41895 794.60583 4289869122
4.1697249 835.14386 793.53064 4291247947
6.6568809 836.59302 792.13647 4292037195
52.538532 835.14386 793.53064 4294833146
55.040367 836.41895 794.60583 4294833399
3.8831806 838.28937 793.56683 4291053380
52.700306 838.28937 793.56683 4294833401
54.919266 839.13763 794.28198 4294701558
4.4281344 841.42749 793.59686 4290590777
6.6422019 840.58118 792.88318 4291639368
51.477066 840.58118 792.88318 4294898938
54.798164 841.85065 793.95361 4294898170
4.9651375 845.27704 792.91846 4290654792
6.6201835 845.27704 792.91846 4291111746
52.133945 845.27704 792.91846 4294898939
54.616512 845.27704 792.91846 4294965501
4.9651375 846.54236 793.98535 4291177806
7.4311924 847.97742 792.57935 4290849600
49.541283 847.97742 792.57935 4294833147
52.077065 847.25989 793.28235 4294635768
54.616512 846.54236 793.98535 4294767354
4.4036698 850.08154 794.35352 4290324286
7.4183488 850.94397 793.11859 4290781491
47.783485 850.67224 792.23547 4294833399
49.486237 850.58594 793.4707 4294898937
52.018349 849.87115 794.17615 4294701559
54.495415 850.50238 794.70837 4294963963
4.943119 853.19159 794.35974 4289930038
7.4146786 853.19159 794.35974 4290451255
49.431194 853.19159 794.35974 4294899192
51.078899 853.19159 794.35974 4294833399
4.9266057 857.84259 794.3573 4289989921
7.3899078 857.84259 794.3573 4290447907
10.263762 856.27325 793.03406 4290711337
50.360859 857.00562 793.65155 4294832121
54.192661 857.84259 794.3573 4294898170
7.3733945 860.51642 793.99573 4290183439
10.923547 860.09888 793.64362 4290512667
13.108257 859.89008 793.46759 4291166489
47.517429 859.26373 792.93945 4294833399
49.975227 859.89008 793.46759 4294832379
13.89633 862.55963 793.10236 4291035144
49.863304 862.55963 793.10236 4294766837
53.133026 864.43445 794.68311 4294897655
7.3321099 869.04474 794.64636 4291395240
52.895412 868.50403 792.88245 4294832629
55.398167 869.04474 794.64636 4294569716
4.8770642 871.69458 794.26465 4289355347
53.647705 871.07318 793.74072 4294767351
4.866055 874.95898 794.40094 4286907928
7.0287461 873.51221 793.18115 4291320172
10.543119 873.09888 792.83264 4294090924
50.28257 873.09888 792.83264 4294635511
52.445263 873.9256 793.5296 4294767093
55.959633 875.57898 794.92371 4294701557
4.8495412 878.91278 793.81067 4283498496
7.0048928 878.08887 793.11603 4287627784
52.536697 878.29486 793.28967 4294766070
4.8495412 880.14862 794.85266 4283826176
7.2577982 880.92517 792.89142 4286316544
49.998165 880.92517 792.89142 4294964730
52.417431 881.54169 793.41125 4294898170
55.769722 880.14862 794.85266 4294898168
4.838532 882.77472 794.45093 4290805049
7.2486238 883.46985 793.72894 4287918663
49.884403 884.16492 793.00696 4294833399
52.417431 882.77472 794.45093 4294503923
8.0458717 885.39514 794.04431 4290348321
9.6330271 886.78253 792.59814 4289825599
44.151375 886.78253 792.59814 4294897910
46.559631 886.78253 792.59814 4294964215
49.024773 886.08887 793.32123 4294767350
8.027523 888.62366 794.15051 4293176610
9.6330271 888.62366 794.15051 4291012407
46.559631 888.00995 793.63306 4294701556
48.967888 888.62366 794.15051 4294767099
51.376148 889.23737 794.66797 4294963961
8 893.75653 794.55432 4288317440
10.666667 892.53339 793.52295 4289040689
13.584404 892.61121 792.28064 4287001096
15.963303 893.91235 792.06958 4288644403
44.748623 892.61121 792.28058 4294701810
46.400002 891.92175 793.00726 4294636016
48.799999 893.1449 794.03864 4294766584
51.200001 893.75653 794.55432 4294963959
11.174312 895.74292 793.61304 4291671882
12.770642 895.13275 793.09851 4290948893
47.091743 895.74292 793.61304 4294897654
13.272171 898.13239 793.01172 4290878035
46.983486 898.94415 793.69617 4294963960
11.122936 902.13696 793.77216 4286975758
13.506422 901.52954 793.26001 4289207307
15.889908 900.3147 792.23572 4291466752
41.313763 900.3147 792.23572 4294964727
43.69725 900.3147 792.23572 4294964471
47.14006 901.93451 793.60138 4294832631
50.111008 901.45306 794.50354 4294766836
52.497246 901.453 794.5036 4294964986
13.73945 904.9173 793.50049 4289790473
16.381651 904.51337 793.15985 4290906396
44.388992 904.10931 792.81921 4294767350
46.50275 904.9173 793.50049 4294899194
11.097248 906.53326 794.86304 4282122301
13.458715 907.21301 794.12811 4287693057
16.60734 907.28809 792.88342 4291299882
18.979816 906.68347 792.37366 4292156209
43.495415 906.68347 792.37366 4294898679
46.71376 907.21301 794.12811 4294898939
49.937614 906.53326 794.86304 4294635513
13.444036 909.10187 794.41272 4285082136
16.549541 911.13672 792.20435 4290381094
46.578899 910.11926 793.30853 4294767352
11.033028 913.54663 794.23645 4293573869
13.659939 913.14502 793.89777 4286469732
16.261162 914.04565 792.91309 4288939271
18.869724 914.89764 792.7594 4291495464
44.029358 914.89764 792.7594 4294767350
46.469723 913.28186 793.35913 4294767351
49.648624 913.54663 794.23645 4294898680
11.007339 917.30194 794.78662 4290354044
13.628135 916.90118 794.44873 4288911313
16.24893 916.50049 794.1109 4288686115
19.632111 916.7738 793.03339 4291954989
22.747707 917.44788 792.2937 4292544820
28.238533 917.44788 792.2937 4292678467
31.376146 917.44788 792.2937 4292889733
43.142204 917.44788 792.2937 4294833142
46.614681 916.94989 793.61786 4294701813
49.270947 916.90118 794.44873 4294766838
52.677982 917.30194 794.78662 4294963706
14.119267 919.84662 794.31628 4290422713
16.733944 919.44684 793.97919 4286918501
19.610092 918.64728 793.30505 4291954976
43.142204 918.64728 793.30505 4294767605
46.279816 919.24695 793.81067 4294767349
49.417431 919.84662 794.31628 4294832888
14.086239 923.58228 794.84998 4288838325
16.433945 922.38574 793.84106 4287113295
19.288687 922.03461 792.67303 4291757589
43.041283 921.18915 792.83215 4294767350
45.875233 922.43341 793.00928 4294767349
49.301834 922.98401 794.34552 4294767349
51.64954 923.58228 794.84998 4294767352
14.053211 926.11298 794.3678 4285217403
16.395412 924.91925 793.36121 4288808228
48.405506 924.91925 793.36121 4294767856
51.528439 926.11298 794.3678 4294833399
14.020184 929.82898 794.88489 4289164144
16.35688 928.04254 793.37866 4288677393
19.182264 929.1286 792.55029 4291039524
49.292358 928.68481 793.04816 4294767092
52.186241 929.23352 794.38281 4294898422
54.522934 929.82898 794.88489 4294897908
16.318348 931.75159 793.88995 4289096572
19.426607 931.75159 793.89001 4287700083
49.732109 931.15747 793.38904 4294831859
52.063301 932.34564 794.39087 4294832373
54.394497 932.34564 794.39087 4294964216
21.706423 934.26404 793.39233 4290339439
46.51376 934.85669 793.89209 4294766836
48.839447 934.26398 793.39233 4294767093
21.680735 937.29333 794.63849 4284962684
29.38899 936.77081 792.88989 4292163901
31.322475 937.65771 793.6377 4292163657
34.80275 937.36206 793.38843 4292966801
37.122936 937.36206 793.38843 4294966015
44.083488 936.17957 792.39136 4294963702
47.43486 937.75629 793.72076 4294832375
49.49725 937.95337 793.88696 4294898422
51.165138 936.04199 794.89148 4294965243
22.348625 941.10974 792.62433 4281472056
24.660551 940.52057 792.12756 4289623705
35.449543 941.69891 793.12109 4294947506
38.018345 941.30615 792.78986 4294964982
41.100918 940.91333 792.45874 4294833143
43.926605 941.10974 792.62433 4294832886
46.752293 941.30615 792.78986 4294897656
19.266056 942.87726 794.11462 4289886600
22.295414 944.18884 792.60449 4285351183
25.370644 944.18884 792.60449 4283900160
38.532108 942.87726 794.11462 4294962941
40.844036 942.87726 794.11462 4294832114
43.875229 943.53308 793.35956 4294897395
47.009174 942.87726 794.11462 4294765553
49.321102 942.87726 794.11462 4294503149
22.281651 946.27869 793.71252 4289100342
24.543119 947.84601 793.07202 4288637772
35.365139 945.36438 793.5957 4293967326
37.625687 946.60522 793.33386 4294764789
40.970032 946.19159 793.42114 4294964470
43.769722 946.60516 793.33386 4294701299
46.869728 946.27869 793.71252 4294767606
49.972477 946.53992 794.58679 4294701811
22.21468 949.67029 793.30219 4291201067
25.2789 949.67029 793.30219 4288637007
30.605505 950.32196 792.54358 4284295450
42.847706 950.32196 792.54358 4294569716
46.730274 949.67029 793.30219 4294701558
49.086239 949.01868 794.06079 4294635761
19.893578 952.6618 794.51648 4287128200
22.175228 952.40125 793.64276 4291204437
25.203671 953.05078 792.88239 4289823549
44.271561 952.7923 792.0105 4294832113
45.798164 952.7923 792.0105 4294438387
13.73945 956.29358 794.96265 4287263145
16.029358 956.29358 794.96265 4286675639
19.337004 955.90454 794.63458 4280882776
21.881346 955.51544 794.30664 4283837000
24.913763 955.94708 793.79852 4289761607
27.412844 956.42133 792.45435 4290607658
16.752293 958.74994 794.41772 4287462555
19.798164 958.74994 794.41772 4289039515
22.33639 958.36182 794.09052 4289757873
25.382263 958.36182 794.09052 4286545491
28.174313 958.16779 793.92688 4283983130
53.302753 958.74994 794.41772 4294964473
31.144955 960.03918 792.88879 4284898163
34.436695 960.42633 793.21527 4284310386
37.222019 960.61993 793.37848 4292397020
40.260551 960.61987 793.37842 4294833657
43.29908 960.03918 792.88879 4294504434
46.590824 960.42633 793.21527 4294569970
49.376144 960.03918 792.88879 4294634480
51.655045 960.03918 792.88879 4294700273
-8.8623857 749.12585 795.56018 4290015076
-8.8623857 750.4809 796.70276 4288111665
-10.601835 755.49103 797.00305 4282782752
-8.8348627 754.14014 795.86414 4283042315
-7.9266057 757.79095 795.01831 4282451730
-12.330276 759.13763 796.15381 4282455838
-10.568808 759.13763 796.15381 4282521883
-10.53578 762.77582 795.29736 4282324238
-8.7798166 762.77582 795.29736 4282455825
-7.0091743 765.64319 795.09888 4282194463
57.644035 770.60138 795.35547 4294568946
-12.201835 773.45331 795.14404 4281673502
-10.458715 773.45331 795.14404 4281803562
-7.8440366 773.45331 795.14404 4281672489
-5.2293577 773.45331 795.14404 4281541160
55.779816 773.45331 795.14404 4294635000
57.522934 773.45331 795.14404 4294437365
-12.201835 774.78595 796.2677 4281603609
-10.458715 774.78595 796.2677 4281014302
-8.1345568 775.23016 796.64227 4281142807
-12.163302 778.38489 795.37817 4281273626
-10.425688 778.38489 795.37817 4281469209
-7.5296631 779.27051 796.12482 4284037691
-5.2128439 778.38489 795.37817 4281667086
-10.425688 781.04175 797.61829 4286475367
-7.8192658 781.04175 797.61829 4286870889
-6.9284406 785.948 797.83105 4286413178
62.223854 788.1084 797.03656 4294963962
-7.753211 791.01434 795.56274 4280689700
56.85688 791.01434 795.56274 4294963964
58.579815 791.01434 795.56274 4294964218
60.302753 791.01434 795.56274 4294964731
-12.060551 793.64874 797.78394 4285018665
-10.337615 792.99011 797.22864 4283441923
56.735779 793.82556 795.31702 4294963963
58.579815 792.99011 797.22864 4294898933
56.735779 795.79718 796.97943 4294898939
-8.5688076 798.68701 795.49194 4285942017
-7.6999998 801.76581 796.12573 4289563779
55.57798 802.13647 795.78436 4294899453
-7.6954126 804.09753 797.43787 4289430387
-4.2614679 806.3175 795.38562 4288582555
56.251377 806.3175 795.38562 4294964733
-4.5455661 808.05518 796.85077 4289559677
-1.7009175 809.0979 795.11401 4290613389
-3.9688072 811.26514 796.94141 4289154110
-1.7009175 811.04846 796.75867 4289153088
59.532108 811.69861 797.30688 4294966271
-1.6954129 815.20215 796.33679 4289806138
0.84770644 813.90601 795.2439 4289739848
58.491745 814.55408 795.79034 4294965245
-3.3908257 816.49835 797.42969 4289803829
-1.6954129 816.49835 797.42969 4290198586
0 817.96436 796.04968 4290394686
58.365135 817.96436 796.04968 4294964985
61.034863 816.49835 797.42969 4294899192
-1.6917431 819.25769 797.14026 4289994811
0.84311926 821.45245 795.06677 4290257463
58.271561 820.3551 796.10352 4294766836
60.902752 819.25769 797.14026 4294701043
-1.6862385 823.38611 796.6972 4289666106
58.175232 823.38611 796.6972 4294899192
0 825.48828 795.85352 4289928253
57.20734 826.13147 796.39581 4294833399
57.020184 830.23889 795.93506 4294899192
-1.6770642 831.521 797.01611 4289863745
0.83669722 832.97009 795.62195 4289799233
56.058716 832.97009 795.62195 4294833398
-1.6733944 835.52875 797.7793 4289865551
56.895412 834.24945 796.70068 4294700021
58.568806 835.52875 797.7793 4294765814
-1.66789 838.96918 796.7561 4289346080
0.83394498 837.69409 795.68103 4290394448
56.708256 837.69409 795.68103 4294831863
58.376148 838.96918 796.7561 4294897656
-3.3357799 840.24432 797.8313 4289549367
-1.66789 840.24432 797.8313 4289680953
0.83211011 841.68219 796.42767 4289738563
56.583485 840.40991 795.35486 4294963450
58.247707 842.31836 796.96399 4294965503
0.83027524 845.65918 797.16479 4289011782
3.321101 843.75488 795.55914 4290258241
56.458717 843.75488 795.55914 4294964220
58.119267 845.65918 797.16479 4294965503
3.3100917 847.80762 795.05225 4289994559
55.444038 847.80762 795.05225 4294898427
1.1033639 849.9165 796.83038 4289275200
3.3027523 851.76489 795.77283 4289864245
52.844036 851.76489 795.77283 4294898938
55.679516 850.39203 796.35938 4294898940
57.926605 849.70557 796.65259 4294964477
0.82568806 853.65863 797.36963 4288285471
4.1229358 853.73938 796.12958 4289530401
7.4146786 854.45129 795.42188 4290187568
52.726604 854.45129 795.42188 4294898170
55.260551 853.73938 796.12958 4294766841
58.348621 853.86908 797.54706 4294832891
0 856.97064 797.54614 4289811301
3.2954128 856.34082 797.01508 4289069085
52.726604 855.711 796.48401 4294766840
56.022018 855.711 796.48401 4294635513
4.1055045 859.72583 795.94519 4288810057
52.550457 859.09808 795.41589 4294635511
55.287464 859.5166 795.76874 4294635767
4.3718657 862.1333 796.23102 4289288322
7.373395 862.39539 795.58002 4288621372
10.650459 862.39539 795.57996 4290782513
13.108257 863.02173 796.10815 4293230252
52.433029 861.76904 795.05188 4294897656
54.890823 862.39539 795.58002 4294898426
57.477066 861.60907 797.53308 4294963961
4.9100919 865.60425 796.9776 4290807193
7.366055 864.97937 796.45068 4289750423
10.650459 864.27441 797.16431 4293237145
55.58532 865.68427 795.73706 4294766838
57.220184 868.18402 797.84473 4294701556
3.2587156 871.53607 796.74689 4286914336
55.856884 872.05511 795.44061 4294767350
58.656879 871.53607 796.74695 4294767350
60.28624 872.78174 797.79724 4294833145
58.524769 874.80176 796.88452 4294701559
3.2440367 877.43909 796.49213 4283301888
55.959633 876.81903 795.96936 4294767352
3.2330275 881.38446 795.89465 4287384070
55.769722 881.38446 795.89465 4294701045
3.7681954 883.49469 796.80206 4289494068
6.451376 884.00775 795.4906 4290348321
52.417431 884.00775 795.4906 4294832629
55.769722 882.6203 796.93677 4294832888
58.194496 883.85614 797.97876 4294965499
4.8330274 886.54822 796.32452 4290678345
6.4366975 887.24048 795.60022 4290479361
52.606731 886.57391 795.91016 4294898166
55.579819 886.54822 796.32452 4294898682
62.900917 886.47382 797.56982 4294767090
4.8275228 889.08588 797.15613 4290744655
7.2247705 890.46484 795.70288 4290550030
9.6330271 890.46484 795.70288 4291279473
49.770641 890.46484 795.70288 4294963963
52.178902 890.46484 795.70288 4294963961
55.389908 890.46484 795.70288 4294898422
58.734863 889.08588 797.15613 4294767350
4.8165135 892.91968 797.77271 4291271501
6.4220185 892.30597 797.25525 4289110316
52.981651 891.69226 796.73779 4294963959
55.65749 892.10138 797.08276 4294767093
57.798164 892.91968 797.77271 4294306799
8 895.59131 796.10138 4281414144
9.6000004 895.59131 796.10138 4284952066
49.599998 894.97974 795.58569 4294963705
52 894.97974 795.58569 4294964215
54.933334 895.79523 796.27325 4294767606
7.1999998 897.42615 797.64844 4283450153
10.376146 898.18372 795.67114 4288363064
49.48624 897.57355 795.15662 4294965245
51.880733 897.57355 795.15662 4294964983
55.073395 898.79395 796.18567 4294899192
58.400002 897.42615 797.64844 4294965499
7.972477 901.30566 796.99536 4283445818
9.5559635 901.37939 795.74951 4284416000
54.946789 901.98816 796.26282 4294898681
7.1577978 904.49426 797.06787 4290880699
10.063609 904.36401 795.65009 4285603124
50.053211 903.95911 795.30859 4294766839
52.436699 904.56653 795.82074 4294964473
54.820183 905.17389 796.33289 4294964475
57.335781 903.81458 797.80286 4294964985
7.4091744 907.24487 797.20703 4292593850
10.040367 908.14923 796.22559 4292066009
49.937614 907.7453 795.88501 4294766840
53.108257 908.35126 796.39587 4294898168
55.550461 907.67297 797.13202 4294897655
57.203671 906.38867 797.35718 4294701556
7.9266057 910.16925 797.92883 4283968546
10.280734 910.91565 795.94208 4289628086
12.653211 910.31104 795.43225 4291402599
49.822018 910.31104 795.43225 4294766840
52.985321 911.5202 796.4519 4294963704
55.3578 911.5202 796.4519 4294897654
57.07156 910.16925 797.92883 4294701043
7.908257 912.72943 797.47144 4281729024
10.244954 914.75165 795.25244 4288443751
12.609175 914.75165 795.25244 4293249791
50.436699 914.75165 795.25244 4294963450
52.800919 914.75165 795.25244 4294963449
56.148624 912.72943 797.47144 4294898165
7.880734 916.55908 796.77643 4284226304
9.4568806 915.9566 796.26843 4280880128
55.953209 916.55908 796.77643 4294832887
7.8623853 920.90845 797.82764 4289891478
10.063853 919.46582 796.61121 4287126828
12.579817 918.50415 795.80029 4290949057
52.677982 918.50415 795.80029 4294963706
55.822937 919.10522 796.30713 4294831862
58.181652 920.90845 797.82764 4294964731
10.197248 922.84503 796.84448 4292394664
13.073395 921.44574 795.66461 4291406823
50.201836 921.04596 795.32751 4294963963
52.816513 921.4458 795.66461 4294898169
55.692661 922.24536 796.33887 4294832376
10.955963 925.37714 796.36334 4289500565
12.521101 924.77887 795.85889 4290151877
53.21468 924.77887 795.85889 4294899192
55.562386 925.37714 796.36334 4294832630
9.896636 928.45557 797.21503 4284831118
13.012233 927.70465 795.70978 4286727742
55.43211 927.90363 795.87756 4294963701
58.907032 928.01276 797.71356 4294897398
60.897247 929.69427 797.38733 4294963707
10.904587 931.61536 796.39117 4282200927
13.241284 931.61542 796.39117 4285482580
56.080734 931.61536 796.39117 4294964216
58.157795 931.8139 796.55859 4294832886
10.904587 933.40179 797.89746 4279304192
13.489909 934.23785 797.73041 4279042828
16.162935 934.48425 796.19409 4284885048
19.426605 934.12781 795.89355 4289367682
52.451836 934.4248 796.14398 4294898423
55.042572 934.6955 796.89539 4294897910
58.417431 933.40179 797.89746 4294832630
16.279816 937.82007 796.39069 4286329395
19.380733 937.22736 795.89099 4284961351
51.940369 937.82007 796.39069 4294964218
54.266056 938.41272 796.89038 4294963450
16.511314 940.07831 796.55072 4287975241
19.334862 939.72711 795.38257 4286666336
32.482571 939.72711 795.38257 4289025882
34.80275 940.31836 795.88116 4292641164
37.122936 940.90967 796.37976 4294959858
49.49725 939.72711 795.38257 4294766320
51.601223 940.07831 796.55072 4294832886
54.266056 939.59802 797.88977 4294701304
16.21101 943.07385 796.24249 4284299085
19.266056 944.05554 795.10815 4290086012
38.532108 944.05554 795.10815 4294964479
50.091743 944.05554 795.10815 4294899190
13.87156 946.41223 797.09521 4278190080
16.183487 946.41223 797.09521 4281280850
19.24312 946.47461 795.83984 4289822114
13.069725 949.4787 797.06476 4281673728
16.144955 948.89093 796.56921 4282919206
19.174313 950.19141 795.04956 4290016678
13.28318 952.57758 796.18945 4283187274
16.087156 952.5979 795.77063 4281154375
18.385321 952.5979 795.77063 4283317608
10.711926 956.17151 797.47583 4280943878
12.242202 955.00159 796.48938 4287855283
67.332108 955.00159 796.48938 4294766836
10.177369 959.40594 797.58691 4285620326
12.976147 958.62775 796.93085 4282132542
15.868624 959.11847 796.82141 4281347645
18.67798 959.27106 796.16516 4285424733
22.082569 959.91425 795.39941 4289565355
25.128441 959.91425 795.39941 4288448925
28.174313 959.91425 795.39941 4285817233
31.220184 959.91425 795.39941 4284765060
33.504585 959.91425 795.39941 4283979406
43.403671 959.91425 795.39941 4294832629
45.688072 959.91425 795.39941 4294635763
49.495415 959.91425 795.39941 4294568942
52.6367 959.53296 797.04004 4294767351
55.688072 959.53302 797.04004 4294833398
67.933945 957.46069 795.94678 4294438641
19.798164 961.07855 796.38123 4278190099
22.082569 961.07855 796.38123 4278190083
25.128441 961.66071 796.87207 4284887592
28.174313 961.66071 796.87207 4289828490
31.220184 961.66071 796.87207 4286278819
34.266052 961.66071 796.87207 4284108933
37.311928 961.66071 796.87207 4291936466
40.357796 961.66071 796.87207 4294899703
43.403671 961.66071 796.87207 4294832376
46.703365 961.46661 796.7085 4294767350
49.495415 961.07855 796.38123 4294635504
-10.65688 750.29993 799.16614 4282779143
-13.073395 778.11755 799.0769 4284433987
-10.458715 777.45123 798.51501 4285090384
-10.458715 780.11646 800.76221 4287595651
-7.8192658 782.37012 798.7384 4287333511
-10.425688 785.02698 800.97864 4281806114
-8.6880732 783.69855 799.85852 4286544759
61.071564 790.53101 799.07916 4294899191
-12.060551 794.96594 798.89453 4286859828
-10.337615 794.96594 798.89453 4285875968
58.579815 794.96594 798.89453 4294833145
60.495415 792.73328 800.93616 4294964731
-12.034863 797.7688 798.64185 4287844915
-10.315597 797.7688 798.64185 4287389241
56.735779 797.7688 798.64185 4294833660
58.579815 796.28314 800.00525 4294438389
-10.315597 799.74036 800.3042 4286135075
58.455048 800.39758 800.85828 4294965244
-8.5688076 803.92773 799.91077 4289484855
-10.26055 806.71228 799.64258 4286530334
-7.4103971 806.27655 799.27515 4288702815
-10.26055 808.01965 800.745 4288171087
-8.5504589 808.01965 800.745 4288105294
-11.079817 811.53021 799.78088 4288431933
-7.5001831 811.79089 800.00061 4288624185
-4.2522936 812.99902 798.40332 4289411641
-5.1027522 814.94958 800.04797 4289077558
-3.3908257 817.79449 798.52258 4289205295
-3.3908257 819.73877 800.16193 4289139505
59.21101 820.55103 798.23071 4294965499
61.466663 821.41327 798.95776 4294701557
62.594494 823.13776 800.41187 4294767352
-1.6862385 825.31989 798.32764 4289666362
59.018349 825.31989 798.32764 4294767350
61.266666 826.60907 799.41461 4294833400
-3.3651376 829.99048 799.64972 4288679725
-1.6825688 828.06097 798.02271 4289732155
58.889908 828.7041 798.56506 4294833400
60.572475 829.99048 799.64972 4294964986
-1.6770642 832.80316 798.09717 4289930301
58.697247 832.80316 798.09717 4294963707
-3.9107029 835.42023 799.43182 4288294692
60.889297 835.42023 799.43182 4294898165
61.078899 838.0874 799.93677 4294832886
-3.3357799 842.15698 799.44397 4289619022
-1.66789 841.51941 798.90637 4288303677
60.877983 841.51941 798.90637 4294833399
64.21376 842.79456 799.98157 4294966012
-1.6642202 844.86304 799.1095 4287973692
59.911926 844.22687 798.57312 4294964985
61.576145 844.22687 798.57312 4294964985
-3.3284404 846.77148 800.71875 4289153092
-1.6605505 848.19818 799.30566 4287771439
0 846.92871 798.23523 4289143098
59.779816 847.56348 798.77045 4294898941
61.440369 847.56348 798.77045 4294964734
63.702137 847.2995 799.41992 4294965243
-1.6605505 849.46771 800.3761 4288354334
59.58165 851.60352 798.25281 4294833147
61.236698 851.60352 798.25281 4294833147
63.100918 849.46771 800.3761 4294898938
66.42202 849.46771 800.3761 4294833399
-1.6550459 854.13416 800.3866 4290657845
61.78838 853.7124 800.03094 4294767094
-1.6513761 856.81488 800.03088 4290339914
1.6513761 855.55237 798.96631 4287640132
58.899082 855.97314 799.32111 4294767351
61.926605 856.81488 800.03088 4294766838
64.403671 856.81488 800.03088 4294898170
0.82385319 859.49005 799.67041 4290068039
58.768192 859.49005 799.67041 4294767095
61.78899 860.11987 800.20148 4294898683
64.260551 859.49005 799.67041 4294766840
3.2844036 862.8645 798.59167 4291728038
57.477066 862.8645 798.59167 4294964218
0.82018352 865.44989 799.4635 4289029945
3.2770643 865.5271 798.22058 4290610070
10.650459 865.5271 798.22058 4292583847
58.485016 865.47559 799.04913 4294569713
61.51376 865.44989 799.4635 4294898935
63.902752 866.77972 799.27673 4294899192
0.81743121 869.4339 798.89856 4282253312
61.307343 869.4339 798.89856 4294964730
63.759632 869.4339 798.89856 4294833145
0.81743121 870.68378 799.95239 4283238400
62.124771 870.68378 799.95239 4294964477
63.759632 870.68378 799.95239 4294963963
0.54311925 874.44257 799.19775 4286207264
61.100918 874.65015 799.3728 4294832631
-1.6293578 876.51868 800.94824 4288708403
0.81284404 877.28748 798.98041 4286602795
58.524769 876.66602 798.45642 4294831863
61.033028 877.21375 800.22632 4294898422
1.2165138 880.19232 799.46765 4286145309
58.392662 879.91919 798.58331 4294832628
60.647095 880.02759 800.41876 4294767093
1.6165137 886.32782 800.06287 4287459352
3.2330275 885.7099 799.54181 4288178472
59.002754 885.09198 799.02075 4294767604
62.094498 887.70685 798.6095 4294767349
64.660553 886.32782 800.06287 4294833399
3.7596331 889.80963 799.5105 4287982633
58.734863 890.3161 798.19348 4294833144
62.094498 889.5564 800.16907 4294833143
64.513763 890.17291 800.68884 4294241005
66.126602 890.17291 800.68884 4294833399
3.2183487 892.77655 800.26807 4284161536
59.539448 891.54633 799.23071 4294833399
61.953209 892.77655 800.26807 4294833399
65.976151 892.77655 800.26807 4294899192
4.2813454 895.37451 799.84259 4287319610
6.4220185 894.14709 798.80762 4288583757
58.600918 894.14709 798.80762 4294899192
62.07951 895.78369 800.18768 4294965242
65.022934 896.60193 800.87756 4294767606
4.8000002 899.26099 799.1955 4289229417
6.4000001 898.64941 798.67981 4286669312
58.400002 898.64941 798.67981 4294965242
61.333332 899.46484 799.36737 4294899195
4 901.09583 800.74255 4291211963
6.3853211 901.2348 798.24365 4290618298
58.532108 901.6416 798.58667 4294833399
61.530273 901.77551 800.00763 4294966271
64 901.09583 800.74255 4294767354
4.7779818 905.03217 798.82947 4290687668
58.92844 905.03217 798.82947 4294899192
61.388992 904.35388 799.56555 4294898686
63.85321 903.6756 800.30164 4294833145
4.7779818 906.85858 800.36945 4283907128
6.3559632 908.21094 798.89362 4285617711
58.262997 908.00848 798.7229 4294767350
61.247707 907.53473 799.63147 4294700790
63.706421 906.24976 799.85608 4294766840
4.7669725 910.03308 800.43005 4283044608
6.3412843 911.38123 798.95068 4282712576
58.656879 911.38123 798.95068 4294964727
61.176147 910.03308 800.43005 4294965756
4.7559633 913.19922 800.48358 4285082880
6.3266053 913.9386 798.49097 4286132744
56.939449 913.9386 798.49097 4294899192
58.521099 913.9386 798.49097 4294964985
61.034863 913.19922 800.48358 4294965242
6.3266053 915.75238 800.02026 4287256894
58.521099 915.14777 799.5105 4294767350
60.102753 915.75238 800.02026 4294767093
4.7284403 920.77649 800.3324 4293050835
7.0926609 919.57153 799.31641 4289499537
59.105507 918.96906 798.80841 4294898422
63.833946 920.77649 800.3324 4294832631
7.0761471 922.71173 799.34802 4292659918
58.967888 922.11066 798.84119 4294964216
61.850769 922.91211 799.51691 4294963961
4.7174311 924.51501 800.86853 4286473600
7.325994 925.00079 799.53418 4288185219
9.4128437 924.6441 798.36133 4292462018
58.830276 924.6441 798.36133 4294963961
62.041283 925.1792 800.12061 4294897398
64.471558 924.51501 800.86853 4294963448
7.3088684 928.3255 799.72137 4279833620
62.605503 928.36853 798.88562 4294964215
64.170639 928.36853 798.88562 4294964986
7.8256879 930.76166 800.90344 4283442955
9.3688078 931.48486 798.89722 4279828748
61.677979 931.48486 798.89722 4294832630
10.392661 934.5506 799.7381 4290157471
12.462385 935.18823 799.40369 4286611333
58.417431 935.18823 799.40369 4294832886
61.677982 933.27551 800.40698 4294504435
10.125689 936.97467 800.90991 4289168030
13.469113 937.89032 799.06592 4283054161
56.014679 937.03644 799.65399 4294833399
57.638531 936.97467 800.90991 4294833399
10.352294 940.30585 800.23071 4287721855
13.178899 941.37604 799.38892 4282528856
52.715595 940.78339 798.88928 4294964985
54.266056 940.78339 798.88928 4294899192
10.853211 943.15405 800.88818 4288312849
12.374312 944.45728 799.37097 4285224257
16.241283 943.27472 798.3739 4281543978
52.590824 943.86597 798.87244 4294767093
54.137615 943.27472 798.3739 4294833399
12.330276 947.59052 798.08875 4285879593
6.9357796 949.9472 800.07581 4285486418
10.788991 948.76886 799.08228 4287058182
6.6629968 952.80933 799.87305 4283711848
9.9880733 952.15277 798.66547 4287851630
59.966972 953.59302 800.53381 4294963700
61.504585 953.59302 800.53381 4294964731
6.9027524 955.46863 799.49921 4278190089
9.2036695 954.88226 799.00476 4279304192
59.056881 956.05499 799.99365 4294766836
3.8348622 957.22766 800.98242 4281151015
7.0392661 958.7453 799.646 4286802284
9.1816511 957.34143 798.46228 4279500800
53.559631 959.68121 800.43506 4294833397
56.620182 959.68121 800.43506 4294833397
59.056881 957.22766 800.98242 4294635761
9.9229355 961.54553 799.39099 4292788952
13.23058 961.35101 799.22699 4290422484
16.029358 961.54553 799.39099 4290688463
19.082569 961.54553 799.39099 4287267986
22.13578 961.54553 799.39099 4284967531
25.188992 962.12909 799.88306 4294178031
28.242203 962.12909 799.88306 4281751125
31.295414 962.12909 799.88306 4286266756
33.58532 962.12909 799.88306 4291272641
36.638531 962.12909 799.88306 4287198076
40.455048 962.12909 799.88306 4294964471
45.798164 960.96198 798.89893 4294898422
49.614677 960.96198 798.89893 4294833395
51.904587 960.96198 798.89893 4294833397
54.957798 960.96198 798.89893 4294833397
16.79266 963.2962 800.86707 4294967295
24.425688 963.2962 800.86707 4294967295
-10.480734 779.94946 803.23743 4286610553
62.355965 789.92065 801.18079 4294964731
60.495415 794.05469 802.05029 4294767354
58.579815 797.60034 801.11584 4294964731
-10.315597 801.71198 801.96655 4284813568
-13.680734 810.6344 802.94971 4288761400
-11.115597 810.6344 802.94971 4288099894
-7.3865447 815.00531 802.711 4288550964
-5.1027522 817.55029 802.24084 4288748339
-4.246789 820.59192 802.84338 4288549419
-4.2348623 823.70508 802.19824 4288614438
62.594494 824.43109 801.50232 4294833399
64.28624 824.43109 801.50232 4294833145
-5.0752292 825.72443 802.5929 4288026386
64.28624 825.72443 802.5929 4294833399
-5.0587158 829.18732 801.5885 4287112712
62.390827 829.18732 801.5885 4294965243
64.077065 829.83191 802.13202 4294833400
-6.7302752 833.2063 802.36121 4288962095
-5.0477066 831.91998 801.27661 4286392832
62.255047 831.91998 801.27661 4294964729
63.937614 833.2063 802.36121 4294899192
-7.5605502 835.57111 802.39307 4288896555
-5.0311928 836.64954 801.34033 4288764702
63.728439 836.64954 801.34033 4294833399
-6.7082567 838.57275 802.96191 4288503581
-5.0201836 839.36676 801.01538 4289292332
63.588989 839.36676 801.01538 4294504947
-6.6935778 841.92542 803.17285 4289030968
-5.0201836 840.64606 802.09412 4289557033
-4.4477067 844.49463 801.41504 4289029187
-6.6715598 846.61987 803.20703 4289293154
-4.1660552 847.33179 802.49927 4287770927
64.904587 848.04376 801.7915 4294898938
-6.6568809 850.58838 803.93701 4287834945
-4.1605506 849.95227 803.40063 4287305766
-1.6605505 850.73718 801.44641 4288486435
63.93119 850.73718 801.44641 4294898170
-3.321101 852.64148 803.05206 4288228893
64.761467 852.00671 802.51685 4294964218
-3.3100917 857.29736 803.05371 4290148484
-1.6513761 859.33984 802.15985 4286463059
-1.6422018 866.63098 801.76733 4280549376
-3.2844036 869.14191 803.88452 4287252231
-1.6385322 869.2851 801.38928 4285740578
-3.2770643 871.79041 803.50171 4287125504
-1.6348624 871.93359 801.00623 4290081330
63.759632 871.93359 801.00623 4294701558
-3.2697248 874.43335 803.11401 4287589666
-1.6348624 873.18347 802.06018 4289099536
63.759632 873.80841 802.5871 4294832629
-1.6293578 877.76434 801.99854 4287395874
63.544952 877.76434 801.99854 4294964475
-1.6293578 879.01001 803.04883 4284963613
0 880.39459 801.60022 4284832009
61.776146 880.39459 801.60022 4294503151
63.544952 879.01001 803.04883 4294897908
0.54067278 883.43262 801.54572 4286866989
61.636696 883.01929 801.19727 4294635248
0.80825686 887.56366 801.10486 4287788054
64.660553 887.56366 801.10486 4294635765
0.53883791 889.21143 802.4942 4284490752
-3.225688 893.87201 803.80786 4285940860
-1.612844 893.25549 803.28802 4283767358
0.806422 892.63898 802.76819 4283368704
64.513763 891.40594 801.72852 4294833399
0.80458719 895.85211 802.86133 4285090893
3.2183487 894.00677 801.3053 4281663488
65.171562 894.00677 801.3053 4294899192
1.0703365 898.64764 802.60236 4289239196
3.2110093 897.82935 801.91248 4288051562
65.022934 897.82935 801.91248 4294372596
0.80275232 900.28418 803.9823 4290093748
3.2 902.31903 801.77393 4289174685
1.6 904.76544 803.83667 4281539895
3.2 903.54224 802.8053 4287396208
3.1926606 906.72662 802.87427 4281336576
63.779816 907.4007 802.13458 4294701557
3.1853211 910.51135 803.4494 4284096000
61.970642 911.24786 801.45435 4294965498
63.706421 909.90259 802.93604 4294570742
3.1779816 913.67749 803.50293 4287392866
63.559631 913.07007 802.99078 4294635766
4.2238531 916.27081 802.20148 4288972417
6.3266053 917.56616 801.54968 4290286236
61.755962 916.29169 801.78308 4294767093
64.205505 916.22919 803.03845 4294833402
3.1633027 919.37988 803.07898 4288315030
3.940367 922.58398 801.85645 4289697203
64.622017 921.98151 801.34839 4294963964
4.1957188 925.67596 802.71948 4280423475
3.925688 928.78149 803.15796 4282262037
6.2752295 928.84186 801.90082 4280684804
65.105499 928.8418 801.90082 4294767350
4.7064219 930.64093 803.41772 4287460481
7.0504589 931.29956 802.66504 4291139227
64.321098 930.64093 803.41772 4294767352
-1.5614679 935.66302 802.42004 4285946976
0 935.66302 802.42004 4284369227
7.0385323 934.08167 803.04883 4287658102
9.3688078 934.4693 801.41357 4290355108
59.335781 935.66302 802.42004 4294767350
61.677979 935.06616 801.91681 4294767351
64.170639 933.75305 803.42572 4294964988
-3.1229358 936.85681 803.42664 4286009676
-1.5577981 938.16559 801.91418 4284101679
0 938.16559 801.91418 4285090847
7.0174313 937.51123 802.67041 4285749334
56.080734 938.16559 801.91418 4294767350
58.487156 937.51123 802.67041 4294767350
61.604588 937.51123 802.67041 4294964985
64.800919 936.85681 803.42664 4294898678
67.14312 936.85681 803.42664 4294766836
-3.1082568 941.85077 802.4054 4283375904
-1.5559633 940.60364 802.66187 4285677633
0 939.95203 803.42041 4286076966
7.788991 939.95203 803.42041 4287722047
9.3247709 941.25671 801.90448 4286405924
55.948624 940.66266 801.40356 4294635763
57.638531 939.35657 802.91833 4294635763
62.311928 939.35657 802.91833 4294635248
-1.5541284 943.03894 803.4071 4284689160
10.088991 943.68921 802.64734 4287255045
-1.5504587 946.71008 803.88647 4284628286
9.2807341 946.82233 801.36511 4286071296
-4.640367 948.59613 802.86072 4281283355
1.5467891 949.18738 803.35925 4286343217
1.5412844 953.48218 803.0564 4278517760
3.8532109 951.71466 801.5661 4282199657
63.963303 953.48218 803.0564 4294767606
66.27523 952.89301 802.55963 4294767349
-3.0752294 955.94403 802.51624 4287322190
-1.5376147 955.35632 802.02063 4286468685
0.51253825 955.55225 802.18585 4284502370
3.8440366 954.76855 801.52502 4278190080
61.504585 955.35632 802.02063 4294635509
67.655045 955.35632 802.02063 4294701041
-3.0752294 957.11957 803.50732 4289629824
-1.5376147 957.11957 803.50732 4294366920
0.76880735 957.11957 803.50732 4290092716
4.0929661 958.36444 802.81281 4287725694
6.1357799 959.57312 802.95996 4292395458
59.056881 958.98676 802.46558 4294833398
61.869114 959.18219 802.63037 4294635766
63.811012 957.11957 803.50732 4294701302
67.655045 957.11957 803.50732 4294438639
7.1522937 960.78094 803.10645 4293185496
9.9467888 962.02106 802.40796 4294305006
12.752294 961.6311 802.0791 4294437873
15.302752 962.02106 802.40796 4294967295
19.128441 962.02106 802.40796 4294572025
22.188992 962.02106 802.40796 4294967295
26.014679 962.02106 802.40796 4294967295
28.310093 962.02106 802.40796 4285228680
31.370644 962.02106 802.40796 4285036133
34.714375 961.20599 802.59277 4285489037
37.77615 961.20599 802.59277 4292335055
40.552292 962.02106 802.40796 4294833909
43.63945 961.11725 802.29993 4294898421
46.70092 961.11725 802.29999 4294700530
49.733948 961.4361 801.91467 4294766578
52.826607 961.11725 802.29993 4294701553
55.888988 961.11731 802.29999 4294767351
59.056881 960.74585 803.94885 4294701556
62.124771 960.74585 803.94885 4294635763
67.493576 960.74585 803.94885 4294767604
9.1816511 963.19098 803.39441 4294635513
13.772477 963.19098 803.39441 4294963707
16.06789 963.19098 803.39441 4294966271
22.954128 963.19098 803.39441 4294967295
-15.770642 776.36035 804.13525 4287202429
-13.444037 776.30695 804.96234 4287399306
-12.266055 777.69995 805.26489 4287070602
-10.26055 811.94177 804.052 4288356146
-8.5504589 811.94177 804.052 4288224817
-10.26055 813.24915 805.1543 4288092472
-7.6706419 817.39453 804.72546 4288289065
-7.6706419 819.34924 806.37366 4287371797
-6.8036699 822.10156 806.07837 4288092179
-10.96055 834.34387 805.9364 4287513614
-8.4128437 835.77899 804.5304 4288567339
-10.095413 838.35168 806.69958 4287713566
-8.4128437 837.06531 805.61499 4288304431
-8.3853207 841.13696 805.12402 4288898863
-10.062386 843.06018 806.74561 4289426521
-7.809175 844.48407 805.33026 4289359700
-6.6715598 847.89502 804.2821 4289025381
-5.0036697 847.89502 804.2821 4286459710
-8.3394499 849.1701 805.3573 4288304224
-3.3100917 859.19531 804.65405 4289093002
-3.3027523 863.12732 805.35327 4280221696
-1.6513761 861.86481 804.28882 4286860597
-6.5908256 865.78845 804.98108 4283961357
-4.119266 865.78845 804.98108 4284094476
-4.943119 867.04816 806.04321 4284094722
-4.9266057 870.3974 804.94312 4285411585
-6.5541286 875.54846 806.67029 4287326208
-4.3669724 874.34064 804.77997 4287390998
-4.0871563 876.93311 805.22168 4287329056
-1.6293578 880.87854 804.62427 4285422893
-3.2587156 882.74695 806.19971 4286277922
-1.6256881 884.12311 804.74414 4287791161
-3.2440367 887.97943 805.37952 4282449920
-1.6220183 887.35938 804.85675 4283305482
-6.4660549 892.50702 805.27295 4288373591
-4.2029352 892.50702 805.27295 4288506214
-3.225688 896.33807 805.88721 4289896609
-1.612844 895.10504 804.84753 4290026660
-4.0321102 897.57111 806.92688 4284763196
-1.6091744 898.31256 804.93591 4290749864
-1.6091744 900.1579 806.49182 4290158228
0.53516823 901.92072 805.36212 4287067266
0.80000001 905.98865 804.86816 4281206287
0.5321101 908.06812 805.74933 4282453248
0.79816514 910.38782 805.9613 4285419070
1.5926605 912.94659 805.50269 4287395198
1.0593272 916.91699 806.23438 4286080631
0.79266053 919.86517 806.10413 4286410862
3.1522937 925.59644 804.39648 4278190080
3.1449542 929.32367 804.9231 4287263102
66.198166 928.00635 806.42847 4294635763
0.78623855 930.52588 805.93677 4286668412
3.9220183 931.84027 804.42896 4286803846
67.092354 930.92657 806.2746 4294898938
1.5669725 934.29382 805.1897 4285684035
3.9174311 934.29382 805.1897 4284895585
65.889908 933.03967 805.44031 4294963961
-3.1229358 938.05054 804.43323 4283702559
1.5651376 936.74445 805.948 4286995760
3.9073396 937.39746 805.19061 4286865489
6.2458715 938.05054 804.43323 4286735684
59.335781 938.05054 804.43323 4294700273
60.897247 938.05054 804.43323 4294963702
64.800919 938.05054 804.43323 4294832885
67.14312 938.05054 804.43323 4294767350
1.0409786 940.47363 805.60419 4283580429
3.9009175 940.16626 805.56311 4284762131
6.755352 940.90704 805.09766 4286666765
58.555046 939.84119 805.94299 4294700016
61.677982 939.84119 805.94299 4294832885
64.762383 940.16632 805.56305 4294767350
67.064224 940.49139 805.18317 4294767606
-3.1082568 944.22705 804.40894 4282191872
-1.5541284 944.22705 804.40894 4283112960
1.0385321 943.75897 805.7583 4283575568
3.8889909 943.57825 805.16992 4282526208
6.993578 944.22705 804.40894 4284498432
62.311928 944.12036 806.93506 4294898168
