# .PCD v0.7 - Point Cloud Data file format
VERSION 0.7
FIELDS x y z rgb
SIZE 4 4 4 4
TYPE F F F U
COUNT 1 1 1 1
WIDTH 1159
HEIGHT 1
VIEWPOINT 0 0 0 1 0 0 0
POINTS 1159
DATA ascii
-30.748625 967.32721 1281.6969 4288259278
-28.552294 967.32721 1281.6969 4287996106
-24.159634 967.32721 1281.6969 4287865542
-21.963303 967.32721 1281.6969 4288126404
-19.766972 967.32721 1281.6969 4288257733
-16.472477 967.32721 1281.6969 4288651742
-13.177981 967.32721 1281.6969 4289638121
-10.981651 967.32721 1281.6969 4290098672
-7.6871557 967.32721 1281.6969 4291809023
-4.3926606 967.32721 1281.6969 4292205055
-2.1963303 967.32721 1281.6969 4287270334
26.355963 969.00635 1283.1127 4283120205
26.267889 974.10699 1282.1813 4283054664
26.267889 975.78052 1283.5923 4283054664
-46.611008 754.77606 1285.6035 4285929811
19.625689 754.77606 1285.6035 4291546367
22.078899 754.77606 1285.6035 4291743743
-46.436699 763.1452 1286.1199 4286260559
-43.992661 763.1452 1286.1199 4286783317
-43.827522 770.5415 1285.8162 4286133611
-41.392662 769.61078 1285.0314 4288037755
-38.957798 769.61078 1285.0314 4285283433
-41.205505 779.37079 1285.4126 4284237433
-38.781651 779.37079 1285.4126 4284178306
-50.900917 781.22388 1286.9751 4283901776
-43.629356 781.22388 1286.9751 4282723162
-41.205505 781.22388 1286.9751 4285091710
-53.122936 785.76697 1284.2655 4284032581
-41.049541 785.76697 1284.2655 4285352566
-38.634861 785.76697 1284.2655 4285228439
-53.122936 787.61298 1285.822 4284360253
-50.708256 787.61298 1285.822 4284491839
-43.464222 787.61298 1285.822 4284097626
-41.049541 787.61298 1285.822 4286005624
-52.921101 793.974 1284.6454 4285014347
-40.893578 793.974 1284.6454 4287383913
-38.488075 793.974 1284.6454 4286531699
-52.921101 795.81299 1286.196 4285080647
-50.515594 795.81299 1286.196 4285277769
-43.299084 795.81299 1286.196 4286724702
-40.893578 795.81299 1286.196 4287645804
-52.719265 803.97107 1286.5344 4284618310
-50.322937 803.97107 1286.5344 4285144654
-46.728439 803.97107 1286.5344 4285801819
-43.133945 803.97107 1286.5344 4286523223
-40.737614 803.05505 1285.7621 4288102510
-40.58165 812.08698 1286.8374 4286525276
-38.194496 810.26196 1285.2987 4287704696
11.93578 810.26196 1285.2987 4290296826
-38.077065 816.91199 1285.6736 4286653532
11.899082 816.91199 1285.6736 4287664334
14.278899 816.91199 1285.6736 4285760700
16.658716 816.91199 1285.6736 4285826494
19.038532 816.91199 1285.6736 4285038765
22.608257 816.00226 1284.9066 4285826227
-34.374313 824.05225 1285.1539 4289757839
-30.818348 824.05225 1285.1539 4290485142
11.853211 824.05225 1285.1539 4281488497
14.223853 824.05225 1285.1539 4282799744
16.594496 824.05225 1285.1539 4288260563
18.965137 824.05225 1285.1539 4289443306
22.521101 824.05225 1285.1539 4290955263
-34.374313 825.86462 1286.6821 4289693080
14.223853 825.86462 1286.6821 4285298098
18.965137 825.86462 1286.6821 4290688242
21.335779 825.86462 1286.6821 4292201471
-37.783485 833.86554 1286.8882 4286200940
-34.241287 832.96283 1286.1271 4290088108
-30.699083 832.96289 1286.1271 4290355892
-28.337614 832.06018 1285.366 4290419899
11.80734 832.96289 1286.1271 4282602376
14.168807 833.86554 1286.8882 4282273662
16.530275 832.96289 1286.1271 4283653508
18.891743 832.96289 1286.1271 4284767366
21.25321 832.06018 1285.366 4285557642
-30.579817 838.22766 1284.026 4291142606
-28.227524 838.22766 1284.026 4290487463
2.3522935 838.22766 1284.026 4282603887
7.056881 838.22766 1284.026 4282797166
10.585321 838.22766 1284.026 4282536059
16.466055 838.22766 1284.026 4282140797
18.818348 838.22766 1284.026 4283324837
21.170643 838.22766 1284.026 4288259055
-31.755962 840.026 1285.5424 4289628348
10.585321 840.026 1285.5424 4282994291
16.466055 840.026 1285.5424 4281616749
18.818348 840.026 1285.5424 4278668416
21.170643 840.026 1285.5424 4281826480
-37.48991 847.94971 1285.6833 4287123575
-35.14679 847.05408 1284.9281 4287713661
-31.632111 846.15839 1284.1729 4288501903
2.3431194 846.15839 1284.1729 4289046229
4.6862388 847.05408 1284.9281 4287732433
7.0293579 847.05408 1284.9281 4282403200
10.153518 847.3526 1285.1798 4282735204
16.401834 847.94971 1285.6833 4288522200
21.088074 847.94971 1285.6833 4287531695
-35.036697 853.54419 1285.1682 4286139758
-31.533028 853.54419 1285.1682 4285878621
2.3357799 853.54419 1285.1682 4291348735
4.6715598 853.54419 1285.1682 4291086582
7.0073395 853.54419 1285.1682 4289968102
-37.372478 855.3299 1286.6738 4286861945
-35.036697 855.3299 1286.6738 4287191167
4.6715598 855.3299 1286.6738 4290626549
7.0073395 855.3299 1286.6738 4290626549
-37.225689 863.17358 1286.7474 4286402680
-34.899082 862.28424 1285.9976 4286929281
-31.409174 861.3949 1285.2476 4286869614
2.3266056 861.3949 1285.2476 4290165226
4.6532111 862.28424 1285.9976 4289705705
6.9798164 863.17358 1286.7474 4290100203
9.3064222 863.17358 1286.7474 4290099181
-34.761467 869.20361 1285.2916 4286796671
2.3174312 869.20361 1285.2916 4289836263
4.6348624 869.20361 1285.2916 4289836779
9.2697248 869.20361 1285.2916 4289770731
-37.078899 870.97534 1286.7854 4285941875
11.587156 870.97534 1286.7854 4290099951
13.904587 870.97534 1286.7854 4290297578
16.222019 870.97534 1286.7854 4290166248
-34.651375 874.71393 1284.7056 4286466676
1.1550459 874.71393 1284.7056 4289902308
4.6201835 874.71393 1284.7056 4289836265
6.9302754 874.71393 1284.7056 4290231023
10.395412 874.71393 1284.7056 4290099181
-34.651375 876.47998 1286.1947 4286925429
1.1550459 876.47998 1286.1947 4290033895
11.550459 876.47998 1286.1947 4290361837
13.860551 876.47998 1286.1947 4290164967
16.170643 876.47998 1286.1947 4290164967
19.63578 876.47998 1286.1947 4290099433
-36.814678 884.20874 1286.1711 4286927737
-34.51376 883.32922 1285.4296 4288638098
-32.212845 882.44965 1284.688 4288573843
1.533945 883.03607 1285.1824 4289901792
4.6018348 882.44965 1284.688 4290033377
9.2036695 882.44965 1284.688 4289836515
13.805505 882.44965 1284.688 4289968617
16.106422 882.44965 1284.688 4289902824
19.557798 882.44965 1284.688 4289902057
-34.376148 890.14331 1284.635 4288247199
-32.084404 890.14331 1284.635 4286931100
0 890.14331 1284.635 4289640415
13.750459 890.14331 1284.635 4289574374
-36.667889 891.89539 1286.1123 4287260306
-34.376148 891.89539 1286.1123 4286996877
-32.084404 891.89539 1286.1123 4285025665
0 891.89539 1286.1123 4289574109
10.312843 891.89539 1286.1123 4289772006
13.750459 891.89539 1286.1123 4290035175
-31.981651 898.18909 1286.1868 4284433770
-28.935781 897.89801 1285.9414 4289767118
1.1422018 898.18909 1286.1868 4289966820
4.5688071 898.18909 1286.1868 4289834450
6.8532109 898.18909 1286.1868 4289242313
9.8990822 898.48016 1286.4323 4287531697
18.275229 897.31592 1285.4506 4286538643
-29.577982 904.92957 1285.3301 4290547126
-2.2752295 904.92957 1285.3301 4283258208
2.2752295 904.92957 1285.3301 4283649632
4.5504589 904.92957 1285.3301 4283780184
6.8256879 904.92957 1285.3301 4283780184
9.1009178 904.92957 1285.3301 4283977048
-34.128441 906.66901 1286.7968 4286066519
-31.85321 906.66901 1286.7968 4284757087
1.1376147 906.66901 1286.7968 4283451485
4.5504589 906.66901 1286.7968 4284566888
6.8256879 906.66901 1286.7968 4284501095
9.1009178 906.66901 1286.7968 4284565857
-34.018349 910.29675 1284.6234 4286067038
-31.750458 910.29675 1284.6234 4286066018
-28.348625 910.29675 1284.6234 4288506535
-34.018349 912.03064 1286.0853 4286134363
-31.750458 912.03064 1286.0853 4286264934
-29.482569 912.03064 1286.0853 4286133348
1.133945 912.03064 1286.0853 4283715175
4.53578 912.03064 1286.0853 4284173929
-31.647707 917.36969 1285.355 4284235368
-28.256882 917.36969 1285.355 4283447394
1.1302752 917.36969 1285.355 4283779169
4.521101 917.36969 1285.355 4284369253
-33.908257 919.0979 1286.8123 4285420910
-31.647707 919.0979 1286.8123 4284765807
-29.387156 919.0979 1286.8123 4285358201
4.521101 919.0979 1286.8123 4284108136
-33.770641 925.73322 1285.8667 4283190641
-31.519266 925.73322 1285.8667 4283520367
-28.1422 924.87262 1285.1411 4284308605
4.5027523 924.87262 1285.1411 4285423740
6.7541285 926.59381 1286.5924 4283449690
9.0055046 926.59381 1286.5924 4283582292
-33.660549 931.87396 1285.8124 4283980671
-31.416513 931.01617 1285.0891 4284705428
-29.172478 930.15839 1284.3658 4284705945
1.1220183 930.15839 1284.3658 4283121502
4.4880733 930.15839 1284.3658 4283515481
7.8541279 931.01617 1285.0891 4283515988
11.220183 931.87396 1285.8124 4283648083
13.46422 931.87396 1285.8124 4283648085
-25.700916 937.58838 1284.0905 4285887861
-22.348623 937.58838 1284.0905 4284440168
6.704587 937.58838 1284.0905 4283516499
11.174312 937.58838 1284.0905 4283843151
13.409174 937.58838 1284.0905 4283843151
-29.053211 940.15125 1286.2515 4285230213
-25.700918 940.15125 1286.2515 4285558636
-22.348623 939.29694 1285.5311 4284506485
8.1944952 939.86646 1286.0114 4283581011
11.174312 940.15125 1286.2515 4283580753
13.409174 940.15125 1286.2515 4283580495
15.644036 941.00549 1286.9717 4283450190
-24.502752 944.5238 1284.7062 4283980393
-13.365138 944.5238 1284.7062 4286087287
-11.137614 944.5238 1284.7062 4285824371
6.682569 944.5238 1284.7062 4283318102
-28.957798 946.22675 1286.142 4285097369
-25.616514 946.22675 1286.142 4284967818
8.9100914 946.22675 1286.142 4283907407
-31.082569 953.12292 1286.7246 4283394684
-28.862385 953.12292 1286.7246 4286026404
0 951.4256 1285.2935 4283189081
4.4403667 951.4256 1285.2935 4283451476
6.6605506 953.12292 1286.7246 4283516499
-28.766972 956.60193 1284.4259 4290100955
0 956.60193 1284.4259 4283516497
4.4256883 956.60193 1284.4259 4283842899
6.6385322 956.60193 1284.4259 4283908693
-30.979816 958.2937 1285.8523 4288784857
-28.766972 958.2937 1285.8523 4290166510
0 958.2937 1285.8523 4283253842
4.4256883 958.2937 1285.8523 4283449688
7.7449541 958.2937 1285.8523 4283449941
-33.055046 964.72559 1284.7354 4288455885
-30.851376 963.88324 1284.0251 4288522702
-28.647707 963.88324 1284.0251 4288456909
-26.444036 964.72559 1284.7354 4288325830
-22.036697 963.88324 1284.0251 4290100437
-19.833027 963.88324 1284.0251 4291218918
1.1018349 963.88324 1284.0251 4282200914
25.342201 965.56799 1285.4457 4283120457
-33.055046 967.25269 1286.8662 4288390603
-30.851376 967.25269 1286.8662 4288127948
-28.647707 967.25269 1286.8662 4288062155
-25.342201 967.25269 1286.8662 4288062155
-22.036697 967.25269 1286.8662 4287929279
-19.833027 967.25269 1286.8662 4287797950
-16.527523 967.25269 1286.8662 4287928521
-13.222018 967.25269 1286.8662 4287930556
-11.018349 967.25269 1286.8662 4288719815
-7.7128439 967.25269 1286.8662 4291218920
-4.4073396 967.25269 1286.8662 4292468223
-2.2036698 967.25269 1286.8662 4288586703
22.036697 967.25269 1286.8662 4283120457
24.240368 967.25269 1286.8662 4283186250
24.159634 970.68542 1284.5284 4283447369
-46.611008 757.58936 1287.9755 4286062161
-49.06422 759.46484 1289.5569 4286193742
-46.436699 765.94794 1288.4832 4286853975
-43.992661 765.94794 1288.4832 4287441765
-43.827522 772.40302 1287.3857 4284036197
-41.392662 772.40302 1287.3857 4284299112
-38.957798 772.40302 1287.3857 4282856795
-43.827522 774.26447 1288.9552 4282920294
-41.392662 774.26447 1288.9552 4283446638
-50.900917 783.0769 1288.5375 4283835202
-46.053211 783.0769 1288.5375 4283114323
-43.629356 783.0769 1288.5375 4282984018
-53.122936 789.45898 1287.3785 4285277508
-49.903362 790.6897 1288.4161 4285474127
-45.878899 791.30505 1288.9351 4286722918
-43.464222 790.38202 1288.1567 4286398557
-52.921101 797.65204 1287.7466 4284882502
-49.312843 797.65204 1287.7466 4285670996
-45.704586 797.65204 1287.7466 4286920298
-43.299084 797.65204 1287.7466 4286921567
-52.921101 799.49109 1289.2972 4284486459
-49.312843 799.49109 1289.2972 4285538895
-45.704586 799.49109 1289.2972 4286130781
-43.299084 799.49109 1289.2972 4286523477
-52.719265 805.80304 1288.0791 4284882502
-50.322937 805.80304 1288.0791 4285079624
-46.728439 805.80304 1288.0791 4285603159
-43.133945 805.80304 1288.0791 4286589781
-40.737614 805.80304 1288.0791 4287379554
-52.719265 807.63507 1289.6239 4284751441
-50.322937 807.63507 1289.6239 4285014613
-46.728439 807.63507 1289.6239 4285473368
-43.133945 807.63507 1289.6239 4286523475
-40.737614 807.63507 1289.6239 4287312991
-40.58165 814.82446 1289.1456 4286524259
-38.077065 820.55072 1288.7417 4286659934
-37.930275 827.677 1288.2102 4287254391
-34.374313 827.677 1288.2102 4289824670
14.223853 827.677 1288.2102 4286020006
18.965137 827.677 1288.2102 4287271356
-45.042202 829.48938 1289.7384 4286329444
-42.671558 829.48938 1289.7384 4286262356
-40.300919 829.48938 1289.7384 4286591065
-37.930275 829.48938 1289.7384 4286662772
14.223853 829.48938 1289.7384 4284836231
-40.144955 835.6709 1288.4104 4287184751
-37.783485 835.6709 1288.4104 4286332008
-34.241287 835.6709 1288.4104 4289822892
14.168807 835.6709 1288.4104 4282403968
-42.50642 837.47626 1289.9326 4286197593
-40.144955 837.47626 1289.9326 4287381866
-37.783485 837.47626 1289.9326 4286594931
-35.42202 837.47626 1289.9326 4289226650
14.168807 837.47626 1289.9326 4281353834
-37.636696 841.82434 1287.0586 4287252093
-35.284405 841.82434 1287.0586 4288502159
-32.93211 841.82434 1287.0586 4288899484
11.761468 841.82434 1287.0586 4283125875
14.113762 841.82434 1287.0586 4284372596
16.466055 841.82434 1287.0586 4285425540
18.818348 841.82434 1287.0586 4285229985
21.170643 841.82434 1287.0586 4287598533
-51.750458 843.62268 1288.575 4285082193
-49.398167 843.62268 1288.575 4285213780
-39.988991 843.62268 1288.575 4287645302
-37.636696 843.62268 1288.575 4287843197
11.761468 843.62268 1288.575 4285361018
14.113762 843.62268 1288.575 4289894852
16.466055 843.62268 1288.575 4291078869
18.818348 843.62268 1288.575 4291343831
21.170643 843.62268 1288.575 4289567163
-51.548622 849.74103 1287.1937 4284955223
-49.205505 850.63672 1287.949 4284889171
-46.862385 850.63672 1287.949 4285673048
-39.833027 849.74103 1287.1937 4287384185
-37.48991 850.63672 1287.949 4286271859
7.0293579 849.74103 1287.1937 4288454613
10.544037 850.63672 1287.949 4284643752
14.058716 850.63672 1287.949 4280901810
16.401834 850.63672 1287.949 4282877913
18.744955 850.63672 1287.949 4285629884
21.088074 850.63672 1287.949 4287011537
-39.708256 857.1156 1288.1796 4287188598
-37.372478 857.1156 1288.1796 4286599809
7.0073395 857.1156 1288.1796 4290561008
10.511009 857.1156 1288.1796 4290559732
-43.211929 858.90131 1289.6852 4286333798
-39.708256 858.90131 1289.6852 4286991987
-37.372478 858.90131 1289.6852 4286205817
7.0073395 858.90131 1289.6852 4290034673
10.511009 858.90131 1289.6852 4290100205
-39.552292 866.73102 1289.7469 4286794352
-37.225689 865.84167 1288.9971 4286466934
-34.899082 864.95233 1288.2472 4287124350
-32.572475 864.95233 1288.2472 4287460204
10.857491 865.54523 1288.7471 4289836268
13.959633 866.73102 1289.7469 4290231271
16.286238 866.73102 1289.7469 4290297064
18.612844 866.73102 1289.7469 4290231273
-39.396332 872.74707 1288.2793 4286795385
-37.078899 872.74707 1288.2793 4286663799
13.904587 872.74707 1288.2793 4289968356
16.222019 872.74707 1288.2793 4289968356
19.698166 872.74707 1288.2793 4289968363
-39.396332 874.51874 1289.7732 4286795124
-37.078899 874.51874 1289.7732 4287056758
-36.961468 878.24609 1287.6838 4286927479
19.63578 878.24609 1287.6838 4289902570
-39.271561 880.01221 1289.173 4286336883
-36.961468 880.01221 1289.173 4287190395
-46.018349 887.72687 1289.1376 4285615476
-43.71743 887.72687 1289.1376 4286273407
-39.882568 887.14044 1288.6432 4286536044
-36.814678 886.84729 1288.396 4286930053
0 885.96777 1287.6544 4289706465
-36.667889 893.64746 1287.5896 4287523473
-34.376148 893.64746 1287.5896 4286668164
-32.084404 893.64746 1287.5896 4284632933
11.458715 893.64746 1287.5896 4290361576
13.750459 893.64746 1287.5896 4290690791
20.625689 893.64746 1287.5896 4290295520
22.917431 893.64746 1287.5896 4290294979
-37.813759 895.39954 1289.0669 4286866823
-34.376148 895.39954 1289.0669 4285352566
11.458715 895.39954 1289.0669 4287336381
13.750459 895.39954 1289.0669 4287925175
16.042202 895.39954 1289.0669 4286280093
20.625689 895.39954 1289.0669 4285485955
-36.550457 901.68201 1289.1318 4286399340
-34.266056 901.68201 1289.1318 4285609824
-31.981651 901.68201 1289.1318 4284956775
0.76146787 901.39093 1288.8864 4283978616
10.66055 901.39093 1288.8864 4283780201
15.990826 902.55524 1289.8682 4284174179
-36.403671 908.40845 1288.2634 4286264416
1.1376147 908.40845 1288.2634 4283517796
4.5504589 908.40845 1288.2634 4284173677
6.8256879 908.40845 1288.2634 4284173677
9.1009178 908.40845 1288.2634 4284435048
-37.541283 910.14789 1289.7301 4285806943
6.8256879 910.14789 1289.7301 4284173929
10.238532 910.14789 1289.7301 4284369509
13.651376 910.14789 1289.7301 4284370009
-36.28624 913.7644 1287.5472 4285020512
-34.018349 913.7644 1287.5472 4285283683
-31.750458 913.7644 1287.5472 4285150826
2.26789 913.7644 1287.5472 4284108397
4.53578 913.7644 1287.5472 4284173927
6.8036699 913.7644 1287.5472 4284108134
-37.420181 915.49823 1289.0092 4284695657
-34.018349 915.49823 1289.0092 4284498276
6.8036699 915.49823 1289.0092 4284303460
10.205505 915.49823 1289.0092 4284303712
13.60734 915.49823 1289.0092 4284106837
-37.299084 920.82611 1288.2694 4283252063
-33.908257 920.82611 1288.2694 4283580254
4.521101 920.82611 1288.2694 4285425790
-37.299084 922.55432 1289.7266 4282464603
6.7816515 922.55432 1289.7266 4285423740
9.042202 922.55432 1289.7266 4285292653
13.563303 922.55432 1289.7266 4285291613
-33.770641 928.315 1288.0437 4285822625
11.256881 928.315 1288.0437 4283515731
13.508257 928.315 1288.0437 4283908693
-40.524769 930.03619 1289.4949 4283257715
-37.147705 930.03619 1289.4949 4283981183
15.759633 930.03619 1289.4949 4283516499
-38.148624 935.30518 1288.7056 4284767065
-33.660549 934.44739 1287.9822 4284373341
-31.416513 934.44739 1287.9822 4284306797
-29.172478 935.30518 1288.7056 4286016383
8.9761467 934.44739 1287.9822 4283647056
11.220183 933.58954 1287.2589 4283582290
13.46422 933.58954 1287.2589 4283582542
15.708257 934.44739 1287.9822 4283647054
-33.522934 943.56836 1289.1326 4285823145
-31.288073 944.42267 1289.8529 4288321225
-29.053211 942.71411 1288.4124 4284967577
-26.818348 942.71411 1288.4124 4285164668
8.9394493 942.71411 1288.4124 4283776593
11.174312 943.56836 1289.1326 4283907921
13.409174 943.56836 1289.1326 4283384395
-28.957798 947.92969 1287.5779 4282600096
-26.730276 947.92969 1287.5779 4283324807
6.682569 947.92969 1287.5779 4283516499
-31.185322 949.63269 1289.0138 4278736019
-28.957798 949.63269 1289.0138 4279722914
6.682569 949.63269 1289.0138 4283451476
-34.042812 955.95184 1289.1099 4288455640
-31.082569 954.82031 1288.1558 4287929785
8.8807335 954.82031 1288.1558 4283450190
11.100918 956.51764 1289.5869 4283449938
-34.299084 959.98547 1287.2788 4288653270
-30.979816 959.98547 1287.2788 4288588245
-28.766972 959.98547 1287.2788 4289246175
0 959.98547 1287.2788 4282333253
4.4256883 959.98547 1287.2788 4283776343
7.7449541 959.98547 1287.2788 4283711827
-35.405506 961.67719 1288.7052 4288390605
4.4256883 961.67719 1288.7052 4283383643
7.7449541 961.67719 1288.7052 4283449942
11.06422 961.67719 1288.7052 4283384397
-30.851376 968.93744 1288.2866 4288192971
-28.647707 968.93744 1288.2866 4288258764
-25.342201 968.93744 1288.2866 4288390605
-22.036697 968.93744 1288.2866 4288390084
-19.833027 968.93744 1288.2866 4288390084
-16.527523 968.93744 1288.2866 4288060618
-13.222018 968.93744 1288.2866 4287864511
-11.018349 968.93744 1288.2866 4287535546
-7.7128439 968.93744 1288.2866 4287996108
-4.4073396 968.93744 1288.2866 4289705468
19.833027 968.93744 1288.2866 4283447369
22.036697 968.93744 1288.2866 4283447369
22.036697 970.62219 1289.7072 4283381063
24.240368 970.62219 1289.7072 4283446856
-49.247707 754.83624 1292.1943 4285798732
-49.06422 761.34033 1291.1383 4286195276
-49.06422 763.21582 1292.7196 4286459217
-48.880733 767.81641 1290.0586 4285214280
-46.436699 767.81641 1290.0586 4285674831
-51.324772 769.68494 1291.634 4283572034
-48.880733 769.68494 1291.634 4282850635
-46.436699 769.68494 1291.634 4283640408
-51.132111 776.12592 1290.5248 4283705415
-48.697247 776.12592 1290.5248 4283116371
-46.262386 776.12592 1290.5248 4282919249
-43.827522 776.12592 1290.5248 4282197850
-48.697247 777.98743 1292.0944 4283181403
-46.262386 777.98743 1292.0944 4283115354
-48.477066 784.92993 1290.1 4284427341
-46.053211 784.92993 1290.1 4284361548
-48.477066 786.78302 1291.6624 4285998676
-46.053211 786.78302 1291.6624 4286919778
-48.293579 793.15112 1290.4916 4285670230
-45.878899 793.15112 1290.4916 4286591332
-52.719265 809.46704 1291.1686 4285015381
-50.322937 809.46704 1291.1686 4285146966
-46.728439 809.46704 1291.1686 4285539158
-43.133945 809.46704 1291.1686 4286262104
-50.322937 811.29907 1292.7133 4285015887
-46.728439 811.29907 1292.7133 4285408090
-43.133945 811.29907 1292.7133 4286326625
-45.355965 817.56201 1291.4539 4285475666
-42.968807 817.56201 1291.4539 4286326877
-40.58165 817.56201 1291.4539 4286853221
-46.549541 819.38696 1292.9927 4285476688
-42.968807 819.38696 1292.9927 4286261334
-40.58165 819.38696 1292.9927 4287051107
-40.456882 823.27979 1291.0428 4287248481
-38.077065 823.27979 1291.0428 4286925429
-46.406422 825.09918 1292.5769 4285606223
-42.836697 825.09918 1292.5769 4286129484
-40.456882 825.09918 1292.5769 4286919257
-49.783485 833.11414 1292.7947 4285017947
-45.832417 832.51001 1292.2853 4286197600
-42.671558 832.20795 1292.0306 4286264156
-40.300919 831.30176 1291.2666 4286329944
-42.50642 839.28162 1291.4548 4286329178
-40.144955 839.28162 1291.4548 4287579246
-47.229359 841.08698 1292.9771 4285737307
-43.687157 841.08698 1292.9771 4286395236
-51.750458 845.42102 1290.0913 4285084755
-49.398167 845.42102 1290.0913 4284887377
-42.341286 845.42102 1290.0913 4286462057
-39.988991 845.42102 1290.0913 4287580794
14.113762 845.42102 1290.0913 4287601354
18.818348 845.42102 1290.0913 4288979142
23.522936 845.42102 1290.0913 4287202731
-42.341286 847.21942 1291.6075 4286265448
23.522936 847.21942 1291.6075 4287927487
-49.205505 853.32373 1290.2145 4284954196
-46.862385 853.32373 1290.2145 4285805401
-43.347706 853.32373 1290.2145 4286529639
-39.833027 853.32373 1290.2145 4287582841
10.544037 853.32373 1290.2145 4290494446
14.058716 853.32373 1290.2145 4290494961
16.401834 853.32373 1290.2145 4290560754
18.744955 853.32373 1290.2145 4290888937
21.088074 853.32373 1290.2145 4290888937
-52.720184 855.11505 1291.7249 4284624985
-49.205505 855.11505 1291.7249 4284821849
-46.862385 855.11505 1291.7249 4285609303
-43.347706 855.11505 1291.7249 4286530665
14.058716 855.11505 1291.7249 4290625779
16.401834 855.11505 1291.7249 4290691572
18.744955 855.11505 1291.7249 4290822640
-43.211929 860.68701 1291.1909 4286465896
-39.708256 860.68701 1291.1909 4287320439
11.678899 860.68701 1291.1909 4289967852
14.014679 860.68701 1291.1909 4289967854
16.350458 860.68701 1291.1909 4290164976
-43.211929 862.47278 1292.6965 4286662510
-39.708256 862.47278 1292.6965 4287122290
14.014679 862.47278 1292.6965 4289769959
16.350458 862.47278 1292.6965 4290361839
18.686239 862.47278 1292.6965 4290427884
22.189907 862.47278 1292.6965 4290428142
-40.715595 868.50977 1291.2467 4286598258
19.776146 868.50977 1291.2467 4290034412
-44.205505 870.28845 1292.7465 4286271078
-41.878899 870.28845 1292.7465 4286729592
-44.031193 878.06213 1292.7609 4286140787
-40.941284 876.88104 1291.765 4286467185
-43.891743 881.77826 1290.6621 4286140787
-40.426605 881.77826 1290.6621 4286403443
-43.891743 883.54431 1292.1511 4286273659
-41.58165 883.54431 1292.1511 4286207852
-46.018349 889.48596 1290.6208 4285352555
-43.71743 889.48596 1290.6208 4286273657
-40.266056 889.48596 1290.6208 4286864496
-46.018349 891.245 1292.104 4285156197
-43.71743 891.245 1292.104 4286077299
-40.266056 891.245 1292.104 4286800500
-41.251377 898.90363 1292.0215 4286339702
-38.195717 897.7356 1291.0366 4286668159
-34.376148 897.15161 1290.5442 4285088106
13.750459 898.02759 1291.2828 4284306814
16.042202 898.02759 1291.2828 4284109435
18.333944 898.02759 1291.2828 4283516770
-36.550457 904.3017 1291.3408 4286395741
11.422018 904.3017 1291.3408 4284697443
13.706422 904.3017 1291.3408 4284501597
18.275229 904.3017 1291.3408 4284632933
-38.834862 906.04816 1292.8134 4285349728
11.422018 906.04816 1292.8134 4284500841
13.706422 906.04816 1292.8134 4284566370
15.990826 906.04816 1292.8134 4284566370
18.275229 906.04816 1292.8134 4284435291
-38.678898 911.88733 1291.1967 4284759136
10.238532 911.88733 1291.1967 4284369505
13.651376 911.88733 1291.1967 4284238166
15.926605 911.88733 1291.1967 4284304216
18.201836 911.88733 1291.1967 4284237405
-43.229359 913.62671 1292.6633 4283645786
-40.954128 913.62671 1292.6633 4284103520
15.926605 913.62671 1292.6633 4284238166
19.339451 913.62671 1292.6633 4284172376
-40.822018 917.23206 1290.4711 4284236651
-37.420181 917.23206 1290.4711 4285091952
6.8036699 917.23206 1290.4711 4284108136
10.205505 917.23206 1290.4711 4284108386
13.60734 917.23206 1290.4711 4284174429
15.875229 917.23206 1290.4711 4284437601
-43.089909 918.96588 1291.933 4283320671
-40.822018 918.96588 1291.933 4283449702
6.8036699 918.96588 1291.933 4285294204
10.205505 918.96588 1291.933 4285161837
13.60734 918.96588 1291.933 4285096548
15.875229 918.96588 1291.933 4285030755
18.14312 918.96588 1291.933 4284964195
-47.471561 926.01074 1292.6409 4281544271
-42.950459 926.01074 1292.6409 4283718014
-40.689907 925.14661 1291.9124 4284901269
-37.299084 925.14661 1291.9122 4285691553
11.302752 924.28253 1291.1837 4283516499
13.563303 924.28253 1291.1837 4283907659
-42.776146 931.75739 1290.9462 4283452267
-40.524769 931.75739 1290.9462 4283650385
-37.147705 931.75739 1290.9462 4284044888
-42.776146 933.47858 1292.3975 4285225082
-40.524769 933.47858 1292.3975 4284898651
-36.022018 933.47858 1292.3975 4284767585
-40.392662 938.73633 1291.5986 4280956225
-38.148624 937.87854 1290.8752 4282862419
-34.408566 938.16449 1291.1163 4281615452
-31.416513 937.87854 1290.8752 4282730335
17.204281 937.59259 1290.6342 4283580238
-37.992661 947.83978 1292.7343 4289637578
-34.267887 947.27026 1292.254 4288456416
-31.288073 946.13123 1291.2936 4286284248
8.9394493 946.98547 1292.0139 4283580749
11.174312 946.98547 1292.0139 4283514957
-34.526604 952.18713 1291.1677 4286481860
8.9100914 951.33563 1290.4497 4283777356
-37.743118 959.91235 1292.4492 4288586703
11.100918 958.21503 1291.0181 4283318604
13.321101 959.06372 1291.7336 4283449419
-35.405506 964.21478 1290.8448 4288455884
1.1064221 964.21478 1290.8448 4284109933
4.4256883 964.21478 1290.8448 4282922060
7.7449546 964.21478 1290.8448 4283515216
11.06422 964.21478 1290.8448 4283384648
13.277064 964.21478 1290.8448 4283514955
16.596331 964.21472 1290.8448 4283448907
19.915596 964.21478 1290.8448 4283317064
22.128441 963.3689 1290.1316 4283120457
-34.299084 966.75238 1292.9845 4288521419
-2.2128441 966.75238 1292.9845 4287995106
1.1064221 966.75238 1292.9845 4284111745
6.6385322 966.75238 1292.9845 4283843161
13.277064 966.75238 1292.9845 4283711050
16.596331 966.75238 1292.9845 4283579466
24.240368 972.30688 1291.1277 4283120709
-52.744034 765.09131 1294.301 4284883025
-51.324772 771.55341 1293.2095 4283770440
-48.880733 771.55341 1293.2095 4282984788
-46.436699 771.55341 1293.2095 4283182166
-48.697247 779.84888 1293.6639 4283048529
-52.719265 814.96313 1295.8027 4284951900
-50.322937 814.96313 1295.8027 4284886107
-47.127827 813.74176 1294.7728 4285606227
-43.133945 813.1311 1294.2579 4286261084
-46.549541 821.21198 1294.5314 4285540427
-42.968807 821.21198 1294.5314 4286064208
-49.976147 826.91858 1294.111 4284886875
-47.596329 826.91858 1294.111 4285737307
-49.976147 828.73798 1295.645 4285410906
-47.596329 828.73798 1295.645 4285737818
-52.154129 836.73889 1295.851 4284755279
-49.783485 835.8327 1295.0869 4284755540
-46.227524 835.83264 1295.0869 4286000733
-47.229359 842.89233 1294.4993 4285804117
-44.867889 842.89233 1294.4993 4286527841
-54.102753 849.91693 1293.8821 4284627034
-51.750458 849.91693 1293.8821 4284888915
-42.341286 849.01776 1293.1239 4286397549
-39.988991 849.01776 1293.1239 4287713409
23.522936 849.91693 1293.8821 4290757088
-51.548622 856.90637 1293.2354 4284559179
-49.205505 856.90637 1293.2354 4284888144
-46.862385 856.90637 1293.2354 4285675609
14.058716 856.90637 1293.2354 4289902572
16.401834 856.90637 1293.2354 4290034158
18.744955 856.90637 1293.2354 4290230508
22.259632 856.90637 1293.2354 4290033387
-51.548622 858.69775 1294.7457 4284560715
-49.205505 858.69775 1294.7457 4284757837
-46.862385 858.69775 1294.7457 4285414488
18.744955 858.69775 1294.7457 4290230508
22.259632 858.69775 1294.7457 4290230509
-43.601227 864.85376 1294.7041 4286401644
22.189907 864.25848 1294.2023 4290231019
-44.205505 872.06714 1294.2462 4286336874
-41.878899 872.06714 1294.2462 4286729331
-44.205505 873.84589 1295.746 4286272625
-48.511925 886.19348 1294.3848 4285678189
-46.018349 893.00409 1293.5872 4285025374
-43.71743 893.00409 1293.5872 4286078063
-41.416515 893.00409 1293.5872 4286078326
23.009174 893.00409 1293.5872 4284042102
25.310091 893.00409 1293.5872 4283844724
-46.018349 894.76312 1295.0704 4285025372
-43.71743 894.76312 1295.0704 4286143854
-41.416515 894.76312 1295.0704 4286537600
20.708258 894.76312 1295.0704 4282990434
23.009174 894.76312 1295.0704 4283385181
25.310091 894.76312 1295.0704 4283648096
-43.543118 902.40771 1294.9761 4285418600
-41.251377 901.53168 1294.2374 4286270057
-38.959633 901.53168 1294.2374 4286006885
13.750459 900.65564 1293.4988 4283976800
16.042202 902.40771 1294.9761 4284567390
18.333944 900.65564 1293.4988 4284371305
-41.119267 907.79456 1294.2859 4285545572
15.990826 907.79456 1294.2859 4284304216
18.275229 907.79456 1294.2859 4284237655
-43.403671 909.54102 1295.7584 4284235861
-41.119267 909.54102 1295.7584 4284759136
20.559633 909.54102 1295.7584 4284303198
-46.262997 916.52582 1295.1078 4283385952
-43.229359 915.36621 1294.13 4283714141
19.718657 915.94598 1294.6189 4284765535
22.752293 916.2359 1294.8633 4284634989
-43.089909 920.69971 1293.3949 4282860377
-40.822018 920.69971 1293.3949 4282859618
11.33945 920.69971 1293.3949 4285095531
15.875229 920.69971 1293.3949 4285291613
18.14312 920.69971 1293.3949 4285094486
-46.491745 922.43353 1294.8568 4281806930
-43.089909 922.43353 1294.8568 4283716468
15.875229 922.43353 1294.8568 4283973452
18.14312 922.43353 1294.8568 4283907909
-46.341286 928.60303 1294.8267 4281413713
-42.950459 927.73895 1294.0981 4282862707
19.21468 929.46716 1295.5553 4283843151
-42.776146 935.19983 1293.8488 4284502901
-40.524769 935.19983 1293.8488 4284044889
-36.022018 935.19983 1293.8488 4283783519
-45.027523 936.92102 1295.3 4281742679
-42.776146 936.92102 1295.3 4281874266
20.262384 936.92102 1295.3 4283318604
22.513762 936.92102 1295.3 4283252044
24.765137 936.92102 1295.3 4283252044
-40.392662 940.4519 1293.045 4281942361
-38.148624 940.4519 1293.045 4282995050
-35.904587 940.4519 1293.045 4283256961
-31.416513 940.4519 1293.045 4283585924
16.830275 940.4519 1293.045 4283318603
20.196331 940.4519 1293.045 4283318604
22.440367 940.4519 1293.045 4283252296
-38.148624 943.02527 1295.215 4288124319
-35.904587 943.02527 1295.215 4289309918
13.46422 943.88306 1295.9382 4283645770
16.830275 943.02527 1295.215 4283252553
22.440367 942.16748 1294.4917 4283252809
-37.992661 949.54834 1294.1748 4289046752
-35.757797 949.54834 1294.1748 4288586975
11.174312 949.54834 1294.1748 4283645770
-37.992661 951.25696 1295.6155 4287930063
11.174312 951.25696 1295.6155 4283318604
13.409174 951.25696 1295.6155 4283645770
16.761467 951.25696 1295.6155 4283711563
25.700916 951.25696 1295.6155 4283120962
-37.867889 955.59302 1294.0394 4288453826
13.365138 954.74158 1293.3215 4283645770
15.592661 956.44452 1294.7573 4283711563
-37.743118 961.60974 1293.8804 4288455628
-37.743118 963.30707 1295.3115 4288521419
-33.192661 968.44415 1294.4109 4288389832
-30.979816 968.44415 1294.4109 4288258251
-28.766972 968.44415 1294.4109 4288455374
-25.447706 968.44415 1294.4109 4288455880
-22.128441 968.44415 1294.4109 4288389832
-19.915596 968.44415 1294.4109 4288389832
-13.277064 968.44415 1294.4109 4288060618
-11.06422 968.44415 1294.4109 4287665860
-8.8513765 968.44415 1294.4109 4287337662
17.702753 968.44415 1294.4109 4283446856
19.915596 968.44415 1294.4109 4283446856
-30.979816 970.13586 1295.8374 4288192458
22.128441 970.13586 1295.8374 4283120709
-51.902752 753.9726 1298.0062 4285144652
-51.710091 760.48376 1296.9562 4285276495
-55.326607 808.68622 1297.0503 4284623187
-52.921101 808.68622 1297.0503 4285147216
-50.515594 810.52527 1298.601 4285212759
-52.719265 818.62714 1298.8921 4284822617
-50.322937 817.71118 1298.1198 4284690262
-44.867889 844.69769 1296.0215 4286198619
-44.867889 846.50305 1297.5438 4285870944
22.34679 852.61444 1296.1565 4290756848
-49.205505 860.48901 1296.2561 4284101962
-46.862385 860.48901 1296.2561 4285150298
-49.205505 862.2804 1297.7666 4284825177
-46.862385 862.2804 1297.7666 4285283679
-49.051376 869.61566 1298.7192 4284825181
-46.715595 869.61566 1298.7192 4285349978
-53.132111 890.60864 1298.1077 4283901778
-49.281956 889.43121 1297.1149 4284955239
-46.018349 896.52222 1296.5536 4285090917
-43.71743 896.52222 1296.5536 4285945970
20.708258 896.52222 1296.5536 4284174692
-48.319267 898.28125 1298.0369 4285678689
-46.018349 898.28125 1298.0369 4285550449
-43.71743 898.28125 1298.0369 4286208379
20.708258 898.28125 1298.0369 4284437099
-48.126606 905.91187 1297.9307 4285219424
-45.834862 905.91187 1297.9307 4285089882
-43.543118 905.03583 1297.192 4285090135
-41.251377 904.15979 1296.4534 4285744230
-46.830276 911.28748 1297.231 4283184723
22.844036 911.28748 1297.231 4284042341
-47.972477 913.03394 1298.7036 4283253090
-50.055046 920.58447 1298.5299 4282003026
-46.6422 918.84503 1297.0632 4283122273
20.477064 919.71472 1297.7966 4284567118
22.752293 919.71472 1297.7966 4284566613
-49.893578 925.0343 1297.0497 4281479246
-45.3578 924.16736 1296.3187 4280954708
15.875229 924.16736 1296.3187 4283711313
18.899084 924.7453 1296.806 4283974216
-49.732109 932.92358 1298.4697 4281806422
-46.341286 932.92358 1298.4697 4282332505
19.21468 932.05945 1297.7411 4283515215
22.605505 932.92358 1298.4697 4283252046
24.866055 932.92358 1298.4697 4283252046
24.765137 938.64221 1296.7512 4283120709
20.262384 940.3634 1298.2025 4283187532
24.765137 940.3634 1298.2025 4283318602
27.016514 940.3634 1298.2025 4283186498
13.46422 946.45642 1298.108 4283645262
16.830275 946.45642 1298.108 4283580235
20.196331 946.45642 1298.108 4283449416
22.440367 946.45642 1298.108 4283121478
25.806423 946.45642 1298.108 4282924352
29.172478 947.31421 1298.8313 4283187004
16.761467 952.96552 1297.056 4283514954
20.113762 952.96552 1297.056 4283252809
22.348623 952.96552 1297.056 4283252296
25.700916 952.96552 1297.056 4283120964
17.878899 954.67407 1298.4967 4283318604
25.700916 954.67407 1298.4967 4283055173
-40.095413 959.85046 1297.6292 4288521421
15.592661 958.14746 1296.1932 4283252555
-37.743118 965.00439 1296.7427 4288455374
4.4403667 965.00439 1296.7427 4282659143
8.8807335 965.00439 1296.7427 4283318604
11.100918 965.00439 1296.7427 4283252555
-35.522934 966.70178 1298.1738 4288455626
-16.651375 966.70178 1298.1738 4288060620
-6.6605506 966.70178 1298.1738 4288258764
-4.4403667 966.70178 1298.1738 4288718816
-2.2201834 966.70178 1298.1738 4288652766
1.1100917 966.70178 1298.1738 4284374663
13.321101 966.70178 1298.1738 4283645005
15.541285 966.70178 1298.1738 4283579212
22.128441 971.82758 1297.2638 4283186498
24.341284 971.82758 1297.2638 4283120705
-51.902752 755.86212 1299.5995 4285209675
-50.322937 820.45917 1300.4368 4284625238
-49.205505 865.86304 1300.7874 4284759134
-46.862385 864.96741 1300.0322 4285218391
-50.983486 888.69226 1301.7239 4283967320
-53.132111 892.37476 1299.5967 4283901778
-49.666969 892.37476 1299.5967 4284626785
-57.752293 894.14087 1301.0858 4283706453
-55.442204 894.14087 1301.0858 4284034130
-53.132111 894.14087 1301.0858 4283902544
-49.666969 894.14087 1301.0858 4284495451
23.100918 894.14087 1301.0858 4284372076
25.411009 894.14087 1301.0858 4284372076
27.721102 894.14087 1301.0858 4284371301
-64.42569 901.79944 1301.0032 4283969883
-57.522934 900.91992 1300.2616 4283705939
-55.222019 900.04034 1299.52 4284033878
-52.921101 900.04034 1299.52 4283902292
-49.469727 900.91986 1300.2616 4284626270
-46.018349 900.91992 1300.2616 4285484641
20.708258 900.91992 1300.2616 4284566880
-48.126606 907.66394 1299.408 4284694872
-45.834862 907.66394 1299.408 4284367447
22.917431 907.66394 1299.408 4284237918
-50.41835 909.41602 1300.8851 4282723660
-50.256882 914.78033 1300.1761 4282004820
-50.256882 916.52679 1301.6487 4282265943
-52.330276 922.32391 1299.9966 4281412681
-52.330276 924.06335 1301.4633 4281217357
20.477064 924.06335 1301.4633 4283843401
22.752293 924.06335 1301.4633 4283516497
25.027523 924.06335 1301.4633 4283384910
-49.893578 928.50189 1299.9735 4281741649
-46.491745 929.36877 1300.7045 4282331988
-47.471561 934.65179 1299.9269 4281939029
20.262384 942.08459 1299.6538 4283252809
22.513762 942.08459 1299.6538 4283252296
24.765137 942.08459 1299.6538 4283186502
20.196331 949.02979 1300.2778 4283777356
22.440367 949.02979 1300.2778 4283187012
-40.227524 956.38263 1299.9373 4288520910
17.878899 956.38263 1299.9373 4283252044
20.113762 956.38263 1299.9373 4283186250
26.818348 956.38263 1299.9373 4283120709
-46.93211 958.09119 1301.3779 4288915917
-43.579819 958.09119 1301.3779 4288916431
-46.777981 961.55334 1299.0651 4288981974
-43.436699 961.55334 1299.0651 4289179085
-40.095413 961.55334 1299.0651 4288587212
-49.005505 964.10779 1301.2189 4288456396
-46.777981 963.25635 1300.501 4288456398
-43.436699 964.10779 1301.2189 4288389837
-40.095413 964.10779 1301.2189 4288324043
-37.867889 964.95929 1301.9368 4288455628
4.4550457 964.95929 1301.9368 4282133579
7.7963305 964.95929 1301.9368 4283383642
11.137614 964.95929 1301.9368 4283251796
-33.302753 968.39911 1299.605 4288389580
-22.201836 968.39911 1299.605 4288455880
-19.981651 968.39911 1299.605 4288389830
19.981651 968.39911 1299.605 4283120709
-55.537613 807.91943 1302.9438 4284821334
-53.122936 807.91943 1302.9438 4285212759
-49.398167 861.6062 1303.7382 4284890970
-61.21743 895.90692 1302.575 4283903579
-57.752293 895.90692 1302.575 4283837015
-55.442204 895.90692 1302.575 4284033878
-53.132111 895.90692 1302.575 4283770962
-50.822018 895.90692 1302.575 4283770692
23.100918 895.90692 1302.575 4284371301
-61.21743 897.67303 1304.0641 4283903833
-57.522934 904.43799 1303.228 4283509584
-55.222019 904.43799 1303.228 4283640143
-52.921101 904.43799 1303.228 4283574606
-50.620182 904.43799 1303.228 4283443781
20.708258 903.55847 1302.4865 4284369242
-52.710091 911.16803 1302.3624 4283182416
-50.41835 911.16803 1302.3624 4282331988
-57.293579 912.92004 1303.8397 4282529622
-52.710091 912.92004 1303.8397 4282528336
-52.541283 918.27325 1303.1212 4281412429
-52.330276 925.80273 1302.9298 4281348687
-52.330276 927.54224 1304.3965 4281480271
20.477064 927.54224 1304.3965 4283516497
22.752293 927.54224 1304.3965 4283384397
25.027523 927.54224 1304.3965 4283318604
-49.893578 932.83643 1303.6283 4281741394
-40.689907 938.10822 1302.8412 4282795086
-40.689907 939.83643 1304.2983 4285163634
27.126606 939.83643 1304.2983 4283186498
-42.776146 946.38757 1303.282 4287466421
-40.524769 946.38757 1303.282 4287139523
20.196331 952.461 1303.1709 4283186762
22.440367 952.461 1303.1709 4283187016
-42.636696 954.17657 1304.6174 4288848839
22.440367 954.17657 1304.6174 4283186250
24.684404 954.17657 1304.6174 4283120457
-49.166973 959.7998 1302.8186 4288653009
-40.095413 966.66229 1303.3727 4288390351
-37.867889 967.51379 1304.0906 4288389582
-34.897858 967.79761 1304.33 4288585930
-31.185322 968.36523 1304.8086 4288323276
-28.957798 966.66229 1303.3727 4288192458
-24.502752 967.51379 1304.0906 4288389319
-22.275229 968.36523 1304.8086 4288258501
-20.047707 968.36523 1304.8086 4288455880
-17.077675 967.22998 1303.8513 4287864005
-13.365138 966.66229 1303.3727 4288257733
-11.137614 966.66229 1303.3727 4287994561
-7.7963305 967.51379 1304.0906 4287732413
-4.4550457 967.51379 1304.0906 4287995335
-2.2275229 967.51379 1304.0906 4288587471
13.365138 966.66229 1303.3727 4283318604
24.422018 971.79382 1302.4673 4283186498
-55.710091 849.42554 1306.5481 4284692314
-51.952293 856.43256 1305.916 4284364880
23.174313 895.77905 1307.6993 4284174179
-61.21743 899.43909 1305.5532 4283838040
-55.442204 899.43909 1305.5532 4283770710
-53.132111 899.43909 1305.5532 4283770710
23.100918 899.43909 1305.5532 4284501595
-61.21743 901.2052 1307.0424 4283838552
23.100918 901.2052 1307.0424 4284303962
-57.522934 907.95618 1306.1945 4283444819
-55.222019 907.95618 1306.1945 4283313745
-52.921101 907.07666 1305.4529 4283181901
-55.001835 914.67212 1305.317 4282200400
-52.710091 914.67212 1305.317 4282003022
-52.330276 931.02106 1307.3298 4281807441
-46.491745 934.57031 1305.0902 4282270300
-43.089909 934.57031 1305.0902 4282205279
27.21468 934.57031 1305.0902 4283055162
-43.089909 936.30408 1306.5521 4281089097
-40.689907 941.56458 1305.7556 4288255925
-42.776146 949.82996 1306.1846 4287335098
-40.524769 949.82996 1306.1846 4287796152
-49.166973 964.92554 1307.1404 4288456396
-46.93211 964.07123 1306.4202 4288456395
-43.579819 964.92554 1307.1404 4288258510
-26.818348 964.92554 1307.1404 4288455112
1.1174312 964.92554 1307.1404 4284702347
4.4697247 964.92554 1307.1404 4282001992
7.8220181 964.92554 1307.1404 4283318615
11.174312 964.92554 1307.1404 4282924878
16.761467 964.92554 1307.1404 4283120967
22.275229 970.06824 1306.2445 4283186498
-55.710091 851.23792 1308.0762 4284430169
-55.710091 853.05029 1309.6044 4284233560
-51.952293 859.14062 1308.1995 4284562261
-55.222019 910.59479 1308.4192 4282725459
-50.055046 932.7605 1308.7964 4282137685
29.577982 932.7605 1308.7964 4283187004
31.85321 932.7605 1308.7964 4283447623
-50.055046 934.49994 1310.2631 4282467159
-46.6422 934.49994 1310.2631 4282139989
29.577982 934.49994 1310.2631 4283186498
31.85321 934.49994 1310.2631 4283513416
-43.089909 938.0379 1308.014 4282926676
29.482569 938.0379 1308.014 4283186498
31.750458 938.0379 1308.014 4283186250
-49.893578 941.50555 1310.9379 4284571747
-46.113758 940.92767 1310.4506 4286281613
-43.089909 939.77173 1309.476 4287595679
-49.166973 966.63409 1308.5811 4288718282
-46.93211 966.63409 1308.5811 4288718282
-43.579819 966.63409 1308.5811 4288586444
-40.227524 967.4884 1309.3014 4288585422
-37.992661 968.34265 1310.0217 4288650188
-34.640366 968.34265 1310.0217 4288519109
-31.288073 968.34265 1310.0217 4288323274
-29.053211 966.63409 1308.5811 4288323276
-26.818348 966.63409 1308.5811 4288389319
-22.348623 968.34265 1310.0217 4288060868
-15.644036 966.63409 1308.5811 4287798465
-13.409174 966.63409 1308.5811 4287666623
-11.174312 966.63409 1308.5811 4287666623
1.1174312 966.63409 1308.5811 4284899710
4.4697247 966.63409 1308.5811 4282264910
7.8220181 966.63409 1308.5811 4283449687
11.174312 966.63409 1308.5811 4283252555
13.409174 966.63409 1308.5811 4283252557
16.761467 966.63409 1308.5811 4283120968
20.113762 966.63409 1308.5811 4283186502
-55.710091 854.86267 1311.1324 4284167767
-54.524769 856.67505 1312.6606 4284299353
-50.055046 937.10907 1312.4631 4281743437
-47.021404 936.81915 1312.2186 4282730073
24.583487 970.05127 1311.4623 4282857790
-54.524769 858.48737 1314.1887 4284299864
-52.541283 932.24481 1314.9017 4282728541
-52.541283 933.99127 1316.3743 4282073177
-51.612843 967.04346 1315.4664 4288191946
-49.368809 967.04346 1315.4664 4288257738
-47.124771 967.04346 1315.4664 4288257738
-43.758713 967.04346 1315.4664 4288191940
-40.392662 967.90125 1316.1897 4288257481
-38.148624 967.90125 1316.1897 4288257481
-34.78257 967.90125 1316.1897 4288191940
-31.416513 967.90125 1316.1897 4288257481
-29.172478 966.18567 1314.7432 4288389067
-25.806423 966.18567 1314.7432 4288258503
-20.196331 967.04346 1315.4664 4287994818
-17.204281 966.75751 1315.2253 4288126144
-13.46422 966.18567 1314.7432 4287535546
-11.220183 966.18567 1314.7432 4287535546
-7.4801221 966.75751 1315.2253 4287930307
-4.4880733 967.04346 1315.4664 4288390097
-2.2440367 967.04346 1315.4664 4286416050
1.1220183 966.18567 1314.7432 4282667638
4.4880733 966.18567 1314.7432 4282921807
8.2281342 966.75751 1315.2253 4283251539
11.220183 966.18567 1314.7432 4283315788
13.46422 967.04346 1315.4664 4283054416
16.830275 967.04346 1315.4664 4282923080
20.196331 967.04346 1315.4664 4283054403
22.440367 967.90125 1316.1897 4282857790
-57.115597 854.20941 1317.1219 4284430682
-52.541283 935.73773 1317.8468 4281153622
-28.1422 966.18127 1319.9716 4288257478
-24.765137 966.18127 1319.9716 4288257731
-22.513762 966.18127 1319.9716 4288060355
-15.759633 966.18127 1319.9716 4288322495
-13.508257 966.18127 1319.9716 4287862712
-10.131193 966.18127 1319.9716 4287863226
1.1256881 966.18127 1319.9716 4283126084
4.5027523 966.18127 1319.9716 4282858583
6.7541285 966.18127 1319.9716 4282990169
11.256881 966.18127 1319.9716 4282596176
-51.612843 969.61682 1317.6362 4288126924
-49.368809 969.61682 1317.6362 4287864259
-47.124771 969.61682 1317.6362 4287930052
-40.392662 969.61682 1317.6362 4288192710
-38.148624 969.61682 1317.6362 4288126661
-35.904587 969.61682 1317.6362 4287864259
24.684404 969.61682 1317.6362 4283054912
-45.027523 967.90247 1321.4229 4287930052
-42.776146 967.90247 1321.4229 4287995845
-33.770641 967.90247 1321.4229 4287864259
-31.519266 967.90247 1321.4229 4287928770
-19.136696 967.90247 1321.4229 4287927230
9.0055046 967.90247 1321.4229 4284242786
13.508257 967.90247 1321.4229 4283256418
15.759633 967.90247 1321.4229 4282861917
19.136696 967.90247 1321.4229 4282923097
22.513762 967.90247 1321.4229 4282857790
-51.781651 969.62372 1322.874 4288519622
-49.530273 969.62372 1322.874 4288322241
-47.2789 969.62372 1322.874 4288190911
-40.524769 969.62372 1322.874 4288519876
-59.908257 849.77142 1325.1521 4284495964
-51.781651 971.34491 1324.3253 4288321977
-49.530273 971.34491 1324.3253 4288255671
-47.2789 971.34491 1324.3253 4288255671
-28.256882 965.75952 1326.1561 4287862721
-24.866055 965.75952 1326.1561 4287796928
-22.605505 965.75952 1326.1561 4287861440
-15.823853 965.75952 1326.1561 4288058812
-13.563303 965.75952 1326.1561 4287796919
-10.172478 965.75952 1326.1561 4287927738
-6.7816515 965.75952 1326.1561 4287400627
-4.521101 965.75952 1326.1561 4285627310
-2.2605505 965.75952 1326.1561 4284443037
2.2605505 965.75952 1326.1561 4282802284
4.521101 965.75952 1326.1561 4284242282
6.7816515 965.75952 1326.1561 4284308075
11.302752 965.75952 1326.1561 4284110944
-45.21101 967.48779 1327.6133 4288388034
-42.950459 967.48779 1327.6133 4288585669
-37.299084 967.48779 1327.6133 4288388804
-33.908257 967.48779 1327.6133 4288126404
-31.647707 967.48779 1327.6133 4288060357
-28.256882 967.48779 1327.6133 4287994050
-24.866055 967.48779 1327.6133 4288190659
-22.605505 967.48779 1327.6133 4288124866
-19.21468 967.48779 1327.6133 4288124607
-9.042202 967.48779 1327.6133 4287269809
-6.7816515 967.48779 1327.6133 4285296019
-4.521101 967.48779 1327.6133 4284508284
-2.2605505 967.48779 1327.6133 4283784561
20.344954 967.48779 1327.6133 4283780468
22.605505 967.48779 1327.6133 4283845963
-42.776146 976.50848 1328.6792 4283844696
-15.875229 965.77905 1331.4047 4288058812
-13.60734 965.77905 1331.4047 4288123831
-11.33945 965.77905 1331.4047 4288189880
0.75596333 965.20111 1330.9174 4283259755
4.53578 965.77905 1331.4047 4284176993
6.8036699 965.77905 1331.4047 4284176993
10.205505 965.77905 1331.4047 4284570204
13.60734 965.77905 1331.4047 4284044137
15.875229 965.77905 1331.4047 4284175724
18.14312 965.77905 1331.4047 4284109177
-46.341286 970.08008 1329.7991 4288452533
-42.950459 970.08008 1329.7991 4288254902
-40.689907 970.08008 1329.7991 4288189367
-38.429359 969.21594 1329.0704 4288321979
-46.341286 972.67236 1331.9849 4284895854
-42.950459 972.67236 1331.9849 4285027441
-40.689907 972.67236 1331.9849 4284765557
-36.28624 967.51288 1332.8666 4287928505
-34.018349 967.51288 1332.8666 4287928505
-31.750458 967.51288 1332.8666 4287928507
-28.348625 967.51288 1332.8666 4287205043
-24.946789 967.51288 1332.8666 4287139766
