# .PCD v0.7 - Point Cloud Data file format
VERSION 0.7
FIELDS x y z rgb
SIZE 4 4 4 4
TYPE F F F U
COUNT 1 1 1 1
WIDTH 1160
HEIGHT 1
VIEWPOINT 0 0 0 1 0 0 0
POINTS 1160
DATA ascii
-28.029358 841.04407 1274.6284 4287437654
-25.693579 841.04407 1274.6284 4287963998
1.16789 841.04407 1274.6284 4287136942
-37.225689 848.94397 1274.7493 4286193479
-27.919266 848.05457 1273.9994 4287372627
-25.592661 848.05457 1273.9994 4287833433
-23.266054 848.05457 1273.9994 4288160600
-2.3266056 847.16522 1273.2495 4289963740
-30.126606 856.80176 1274.8347 4286729344
-27.809174 856.80176 1274.8347 4286591067
-25.491743 856.80176 1274.8347 4288433271
-23.174313 855.03009 1273.3408 4287903072
-20.85688 855.91589 1274.0878 4287971174
-2.3174312 855.03009 1273.3408 4289961939
4.6348624 856.80176 1274.8347 4289178581
6.9522934 856.80176 1274.8347 4289507803
-27.721102 860.58521 1272.7926 4287180137
-25.411009 860.58521 1272.7926 4289088134
-23.100918 860.58521 1272.7926 4288696427
-19.63578 860.58521 1272.7926 4288827510
-2.3100917 860.58521 1272.7926 4290292188
-31.186239 862.35132 1274.2817 4287258530
-27.721102 862.35132 1274.2817 4286454600
-25.411009 862.35132 1274.2817 4288296804
-23.100918 862.35132 1274.2817 4288235363
-20.790825 862.35132 1274.2817 4288761707
-2.3100917 862.35132 1274.2817 4290030042
-27.61101 868.37708 1272.8224 4286847046
-25.310091 868.37708 1272.8224 4287044681
-23.009174 868.37708 1272.8224 4287306313
-19.557798 868.37708 1272.8224 4288294501
-16.106422 868.37708 1272.8224 4289085054
-13.805505 868.37708 1272.8224 4288497265
-10.354128 868.37708 1272.8224 4288500862
-6.9027524 868.37708 1272.8224 4290149284
-4.6018348 868.37708 1272.8224 4288910535
-2.3009174 868.37708 1272.8224 4290094808
-34.51376 870.13611 1274.3055 4285670226
-32.212845 870.13611 1274.3055 4286192714
-28.761467 870.13611 1274.3055 4286717776
-6.9027524 870.13611 1274.3055 4290279842
-2.3009174 870.13611 1274.3055 4290290902
-36.667889 877.87897 1274.2939 4284882750
-34.376148 877.00293 1273.5553 4285474635
-32.084404 877.00293 1273.5553 4286063435
-28.64679 876.12689 1272.8167 4286654287
-25.209175 876.12689 1272.8167 4288495721
-22.917431 876.12689 1272.8167 4288300919
-18.333944 876.12689 1272.8167 4288165747
-16.042202 877.00293 1273.5553 4288365694
-13.750459 877.00293 1273.5553 4288233849
-10.312844 877.00293 1273.5553 4287380591
-6.8752294 877.00293 1273.5553 4290540192
-4.5834861 877.00293 1273.5553 4288711352
-2.291743 877.00293 1273.5553 4290158799
-34.266056 881.5979 1272.1975 4285344064
-31.981651 881.5979 1272.1975 4286062411
-13.706422 881.5979 1272.1975 4289026453
-34.266056 883.34436 1273.67 4285540675
-13.706422 883.34436 1273.67 4288828558
-10.279816 883.34436 1273.67 4288501126
-6.8532109 883.34436 1273.67 4289884312
-4.5688071 883.34436 1273.67 4288711095
-2.2844036 883.34436 1273.67 4290421457
-28.440367 889.27466 1272.1304 4286455885
-25.027523 889.27466 1272.1304 4288165225
-22.752293 889.27466 1272.1304 4287316591
-13.651376 889.27466 1272.1304 4288301953
-10.238532 889.27466 1272.1304 4288105598
-4.5504589 889.27466 1272.1304 4288447163
-43.229359 891.01416 1273.5969 4283768895
-40.954128 891.01416 1273.5969 4284488007
-28.440367 891.01416 1273.5969 4286324814
-25.027523 891.01416 1273.5969 4287573346
-4.5504589 891.01416 1273.5969 4288183995
-2.2752295 891.01416 1273.5969 4289763284
-43.089909 896.42621 1272.9281 4283835972
-40.822018 896.42621 1272.9281 4284620609
-24.946789 896.42621 1272.9281 4286586442
-22.6789 896.42621 1272.9281 4287110738
-20.411009 896.42621 1272.9281 4287373653
-13.60734 896.42621 1272.9281 4288431978
-10.205505 896.42621 1272.9281 4288434035
-6.8036699 896.42621 1272.9281 4289160071
-4.53578 896.42621 1272.9281 4287592110
-2.26789 896.42621 1272.9281 4289434314
-24.946789 898.16003 1274.39 4286652744
-22.6789 898.16003 1274.39 4287110990
-19.277065 898.16003 1274.39 4287307599
-13.60734 898.16003 1274.39 4287700056
-10.205505 898.16003 1274.39 4288231014
-6.8036699 898.16003 1274.39 4289288314
-4.53578 898.16003 1274.39 4287591593
-2.26789 898.16003 1274.39 4289565639
-18.084404 901.8158 1272.2404 4287438163
-15.823853 901.8158 1272.2404 4288491107
-13.563303 901.8158 1272.2404 4287701092
-10.172478 901.8158 1272.2404 4287835500
-6.7816515 901.8158 1272.2404 4289352074
-4.521101 901.8158 1272.2404 4287327394
-2.2605505 901.8158 1272.2404 4290090700
-22.605505 903.54401 1273.6975 4286980683
-19.21468 903.54401 1273.6975 4287177295
-15.823853 903.54401 1273.6975 4287966044
-13.563303 903.54401 1273.6975 4287768413
-10.172478 903.54401 1273.6975 4287769953
-6.7816515 903.54401 1273.6975 4287837286
-4.521101 903.54401 1273.6975 4287061385
-2.2605505 903.54401 1273.6975 4290877635
-24.765137 911.10303 1273.531 4286064710
-22.513762 911.10303 1273.531 4286652746
-19.136696 910.24243 1272.8053 4286848590
-15.759633 910.24243 1272.8054 4287504985
-13.508257 910.24243 1272.8054 4287571543
-9.7559633 909.95557 1272.5635 4287968094
-6.7541285 910.24243 1272.8054 4287902556
-4.5027523 911.10303 1273.531 4286330450
-2.2513762 910.24243 1272.8054 4286067281
-27.016514 912.82422 1274.9822 4286063689
-24.765137 912.82422 1274.9822 4286129482
-4.5027523 912.82422 1274.9822 4286132049
-25.806423 916.43372 1272.7936 4284884551
-20.196331 916.43372 1272.7936 4285932621
-4.4880733 916.43372 1272.7936 4286067542
-2.2440367 916.43372 1272.7936 4285804113
-29.172478 918.14929 1274.2401 4284894565
-25.806423 918.14929 1274.2401 4284695394
-4.4880733 918.14929 1274.2401 4286068820
-2.2440367 918.14929 1274.2401 4285674062
0 918.14929 1274.2401 4284301906
-25.700916 923.9198 1272.5654 4283510364
-22.348623 923.9198 1272.5654 4284173929
-20.113762 923.9198 1272.5654 4284108136
-17.878899 923.9198 1272.5654 4286145664
-6.704587 923.9198 1272.5654 4285742449
-4.4697247 923.9198 1272.5654 4285543759
-2.2348623 923.9198 1272.5654 4285280588
-25.700916 925.62836 1274.0061 4282852173
-22.348623 925.62836 1274.0061 4283385149
-4.4697247 925.62836 1274.0061 4284298570
-2.2348623 925.62836 1274.0061 4284561741
1.1174312 925.62836 1274.0061 4283777107
-25.616514 931.75159 1273.937 4284434266
-22.275229 931.75159 1273.937 4284894811
-20.047707 931.75159 1273.937 4284105039
-16.706421 931.75159 1273.937 4282529623
-13.365138 931.75159 1273.937 4282070613
-11.137614 931.75159 1273.937 4283518059
-8.9100914 930.90015 1273.219 4286148235
-2.2275229 931.75159 1273.937 4284174447
-34.412842 937.8468 1273.8441 4283649105
-31.082569 937.8468 1273.8441 4283648596
-13.321101 936.99817 1273.1285 4281347925
-11.100918 936.99817 1273.1285 4281347668
-8.1406727 936.71527 1272.89 4282529879
-2.2201834 936.99817 1273.1285 4283516247
-33.192661 944.75977 1274.4409 4284110696
-30.979816 944.75977 1274.4409 4284110196
-28.766972 944.75977 1274.4409 4284373368
-24.341284 943.06805 1273.0145 4281150822
-19.915596 943.91394 1273.7278 4281940845
-16.596331 943.91394 1273.7278 4281282397
-13.277064 943.91394 1273.7278 4280690769
-16.527523 950.40546 1272.661 4284116370
-13.222018 950.40546 1272.661 4285363622
-19.833027 952.09021 1274.0815 4279317610
1.1018349 952.09021 1274.0815 4283186250
4.4073396 952.09021 1274.0815 4283643719
-25.257797 958.93164 1274.6179 4288848867
-21.963303 958.93164 1274.6179 4289375460
1.0944954 962.39246 1272.3038 4282004818
4.3779817 962.39246 1272.3038 4282857540
-21.889908 964.06598 1273.7148 4287732409
-19.700918 964.06598 1273.7148 4287732409
0 964.06598 1273.7148 4283978090
-15.27156 969.1778 1272.793 4287138734
-13.089909 969.1778 1272.793 4287007403
-10.908257 969.1778 1272.793 4287204781
-7.6357799 969.1778 1272.793 4287994298
-4.3633027 969.1778 1272.793 4289309917
-46.262386 760.30341 1277.1836 4283308868
9.7394495 759.37268 1276.3989 4290230258
13.797554 759.99316 1276.922 4290362354
-46.053211 769.17896 1276.8191 4282988390
-43.629356 769.17896 1276.8191 4283054423
-45.878899 776.53674 1276.4828 4283513457
-43.464222 776.53674 1276.4828 4283905108
9.6587152 776.53674 1276.4828 4290230256
13.280734 776.53674 1276.4828 4290164721
16.902752 776.53674 1276.4828 4290362358
19.31743 776.53674 1276.4828 4290098418
-45.704586 782.93982 1275.3417 4285685894
-43.299084 782.93982 1275.3417 4286601065
7.2165136 782.93982 1275.3417 4290230510
9.6220188 782.93982 1275.3417 4290164463
13.230275 782.93982 1275.3417 4290033136
16.838531 782.93982 1275.3417 4289967602
19.244038 782.93982 1275.3417 4289967600
-55.326607 784.77881 1276.8922 4285094007
-52.921101 784.77881 1276.8922 4284899713
-49.312843 784.77881 1276.8922 4285820561
-45.704586 784.77881 1276.8922 4285622672
7.2165136 784.77881 1276.8922 4290230258
9.6220188 784.77881 1276.8922 4290164974
13.230275 784.77881 1276.8922 4289836527
16.838531 784.77881 1276.8922 4289639666
19.244038 784.77881 1276.8922 4289901807
-55.115597 791.14691 1275.7214 4283451498
-52.719265 791.14691 1275.7214 4283581801
-50.322937 791.14691 1275.7214 4283581801
-46.728439 791.14691 1275.7214 4285879168
7.1889906 791.14691 1275.7214 4289901038
-50.322937 792.97894 1277.2662 4283187536
-46.728439 792.97894 1277.2662 4285615978
9.5853214 792.97894 1277.2662 4289901036
-50.130276 799.31195 1276.0659 4284433253
-46.549541 799.31195 1276.0659 4285741154
4.774312 799.31195 1276.0659 4289639414
7.161468 799.31195 1276.0659 4289837049
9.548624 799.31195 1276.0659 4289902061
-45.355965 801.13696 1277.6047 4286069852
9.548624 801.13696 1277.6047 4289902574
-54.735779 805.99561 1276.4692 4284229718
-52.355965 805.99561 1276.4692 4284818253
-49.976147 805.08594 1275.7023 4285411936
-42.836697 805.08594 1275.7023 4286788721
-40.456882 805.99561 1276.4692 4286526565
-38.077065 805.99561 1276.4692 4287311707
-35.697247 806.90527 1277.2363 4287114583
0 805.08594 1275.7023 4289704677
4.7596331 805.99561 1276.4692 4289638891
7.1394496 805.99561 1276.4692 4289836270
9.5192661 806.90527 1277.2363 4289705963
-40.300919 814.08417 1276.7491 4286327376
-37.930275 813.17798 1275.9851 4286718030
4.7412844 813.17798 1275.9851 4289901288
7.1119266 814.08417 1276.7491 4290032358
9.4825687 814.08417 1276.7491 4289901801
23.706423 814.99036 1277.5132 4286023351
-40.144955 821.22803 1276.2325 4286061643
7.0844035 821.22803 1276.2325 4287071385
-40.144955 823.03333 1277.7548 4285930827
7.0844035 823.03333 1277.7548 4280625005
9.4458714 823.03333 1277.7548 4279836259
-42.341286 829.23596 1276.4443 4285996618
-39.988991 829.23596 1276.4443 4286062411
7.056881 829.23596 1276.4443 4287203774
9.409174 829.23596 1276.4443 4287074227
-42.341286 831.0343 1277.9607 4285668170
11.761468 831.0343 1277.9607 4290755028
14.113762 831.0343 1277.9607 4290297068
16.466055 831.0343 1277.9607 4288586451
-39.833027 835.4104 1275.1105 4285800009
-37.48991 835.4104 1275.1105 4286586442
1.1715597 835.4104 1275.1105 4281551726
4.6862388 835.4104 1275.1105 4285094286
7.0293579 835.4104 1275.1105 4289699796
9.3724775 835.4104 1275.1105 4290491870
-42.176147 837.20172 1276.6208 4285601864
1.1715597 837.20172 1276.6208 4281744006
4.6862388 837.20172 1276.6208 4283125084
7.0293579 837.20172 1276.6208 4288191145
10.544037 837.20172 1276.6208 4290557647
18.744955 837.20172 1276.6208 4290098409
-39.708256 842.82983 1276.1342 4285732678
-37.372478 842.82983 1276.1342 4286059594
-35.036697 842.82983 1276.1342 4286191180
-31.533028 842.82983 1276.1342 4286913358
-28.029358 842.82983 1276.1342 4287438163
1.16789 842.82983 1276.1342 4288126150
4.6715598 842.82983 1276.1342 4282470823
7.0073395 842.82983 1276.1342 4279115380
-39.708256 844.61554 1277.6399 4285669702
-37.372478 844.61554 1277.6399 4286193479
-35.036697 844.61554 1277.6399 4286127686
-31.533028 844.61554 1277.6399 4286913358
1.16789 844.61554 1277.6399 4289637339
4.6715598 844.61554 1277.6399 4288850385
7.0073395 844.61554 1277.6399 4285363357
9.3431196 844.61554 1277.6399 4281423481
18.686239 844.61554 1277.6399 4286022316
-39.552292 850.72266 1276.249 4285210949
-37.225689 850.72266 1276.249 4285996618
-34.899082 850.72266 1276.249 4285930825
-31.409174 850.72266 1276.249 4286651718
-27.919266 850.72266 1276.249 4287439700
-25.592661 850.72266 1276.249 4287834458
0 850.72266 1276.249 4288915415
-39.552292 852.50134 1277.7488 4284096834
-31.409174 852.50134 1277.7488 4286061897
-27.919266 852.50134 1277.7488 4287112536
-25.592661 852.50134 1277.7488 4287967589
1.1633028 852.50134 1277.7488 4289243352
4.6532111 852.50134 1277.7488 4289571792
6.9798164 852.50134 1277.7488 4290098136
-34.761467 860.34515 1277.8224 4287389827
-31.285322 858.57349 1276.3285 4287388821
1.1587156 859.45935 1277.0754 4289440992
4.6348624 859.45935 1277.0754 4289113819
6.9522934 859.45935 1277.0754 4289245405
9.2697248 859.45935 1277.0754 4289375709
-34.651375 865.88348 1277.26 4286391624
-31.186239 865.88348 1277.26 4286455159
-27.721102 864.11743 1275.7709 4286716243
-25.411009 864.11743 1275.7709 4287966054
-23.100918 864.11743 1275.7709 4288167001
-20.790825 864.11743 1275.7709 4289219945
1.1550459 865.00049 1276.5154 4289375967
4.6201835 865.00049 1276.5154 4289310939
6.9302754 865.00049 1276.5154 4289179353
-34.51376 871.8952 1275.7888 4285605968
-32.212845 871.8952 1275.7888 4286063176
-27.61101 871.8952 1275.7888 4286916688
-2.3009174 871.8952 1275.7888 4290093778
2.3009174 871.8952 1275.7888 4289113056
-39.115597 873.6543 1277.272 4283446329
-36.814678 873.6543 1277.272 4284948295
1.1504587 873.6543 1277.272 4289113310
4.6018348 873.6543 1277.272 4289047515
6.9027524 873.6543 1277.272 4289113308
-36.667889 880.50702 1276.5099 4285014587
-10.312843 879.63098 1275.7712 4288237953
-6.8752294 879.63098 1275.7712 4289818258
-4.5834861 879.63098 1275.7712 4288645302
-2.291743 879.63098 1275.7712 4290421457
1.1458715 881.38306 1277.2485 4289179099
-36.550457 886.83722 1276.6152 4285407813
-34.266056 885.96399 1275.8789 4285539401
-31.981651 885.96399 1275.8789 4286193481
-6.8532109 885.96399 1275.8789 4289818008
-2.2844036 885.96399 1275.8789 4290158291
-43.229359 892.75354 1275.0636 4283900997
-40.954128 892.75354 1275.0636 4284686402
-31.85321 892.75354 1275.0636 4286063176
-28.440367 892.75354 1275.0636 4286389834
-6.8256879 892.75354 1275.0636 4289227915
-4.5504589 892.75354 1275.0636 4287723444
-2.2752295 892.75354 1275.0636 4289434062
-45.504585 894.49298 1276.5303 4283572543
-43.229359 896.23242 1277.9969 4283377472
-40.954128 896.23242 1277.9969 4284620609
-31.85321 894.49298 1276.5303 4286193992
-28.440367 895.36267 1277.2637 4286259271
1.1376147 895.36267 1277.2637 4288519626
4.5504589 895.36267 1277.2637 4288453318
6.8256879 896.23242 1277.9969 4289110993
-40.822018 899.89386 1275.8519 4284422210
-28.348625 899.89386 1275.8519 4286259525
-22.6789 899.89386 1275.8519 4286980683
-20.411009 899.89386 1275.8519 4286914890
-31.750458 901.62769 1277.3138 4285736260
-28.348625 901.62769 1277.3138 4286064196
-24.946789 901.62769 1277.3138 4286457669
1.133945 901.62769 1277.3138 4289571277
4.53578 901.62769 1277.3138 4287666364
-24.866055 905.27222 1275.1548 4286522444
-22.605505 905.27222 1275.1548 4286913872
-19.21468 905.27222 1275.1548 4287176275
-13.563303 905.27222 1275.1548 4287704155
-11.302752 905.27222 1275.1548 4288033121
-6.7816515 905.27222 1275.1548 4287705187
-4.521101 905.27222 1275.1548 4286729842
-2.2605505 905.27222 1275.1548 4291072436
-27.126606 907.00043 1276.6119 4286195528
-24.866055 907.00043 1276.6119 4286327114
-22.605505 907.00043 1276.6119 4286783822
-4.521101 907.00043 1276.6119 4286067542
0 907.00043 1276.6119 4284565355
-31.519266 914.54541 1276.4335 4284295237
-29.267889 914.54541 1276.4335 4284361287
1.1256881 914.54541 1276.4335 4284431955
-33.770641 916.2666 1277.8848 4284435802
-31.519266 916.2666 1277.8848 4284960359
2.2513762 916.2666 1277.8848 4284301906
4.5027523 916.2666 1277.8848 4283908945
-31.416513 919.86487 1275.6866 4284895599
-29.172478 919.86487 1275.6866 4285421943
1.1220183 919.86487 1275.6866 4284300368
4.4880733 919.86487 1275.6866 4284039245
-31.416513 921.58044 1277.1332 4282786893
-29.172478 921.58044 1277.1332 4283115858
1.1220183 921.58044 1277.1332 4284365391
-31.288073 929.04553 1276.8873 4283315272
-29.053211 928.19122 1276.167 4282986053
-25.700916 927.33691 1275.4468 4282918981
-22.348623 927.33691 1275.4468 4283183168
1.1174312 928.19122 1276.167 4284701280
-34.526604 934.30603 1276.0908 4283582792
-31.185322 934.30603 1276.0908 4283648589
-28.957798 934.30603 1276.0908 4284569691
-25.616514 934.30603 1276.0908 4284833611
-22.275229 934.30603 1276.0908 4285094990
-20.047707 934.30603 1276.0908 4283910460
-16.706421 934.30603 1276.0908 4282660704
1.1137614 934.30603 1276.0908 4282792276
-37.867889 936.00897 1277.5266 4283385179
-28.957798 936.00897 1277.5266 4283451474
-25.616514 936.00897 1277.5266 4283189331
-22.275229 936.00897 1277.5266 4282333270
-20.047707 936.00897 1277.5266 4282596441
-16.706421 936.00897 1277.5266 4282200927
1.1137614 936.00897 1277.5266 4283120205
-34.412842 940.39282 1275.9908 4282336601
-31.082569 940.39282 1275.9908 4282597208
-28.862385 940.39282 1275.9908 4282531415
-25.90214 940.10992 1275.7523 4281940066
-22.201836 940.39282 1275.9908 4280822102
-19.981651 939.54419 1275.2753 4282400362
-16.651375 939.54419 1275.2753 4282266977
1.1100917 940.39282 1275.9908 4283186763
4.4403667 941.24152 1276.7064 4283513668
-34.299084 946.45154 1275.8673 4282464856
-30.979816 946.45154 1275.8673 4283320678
-28.766972 946.45154 1275.8673 4283386471
-24.341284 946.45154 1275.8673 4284043638
-22.128441 946.45154 1275.8673 4283981426
-19.915596 946.45154 1275.8673 4284047220
1.1064221 946.45154 1275.8673 4283121227
4.4256883 946.45154 1275.8673 4283187012
-30.979816 948.14331 1277.2938 4280758610
-28.766972 948.14331 1277.2938 4280298315
-24.341284 948.14331 1277.2938 4281550152
-22.128441 948.14331 1277.2938 4282274643
-19.915596 948.14331 1277.2938 4282932316
1.1064221 948.14331 1277.2938 4283121225
4.4256883 948.14331 1277.2938 4283447623
-24.240368 953.7749 1275.5021 4286416061
-19.833027 953.7749 1275.5021 4280429993
2.2036698 953.7749 1275.5021 4283645766
-30.851376 955.45966 1276.9226 4287532725
-28.647707 955.45966 1276.9226 4288190911
-25.342201 955.45966 1276.9226 4288520921
-22.036697 955.45966 1276.9226 4288785640
6.6110091 955.45966 1276.9226 4283579212
-25.257797 961.45026 1276.7416 4287796672
-21.963303 960.61072 1276.0337 4288126413
-19.766972 960.61072 1276.0337 4288521171
2.1963303 962.28986 1277.4495 4281938764
4.3926606 962.28986 1277.4495 4282528055
6.5889907 960.61072 1276.0337 4283186248
-19.700918 965.7395 1275.126 4287140020
-2.1889908 965.7395 1275.126 4288715481
-17.511927 967.41296 1276.537 4287204527
-2.1889908 967.41296 1276.537 4288981209
-16.417431 969.08643 1277.948 4287271604
-13.133945 969.08643 1277.948 4287467954
-10.944954 969.08643 1277.948 4287270575
-7.6614676 969.08643 1277.948 4287072941
-4.3779817 969.08643 1277.948 4287072706
-51.324772 754.737 1279.0303 4283177276
-48.880733 754.737 1279.0303 4283899200
17.108257 754.737 1279.0303 4290230769
-51.324772 756.60547 1280.6058 4282587204
-48.880733 756.60547 1280.6058 4283308092
17.108257 756.60547 1280.6058 4290230769
-51.132111 763.09564 1279.538 4281475144
-48.697247 763.09564 1279.538 4282127946
-46.262386 763.09564 1279.538 4282391117
17.044037 763.09564 1279.538 4290231023
-49.285015 772.57623 1279.6837 4280816966
-46.053211 771.95856 1279.1628 4282660195
-45.878899 778.38275 1278.0393 4285224564
9.6587152 778.38275 1278.0393 4290361585
13.280734 778.38275 1278.0393 4290098671
16.902752 778.38275 1278.0393 4290164465
19.31743 778.38275 1278.0393 4290032625
-55.537613 780.22882 1279.5958 4282662975
-53.122936 780.22882 1279.5958 4283913301
-49.500916 780.22882 1279.5958 4285424759
-49.312843 786.61786 1278.4429 4286344090
9.6220188 787.53735 1279.2183 4289967595
13.230275 787.53735 1279.2183 4289902318
16.838531 787.53735 1279.2183 4289705711
19.244038 788.45691 1279.9935 4289574891
9.5853214 794.81097 1278.8109 4290032877
11.981651 796.64294 1280.3556 4289902061
14.377981 796.64294 1280.3556 4289901807
16.774311 796.64294 1280.3556 4289901807
19.170643 796.64294 1280.3556 4289770731
-46.549541 802.96198 1279.1434 4286068568
10.742202 802.96198 1279.1434 4289836264
-50.130276 804.78699 1280.6823 4285343051
-46.549541 804.78699 1280.6823 4286066261
-42.968807 804.78699 1280.6823 4286658911
11.93578 804.78699 1280.6823 4289705963
14.322936 804.78699 1280.6823 4289508329
-42.836697 808.72467 1278.7704 4286657623
-40.456882 808.72467 1278.7704 4286591830
10.709174 808.72467 1278.7704 4290033127
-42.836697 810.54407 1280.3044 4286394708
11.899082 810.54407 1280.3044 4289967852
14.278899 810.54407 1280.3044 4290032875
16.658716 810.54407 1280.3044 4290098668
19.038532 810.54407 1280.3044 4290164211
21.418348 810.54407 1280.3044 4290098418
-42.671558 818.61511 1280.5696 4286259022
-40.300919 816.80273 1279.0414 4286193229
7.1119266 816.80273 1279.0414 4288912844
10.667891 817.70898 1279.8054 4285756839
16.594496 817.70892 1279.8054 4282008449
18.965137 817.70892 1279.8054 4282206857
22.916208 817.40692 1279.5508 4283522732
-42.50642 824.83875 1279.277 4285996620
9.4458714 824.83875 1279.277 4280757079
-44.867889 826.6441 1280.7992 4285407563
11.80734 826.6441 1280.7992 4288653259
14.168807 826.6441 1280.7992 4288457945
16.530275 826.6441 1280.7992 4287207621
18.891743 826.6441 1280.7992 4283136136
21.25321 826.6441 1280.7992 4284386460
-43.517433 832.83264 1279.4771 4285406024
11.761468 832.83264 1279.4771 4290426077
14.113762 832.83264 1279.4771 4290099181
16.466055 832.83264 1279.4771 4289902059
18.818348 832.83264 1279.4771 4289704927
-47.045872 834.63098 1280.9934 4285012049
-44.693577 834.63098 1280.9934 4285078098
14.113762 834.63098 1280.9934 4290624232
16.466055 834.63098 1280.9934 4290361061
-42.176147 838.99304 1278.1312 4285733191
4.6862388 838.99304 1278.1312 4282076269
7.0293579 838.99304 1278.1312 4282142062
10.544037 838.99304 1278.1312 4285888417
14.058716 838.99304 1278.1312 4288650958
16.401834 838.99304 1278.1312 4287137719
18.744955 838.99304 1278.1312 4286546352
-42.176147 840.78436 1279.6416 4285601092
10.544037 840.78436 1279.6416 4283393905
14.058716 840.78436 1279.6416 4285627562
16.401834 840.78436 1279.6416 4284311702
18.744955 840.78436 1279.6416 4284705693
-42.044037 847.29413 1279.8983 4285210182
-39.708256 846.40125 1279.1455 4285538125
-35.036697 846.40125 1279.1455 4286259272
-31.533028 846.40125 1279.1455 4286847566
1.5571866 846.99652 1279.6473 4289637596
4.6715598 847.29413 1279.8983 4289375706
7.0073395 847.29413 1279.8983 4288454604
10.121713 847.5918 1280.1493 4286283960
16.350458 847.29413 1279.8983 4282804613
18.686239 846.40125 1279.1455 4286745023
-37.225689 854.28009 1279.2485 4285877367
-34.899082 854.28009 1279.2485 4286403711
-32.572475 854.28009 1279.2485 4287255688
1.1633028 854.28009 1279.2485 4289374170
9.3064222 854.28009 1279.2485 4289966818
-39.552292 856.05878 1280.7483 4287521434
-37.225689 856.05878 1280.7483 4287062409
-34.899082 856.05878 1280.7483 4287391374
11.633027 856.05878 1280.7483 4289572062
-39.396332 863.00269 1280.0631 4284620862
-37.078899 863.00269 1280.0631 4285210425
-34.761467 862.11688 1279.3162 4288503150
-31.285322 862.11688 1279.3162 4287320977
10.428441 863.00269 1280.0631 4289113306
13.904587 863.88855 1280.8101 4289506782
-39.271561 868.53259 1279.4937 4283377728
-36.961468 868.53259 1279.4937 4284947528
0.77003056 868.23828 1279.2455 4289244128
4.6201835 868.53259 1279.4937 4289113308
6.9302754 868.53259 1279.4937 4289310687
10.395412 868.53265 1279.4937 4289375201
-39.115597 875.41333 1278.7551 4283249204
1.1504587 875.41333 1278.7551 4289113310
4.6018348 875.41333 1278.7551 4289113306
6.9027524 875.41333 1278.7551 4289179355
10.354128 875.41333 1278.7551 4289113562
-39.115597 877.17242 1280.2384 4283314718
1.1504587 877.17242 1280.2384 4289244380
4.6018348 877.17242 1280.2384 4289047513
6.9027524 877.17242 1280.2384 4289179355
10.354128 877.17242 1280.2384 4289113560
13.805505 877.17242 1280.2384 4289179101
16.106422 877.17242 1280.2384 4289376480
19.557798 877.17242 1280.2384 4289244378
-43.543118 884.88721 1280.2031 4283835692
1.1458715 884.01117 1279.4645 4289046483
4.5834861 884.01117 1279.4645 4288651473
6.8752294 884.01117 1279.4645 4288717265
10.312844 884.01123 1279.4645 4288651727
13.750459 884.88721 1280.2031 4288518857
16.042202 884.88721 1280.2031 4288518857
19.09786 884.30322 1279.7107 4288584649
-34.266056 889.45691 1278.824 4285736012
-31.981651 888.58368 1278.0878 4286063176
-6.8532109 888.58368 1278.0878 4289556633
2.2844036 889.45691 1278.824 4288585410
4.5688071 890.33014 1279.5603 4288389317
6.8532109 889.45691 1278.824 4288388804
10.66055 889.74799 1279.0695 4288192205
13.706422 890.33014 1279.5603 4287864009
15.990826 890.33014 1279.5603 4288192717
18.275229 890.33014 1279.5603 4288651464
-43.229359 897.97186 1279.4636 4282984510
-34.128441 898.84155 1280.1969 4285605449
-31.85321 897.97186 1279.4636 4285932612
-25.027523 897.97186 1279.4636 4286915403
1.1376147 897.97186 1279.4636 4289177036
4.5504589 897.97186 1279.4636 4289242316
6.8256879 898.84155 1280.1969 4288519877
9.8593273 899.13153 1280.4413 4287137452
-34.018349 903.36151 1278.7758 4285277769
-31.750458 904.22839 1279.5067 4285605186
-28.726606 903.93945 1279.2631 4285867333
1.5119267 903.93945 1279.2631 4287067792
4.53578 904.22839 1279.5067 4285422198
6.8036699 904.22839 1279.5067 4284896366
9.0715599 905.09534 1280.2377 4283842397
-28.256882 908.72864 1278.0691 4285933639
1.1302752 908.72864 1278.0691 4284169800
4.521101 908.72864 1278.0691 4283839819
-31.647707 910.45685 1279.5264 4285407813
-29.387156 910.45685 1279.5264 4285736521
1.1302752 910.45685 1279.5264 4284366414
4.521101 910.45685 1279.5264 4284301904
6.7816515 910.45685 1279.5264 4284170317
-36.168808 912.18506 1280.9835 4284099143
-33.908257 912.18506 1280.9835 4284033094
4.521101 912.18506 1280.9835 4284039245
-33.770641 917.98779 1279.3361 4284567640
6.7541285 917.98779 1279.3361 4283907659
-33.770641 919.70905 1280.7874 4282067531
4.5027523 919.70905 1280.7874 4284300881
-33.660549 923.29602 1278.5797 4282067531
-31.416513 923.29602 1278.5797 4282786375
-29.172478 923.29602 1278.5797 4282917961
4.4880733 923.29602 1278.5797 4283908693
-34.78257 925.0116 1280.0262 4282856520
-31.416513 925.0116 1280.0262 4283116871
4.4880733 925.0116 1280.0262 4285095531
-34.640366 930.75409 1278.328 4283385160
-31.288073 930.75409 1278.328 4283516749
-29.053211 930.75409 1278.328 4283911506
1.1174312 930.75409 1278.328 4283055946
4.4697247 932.46265 1279.7686 4282922563
6.704587 932.46265 1279.7686 4282922563
-37.867889 937.71198 1278.9625 4282268240
4.4550457 937.71198 1278.9625 4283447619
6.682569 937.71198 1278.9625 4283447619
-37.867889 939.41492 1280.3984 4281547350
6.682569 939.41492 1280.3984 4283447619
-37.743118 944.63623 1279.5687 4282793303
-35.522934 942.93884 1278.1376 4283518816
-25.90214 943.50464 1278.6146 4283715200
-22.201836 942.93884 1278.1376 4282269557
1.1100917 942.93884 1278.1376 4283120971
4.4403667 942.93884 1278.1376 4283447619
6.6605506 944.63623 1279.5687 4283055682
-34.412842 946.33356 1280.9999 4280689739
-26.642202 946.33356 1280.9999 4281550152
6.6605506 946.33356 1280.9999 4283316294
-33.192661 949.83502 1278.7202 4284838298
-30.979816 949.83502 1278.7202 4284116369
-28.766972 949.83502 1278.7202 4283721612
-25.447706 949.83502 1278.7202 4283327367
-22.128441 949.83502 1278.7202 4280765056
6.6385322 949.83502 1278.7202 4283643719
-33.192661 951.52673 1280.1466 4287729329
-30.979816 951.52673 1280.1466 4286941612
-28.766972 951.52673 1280.1466 4286217632
-26.554129 951.52673 1280.1466 4286087096
-22.128441 951.52673 1280.1466 4282601419
7.7449541 951.52673 1280.1466 4283513412
-30.851376 957.98669 1279.0532 4287664819
-28.647707 957.98669 1279.0532 4288191420
8.0801229 957.70587 1278.8165 4283316550
11.018349 958.8291 1279.7635 4283513668
-28.552294 963.96899 1278.8652 4287598774
-25.257799 964.80853 1279.5731 4287533499
-21.963303 964.80853 1279.5731 4287402937
-19.766972 965.64807 1280.281 4287139768
1.0981652 964.80853 1279.5731 4284767625
4.3926606 964.80853 1279.5731 4281935407
-51.324772 758.474 1282.1813 4281671746
-48.880733 758.474 1282.1813 4282651714
17.108257 758.474 1282.1813 4290296814
-48.697247 764.95709 1281.1075 4281540174
-51.132111 766.8186 1282.6771 4281082437
-48.697247 766.8186 1282.6771 4281476178
-49.688992 775.66467 1282.2877 4284173931
13.230275 790.2959 1281.5442 4289901807
16.838531 790.2959 1281.5442 4289836529
19.244038 790.2959 1281.5442 4289639400
13.230275 792.13495 1283.0947 4289967598
16.838531 792.13495 1283.0947 4289836527
19.244038 792.13495 1283.0947 4289836777
11.981651 798.47498 1281.9003 4289836525
14.377981 799.39099 1282.6726 4289704938
16.774311 799.39099 1282.6726 4289968367
19.170643 799.39099 1282.6726 4289574120
21.566973 799.39099 1282.6726 4289508327
-54.904587 806.61194 1282.2211 4284359497
-52.517429 806.61194 1282.2211 4284817207
-50.130276 806.61194 1282.2211 4285277758
-46.549541 806.61194 1282.2211 4286131797
14.322936 806.61194 1282.2211 4289770472
16.710093 806.61194 1282.2211 4289770472
19.097248 806.61194 1282.2211 4290032877
21.484404 806.61194 1282.2211 4290361585
-54.904587 808.43701 1283.7599 4284491849
-52.517429 808.43701 1283.7599 4285081412
-50.130276 808.43701 1283.7599 4285278791
-46.549541 808.43701 1283.7599 4286000468
-45.216515 812.36346 1281.8385 4286130768
-42.836697 812.36346 1281.8385 4286457680
11.899082 812.36346 1281.8385 4290493680
14.278899 812.36346 1281.8385 4290164463
16.658716 812.36346 1281.8385 4289901034
19.038532 812.36346 1281.8385 4289704675
21.418348 812.36346 1281.8385 4287862471
-42.836697 814.18286 1283.3726 4286259022
14.278899 814.18286 1283.3726 4286084014
-42.671558 820.42749 1282.0977 4286193742
11.853211 820.42749 1282.0977 4280625518
14.223853 820.42749 1282.0977 4278725734
16.594496 820.42749 1282.0977 4279383665
18.965137 820.42749 1282.0977 4283189594
22.521101 820.42749 1282.0977 4288847810
-45.042202 822.23987 1283.6259 4285473356
11.853211 822.23987 1283.6259 4281546852
14.223853 822.23987 1283.6259 4280829046
16.594496 822.23987 1283.6259 4279513186
18.965137 822.23987 1283.6259 4281350750
21.335779 822.23987 1283.6259 4286548653
-49.590824 830.25482 1283.8436 4284686150
-47.229359 830.25482 1283.8436 4285078346
-44.867889 828.44946 1282.3214 4285144904
18.891743 828.44946 1282.3214 4287666623
-49.398167 836.42932 1282.5096 4284686150
-47.045872 836.42932 1282.5096 4285078346
-44.693577 836.42932 1282.5096 4285209675
-49.205505 842.57568 1281.1521 4284227388
-46.862385 842.57568 1281.1521 4284948293
-43.347706 842.57568 1281.1521 4285144643
11.715596 842.57568 1281.1521 4279318362
14.058716 842.57568 1281.1521 4279252315
16.401834 842.57568 1281.1521 4283529116
-51.548622 844.36707 1282.6625 4283767601
-49.205505 844.36707 1282.6625 4283964980
-46.862385 844.36707 1282.6625 4284554310
-44.519264 844.36707 1282.6625 4284686152
11.715596 844.36707 1282.6625 4278655330
14.058716 844.36707 1282.6625 4278200399
-49.051376 850.8656 1282.9097 4285022822
-46.715595 849.97272 1282.1569 4284628307
-42.044037 850.8656 1282.9097 4284954717
-39.708256 851.75842 1283.6626 4285747064
-37.372478 849.97272 1282.1569 4284880965
-35.036697 849.97272 1282.1569 4284815171
10.900306 850.56793 1282.6587 4289243348
14.014679 851.75842 1283.6626 4289179355
16.350458 850.8656 1282.9097 4284837556
-48.858715 857.83752 1282.248 4284294474
-40.715595 857.83752 1282.248 4285804897
-37.225689 857.83752 1282.248 4285481574
11.633027 857.83752 1282.248 4289047513
16.286238 857.83752 1282.248 4289113823
-41.878899 859.61621 1283.7478 4284554816
13.959633 859.61621 1283.7478 4289113308
16.286238 859.61621 1283.7478 4289179101
13.904587 865.66028 1282.304 4289179103
16.222019 865.66028 1282.304 4289113310
13.904587 867.43195 1283.7977 4289179101
16.222019 867.43195 1283.7977 4289179101
18.53945 867.43195 1283.7977 4289310430
10.395412 871.18176 1281.7273 4289113308
13.860551 872.06482 1282.4719 4289113564
16.170643 872.06482 1282.4719 4289245150
19.63578 872.94781 1283.2164 4289048026
23.100918 872.94781 1283.2164 4288981974
-39.115597 878.93152 1281.7216 4283510325
4.6018348 878.93152 1281.7216 4288849879
6.9027524 878.93152 1281.7216 4288915929
10.354128 878.93152 1281.7216 4288784341
13.805505 878.93152 1281.7216 4288848337
16.106422 878.93152 1281.7216 4288848337
19.557798 878.93152 1281.7216 4288782028
23.009174 878.93152 1281.7216 4288518091
-39.115597 880.69055 1283.2048 4283575587
-36.814678 880.69055 1283.2048 4285079109
13.805505 880.69055 1283.2048 4288782540
16.106422 880.69055 1283.2048 4288782540
20.708258 880.69055 1283.2048 4288782028
23.009174 880.69055 1283.2048 4288650190
-36.667889 886.63922 1281.6804 4285341254
0 886.63922 1281.6804 4288782530
4.5834861 886.63922 1281.6804 4288388034
9.1669722 886.63922 1281.6804 4288389069
13.750459 886.63922 1281.6804 4288125898
16.042202 886.63922 1281.6804 4288125898
19.479816 886.63922 1281.6804 4288453579
-37.813759 888.3913 1283.1577 4285145157
0 888.3913 1283.1577 4288453827
20.625689 888.3913 1283.1577 4288848587
-45.688072 893.823 1282.5054 4283245629
-36.550457 892.07654 1281.0328 4285275461
-34.266056 892.07654 1281.0328 4285604170
-31.981651 893.823 1282.5054 4285932612
6.8532109 892.07654 1281.0328 4288585415
10.279816 892.94977 1281.769 4288783056
13.706422 892.94977 1281.769 4288717002
15.990826 892.94977 1281.769 4288848588
19.036697 892.65869 1281.5236 4289308105
-45.688072 895.56946 1283.978 4283839819
11.422018 895.56946 1283.978 4289834450
13.706422 895.56946 1283.978 4289242581
15.990826 895.56946 1283.978 4288782030
18.275229 895.56946 1283.978 4288847262
-36.403671 901.45068 1282.3969 4284949060
10.238532 901.45068 1282.3969 4283844987
13.651376 901.45068 1282.3969 4282724946
-36.403671 903.19019 1283.8635 4285014849
-34.128441 903.19019 1283.8635 4285278021
11.376146 903.19019 1283.8635 4283776604
13.651376 903.19019 1283.8635 4283908693
15.926605 903.19019 1283.8635 4284237657
18.201836 903.19019 1283.8635 4284434518
25.027523 903.19019 1283.8635 4284041296
27.302752 903.19019 1283.8635 4284171599
-37.420181 908.56293 1283.1615 4284490050
-34.018349 907.69604 1282.4305 4285014086
-31.750458 906.8291 1281.6996 4285539653
6.8036699 906.8291 1281.6996 4283905612
10.205505 907.69604 1282.4305 4283973710
-37.299084 913.91327 1282.4407 4284434262
6.7816515 913.91327 1282.4407 4283711309
-40.689907 915.64148 1283.8978 4283384397
-37.299084 915.64148 1283.8978 4283976019
10.172478 915.64148 1283.8978 4283646022
-37.522934 922.00397 1282.7223 4282133831
6.7541285 922.29083 1282.9641 4284567905
13.508257 923.15143 1283.6898 4284832606
-34.78257 926.72723 1281.4728 4283186503
4.4880733 926.72723 1281.4728 4285095781
6.73211 926.72723 1281.4728 4285227110
13.46422 926.72723 1281.4728 4285159500
4.4880733 928.44275 1282.9193 4283183168
7.8541284 928.44275 1282.9193 4283381311
11.220183 928.44275 1282.9193 4283315770
13.46422 928.44275 1282.9193 4283577413
15.708257 928.44275 1282.9193 4283577413
4.4697247 934.1712 1281.2092 4283252296
7.8220181 935.02551 1281.9296 4283251011
-37.867889 941.11786 1281.8344 4283321962
6.682569 941.11786 1281.8344 4283447619
-42.322937 942.8208 1283.2703 4282203730
-40.095413 942.8208 1283.2703 4282859096
8.9100914 942.8208 1283.2703 4282791997
11.137614 942.8208 1283.2703 4282923583
-35.522934 948.87958 1283.1466 4285954720
8.8807335 948.03088 1282.431 4283447619
11.100918 949.72827 1283.8622 4283250747
-33.192661 953.21851 1281.573 4287794618
8.8513765 953.21851 1281.573 4283054662
11.06422 953.21851 1281.573 4283054662
-34.299084 954.91022 1282.9995 4287729075
11.06422 954.91022 1282.9995 4283447110
13.277064 954.91022 1282.9995 4283381819
16.596331 954.91022 1282.9995 4283053626
-33.055046 961.3562 1281.8943 4287599539
-30.851376 961.3562 1281.8943 4287664822
-28.647707 960.51379 1281.1841 4287796665
7.7128439 961.3562 1281.8943 4283317313
11.018349 961.3562 1281.8943 4283251518
13.222018 961.3562 1281.8943 4283251512
-19.766972 967.32721 1281.6969 4287271608
-2.1963303 967.32721 1281.6969 4288322772
-16.472477 969.00635 1283.1127 4287271604
-13.177981 969.00635 1283.1127 4287336370
-10.981651 969.00635 1283.1127 4287204527
-53.970642 754.77606 1285.6035 4281866047
19.625689 754.77606 1285.6035 4290230771
-56.212845 764.07947 1286.9076 4280951376
-52.954128 762.8338 1285.8573 4281082181
-56.001835 769.61078 1285.0314 4280689217
-52.755352 769.92108 1285.293 4280554561
16.774311 802.13904 1284.9897 4289574122
19.170643 802.13904 1284.9897 4289574122
21.566973 802.13904 1284.9897 4289574122
-54.904587 810.26196 1285.2987 4284491849
-52.517429 810.26196 1285.2987 4285080395
-50.130276 811.17444 1286.0681 4285409870
-46.947399 811.47858 1286.3246 4285933389
-45.216515 817.82166 1286.4407 4285539914
14.278899 816.00226 1284.9066 4280828033
21.418348 816.00226 1284.9066 4285365935
-47.412846 824.05225 1285.1539 4285407563
-49.783485 825.86462 1286.6821 4284751947
-47.412846 825.86462 1286.6821 4285144904
-54.313763 833.86554 1286.8882 4284228431
-51.952293 832.96289 1286.1271 4284686152
-49.590824 832.06018 1285.366 4284685898
-51.750458 838.22766 1284.026 4284554310
-49.398167 838.22766 1284.026 4284620359
-47.045872 838.22766 1284.026 4284948293
-44.693577 838.22766 1284.026 4284948293
-54.102753 840.026 1285.5424 4283573068
-51.750458 840.026 1285.5424 4284029753
-51.548622 847.05408 1284.9281 4283704393
-49.205505 846.15839 1284.1729 4284887377
-46.862385 846.15839 1284.1729 4284955219
-44.519264 846.15839 1284.1729 4284428874
14.058716 847.05408 1284.9281 4283128978
18.744955 847.05408 1284.9281 4281025659
-51.387157 853.54419 1285.1682 4285023074
-49.051376 853.54419 1285.1682 4286009969
-46.715595 853.54419 1285.1682 4286141289
-42.044037 853.54419 1285.1682 4286403210
14.014679 853.54419 1285.1682 4289507303
16.350458 853.54419 1285.1682 4289902061
18.686239 853.54419 1285.1682 4289902057
-56.058716 855.3299 1286.6738 4283967570
-52.555046 855.3299 1286.6738 4283966539
-46.715595 855.3299 1286.6738 4284425542
-44.379818 855.3299 1286.6738 4284425542
14.014679 855.3299 1286.6738 4288784859
18.686239 855.3299 1286.6738 4289441506
-44.205505 862.28424 1285.9976 4283704126
-41.878899 862.28424 1285.9976 4284162111
16.286238 861.3949 1285.2476 4289506782
18.612844 863.17358 1286.7474 4289179362
-41.71376 869.20361 1285.2916 4284630603
19.698166 869.20361 1285.2916 4289179868
-41.71376 870.97534 1286.7854 4284433222
-41.58165 874.71393 1284.7056 4284762164
23.100918 874.71393 1284.7056 4289177557
-41.58165 876.47998 1286.1947 4285352529
-39.882568 883.03607 1285.1824 4284619843
23.009174 883.32922 1285.4296 4288716233
-38.959633 890.14331 1284.635 4284752195
-36.667889 891.89539 1286.1123 4285275970
-34.376148 891.89539 1286.1123 4285736521
20.625689 891.89539 1286.1123 4288913085
-41.119267 899.06232 1286.9231 4283966008
-37.692657 898.18909 1286.1868 4284621373
13.706422 897.31592 1285.4506 4285159298
15.990826 898.18909 1286.1868 4283646053
19.036697 898.48016 1286.4323 4283055448
-40.954128 904.92957 1285.3301 4284031302
-37.541283 904.92957 1285.3301 4284555591
13.651376 904.92957 1285.3301 4284236374
15.926605 904.92957 1285.3301 4284236374
19.339451 904.92957 1285.3301 4284171351
25.027523 904.92957 1285.3301 4283975251
27.302752 904.92957 1285.3301 4283974990
-43.229359 906.66901 1286.7968 4283049554
-40.954128 906.66901 1286.7968 4284031550
13.651376 906.66901 1286.7968 4284104789
15.926605 906.66901 1286.7968 4284104789
19.339451 906.66901 1286.7968 4284236374
-40.822018 910.29675 1284.6234 4283441716
-38.554127 910.29675 1284.6234 4283836474
6.8036699 910.29675 1284.6234 4283973452
10.205505 910.29675 1284.6234 4283908945
13.60734 910.29675 1284.6234 4284039247
-45.3578 912.03064 1286.0853 4283182418
-43.089909 912.03064 1286.0853 4283445591
-40.822018 912.03064 1286.0853 4283511620
10.205505 912.03064 1286.0853 4283450188
13.60734 912.03064 1286.0853 4283843147
-40.689907 917.36969 1285.355 4281804861
-37.299084 917.36969 1285.355 4281738817
6.7816515 917.36969 1285.355 4284037966
10.172478 917.36969 1285.355 4284037962
13.563303 917.36969 1285.355 4284039245
-42.950459 919.0979 1286.8123 4282067535
-40.689907 919.0979 1286.8123 4281804861
10.172478 919.0979 1286.8123 4283908945
13.563303 919.0979 1286.8123 4284041296
-40.524769 926.59381 1286.5924 4283119955
-38.273396 925.73322 1285.8667 4283317336
10.131193 924.87262 1285.1411 4285291608
15.759633 924.87262 1285.1411 4284501313
18.011009 926.59381 1286.5924 4283970370
-38.148624 930.15839 1284.3658 4283713880
8.9761467 931.01617 1285.0891 4283185215
11.220183 931.01617 1285.0891 4283251264
13.46422 931.01617 1285.0891 4283578186
15.708257 931.01617 1285.0891 4283578185
-42.462387 937.58838 1284.0905 4282005572
-40.227524 937.58838 1284.0905 4281547350
8.9394493 937.58838 1284.0905 4283643971
11.174312 937.58838 1284.0905 4283578178
-46.93211 941.00549 1286.9717 4282268490
-43.952297 939.86646 1286.0114 4282334546
-40.227524 939.29694 1285.5311 4282664031
8.9394493 939.29694 1285.5311 4283447362
11.174312 939.29694 1285.5311 4283447362
13.409174 940.15125 1286.2515 4283317058
16.761467 940.15118 1286.2515 4283381825
-42.322937 944.5238 1284.7062 4280756802
-40.095413 944.5238 1284.7062 4280887884
-37.867889 944.5238 1284.7062 4280493126
8.9100914 944.5238 1284.7062 4282923583
11.137614 944.5238 1284.7062 4282923583
17.820183 944.5238 1284.7062 4283445823
-42.322937 946.22675 1286.142 4281808976
-40.095413 946.22675 1286.142 4281811275
-37.867889 946.22675 1286.142 4283324514
11.137614 946.22675 1286.142 4283316290
16.706421 946.22675 1286.142 4283446329
-39.963303 953.12292 1286.7246 4286215584
-37.743118 952.27429 1286.009 4287136930
-35.522934 951.4256 1285.2935 4287663032
13.321101 951.4256 1285.2935 4283315770
16.651375 951.4256 1285.2935 4283249979
19.981651 953.12292 1286.7246 4282857019
22.201836 953.12292 1286.7246 4283052852
24.422018 953.12292 1286.7246 4283052852
-34.299084 956.60193 1284.4259 4287467186
13.277064 956.60193 1284.4259 4283381819
16.596331 956.60193 1284.4259 4283185469
24.341284 956.60193 1284.4259 4282857019
-37.618347 958.2937 1285.8523 4287796665
-35.405506 958.2937 1285.8523 4287731126
16.596331 958.2937 1285.8523 4283382072
-30.851376 963.88324 1284.0251 4287467706
-28.647707 964.72559 1284.7354 4287533241
-25.342201 965.56799 1285.4457 4287599035
-22.036697 965.56799 1285.4457 4287337401
1.1018349 965.56799 1285.4457 4284901007
4.4073396 965.56799 1285.4457 4281476398
7.3455658 964.44482 1284.4987 4283120451
11.018349 964.72559 1284.7354 4282989119
13.222018 963.88324 1284.0251 4283055162
-25.342201 967.25269 1286.8662 4287729338
-22.036697 967.25269 1286.8662 4287401911
-19.833027 967.25269 1286.8662 4287467704
-7.7128439 967.25269 1286.8662 4287072944
-2.2036698 967.25269 1286.8662 4288520639
13.222018 967.25269 1286.8662 4283250230
-56.001835 772.40302 1287.3857 4281480010
-53.566971 772.40302 1287.3857 4281873232
-57.511925 807.63507 1289.6239 4284557642
-50.130276 814.82446 1289.1456 4285408844
-46.947399 814.52032 1288.8892 4285736523
-49.976147 820.55072 1288.7417 4284949579
-47.596329 819.64099 1287.9747 4285473356
-54.524769 827.677 1288.2102 4284294736
-52.154129 827.677 1288.2102 4284751943
-55.710091 829.48938 1289.7384 4284359761
-54.313763 835.6709 1288.4104 4283900241
-54.102753 841.82434 1287.0586 4283441225
-46.862385 849.74103 1287.1937 4285093484
-44.519264 850.63672 1287.949 4285551465
18.744955 849.74103 1287.1937 4288916681
21.088074 850.63672 1287.949 4289771230
-51.387157 857.1156 1288.1796 4283572543
-49.051376 857.1156 1288.1796 4283572543
-46.715595 857.1156 1288.1796 4283899200
-44.379818 857.1156 1288.1796 4283833151
18.686239 857.1156 1288.1796 4289375712
-52.555046 858.90131 1289.6852 4283375942
-49.051376 858.90131 1289.6852 4283572543
-46.715595 858.90131 1289.6852 4283703098
18.686239 858.90131 1289.6852 4289375712
-46.532108 866.73102 1289.7469 4283776059
-44.205505 865.84167 1288.9971 4284565581
-41.878899 864.95233 1288.2472 4284499280
20.939449 864.95233 1288.2472 4289310430
-44.031193 872.74707 1288.2793 4284435763
-44.031193 874.51874 1289.7732 4285092669
-41.58165 878.24609 1287.6838 4285220412
23.009174 885.96777 1287.6544 4288979660
-36.667889 893.64746 1287.5896 4285078596
-43.543118 895.39954 1289.0669 4282986044
-41.251377 895.39954 1289.0669 4284227646
-38.959633 895.39954 1289.0669 4284359488
20.625689 895.39954 1289.0669 4282860127
-45.688072 901.68201 1289.1318 4284105298
-43.403671 901.68201 1289.1318 4282723645
-41.119267 900.80878 1288.3956 4283965756
-38.834862 900.80878 1288.3956 4284426307
20.559633 900.80878 1288.3956 4284368725
22.844036 901.68201 1289.1318 4283975505
-46.6422 908.40845 1288.2634 4282987340
-43.229359 908.40845 1288.2634 4283246928
15.926605 908.40845 1288.2634 4284039247
18.201836 908.40845 1288.2634 4283974738
-47.779816 910.14789 1289.7301 4282333003
15.926605 910.14789 1289.7301 4283843147
19.339451 910.14789 1289.7301 4283843152
-49.893578 913.7644 1287.5472 4283121487
-46.491745 913.7644 1287.5472 4282528329
-43.089909 913.7644 1287.5472 4283513948
13.60734 913.7644 1287.5472 4283973452
15.875229 913.7644 1287.5472 4283907659
18.14312 913.7644 1287.5472 4283907657
-49.893578 915.49823 1289.0092 4281804861
-46.491745 915.49823 1289.0092 4281738817
-43.089909 915.49823 1289.0092 4282133581
15.875229 915.49823 1289.0092 4284105295
18.14312 915.49823 1289.0092 4284040262
-42.950459 920.82611 1288.2694 4282791254
-40.689907 920.82611 1288.2694 4282857297
10.172478 920.82611 1288.2694 4285422947
15.823853 920.82611 1288.2694 4284635484
18.084404 920.82611 1288.2694 4284832858
-45.21101 922.55432 1289.7266 4282462791
-42.950459 922.55432 1289.7266 4282857549
-40.689907 922.55432 1289.7266 4283251544
18.084404 922.55432 1289.7266 4285158224
-47.2789 928.315 1288.0437 4281610315
-42.776146 928.315 1288.0437 4282398295
-40.524769 928.315 1288.0437 4282989900
18.011009 928.315 1288.0437 4283643467
-47.2789 930.03619 1289.4949 4281412933
-42.776146 930.03619 1289.4949 4282398795
-40.524769 930.03619 1289.4949 4282726992
-44.132721 934.16144 1287.7411 4281545021
-40.392662 933.58954 1287.2589 4282202447
11.220183 933.58954 1287.2589 4283316290
13.46422 934.44739 1287.9822 4283708994
16.830275 934.44739 1287.9822 4283709251
-46.93211 942.71411 1288.4124 4281217857
-44.697247 943.56836 1289.1326 4281480269
13.409174 943.56836 1289.1326 4283381051
15.644036 942.71411 1288.4124 4283249725
20.113762 943.56836 1289.1326 4283446332
22.348623 943.56836 1289.1326 4283315774
24.583487 944.42267 1289.8529 4283052602
-40.095413 947.92969 1287.5779 4284178528
-37.867889 947.92969 1287.5779 4285823097
13.365138 947.92969 1287.5779 4283380785
16.706421 947.92969 1287.5779 4283380535
20.047707 947.92969 1287.5779 4283445823
22.275229 947.92969 1287.5779 4283250230
24.502752 947.92969 1287.5779 4283118645
-42.322937 949.63269 1289.0138 4285690766
-40.095413 949.63269 1289.0138 4286084486
20.047707 949.63269 1289.0138 4283249725
22.275229 949.63269 1289.0138 4283250230
24.502752 949.63269 1289.0138 4283250230
-39.963303 955.66895 1288.8713 4287467698
-37.743118 954.82031 1288.1558 4287138219
19.981651 955.66895 1288.8713 4283053884
22.201836 955.66895 1288.8713 4282987322
24.422018 956.51764 1289.5869 4283183418
-35.405506 959.98547 1287.2788 4287731126
16.596331 959.98547 1287.2788 4283185468
25.447706 959.98547 1287.2788 4283118135
-34.299084 961.67719 1288.7052 4287599287
16.596331 961.67719 1288.7052 4282989119
19.915596 961.67719 1288.7052 4282791491
22.128441 961.67719 1288.7052 4283183168
25.447706 961.67719 1288.7052 4283118138
-19.833027 968.93744 1288.2866 4287335864
-16.527523 968.93744 1288.2866 4287336116
-13.222018 968.93744 1288.2866 4287204527
-57.511925 809.46704 1291.1686 4284950090
-55.115597 809.46704 1291.1686 4284950090
-52.719265 809.46704 1291.1686 4285146953
-57.511925 811.29907 1292.7133 4284817988
-55.115597 811.29907 1292.7133 4284817988
-52.719265 811.29907 1292.7133 4285080395
-57.291744 817.56201 1291.4539 4284622926
-52.517429 817.56201 1291.4539 4285080395
-57.291744 819.38696 1292.9927 4284427341
-52.517429 819.38696 1292.9927 4284884299
-54.735779 823.27979 1291.0428 4284294474
