# .PCD v0.7 - Point Cloud Data file format
VERSION 0.7
FIELDS x y z rgb
SIZE 4 4 4 4
TYPE F F F U
COUNT 1 1 1 1
WIDTH 1158
HEIGHT 1
VIEWPOINT 0 0 0 1 0 0 0
POINTS 1158
DATA ascii
18.891743 835.6709 1288.4104 4291017943
-42.50642 837.47626 1289.9326 4288024392
-40.144955 837.47626 1289.9326 4288814165
2.3614678 837.47626 1289.9326 4290950088
4.7229357 837.47626 1289.9326 4290293955
18.891743 837.47626 1289.9326 4291083739
-39.988991 841.82434 1287.0586 4287961429
-37.636696 841.82434 1287.0586 4288287037
0 841.82434 1287.0586 4290884808
-42.341286 843.62268 1288.575 4288100685
-39.988991 843.62268 1288.575 4288495443
1.1761467 843.62268 1288.575 4290754508
-42.957184 850.93524 1288.2007 4287708499
-39.833027 850.63672 1287.949 4288629086
-37.48991 849.74103 1287.1937 4288628837
0.78103977 850.93524 1288.2007 4287992464
4.6862388 851.53235 1288.7041 4290491295
-46.715595 857.1156 1288.1796 4286986829
-43.211929 857.1156 1288.1796 4287840598
-39.708256 857.1156 1288.1796 4288562781
-37.372478 857.1156 1288.1796 4288757857
-46.715595 858.90131 1289.6852 4286916938
-43.211929 858.90131 1289.6852 4287508560
1.16789 858.90131 1289.6852 4288841103
-40.715595 865.84167 1288.9971 4287573841
-2.3266056 864.95233 1288.2472 4287459421
1.1633028 866.73102 1289.7469 4289370039
4.6532111 866.73102 1289.7469 4284178306
-40.555046 872.74707 1288.2793 4288300138
1.1587156 872.74707 1288.2793 4290818502
4.6348624 872.74707 1288.2793 4289240753
-40.555046 874.51874 1289.7732 4287447648
2.3174312 874.51874 1289.7732 4290885060
4.6348624 874.51874 1289.7732 4291016133
6.9522934 874.51874 1289.7732 4291213512
10.42844 874.51874 1289.7732 4287532459
13.904587 874.51874 1289.7732 4286209401
16.222019 874.51874 1289.7732 4287459212
1.1550459 878.24609 1287.6838 4291147689
4.6201835 878.24609 1287.6838 4291278794
13.860551 878.24609 1287.6838 4283782224
16.170643 878.24609 1287.6838 4283913553
-41.58165 880.01221 1289.173 4286984017
1.1550459 880.01221 1289.173 4289636029
4.6201835 880.01221 1289.173 4289897141
6.9302754 880.01221 1289.173 4289567919
10.395412 880.01221 1289.173 4289306548
13.860551 880.01221 1289.173 4288912804
16.170643 880.01221 1289.173 4288452253
18.480734 880.01221 1289.173 4284515228
-46.018349 887.72687 1289.1376 4286656582
-43.71743 886.84729 1288.396 4286789452
-40.266056 886.84729 1288.396 4287641937
-36.814678 886.84729 1288.396 4288431951
1.1504587 886.84729 1288.396 4282075508
4.6018348 886.84729 1288.396 4281810252
16.106422 886.84729 1288.396 4287924650
18.407339 886.84729 1288.396 4285165702
-37.813759 893.64746 1287.5896 4287571017
-34.376148 893.64746 1287.5896 4288029773
-32.084404 893.64746 1287.5896 4288619850
-37.813759 895.39954 1289.0669 4287703112
-34.376148 895.39954 1289.0669 4288031047
-32.084404 895.39954 1289.0669 4288750920
1.1458715 895.39954 1289.0669 4290555330
4.5834861 895.39954 1289.0669 4290752459
-36.550457 902.55524 1289.8682 4287637050
-34.266056 901.68201 1289.1318 4287900223
-31.981651 902.55524 1289.8682 4288554057
-29.697248 900.80878 1288.3956 4288949580
1.1422018 901.68201 1289.1318 4290293696
4.5688071 901.68201 1289.1318 4290293443
6.8532109 902.55524 1289.8682 4290293443
-36.403671 908.40845 1288.2634 4287440191
-34.128441 908.40845 1288.2634 4287834949
-31.85321 908.40845 1288.2634 4288226372
-43.229359 910.14789 1289.7301 4285736510
-40.954128 910.14789 1289.7301 4286521649
-38.678898 910.14789 1289.7301 4287179835
0 910.14789 1289.7301 4289899701
4.5504589 910.14789 1289.7301 4289899451
-37.420181 913.7644 1287.5472 4286457928
-34.018349 913.7644 1287.5472 4286588226
-31.750458 913.7644 1287.5472 4287571789
-29.482569 913.7644 1287.5472 4288229462
-2.26789 913.7644 1287.5472 4290753481
-37.420181 915.49823 1289.0092 4285478476
-34.018349 915.49823 1289.0092 4285936205
-2.26789 915.49823 1289.0092 4290029500
-37.299084 920.82611 1288.2694 4285222752
-33.908257 920.82611 1288.2694 4285947244
-31.647707 920.82611 1288.2694 4286144869
-29.387156 920.82611 1288.2694 4286737262
-10.172478 920.82611 1288.2694 4289489788
-6.7816515 920.82611 1288.2694 4291272891
-4.521101 920.82611 1288.2694 4290161594
-2.2605505 920.82611 1288.2694 4289898165
-40.689907 922.55432 1289.7266 4282655294
-37.299084 922.55432 1289.7266 4283247942
-33.908257 922.55432 1289.7266 4284169298
-31.647707 922.55432 1289.7266 4285882183
-29.387156 922.55432 1289.7266 4287066713
-6.7816515 922.55432 1289.7266 4291011257
-37.147705 928.315 1288.0437 4282199098
-33.770641 928.315 1288.0437 4282068285
-31.519266 928.315 1288.0437 4281937201
-29.267889 928.315 1288.0437 4281805615
-20.262384 928.315 1288.0437 4286212463
-9.0055046 928.315 1288.0437 4287393157
-6.7541285 928.315 1288.0437 4290551221
-4.5027523 928.315 1288.0437 4290422198
-2.2513762 928.315 1288.0437 4290422198
-37.147705 930.03619 1289.4949 4282199871
-33.770641 930.03619 1289.4949 4282463043
-31.519266 930.03619 1289.4949 4282529086
-29.267889 930.03619 1289.4949 4282463293
-9.0055046 930.03619 1289.4949 4285946997
-6.7541285 930.03619 1289.4949 4286999428
-4.5027523 930.03619 1289.4949 4287524477
-2.2513762 930.03619 1289.4949 4287392635
-34.78257 935.30518 1288.7056 4282135879
-31.416513 933.58954 1287.2589 4282594629
-7.4801221 934.16144 1287.7411 4285093212
-4.4880733 933.58954 1287.2589 4285814625
-2.2440367 933.58954 1287.2589 4285551453
1.1220183 935.30518 1288.7056 4284565562
4.4880733 935.30518 1288.7056 4284432958
-34.640366 943.56836 1289.1327 4284175200
-31.288073 943.56836 1289.1326 4284503395
-29.053211 943.56836 1289.1326 4284634724
-2.2348623 943.56836 1289.1326 4284369227
2.2348623 943.56836 1289.1326 4284434764
4.4697247 944.42267 1289.8529 4284237894
-28.957798 947.92969 1287.5779 4286282119
-25.616514 947.92969 1287.5779 4287662739
-13.365138 947.92969 1287.5779 4286541403
-11.137614 947.92969 1287.5779 4286936161
-7.7963305 947.92969 1287.5779 4284699471
-4.4550457 947.92969 1287.5779 4284368725
-2.2275229 947.92969 1287.5779 4284434518
-33.412846 949.63269 1289.0138 4278396238
-31.185322 949.63269 1289.0138 4280098372
-28.957798 949.63269 1289.0138 4281151060
-26.730276 949.63269 1289.0138 4282134101
-2.2275229 949.63269 1289.0138 4284368721
-39.963303 956.51764 1289.5869 4289372341
-37.743118 954.82031 1288.1558 4289964479
-33.302753 956.51764 1289.5869 4290688983
-31.082569 955.66895 1288.8713 4289902021
-28.862385 954.82031 1288.1558 4289507521
-25.53211 954.82031 1288.1558 4288589249
-22.201836 954.82031 1288.1558 4286486438
-35.405506 959.98547 1287.2788 4288847290
-30.979816 959.98547 1287.2788 4289902018
-28.766972 959.98547 1287.2788 4290954449
-24.341284 959.98547 1287.2788 4293778421
-22.128441 959.98547 1287.2788 4294635775
-19.915596 959.98547 1287.2788 4294504191
-34.299084 961.67719 1288.7052 4289110201
-30.979816 961.67719 1288.7052 4289966259
-24.341284 961.67719 1288.7052 4293187302
-19.915596 961.67719 1288.7052 4294964479
-25.342201 968.93744 1288.2866 4288845216
-22.036697 968.93744 1288.2866 4288450458
-16.527523 968.93744 1288.2866 4287990432
-46.78532 752.95374 1290.6071 4287441738
-49.247707 754.83624 1292.1943 4287445320
-49.06422 761.34033 1291.1383 4287313479
-48.880733 767.81641 1290.0586 4287444045
-46.436699 767.81641 1290.0586 4287707474
-48.880733 769.68494 1291.634 4287113034
-52.349541 776.12592 1290.5248 4285996339
-48.697247 776.12592 1290.5248 4287242056
-46.262386 776.12592 1290.5248 4286913091
-52.349541 777.98743 1292.0944 4285931299
-48.697247 777.98743 1292.0944 4286913856
-46.262386 777.98743 1292.0944 4286848063
-43.629356 784.92993 1290.1 4287700808
-41.205505 784.92993 1290.1 4288950874
-49.688992 786.78302 1291.6624 4286392129
-46.053211 786.78302 1291.6624 4287243591
-55.537613 793.15112 1290.4916 4285999948
-53.122936 794.0741 1291.2698 4286260035
-50.708256 794.0741 1291.2698 4286194242
-45.878899 794.0741 1291.2698 4286914372
-43.464222 793.15112 1290.4916 4287830070
-57.732109 803.16913 1292.3984 4285804104
-55.326607 803.16913 1292.3984 4285869897
-52.921101 802.24963 1291.6232 4286392126
-49.312843 803.16913 1292.3984 4287049032
-45.704586 802.24963 1291.6232 4287704398
-43.299084 801.33008 1290.8479 4287702845
16.838531 802.24963 1291.6232 4291412438
-45.530273 809.46704 1291.1686 4287835990
-43.133945 809.46704 1291.1686 4287966033
-58.710091 811.29907 1292.7133 4285475127
-55.115597 811.29907 1292.7133 4285605955
-46.728439 811.29907 1292.7133 4287311698
21.566973 811.29907 1292.7133 4291280852
-42.968807 817.56201 1291.4539 4288168286
14.322936 817.56201 1291.4539 4291149782
16.710093 817.56201 1291.4539 4291412953
19.097248 817.56201 1291.4539 4291214805
-45.355965 819.38696 1292.9927 4287446365
-42.968807 819.38696 1292.9927 4287970140
19.097248 819.38696 1292.9927 4291084500
21.484404 819.38696 1292.9927 4291150549
-42.836697 823.27979 1291.0428 4287970142
11.899082 823.27979 1291.0428 4291018195
14.278899 823.27979 1291.0428 4291083989
16.658716 823.27979 1291.0428 4291610333
19.038532 823.27979 1291.0428 4291478483
-45.216515 825.09918 1292.5769 4287447900
14.278899 825.09918 1292.5769 4291083991
16.658716 825.09918 1292.5769 4291018197
-45.042202 833.11414 1292.7947 4287903831
-42.671558 832.20795 1292.0306 4288167771
4.7412844 831.30176 1291.2666 4290886605
7.1119266 832.20795 1292.0306 4290952399
10.272783 832.51001 1292.2853 4290821586
14.223853 833.11414 1292.7947 4291018197
16.594496 833.11414 1292.7947 4291281370
-42.50642 839.28162 1291.4548 4287500878
2.3614678 839.28162 1291.4548 4291148237
4.7229357 839.28162 1291.4548 4290557383
7.0844035 839.28162 1291.4548 4290952141
-47.229359 841.08698 1292.9771 4287311181
-44.867889 841.08698 1292.9771 4287903318
4.7229357 841.08698 1292.9771 4290557131
7.0844035 841.08698 1292.9771 4290886096
9.4458714 841.08698 1292.9771 4290755791
-43.517433 845.42102 1290.0913 4288365910
1.1761467 845.42102 1290.0913 4291214032
4.704587 845.42102 1290.0913 4291214032
-49.398167 847.21942 1291.6075 4286396745
-47.045872 847.21942 1291.6075 4286984265
-44.693577 847.21942 1291.6075 4287905367
2.3522935 847.21942 1291.6075 4290358453
4.704587 847.21942 1291.6075 4291409608
7.056881 847.21942 1291.6075 4292199123
9.409174 847.21942 1291.6075 4291544278
-49.205505 853.32373 1290.2145 4286200908
-46.862385 853.32373 1290.2145 4286790477
1.1715597 853.32373 1290.2145 4282539385
4.6862388 853.32373 1290.2145 4284502901
7.0293579 853.32373 1290.2145 4284700536
9.3724775 853.32373 1290.2145 4285816944
-49.205505 855.11505 1291.7249 4286593867
1.1715597 855.11505 1291.7249 4287005615
4.6862388 855.11505 1291.7249 4286669739
7.0293579 855.11505 1291.7249 4285682844
10.544037 855.11505 1291.7249 4285491038
-49.051376 860.68701 1291.1909 4286065213
-46.715595 860.68701 1291.1909 4286653769
-43.211929 860.68701 1291.1909 4287442257
0 860.68701 1291.1909 4286935127
-49.051376 862.47278 1292.6965 4286067010
-46.715595 862.47278 1292.6965 4286851145
-44.379818 862.47278 1292.6965 4287245903
1.16789 862.47278 1292.6965 4288841366
4.6715598 862.47278 1292.6965 4284704620
7.0073395 862.47278 1292.6965 4282467659
11.678899 862.47278 1292.6965 4283186795
-44.205505 868.50977 1291.2467 4286857042
-41.878899 868.50977 1291.2467 4287510363
6.9798164 868.50977 1291.2467 4286678676
-46.532108 870.28845 1292.7465 4286988373
-44.205505 870.28845 1292.7465 4286791251
6.9798164 870.28845 1292.7465 4289174960
10.469725 870.28845 1292.7465 4290360516
13.959633 870.28845 1292.7465 4290425554
16.286238 870.28845 1292.7465 4290754776
-44.031193 877.17627 1292.0139 4286527313
-41.71376 876.29041 1291.267 4287182677
6.9522934 876.29041 1291.267 4291475916
10.42844 876.29041 1291.267 4287201702
-43.891743 881.77826 1290.6621 4286988627
2.3100917 881.77826 1290.6621 4289637046
4.6201835 881.77826 1290.6621 4289241492
6.9302754 881.77826 1290.6621 4287004786
10.395412 881.77826 1290.6621 4288715186
13.860551 881.77826 1290.6621 4290623176
16.170643 881.77826 1290.6621 4289833404
-49.666969 883.54431 1292.1511 4286067276
-46.201836 883.54431 1292.1511 4286527563
6.9302754 883.54431 1292.1511 4282136138
10.395412 883.54431 1292.1511 4288056466
13.860551 883.54431 1292.1511 4291476448
-52.921101 889.48596 1290.6208 4285211703
-50.620182 889.48596 1290.6208 4285668920
-46.018349 889.48596 1290.6208 4286454591
-43.71743 889.48596 1290.6208 4286783299
-40.266056 889.48596 1290.6208 4287309888
-36.814678 889.48596 1290.6208 4287962431
1.1504587 889.48596 1290.6208 4289636027
4.6018348 889.48596 1290.6208 4286092195
6.9027524 889.48596 1290.6208 4284776335
13.805505 889.48596 1290.6208 4282141842
16.106422 889.48596 1290.6208 4281483911
18.407339 889.48596 1290.6208 4283714634
-46.018349 891.245 1292.104 4286323775
-43.71743 891.245 1292.104 4286718276
-41.416515 891.245 1292.104 4287177798
1.1504587 891.245 1292.104 4290556093
4.6018348 891.245 1292.104 4288913346
6.9027524 891.245 1292.104 4287729329
10.354128 891.245 1292.104 4284899506
13.805505 891.245 1292.104 4283980643
16.106422 891.245 1292.104 4283651678
18.407339 891.245 1292.104 4286016894
-45.834862 898.90363 1292.0215 4286194746
-43.543118 898.90363 1292.0215 4286194746
-41.251377 898.02759 1291.2828 4287045944
-37.813759 898.02759 1291.2828 4287571264
-34.376148 897.15161 1290.5442 4288029773
-32.084404 898.02759 1291.2828 4288620358
1.1458715 897.15161 1290.5442 4290490305
4.5834861 897.15161 1290.5442 4290622152
6.8752294 898.02759 1291.2828 4290622409
16.042202 898.90363 1292.0215 4290425030
-37.692657 904.3017 1291.3408 4287179576
-34.266056 904.3017 1291.3408 4287769919
1.1422018 904.3017 1291.3408 4290228666
4.5688071 904.3017 1291.3408 4290359235
6.8532109 904.3017 1291.3408 4290293441
-43.403671 906.04816 1292.8134 4285932862
-41.119267 906.04816 1292.8134 4286455079
-38.834862 906.04816 1292.8134 4287046959
1.1422018 906.04816 1292.8134 4290293943
4.5688071 906.04816 1292.8134 4290227646
6.8532109 906.04816 1292.8134 4290227646
9.1376143 906.04816 1292.8134 4290359235
13.706422 906.04816 1292.8134 4290227396
15.990826 906.04816 1292.8134 4290358983
-43.229359 911.88733 1291.1967 4285080899
-40.954128 911.88733 1291.1967 4285603909
1.1376147 911.88733 1291.1967 4290424759
4.5504589 911.88733 1291.1967 4290161853
6.8256879 911.88733 1291.1967 4290293439
-43.229359 913.62671 1292.6633 4284757839
-40.954128 913.62671 1292.6633 4285415503
1.1376147 913.62671 1292.6633 4289963961
4.5504589 913.62671 1292.6633 4289636279
6.8256879 913.62671 1292.6633 4289636279
10.238532 913.62671 1292.6633 4289767099
13.651376 913.62671 1292.6633 4289964479
-43.089909 917.23206 1290.4711 4285486164
-40.822018 917.23206 1290.4711 4285878621
-37.420181 917.23206 1290.4711 4286732649
-34.018349 917.23206 1290.4711 4286994284
-43.089909 918.96588 1291.933 4283448140
-40.822018 918.96588 1291.933 4283971917
0 918.96588 1291.933 4289701302
-40.689907 925.14661 1291.9124 4282132275
-37.299084 924.28253 1291.1837 4281935926
-33.908257 924.28253 1291.1837 4281805113
-31.647707 924.28253 1291.1837 4281674029
-6.7816515 924.28253 1291.1837 4290878905
1.1302752 926.01074 1292.6409 4290291895
4.521101 926.01074 1292.6409 4290358201
-37.147705 931.75739 1290.9462 4282134851
-33.770641 931.75739 1290.9462 4282331457
1.1256881 931.75739 1290.9462 4285882205
4.5027523 931.75739 1290.9462 4288251489
-38.273396 933.47858 1292.3975 4282266445
6.7541285 933.47858 1292.3975 4284498752
-38.148624 938.73633 1291.5986 4281741121
-34.78257 937.02069 1290.152 4282200396
0.74801224 937.59259 1290.6342 4284434507
4.4880733 937.87854 1290.8752 4284434250
-37.992661 947.83978 1292.7343 4282139732
-35.012844 946.70068 1291.7738 4282667364
-31.288073 946.13123 1291.2936 4285624189
1.4899082 947.27026 1292.254 4284303178
4.4697247 946.13123 1291.2936 4284106560
-40.095413 953.03857 1291.8856 4288911790
-37.867889 951.33563 1290.4497 4285557892
-34.526604 952.18713 1291.1677 4286217122
-31.185322 951.33563 1290.4497 4280038485
-28.957798 951.33563 1290.4497 4279117383
-2.2275229 951.33563 1290.4497 4284368721
-44.403671 958.21503 1291.0181 4288647837
-39.963303 959.06372 1291.7336 4288977068
-37.743118 959.06372 1291.7336 4289108654
-33.302753 958.21503 1291.0181 4289768392
1.1100917 959.06372 1291.7336 4284171340
-34.299084 963.3689 1290.1316 4288715695
-30.979816 964.21478 1290.8448 4288912547
-8.8513765 965.06067 1291.5581 4291610623
-4.4256883 965.06067 1291.5581 4286080684
-2.2128441 965.06067 1291.5581 4282659191
8.8513765 965.06067 1291.5581 4283908159
17.702753 964.21478 1290.8448 4283973191
19.915596 963.3689 1290.1316 4283972419
-30.979816 966.75238 1292.9845 4288123038
-28.766972 966.75238 1292.9845 4288583589
-19.915596 966.75238 1292.9845 4288253080
-13.277064 966.75238 1292.9845 4288846779
-11.06422 966.75238 1292.9845 4291412449
-7.7449541 966.75238 1292.9845 4289243097
-4.4256883 966.75238 1292.9845 4283781231
-2.2128441 966.75238 1292.9845 4281939027
19.915596 966.75238 1292.9845 4283644994
-51.710091 758.60126 1295.3689 4286788669
-51.517429 766.02905 1295.0917 4286722639
-52.546791 771.55341 1293.2095 4286456912
-48.880733 771.55341 1293.2095 4287243341
-52.349541 779.84888 1293.6639 4286129705
-48.697247 779.84888 1293.6639 4286848831
-46.262386 779.84888 1293.6639 4286914880
-52.349541 781.71033 1295.2334 4286000436
-48.697247 781.71033 1295.2334 4286848831
-46.262386 781.71033 1295.2334 4287046210
-55.748623 788.63611 1293.2249 4286527824
-48.477066 788.63611 1293.2249 4287112005
-48.477066 790.48914 1294.7874 4287112005
-53.122936 796.8432 1293.6047 4286392641
-50.708256 796.8432 1293.6047 4286129725
-45.878899 796.8432 1293.6047 4286914880
-57.952293 798.68921 1295.1613 4285802559
-55.537613 798.68921 1295.1613 4285802559
-49.500916 798.68921 1295.1613 4286652734
-57.732109 805.92767 1294.7244 4285540166
-55.326607 805.92767 1294.7244 4285934925
-52.921101 805.92767 1294.7244 4286393930
-49.312843 805.92767 1294.7244 4286786635
-57.511925 814.96313 1295.8027 4286001478
-55.115597 814.96313 1295.8027 4286133064
-50.322937 814.96313 1295.8027 4286723922
-46.728439 814.04712 1295.0303 4287380057
19.170643 813.1311 1294.2579 4291017684
21.566973 814.04712 1295.0303 4291149013
-45.355965 821.21198 1294.5314 4287512158
21.484404 821.21198 1294.5314 4291544276
-46.406422 826.91858 1294.111 4287511638
14.278899 826.91858 1294.111 4291018197
16.658716 826.91858 1294.111 4290952148
19.038532 826.91858 1294.111 4291083477
-49.976147 828.73798 1295.645 4286658900
-46.406422 828.73798 1295.645 4287445079
11.899082 828.73798 1295.645 4290887377
14.278899 828.73798 1295.645 4291018197
16.658716 828.73798 1295.645 4291083991
19.038532 828.73798 1295.645 4291017943
-49.783485 836.73889 1295.851 4286128428
-46.227524 835.83264 1295.0869 4287043655
7.1119266 834.92651 1294.3229 4290754506
10.667891 835.83264 1295.0869 4290755534
14.223853 835.8327 1295.0869 4291018196
16.594496 835.8327 1295.0869 4291215831
18.965137 836.73889 1295.851 4291149534
-49.590824 842.89233 1294.4993 4286528065
-47.229359 842.89233 1294.4993 4287247436
7.0844035 842.89233 1294.4993 4291345361
10.626606 842.89233 1294.4993 4291083727
14.168807 842.89233 1294.4993 4290755791
16.530275 842.89233 1294.4993 4290755791
-51.750458 850.8161 1294.6403 4286135115
-49.398167 849.01776 1293.1239 4286134854
-47.045872 849.01776 1293.1239 4286854477
7.056881 849.01776 1293.1239 4291215018
10.97737 849.61719 1293.6294 4290292157
14.113762 849.91693 1293.8821 4290422203
16.466055 849.91693 1293.8821 4290882754
18.818348 849.01776 1293.1239 4291542741
-51.548622 856.90637 1293.2354 4286263608
-49.205505 856.90637 1293.2354 4286329401
4.6862388 856.90637 1293.2354 4290486709
7.0293579 856.90637 1293.2354 4290881467
10.544037 856.90637 1293.2354 4287071120
14.058716 856.90637 1293.2354 4282862419
16.401834 856.90637 1293.2354 4282862419
-56.234863 858.69775 1294.7457 4285539910
-52.720184 858.69775 1294.7457 4285868611
2.3431194 858.69775 1294.7457 4288514159
4.6862388 858.69775 1294.7457 4289568396
7.0293579 858.69775 1294.7457 4290292119
10.544037 858.69775 1294.7457 4286874243
14.058716 858.69775 1294.7457 4282731621
16.401834 858.69775 1294.7457 4282665828
-53.722935 865.15137 1294.9551 4285806416
-49.051376 865.15137 1294.9551 4286266447
-46.715595 865.15137 1294.9551 4286855759
-44.379818 864.25848 1294.2023 4286986063
7.0073395 864.25848 1294.2023 4281217365
10.511009 865.15131 1294.9551 4285558151
14.014679 865.15137 1294.9551 4286085522
16.350458 865.15137 1294.9551 4285361542
18.686239 866.04419 1295.708 4289636783
-46.532108 872.06714 1294.2462 4286329165
-44.205505 872.06714 1294.2462 4286921302
-48.858715 873.84589 1295.746 4286330196
-46.532108 873.84589 1295.746 4286460751
-53.300919 881.60553 1295.7485 4285607495
-46.348625 879.8338 1294.2546 4286593869
-55.442204 887.07654 1295.1294 4285014068
-53.132111 885.31042 1293.6403 4285540675
-49.281952 885.89911 1294.1366 4286130495
6.9302754 885.31042 1293.6403 4280431165
10.395412 886.19348 1294.3848 4284971149
13.860551 885.31042 1293.6403 4289833672
-49.469727 893.00409 1293.5872 4285802303
-46.018349 893.00409 1293.5872 4286326082
-43.71743 893.00409 1293.5872 4286391876
-41.416515 893.00409 1293.5872 4287177798
6.9027524 893.00409 1293.5872 4290884045
10.354128 893.00409 1293.5872 4290490318
13.805505 893.00409 1293.5872 4290029752
16.106422 893.00409 1293.5872 4290227387
18.407339 893.00409 1293.5872 4290489519
-49.469727 894.76312 1295.0704 4285801789
-46.018349 894.76312 1295.0704 4286456124
-43.71743 894.76312 1295.0704 4286653246
10.354128 894.76312 1295.0704 4290622659
13.805505 894.76312 1295.0704 4290688197
16.106422 894.76312 1295.0704 4290753990
18.407339 894.76312 1295.0704 4290820037
-48.126606 901.53168 1294.2374 4285604926
-45.834862 901.53168 1294.2374 4285997631
-43.543118 901.53168 1294.2374 4286260803
-41.251377 901.53168 1294.2374 4286719033
-38.959633 900.65564 1293.4988 4287177796
10.312844 901.53168 1294.2374 4290490313
13.750459 901.53168 1294.2374 4290358979
16.042202 901.53168 1294.2374 4290424772
18.333944 901.53168 1294.2374 4290359750
-45.688072 907.79456 1294.2859 4285736510
2.2844036 907.79456 1294.2859 4290031287
6.8532109 907.79456 1294.2859 4290096830
10.279816 907.79456 1294.2859 4290096832
13.706422 907.79456 1294.2859 4289964479
-46.830276 909.54102 1295.7584 4284622143
10.279816 909.54102 1295.7584 4290161853
13.706422 909.54102 1295.7584 4289964479
15.990826 909.54102 1295.7584 4290095808
-45.504585 916.2359 1294.8633 4284499792
1.5168196 915.94598 1294.6189 4289898683
4.5504589 916.2359 1294.8633 4289636536
6.8256879 916.2359 1294.8633 4289636536
9.8593273 916.52582 1295.1078 4289636539
13.651376 916.2359 1294.8633 4289767871
-43.089909 920.69971 1293.3949 4282067002
1.133945 920.69971 1293.3949 4289833397
4.53578 920.69971 1293.3949 4289637046
-43.089909 922.43353 1294.8568 4282198068
1.133945 922.43353 1294.8568 4289898935
4.53578 922.43353 1294.8568 4289571768
-40.689907 928.60303 1294.8267 4282003265
1.1302752 927.73895 1294.0981 4287065719
4.521101 927.73895 1294.0981 4289234829
6.7816515 929.46716 1295.5553 4288580455
9.042202 929.46716 1295.5553 4289962875
-38.273396 935.19983 1293.8488 4281937996
6.7541285 935.19983 1293.8488 4284499530
-42.776146 936.92102 1295.3 4281741373
-40.524769 936.92102 1295.3 4281609535
6.7541285 936.92102 1295.3 4284434507
-38.148624 940.4519 1293.045 4283188047
0 940.4519 1293.045 4284369227
4.4880733 940.4519 1293.045 4284237646
-38.148624 943.02527 1295.215 4284438875
0 943.02527 1295.215 4284303178
-42.462387 949.54834 1294.1748 4285621636
-40.227524 949.54834 1294.1748 4285294720
2.2348623 949.54834 1294.1748 4284171853
-46.93211 951.25696 1295.6155 4288121745
-43.579819 951.25696 1295.6155 4288189603
1.1174312 951.25696 1295.6155 4284171849
4.4697247 951.25696 1295.6155 4283909694
-52.34679 956.44452 1294.7573 4288711581
-49.005505 955.59302 1294.0394 4288055696
-46.777981 955.59302 1294.0394 4288384660
-43.065445 955.30927 1293.8002 4288911259
1.1137614 954.74158 1293.3215 4284171849
4.4550457 955.59302 1294.0394 4283908919
7.7963305 956.44452 1294.7573 4284040000
-44.403671 961.60974 1293.8804 4288912552
-37.743118 961.60974 1293.8804 4288912042
1.1100917 961.60974 1293.8804 4283907393
7.7706423 961.60974 1293.8804 4284040002
15.541285 961.60974 1293.8804 4284104511
-39.963303 963.30707 1295.3115 4288845993
-37.743118 963.30707 1295.3115 4288977836
-34.412842 963.30707 1295.3115 4288846763
1.1100917 963.30707 1295.3115 4283906623
4.4403667 963.30707 1295.3115 4283974208
6.6605506 963.30707 1295.3115 4283974208
11.100918 963.30707 1295.3115 4283908159
13.321101 963.30707 1295.3115 4284104763
15.541285 963.30707 1295.3115 4284170556
-28.766972 968.44415 1294.4109 4288452523
-25.447706 968.44415 1294.4109 4288714407
-22.128441 968.44415 1294.4109 4288517035
-19.915596 968.44415 1294.4109 4288122277
19.915596 968.44415 1294.4109 4283842366
-51.902752 753.9726 1298.0062 4286788680
17.300917 753.9726 1298.0062 4291676126
-51.710091 760.48376 1296.9562 4286525510
-54.172478 762.36627 1298.5435 4286525261
-51.132111 785.43329 1298.3726 4286131009
-55.748623 793.26868 1297.131 4285934406
-48.477066 793.26868 1297.131 4286848578
-52.921101 808.68622 1297.0503 4286130505
-50.515594 808.68622 1297.0503 4286525263
-60.137615 810.52527 1298.601 4285607491
-57.732109 810.52527 1298.601 4285804104
-55.326607 810.52527 1298.601 4286067019
-52.921101 810.52527 1298.601 4286394958
-50.515594 810.52527 1298.601 4286658129
-52.719265 818.62714 1298.8921 4286196813
-50.322937 817.71118 1298.1198 4286525522
-47.926605 817.71118 1298.1198 4286853971
-50.130276 823.94946 1296.8396 4286986331
-47.743118 823.03699 1296.0702 4286921556
19.097248 823.03699 1296.0702 4291083477
-49.976147 830.55737 1297.1791 4286920272
-47.596329 830.55737 1297.1791 4287377487
-54.735779 832.37677 1298.7131 4285867076
-52.355965 832.37677 1298.7131 4286062635
-49.976147 832.37677 1298.7131 4286325551
-52.154129 838.55127 1297.3792 4286326834
-49.783485 838.55127 1297.3792 4286655799
11.853211 838.55127 1297.3792 4290821584
14.223853 838.55127 1297.3792 4290952402
16.594496 838.55127 1297.3792 4290952402
18.965137 838.55127 1297.3792 4290952150
-59.266056 840.36365 1298.9072 4285674312
-55.710091 840.36365 1298.9072 4286001747
-52.154129 840.36365 1298.9072 4286462016
18.965137 840.36365 1298.9072 4290821584
-55.494495 844.69769 1296.0215 4285805903
-51.952293 844.69769 1296.0215 4286330952
11.80734 844.69769 1296.0215 4291544278
14.168807 844.69769 1296.0215 4291084500
16.530275 844.69769 1296.0215 4290821584
18.891743 844.69769 1296.0215 4290887893
-55.494495 846.50305 1297.5438 4285674317
-51.952293 846.50305 1297.5438 4286134854
-54.102753 853.51361 1296.9147 4285870664
-51.750458 852.61444 1296.1565 4286330952
14.113762 852.61444 1296.1565 4287728243
16.466055 852.61444 1296.1565 4288517503
18.818348 854.41278 1297.6729 4283318602
-58.57798 860.48901 1296.2561 4285082695
-56.234863 860.48901 1296.2561 4285540423
-52.720184 860.48901 1296.2561 4286067017
9.3724775 860.48901 1296.2561 4282857831
14.058716 860.48901 1296.2561 4282794588
16.401834 860.48901 1296.2561 4282070866
18.744955 860.48901 1296.2561 4282269746
-51.548622 862.2804 1297.7666 4286068809
18.744955 862.2804 1297.7666 4283320930
-52.555046 868.72278 1297.9664 4285871179
-49.051376 868.72278 1297.9664 4286528596
-52.348625 875.62457 1297.2457 4285673544
-48.858715 875.62457 1297.2457 4286527572
-46.532108 875.62457 1297.2457 4286330446
-52.348625 877.40332 1298.7455 4285738569
-48.858715 877.40332 1298.7455 4286659159
-57.752293 889.72559 1297.363 4284555321
-55.442204 889.72559 1297.363 4285014072
-53.132111 889.72559 1297.363 4285474367
-49.666969 888.84259 1296.6185 4285800770
-55.222019 896.52222 1296.5536 4285013818
-52.921101 896.52222 1296.5536 4285277247
-49.469727 896.52222 1296.5536 4285735996
10.354128 896.52222 1296.5536 4290622154
13.805505 896.52222 1296.5536 4290293443
19.557798 896.52222 1296.5536 4290359750
-52.921101 898.28125 1298.0369 4284883000
-50.620182 898.28125 1298.0369 4285538617
-48.126606 905.03583 1297.192 4285212223
-45.834862 904.15979 1296.4534 4285801020
11.458715 904.15979 1296.4534 4290359235
16.042202 905.91187 1297.9307 4290227650
18.333944 905.03583 1297.192 4290294470
-46.830276 911.28748 1297.231 4284231750
15.990826 911.28748 1297.231 4289964479
18.275229 911.28748 1297.231 4289504956
-47.972477 913.03394 1298.7036 4285353824
11.422018 913.03394 1298.7036 4289636027
15.990826 913.03394 1298.7036 4290162373
-46.262997 920.00464 1298.041 4282526779
6.8256879 919.71472 1297.7966 4289637303
10.238532 919.71472 1297.7966 4289637050
13.651376 920.58447 1298.5299 4289570999
18.201836 918.84503 1297.0632 4289965755
-45.3578 925.0343 1297.0497 4282593346
-43.089909 925.0343 1297.0497 4282264380
6.8036699 925.0343 1297.0497 4290487214
9.0715599 925.0343 1297.0497 4290423222
18.14312 925.0343 1297.0497 4289964988
-42.950459 932.05945 1297.7411 4281675332
-40.689907 932.05945 1297.7411 4281937482
-42.776146 938.64221 1296.7512 4283714382
6.7541285 938.64221 1296.7512 4284171853
-42.776146 940.3634 1298.2025 4284109140
-40.524769 940.3634 1298.2025 4284832606
6.7541285 940.3634 1298.2025 4284106308
-47.124771 947.31421 1298.8313 4285162871
-44.880733 947.31421 1298.8313 4285555843
0 947.31421 1298.8313 4284105804
4.4880733 946.45642 1298.108 4284302915
-52.519264 952.96552 1297.056 4287330694
6.704587 952.96552 1297.056 4284040755
11.174312 954.67407 1298.4967 4284236612
15.644036 954.67407 1298.4967 4284171069
-52.34679 958.99902 1296.9111 4288912039
-49.005505 958.99896 1296.9111 4288977828
-46.777981 958.99896 1296.9111 4289043621
-43.065445 958.71515 1296.6719 4288912292
-40.095413 959.85046 1297.6292 4288912042
4.4550457 958.99896 1296.9111 4283974467
7.7963305 958.14746 1296.1932 4284040262
11.137614 959.85046 1297.6292 4284040260
13.365138 958.99896 1296.9111 4284104767
16.706421 958.14746 1296.1932 4284038974
-37.743118 965.00439 1296.7427 4288912040
-34.412842 965.00439 1296.7427 4288846760
1.1100917 965.00439 1296.7427 4283907645
4.4403667 965.00439 1296.7427 4284040260
7.7706423 965.00439 1296.7427 4283974209
13.321101 965.00439 1296.7427 4284104763
16.651375 965.00439 1296.7427 4283907647
-31.082569 966.70178 1298.1738 4288386730
-16.651375 966.70178 1298.1738 4287858846
-13.321101 966.70178 1298.1738 4287662237
-11.100918 966.70178 1298.1738 4291017680
-7.7706423 966.70178 1298.1738 4288189122
-4.4403667 966.70178 1298.1738 4282792258
-2.2201834 966.70178 1298.1738 4282529086
17.761467 966.70178 1298.1738 4283776573
17.300917 755.86212 1299.5995 4291610333
-54.374313 757.75165 1301.1926 4286328131
-54.172478 764.24878 1300.1307 4286525261
-60.137615 812.36426 1300.1516 4285476936
-52.921101 812.36426 1300.1516 4286263371
-60.137615 814.20331 1301.7021 4285214534
-57.732109 814.20331 1301.7021 4285541446
-55.326607 814.20331 1301.7021 4285870410
-52.921101 814.20331 1301.7021 4286262606
-55.115597 820.45917 1300.4368 4285805389
-52.719265 820.45917 1300.4368 4286263119
-57.511925 822.2912 1301.9814 4286067273
-55.115597 822.2912 1301.9814 4285869895
-52.719265 822.2912 1301.9814 4286196559
-54.904587 826.68701 1299.1478 4285936971
-52.517429 826.68701 1299.1478 4286066506
-57.291744 828.51196 1300.6866 4286001480
-54.904587 828.51196 1300.6866 4286198860
-52.517429 828.51196 1300.6866 4286459721
-54.735779 835.10583 1301.0142 4285605445
-52.355965 834.19617 1300.2472 4285996586
-59.266056 842.17603 1300.4354 4285086027
-59.266056 843.9884 1301.9636 4285346887
-55.494495 848.30841 1299.066 4285806668
18.891743 848.30841 1299.066 4291604672
-59.036697 850.11377 1300.5883 4285608267
-56.675228 850.11377 1300.5883 4285805639
18.891743 850.11377 1300.5883 4290621582
18.818348 856.21118 1299.1892 4282793554
-51.548622 864.07172 1299.277 4286069070
-52.555046 871.40137 1300.225 4285607495
-57.752293 892.37476 1299.5967 4284489018
-55.442204 892.37476 1299.5967 4284948023
-53.132111 892.37476 1299.5967 4285145658
-57.752293 894.14087 1301.0858 4284685620
-55.222019 900.04034 1299.52 4284751414
-52.921101 900.91992 1300.2616 4284883513
-50.620182 900.91992 1300.2616 4285211197
-50.41835 907.66394 1299.408 4284163388
18.333944 907.66394 1299.408 4290031298
-50.41835 909.41602 1300.8851 4284100675
-47.972477 914.78033 1300.1761 4283644490
15.990826 914.78033 1300.1761 4289834176
-47.972477 916.52679 1301.6487 4282722617
13.706422 916.52679 1301.6487 4289636794
15.990826 916.52679 1301.6487 4290031552
-50.055046 922.32391 1299.9966 4283446329
-47.779816 922.32391 1299.9966 4283446329
11.376146 922.32391 1299.9966 4290095549
13.651376 922.32391 1299.9966 4289767349
15.926605 922.32391 1299.9966 4289767349
-50.055046 924.06335 1301.4633 4283840067
-47.779816 924.06335 1301.4633 4283577152
11.376146 924.06335 1301.4633 4290619311
13.651376 924.06335 1301.4633 4290096051
15.926605 924.06335 1301.4633 4290293430
-49.893578 929.36877 1300.7045 4282725188
-46.113766 928.79083 1300.2172 4282529351
-43.089909 927.63501 1299.2426 4282265664
11.33945 927.63501 1299.2426 4290752134
-45.21101 934.65179 1299.9269 4282135875
-46.341286 936.38 1301.384 4283648587
-40.689907 936.38 1301.384 4283319633
9.042202 936.38 1301.384 4284367951
-49.530273 943.80579 1301.1051 4281412151
-45.777985 943.23212 1300.6213 4282267719
-42.776146 942.94519 1300.3794 4282662991
-40.524769 942.94519 1300.3794 4282928212
6.7541285 942.94519 1300.3794 4284303169
11.256881 942.94519 1300.3794 4284303434
-51.612843 949.02979 1300.2778 4286609287
-49.368809 949.02979 1300.2778 4287003008
7.8541284 949.02979 1300.2778 4283909955
11.174312 956.38263 1299.9373 4284040262
-55.688072 961.55334 1299.0651 4289042091
-52.34679 961.55334 1299.0651 4288911788
-49.005505 961.55334 1299.0651 4288912292
-46.777981 961.55334 1299.0651 4288912292
-43.436699 961.55334 1299.0651 4288977834
-51.975536 963.82397 1300.9796 4288977833
-49.005505 964.10779 1301.2189 4288846500
-46.777981 964.10779 1301.2189 4288846500
-43.436699 964.10779 1301.2189 4289043123
-40.095413 964.10779 1301.2189 4288780201
-37.867889 964.95929 1301.9368 4288779948
-34.526604 964.95929 1301.9368 4288847781
1.1137614 964.95929 1301.9368 4283711549
4.4550457 964.95929 1301.9368 4283843649
7.7963305 964.95929 1301.9368 4283843135
11.137614 963.25635 1300.501 4283908159
13.365138 964.95929 1301.9368 4283710516
15.592661 964.95929 1301.9368 4283842103
-62.543118 816.96185 1304.0281 4285281097
-57.732109 816.96185 1304.0281 4285804107
-55.326607 816.04236 1303.2528 4285934668
-62.304588 824.12317 1303.5262 4285608267
-58.710091 824.12317 1303.5262 4285739851
-62.066055 830.33698 1302.2253 4285280838
-57.291744 830.33698 1302.2253 4285801283
-62.066055 832.16199 1303.7642 4285279556
-57.291744 832.16199 1303.7642 4285801283
-61.636696 845.80078 1303.4917 4285411143
-59.266056 845.80078 1303.4917 4285608265
-59.036697 851.91919 1302.1105 4285411397
-56.675228 851.91919 1302.1105 4285738311
-59.036697 853.72449 1303.6327 4285212998
-56.058716 874.97284 1303.2363 4285475652
-55.442204 895.90692 1302.575 4284817207
-55.222019 905.31757 1303.9696 4283835704
-52.921101 904.43799 1303.228 4284163897
-50.620182 903.55847 1302.4865 4285015355
-50.41835 911.16803 1302.3624 4283972171
-50.41835 912.92004 1303.8397 4283249475
-52.541283 919.14648 1303.8574 4283051838
-50.256882 918.27325 1303.1212 4283117375
15.990826 918.27325 1303.1212 4289768379
-50.055046 925.80273 1302.9298 4283446849
-47.779816 925.80273 1302.9298 4283249213
13.651376 925.80273 1302.9298 4290620596
15.926605 925.80273 1302.9298 4291081147
19.339451 925.80273 1302.9298 4291147453
-54.605503 927.54224 1304.3965 4283116349
-52.330276 927.54224 1304.3965 4283247678
10.238532 927.54224 1304.3965 4284960320
13.651376 927.54224 1304.3965 4286669157
15.926605 927.54224 1304.3965 4287590259
19.339451 927.54224 1304.3965 4287789180
-61.233028 932.83643 1303.6283 4282659641
-58.965137 932.83643 1303.6283 4282265914
-55.563301 932.83643 1303.6283 4282200124
-52.161469 931.96954 1302.8973 4282396226
-49.893578 931.96954 1302.8973 4282462022
-46.869724 931.6806 1302.6537 4282725453
10.205505 932.83643 1303.6283 4284498503
13.60734 932.83643 1303.6283 4284302406
15.875229 932.83643 1303.6283 4284368199
19.277065 932.83643 1303.6283 4283974973
22.6789 932.83643 1303.6283 4283973702
-51.992661 938.10822 1302.8412 4283252296
-49.732109 938.10822 1302.8412 4283385933
-46.341286 938.10822 1302.8412 4283714383
9.042202 938.10822 1302.8412 4284237646
-61.034863 939.83643 1304.2983 4282727235
-58.774311 939.83643 1304.2983 4282530883
-55.383484 939.83643 1304.2983 4282399810
-51.992661 939.83643 1304.2983 4282334787
-49.732109 939.83643 1304.2983 4282465094
-47.471561 939.83643 1304.2983 4282530887
9.042202 939.83643 1304.2983 4284237642
13.563303 939.83643 1304.2983 4284237642
-54.783489 946.6745 1303.5238 4285884541
-51.781651 945.52698 1302.5563 4283648880
-49.530273 945.52698 1302.5563 4283912547
6.7541285 945.52698 1302.5563 4284237894
11.256881 945.52698 1302.5563 4284171853
13.508257 947.24817 1304.0076 4284368197
-55.871559 961.50836 1304.2592 4288911788
-37.867889 966.66229 1303.3727 4288912302
-34.526604 966.66229 1303.3727 4288781988
-31.185322 966.66229 1303.3727 4288452775
-28.957798 967.51379 1304.0906 4288518311
-25.616514 967.51379 1304.0906 4288649382
-22.275229 967.51379 1304.0906 4288452517
-20.047707 967.51379 1304.0906 4288320674
-16.706421 966.66229 1303.3727 4288319649
-13.365138 966.66229 1303.3727 4287794325
-11.137614 967.51379 1304.0906 4289964469
-7.7963305 967.51379 1304.0906 4288188856
-4.4550457 967.51379 1304.0906 4283516750
-2.2275229 967.51379 1304.0906 4282858820
1.1137614 966.66229 1303.3727 4283579961
4.4550457 966.66229 1303.3727 4283646270
17.820183 966.66229 1303.3727 4283842366
20.047707 966.66229 1303.3727 4283842366
-60.366974 813.45758 1307.6135 4285214793
-61.340366 819.7204 1306.354 4285674312
-62.304588 825.9552 1305.0709 4285478216
-59.908257 826.87122 1305.8433 4285149251
-58.485321 833.987 1305.303 4285541704
-61.636696 847.61316 1305.0199 4285476938
-55.442204 899.43909 1305.5532 4284686904
-55.442204 901.2052 1307.0424 4284360503
-52.921101 907.95618 1306.1945 4284035396
-55.001835 914.67212 1305.317 4282985274
-52.710091 914.67212 1305.317 4283116860
-50.41835 914.67212 1305.317 4282854204
-55.001835 916.42419 1306.7943 4282264117
-54.825687 923.51257 1307.5389 4283774524
-52.541283 922.63934 1306.8027 4283971904
-54.605503 929.28162 1305.8632 4282526788
10.238532 929.28162 1305.8632 4284366915
13.651376 929.28162 1305.8632 4284432710
15.926605 929.28162 1305.8632 4285550935
19.339451 929.28162 1305.8632 4285354576
-61.233028 934.57031 1305.0902 4282659645
-58.965137 934.57031 1305.0902 4282724668
-55.563301 934.57031 1305.0902 4282791234
-52.161469 934.57031 1305.0902 4283186764
-49.893578 934.57031 1305.0902 4283385412
11.33945 934.57031 1305.0902 4284565073
13.60734 934.57031 1305.0902 4284500048
15.875229 934.57031 1305.0902 4284565841
18.14312 934.57031 1305.0902 4284369477
22.6789 934.57031 1305.0902 4284171849
24.946789 934.57031 1305.0902 4284171849
27.21468 934.57031 1305.0902 4284237396
-61.233028 936.30408 1306.5521 4282661442
-58.965137 936.30408 1306.5521 4282988356
-55.563301 936.30408 1306.5521 4283054661
11.33945 936.30408 1306.5521 4284368975
13.60734 936.30408 1306.5521 4284368714
15.875229 936.30408 1306.5521 4284368714
18.14312 936.30408 1306.5521 4284499782
22.6789 936.30408 1306.5521 4284369227
-58.774311 941.56458 1305.7556 4283650645
-55.383484 941.56458 1305.7556 4283125077
-51.992661 941.56458 1305.7556 4281217087
9.042202 941.56458 1305.7556 4284237642
-56.51376 943.29285 1307.2128 4285424996
9.042202 943.29285 1307.2128 4284171853
-55.871559 963.21692 1305.6998 4289043629
-52.519264 964.07123 1306.4202 4288912040
-49.166973 964.92554 1307.1404 4288912554
-46.93211 964.92554 1307.1404 4288649382
-43.579819 964.92554 1307.1404 4288779950
-40.227524 964.92554 1307.1404 4288583337
7.8220181 964.92554 1307.1404 4283777086
11.174312 964.07123 1306.4202 4283513401
13.409174 964.92554 1307.1404 4283776059
15.644036 964.92554 1307.1404 4283907646
-60.366974 815.30359 1309.17 4285347144
-59.908257 829.61926 1308.1604 4285147970
-55.442204 904.73737 1310.0205 4283639865
-55.222019 910.59479 1308.4192 4283118395
-52.921101 910.59479 1308.4192 4283118395
-55.001835 919.05231 1309.0103 4283445052
-57.110092 925.25903 1309.0115 4283247928
-57.110092 927.00549 1310.484 4282593083
20.477064 932.7605 1308.7964 4284435270
20.477064 934.49994 1310.2631 4284565575
15.875229 938.0379 1308.014 4284237642
15.875229 939.77173 1309.476 4284368714
18.14312 939.77173 1309.476 4284368714
-49.166973 966.63409 1308.5811 4288715431
-46.93211 966.63409 1308.5811 4288715431
-43.579819 966.63409 1308.5811 4288648362
-40.227524 966.63409 1308.5811 4288583591
-37.992661 967.4884 1309.3014 4288780714
-34.640366 967.48834 1309.3014 4288715170
-31.288073 966.63409 1308.5811 4288452775
-22.348623 968.34265 1310.0217 4288188831
-16.761467 966.63409 1308.5811 4288515999
-13.409174 967.4884 1309.3014 4288253081
-11.174312 968.34265 1310.0217 4289832111
-7.8220181 968.34265 1310.0217 4287530412
-4.4697247 968.34265 1310.0217 4282725940
-2.2348623 968.34265 1310.0217 4282988856
1.1174312 966.63409 1308.5811 4283906362
4.4697247 967.4884 1309.3014 4283906103
7.8220181 967.4884 1309.3014 4283841081
11.174312 966.63409 1308.5811 4283776573
13.409174 966.63409 1308.5811 4283776071
16.761467 966.63409 1308.5811 4283776065
20.113762 966.63409 1308.5811 4283710266
22.348623 967.4884 1309.3014 4283578941
-57.310093 753.646 1312.1191 4284692533
21.814678 812.72583 1313.5366 4291280600
-55.442204 906.50342 1311.5096 4283510082
-63.963303 930.49841 1313.4292 4282659645
20.477064 936.23938 1311.7297 4284434507
-56.100918 962.75452 1311.8501 4288780454
-53.85688 962.75452 1311.8501 4288714407
-52.734863 964.47009 1313.2966 4288583593
-57.522934 917.63104 1314.3521 4283511357
-57.522934 919.39014 1315.8352 4283840321
-49.368809 966.18567 1314.7432 4288583076
-47.124771 966.18567 1314.7432 4288912040
-43.758713 966.18567 1314.7432 4288780452
-40.392662 966.18567 1314.7432 4288583078
-34.78257 967.90125 1316.1897 4288583078
-31.416513 966.18567 1314.7432 4288386982
-29.172478 966.18567 1314.7432 4288386982
-25.806423 966.18567 1314.7432 4288452771
-20.196331 966.18567 1314.7432 4288123038
-16.830275 966.18567 1314.7432 4288121493
-13.46422 967.90125 1316.1897 4288517533
-11.220183 967.90125 1316.1897 4289833392
-7.8541284 967.90125 1316.1897 4287267463
-4.4880733 967.90125 1316.1897 4283054912
-2.2440367 967.90125 1316.1897 4283054912
1.4960245 966.75751 1315.2253 4283905858
4.4880733 967.90125 1316.1897 4283644221
7.8541284 967.90125 1316.1897 4283513405
11.220183 967.04346 1315.4664 4283578426
13.46422 967.04346 1315.4664 4283644221
16.830275 967.04346 1315.4664 4283512631
20.196331 967.04346 1315.4664 4283512627
22.440367 967.90125 1316.1897 4283445823
-56.284405 962.73889 1317.069 4288780200
-55.158714 964.46008 1318.5203 4288649638
-51.781651 964.46008 1318.5203 4288649382
-51.781651 966.18127 1319.9716 4288517796
-49.530273 966.18127 1319.9716 4288647585
-46.153214 966.18127 1319.9716 4288911010
-42.776146 966.18127 1319.9716 4288911007
-40.524769 966.18127 1319.9716 4288714657
-38.273396 966.18127 1319.9716 4288517535
-31.519266 966.18127 1319.9716 4288452003
-28.1422 966.18127 1319.9716 4288255136
-24.765137 966.18127 1319.9716 4288386980
-22.513762 966.18127 1319.9716 4288123040
-19.136696 966.18127 1319.9716 4288253853
-15.759633 966.18127 1319.9716 4288516251
0 966.18127 1319.9716 4283709512
-36.022018 967.90247 1321.4229 4288319899
-10.131193 967.90247 1321.4229 4286478738
-6.7541285 967.90247 1321.4229 4284570745
-4.5027523 967.90247 1321.4229 4284635986
-2.2513762 967.90247 1321.4229 4284570193
2.2513762 967.90247 1321.4229 4285094238
4.5027523 967.90247 1321.4229 4284897105
6.7541285 967.90247 1321.4229 4284634189
10.131193 967.90247 1321.4229 4284241741
13.508257 967.90247 1321.4229 4283780940
15.759633 967.90247 1321.4229 4283649098
19.136696 967.90247 1321.4229 4283579464
13.508257 969.62372 1322.874 4284830028
15.759633 969.62372 1322.874 4284895821
-55.383484 964.03137 1324.699 4288517796
-51.992661 965.75952 1326.1561 4288319651
-49.732109 965.75952 1326.1561 4288253856
-46.341286 965.75952 1326.1561 4288384925
-42.950459 965.75952 1326.1561 4288516251
-40.689907 965.75952 1326.1561 4288319899
-38.429359 965.75952 1326.1561 4288451741
-33.908257 965.75952 1326.1561 4288385948
-31.647707 965.75952 1326.1561 4288254876
-28.256882 965.75952 1326.1561 4287991703
-24.866055 965.75952 1326.1561 4288123288
-22.605505 965.75952 1326.1561 4288254876
-19.21468 965.75952 1326.1561 4288386460
-15.823853 965.75952 1326.1561 4288649888
-13.563303 965.75952 1326.1561 4288386730
0 965.75952 1326.1561 4285028189
-51.992661 967.48779 1327.6133 4288581542
-49.732109 967.48779 1327.6133 4288581542
-46.341286 967.48779 1327.6133 4288515747
-42.950459 967.48779 1327.6133 4288581794
-40.689907 967.48779 1327.6133 4288516251
-37.299084 967.48779 1327.6133 4288582556
-33.908257 967.48779 1327.6133 4288385944
-10.172478 967.48779 1327.6133 4284307544
-6.7816515 967.48779 1327.6133 4283781690
-4.521101 967.48779 1327.6133 4284503894
-2.2605505 967.48779 1327.6133 4284767065
6.7816515 967.48779 1327.6133 4284438852
10.172478 967.48779 1327.6133 4284962630
19.21468 967.48779 1327.6133 4284763484
-58.965137 965.77905 1331.4047 4288515999
-55.563301 964.91211 1330.6737 4288582564
-31.750458 965.77905 1331.4047 4288320401
-28.348625 965.77905 1331.4047 4288057231
-24.946789 965.77905 1331.4047 4288451991
-22.6789 965.77905 1331.4047 4288452251
-19.277065 965.77905 1331.4047 4288386456
-15.875229 965.77905 1331.4047 4288715933
-13.60734 965.77905 1331.4047 4287727778
1.133945 965.77905 1331.4047 4284438619
4.53578 965.77905 1331.4047 4284438852
-55.563301 967.51288 1332.8666 4288712604
-52.161469 967.51288 1332.8666 4288712610
-49.893578 967.51288 1332.8666 4288582044
-47.625687 967.51288 1332.8666 4288516251
-43.089909 967.51288 1332.8666 4288582042
-40.822018 967.51288 1332.8666 4288647067
-37.420181 967.51288 1332.8666 4288648093
-34.018349 967.51288 1332.8666 4288451739
-22.6789 967.51288 1332.8666 4287794838
-19.277065 967.51288 1332.8666 4286282363
-13.60734 967.51288 1332.8666 4284832627
-10.205505 967.51288 1332.8666 4284438367
-6.8036699 967.51288 1332.8666 4284307536
-4.53578 967.51288 1332.8666 4284307536
-2.26789 967.51288 1332.8666 4284241487
6.8036699 967.51288 1332.8666 4283253049
10.205505 967.51288 1332.8666 4283776566
13.60734 967.51288 1332.8666 4284104511
15.875229 967.51288 1332.8666 4284104511
-54.429359 969.2467 1334.3285 4288646804
-52.161469 969.2467 1334.3285 4288646804
-49.893578 969.2467 1334.3285 4288582546
-47.625687 969.2467 1334.3285 4288714132
-9.0715599 969.2467 1334.3285 4285291609
-6.8036699 969.2467 1334.3285 4285028693
-4.53578 969.2467 1334.3285 4284831312
-2.26789 969.2467 1334.3285 4284897105
-45.504585 965.80969 1336.6627 4288582042
-31.85321 965.80969 1336.6627 4288320153
-28.440367 965.80969 1336.6627 4288188566
-25.027523 965.80969 1336.6627 4288320151
-15.926605 965.80969 1336.6627 4285230183
1.1376147 965.80969 1336.6627 4282533452
4.5504589 965.80969 1336.6627 4282858292
19.339451 965.80969 1336.6627 4283973707
-2.26789 972.71436 1337.2523 4283578178
-56.880733 967.54913 1338.1293 4288646806
-45.504585 967.54913 1338.1293 4288648089
-43.229359 967.54913 1338.1293 4288582296
-40.954128 967.54913 1338.1293 4288449693
-38.678898 967.54913 1338.1293 4288252057
-34.128441 967.54913 1338.1293 4288252828
-27.302752 967.54913 1338.1293 4287660940
-25.027523 967.54913 1338.1293 4287200389
-22.752293 967.54913 1338.1293 4286676598
-19.339451 967.54913 1338.1293 4284834136
-15.926605 967.54913 1338.1293 4283912777
-13.651376 967.54913 1338.1293 4284307014
-11.376146 967.54913 1338.1293 4284964944
1.1376147 967.54913 1338.1293 4283911507
4.5504589 967.54913 1338.1293 4283843147
6.8256879 967.54913 1338.1293 4283777354
10.238532 967.54913 1338.1293 4283646022
13.651376 967.54913 1338.1293 4283644991
-52.330276 969.28857 1339.5959 4286014305
-50.055046 969.28857 1339.5959 4286147171
-25.027523 969.28857 1339.5959 4283121991
