# .PCD v0.7 - Point Cloud Data file format
VERSION 0.7
FIELDS x y z rgb
SIZE 4 4 4 4
TYPE F F F U
COUNT 1 1 1 1
WIDTH 1171
HEIGHT 1
VIEWPOINT 0 0 0 1 0 0 0
POINTS 1171
DATA ascii
49.651375 859.19531 804.65405 4293517287
51.306423 860.46063 805.72095 4293386214
-4.133945 861.79535 805.53827 4288293436
47.889908 861.86481 804.28882 4293386214
49.541283 861.86481 804.28882 4293386214
52.077065 862.42664 806.0705 4293385959
55.444038 861.72589 806.78772 4293385702
59.58165 861.72589 806.78772 4293452259
-4.1247706 865.08911 805.69946 4288756548
49.431194 865.78845 804.98108 4293386214
52.018349 864.38983 806.41785 4293320421
-4.943119 867.04816 806.04321 4287438894
51.078899 867.04816 806.04321 4293254629
-4.9266057 870.3974 804.94312 4287700278
50.908257 871.02515 805.47241 4293517800
-6.5541286 875.54846 806.67029 4287569449
-4.3669724 874.34064 804.77997 4287896360
0 875.68323 804.16785 4288675872
44.141285 875.68323 804.16785 4293648868
46.937 874.34064 804.77997 4293714666
49.155964 874.29572 805.61407 4293846250
-4.0871563 877.55798 805.7486 4289017939
46.866058 877.34967 805.57294 4293780457
49.045872 878.18292 806.27551 4293846765
-3.2587156 881.50134 805.14941 4288096849
-1.6293578 880.87854 804.62427 4290466171
0 880.87854 804.62427 4289875830
45.622017 880.25568 804.09912 4293648870
48.880733 881.50134 805.14941 4293715695
-3.2587156 882.74695 806.19971 4288489799
-1.6256881 884.12311 804.74414 4289213266
0 884.12311 804.74414 4289277779
50.51009 882.74695 806.19971 4293912306
-1.6256881 885.98743 806.31598 4288555061
0.54067278 886.23804 805.65527 4289144907
47.038532 886.73938 804.33398 4294109419
49.239147 887.10919 805.51782 4293845996
-3.2440367 889.21948 806.42505 4288621369
50.28257 889.21948 806.42505 4293517800
-3.2330275 893.12494 805.79395 4288227652
-1.6165137 891.27118 804.23096 4288752955
0 891.27118 804.23096 4289015121
49.57309 892.50702 805.27295 4293517800
-3.225688 896.33807 805.88721 4288356146
-1.612844 895.10504 804.84753 4289610074
0 895.10504 804.84753 4289021787
46.772476 895.10504 804.84753 4293714409
48.385323 895.72156 805.36737 4293648873
-4.0284405 898.24939 806.19073 4287430675
-1.6091744 897.69745 804.41724 4288948283
0 897.69745 804.41724 4289144894
46.666054 898.31256 804.93591 4293714664
49.191742 897.57111 806.92688 4293714410
-3.2110093 901.5116 805.01721 4287954975
0 901.5116 805.01721 4289003553
46.559631 901.5116 805.01721 4294240494
48.220184 901.44849 806.27197 4293649130
-3.2 905.98865 804.86816 4288086041
46.400002 905.98865 804.86816 4293846248
48 905.98865 804.86816 4293714663
-6.4000001 908.43512 806.93091 4287168512
-4 907.82349 806.41522 4287692807
-1.5963303 908.55725 804.41772 4288349205
0 908.55725 804.41772 4288547100
44.697247 908.55725 804.41772 4293715432
46.293579 908.55725 804.41772 4293715432
48.533337 908.02734 806.5871 4293714662
-3.1926606 910.38782 805.9613 4288020498
0 909.77765 805.44678 4288808211
44.697247 909.77765 805.44678 4293649641
47.091743 910.38782 805.9613 4293583590
-3.1853211 913.55542 806.01599 4287954956
-1.5926605 912.94659 805.50269 4288413973
0.79633027 912.94666 805.50269 4288741656
3.972477 914.89227 804.52722 4289528350
6.3559632 914.89227 804.52722 4290248732
43.996334 914.04077 804.68134 4293582823
46.080734 914.89227 804.52722 4293517287
-3.1779816 917.3219 806.57581 4287889427
-1.5889908 917.3219 806.57581 4288413723
1.5889908 916.71448 806.06366 4288938267
3.9633026 917.44122 804.0603 4289595427
7.133945 917.44122 804.0603 4290315552
43.647705 916.77417 804.80591 4293583336
46.875229 916.10706 805.55151 4293451235
-3.1706421 919.86517 806.10413 4288088345
-1.5853211 919.86517 806.10413 4288548896
1.5853211 919.86517 806.10413 4289532977
3.1706421 918.6532 805.08228 4289594143
44.388992 918.6532 805.08228 4293517287
46.766968 919.25916 805.59314 4293451493
3.1633027 921.19373 804.60828 4289727526
44.28624 921.19373 804.60828 4293648357
45.867889 922.40289 805.62781 4294175212
1.5761468 926.80139 805.41248 4285812035
3.1522937 925.59644 804.39648 4286644225
48.86055 926.80139 805.41248 4294175214
1.5724771 929.32367 804.9231 4285291613
3.1449542 929.32367 804.9231 4287720039
47.174313 929.32367 804.9231 4293779943
48.86055 928.00635 806.42847 4293714150
-1.5724771 931.72803 806.95032 4280623630
0.52415901 930.92657 806.2746 4282793550
3.1376147 931.84027 804.42896 4287000918
43.926605 931.84027 804.42896 4293714148
46.279816 931.84027 804.42896 4293648355
48.746788 931.12695 806.44354 4293582563
-1.5688074 934.23901 806.45154 4285085492
1.5688074 933.63934 805.94592 4280356652
3.133945 934.29382 805.1897 4278780162
43.875229 934.29382 805.1897 4293714148
46.253212 933.96655 805.56787 4293385184
48.633026 934.23901 806.45154 4293648870
-1.5651376 937.94104 806.95691 4286798137
0.78256881 937.34277 806.45245 4284235341
3.1229358 938.05054 804.43323 4280160011
43.823853 936.74445 805.948 4293451492
46.171562 937.34277 806.45245 4293385954
1.5614679 939.84119 805.94299 4282790979
3.1155963 941.73846 804.92664 4280093210
1.0385321 943.72339 806.60034 4282661740
3.628746 944.19147 805.25098 4279504927
6.2165136 944.22705 804.40894 4280293153
45.069725 944.22705 804.40894 4293385186
-1.5541284 946.60333 806.4126 4281610315
1.5541284 946.60333 806.4126 4281477986
4.6623855 945.41522 805.41077 4279376165
-1.5504587 949.67346 806.38513 4281083957
0.77339453 950.36993 804.35632 4280031307
-1.5467891 952.73499 806.35046 4286409857
0 952.14374 805.85193 4284238949
1.0275229 955.44604 804.71222 4286082169
3.0825689 954.66046 804.04993 4287658364
-1.5394496 958.2439 805.76331 4278190091
1.0262997 957.83496 805.85449 4278190082
3.8440366 958.88287 804.99408 4278190080
6.9192657 958.88287 804.99408 4278387228
9.225688 959.47064 805.48962 4279708928
49.756577 958.26099 805.34174 4293450974
-1.5376147 960.64612 806.48083 4290491838
1.5376147 960.64612 806.48083 4291870661
3.8440366 960.64612 806.48083 4291411145
6.9192657 960.64612 806.48083 4289767865
9.9944954 960.64612 806.48083 4281161565
13.038532 961.91852 804.93762 4278190111
16.126606 961.28235 805.70923 4280360812
19.220184 960.64612 806.48083 4292128692
22.267891 961.28235 805.70923 4284898695
25.339451 961.28235 805.70923 4287205715
27.61101 961.91852 804.93762 4292200648
43.71743 961.91852 804.93762 4293452257
46.842201 961.28235 805.70923 4293385953
49.203671 960.64612 806.48083 4293253597
29.144955 963.09125 805.92639 4294700766
31.445873 963.09125 805.92639 4293912042
34.43119 964.36084 804.38086 4293385447
37.491745 964.36084 804.38086 4293648871
40.649544 963.09125 805.92639 4293385953
-13.21101 772.60419 807.50842 4287392905
-12.963303 800.66174 807.62122 4287310650
-16.367889 806.16217 808.33496 4286782245
-13.209174 805.94257 808.1499 4287176493
-12.607951 809.16022 808.24677 4286977826
-10.315597 808.28394 807.50793 4287043353
60.174313 809.59833 808.61621 4294044658
-12.894495 810.91272 809.72449 4287179052
58.455048 810.91272 809.72449 4293912558
60.174313 810.91272 809.72449 4293978351
-15.423853 815.71942 809.85315 4286450214
-13.710092 814.40924 808.74841 4287047202
-10.853824 813.97247 808.38019 4287046692
-8.5504589 815.86395 807.35901 4287177768
55.903362 814.94232 807.45392 4293781225
58.839142 815.28271 809.48486 4293847276
-13.680734 817.17133 808.46143 4286581522
-11.115597 817.17133 808.46143 4287307041
56.433029 817.82501 809.01257 4293912811
-13.636697 821.30396 808.02191 4286782763
-11.079817 821.30396 808.02197 4287112236
-8.5229359 820.6524 807.47253 4287177768
52.842201 821.30396 808.02191 4293912301
54.546787 821.30396 808.02191 4293780971
-13.636697 823.25873 809.67004 4287245610
-11.055964 824.70227 808.27124 4287837745
-7.6541286 823.40192 807.1748 4287506995
51.877983 824.05212 807.72302 4293846252
55.399082 823.25873 809.67004 4293977586
-11.055964 826.00269 809.36768 4287178536
54.429359 826.00269 809.36768 4293779691
54.253212 829.4599 808.35852 4293912045
55.827522 832.19122 808.04541 4293846250
58.365135 833.48456 809.13599 4293978606
-11.24159 836.06274 807.38574 4287179305
55.64587 835.633 807.02344 4293846252
59.018349 836.92218 808.11035 4293715434
-10.949541 838.92468 808.49078 4287310385
-8.4128437 839.638 807.78418 4287441708
58.889908 839.638 807.78418 4293517800
-10.936697 841.5675 809.41113 4287046697
-8.4128437 840.92438 808.86877 4287309868
58.889908 840.92438 808.86877 4293517800
-10.062386 845.62445 808.90771 4286775320
-8.3853207 844.9834 808.36719 4287041824
58.697247 844.34229 807.82666 4293715182
-10.062386 846.90656 809.98877 4286977060
-7.5302753 847.68237 808.02692 4287237153
52.711926 847.04266 807.48755 4293780970
56.058716 847.68231 808.02698 4293517542
58.568806 847.68237 808.02692 4293583080
60.242203 847.68237 808.02692 4293385958
-7.5192661 850.66083 808.57629 4287836724
52.538532 851.72034 807.50757 4293713894
55.967888 850.66083 808.57629 4293714153
58.568806 849.60132 809.64502 4293517287
60.242203 849.60132 809.64502 4293056736
-10.841284 854.27057 809.65784 4287309100
-7.4981651 853.70044 807.86908 4287967017
53.255047 854.40533 807.1554 4293779689
56.152294 853.42047 808.9411 4293582309
58.376148 853.63306 809.1203 4293384930
-8.3211012 856.31384 808.76453 4287703091
55.751373 856.31384 808.76453 4293450981
58.247707 856.94995 809.3009 4293319652
-6.6422019 858.98901 808.40411 4287834163
53.137615 858.35425 807.8689 4293451494
54.798164 858.35425 807.8689 4293451494
58.119267 859.62372 808.93933 4293451494
-6.6201835 862.99121 807.85461 4288100154
55.444038 862.99121 807.85461 4293320165
58.754128 862.99121 807.85461 4293582821
-9.930275 865.52179 809.9884 4287043366
-7.7125382 865.60785 808.31689 4287438637
52.844036 865.65228 807.4823 4293319652
55.321106 866.28351 808.01459 4293780459
58.688992 865.58563 808.73419 4294372854
-9.9082565 868.17725 809.61133 4287045417
-7.1400609 869.14764 807.81348 4287503919
52.726604 868.93768 807.63641 4293714666
55.321102 868.17725 809.61133 4294570749
57.798164 868.17725 809.61133 4292203239
-9.8862381 870.82721 809.22961 4287042603
-7.4036694 871.8678 808.14496 4287108645
50.908257 872.90833 807.0603 4294241005
52.726604 870.82721 809.22961 4293913588
54.374313 870.82721 809.22961 4294374139
-9.8532114 874.79156 808.64819 4287177512
-8.211009 874.79156 808.64819 4286914853
50.908257 874.16382 808.1189 4293121759
52.550457 875.41931 809.17749 4289969578
-9.831193 878.05377 808.78271 4287179052
-7.3733945 877.42749 808.25464 4287242798
50.794495 876.80115 807.72656 4292201940
52.433029 878.05377 808.78271 4289050034
54.890823 878.05377 808.78271 4278191620
-13.078899 881.93256 809.43713 4286982440
-10.37003 880.18182 809.70508 4287048488
-7.1970644 880.65741 808.88525 4287309612
-4.9045873 880.05774 807.85638 4288031801
50.680733 879.4328 807.32947 4293057764
52.433029 879.30646 809.83899 4291412201
54.890823 879.30646 809.83899 4282136456
-4.0733948 883.99261 807.25 4288491064
50.51009 883.99261 807.25 4294240754
-6.5174313 886.48395 809.35071 4287631138
-4.344954 885.6535 808.65057 4288159012
52.834862 887.85168 807.88794 4293517546
55.398167 886.48395 809.35071 4293846763
-6.5027523 890.3374 809.98376 4287373101
-4.8770642 889.09454 808.93591 4288227654
52.776146 889.77704 808.20331 4293583344
56.086239 889.71594 809.45984 4294044399
58.524769 890.3374 809.98376 4293977838
-6.4880733 892.93964 809.56177 4287437863
-4.866055 891.69958 808.51624 4288096568
52.715599 892.31964 809.039 4293714667
55.959633 892.93964 809.56177 4293780455
58.392662 892.93964 809.56177 4293846248
-4.8495412 894.9787 807.35706 4287043105
50.111927 894.9787 807.35706 4293517287
51.728439 896.21454 808.39905 4293845739
-6.4660549 897.45038 809.44104 4287037466
-4.838532 898.80414 807.96643 4287103003
49.998165 898.80414 807.96643 4293714409
52.536697 897.45038 809.44104 4293714409
54.961468 897.45038 809.44104 4293714409
59.811008 897.45038 809.44104 4293649638
-6.4440365 901.32776 808.78625 4287234063
-4.8275228 901.38812 807.52917 4287168531
49.884403 901.38812 807.52917 4293583593
52.357796 901.32776 808.78625 4293517545
54.774311 901.32776 808.78625 4293649389
-6.4366975 903.84857 809.60376 4287299587
-4.8165135 904.58014 807.60461 4287496203
49.770641 904.58014 807.60461 4293780457
52.239449 904.52124 808.86292 4293713896
55.516514 903.84857 809.60376 4293780459
57.930275 903.84857 809.60376 4293583593
51.376148 906.42126 809.15698 4293714150
54.587154 906.42126 809.15698 4293780203
-9.6000004 910.88153 808.99365 4286776072
-7.1999998 910.2699 808.47797 4286906370
-4.8000002 909.65833 807.96228 4287430660
49.599998 910.2699 808.47797 4293714661
51.200001 910.88153 808.99365 4293714663
-6.9174309 913.43878 808.53387 4286906375
-4.2544341 913.47675 807.69379 4287627271
-1.5926605 914.77301 807.04272 4288807959
0 914.77301 807.04272 4288741401
47.889908 912.21844 807.50476 4293451746
49.48624 914.04907 809.04834 4294043115
51.082569 914.6593 809.56287 4293846252
-6.3706422 916.59937 808.58264 4286972165
-4.7779818 915.9906 808.06934 4287365120
0 915.9906 808.06934 4288872475
49.372478 917.20819 809.09595 4293648870
-4.3697248 920.05518 808.88037 4286059295
0 919.75146 808.62433 4287171873
50.053211 920.35889 809.13641 4293715176
-3.1706421 922.28918 808.14801 4286789198
-1.5853211 921.68323 807.63702 4285928749
1.0568807 922.28925 808.14795 4286194731
47.559631 921.68323 807.63702 4293648869
49.937614 922.89514 808.65894 4293846506
-1.5816513 925.4259 808.17676 4285554300
0 926.03046 808.68652 4285423199
50.612843 926.03046 808.68652 4293648355
-3.1633027 927.23962 809.70605 4282068787
-1.5761468 929.21136 807.44446 4282924096
50.612843 927.23962 809.70605 4293582310
-3.677676 931.21967 809.13776 4281142288
0 932.93018 807.96399 4283907409
50.377983 931.67322 808.21222 4293254624
-3.9311926 934.73346 809.4845 4287258151
-1.5688074 935.43835 807.46289 4287520841
0 935.43835 807.46289 4286668153
47.06422 935.43835 807.46289 4293386212
49.417431 935.43835 807.46289 4293189088
52.677982 934.13239 808.97766 4293189087
-3.6605504 937.43732 809.14825 4285351458
47.06422 937.8371 809.48535 4293582562
49.155964 937.03754 808.81122 4293385697
51.770641 936.63776 808.47412 4293452259
-3.1302752 941.5307 809.98364 4278910976
-1.5651376 939.73584 808.47028 4282986790
0 940.3847 807.70929 4283844973
-1.5614679 942.82556 808.45935 4282199344
-3.1155963 946.50226 808.94336 4278190083
0 945.31128 807.93921 4282530674
-3.1082568 949.57373 808.91711 4284700266
-6.2018347 953.82208 809.88318 4284306529
-3.8761468 953.22943 809.38348 4281282366
-1.5467891 953.91754 807.34766 4284177272
-6.1871562 956.28259 809.3418 4286540218
-3.8669724 955.69135 808.84326 4278386733
55.684402 956.28259 809.3418 4293385697
57.231194 956.28259 809.3418 4293254110
-3.0825689 958.78461 807.52728 4284702821
0 958.78461 807.52728 4284372569
50.862385 958.78461 807.52728 4293516768
52.917431 958.5882 807.36163 4293582819
-3.0825689 960.55212 809.01758 4292266963
-1.5376147 961.82166 807.47205 4291543497
0.77064222 960.55212 809.01758 4293649361
3.8440366 961.82166 807.47205 4294109433
6.9192657 961.82166 807.47205 4292399317
9.9944954 962.40942 807.96759 4291544820
12.813457 962.21356 807.80243 4283782585
16.144955 961.82166 807.47205 4278190187
19.220184 961.82166 807.47205 4289509208
22.295414 961.82166 807.47205 4287396291
25.626913 962.21356 807.80243 4288443958
28.445873 962.40942 807.96759 4293251772
31.521101 962.99719 808.46313 4293714666
34.596329 962.99719 808.46313 4293648103
37.671562 962.99719 808.46313 4293648355
39.977982 962.99719 808.46313 4293385184
43.822018 961.82166 807.47205 4293451744
46.897247 961.82166 807.47205 4293319906
49.321102 960.55212 809.01758 4293056738
-16.367889 808.79651 810.55615 4286586671
-15.473394 812.22711 810.83264 4287046980
60.174313 812.22711 810.83264 4293846763
-15.423853 817.0296 810.95789 4286386985
59.4104 817.46631 811.32617 4293978349
61.695412 818.33978 812.06262 4294175212
56.433029 819.78607 810.66614 4293912558
58.71315 820.65765 811.40106 4293846764
56.251377 824.56189 810.76892 4294240242
58.904587 823.48132 811.81989 4293912810
56.130276 827.30304 810.46411 4294372596
58.745872 826.58411 811.16589 4294110187
58.681648 828.60339 811.56055 4293780970
-11.777982 844.1402 811.58038 4286581012
-10.062386 848.18872 811.06982 4287640884
-10.877064 850.88068 810.72363 4287376424
-13.387156 852.15997 811.80237 4287177518
-15.011009 856.8208 811.80811 4287245360
-13.34312 856.18323 811.27057 4286915380
-10.841284 855.54572 810.73303 4287176753
-15.011009 858.09595 812.8833 4287510581
-13.34312 858.09595 812.8833 4287114303
-10.983852 859.24011 811.23193 4286849586
-8.3119268 859.55774 810.19171 4287966782
-10.793578 862.79749 811.61542 4286847769
-11.585321 866.78711 811.05518 4286979610
59.58165 866.78711 811.05518 4287737549
-11.559633 869.43976 810.67578 4287174956
56.14679 869.43976 810.67578 4292205817
58.623856 869.43976 810.67578 4284118433
-11.533945 872.08691 810.29175 4287110697
52.726604 872.08691 810.29175 4291940047
55.198166 872.08691 810.29175 4283389299
58.559631 871.39459 811.01605 4278190115
55.198166 873.34656 811.35388 4278520341
57.669724 873.97644 811.88495 4278190098
-13.108257 881.81183 811.95142 4286849835
-11.469725 881.18549 811.42334 4286981674
52.433029 880.55914 810.89526 4294569718
54.890823 880.55914 810.89526 4293978094
57.348625 881.81183 811.95142 4291346615
-14.713761 884.43225 811.5448 4286457378
-9.8091745 883.80737 811.01788 4287176243
-7.6293578 883.59906 810.84229 4286780193
53.133026 883.18243 810.49097 4294438132
55.58532 883.18243 810.49097 4294767852
57.220184 884.43225 811.5448 4294373107
-13.078899 885.68213 812.59863 4286982198
-10.626606 885.68213 812.59863 4287902537
-7.3458714 886.70587 811.49982 4286979130
58.656879 887.72961 810.401 4294964985
-11.405504 890.22095 812.50159 4285662745
-8.1467886 890.22095 812.50159 4288091461
-8.1284399 892.82312 812.07971 4286709768
-12.976147 896.65979 812.69849 4286252308
-10.543119 895.41974 811.65295 4286447626
-7.2990828 894.79968 811.13019 4286775300
53.526604 894.17969 810.60742 4294042861
56.229969 894.59302 810.95587 4293845481
58.392662 894.79968 811.13019 4293714918
60.014679 894.17969 810.60742 4293845734
-12.93211 899.922 811.52515 4286382611
-10.776759 899.09814 810.83038 4286448142
-8.0825691 898.68622 810.48303 4286841094
56.57798 898.68622 810.48303 4293846765
59.002754 898.68622 810.48303 4293780970
-12.93211 901.15784 812.56714 4286317832
-10.223241 901.64374 811.23273 4286513417
-8.0642204 901.88672 810.56561 4286644234
56.449543 901.2702 810.04578 4293978099
58.062386 901.2702 810.04578 4293846763
-10.472477 904.40753 811.38306 4286448909
-8.0458717 905.0788 810.64099 4286382090
53.102753 905.0788 810.64099 4293714150
56.321102 905.0788 810.64099 4293714409
57.930275 905.0788 810.64099 4293649387
-9.6550455 906.30902 811.67834 4286645519
-8.027523 907.64874 810.19189 4286382090
52.446484 908.05786 810.53687 4293714405
55.42202 907.92749 811.08093 4293780200
57.930275 906.92413 812.19696 4293714922
55.389908 910.10358 812.26172 4293715432
57.798164 910.10358 812.26172 4293978090
-9.6000004 913.32794 811.0564 4286644758
-8 912.10474 810.02502 4286382089
52.400002 913.02216 810.79858 4293780715
55.200001 913.93958 811.57214 4293847017
-7.4495411 916.6933 811.27783 4285661205
51.880733 916.48987 811.10632 4293452263
-10.376146 918.3205 812.6499 4284156692
-7.1752291 919.59076 812.41284 4286070060
50.965137 918.42578 810.12268 4293649641
52.618347 919.59076 812.4129 4293780969
-6.3559632 923.39587 811.69714 4284368449
-4.7669725 922.18103 810.67285 4287325497
52.436699 923.39587 811.69714 4293648355
-7.1504583 924.61066 812.72144 4281866784
-4.2275229 925.11719 810.53253 4284698453
52.436699 924.61066 812.72144 4293713896
54.025688 924.61066 812.72144 4293582310
-7.133945 927.13715 812.23572 4279042052
-4.7449541 928.44885 810.72559 4279108096
52.255047 928.39758 811.99042 4293254367
-6.3266053 930.86719 812.76477 4284892950
-4.7284403 932.82629 810.49255 4286143274
-10.244954 935.23627 812.52454 4285414168
-7.0926609 934.63379 812.01654 4286862356
-9.4348621 937.73889 812.01855 4284760335
-6.8140678 937.3382 811.68066 4285813275
52.677982 936.53668 811.00488 4293583588
-6.2752295 941.43524 812.51917 4281213785
-4.1834865 939.43628 810.8338 4281475861
-4.1737003 943.12616 811.32886 4278517796
-9.3688078 947.60059 812.48547 4284102685
-4.6844039 946.4068 811.479 4282855223
-7.2697244 949.28107 811.28644 4285023527
-4.6733947 948.88416 810.95178 4285683262
-10.108257 952.8186 812.30719 4287984733
-6.993578 951.95001 810.92072 4285746993
-4.6623855 951.35596 810.4198 4284433944
-7.7522936 955.6001 811.38239 4291540386
58.142204 956.19281 811.88208 4293319391
-9.3027525 957.37811 812.88159 4290884256
-6.5784407 958.33026 811.72235 4291674306
-4.640367 958.64764 811.33594 4291871692
49.49725 959.8302 812.33301 4293056988
51.817429 959.23895 811.83447 4293451747
54.782753 958.15723 811.44568 4293385953
58.142204 957.37811 812.88159 4293187805
60.324772 959.23889 811.83447 4293385183
-3.0825689 961.73041 810.01111 4291673548
-1.5412844 962.31958 810.50787 4292002511
1.0275229 962.12323 810.34229 4292662231
3.8532109 962.31958 810.50787 4293780979
6.9357796 962.31958 810.50787 4294438909
10.018349 962.90875 811.00464 4294966527
13.357799 962.51593 810.67352 4294901503
16.183487 962.31958 810.50793 4289380075
19.266056 962.31958 810.50787 4278786450
22.348623 962.31958 810.50793 4287136855
25.174314 962.51593 810.67352 4286078328
28.256882 962.51593 810.67352 4290948748
31.596331 962.90875 811.00464 4293780202
34.678902 962.90875 811.00464 4293845734
37.761467 962.90875 811.00464 4293582562
40.844036 962.31958 810.50787 4293451488
43.669724 962.12323 810.34229 4293451487
46.752293 962.12323 810.34229 4293450979
25.431194 964.0871 811.99817 4278209097
-11.777982 846.0697 813.20728 4287114292
-15.011009 859.37103 813.95837 4286984500
-13.34312 859.37103 813.95837 4286849835
-13.313762 862.67535 814.12842 4286650640
58.899082 874.91058 815.28864 4279048766
57.669724 877.12561 814.54028 4288780702
60.965137 878.38531 815.60242 4278190109
59.119267 880.44122 813.41187 4286607780
-16.385321 884.31714 814.06384 4286393381
-13.927523 883.6908 813.53577 4286588198
-11.469725 883.06445 813.00769 4287046187
58.987156 883.06445 813.00769 4294635763
-16.385321 885.56982 815.12012 4286459688
-13.89633 886.93201 813.65259 4286655537
-10.626606 886.93201 813.65259 4286584888
-8.1743116 886.93201 813.65259 4287371077
-16.348623 889.43176 815.76025 4286316551
-13.89633 888.80682 815.2334 4286516761
-9.8091745 888.18188 814.70642 4286775344
-10.590826 891.46655 813.55188 4286447631
-13.818348 894.68738 813.65155 4286317336
-14.598166 897.89984 813.74414 4286187024
-12.93211 902.39368 813.60913 4286383885
59.539448 908.76947 813.75293 4294109419
57.798164 911.33099 813.29675 4293978349
57.798164 913.17212 814.84912 4293847019
-9.6000004 915.77435 813.11914 4285334306
55.199997 916.38599 813.63477 4293583592
57.599998 916.99756 814.15051 4293582310
-12.770642 920.76129 814.70789 4283777608
-10.382568 919.82104 814.56921 4284301371
55.382263 919.50763 814.52295 4293517030
57.533943 919.49109 814.94489 4293516262
-12.770642 921.98175 815.73694 4282589501
-10.352293 923.2962 814.22925 4282458675
-7.9633026 922.07861 813.20264 4284566607
54.946789 922.68738 813.71594 4293516517
-12.741284 924.51379 815.25586 4281206818
-10.328441 925.82544 813.74573 4281206816
54.884403 925.16962 814.50079 4293385186
-10.304587 928.95508 813.76855 4282325276
-7.3981652 928.75311 813.59821 4281996053
53.900917 928.34912 813.25757 4293319906
-10.280734 932.07642 813.7843 4283705348
-7.908257 932.07642 813.7843 4286072609
-10.627064 938.29358 813.79437 4282786833
-7.0761471 938.94104 813.03223 4283251251
53.588989 936.44122 813.54053 4293714150
-10.221101 940.74432 814.55267 4280817445
-7.8623853 940.14325 814.0459 4283055184
-10.197248 943.23425 814.03613 4280687906
-7.0596333 942.63458 813.53052 4280161836
-10.442813 945.8891 814.53052 4282658346
-7.0431194 945.12036 813.01038 4283578937
-13.272477 949.9881 814.49866 4282593566
-9.3688078 948.79431 813.49207 4284100102
-13.241285 953.05249 814.46643 4288513152
-12.433027 956.10852 814.42712 4290553767
-10.360856 955.31641 813.75928 4290356897
-13.210092 957.29663 815.42896 4290354076
-10.077982 958.56348 813.88098 4290750113
-7.2354736 959.3537 814.54718 4291804352
55.816513 959.15613 814.38068 4293319653
58.400616 958.95856 814.21411 4293187806
60.467892 959.74878 814.88037 4293582308
-6.2018347 960.93414 815.87988 4293384415
-3.8715596 960.97345 814.60498 4292923610
-1.5467891 962.19525 814.32715 4293450208
0.77522933 960.97345 814.60498 4292924122
3.8761468 960.93414 815.87988 4293647849
6.9678898 961.5647 815.10352 4293978867
10.054129 962.19525 814.32715 4294440445
13.147707 962.19525 814.32715 4294967295
16.241283 962.19525 814.32715 4294967295
19.334862 962.19525 814.32715 4294967295
22.42844 962.19525 814.32715 4289648851
28.683487 960.93414 815.87988 4292197500
31.745872 961.5647 815.10352 4293845997
34.885323 960.93414 815.87988 4293714148
37.986237 960.93414 815.87988 4293582562
41.312542 960.96039 815.02997 4293583586
44.376759 961.38068 814.51239 4293518050
47.232109 960.97345 814.60498 4293582565
49.058716 960.96039 815.02997 4293319391
51.878899 960.97345 814.60498 4293188574
54.201836 960.97345 814.60498 4293386210
58.917431 960.93414 815.87988 4293319390
60.467892 960.93414 815.87988 4293516769
60.965137 879.64502 816.66455 4292464595
-16.385321 886.82251 816.17627 4286784798
-18.023853 889.32782 818.2887 4286121485
-16.348623 890.68164 816.81409 4286251030
-14.713761 890.68164 816.81409 4286316567
-16.348623 892.5564 818.3949 4286121235
-14.4 920.05566 816.729 4283447624
-14.366973 923.20215 816.76599 4280156704
-12.682569 931.98511 816.32336 4284493845
-12.653211 936.91315 817.86255 4282720557
-17.297247 944.9519 818.10034 4284502347
-13.103976 943.34906 816.74884 4283054398
-15.688073 946.23267 816.56433 4284304956
-13.334863 946.23267 816.56433 4282723363
-15.651376 948.71008 816.03711 4278190080
-16.097246 958.01483 818.65045 4292593610
-13.218349 958.76361 817.31976 4292330438
-10.101835 959.07886 816.93164 4292462538
-7.7706423 959.67297 817.4325 4293450458
0 959.67297 817.4325 4293384413
55.948624 959.67297 817.4325 4293451492
57.50275 959.07886 816.93158 4293385445
-6.993578 960.86108 818.43433 4293582562
-3.8853211 960.86108 818.43433 4293450720
-1.5541284 960.86108 818.43433 4293844964
0.7770642 960.86108 818.43433 4293516256
3.8853211 960.86108 818.43433 4293319138
6.993578 960.86108 818.43433 4293714913
10.101835 960.86108 818.43433 4294373627
13.210092 960.86108 818.43433 4294967295
16.279816 962.11951 816.87927 4294967295
19.380733 962.11951 816.87927 4294967295
22.481651 962.11951 816.87927 4293256422
25.582569 962.11951 816.87927 4284179344
28.751377 960.86108 818.43433 4290097845
31.8211 961.4903 817.6568 4293846254
34.967888 960.86108 818.43433 4293714661
38.076149 960.86108 818.43433 4293452005
41.184402 960.86108 818.43433 4293583845
43.412846 962.11951 816.87927 4293714913
45.79174 961.4903 817.6568 4293517281
48.839447 962.11951 816.87927 4293319644
51.940369 962.11951 816.87927 4293254109
55.171562 960.86108 818.43433 4293386468
58.279816 960.86108 818.43433 4293386466
60.467892 962.11951 816.87927 4293518052
20.155964 963.30481 817.87878 4294967295
58.917431 963.30481 817.87878 4293189088
60.93578 964.11847 817.69269 4293583331
-18.023853 890.58051 819.34497 4285794317
-15.816514 940.54071 820.92114 4286079076
-15.577982 959.60272 819.98938 4293910244
-13.241284 959.60272 819.98938 4293910757
-10.125689 959.60272 819.98938 4293779941
-3.8944955 960.79364 820.99353 4293122270
-1.5577981 960.79364 820.99353 4293187806
0.77889907 960.79364 820.99353 4293186525
3.8944955 960.79364 820.99353 4293252318
7.0027523 961.42145 820.21484 4292726742
10.125689 960.79364 820.99353 4292530399
13.241284 960.79364 820.99353 4293516519
16.603058 961.60919 820.80908 4294966783
19.198166 962.00616 821.14386 4294967295
22.561468 962.01697 820.71692 4294967295
25.673393 962.01697 820.71692 4294967295
28.819267 960.79364 820.99353 4290762440
31.934862 960.79364 820.99353 4293319138
35.050461 960.79364 820.99353 4293583848
38.166054 960.79364 820.99353 4293386214
40.957188 962.02777 820.29004 4293189085
43.064831 962.00616 821.14386 4293385697
45.900917 962.01691 820.71692 4293187807
49.012848 962.01691 820.71692 4293516513
51.84465 962.02777 820.29004 4293188059
54.955353 962.02765 820.29004 4293451490
57.50275 962.04926 819.43616 4293386210
52.840366 963.23737 820.43799 4293516769
55.948624 963.23737 820.43799 4293451746
58.279816 963.23737 820.43799 4293451746
60.611008 964.42554 821.43982 4293714661
-16.395412 959.53815 822.55103 4293384668
-13.272477 959.53815 822.55103 4293319647
-10.149542 959.53815 822.55103 4293319905
-7.0266056 959.53815 822.55103 4293188319
-18.737616 961.32874 824.06079 4293450974
-17.176147 961.32874 824.06079 4293582303
-7.0266056 960.73187 823.5575 4293122015
-3.643425 961.12982 823.89307 4293252831
-1.5614679 961.32874 824.06079 4293318367
0.78073394 960.73187 823.5575 4293318370
3.9036698 960.73187 823.5575 4293121246
7.0266056 960.73187 823.5575 4292594649
9.3688078 960.73187 823.5575 4292529618
13.272477 960.73187 823.5575 4292923865
15.614679 960.73187 823.5575 4294373361
20.299082 961.92566 824.56409 4294967295
22.641285 961.92566 824.56409 4294967295
28.887157 960.73187 823.5575 4294374905
32.010094 960.73187 823.5575 4293583848
35.393272 961.12982 823.89307 4293649641
37.475231 961.32874 824.06079 4293385958
39.557186 961.52777 824.22852 4293517285
42.159634 961.92566 824.56409 4293582562
43.618347 963.17554 823.00183 4293385188
45.955048 963.17554 823.00183 4293187806
49.070641 963.17554 823.00183 4293582561
52.186241 963.17554 823.00183 4293582561
55.301834 963.17554 823.00183 4293648355
58.677063 963.57251 823.33661 4293780197
60.754128 964.36652 824.0061 4294109417
-15.651376 959.47913 825.11731 4293319390
-13.30367 959.47913 825.11731 4293253598
-10.173394 959.47913 825.11731 4293253856
10.450152 959.44354 826.83136 4292660690
-15.651376 961.27393 826.63062 4293450206
-13.30367 961.27399 826.63062 4293516255
-10.173394 961.27393 826.63062 4293319392
-7.0431194 961.27399 826.63062 4293319392
-4.1737003 961.47339 826.79877 4293318878
-1.5651376 961.87225 827.13501 4293450206
0.78256881 960.67566 826.12622 4293383904
3.9128439 960.67566 826.12622 4293252829
7.0431194 960.67566 826.12622 4292792026
13.30367 960.67566 826.12622 4292529104
16.433945 960.67566 826.12622 4292201424
19.56422 961.27393 826.63062 4294176237
25.824772 960.67566 826.12622 4294967295
28.955048 960.67566 826.12622 4294967295
32.08532 960.67566 826.12622 4294243572
35.215599 961.27393 826.63062 4293517798
37.563301 961.87225 827.13501 4293582310
39.911011 961.87225 827.13501 4293648103
42.258717 961.87225 827.13501 4293516517
45.388992 961.87225 827.13501 4293450210
53.21468 961.87225 827.13501 4293779941
54.779816 961.87225 827.13501 4293977320
-18.737616 963.11938 825.57056 4293385184
-17.176147 963.11938 825.57056 4293253597
43.7211 963.11938 825.57056 4293581797
46.844036 963.11938 825.57056 4293253851
56.212845 963.11938 825.57056 4293845734
58.555046 963.71631 826.07385 4294239979
61.533028 965.55743 825.01025 4294437357
62.311928 966.74841 826.0144 4294635761
9.4348621 959.37799 830.26404 4292989655
-16.472477 961.82446 829.71094 4293450461
-13.334863 961.82446 829.71094 4293450206
-10.197248 961.82446 829.71094 4293121498
-7.0596333 961.82446 829.71094 4293385183
-3.9220183 961.82446 829.71094 4293253854
-1.5688074 961.82446 829.71094 4293254110
0.78440368 960.62506 828.69958 4293318620
3.9220183 960.62506 828.69958 4293253597
7.0596333 960.62506 828.69958 4292989405
10.981651 960.62506 828.69958 4292923862
13.334863 960.62506 828.69958 4292661206
16.472477 960.62506 828.69958 4292200907
19.610092 961.22473 829.20526 4292332234
22.747707 961.22473 829.20526 4294044915
25.885323 960.62506 828.69958 4294967295
29.022936 960.62506 828.69958 4294967295
32.160549 960.62506 828.69958 4294111986
34.51376 960.62506 828.69958 4293123296
40.004585 961.82446 829.71094 4293516514
43.142204 961.82446 829.71094 4293582051
46.279816 961.82446 829.71094 4293450721
49.155964 961.02484 829.03668 4293714147
52.293579 961.42462 829.37384 4293780453
54.908257 961.82446 829.71094 4293714659
-12.550459 963.0238 830.72217 4293318620
-10.197248 963.0238 830.72217 4293385183
-7.0596333 963.0238 830.72217 4293188317
-3.1376147 963.0238 830.72217 4293254110
53.339451 963.0238 830.72217 4293846502
55.910095 963.03876 829.86279 4293977831
58.477066 963.45264 829.33966 4294240748
61.822937 964.86365 829.65729 4294768376
-14.185321 960.54077 833.8606 4293384413
-10.221101 962.9845 833.30505 4293319648
-7.0761471 962.9845 833.30505 4293188061
-3.9311926 962.38342 832.79822 4293253853
-1.5724771 961.78235 832.29138 4293254110
0.78715599 960.56049 832.56915 4293056735
3.93578 960.56042 832.56921 4293056736
7.084404 960.56042 832.56921 4292990173
10.233027 960.56042 832.56921 4293122010
13.381652 960.56042 832.56915 4293055705
16.521101 960.87085 832.17688 4292792790
19.393885 961.38165 831.95343 4292068557
22.800919 961.78235 832.29138 4292530644
25.945873 961.18121 831.78455 4294901246
29.090824 961.18127 831.78455 4294967295
31.449541 961.18127 831.78455 4294967295
33.965508 961.54187 832.08868 4293123552
36.953209 961.18121 831.78455 4293451490
40.098167 961.78235 832.29138 4293450978
43.243118 961.78235 832.29138 4293714149
46.388073 961.78235 832.29138 4293714148
49.926147 961.78235 832.29138 4293780198
52.415905 962.5838 832.9671 4293977835
55.036697 962.9845 833.30505 4294175731
56.477066 964.22321 831.7334 4294176496
58.830276 964.22321 831.7334 4294373620
61.706421 965.02277 832.40765 4294966783
-18.979816 957.4693 835.19495 4293582047
-16.60734 958.67847 836.21448 4293450205
-12.609175 961.74573 834.87659 4293187804
-11.033028 962.95074 835.8927 4293319904
-4.7284403 961.74573 834.87659 4293253597
-1.5761468 961.74573 834.87659 4293385184
20.489908 961.74573 834.87659 4292661460
29.946789 961.74573 834.87659 4294967295
31.522936 961.74573 834.87659 4294110203
33.099083 961.74573 834.87659 4293057258
37.039452 961.74573 834.87659 4293583332
40.191742 961.74573 834.87659 4293648613
43.344036 961.74573 834.87659 4293846506
46.49633 961.74573 834.87659 4293649383
48.86055 961.74573 834.87659 4293780454
53.588989 962.95074 835.8927 4294109686
55.888073 964.17114 835.61365 4294702330
59.001831 964.47949 835.21954 4294636538
62.112846 965.38885 835.33228 4288910506
62.112846 966.591 836.34595 4285814114
-19.420185 958.9519 839.06104 4293384927
-16.910091 959.05292 839.14618 4293187807
-14.26789 959.25488 839.31653 4293319393
-1.5853211 959.8609 839.82751 4293648355
0.79082566 959.26831 838.01978 4293254110
4.2214065 959.87872 838.09845 4293122015
7.1256881 959.87427 838.53076 4293187805
10.292661 959.87427 838.53076 4293122011
13.459633 959.87427 838.53076 4293055963
16.626606 959.87427 838.53076 4292989661
19.001835 959.87427 838.53076 4292793046
22.96055 959.87427 838.53076 4292134606
26.127523 959.87427 838.53076 4292530901
28.502752 959.87427 838.53076 4294374143
49.144955 959.8609 839.82751 4294109419
-12.653211 961.09686 838.25354 4293319904
-9.4899082 961.09686 838.25354 4293188065
-7.1174312 961.09686 838.25354 4293319652
-3.9541283 961.09686 838.25354 4293319393
20.561468 961.09686 838.25354 4292858839
30.842201 961.09686 838.25354 4294637567
34.005505 961.09686 838.25354 4293123561
37.168808 961.09686 838.25354 4293649126
40.332108 961.09686 838.25354 4293714406
43.495415 961.09686 838.25354 4294044140
46.658714 961.09686 838.25354 4293912554
50.612843 961.09686 838.25354 4293978090
52.985321 961.70142 838.76331 4294175473
56.741283 965.36066 837.92468 4294967295
59.105507 965.36066 837.92468 4292463571
59.893578 966.56567 838.94067 4286002764
61.398167 967.78186 838.65814 4286793537
63.833946 966.56567 838.94067 4287123248
-19.862385 958.625 841.40149 4293319392
-15.889908 958.62494 841.40149 4293187552
-14.300918 959.83978 842.42578 4293319904
-1.5889908 959.83978 842.42578 4293319390
0.7944954 958.62494 841.40149 4293516767
3.7076454 959.43481 842.08429 4293187806
7.1504583 959.83978 842.42578 4293189089
9.5339451 959.83978 842.42578 4292990171
41.313763 959.83978 842.42578 4293977320
44.491745 959.83978 842.42578 4293714663
46.080734 959.83978 842.42578 4293977836
-12.682569 961.67889 841.36041 4293320164
-10.304587 961.07288 840.84949 4292991198
-7.133945 961.07288 840.84949 4293385187
-3.9633026 961.07288 840.84949 4293516514
11.097248 961.07288 840.84949 4293187806
13.475229 961.07288 840.84949 4293055964
16.645872 961.07288 840.84949 4292989406
19.816513 961.07288 840.84949 4292989655
22.987156 961.07288 840.84949 4292134605
26.157799 961.07288 840.84949 4291477702
28.53578 961.07288 840.84949 4292729583
30.913761 961.07288 840.84949 4294967295
34.084404 961.07288 840.84949 4294967295
37.255047 961.07288 840.84949 4293320936
39.633026 961.07288 840.84949 4293714409
42.803669 961.07288 840.84949 4294108906
47.559631 961.07288 840.84949 4293978090
49.937614 961.07288 840.84949 4294109419
53.108257 961.67889 841.36041 4294570741
55.42202 963.50604 841.59302 4293518828
57.796329 964.11066 842.10278 4286741655
-16.722935 959.21545 844.51538 4293253855
-14.333945 959.82428 845.02881 4293516767
0.79633027 958.60669 844.00208 4293253597
3.9816513 959.82428 845.02881 4293188317
7.1669722 959.82428 845.02881 4293254115
46.187157 959.82428 845.02881 4293978090
-12.711926 962.26935 844.47437 4293253345
-10.328441 961.05457 843.45007 4293188319
-7.1504583 961.05457 843.45007 4293385441
-3.972477 961.05457 843.45007 4293319391
-1.5889908 961.05457 843.45007 4293319390
10.328441 961.05457 843.45007 4293187552
13.506422 961.05457 843.45007 4293187293
16.684402 961.05457 843.45007 4293055453
20.127218 961.45947 843.7915 4292858069
23.040367 961.05457 843.45007 4292134346
25.423853 961.05457 843.45007 4291148998
28.072172 961.45947 843.7915 4292071128
30.985321 961.05457 843.45007 4294967295
34.163303 961.05457 843.45007 4294967039
37.341286 961.05457 843.45007 4293451755
40.519264 961.05457 843.45007 4294043628
43.69725 961.05457 843.45007 4294109419
47.669724 961.05457 843.45007 4294109421
50.318043 961.45947 843.7915 4294636278
52.436699 961.66199 843.96222 4294966524
54.025688 962.26935 844.47437 4294964991
54.820183 963.48413 845.49854 4290621107
58.172474 964.70459 844.78363 4285548109
60.770641 965.51685 844.5965 4286794027
-16.761467 959.81439 847.63647 4293384929
-14.366973 959.81439 847.63647 4293319390
0.79816514 959.20416 847.12195 4293253597
3.9908257 959.81439 847.63647 4293188317
6.3853211 959.81439 847.63647 4293385188
34.321098 959.81439 847.63647 4294242809
41.504585 959.81439 847.63647 4294174699
-13.554129 961.64716 847.87372 4293385442
-10.352293 961.6507 846.56873 4293516770
-7.1715593 961.34454 846.9646 4293385185
-3.9816513 961.6507 846.56873 4292924380
-1.5926605 961.6507 846.56873 4293253345
1.5963303 961.03479 848.66541 4293187804
3.9908257 961.03479 848.66541 4293253597
7.4434247 961.03711 847.79541 4293319648
10.36422 961.03833 847.36041 4293121501
13.553211 961.03833 847.36041 4293055448
16.742201 961.03833 847.36047 4292792791
19.642813 961.8537 846.73981 4292595412
23.120184 961.03833 847.36047 4292265932
25.511927 961.03833 847.36041 4291477442
27.648932 961.03711 847.79541 4291872971
31.056881 961.04187 846.05542 4294967295
34.321098 961.03479 848.66541 4293649900
37.470642 961.03833 847.36041 4293649131
40.409786 961.03711 847.79541 4294174960
43.848621 961.03833 847.36041 4294372592
47.010094 961.34448 846.96454 4294504435
49.903366 961.8537 846.73981 4294900221
52.557796 962.25952 847.08203 4294898687
50.965137 963.47711 848.10876 4290884295
52.557796 963.47711 848.10876 4285818234
54.946789 963.47711 848.10876 4286130768
57.998165 965.3064 847.03497 4286793524
-16 959.81006 850.2489 4293187552
0 959.81006 850.2489 4293187804
31.200001 959.81006 850.2489 4294967295
-16 961.03326 851.28027 4292925150
-13.568808 962.25519 849.69446 4293254369
-10.376146 962.25519 849.69446 4293254368
-7.183486 962.25519 849.69446 4293319394
-3.9908257 962.25519 849.69446 4293253087
-1.5963303 962.25519 849.69446 4293384415
0.80000001 961.03326 851.28027 4293187806
3.9944954 961.64423 850.48737 4293253597
7.183486 962.25519 849.69446 4292991456
10.376146 962.25519 849.69446 4292859870
13.583487 961.64423 850.48737 4292859355
16.781651 961.64423 850.48737 4292596183
20 961.03326 851.28027 4292463827
22.4 961.03326 851.28027 4292529104
24.799999 961.03326 851.28027 4292133831
28 961.03326 851.28027 4292792533
31.200001 961.03326 851.28027 4294967295
34.400002 961.03326 851.28027 4294110194
37.599998 961.03326 851.28027 4294043114
40.799999 961.03326 851.28027 4294306543
44 961.03326 851.28027 4294899707
47.144955 961.64423 850.48737 4294967039
49.48624 962.25519 849.69446 4293254633
-12.770642 963.47559 850.72351 4293386210
-3.1926606 963.47559 850.72351 4293253599
51.880733 963.47559 850.72351 4285681004
55.296635 964.28876 850.53711 4286200358
57.866669 965.50641 849.81982 4287320633
60.521099 965.91229 850.16199 4287780415
58.132111 967.12988 851.1886 4287386943
-14.4 962.25647 852.31165 4293056738
-10.4 962.25647 852.31165 4293188577
-7.1999998 962.25647 852.31165 4293319396
-4.8000002 962.25647 852.31165 4293253347
-1.6 962.25647 852.31165 4293253599
0.80275232 960.42786 854.69385 4293187552
4.0055046 961.34216 853.50275 4293187806
7.1999998 962.25647 852.31165 4292990943
10.416513 961.34216 853.50275 4292990941
13.64679 960.42786 854.69385 4293056216
16.8578 960.42786 854.69385 4292661204
20.068806 960.42786 854.69385 4292463829
22.477064 960.42786 854.69385 4292397518
24.885323 960.42786 854.69385 4292068298
28.096329 960.42786 854.69385 4293187039
31.307339 960.42786 854.69385 4294967295
34.518349 960.42786 854.69385 4294109940
37.729355 960.42786 854.69385 4294307056
40.940369 960.42786 854.69385 4294701813
44.151375 960.42786 854.69385 4294967039
46.400002 962.25647 852.31165 4294967295
48.799999 962.25647 852.31165 4292135634
60.799999 962.25647 852.31165 4287583554
-13.6 963.47968 853.34302 4293319394
-10.4 963.47968 853.34302 4293056478
-7.1999998 963.47968 853.34302 4293122272
-3.2 963.47968 853.34302 4293253599
48.799999 963.47968 853.34302 4284760417
52 964.09131 853.8587 4286857009
54.890522 964.69965 853.49969 4287255097
58.92844 968.34753 852.21533 4287386943
-12.844037 962.88269 856.76379 4293385184
-10.43578 962.88269 856.76379 4293253343
-7.2247705 962.88269 856.76379 4293187552
-4.2813454 962.47357 856.41876 4293187550
-1.6055046 962.26898 856.24634 4293319134
0.80275232 961.04712 856.52411 4293055966
4.2813454 962.06445 856.07391 4293187552
7.2247705 961.65527 855.72888 4293121759
10.43578 961.65527 855.72888 4292990943
13.677982 960.43903 857.31934 4292661206
16.896332 960.43903 857.31934 4292727253
20.114677 960.43903 857.31934 4292398036
22.52844 960.43903 857.31934 4292266189
24.942204 960.43903 857.31934 4292266187
28.096329 961.65527 855.72888 4293253084
31.307339 961.65527 855.72888 4294966271
34.518349 962.26898 856.24634 4294570235
37.461773 962.06445 856.07391 4294767865
40.940369 961.65527 855.72888 4294967039
44.151375 961.65527 855.72888 4293584114
46.559631 961.65527 855.72888 4288386728
48.967888 962.88269 856.76379 4284295435
-12.844037 964.11011 857.79871 4293187552
-10.43578 964.11011 857.79871 4293121758
-7.2247705 964.11011 857.79871 4293055964
48.967888 964.11011 857.79871 4287123762
52.090828 965.01813 856.60223 4287321149
55.200001 965.92615 855.40576 4287189823
57.599998 965.92615 855.40576 4287321150
51.733334 967.55713 856.78107 4287255613
54.933334 967.55713 856.78107 4287255352
-4.0266056 962.29413 860.19159 4293121757
-1.612844 961.68878 860.98926 4293055964
0.80550456 961.67902 859.67291 4293055198
3.7571867 962.08588 859.5799 4293121759
6.9779816 961.67578 859.23413 4292924126
10.736392 961.67578 859.23413 4293055966
13.709174 960.45575 859.94958 4292660697
16.934864 960.45575 859.94958 4292727253
20.160549 960.45575 859.94958 4292397777
22.579817 960.45575 859.94958 4292266189
24.984404 961.37561 860.07117 4292529872
28.192661 961.67902 859.67285 4293912298
31.414679 961.67902 859.67285 4294834173
34.597248 962.89948 859.39392 4294966527
38.113148 962.08588 859.5799 4294702587
41.080734 961.67902 859.67291 4292004308
43.497246 961.67902 859.67291 4287792789
45.861465 962.28436 858.87524 4286468976
-10.43578 965.33752 858.83362 4293121758
-7.2339449 964.73364 859.63245 4293056219
-4.8275228 964.1297 860.43127 4293056218
45.861465 964.1297 860.43127 4286203180
48.967888 965.33752 858.83362 4286992198
48.967892 967.17871 860.38599 4286991927
52.981651 966.56494 859.86853 4287255356
-3.225688 962.92181 862.02893 4293121757
-1.612844 962.92181 862.02893 4293055964
0 961.71393 863.62646 4293055199
3.2330275 961.71393 863.62646 4293253597
8.0825691 960.47809 862.58447 4292989919
9.6990824 960.47809 862.58447 4293121757
13.740367 960.47809 862.58447 4292792535
16.973394 960.47809 862.58447 4292726483
19.398165 961.09601 863.10547 4292595159
21.822937 961.09601 863.10547 4292331728
25.055964 961.71393 863.62646 4292923865
28.28899 961.71393 863.62646 4294767098
31.485321 962.31787 862.8277 4294966782
34.676147 962.92181 862.02893 4294966783
37.901833 962.92181 862.02893 4292594652
41.127525 962.92181 862.02893 4285353053
43.546787 962.92181 862.02893 4283903545
-7.2412844 965.35992 861.46851 4293056733
-4.0266056 964.75739 862.26849 4293187805
43.546787 964.15485 863.06848 4287386159
45.912842 964.75739 862.26849 4287320895
-7.2412844 966.59015 862.50586 4293056733
-4.8275228 966.59015 862.50586 4293188317
46.666054 967.20526 863.02448 4287189560
1.6220183 959.90216 866.02283 4293384163
4.866055 959.90216 866.02283 4293385184
7.2990828 959.90216 866.02283 4292989408
10.543119 959.90216 866.02283 4293055964
13.787156 959.90216 866.02283 4292727255
17.031193 959.90216 866.02283 4292858069
-1.6165137 962.94977 864.66846 4293055964
0 962.94977 864.66846 4292990173
22.631193 962.94977 864.66846 4292330949
25.055964 962.94977 864.66846 4293910499
28.28899 962.94977 864.66846 4294965247
31.522018 962.94977 864.66846 4294967295
34.755043 962.94977 864.66846 4291017678
37.988075 962.94977 864.66846 4285350240
40.412846 962.94977 864.66846 4286788180
42.029358 962.94977 864.66846 4286662179
-3.2330275 964.80353 866.23157 4292793308
-1.6165137 964.80353 866.23157 4292924638
25.325384 964.5976 866.05792 4294505205
28.019571 964.5976 866.05792 4294505979
31.522018 964.18561 865.71057 4294043633
34.755043 964.18561 865.71057 4287789442
37.988075 964.80353 866.23157 4286006066
40.412846 964.80353 866.23157 4287254581
42.812843 965.10413 865.83099 4287452983
45.159634 965.38788 864.10815 4287321150
45.159634 966.62091 865.14783 4287123764
-8.0458717 969.05066 864.58044 4293056736
8.1284399 959.93713 868.66846 4292989407
9.7541285 959.93713 868.66846 4292857819
13.005505 959.93713 868.66846 4292726488
1.0825688 961.56818 868.29962 4292990173
3.2477064 961.16113 868.39246 4292858077
6.5027523 961.17999 869.71643 4292857567
11.366972 961.16113 868.39246 4292792027
14.614679 961.16113 868.39246 4292660695
17.040367 961.46167 867.99182 4292661203
19.46422 961.76221 867.59125 4292463816
21.626913 961.96893 867.76544 4292332232
0 963.62231 869.15967 4293121761
17.842201 963.62231 869.15967 4292594900
19.46422 963.62231 869.15967 4292530894
21.897247 963.62231 869.15967 4293057243
24.330275 963.62231 869.15967 4294966783
29.196331 963.62231 869.15967 4291084504
31.629358 963.62231 869.15967 4285615469
34.873394 963.62231 869.15967 4286200645
42.029358 966.65729 867.79456 4287518772
4.8880734 959.35498 870.79358 4292792284
7.3321099 959.35498 870.79358 4293055201
9.7761469 959.97778 871.31873 4292857821
13.034863 959.97778 871.31873 4292660695
8.1284399 962.42285 870.7644 4292725718
10.577982 961.82312 871.56671 4292660441
13.833027 961.82312 871.56671 4292726742
16.25688 962.42285 870.7644 4292594900
17.882568 963.66565 871.81226 4292529106
19.508257 963.66565 871.81226 4293384152
