# .PCD v0.7 - Point Cloud Data file format
VERSION 0.7
FIELDS x y z rgb
SIZE 4 4 4 4
TYPE F F F U
COUNT 1 1 1 1
WIDTH 1157
HEIGHT 1
VIEWPOINT 0 0 0 1 0 0 0
POINTS 1157
DATA ascii
-19.478899 783.57184 1296.803 4292735231
-17.044037 783.57184 1296.803 4293195775
-14.609175 783.57184 1296.803 4293064959
0 783.57184 1296.803 4294967295
4.8697248 783.57184 1296.803 4293130495
7.3045874 784.50256 1297.5878 4292867327
9.7394495 784.50256 1297.5878 4293195007
13.797554 784.19232 1297.3262 4293326335
17.044037 784.50256 1297.5878 4293589247
19.478899 784.50256 1297.5878 4293391871
21.913761 784.50256 1297.5878 4293326335
25.160242 784.19232 1297.3262 4293391615
-49.688988 793.26868 1297.131 4291616255
-46.053211 793.26868 1297.131 4292076799
-43.629356 794.19525 1297.9122 4292012287
-41.205505 794.19525 1297.9122 4292143871
-37.569725 793.26868 1297.131 4292077567
-33.933945 793.26868 1297.131 4292274943
-31.510092 793.26868 1297.131 4292340991
-29.086239 793.26868 1297.131 4292208895
-25.046484 792.95978 1296.8706 4292472319
-21.814678 792.34216 1296.3497 4292932351
-19.390825 792.34216 1296.3497 4292932607
-16.966972 792.34216 1296.3497 4293129983
7.2715597 792.34216 1296.3497 4292539391
9.6954126 792.34216 1296.3497 4292669439
14.543119 793.26868 1297.131 4292998143
16.966972 792.34216 1296.3497 4293392639
19.390825 792.34216 1296.3497 4293195263
21.814678 792.34216 1296.3497 4293261055
24.238533 792.34216 1296.3497 4292932607
-49.500916 800.53528 1296.7178 4291814143
-45.878899 800.53528 1296.7178 4291682303
-43.464222 800.53528 1296.7178 4291287807
-41.049541 800.53528 1296.7178 4291814143
-37.427521 800.53528 1296.7178 4291748095
1.2073394 800.53528 1296.7178 4294967295
4.8293576 800.53528 1296.7178 4292671487
7.2440367 800.53528 1296.7178 4292276735
9.6587152 800.53528 1296.7178 4292603903
13.280734 800.53528 1296.7178 4292735487
16.902752 800.53528 1296.7178 4292735231
19.31743 800.53528 1296.7178 4292931839
21.732111 800.53528 1296.7178 4292931839
25.35413 800.53528 1296.7178 4292932095
28.976147 800.53528 1296.7178 4293128959
-53.122936 802.38135 1298.2743 4291682303
-50.708256 802.38135 1298.2743 4291748095
1.2073394 802.38135 1298.2743 4294967295
7.2440367 802.38135 1298.2743 4292407807
14.488073 802.38135 1298.2743 4292866303
16.902752 802.38135 1298.2743 4292866303
19.31743 802.38135 1298.2743 4292932095
21.732111 802.38135 1298.2743 4292932095
25.35413 802.38135 1298.2743 4293062911
28.976147 802.38135 1298.2743 4292866303
-57.732109 808.68622 1297.0503 4291353599
-55.326607 808.68622 1297.0503 4291419391
-52.921101 808.68622 1297.0503 4291419647
-50.515594 808.68622 1297.0503 4291880191
1.2027524 808.68622 1297.0503 4294967295
4.8110094 808.68622 1297.0503 4293065983
7.2165136 808.68622 1297.0503 4292276219
9.6220188 808.68622 1297.0503 4292340991
13.230275 808.68622 1297.0503 4292406527
16.838531 808.68622 1297.0503 4292537599
19.244038 808.68622 1297.0503 4292406015
21.649542 808.68622 1297.0503 4292603391
25.257797 808.68622 1297.0503 4292801023
28.866055 808.68622 1297.0503 4292669439
-57.732109 810.52527 1298.601 4291353599
-55.326607 810.52527 1298.601 4291353599
-52.921101 810.52527 1298.601 4291418879
-50.515594 810.52527 1298.601 4291945471
1.2027524 810.52527 1298.601 4294967295
4.8110094 810.52527 1298.601 4293262591
7.2165136 810.52527 1298.601 4292209913
9.6220188 810.52527 1298.601 4292406783
13.230275 810.52527 1298.601 4292209407
16.838531 810.52527 1298.601 4292275455
19.244038 810.52527 1298.601 4292274943
21.649542 810.52527 1298.601 4292406527
25.257797 810.52527 1298.601 4292669439
28.866055 810.52527 1298.601 4292669439
31.271559 810.52527 1298.601 4292603391
-57.511925 817.71118 1298.1198 4291156223
-55.115597 817.71118 1298.1198 4291155967
-52.719265 817.71118 1298.1198 4291221247
-50.322937 817.71118 1298.1198 4291484415
-46.728439 817.71112 1298.1198 4291484927
-43.133945 817.71118 1298.1198 4291814143
-34.746788 816.79517 1297.3474 4291616511
-23.963303 816.79517 1297.3474 4291683583
-19.170643 816.79517 1297.3474 4291880447
-16.774311 816.79517 1297.3474 4292340991
1.1981652 817.71118 1298.1198 4294967295
7.1889906 816.79517 1297.3474 4292274674
10.783486 816.79517 1297.3474 4292274943
14.377981 816.79517 1297.3474 4292208895
16.774311 816.79517 1297.3474 4292143103
19.170643 816.79517 1297.3474 4292142591
22.765137 816.79517 1297.3474 4292339455
26.359632 817.71118 1298.1198 4292339455
28.755962 817.71118 1298.1198 4291814143
31.152294 818.62714 1298.8921 4292340479
-58.485321 824.862 1297.609 4290828287
-54.904587 823.94946 1296.8396 4291156991
-52.517429 823.94946 1296.8396 4291287807
-50.130276 823.94946 1296.8396 4291353599
-46.549538 823.94952 1296.8396 4291287807
-42.968807 823.94946 1296.8396 4291287807
-40.58165 823.94946 1296.8396 4291287551
-38.194496 823.94946 1296.8396 4291091455
-34.613762 823.94946 1296.8396 4291617023
-31.033028 823.94946 1296.8396 4291748095
-28.645872 823.94946 1296.8396 4291287807
-23.075842 823.64532 1296.5831 4291682815
-19.097248 823.03699 1296.0702 4291945727
-16.710093 823.03699 1296.0702 4292208895
-14.322936 823.03699 1296.0702 4292537599
-10.742202 823.03699 1296.0702 4292867327
-7.161468 823.03699 1296.0702 4293328639
-2.387156 823.03699 1296.0702 4294967295
1.193578 824.862 1297.609 4294967295
4.774312 823.94946 1296.8396 4293918719
7.161468 823.94946 1296.8396 4292208881
10.742202 823.94946 1296.8396 4292143359
14.322936 823.94946 1296.8396 4292274943
16.710093 823.94946 1296.8396 4292077567
19.097248 823.94946 1296.8396 4292208639
22.677982 823.94952 1296.8396 4292011263
26.258715 823.94946 1296.8396 4292208895
-57.115597 830.55737 1297.1791 4290828287
-54.735779 830.55737 1297.1791 4291025919
-52.355965 830.55737 1297.1791 4291287551
-49.976147 830.55737 1297.1791 4291156223
-47.596329 830.55737 1297.1791 4291156223
-42.836697 830.55737 1297.1791 4291682047
-40.456882 830.55737 1297.1791 4291682047
-38.077065 830.55737 1297.1791 4291287551
-35.697247 830.55737 1297.1791 4291353343
-30.937614 830.55737 1297.1791 4291747839
-28.557798 830.55737 1297.1791 4291090943
-2.3798165 830.55737 1297.1791 4294901759
4.7596331 830.55737 1297.1791 4293853183
7.1394496 830.55737 1297.1791 4291945710
10.709174 830.55737 1297.1791 4292078079
14.278899 830.55737 1297.1791 4292405759
16.658716 830.55737 1297.1791 4292339967
19.038532 830.55737 1297.1791 4292208383
22.608257 830.55737 1297.1791 4292406271
-59.495415 832.37677 1298.7131 4290827263
-54.735779 832.37677 1298.7131 4291090431
-49.976147 832.37677 1298.7131 4291419135
-46.406422 832.37677 1298.7131 4291287807
-42.836697 832.37677 1298.7131 4291353599
-40.456882 832.37677 1298.7131 4291353599
-38.077065 832.37677 1298.7131 4291024383
-34.507339 832.37677 1298.7131 4291419135
-30.937614 832.37677 1298.7131 4291682047
-2.3798165 832.37677 1298.7131 4294836223
4.7596331 832.37677 1298.7131 4293918719
7.1394496 832.37677 1298.7131 4292011503
10.709174 832.37677 1298.7131 4292012287
14.278899 832.37677 1298.7131 4292274943
16.658716 832.37677 1298.7131 4292209151
19.038532 832.37677 1298.7131 4291879935
22.608257 832.37677 1298.7131 4292143103
26.177982 832.37677 1298.7131 4292274943
28.557798 832.37677 1298.7131 4291683071
30.937614 832.37677 1298.7131 4291880447
33.317432 832.37677 1298.7131 4292076799
-55.710091 838.55127 1297.3792 4290958591
-52.154129 838.55127 1297.3792 4291023871
-49.783485 838.55127 1297.3792 4290958079
-47.412846 838.55127 1297.3792 4290958079
-42.671558 838.55127 1297.3792 4291024383
-40.300919 838.55127 1297.3792 4291353343
-37.930275 838.55127 1297.3792 4291288575
-34.374313 838.55127 1297.3792 4290894335
-30.818348 838.55127 1297.3792 4291355135
-28.447706 838.55127 1297.3792 4291551743
-26.077065 838.55127 1297.3792 4291485951
-22.521101 838.55127 1297.3792 4291353599
-11.853211 838.55127 1297.3792 4292406271
-7.1119266 838.55127 1297.3792 4292539391
-4.7412844 838.55127 1297.3792 4293000447
-2.3706422 838.55127 1297.3792 4294901759
21.335779 838.55127 1297.3792 4291813887
33.188992 838.55127 1297.3792 4291879935
-67.563309 840.36365 1298.9072 4290629375
-64.007339 840.36365 1298.9072 4290695167
-61.636696 840.36365 1298.9072 4290695423
-59.266056 840.36365 1298.9072 4291353087
-55.710091 840.36365 1298.9072 4290892543
-52.154129 840.36365 1298.9072 4290892799
-49.783485 840.36365 1298.9072 4290827007
-46.227524 840.36365 1298.9072 4291287551
-42.671558 840.36365 1298.9072 4290958591
-40.300919 840.36365 1298.9072 4291287295
-37.930275 840.36365 1298.9072 4291484927
-34.374313 840.36365 1298.9072 4291287807
-30.818348 840.36365 1298.9072 4291617279
-28.447706 840.36365 1298.9072 4291683071
-26.077065 840.36365 1298.9072 4291683071
-22.521101 840.36365 1298.9072 4291813887
-2.3706422 840.36365 1298.9072 4294836223
16.594496 840.36365 1298.9072 4292077823
18.965137 840.36365 1298.9072 4292142591
22.521101 840.36365 1298.9072 4292011263
28.447706 840.36365 1298.9072 4292274943
30.818348 840.36365 1298.9072 4292340735
-70.84404 844.69769 1296.0215 4289972735
-67.301834 844.69769 1296.0215 4290498815
-63.759632 844.69769 1296.0215 4290564607
-55.494495 844.69769 1296.0215 4290433791
-51.952293 844.69769 1296.0215 4291024383
-40.144955 844.69769 1296.0215 4291025919
-37.783485 844.69769 1296.0215 4291681535
-35.42202 844.69769 1296.0215 4291483903
-30.699083 844.69769 1296.0215 4291550975
-25.976147 844.69769 1296.0215 4291485951
-22.433945 844.69769 1296.0215 4291682047
-18.891743 844.69769 1296.0215 4291682047
-16.530275 844.69769 1296.0215 4291945471
-14.168807 844.69769 1296.0215 4291945727
-10.626606 844.69769 1296.0215 4292012543
-7.0844035 844.69769 1296.0215 4292342527
-4.7229357 844.69769 1296.0215 4292737791
-2.3614678 844.69769 1296.0215 4294705151
-70.84404 846.50305 1297.5438 4290300671
-67.301834 846.50305 1297.5438 4290892799
-61.398167 846.50305 1297.5438 4290826751
-55.494495 846.50305 1297.5438 4290827519
-51.952293 846.50305 1297.5438 4291024895
-43.687157 846.50305 1297.5438 4291287807
-40.144955 846.50305 1297.5438 4291616767
-37.783485 846.50305 1297.5438 4291615487
-34.241287 846.50305 1297.5438 4291287039
-30.699083 846.50305 1297.5438 4291616767
-28.337614 846.50305 1297.5438 4291551231
-25.976147 846.50305 1297.5438 4291419647
-22.433945 846.50305 1297.5438 4291550719
-18.891743 846.50305 1297.5438 4291748095
-16.530275 846.50305 1297.5438 4291879679
-14.168807 846.50305 1297.5438 4291945727
-10.626606 846.50305 1297.5438 4292143615
-7.0844035 846.50305 1297.5438 4292735999
-4.7229357 846.50305 1297.5438 4292737279
-2.3614678 846.50305 1297.5438 4294639615
16.530275 846.50305 1297.5438 4292077055
18.891743 846.50305 1297.5438 4292208383
21.25321 846.50305 1297.5438 4292537343
-54.102753 854.41278 1297.6729 4290500351
-49.398167 853.51361 1296.9147 4290367999
-43.909481 853.81329 1297.1674 4290762495
-39.988991 853.51361 1296.9147 4290893055
-37.636696 853.51361 1296.9147 4290892799
-35.284405 853.51361 1296.9147 4291155967
-32.14801 853.81329 1297.1674 4291287551
-28.227524 854.41278 1297.6729 4291024895
-25.875229 854.41278 1297.6729 4291288319
-22.34679 854.41278 1297.6729 4291419391
-18.818348 854.41278 1297.6729 4291090943
-16.466055 854.41278 1297.6729 4291485695
-14.113762 854.41278 1297.6729 4291617279
-10.585321 853.51361 1296.9147 4291880447
-7.056881 854.41278 1297.6729 4292209919
-4.704587 854.41278 1297.6729 4292145151
14.113762 854.41278 1297.6729 4291484927
16.466055 854.41278 1297.6729 4291813887
18.818348 853.51361 1296.9147 4291813887
22.34679 853.51361 1296.9147 4291748095
25.875229 854.41278 1297.6729 4291747583
28.227524 853.51361 1296.9147 4291485183
30.579817 854.41278 1297.6729 4291617023
-37.48991 860.48901 1296.2561 4290697215
14.058716 860.48901 1296.2561 4291616255
16.401834 860.48901 1296.2561 4291813887
18.744955 860.48901 1296.2561 4292077055
22.259632 860.48901 1296.2561 4291551487
25.774311 860.48901 1296.2561 4291354367
28.117432 860.48901 1296.2561 4291419647
30.46055 860.48901 1296.2561 4291617023
-49.205505 862.2804 1297.7666 4290302719
-46.862385 862.2804 1297.7666 4290499327
-43.347706 862.2804 1297.7666 4290828287
-39.833027 862.2804 1297.7666 4291354623
-28.117432 862.2804 1297.7666 4291287807
-25.774311 862.2804 1297.7666 4291287807
-22.259632 862.2804 1297.7666 4291287807
-10.544037 862.2804 1297.7666 4291618047
-7.0293579 862.2804 1297.7666 4292144383
-4.6862388 862.2804 1297.7666 4292276991
-2.3431194 862.2804 1297.7666 4294508543
10.544037 862.2804 1297.7666 4291288575
14.058716 862.2804 1297.7666 4291485439
16.401834 862.2804 1297.7666 4291485439
18.744955 862.2804 1297.7666 4292076543
22.259632 862.2804 1297.7666 4291879167
25.774311 862.2804 1297.7666 4291616255
28.117432 862.2804 1297.7666 4291682303
30.46055 862.2804 1297.7666 4291682303
-43.211929 868.72284 1297.9664 4290826751
-39.708256 868.72278 1297.9664 4291024127
-37.372478 868.72278 1297.9664 4291024639
-35.036697 868.72278 1297.9664 4291024639
-31.533026 868.72284 1297.9664 4291090431
-28.029358 868.72278 1297.9664 4290959103
-25.693579 868.72278 1297.9664 4291222015
-22.189907 868.72278 1297.9664 4291155967
-18.686239 868.72278 1297.9664 4291222015
-16.350458 868.72278 1297.9664 4291485183
-14.014679 868.72278 1297.9664 4291288831
-10.511009 868.72278 1297.9664 4291618047
-7.0073395 868.72278 1297.9664 4291947263
-4.6715598 868.72278 1297.9664 4292211711
-2.3357799 868.72278 1297.9664 4294246399
7.0073395 869.61566 1298.7192 4291485161
10.511009 869.61566 1298.7192 4291484671
14.014679 869.61566 1298.7192 4291090431
16.350458 868.72278 1297.9664 4291419391
18.686239 869.61566 1298.7192 4291616255
22.189907 869.61566 1298.7192 4291419135
25.693579 868.72278 1297.9664 4291616511
28.029358 868.72278 1297.9664 4291551231
30.365137 868.72278 1297.9664 4291419647
-34.899082 875.62457 1297.2457 4290695679
-31.409174 875.62457 1297.2457 4290959103
-27.919266 875.62457 1297.2457 4290828031
-23.266054 875.62457 1297.2457 4290565375
-19.776146 875.62457 1297.2457 4290763007
-16.286238 875.62457 1297.2457 4290894335
-13.959633 875.62457 1297.2457 4291090431
-10.469725 875.62457 1297.2457 4291551231
-6.9798164 875.62457 1297.2457 4291749375
-4.6532111 875.62457 1297.2457 4291422463
-2.3266056 875.62457 1297.2457 4293591039
6.9798164 875.62457 1297.2457 4291615461
10.469725 875.62457 1297.2457 4291025407
13.959633 875.62457 1297.2457 4291156735
16.286238 875.62457 1297.2457 4291288575
19.776146 875.62457 1297.2457 4291353087
-51.185322 877.40332 1298.7455 4290366975
-44.205505 877.40332 1298.7455 4290565375
-40.715595 877.40332 1298.7455 4290894079
-37.225689 877.40332 1298.7455 4291287807
-34.899082 877.40332 1298.7455 4291287807
-31.409174 877.40332 1298.7455 4291156479
-27.919266 877.40332 1298.7455 4290828287
-25.592661 877.40332 1298.7455 4290828287
-23.266054 877.40332 1298.7455 4290763263
-19.776146 877.40332 1298.7455 4290960127
-16.286238 877.40332 1298.7455 4291091711
-13.959633 877.40332 1298.7455 4291156735
-10.469725 877.40332 1298.7455 4291552255
-6.9798164 877.40332 1298.7455 4291947519
-4.6532111 877.40332 1298.7455 4291882495
-2.3266056 877.40332 1298.7455 4293459967
4.6532111 877.40332 1298.7455 4294246399
6.9798164 877.40332 1298.7455 4291681255
9.3064222 877.40332 1298.7455 4290631167
19.776146 877.40332 1298.7455 4291353087
23.266054 877.40332 1298.7455 4291353087
-27.809174 883.3772 1297.2424 4290697215
-25.491743 883.3772 1297.2424 4290960383
-23.174313 883.3772 1297.2424 4291025919
-19.698166 883.3772 1297.2424 4290894079
-16.222019 883.3772 1297.2424 4290828031
-13.904587 883.3772 1297.2424 4290894591
-10.42844 883.3772 1297.2424 4291355135
11.587156 883.3772 1297.2424 4291288575
13.904587 883.3772 1297.2424 4291419391
16.222019 883.3772 1297.2424 4291090687
19.698166 883.3772 1297.2424 4291287295
-39.396332 885.14893 1298.7362 4290565119
-30.126606 885.14893 1298.7362 4290565631
-27.809174 885.14893 1298.7362 4290302719
-25.491743 885.14893 1298.7362 4290500351
-23.174313 885.14893 1298.7362 4290236927
-19.698166 885.14893 1298.7362 4290368511
-16.222019 885.14893 1298.7362 4290697471
-13.904587 885.14893 1298.7362 4290960383
-10.42844 885.14893 1298.7362 4291224063
-6.9522934 885.14893 1298.7362 4291290367
-2.3174312 885.14893 1298.7362 4292738303
4.6348624 885.14893 1298.7362 4293721855
11.587156 885.14893 1298.7362 4291419391
13.904587 885.14893 1298.7362 4291616255
16.222019 885.14893 1298.7362 4291419135
19.698166 885.14893 1298.7362 4291287807
-13.860551 890.60864 1298.1077 4290828031
-11.550459 889.72559 1297.363 4291091711
13.860551 889.72559 1297.363 4291354111
16.170643 889.72559 1297.363 4291419903
-9.2036695 896.52222 1296.5536 4290960383
-6.9027524 896.52222 1296.5536 4290894591
-2.3009174 896.52222 1296.5536 4292473855
-48.319267 898.28125 1298.0369 4290300415
-39.115597 898.28125 1298.0369 4290433535
-23.009174 898.28125 1298.0369 4290433023
-19.557798 898.28125 1298.0369 4290564351
-16.106422 898.28125 1298.0369 4290695679
-13.805505 898.28125 1298.0369 4290630655
-10.354128 898.28125 1298.0369 4290762751
-6.9027524 898.28125 1298.0369 4290763263
-4.6018348 898.28125 1298.0369 4290567167
-2.3009174 898.28125 1298.0369 4292014591
-25.209175 905.91187 1297.9307 4290433535
-22.917431 905.91187 1297.9307 4290498815
-19.479816 905.03583 1297.192 4290433279
-16.042202 905.03583 1297.192 4290630399
-13.750459 905.03583 1297.192 4290499071
-10.694801 904.74384 1296.9458 4290433279
-6.8752294 905.03583 1297.192 4290696191
-4.5834861 905.03583 1297.192 4290434815
-2.291743 905.03583 1297.192 4291882239
-15.990826 911.28748 1297.231 4290301183
-13.706422 911.28748 1297.231 4289841663
-10.279816 911.28748 1297.231 4290302463
-6.8532109 911.28748 1297.231 4290368511
-2.2844036 911.28748 1297.231 4291225343
-18.275229 913.03394 1298.7036 4290366975
-15.990826 913.03394 1298.7036 4290235391
-13.706422 913.03394 1298.7036 4290170367
-6.8532109 913.03394 1298.7036 4290631167
-4.5688071 913.03394 1298.7036 4290040831
-2.2844036 913.03394 1298.7036 4290830591
-64.84404 920.58447 1298.5299 4289446399
-61.431194 920.58447 1298.5299 4289511423
-18.201836 920.58447 1298.5299 4289446655
-15.926605 919.71472 1297.7966 4290038527
-13.651376 919.71472 1297.7966 4290037503
-10.238532 919.71472 1297.7966 4290235135
-6.8256879 918.84503 1297.0632 4290695423
25.027523 920.58447 1298.5299 4285427104
-68.036697 925.90118 1297.7806 4289841407
-64.634857 925.90118 1297.7806 4289709567
37.420181 925.90118 1297.7806 4285096578
-61.78899 755.86212 1299.5995 4292669183
-42.016514 755.86212 1299.5995 4293195263
-39.544952 755.86212 1299.5995 4293261055
-37.073395 755.86212 1299.5995 4293392895
22.244038 755.86212 1299.5995 4294967295
-64.260551 757.75165 1301.1926 4291617791
-64.022018 764.24878 1300.1307 4291617279
-61.559631 764.24878 1300.1307 4292077823
-41.86055 764.24878 1300.1307 4292537599
-66.484406 766.13135 1301.718 4292208895
-66.236694 770.71783 1299.0452 4291748095
-63.783485 770.71783 1299.0452 4291419391
-61.330276 770.71783 1299.0452 4291945983
-58.877064 770.71783 1299.0452 4291683583
22.078899 770.71783 1299.0452 4294967295
-63.544952 779.02734 1299.5114 4291814399
-61.100918 779.02734 1299.5114 4292340735
-58.656879 779.02734 1299.5114 4292208895
-56.212845 779.02734 1299.5114 4292274943
7.3321099 779.02734 1299.5114 4292605183
9.7761469 779.02734 1299.5114 4293392895
14.66422 779.02734 1299.5114 4293983999
17.108257 779.02734 1299.5114 4293983999
19.552294 779.02734 1299.5114 4293984255
21.99633 779.02734 1299.5114 4294049791
-63.544952 780.89581 1301.0868 4291551231
-61.100918 780.89581 1301.0868 4291880191
-58.656879 780.89581 1301.0868 4291551743
-60.871559 787.2948 1299.942 4291485695
-56.001835 787.2948 1299.942 4291485439
-52.349541 787.2948 1299.942 4291353599
-48.697247 787.2948 1299.942 4291879935
-46.262386 787.2948 1299.942 4292142847
-43.827522 787.2948 1299.942 4292339967
-41.392662 787.2948 1299.942 4292339967
-37.740364 787.2948 1299.942 4292339967
-29.218349 787.2948 1299.942 4292471807
-56.001835 789.15625 1301.5116 4291813887
-53.566971 789.15625 1301.5116 4291287295
-43.827522 789.15625 1301.5116 4292143103
-41.392662 789.15625 1301.5116 4292077311
-64.232109 797.90137 1301.0371 4291156735
-55.748623 797.90137 1301.0371 4291682047
-53.324772 797.90137 1301.0371 4291813887
-50.900917 796.04828 1299.4746 4291944703
-46.053211 796.04828 1299.4746 4291748095
-43.629356 796.04828 1299.4746 4292077311
-41.205505 796.04828 1299.4746 4292603647
-38.781651 796.04828 1299.4746 4292405759
-61.57431 806.07336 1301.3873 4291550463
-57.952293 804.22736 1299.8308 4291287039
-55.537613 804.22736 1299.8308 4291484671
-53.122936 804.22736 1299.8308 4291484927
-57.732109 812.36426 1300.1516 4291419391
16.838531 812.36426 1300.1516 4292603391
19.244038 812.36426 1300.1516 4292209151
28.866055 812.36426 1300.1516 4292537855
31.271559 812.36426 1300.1516 4292735231
-61.340366 814.20331 1301.7021 4291287551
31.271559 814.20331 1301.7021 4292340479
-62.304588 820.45917 1300.4368 4290894079
-58.710091 820.45917 1300.4368 4291025407
1.1981652 820.45917 1300.4368 4294967295
28.755962 820.45917 1300.4368 4291813887
31.152294 820.45917 1300.4368 4292077055
-64.70092 822.2912 1301.9814 4291090431
-62.304588 822.2912 1301.9814 4290828287
28.755962 822.2912 1301.9814 4292208895
31.152294 822.2912 1301.9814 4292143103
-59.678898 826.68701 1299.1478 4290827775
-54.904587 826.68701 1299.1478 4291353343
-45.355965 826.68701 1299.1478 4291419135
-38.194496 826.68701 1299.1478 4291353599
-34.613762 826.68701 1299.1478 4291682303
1.193578 826.68701 1299.1478 4294967295
14.322936 826.68701 1299.1478 4292274943
16.710093 826.68701 1299.1478 4292077311
19.097248 826.68701 1299.1478 4291945727
22.677982 826.68701 1299.1478 4291617535
26.258715 826.68701 1299.1478 4292013311
28.645872 826.68701 1299.1478 4292143871
31.033028 826.68701 1299.1478 4292078079
33.420185 826.68701 1299.1478 4291880447
-62.066055 828.51196 1300.6866 4290893567
-59.678898 828.51196 1300.6866 4291024895
-45.355965 828.51196 1300.6866 4291419391
-33.420185 828.51196 1300.6866 4291616255
1.193578 828.51196 1300.6866 4294967295
26.258715 828.51196 1300.6866 4292603903
28.645872 828.51196 1300.6866 4292405759
31.033028 828.51196 1300.6866 4292405759
-69.014679 836.0155 1301.7812 4290498815
-66.634865 836.0155 1301.7812 4290826751
-64.255043 836.0155 1301.7812 4290695423
-61.875229 835.10583 1301.0142 4290695167
-59.495415 835.10583 1301.0142 4291155711
-49.976147 834.19617 1300.2472 4291747583
-46.009785 834.80255 1300.7584 4291418111
-42.836697 834.19617 1300.2472 4291287807
-40.456882 834.19617 1300.2472 4291419391
-38.077065 834.19617 1300.2472 4291287807
-34.507339 834.19617 1300.2472 4291288063
1.1899083 836.0155 1301.7812 4294967295
4.7596331 835.10583 1301.0142 4293853183
7.1394496 835.10583 1301.0142 4291945967
10.709174 835.10583 1301.0142 4291880703
14.278899 835.10583 1301.0142 4291945983
16.658716 835.10583 1301.0142 4291814655
19.038532 835.10583 1301.0142 4291748351
23.004892 834.80255 1300.7585 4292011519
26.177982 835.10583 1301.0142 4292143103
28.557798 835.10583 1301.0142 4291879935
30.937614 835.10583 1301.0142 4291945727
-61.636696 842.17603 1300.4354 4290826495
-59.266056 842.17603 1300.4354 4290958335
-49.783485 842.17603 1300.4354 4290958335
-46.227524 842.17603 1300.4354 4291155711
-42.671558 842.17603 1300.4354 4290433791
-33.188992 842.17603 1300.4354 4291090431
-28.447706 842.17603 1300.4354 4291617535
4.7412844 842.17603 1300.4354 4293984255
7.1119266 842.17603 1300.4354 4292010732
10.667891 842.17603 1300.4354 4291617279
14.223853 842.17603 1300.4354 4291551231
16.594496 842.17603 1300.4354 4291945983
18.965137 842.17603 1300.4354 4292143103
22.521101 842.17603 1300.4354 4291946239
26.077065 842.17603 1300.4354 4292012543
28.447706 842.17603 1300.4354 4291750143
30.818348 842.17603 1300.4354 4291750143
33.188992 842.17603 1300.4354 4291551743
-64.007339 843.9884 1301.9636 4290892543
-59.266056 843.9884 1301.9636 4290958335
-49.783485 843.9884 1301.9636 4291156735
-47.412846 843.9884 1301.9636 4291287807
1.1853211 843.9884 1301.9636 4294967295
4.7412844 843.9884 1301.9636 4293984255
7.1119266 843.9884 1301.9636 4291813610
10.667891 843.9884 1301.9636 4291683071
14.223853 843.9884 1301.9636 4291879935
23.706423 843.9884 1301.9636 4292274943
26.077065 843.9884 1301.9636 4292209151
28.447706 843.9884 1301.9636 4292077055
30.818348 843.9884 1301.9636 4292077055
-70.84404 848.30841 1299.066 4290300671
-67.301834 848.30841 1299.066 4290431999
-63.759632 848.30841 1299.066 4290497535
-61.398167 848.30841 1299.066 4290365695
-59.036697 848.30841 1299.066 4290629119
-54.313763 848.30841 1299.066 4290892287
-51.952293 848.30841 1299.066 4290629887
-49.590824 848.30841 1299.066 4290827263
-47.229359 848.30841 1299.066 4290827519
-43.687157 848.30841 1299.066 4290893311
-40.144955 848.30841 1299.066 4291024895
-33.060551 848.30841 1299.066 4291287551
-30.699083 848.30841 1299.066 4291485183
-28.337614 848.30841 1299.066 4291288575
-25.976147 848.30841 1299.066 4291222783
-22.433945 848.30841 1299.066 4290959103
-18.891743 848.30841 1299.066 4291813887
-16.530275 848.30841 1299.066 4292077055
-14.168807 848.30841 1299.066 4291880447
-10.626606 848.30841 1299.066 4291946495
-7.0844035 848.30841 1299.066 4292472831
-4.7229357 848.30841 1299.066 4292671231
-2.3614678 848.30841 1299.066 4294639615
11.80734 848.30841 1299.066 4291617023
14.168807 848.30841 1299.066 4291683071
16.530275 848.30841 1299.066 4291814399
18.891743 848.30841 1299.066 4291813887
22.433945 848.30841 1299.066 4291879935
25.976147 848.30841 1299.066 4291813887
28.337614 848.30841 1299.066 4291419647
30.699083 848.30841 1299.066 4291682815
-70.84404 850.11377 1300.5883 4290103807
-67.301834 850.11377 1300.5883 4290366463
-63.759632 850.11377 1300.5883 4290497535
-61.398167 850.11377 1300.5883 4290366719
-59.036697 850.11377 1300.5883 4290563839
-55.494495 850.11377 1300.5883 4290433791
-51.952293 850.11377 1300.5883 4290630911
-47.229359 850.11377 1300.5883 4290630911
-42.50642 850.11377 1300.5883 4290958335
-30.699083 850.11377 1300.5883 4291485183
-28.337614 850.11377 1300.5883 4291353599
-25.976147 850.11377 1300.5883 4291419391
-22.433945 850.11377 1300.5883 4291287807
-18.891743 850.11377 1300.5883 4291682047
-16.530275 850.11377 1300.5883 4292274431
-14.168807 850.11377 1300.5883 4292208895
-7.0844035 850.11377 1300.5883 4292407039
-4.7229357 850.11377 1300.5883 4292539647
-2.3614678 850.11377 1300.5883 4294508543
10.626606 850.11377 1300.5883 4291419903
14.168807 850.11377 1300.5883 4291748095
16.530275 850.11377 1300.5883 4291879935
25.976147 850.11377 1300.5883 4291879935
30.699083 850.11377 1300.5883 4292077055
-55.2789 856.21118 1299.1892 4290433535
-51.750458 856.21118 1299.1892 4290434559
-49.398167 856.21118 1299.1892 4290236927
-47.045872 856.21118 1299.1892 4290302719
-43.517433 856.21118 1299.1892 4290697215
-39.988991 856.21118 1299.1892 4291025663
-21.170643 856.21118 1299.1892 4291682815
-16.466055 856.21118 1299.1892 4291354367
-9.409174 856.21118 1299.1892 4291946239
-7.056881 856.21118 1299.1892 4292406783
-4.704587 856.21118 1299.1892 4292014335
11.761468 856.21118 1299.1892 4291617279
14.113762 856.21118 1299.1892 4291616255
16.466055 856.21118 1299.1892 4291879679
18.818348 856.21118 1299.1892 4291879935
21.170643 856.21118 1299.1892 4291682303
30.579817 856.21118 1299.1892 4291747839
-58.807339 858.00952 1300.7056 4290301951
-55.2789 858.00952 1300.7056 4290301695
-49.398167 858.00952 1300.7056 4290302719
-43.517433 858.00952 1300.7056 4290565375
-39.988991 858.00952 1300.7056 4290960127
-28.227524 858.00952 1300.7056 4291616255
-25.875229 858.00952 1300.7056 4291418879
-22.34679 858.00952 1300.7056 4291287551
-18.818348 858.00952 1300.7056 4291025919
-16.466055 858.00952 1300.7056 4291354879
-14.113762 858.00952 1300.7056 4291354879
-11.761468 858.00952 1300.7056 4291683839
-7.056881 858.00952 1300.7056 4292275199
-4.704587 858.00952 1300.7056 4291685887
-2.3522935 858.00952 1300.7056 4294115327
7.056881 858.00952 1300.7056 4291617260
10.585321 858.00952 1300.7056 4291091711
-58.57798 865.86304 1300.7874 4290761215
-56.234863 865.86304 1300.7874 4290433023
-53.110703 865.26593 1300.2838 4290434047
-49.205505 864.96741 1300.0322 4290302719
-46.862385 864.96741 1300.0322 4290695679
-43.347706 864.07172 1299.277 4290564351
-39.833027 864.07172 1299.277 4291024639
-28.117432 864.07172 1299.277 4291353599
-25.774311 864.07172 1299.277 4291353599
-22.259632 864.07172 1299.277 4290959103
-18.744955 864.07172 1299.277 4291287551
-16.401834 864.07172 1299.277 4291485183
-14.058716 864.07172 1299.277 4291288575
-10.544037 864.07172 1299.277 4291486463
-7.0293579 864.07172 1299.277 4292144639
-4.6862388 864.07172 1299.277 4292671231
-2.3431194 864.07172 1299.277 4294574079
1.5620795 865.26593 1300.2838 4294967295
4.6862388 864.96741 1300.0322 4293722111
7.0293579 864.96741 1300.0322 4291419881
10.544037 864.96741 1300.0322 4291156735
14.058716 864.96741 1300.0322 4291090431
16.401834 864.07172 1299.277 4291550975
18.744955 864.96741 1300.0322 4291813119
22.259632 864.96735 1300.0322 4291550463
-51.387157 871.40137 1300.225 4290630911
-49.051376 871.40137 1300.225 4290564863
-46.715595 871.40137 1300.225 4290826751
-43.211929 871.40137 1300.225 4290826751
-39.708256 871.40137 1300.225 4290892543
-37.372478 871.40137 1300.225 4290892799
-35.036697 871.40137 1300.225 4290827007
-30.365137 871.40137 1300.225 4291353087
-28.029358 871.40137 1300.225 4290893567
-25.693579 871.40137 1300.225 4291024895
-23.357798 871.40137 1300.225 4290894079
-10.511009 871.40137 1300.225 4291683583
-7.0073395 871.40137 1300.225 4291749375
-4.6715598 871.40137 1300.225 4291882495
-2.3357799 871.40137 1300.225 4293918719
1.16789 871.40137 1300.225 4294967295
4.6715598 871.40137 1300.225 4293984255
7.0073395 871.40137 1300.225 4291418854
9.3431196 871.40137 1300.225 4291090687
14.014679 871.40137 1300.225 4291353599
16.350458 871.40137 1300.225 4291550975
18.686239 871.40137 1300.225 4291484927
22.189907 871.40137 1300.225 4291418879
25.693579 871.40137 1300.225 4291813631
28.029358 871.40137 1300.225 4291748095
30.365137 871.40137 1300.225 4291879679
-58.394497 873.18713 1301.7306 4290300415
-52.555046 873.18713 1301.7306 4290235647
-49.051376 873.18713 1301.7306 4290499071
-46.715595 873.18713 1301.7306 4290236415
-43.211929 873.18713 1301.7306 4290630655
-39.708256 873.18713 1301.7306 4290827519
-37.372478 873.18713 1301.7306 4290563839
-25.693579 873.18713 1301.7306 4290828031
1.16789 873.18713 1301.7306 4294967295
4.6715598 873.18713 1301.7306 4294049791
23.357798 873.18713 1301.7306 4291221247
25.693579 873.18713 1301.7306 4291418879
28.029358 873.18713 1301.7306 4291156223
30.365137 873.18713 1301.7306 4291419135
-55.838531 880.96069 1301.745 4290236159
-52.348625 880.07141 1300.9951 4290367743
-48.858715 880.07135 1300.9951 4290433535
-46.532108 880.07135 1300.9951 4290104575
-44.205505 880.07135 1300.9951 4290433535
-40.715595 880.07141 1300.9951 4290630399
-37.225689 880.07135 1300.9951 4290696191
-34.899082 880.07135 1300.9951 4290761983
-31.409176 880.07135 1300.9951 4290696703
-27.919266 879.18201 1300.2452 4290565375
-25.592661 879.18201 1300.2452 4290960127
-23.266054 879.18201 1300.2452 4291026175
-20.939449 879.18201 1300.2452 4290960383
-16.286238 879.18201 1300.2452 4290763007
-10.469725 879.18201 1300.2452 4291026431
-6.9798164 880.07135 1300.9951 4291486719
-4.6532111 880.07135 1300.9951 4291684863
-2.3266056 880.07135 1300.9951 4293263103
2.3266056 880.96069 1301.745 4294967295
4.6532111 880.07135 1300.9951 4294180863
9.3064222 880.07135 1300.9951 4290630911
23.266054 880.07135 1300.9951 4291222015
25.592661 880.07135 1300.9951 4291222015
27.919266 879.18201 1300.2452 4291156735
31.409174 879.18201 1300.2452 4290959615
-53.300919 886.92059 1300.2301 4290301183
-49.824768 886.92059 1300.2301 4290367743
-46.348625 886.92059 1300.2301 4290433535
-40.555046 886.92059 1300.2301 4290959103
-37.078899 886.92059 1300.2301 4290892543
-34.761467 886.92059 1300.2301 4291089919
-31.285322 886.92059 1300.2301 4290892799
-27.809174 886.92059 1300.2301 4290302207
-25.491743 886.92059 1300.2301 4290696959
-23.174313 886.92059 1300.2301 4290828031
-19.698166 886.92059 1300.2301 4290630911
-16.222019 886.92059 1300.2301 4290960127
-13.904587 886.92059 1300.2301 4290960383
-9.2697248 886.92059 1300.2301 4291158271
-6.9522934 886.92059 1300.2301 4291553023
-4.6348624 886.92059 1300.2301 4291553279
-2.3174312 886.92059 1300.2301 4292605951
4.6348624 886.92059 1300.2301 4293983999
6.9522934 886.92059 1300.2301 4291681257
10.42844 886.92059 1300.2301 4291156991
19.698166 886.92059 1300.2301 4291485183
-53.300919 888.69226 1301.7239 4290300415
-50.983486 888.69226 1301.7239 4290301183
-39.396332 888.69226 1301.7239 4290433023
-34.761467 888.69226 1301.7239 4290694911
-31.285322 888.69226 1301.7239 4290694399
-27.809174 888.69226 1301.7239 4290236415
-25.491743 888.69226 1301.7239 4290696703
-23.174313 888.69226 1301.7239 4290763007
-19.698166 888.69226 1301.7239 4290434047
-16.222019 888.69226 1301.7239 4290696703
-9.2697248 888.69226 1301.7239 4290960639
-6.9522934 888.69226 1301.7239 4291158015
-4.6348624 888.69226 1301.7239 4291421695
-2.3174312 888.69226 1301.7239 4292671743
2.3174312 888.69226 1301.7239 4294967295
4.6348624 888.69226 1301.7239 4293459199
6.9522934 888.69226 1301.7239 4291288046
10.42844 888.69226 1301.7239 4291353855
19.698166 888.69226 1301.7239 4291025663
-27.721102 892.37476 1299.5967 4290564863
-25.411009 892.37476 1299.5967 4290893567
-23.100918 892.37476 1299.5967 4290630911
-19.63578 892.37476 1299.5967 4290630399
-16.170643 892.37476 1299.5967 4290893311
-13.860551 892.37476 1299.5967 4290762239
-10.395412 892.37476 1299.5967 4291025919
-6.9302754 892.37476 1299.5967 4291288831
-4.6201835 892.37476 1299.5967 4291158527
-2.3100917 892.37476 1299.5967 4292540159
2.3100917 892.37476 1299.5967 4294967295
4.6201835 892.37476 1299.5967 4293852159
6.9302754 892.37476 1299.5967 4291549416
11.550459 892.37476 1299.5967 4291485439
13.860551 892.37476 1299.5967 4291419391
16.170643 892.37476 1299.5967 4291353599
-53.132111 894.14087 1301.0858 4290234111
-50.822018 894.14087 1301.0858 4290431487
-40.426605 894.14087 1301.0858 4290302719
-36.961468 894.14087 1301.0858 4290433535
-30.031193 894.14087 1301.0858 4290434303
-27.721102 894.14087 1301.0858 4290368511
-25.411009 894.14087 1301.0858 4290368511
-23.100918 894.14087 1301.0858 4290563839
-19.63578 894.14087 1301.0858 4290629631
-16.170643 894.14087 1301.0858 4290826495
-13.860551 894.14087 1301.0858 4290564863
-11.550459 894.14087 1301.0858 4290959615
-4.6201835 894.14087 1301.0858 4290894847
1.1550459 894.14087 1301.0858 4294443007
4.6201835 894.14087 1301.0858 4293328127
6.9302754 894.14087 1301.0858 4291025389
10.395412 894.14087 1301.0858 4291155967
13.860551 894.14087 1301.0858 4291485183
16.170643 894.14087 1301.0858 4291485183
18.480734 894.14087 1301.0858 4291287295
-52.921101 900.91992 1300.2616 4290169087
-50.620182 900.04034 1299.52 4290103039
-40.266056 901.79944 1301.0032 4290302207
-34.51376 901.79944 1301.0032 4290565119
-32.212845 901.79944 1301.0032 4290629887
-28.761467 901.79944 1301.0032 4290433023
-25.310091 900.91992 1300.2616 4290367743
-23.009174 900.91992 1300.2616 4290301951
-19.557798 900.04034 1299.52 4290564863
-16.106422 900.04034 1299.52 4290630655
-13.805505 900.04034 1299.52 4290434559
-10.354128 900.04034 1299.52 4289974015
-6.9027524 900.04034 1299.52 4290369535
-4.6018348 900.04034 1299.52 4290501631
-2.3009174 900.04034 1299.52 4291949311
1.1504587 901.79944 1301.0032 4294245887
4.6018348 900.91992 1300.2616 4293523199
6.9027524 900.91992 1300.2616 4289115088
10.354128 901.79944 1301.0032 4287473639
13.805505 900.91992 1300.2616 4289508084
16.106422 900.91992 1300.2616 4289573876
19.941284 901.21307 1300.5088 4288915436
23.009174 901.79944 1301.0032 4287929050
25.310091 901.79944 1301.0032 4287468499
32.212845 901.79944 1301.0032 4286547395
34.51376 901.79944 1301.0032 4286547395
-32.084404 907.66394 1299.408 4290367231
-27.500917 907.66394 1299.408 4290367231
-25.209175 907.66394 1299.408 4290367231
-22.917431 907.66394 1299.408 4290563839
-19.479816 907.66394 1299.408 4290432767
-11.458715 907.66394 1299.408 4290433023
-4.5834861 907.66394 1299.408 4290040831
-2.291743 907.66394 1299.408 4291422463
-34.376148 909.41602 1300.8851 4290365695
-32.084404 909.41602 1300.8851 4290168831
-28.64679 909.41602 1300.8851 4290300671
-25.209175 909.41602 1300.8851 4290300671
-22.917431 909.41602 1300.8851 4290234879
-19.479816 909.41602 1300.8851 4290366719
-4.5834861 909.41602 1300.8851 4289909503
1.1458715 909.41602 1300.8851 4294048255
4.5834861 909.41602 1300.8851 4292996607
6.8752294 909.41602 1300.8851 4284180366
10.312843 909.41602 1300.8851 4284508840
13.750459 909.41602 1300.8851 4285689773
18.333944 909.41602 1300.8851 4285885088
25.209175 909.41602 1300.8851 4285753497
-22.844036 914.78033 1300.1761 4289907711
-19.417431 914.78033 1300.1761 4290236671
-15.990826 914.78033 1300.1761 4290302207
-6.8532109 914.78033 1300.1761 4290301951
-4.5688071 914.78033 1300.1761 4289843455
-2.2844036 914.78033 1300.1761 4290764543
2.2844036 914.78033 1300.1761 4294901759
4.5688071 914.78033 1300.1761 4293063935
11.422018 914.78033 1300.1761 4285630154
13.706422 914.78033 1300.1761 4285825205
-66.247704 916.52679 1301.6487 4289775359
-63.963303 916.52679 1301.6487 4289643519
-61.678898 916.52679 1301.6487 4289577727
-28.555046 916.52679 1301.6487 4290169855
-25.128441 916.52679 1301.6487 4290564351
-22.844036 916.52679 1301.6487 4290433023
-19.417431 916.52679 1301.6487 4290367231
-4.5688071 916.52679 1301.6487 4289909247
-2.2844036 916.52679 1301.6487 4290830335
1.1422018 916.52679 1301.6487 4293850367
4.5688071 916.52679 1301.6487 4294046463
11.422018 916.52679 1301.6487 4286681575
13.706422 916.52679 1301.6487 4287138736
18.275229 916.52679 1301.6487 4287335864
25.128441 916.52679 1301.6487 4286809279
-64.84404 922.32391 1299.9966 4289709311
-61.431194 922.32391 1299.9966 4289577727
-28.440367 922.32391 1299.9966 4289775615
-18.201836 922.32391 1299.9966 4290235391
-15.926605 922.32391 1299.9966 4290366975
-13.651376 922.32391 1299.9966 4290104319
-10.238532 922.32391 1299.9966 4289906943
-6.8256879 922.32391 1299.9966 4289972735
-4.5504589 922.32391 1299.9966 4289448447
-2.2752295 922.32391 1299.9966 4290237695
4.5504589 922.32391 1299.9966 4293783295
10.238532 922.32391 1299.9966 4283850917
13.651376 922.32391 1299.9966 4285163425
15.926605 922.32391 1299.9966 4284966303
18.201836 922.32391 1299.9966 4285557140
25.027523 922.32391 1299.9966 4285096587
34.128441 922.32391 1299.9966 4284701831
37.541283 922.32391 1299.9966 4284833149
40.954128 922.32391 1299.9966 4284899463
-61.431194 924.06335 1301.4633 4289775359
-55.743118 924.06335 1301.4633 4289906687
-52.330276 924.06335 1301.4633 4289972223
-50.055046 924.06335 1301.4633 4289840383
-40.954128 924.06335 1301.4633 4290168831
-34.128441 924.06335 1301.4633 4290300671
-31.85321 924.06335 1301.4633 4290234879
-28.440367 924.06335 1301.4633 4290234879
-25.027523 924.06335 1301.4633 4290366463
-22.752293 924.06335 1301.4633 4290300671
-19.339451 924.06335 1301.4633 4290301183
-15.926605 924.06335 1301.4633 4290301951
-13.651376 924.06335 1301.4633 4290236671
-10.238532 924.06335 1301.4633 4290039295
-6.8256879 924.06335 1301.4633 4290236159
-4.5504589 924.06335 1301.4633 4289841919
-2.2752295 924.06335 1301.4633 4289973503
4.5504589 924.06335 1301.4633 4293259007
10.238532 924.06335 1301.4633 4283980437
13.651376 924.06335 1301.4633 4285687445
15.926605 924.06335 1301.4633 4285621396
19.339451 924.06335 1301.4633 4285160847
22.752293 924.06335 1301.4633 4285226894
25.027523 924.06335 1301.4633 4285029516
31.85321 924.06335 1301.4633 4284963720
34.128441 924.06335 1301.4633 4285161099
-64.634857 928.50189 1299.9735 4290038271
-61.233028 928.50189 1299.9735 4290169599
-40.822018 929.36877 1300.7045 4290366463
-27.21468 929.36877 1300.7045 4291022847
-24.946789 929.36877 1300.7045 4291088639
-22.6789 929.36877 1300.7045 4290433023
-19.277065 929.36877 1300.7045 4290696191
-15.875229 929.36877 1300.7045 4290761727
-13.60734 929.36877 1300.7045 4290695167
-10.205505 929.36877 1300.7045 4290760959
-6.8036699 929.36877 1300.7045 4290958335
-4.53578 929.36877 1300.7045 4290762239
-2.26789 929.36877 1300.7045 4289841151
31.750458 929.36877 1300.7045 4284637322
34.018349 927.63501 1299.2426 4284899213
-64.260551 759.64117 1302.7859 4291683071
-58.656879 782.76428 1302.6622 4291748095
-63.544952 784.63281 1304.2377 4291156735
-58.656879 784.63281 1304.2377 4291485439
-60.871559 791.0177 1303.0812 4291026175
-56.001835 791.0177 1303.0812 4291353343
-53.566971 791.0177 1303.0812 4291353087
-64.523857 792.87921 1304.6508 4291354111
-60.871559 792.87921 1304.6508 4291682815
-56.001835 792.87921 1304.6508 4291484927
-53.566971 792.87921 1304.6508 4291681535
-67.867889 799.75439 1302.5996 4291156735
-64.232109 799.75439 1302.5996 4291090687
-60.596329 799.75439 1302.5996 4291353343
-58.172478 799.75439 1302.5996 4291353599
-55.748623 799.75439 1302.5996 4291551231
-64.232109 801.60742 1304.162 4290959103
-60.596329 801.60742 1304.162 4291090687
-65.196327 809.7655 1304.5005 4291024895
-61.57431 808.84247 1303.7222 4291222271
-67.354126 817.88135 1304.8035 4290499327
-64.948624 816.96185 1304.0281 4290893823
-61.340366 816.04236 1303.2528 4291025663
-64.70092 824.12317 1303.5262 4291089919
-62.304588 824.12317 1303.5262 4290564863
-64.453209 830.33698 1302.2253 4290893055
-62.066055 830.33698 1302.2253 4290695679
1.193578 830.33698 1302.2253 4294967295
-69.227524 832.16199 1303.7642 4290761471
-66.84037 832.16199 1303.7642 4290892543
-64.453209 832.16199 1303.7642 4291089919
1.193578 832.16199 1303.7642 4294967295
1.1899083 838.74463 1304.0824 4294967295
4.7596331 837.8349 1303.3153 4293853183
7.1394496 837.8349 1303.3153 4292208881
10.709174 837.8349 1303.3153 4291683327
14.278899 837.8349 1303.3153 4291683327
26.177982 837.8349 1303.3153 4292208895
1.1853211 845.80078 1303.4917 4294967295
4.7412844 845.80078 1303.4917 4293984255
7.1119266 845.80078 1303.4917 4291747817
9.4825687 845.80078 1303.4917 4291090687
-73.205505 851.91919 1302.1105 4290170111
-70.84404 851.91919 1302.1105 4289775871
-67.301834 851.91919 1302.1105 4290038271
-63.759632 851.91919 1302.1105 4290432255
-61.398167 851.91919 1302.1105 4290433535
-59.036697 851.91919 1302.1105 4290433535
-56.675228 851.91919 1302.1105 4290302719
-51.952293 851.91919 1302.1105 4290434559
-47.229359 851.91919 1302.1105 4290302719
-2.3614678 851.91919 1302.1105 4294443007
2.3614678 851.91919 1302.1105 4294967295
4.7229357 851.91919 1302.1105 4293656063
7.0844035 851.91919 1302.1105 4291748078
10.626606 851.91919 1302.1105 4291551487
-73.205505 853.72449 1303.6327 4290301695
-70.84404 853.72449 1303.6327 4290104319
-67.301834 853.72449 1303.6327 4290235903
-63.759632 853.72449 1303.6327 4290366975
-61.398167 853.72449 1303.6327 4290498815
-59.036697 853.72449 1303.6327 4290564863
-30.699083 853.72449 1303.6327 4291419391
-28.337614 853.72449 1303.6327 4291484927
-25.976147 853.72449 1303.6327 4291484927
-23.614679 853.72449 1303.6327 4291419647
-18.891743 853.72449 1303.6327 4291090943
-14.168807 853.72449 1303.6327 4291551743
-2.3614678 853.72449 1303.6327 4294180863
1.1807339 853.72449 1303.6327 4294967295
4.7229357 853.72449 1303.6327 4293787647
7.0844035 853.72449 1303.6327 4291879918
9.4458714 853.72449 1303.6327 4291419647
-58.807339 859.80786 1302.2218 4290432767
-55.2789 859.80786 1302.2218 4290301695
-51.750458 859.80786 1302.2218 4290368511
-18.818348 859.80786 1302.2218 4291616255
-16.466055 859.80786 1302.2218 4291747839
-14.113762 859.80786 1302.2218 4291289343
1.1761467 859.80786 1302.2218 4294967295
4.704587 859.80786 1302.2218 4293787647
7.056881 859.80786 1302.2218 4291551467
-61.159634 861.6062 1303.7382 4290301183
-58.807339 861.6062 1303.7382 4290432767
-56.455048 861.6062 1303.7382 4289842431
-51.750458 861.6062 1303.7382 4290368511
0 861.6062 1303.7382 4294967295
-60.921101 869.44574 1303.8081 4290234367
-58.57798 869.44574 1303.8081 4290365695
-56.234863 869.44574 1303.8081 4290300671
-52.720184 868.55005 1303.053 4290761727
-49.205505 867.65442 1302.2977 4290630655
-46.862385 867.65442 1302.2977 4290958335
1.1715597 867.65442 1302.2977 4294967295
4.6862388 867.65442 1302.2977 4293853183
-60.730274 874.97284 1303.2363 4289841407
-58.394497 874.97284 1303.2363 4290104319
-56.058716 874.97284 1303.2363 4290235391
-53.722935 874.97284 1303.2363 4290235391
-49.051376 874.97284 1303.2363 4290827519
-46.715595 874.97284 1303.2363 4290433535
1.16789 874.97284 1303.2363 4294967295
25.693579 874.97284 1303.2363 4291418879
28.029358 874.97284 1303.2363 4291287551
30.365137 874.97284 1303.2363 4291287551
-63.066055 876.75854 1304.7419 4289710847
-60.730274 876.75854 1304.7419 4290104319
-58.394497 876.75854 1304.7419 4290104319
-56.058716 876.75854 1304.7419 4290301183
1.16789 876.75854 1304.7419 4294967295
7.0073395 876.75854 1304.7419 4291353059
-61.655045 883.62878 1303.9946 4289776383
-58.165138 883.62878 1303.9946 4289974015
-55.838531 883.62878 1303.9946 4290236159
-52.348625 882.73938 1303.2448 4290236927
-48.858715 882.73938 1303.2448 4290368511
-46.532108 882.73938 1303.2448 4290236671
-44.205505 883.62878 1303.9946 4290499839
-41.878899 882.73938 1303.2448 4290302207
-37.225689 882.73938 1303.2448 4290236671
-34.899082 882.73938 1303.2448 4290500095
-32.572475 882.73938 1303.2448 4290697215
-4.6532111 882.73938 1303.2448 4291290623
1.1633028 883.62872 1303.9946 4294836223
6.9798164 882.73938 1303.2448 4291287527
9.3064222 882.73938 1303.2448 4291024639
23.266054 883.62878 1303.9946 4291353599
25.592661 883.62878 1303.9946 4291287807
27.919266 884.51813 1304.7445 4291682047
-53.300919 890.46399 1303.2178 4290431487
-50.983486 890.46399 1303.2178 4290300671
-39.396332 890.46399 1303.2178 4290302207
-37.078899 890.46399 1303.2178 4290629375
-34.761467 890.46399 1303.2178 4290695167
-31.285322 890.46399 1303.2178 4290760703
0 890.46399 1303.2178 4294836223
9.2697248 890.46399 1303.2178 4291156479
19.698166 890.46399 1303.2178 4291419391
23.174313 890.46399 1303.2178 4291287039
25.491743 890.46399 1303.2178 4291352831
-55.618347 892.23566 1304.7117 4290234111
-34.761467 892.23566 1304.7117 4290433535
-32.444038 892.23566 1304.7117 4290302719
20.85688 892.23566 1304.7117 4291353343
23.174313 892.23566 1304.7117 4291549439
25.491743 892.23566 1304.7117 4291615487
27.809174 892.23566 1304.7117 4291418623
-53.132111 895.90692 1302.575 4290168319
-50.822018 895.90692 1302.575 4290168831
-43.891743 895.90692 1302.575 4290564351
-41.58165 895.90692 1302.575 4290499327
-36.961468 895.90692 1302.575 4290367231
-34.651375 895.90692 1302.575 4290367231
-31.186239 895.90692 1302.575 4290564607
-27.721102 895.90692 1302.575 4290762239
-25.411009 895.90692 1302.575 4290630911
1.1550459 895.90692 1302.575 4294574079
4.6201835 895.90692 1302.575 4294114815
6.9302754 895.90692 1302.575 4291680488
10.395412 895.90692 1302.575 4291747071
13.860551 895.90692 1302.575 4292272639
16.170643 895.90692 1302.575 4292338431
19.63578 895.90692 1302.575 4292074751
23.100918 895.90692 1302.575 4292008959
25.411009 895.90692 1302.575 4292140543
-61.21743 897.67303 1304.0641 4289906687
-55.442204 897.67303 1304.0641 4290168319
-46.201836 897.67303 1304.0641 4290234879
-43.891743 897.67303 1304.0641 4290432255
-40.426605 897.67303 1304.0641 4290302719
-36.961468 897.67303 1304.0641 4290301183
-34.651375 897.67303 1304.0641 4290366975
-31.186239 897.67303 1304.0641 4290432255
-27.721102 897.67303 1304.0641 4290499327
1.1550459 897.67303 1304.0641 4294180351
10.395412 897.67303 1304.0641 4290428927
18.480734 897.67303 1304.0641 4290100991
23.100918 897.67303 1304.0641 4289113851
25.411009 897.67303 1304.0641 4288916471
27.721102 897.67303 1304.0641 4288849909
-57.522934 905.31757 1303.9696 4290366463
-55.222019 904.43799 1303.228 4290104319
-49.469727 905.31757 1303.9696 4290235391
-46.018349 904.43799 1303.228 4290234879
-43.71743 904.43799 1303.228 4290234879
-40.266056 904.43799 1303.228 4290367487
