# .PCD v0.7 - Point Cloud Data file format
VERSION 0.7
FIELDS x y z rgb
SIZE 4 4 4 4
TYPE F F F U
COUNT 1 1 1 1
WIDTH 1155
HEIGHT 1
VIEWPOINT 0 0 0 1 0 0 0
POINTS 1155
DATA ascii
-12.792661 817.39966 833.0705 4288974747
-10.425688 820.89435 831.22107 4288253352
-12.163302 822.88696 832.90112 4289105305
-10.39266 826.33649 831.88562 4288056483
-10.370643 829.73273 832.13306 4288449954
-8.6422014 828.41132 831.01892 4294966271
-8.6146793 833.16467 831.10278 4294963967
-8.6146793 835.1405 832.76874 4294962942
-8.5504589 844.62628 831.61072 4294764799
-8.5229359 850.62531 832.74487 4293909229
-6.8036699 852.66016 831.84448 4294967295
-6.7816515 857.32727 831.85565 4294966783
-6.7669725 860.64496 832.03687 4294967295
-6.7302752 867.93744 831.64563 4294964735
-6.7082567 872.54919 831.60999 4294964479
-6.7082567 873.8313 832.69104 4294964479
-6.6935778 877.10681 832.83685 4294964479
-5.0036697 879.77289 831.16077 4294967295
-6.6715598 882.32312 833.31104 4294898943
-4.9926605 884.30463 832.36572 4294967295
-4.9816513 887.55286 832.4884 4294967295
-4.9816513 888.82233 833.55884 4294967295
-4.9651375 892.72571 832.92596 4294967295
-4.9541283 895.95209 833.03027 4294967295
-3.2954128 897.9104 832.06549 4294967295
-3.2844036 901.7843 831.40784 4294967295
-3.8293579 904.31592 832.67023 4294967295
-3.2770643 906.86523 833.07581 4294967295
-4.0871563 910.05457 833.14886 4294967295
-3.2587156 913.26562 831.93225 4294967295
71.691742 912.64276 831.4071 4294967295
-3.2513762 916.43732 831.9906 4294967295
-1.6256881 916.43732 831.9906 4294967295
68.2789 916.43732 831.9906 4294967295
70.98838 916.85156 832.33984 4294967295
-1.6220183 919.60059 832.04169 4294967295
0 918.98059 831.51892 4294967295
68.124771 919.60059 832.04169 4294967295
70.287468 919.80731 832.216 4294967295
-1.6220183 921.46069 833.61011 4294042611
0.80825686 922.43182 832.46686 4294637049
64.660553 923.40295 831.32361 4294967295
67.200912 922.43182 832.46686 4294967295
70.5578 921.46069 833.61011 4294967295
-1.6165137 925.87463 833.40771 4294568942
1.6165137 925.25671 832.88666 4294834175
3.2330275 925.25671 832.88666 4294834430
64.660553 925.87463 833.40771 4294967295
66.277061 925.25671 832.88666 4294967295
4.838532 927.16388 831.87866 4294898687
8.0642204 928.39691 832.91833 4294967295
10.472477 929.04016 832.15265 4294967295
13.966972 929.23676 832.75439 4294967295
16.896332 929.68335 831.38696 4294967295
20.138531 929.04016 832.15265 4294967295
22.554129 929.65662 832.67249 4294967295
24.970642 929.65662 832.67249 4294967295
28.192661 929.65662 832.67249 4294967295
30.609175 929.65662 832.67249 4294967295
58.734863 929.68335 831.38696 4294967295
61.825687 928.39691 832.91827 4294967295
32.183487 930.91357 832.42419 4294967295
33.79266 931.52869 832.94287 4294967295
58.734859 931.52869 832.94287 4294967295
61.148624 932.1438 833.46155 4294967295
35.321102 933.42456 831.92542 4294967295
37.729355 934.65192 832.96027 4294967295
40.137615 934.65198 832.96033 4287402896
55.550457 934.89746 833.1673 4294967295
40.799999 937.79224 831.68408 4279112012
44 937.79224 831.68408 4292665339
46.400002 937.79224 831.68408 4294967295
48.799999 937.79224 831.68408 4294967295
52 937.79224 831.68408 4294967295
41.066666 939.42316 833.05927 4278256169
44 939.62708 833.23114 4278190106
46.400002 939.62708 833.23114 4278914079
48.533337 939.42316 833.05927 4290686599
52 939.01544 832.71545 4294967295
-14.576147 753.38562 834.46875 4288845993
-16.398165 756.17151 836.81775 4290027442
-14.546789 756.26703 834.28223 4288976813
-16.365137 759.0473 836.62646 4289962164
-14.502752 761.27155 834.57776 4289108140
-16.315596 763.35046 836.33069 4290224822
-14.414679 771.91876 835.70709 4289305260
-13.472477 775.49731 834.80035 4289765040
-16.166973 777.55731 836.53723 4290027946
-14.326606 779.75208 834.46375 4289961898
-16.714373 782.03394 836.38776 4290158763
-14.297248 782.58154 834.2334 4289962150
-17.871559 785.31415 836.53748 4290026669
-14.297248 783.94788 835.3855 4290092968
-16.034863 788.17731 835.02759 4290224302
-14.253211 787.49628 834.45337 4290092966
-17.816513 790.22046 836.75024 4290224557
-16.57737 793.2995 835.42218 4290224042
-16.85688 795.83167 836.24939 4290224557
-14.179816 795.87585 834.97864 4290092966
-15.902752 800.06958 834.59058 4290224555
-14.135779 800.06958 834.59058 4289764517
-15.902752 801.42041 835.72961 4290355625
-15.853211 805.59729 835.32733 4290156460
-14.091743 804.92395 834.75964 4290091431
-15.80367 809.76154 834.91443 4289959850
-15.80367 811.104 836.04639 4289828779
-14.018349 812.5307 834.63318 4289435556
-15.770642 814.54016 836.32758 4289829292
-13.974312 817.34161 834.76562 4289369507
-13.944954 820.76166 835.03326 4289566112
-13.054129 823.82013 835.64996 4289302685
-13.03211 826.87219 836.26147 4289369248
-12.124771 830.30914 835.23529 4288579990
-10.39266 829.64703 834.677 4288909219
-12.124771 832.29547 836.91003 4288580248
-10.370643 833.03625 834.91852 4288513945
-12.099083 835.01831 836.58984 4289170851
-12.060551 839.75073 836.65588 4288973470
-10.326606 838.47284 834.27045 4288449178
-12.034863 842.45813 836.32275 4289170081
-10.315597 841.14374 835.21448 4288317087
-10.282569 845.19855 834.70923 4288184987
-10.282569 847.16382 836.36633 4288382616
-10.26055 849.85577 836.02014 4288185490
-10.227523 853.8833 835.49188 4288317072
-8.5229359 853.8833 835.49188 4293448926
-8.5045872 857.21143 835.68201 4293448414
-10.205504 858.51178 836.77844 4288184717
-8.4770641 860.56769 834.58777 4293316571
-10.172477 863.15997 836.77356 4288249731
-8.4587154 863.23163 834.2179 4293250006
-10.150458 865.81836 836.39905 4288446861
-8.4587154 864.52502 835.30847 4292921034
-8.4311924 868.50616 834.74121 4292723407
-10.117432 870.43988 836.3717 4288249227
-8.4128437 871.79645 834.89941 4292197064
-8.4128437 873.08282 835.98401 4292131016
-8.3853207 877.03662 835.39368 4292197319
-7.809175 880.30518 835.53363 4293054939
-6.6715598 884.23584 834.92377 4294701567
-10.007339 886.1485 836.5365 4288118663
-7.4981651 886.81696 835.79205 4293383650
-7.4889908 888.75769 836.12036 4293119709
-7.472477 891.99609 836.23492 4292922331
-6.6201835 894.6236 834.52625 4294437631
-6.6103973 898.03613 835.65961 4293253879
-4.9541283 897.84583 834.62708 4294967295
-4.943119 901.05963 834.72083 4294967295
-6.5908256 903.57904 836.84509 4291739604
-4.9266057 905.55072 834.5835 4294967295
-6.5688071 908.06171 836.70068 4292397018
-4.9266057 906.80621 835.64209 4294967295
-4.9155965 910.62323 836.24451 4294967295
-6.5394497 914.42908 836.8374 4294170865
-4.9045873 913.80414 836.31042 4294966015
-4.0733948 917.00256 835.08313 4294175473
-3.796942 919.31989 835.29315 4292858849
-4.0642204 921.40869 836.18237 4292135126
-1.6220183 922.70074 834.65564 4293714413
0 923.3208 835.17841 4294701309
68.124771 923.3208 835.17841 4294967295
69.746788 923.3208 835.17841 4294967295
-1.6220183 925.18085 836.74683 4294636534
0.81100917 925.18085 836.74683 4294635262
68.124771 925.18085 836.74683 4294967295
4.3107033 927.52246 834.79706 4294306300
7.0048928 927.93439 835.14435 4294702591
10.507339 928.34631 835.4917 4294967295
13.740367 928.96423 836.01276 4294967295
17.242813 928.7583 835.83905 4294967295
19.398165 928.96423 836.01276 4294967295
21.553518 929.17023 836.18646 4294967295
25.055964 929.58215 836.53381 4294967295
28.28899 929.58215 836.53381 4294967295
64.013947 928.09912 835.28333 4294967295
66.277061 927.72839 834.9707 4294967295
31.450459 930.86298 834.99768 4294967295
33.869724 932.09601 836.03735 4294967295
62.094498 931.47949 835.51752 4294967295
35.401836 933.98914 835.01746 4294967295
37.011009 935.83447 836.57336 4294967295
58.734863 934.60425 835.53613 4294967295
38.532108 937.72058 835.54773 4294112255
40.137615 938.33429 836.06519 4281808722
49.770641 938.33429 836.06519 4294967229
52.178902 938.33429 836.06519 4294967295
55.389908 937.72052 835.54773 4294967295
-18.330275 750.31335 839.72644 4290159543
-16.447706 752.54596 837.68481 4290027957
-18.275229 753.94312 838.86292 4290356406
-18.220184 758.26093 838.57953 4290093749
-18.183487 761.82758 838.9707 4290224566
-18.128441 766.12231 838.66791 4290290866
-16.266054 769.7135 837.77173 4290027694
-18.073395 771.78607 839.51929 4290224818
-16.216515 773.98505 837.44934 4289961647
-18.919266 776.05133 839.19159 4290092972
-17.963303 778.9306 837.69519 4290027175
-19.658716 788.04675 838.84155 4290158258
-17.871559 786.68042 837.68958 4290224555
-21.445871 789.41302 839.99353 4289961898
-19.598166 791.58252 837.8988 4289961898
-19.598166 792.94464 839.04724 4289896105
-17.761467 797.14673 838.6662 4290421675
-17.724771 800.61865 838.97766 4290090407
-17.669725 804.12219 838.00769 4289959854
-17.614679 808.29065 837.59827 4289960107
-17.614679 810.31061 839.30151 4289829547
-17.559633 814.46008 838.87616 4289894571
-16.35474 817.44269 838.7749 4289828775
-15.721101 821.3479 838.14355 4289894822
-15.721101 822.68335 839.26965 4289829029
-13.944954 824.09326 837.84229 4289632164
-15.688073 825.42584 838.96594 4289829027
-15.638532 829.52905 838.50159 4289697443
-13.900917 829.52905 838.50159 4289369507
-13.856881 833.61969 838.02661 4289565609
-15.588991 834.94391 839.14319 4289565857
-12.977982 835.64185 838.42358 4289105826
-15.555964 838.98254 839.93237 4289696162
-13.827523 837.66113 838.81812 4289434021
-13.783486 841.72644 838.3219 4289499305
-12.617737 844.18726 838.65265 4289302184
-13.754128 846.40131 839.64758 4289435050
-11.99633 848.47406 837.47107 4289106342
-11.99633 850.43933 839.12811 4289171614
-11.970642 853.77795 839.32715 4288711062
-10.227523 855.83801 837.14014 4288184717
-11.068808 859.1283 838.60626 4288513166
-11.906422 861.11255 838.97131 4288907666
-11.86789 865.75232 838.95935 4289039500
-10.99633 867.75836 838.03479 4288710288
-10.96055 871.729 837.45862 4288512657
-10.949541 874.33752 838.35004 4288578706
-10.920183 877.95081 838.12653 4288513939
-10.062386 880.24194 838.09631 4287988360
-10.877064 883.50342 838.23029 4288447885
-8.3669729 882.86377 837.69092 4292199112
-10.86055 886.42297 838.72998 4288381065
-10.841284 889.3363 839.22437 4288183688
-8.3211012 890.03003 837.19324 4291604924
-9.985321 891.93848 838.80237 4287657089
-8.3027525 893.90039 837.84045 4290881717
-8.3027525 895.80463 839.44611 4290421931
-8.2752295 899.68481 838.7937 4289368212
-7.4311924 901.6333 837.82056 4290881464
-7.4146786 904.83875 837.90723 4290551721
-8.2385321 906.09839 838.96936 4290484383
-7.3862381 910.8985 838.4386 4294566633
-8.1926603 914.38129 839.41321 4294958842
-6.5394497 916.30383 838.41815 4294173940
-6.5174313 920.1167 837.70898 4294966015
-6.5174313 921.98523 839.28442 4294966271
-4.0642204 923.27295 837.75427 4293583082
-4.0642204 925.13727 839.32617 4294768638
-1.6220183 926.4209 837.79236 4293912306
0.81100917 926.4209 837.79236 4294108406
3.2440367 926.4209 837.79236 4293648366
68.124771 926.4209 837.79236 4294967295
-1.6220183 928.28101 839.36072 4293648624
1.6220183 927.66095 838.83789 4293714161
4.3253822 928.07428 839.18646 4294504185
7.2990828 928.28094 839.36072 4294966783
10.543119 928.28101 839.36072 4294967295
13.51682 928.48761 839.53497 4294967295
16.760857 928.48761 839.53497 4294967295
19.46422 928.901 839.88354 4294967295
21.897247 928.901 839.88354 4294967295
24.330275 928.901 839.88354 4294967295
66.502754 928.28101 839.36072 4294967295
25.86422 930.81799 837.57581 4294967295
28.28899 930.81799 837.57581 4294967295
31.522018 931.43591 838.0968 4294967295
63.582874 931.22998 837.92316 4294967295
32.330276 933.28967 839.65979 4294967295
34.695415 934.24396 838.50244 4294967295
61.288074 933.94556 837.59686 4294967295
63.044037 933.28967 839.65979 4294967295
37.815598 937.67981 838.12933 4294966783
40.229359 938.29492 838.64795 4285687680
58.734863 937.67981 838.12933 4294967295
41.270336 939.53735 838.82355 4280817448
43.916821 939.54956 837.96185 4278714368
46.094189 939.53735 838.82355 4288977990
49.023849 939.5434 838.3927 4294767855
52.208256 939.85944 838.00513 4294967295
55.453213 939.54346 838.3927 4294967295
58.734863 939.52515 839.6853 4294967295
61.148624 939.52515 839.6853 4294967295
-20.163303 753.11609 842.0896 4290487726
-21.930275 758.13458 842.39709 4290224305
-20.102753 756.73743 841.21899 4290290350
-20.042202 760.3504 840.34131 4290224305
-21.86422 763.13629 842.69031 4290159277
-20.001835 763.91284 840.729 4290159277
-20.001835 765.99805 842.48718 4290159277
-19.034863 768.89417 841.00507 4290159023
-19.880733 773.16779 840.68433 4290158250
-19.820183 778.11761 840.93372 4289895855
-19.759632 781.67725 840.01111 4289895855
-21.555964 784.42389 842.32703 4289960878
-19.759632 783.05054 841.16907 4290026673
-21.445871 790.7793 841.14563 4289896105
-21.445871 792.14563 842.29761 4289896105
-19.598166 794.3067 840.19568 4289961898
-19.598166 795.66882 841.34424 4290289578
-19.537615 799.86249 840.95605 4289894057
-19.497248 803.3288 841.2627 4289960104
-19.497248 804.68384 842.40527 4289960102
-19.436697 808.85022 841.9942 4289894311
-19.376146 813.67725 842.14014 4289762978
-17.522936 819.89874 840.84576 4289829029
-17.46789 824.0188 840.39563 4289829027
-19.21468 826.68964 842.64758 4289565857
-17.431192 826.75848 840.0896 4289697700
-17.431192 828.75745 841.77509 4289631907
-15.638532 831.52173 840.18176 4289631650
-16.482569 835.22339 841.34076 4289761955
-15.555964 840.96466 841.60358 4289499809
-15.506422 845.01947 841.09851 4289762722
-15.506422 846.33667 842.20911 4289762718
-13.754128 847.7157 840.75574 4289566372
-15.473394 850.34448 842.97229 4289829277
-13.754128 849.03009 841.86401 4289698213
-13.710092 853.05969 841.33752 4289632162
-13.680734 856.3927 841.53186 4289631902
-11.970642 855.08533 840.42957 4288776596
-13.636697 859.74756 840.43652 4289499803
-15.341285 862.35388 842.63403 4289368216
-13.622019 862.38196 841.34973 4289171087
-11.906422 862.4129 840.06775 4288907661
-15.258716 869.64081 842.23804 4289564828
-13.563303 867.69653 840.59869 4289433755
-13.533945 871.63843 841.30634 4289367968
-13.489908 875.59644 840.7196 4289236895
-13.489908 876.88562 841.80652 4289236895
-11.777982 878.22815 840.32239 4289039515
-13.46055 880.15771 841.94934 4289433755
-11.777982 879.51453 841.40698 4289039254
-13.416513 884.08832 841.33948 4289301654
-13.401834 886.67578 842.21313 4289433755
-11.713761 886.70172 840.927 4288710032
-13.34312 892.52405 841.91217 4289367702
-11.252751 892.85474 841.53699 4288512907
-10.540061 895.96747 842.19952 4288578441
-9.9633026 898.97839 842.12219 4288511620
-9.930275 902.21539 840.92749 4288642179
-9.9082565 904.78949 840.48181 4288510337
-9.9082565 906.68323 842.07855 4288311409
-8.2385321 907.35809 840.03149 4292193950
-9.8862381 909.87744 842.15576 4292194222
-9.8532114 914.33911 841.99365 4294302185
-8.1926603 916.26025 840.9975 4294964479
-9.831193 918.13928 842.58179 4293843699
-8.1743116 920.05347 841.57965 4294965247
-6.5174313 923.8537 840.85986 4294967295
-6.5174313 925.72217 842.4353 4294966015
-4.0642204 926.38013 840.37402 4294966783
0 926.38013 840.37402 4293714161
-4.0642204 928.24438 841.94598 4294967039
-1.6256881 928.86578 842.46997 4294174197
0.81284404 928.24438 841.94598 4293977334
3.793272 928.45148 842.12061 4294900223
7.3155961 928.86578 842.46997 4294967295
10.566973 928.86578 842.46997 4294967295
13.005505 928.86578 842.46997 4294967295
16.25688 928.86578 842.46997 4294966271
22.759632 928.86578 842.46997 4294967295
14.598166 930.14105 840.92908 4294900735
17.842201 930.14105 840.92908 4294967295
19.46422 930.14105 840.92908 4294967295
21.086239 930.14105 840.92908 4294967295
25.411621 930.55444 841.27759 4294967295
28.385323 930.76111 841.4519 4294967295
30.818348 931.3811 841.97461 4294967295
34.485626 935.34943 841.39655 4294967295
61.427525 935.14343 841.2229 4294967295
35.563301 936.99719 842.78589 4294967295
37.633026 937.85016 840.88898 4294111739
41.079819 940.12476 841.49896 4278845492
43.546787 939.4942 842.27527 4291470497
45.861465 940.75537 840.72266 4294966261
49.079819 940.75537 840.72266 4294967295
52.298164 940.75537 840.72266 4294967295
55.78471 941.16547 841.06836 4294967295
58.734863 940.75537 840.72266 4294967295
56.321102 943.21588 842.79724 4294967295
-22.062386 750.89185 844.13831 4290290348
-21.99633 754.5174 843.27124 4290224557
-21.930275 759.53174 843.57507 4290159277
-21.86422 764.52924 843.86475 4290159277
-21.86422 765.92218 845.03931 4290158764
-21.820183 768.77832 844.83142 4290158250
-21.754128 773.74493 845.09509 4289961649
-21.688074 778.00385 844.76196 4289829807
-21.46789 793.47607 844.72748 4290026408
-21.445871 796.24451 845.75366 4289894059
-21.379816 799.75507 844.78967 4289960104
-21.379816 801.11713 845.93811 4289960102
-21.203671 811.55188 844.27222 4289697442
-21.203671 813.57825 845.98071 4289567143
-19.376146 815.6972 843.84338 4289567143
-19.376146 817.04388 844.97876 4289828525
-19.315596 820.5011 843.96985 4289959334
-19.275229 823.24786 843.66968 4289762468
-19.21468 828.69281 844.33661 4289631137
-17.431192 830.75641 843.46057 4289631650
-19.174313 832.75531 845.14594 4289499551
-17.376146 836.17114 844.10205 4289696418
-19.113762 838.16382 845.78223 4289368478
-17.3211 840.90283 844.1676 4289565601
-17.284403 844.92889 844.94611 4289631643
-16.367889 848.3125 843.875 4289829277
-16.351376 850.97357 844.81079 4289894557
-15.473394 852.97327 845.18884 4289762205
-15.995107 857.20856 844.83575 4289499547
-16.221102 862.63965 844.8371 4289630619
-18.750458 866.26343 845.93054 4289171101
-16.177065 865.63708 844.09436 4289565342
-17.009174 868.26453 845.00171 4289498778
-15.258716 871.58502 843.87738 4289499035
-15.225688 874.87183 844.03259 4289433760
-15.225688 876.16516 845.12317 4289564828
-15.176147 879.46387 843.98047 4289630619
-15.143119 882.73035 844.11859 4289236367
-15.093578 887.2937 844.04211 4289236626
-15.093578 889.21686 845.6637 4289171603
-13.387156 890.53973 844.16309 4289301654
-15.060551 891.81903 845.24182 4289499280
-13.34312 895.71185 844.60004 4289564307
-11.649541 898.30005 844.16626 4288907149
-13.313762 900.2085 845.77539 4289170068
-11.649541 900.2085 845.77539 4288512137
-11.585321 904.74597 843.06116 4287919481
-13.240367 907.27661 845.19495 4288509796
-11.572477 907.29413 843.90167 4289168250
-11.001835 910.69287 844.5874 4293114809
-11.533945 913.65649 845.34216 4294694883
-9.8532114 915.59454 843.05225 4294236910
-10.385933 919.38068 844.50055 4294106356
-10.63945 922.53772 844.98242 4294172916
-8.1743116 922.55322 843.68744 4294964479
-9.8091745 924.42798 845.26819 4294502397
-8.1743116 924.42798 845.26819 4294963967
-6.5174313 928.2135 844.53589 4294701563
-4.8880734 928.8363 845.06104 4294765053
0.81467891 928.8363 845.06104 4294236649
4.0733948 928.8363 845.06104 4294172923
6.5174313 928.8363 845.06104 4293121507
10.590826 928.8363 845.06104 4291937737
13.849541 928.8363 845.06104 4292266715
22.811008 928.8363 845.06104 4294967295
-3.2513762 930.10864 843.51794 4294962431
-1.6256881 930.10864 843.51794 4294172159
8.1284399 930.10864 843.51794 4292398040
17.069725 930.10864 843.51794 4294176245
19.508257 930.10864 843.51794 4294967295
21.133945 930.10864 843.51794 4294967295
25.198166 930.7301 844.04187 4294967295
28.698471 932.18896 844.3999 4294967295
31.382263 932.61212 843.88477 4294967295
32.440369 933.86115 844.0658 4294967295
34.062386 935.1012 845.11133 4294967295
37.988075 938.23303 843.828 4281089421
38.257492 939.88086 845.21729 4280091921
40.919876 940.30029 844.69897 4287456065
43.074005 940.71222 845.04633 4294966243
46.018349 940.71594 844.61353 4294967295
49.247711 940.716 844.61346 4294967295
52.477062 940.71594 844.61353 4294967295
54.836697 941.34375 843.83478 4294967295
58.062386 940.72723 843.31494 4294967295
-25.816513 750.78229 847.97009 4289961641
-23.972477 750.07739 847.37573 4290158764
-23.900917 754.40576 847.10114 4290159023
-25.73945 756.51416 848.87891 4289895853
-23.829357 758.7215 846.81604 4290159025
-23.829357 760.12286 847.99756 4290159025
-23.757797 765.12036 848.28723 4290158762
-22.753212 770.13477 847.28314 4289896106
-23.638533 772.94873 848.34778 4289962150
-23.495413 782.8399 848.8396 4289829808
-23.423853 786.38269 847.90271 4289896107
-23.280733 796.18127 848.31641 4289894311
-21.379816 802.47925 847.08655 4289960104
-21.313761 805.97296 846.10828 4289894311
-23.042202 810.78168 847.54688 4289762729
-21.203671 814.92908 847.11975 4289631402
-21.203671 816.27997 848.25879 4289827748
-21.137615 819.73718 847.24976 4289696675
-21.07156 823.85724 846.79962 4289565857
-21.07156 825.87091 848.49744 4289696673
-21.027523 828.60645 848.18787 4289630880
-20.961468 832.6991 847.7146 4289696673
-19.174313 834.75427 846.83142 4289433758
-19.113762 839.49225 846.90234 4289630880
-19.113762 840.82068 848.02234 4289499803
-19.919266 844.87549 847.51721 4289893024
-19.012844 847.57172 847.1745 4290024867
-19.012844 849.55383 848.8457 4289630621
-17.229359 851.60547 846.65161 4289630619
-18.952293 853.5813 848.3175 4289565085
-17.192661 854.28766 846.29712 4289564828
-18.911926 856.9165 848.51367 4289434008
-18.851376 860.26569 847.41345 4289237147
-17.137615 858.95551 846.30872 4289499803
-18.851376 861.57587 848.51819 4289367715
-18.750458 868.21814 847.57867 4289171099
-17.009174 871.51544 847.74286 4289236121
-16.954128 876.76965 848.2489 4289301651
-16.917431 880.04523 848.39478 4289038729
-16.862385 883.3313 847.24146 4289236626
-16.825687 886.58936 847.37238 4289171346
-16.825687 888.51886 848.99927 4289302158
-15.64159 892.64764 847.68439 4289694867
-15.060551 895.65698 848.47791 4289433237
-13.34312 897.62451 846.21277 4289236115
-15.011009 900.17474 848.36304 4289168784
-13.313762 901.48083 846.84827 4288643460
-14.131193 904.04089 847.69879 4288313984
-14.092661 907.5686 847.4032 4288772978
-14.343731 910.22894 847.68427 4291272331
-13.623854 913.94257 848.1994 4293314257
-11.533945 914.9162 846.4043 4294432738
-13.181651 917.43555 848.52856 4293580772
-11.495413 919.36096 846.22803 4293844201
-13.137614 921.87195 848.34509 4294236910
-11.469725 923.14996 846.80664 4294763254
-13.108257 925.65533 848.91919 4294763516
-10.63945 925.66589 847.62 4294698749
-8.1743116 926.3028 846.84894 4294701052
-9.8091745 928.17761 848.42969 4293909746
-7.3568807 928.17761 848.42969 4293777645
0.81743121 928.17761 848.42969 4292986839
4.0871563 928.17761 848.42969 4292262101
7.3568807 928.17761 848.42969 4289893820
10.626606 928.17761 848.42969 4290815424
13.89633 928.17761 848.42969 4292462298
17.166054 928.17761 848.42969 4294307576
19.618349 928.17761 848.42969 4294967295
21.25321 928.17761 848.42969 4294967295
-4.0733948 930.08197 846.11145 4293777645
-1.6293578 930.70483 846.6366 4291406789
22.811008 930.08197 846.11145 4294967295
24.440367 930.08197 846.11145 4294967295
28.513762 932.5733 848.21204 4294967295
31.971863 934.25146 847.01105 4294967295
34.873394 936.96124 846.67981 4291812845
37.306423 938.82135 848.24805 4278190145
42.837616 941.94055 846.95398 4294967295
46.070641 941.94055 846.95398 4294967295
49.303673 941.94055 846.95398 4294967295
53.344955 941.94055 846.95398 4294967295
54.961468 941.94055 846.95398 4294967295
43.64587 943.17639 847.99609 4294967295
46.070641 943.17639 847.99609 4294967295
-27.74312 750.68542 851.8125 4289830058
-25.816513 752.89697 849.75317 4289895853
-25.73945 757.91974 850.06396 4289895853
-25.73945 759.32532 851.24915 4290026921
-23.829357 761.52423 849.1792 4290290350
-23.757797 766.51752 849.46533 4289896103
-23.638533 775.03394 850.10602 4289829545
-23.566973 779.2887 849.76941 4289764267
-23.423853 787.76025 849.06421 4290027175
-23.423853 789.82654 850.80646 4289828774
-25.148624 794.03705 850.4325 4289894311
-25.148624 795.41034 851.59045 4289697700
-23.280733 797.55042 849.47083 4289829029
-25.07156 800.28857 851.77966 4289894318
-23.280733 798.91949 850.62524 4289697194
-23.233028 801.70972 850.36182 4289828525
-24.943119 806.56549 850.53198 4289696423
-23.161469 805.20343 849.38354 4289697194
-24.943119 807.92761 851.68054 4289631400
-23.089909 812.08337 851.26044 4289696164
-22.970642 818.30627 849.96729 4289828518
-22.970642 820.33252 851.67578 4289631400
-22.899082 823.77716 850.65613 4289565857
-22.899082 825.12384 851.79163 4289696412
-22.827522 829.22705 851.32727 4289762718
-22.779816 832.62537 851.57654 4289499551
-20.961468 834.70227 849.40369 4289105306
-22.708258 837.37317 851.65564 4289237149
-20.917431 838.08582 849.64056 4289170327
-22.660551 840.08478 851.32593 4289367963
-20.851376 842.14911 849.14246 4289498781
-22.588991 844.80591 851.38269 4289367965
-20.78532 847.52393 849.75031 4289499036
-20.78532 849.51025 851.42517 4289498781
-20.631193 860.85968 851.83838 4289105308
-20.565138 865.50647 851.83228 4289171099
-18.750458 871.47607 850.32568 4289367706
-18.710093 875.41656 851.0321 4289235861
-18.649542 880.01007 850.98108 4289236628
-18.609175 883.27856 851.12103 4289040278
-18.548624 887.19873 850.50232 4289170581
-18.548624 888.48792 851.58923 4289170066
-16.825687 891.09155 851.16846 4289432209
-16.200611 895.63641 850.20459 4289564055
-16.733946 899.495 851.71399 4288971921
-15.844954 902.0874 849.97577 4288643469
-16.642202 905.29773 850.06653 4288970890
-16.642202 906.57007 851.13928 4288707177
-16.605505 909.76917 851.22064 4290811778
-14.895412 912.33777 849.4624 4293048495
-14.862386 916.7832 850.5946 4293578717
-14.005505 919.32507 850.12177 4293842920
-13.983486 922.17102 850.55933 4294303218
-13.944036 926.27319 850.74811 4294238452
-11.469725 926.90796 849.97534 4294106357
-10.63945 928.79407 850.25763 4291998668
-7.3568807 929.42743 849.48364 4290945204
-4.0871563 929.42743 849.48364 4290418602
0.81743121 929.42743 849.48364 4289563283
4.0871563 929.42743 849.48364 4289298319
7.3568807 929.42743 849.48364 4289299340
10.626606 929.42743 849.48364 4290617251
13.911009 928.79407 850.25763 4292986323
16.348623 929.42743 849.48364 4293647338
18.821102 928.79407 850.25763 4293845482
22.070641 929.42743 849.48364 4294967295
25.340366 929.42743 849.48364 4294967295
27.79266 929.42743 849.48364 4294967295
-4.0871563 930.67731 850.53748 4289957525
-1.6348624 930.67731 850.53748 4290022292
19.618349 930.67731 850.53748 4293583593
21.25321 930.67731 850.53748 4294967295
38.92844 940.6814 849.81647 4293449401
40.550457 940.6814 849.81647 4294967271
42.172478 941.30145 850.33923 4294967295
51.904587 940.0614 849.2937 4294967295
40.550457 942.5415 851.38489 4294967288
-28.667891 752.09937 853.00464 4289632684
-28.626606 754.61499 853.1637 4289633703
-33.192661 758.53613 854.50793 4289631402
-31.348623 758.53613 854.50793 4289828525
-28.582569 757.83124 853.91357 4289764264
-25.73945 760.73083 852.43433 4290092968
-27.577982 762.83923 854.21204 4289896105
-25.73945 762.13641 853.61951 4289896103
-25.662386 766.42902 853.31476 4289896872
-27.302752 778.4826 854.32184 4289764011
-25.508257 777.06573 854.43518 4289698222
-25.379816 782.06055 852.10657 4289698472
-25.379816 784.1394 853.85944 4289895077
-25.302752 788.36682 853.49976 4289828775
-30.724771 789.74854 854.66479 4289697700
-28.013762 789.74854 854.66479 4289894307
-27.628134 794.18866 854.48438 4289697696
-25.148624 796.78363 852.74841 4289697194
-26.944954 798.15698 853.90637 4289697947
-25.966972 802.34229 853.51117 4289565859
-24.943119 809.28967 852.82898 4289696423
-24.943119 810.65173 853.97742 4289696162
-24.866055 815.47809 854.1228 4289434273
-24.814678 818.23462 853.83093 4289697194
-24.814678 819.58966 854.97351 4289631650
-24.660551 827.81714 854.0625 4289762718
-24.583487 831.91199 853.59113 4289565087
-22.779816 833.96497 852.70605 4289367965
-24.53211 836.64429 854.96521 4289499549
-24.429358 841.39703 853.74042 4289433245
-22.660551 841.41742 852.44958 4289498781
-24.403669 844.0827 854.6969 4289237408
-24.326605 848.12695 854.18286 4289301919
-22.588991 846.79858 853.06274 4289302433
-22.517431 850.83447 852.54163 4289433760
-20.78532 850.83447 852.54163 4289434010
-22.517431 852.82074 854.21649 4289367708
-20.741285 854.17877 852.74536 4289302680
-20.741285 856.16089 854.41663 4289301665
-22.398165 860.82587 854.42603 4289106073
-22.350458 863.48846 854.05493 4289040278
-20.631193 862.17407 852.94666 4289171099
-20.565138 866.81665 852.93701 4289105306
-20.521101 869.46649 852.5553 4289301656
-20.521101 872.08124 854.76001 4289301654
-20.455046 875.38562 853.62207 4289170579
-19.582569 876.70288 853.42474 4289105042
-22.111927 879.31763 854.32141 4289170581
-20.411009 879.31763 854.32141 4289039765
-20.344954 883.8985 854.25977 4289236374
-20.300917 887.15869 854.39258 4289235860
-18.548624 889.77704 852.67627 4289038482
-21.921101 892.35535 854.85022 4289171081
-19.371559 892.36584 853.55103 4289301652
-18.508257 894.95056 854.42236 4289103759
-16.770641 896.90967 852.15015 4289234578
-18.447706 898.83282 853.77173 4288973201
-18.407339 902.05365 853.87134 4288776066
-19.21376 904.30408 853.80688 4288773761
-19.180733 907.18787 854.27637 4288641138
-18.306421 909.75085 853.82129 4291339139
-16.605505 911.67346 852.82629 4292656320
-16.605505 912.94293 853.89673 4292920784
-16.550459 916.13367 852.66296 4293117914
-16.513762 919.30817 852.72357 4293842662
-16.495413 922.46796 854.07977 4294172657
-14.829358 922.4743 852.7771 4294435572
-16.477064 924.99365 854.90137 4293318118
-13.958715 926.89386 852.57947 4292593114
-13.137614 928.7771 854.16736 4291605961
-10.393272 928.9892 853.47412 4290551988
-7.3816509 929.40906 853.39221 4290287521
0.82018352 929.40906 853.39221 4289892744
4.1009178 929.40906 853.39221 4289234049
7.3816509 929.40906 853.39221 4290024325
10.932111 929.41046 852.95734 4290748579
13.943119 929.40906 853.39221 4292066747
16.385321 929.41333 852.08777 4293253345
18.865139 929.40906 853.39221 4294176241
22.4263 929.40765 853.82697 4294967295
25.397247 929.41333 852.08777 4294967295
29.559633 929.40479 854.69666 4294967295
-4.0963306 930.66602 853.14404 4290681498
-1.6385322 931.29236 853.67212 4290878619
31.132111 930.66602 853.14404 4294967295
-31.53578 751.31018 856.26331 4289764269
-31.442202 754.92737 855.38916 4289961651
-33.192661 760.65076 856.29089 4289696421
-31.348623 760.65076 856.29089 4290025386
-29.504587 760.65076 856.29089 4289830056
-27.577982 764.94757 855.98975 4290027944
-27.495413 769.23175 855.67798 4289829542
-25.662386 769.23175 855.67798 4289764008
-31.161469 771.3338 857.45032 4289630880
-27.412844 773.5033 855.35559 4289960104
-25.662386 771.3338 857.45032 4289764267
-31.06789 774.90045 856.53357 4289434021
-29.240368 774.90045 856.53357 4289499562
-31.885321 779.15521 856.19702 4289632936
-29.152294 779.15515 856.19696 4289830564
-31.8211 782.67975 856.55273 4289697700
-27.900917 781.73798 856.63068 4289764004
-31.72477 787.60425 856.78088 4289697443
-28.099083 786.21832 855.6123 4289763239
-30.724771 791.13025 855.82983 4289696673
-28.917431 791.13025 855.82983 4289631650
-31.628441 792.51196 856.99487 4289696927
-31.532112 796.71411 856.61389 4289435038
-28.829357 796.71411 856.61383 4289500827
-28.741285 800.90356 856.22229 4289500062
-26.944954 799.53027 855.06433 4289566622
-31.43578 802.27692 857.38013 4289564826
-28.741285 802.27692 857.38013 4289631904
-26.862385 805.08044 855.82001 4289697698
-26.862385 807.13409 857.55151 4289696927
-24.943119 812.01385 855.12598 4289499553
-26.724771 814.05701 856.84863 4289893540
-26.642202 818.19385 856.4126 4289696673
-25.728439 820.24829 856.83679 4289630620
-25.662386 823.34247 856.17578 4289762206
-30.038532 827.08685 857.37085 4289564576
-28.271559 827.08685 857.37085 4289433756
-26.504587 825.73602 856.23181 4289762207
-26.422018 829.83716 855.76575 4289433758
-25.502752 832.89136 856.37897 4289500063
-26.339449 835.93933 856.98688 4289434009
-28.036697 839.32355 857.22424 4289171605
-26.284403 839.32355 857.22424 4289105556
-27.948624 842.7149 856.15967 4289041051
-26.201836 842.7149 856.15967 4289041051
-27.889908 845.41528 855.82056 4289171101
-26.14679 845.41528 855.82056 4289171101
-28.761467 846.74792 856.94421 4289302172
-26.14679 846.74792 856.94421 4289236122
-31.277063 851.44806 856.98315 4289433758
-28.670643 851.44806 856.98315 4289301918
-24.905809 851.00519 856.6098 4289301917
-22.517431 854.80707 855.89124 4289500062
-22.469725 857.48224 855.53076 4289237660
-24.121101 863.46027 856.64722 4289039504
-24.956881 865.44739 857.01465 4289366934
-22.350458 865.46008 855.71735 4289170578
-24.069725 867.43164 857.37976 4289170070
-22.350458 867.43164 857.37976 4289170070
-20.565138 869.43701 855.14648 4289301656
-22.850153 871.62061 856.98761 4289301654
-23.086239 874.69604 856.96472 4289236374
-25.568808 877.99194 855.8197 4289236115
-23.86422 877.99194 855.8197 4289236374
-22.13578 880.60675 856.71637 4289105301
-20.411009 880.61804 855.41785 4288908949
-23.812843 883.21875 857.61072 4289236115
-22.040367 885.84277 855.89911 4289170321
-21.992661 889.09869 856.02832 4289170833
-21.921101 893.64447 855.93713 4288973457
-20.234863 893.64447 855.93713 4289103759
-21.921101 894.93359 857.02417 4288973457
-20.190826 896.23688 855.50696 4289038482
-20.190826 897.52325 856.59155 4289039250
-20.124771 900.75604 855.39331 4289170568
-20.080734 904.6123 856.02881 4289101190
-21.68257 910.37567 856.96423 4289761396
-19.445259 910.3786 856.09454 4291470990
-19.138531 913.56775 857.03967 4293050310
-18.266054 916.75146 857.10791 4293907927
-18.205505 919.92957 855.86353 4294368749
-18.743731 922.46063 857.12567 4293711856
-18.165138 924.98938 857.51379 4293383913
-16.477064 926.25336 855.9635 4292726240
-14.829358 926.25336 855.9635 4292199640
-14.829358 927.51306 857.02563 4291736263
-11.533945 927.51306 857.02563 4290224303
9.8862381 927.51306 857.02563 4290814366
16.477064 927.51306 857.02563 4292266952
18.124771 927.51306 857.02563 4294569707
25.53945 927.51306 857.02563 4294967295
28.011009 927.51306 857.02563 4294967295
-9.8532114 930.66028 855.75525 4290090638
-6.5688071 930.66028 855.75525 4290812832
-4.1055045 930.66028 855.75525 4290813086
-1.6422018 931.91577 856.81384 4290944669
1.6422018 930.66028 855.75525 4289958537
32.844036 930.66028 855.75525 4294705151
-33.192661 763.47034 858.66833 4289697190
-31.348623 763.47034 858.66833 4290026154
-29.504587 763.47034 858.66833 4289961639
-33.093578 767.75873 858.35999 4289632164
-31.255045 767.75873 858.35999 4289829799
-29.416513 767.75873 858.35999 4289894822
-29.416513 769.16431 859.54517 4289499553
-34.618347 782.63757 859.13318 4289828262
-32.796329 782.63757 859.13318 4289697700
-34.548622 785.46002 858.89697 4289828513
-32.730274 785.46002 858.89697 4289697700
-34.548622 786.85016 860.06909 4289762722
-36.256882 791.06909 859.70233 4289697179
-34.444038 791.06909 859.70233 4289762972
-36.14679 795.96631 859.90741 4289697445
-34.339451 795.96631 859.90741 4289697445
-34.234863 800.1579 859.51758 4289631904
-31.532112 798.7804 858.35608 4289566109
-34.234863 801.5354 860.67908 4289566107
-31.43578 803.65021 858.53809 4289499296
-28.741285 803.65021 858.53809 4289631650
-34.130276 806.39679 860.854 4289367963
-31.735168 805.48126 860.08203 4289367955
-28.741285 805.71014 860.27502 4289827998
-40.293579 809.87231 859.86035 4289565086
-34.025688 809.87231 859.86035 4289631134
-31.339451 809.18774 859.28314 4289827484
-28.653212 809.87231 859.86035 4289696160
-26.862385 808.50317 858.70593 4289761689
-30.977371 812.18463 859.19403 4289827239
-28.594496 812.64008 859.578 4289696162
-32.168808 814.00635 860.72998 4289565607
-33.851376 818.82428 860.86829 4289827228
-30.881958 817.46216 859.71979 4289696418
-28.506422 816.78113 859.14557 4289630879
-30.194496 820.90961 858.70251 4289893025
-28.418348 820.90961 858.70251 4289893023
-33.746788 822.26752 859.84741 4289499803
-31.051376 822.96118 859.12433 4289696414
-28.359632 823.65491 858.40125 4289696414
-34.563301 825.00995 859.5437 4289564828
-31.904587 825.6875 860.11499 4289499042
-30.038532 829.11316 859.07941 4289434019
-28.271559 829.11316 859.07941 4289368478
-31.805504 831.13947 860.78796 4289434269
-29.06422 833.20374 858.60437 4289499804
-29.06422 834.55042 859.73987 4289302425
-29.851376 837.95294 858.68469 4289434523
-29.78899 840.66321 858.35388 4289500316
-28.761467 848.08057 858.06787 4289301918
-26.14679 848.08057 858.06787 4289235872
-31.376146 850.74585 860.31506 4289367965
-28.670643 853.44061 858.66321 4289302432
-25.195412 853.44067 858.66321 4289302688
-28.670643 855.43329 860.34338 4289171099
-25.156881 856.4444 859.23389 4289105819
-27.713762 860.10394 860.35742 4289367715
-25.115597 859.44183 859.79919 4289105050
-27.655046 862.76788 859.98755 4289694877
-25.844036 866.09467 858.86853 4289301656
-24.956881 868.07898 859.23358 4289367191
-28.367889 871.37482 860.70447 4289629333
-25.78899 870.06042 859.59619 4289563542
-25.706423 874.67773 859.56531 4289366932
-25.651377 878.61816 860.27173 4289236122
-23.941284 877.31079 859.16943 4289105558
-25.568808 881.90143 859.11609 4289170583
-23.86422 880.59827 858.01733 4289170581
-25.568808 883.20465 860.21484 4289170068
-23.812843 884.5191 858.70715 4289104527
-25.513762 887.11987 860.90002 4289434262
-23.812843 885.81946 859.80359 4289236626
-25.431192 890.37933 859.72424 4289104275
-23.735781 889.08313 858.63135 4289302923
-25.431192 891.67548 860.81714 4289104275
-23.684404 892.33203 858.75464 4289104786
-22.802753 895.24744 859.25079 4289105040
-22.764221 898.15649 859.74158 4289366411
-22.43425 901.38226 859.8454 4289102724
-21.801834 904.60242 858.63647 4288708220
-22.616512 907.16882 859.49237 4288380268
-22.555046 910.69019 859.19147 4290484077
-21.68257 913.56348 859.6521 4293443515
-21.634863 916.74854 859.72156 4294168285
-19.970642 915.47626 858.6488 4293513425
-21.634863 918.02087 860.79431 4294103273
-19.926605 918.6557 858.71356 4293711080
-19.86055 923.72546 859.06421 4293383913
-21.515596 924.99072 860.13098 4293187300
-19.012844 925.62134 859.35468 4292725731
-16.513762 926.25189 858.57837 4292196814
-18.165138 927.51434 859.64282 4292264667
-16.513762 928.14563 860.17505 4291803849
-14.021101 928.77478 859.39758 4291079353
-11.546789 928.77478 859.39752 4290223271
-8.2385321 928.77277 858.08777 4290551189
0 928.77277 858.08777 4290550674
4.3975534 928.77411 858.96094 4289497732
7.4229355 928.77478 859.39758 4290484615
10.722018 928.77478 859.39758 4292392623
14.021101 928.77478 859.39752 4293778401
16.495413 928.77478 859.39752 4294307825
18.969725 928.77478 859.39758 4294967295
22.268806 928.77478 859.39758 4294967295
25.596331 928.14563 860.17505 4294967295
28.882568 928.46021 859.78632 4294967295
31.341284 928.77478 859.39752 4289178281
33.85321 928.77686 860.70728 4278255619
-9.8862381 930.03241 859.1499 4290747026
-7.4146786 930.03241 859.1499 4290878615
-4.119266 930.03241 859.1499 4290878876
-1.6477064 931.29211 860.21204 4290681240
0.82385319 930.03241 859.1499 4290221709
3.2954128 930.03241 859.1499 4289891717
36.249542 930.03241 859.1499 4278190147
-34.114677 766.99481 861.64001 4289565856
-33.192661 768.4046 862.82874 4289499814
-37.163303 795.91986 863.79236 4289632158
-37.050461 800.11151 863.40247 4289565851
-34.234863 802.9129 861.84058 4289434010
-36.937614 804.29047 863.00208 4289433757
-41.315598 809.14343 863.16992 4289631134
-42.979816 811.24139 861.01477 4289499549
-39.398167 811.24139 861.01477 4289499549
-37.607338 811.24139 861.01477 4289631134
-34.025688 811.9259 861.59198 4289499806
-32.168808 815.37268 861.88208 4289762209
-33.746788 824.98328 862.13721 4289433758
-33.746788 826.34113 863.28223 4289499551
-31.904587 827.72009 861.82886 4289434273
-31.805504 832.49036 861.92688 4289171353
-31.376146 852.74475 862.00055 4289171098
-29.633028 854.74371 863.68604 4289367965
-27.801834 856.76172 861.4635 4289171101
-26.06422 856.76172 861.4635 4289105308
-29.53945 859.41858 863.70361 4289498779
-27.655046 864.75 861.65875 4289432985
-28.42844 868.72906 861.08972 4289432726
-31.012844 871.36346 863.31104 4289433237
-28.367889 872.68921 861.81274 4289236115
-28.367889 874.0036 862.92102 4289301910
-28.277065 877.95319 862.32715 4289235863
-30.847706 879.91846 863.98413 4289170068
-27.952293 880.35895 862.61157 4289104532
-30.781651 882.54028 863.57886 4289170066
-28.172478 883.52405 862.44629 4289236116
-25.568808 884.50781 861.31372 4289301654
-32.387157 885.81097 862.41248 4289301906
-27.273394 886.46252 862.96191 4289170322
-27.21468 889.72058 863.0929 4289170068
-25.431192 892.97162 861.91003 4289039254
-25.431192 894.26776 863.00281 4289169816
-23.684404 895.56543 861.48096 4289170572
-25.293577 902.02393 863.0025 4288840073
-23.60734 900.09021 861.37207 4289102726
-25.238533 905.24127 863.09912 4288117632
-23.555964 903.9549 862.01453 4288643964
-25.155964 909.73096 862.96069 4290679936
-23.427523 911.00891 861.42224 4291863706
-23.427523 912.28821 862.50098 4293049277
-23.350458 916.11365 861.80237 4293708253
-22.761467 919.29498 862.74072 4293448162
-21.587156 921.82947 861.38965 4293383650
-22.381653 925.31226 862.36414 4293253349
-19.86055 926.25604 861.19788 4293251562
-21.515596 927.5213 862.26477 4293384682
-18.757187 927.94305 862.62042 4292593369
6.6201835 928.78662 863.33167 4290152045
10.757798 928.78662 863.33167 4294966517
13.240367 928.78662 863.33167 4294967295
22.343121 928.78662 863.33167 4294834428
25.65321 928.78662 863.33167 4294967295
28.963303 928.78662 863.33167 4294967295
33.92844 928.78662 863.33167 4278190081
-16.513762 930.03931 861.77185 4292131278
-13.761468 930.46014 862.12665 4291407551
-10.733945 930.67053 862.30408 4290946732
-7.1559634 930.46014 862.12665 4290747287
-4.1284404 930.67059 862.30408 4290614675
-1.6513761 931.30182 862.8363 4290415756
0.82568806 930.03931 861.77185 4290549138
4.1284404 930.03931 861.77185 4289695619
8.2568808 930.03931 861.77185 4294297004
14.862386 930.03931 861.77185 4294967295
16.513762 930.03931 861.77185 4294967295
18.990826 930.03931 861.77185 4294899967
31.376146 930.03931 861.77185 4280492835
37.155964 930.03931 861.77185 4280096021
-36.937614 805.66797 864.16357 4289565341
-36.63731 807.96387 866.0993 4289565342
-43.111927 811.20337 864.90674 4289434010
-40.417431 811.20337 864.90674 4289499546
-35.028442 811.89008 865.48572 4289630619
-43.111927 813.26337 866.64368 4289499549
-40.417431 813.26337 866.64368 4289564571
-37.722935 813.26337 866.64368 4290155679
-35.816513 815.34869 864.47791 4289959070
-40.293579 816.71783 865.63232 4289433500
-35.816513 816.71783 865.63232 4289631132
-31.442202 854.06604 865.73071 4289236122
-29.633028 856.07635 864.80969 4289630880
-29.53945 860.74701 864.82373 4289236376
-31.012844 872.68066 864.42163 4289301654
-31.012844 873.99786 865.53223 4289301654
-29.227524 875.31799 864.0293 4289301654
-30.946789 876.63239 865.13757 4289235861
-32.561466 881.22864 865.08887 4289235861
-34.27523 882.53882 866.1936 4289301906
-30.781651 883.84766 864.68115 4289236365
-29.07156 883.84766 864.68115 4289302158
-34.201836 886.4624 866.88586 4288907915
-31.636698 885.15503 865.78357 4289432975
-29.07156 885.15503 865.78357 4289629585
-34.091743 889.72046 865.70886 4288643974
-31.534864 889.06885 865.15948 4289236367
-28.977982 889.06885 865.15948 4289367697
-32.387157 891.02368 866.80774 4289236624
-27.655506 891.99689 865.66626 4289104020
-25.431192 896.21204 864.64215 4289102734
-27.06789 902.03223 866.93359 4288643976
-26.979816 905.24677 865.71997 4288904835
-26.109175 906.53174 865.49536 4288772466
-26.038532 910.05664 865.19739 4291140207
-25.696634 913.57318 865.32831 4293443519
-25.937614 916.76587 866.27631 4293775325
-25.018349 919.93903 865.02783 4293580259
-28.354128 921.85168 866.6405 4293841886
-25.824772 922.4809 865.86298 4293121246
-23.299082 921.83777 864.0127 4293187300
-25.795414 924.38239 866.1582 4293252577
-22.417431 926.27271 865.13605 4293516010
-19.926605 926.90747 865.67126 4293053917
26.568808 928.177 866.7417 4292135884
28.229359 928.177 866.7417 4294967295
-19.033028 930.05194 864.39844 4292395481
-16.550459 930.68457 864.93188 4292395213
-14.895412 930.68457 864.93188 4292855507
-7.4477062 930.68457 864.93188 4290551962
-4.1376147 931.3172 865.46533 4290550936
-1.6550459 931.3172 865.46533 4290550939
0.82752293 930.05194 864.39844 4290679697
4.1376147 930.68457 864.93188 4289696653
7.4477062 930.05194 864.39844 4293840823
10.757798 930.05194 864.39844 4294967295
14.06789 930.05194 864.39844 4294967039
16.550459 930.05194 864.39844 4294966271
19.033028 930.05194 864.39844 4294899454
22.343121 930.05194 864.39844 4294965503
24.825687 930.05194 864.39844 4293584107
29.790825 930.05194 864.39844 4294967295
31.445871 930.05194 864.39844 4282729797
34.204281 930.47369 864.75409 4280556828
37.652294 931.00092 865.19861 4293055122
39.7211 931.94983 865.99878 4294967277
-37.838531 809.80054 867.64795 4290025375
-37.722935 814.63666 867.80164 4289696160
-33.293579 853.38977 869.08453 4289236373
-31.442202 856.73694 867.98267 4289236120
-31.442202 858.74011 869.67175 4289040024
-29.695414 858.74011 869.67175 4289106073
-34.27523 883.84906 867.29834 4289302158
-30.781651 889.07721 869.09058 4289170068
-31.81896 893.19562 868.63898 4289235338
-28.977982 892.97839 868.45587 4289234576
-27.21468 895.57227 868.02686 4289234063
-27.126606 899.45239 867.37439 4288972171
-28.822018 902.04474 869.56018 4288643460
-30.451376 903.97223 868.56934 4288511874
-28.759632 904.6189 869.11462 4288248957
-31.195412 907.82507 867.89392 4288511360
-28.666056 907.82507 867.89392 4288642168
-31.195412 909.1142 868.98083 4288378993
-28.634863 910.39355 868.75153 4290812028
-26.921101 910.3866 867.43762 4291666581
-30.286238 912.95929 869.60681 4291009428
-28.60367 912.95929 869.60681 4292720046
-26.833027 914.85944 867.28491 4293511123
-30.187157 916.1416 868.36597 4292456638
-28.510092 916.1416 868.36597 4293904084
-30.121101 919.32446 868.43372 4293380307
-28.447706 918.68481 867.89441 4293839574
-26.774311 918.68481 867.89441 4293186271
-30.022018 923.12683 867.7157 4293448414
-28.354128 923.12683 867.7157 4293448414
-30.022018 924.40198 868.79077 4293251299
-28.354128 924.40198 868.79077 4293777643
-25.823854 925.66589 868.54846 4293647595
-22.744341 926.50293 867.94623 4293647086
-22.466972 928.19934 869.37659 4293318636
-19.096329 929.44653 867.81213 4292395751
-13.284404 929.44653 867.81213 4292590827
-10.793578 929.44653 867.81213 4291604937
-8.3027525 929.44653 867.81213 4290815913
0.83027524 929.44653 867.81213 4290946213
7.472477 929.44653 867.81213 4293119979
10.793578 929.44653 867.81213 4294967295
14.114679 929.44653 867.81213 4294966783
16.605505 929.44653 867.81213 4294966527
19.138531 928.19934 869.37659 4294965503
22.466972 928.19934 869.37659 4294966783
25.767891 928.82294 868.59436 4293253342
29.123852 928.19934 869.37659 4294967295
31.550459 929.44653 867.81213 4278650631
33.21101 929.44653 867.81213 4278386688
36.532108 929.44653 867.81213 4293448843
-18.266054 930.716 868.88245 4294240244
-16.605505 930.716 868.88245 4294372342
-14.944954 930.716 868.88245 4294701307
-9.9633026 930.716 868.88245 4294305006
-7.472477 930.716 868.88245 4294436847
-4.1513762 930.716 868.88245 4294306031
-1.6605505 930.716 868.88245 4294372596
4.1513762 930.716 868.88245 4294703100
34.871559 930.716 868.88245 4294960028
36.532108 931.35077 869.41766 4294967295
38.066055 933.84778 867.59912 4294967295
39.7211 933.84778 867.59912 4294967265
-35.119267 851.37744 870.00391 4289368214
-33.363304 854.06232 872.2677 4289170581
-34.201836 890.38458 870.19287 4289170572
-30.781651 890.38458 870.19287 4289300371
-34.201836 891.69196 871.29529 4289301125
-31.636698 892.99933 872.39758 4289168779
-30.68257 896.23633 871.20288 4289102478
-28.977982 895.58472 870.6535 4289168271
-30.616514 898.82312 870.76794 4288906378
-28.915596 898.82312 870.76794 4288906378
-33.834862 908.49896 872.38623 4288773763
-33.72477 911.6925 871.15479 4288706925
-31.476454 910.83301 870.43018 4289233524
-37.097248 912.98163 872.24182 4288380534
-34.56789 912.98163 872.24182 4288642154
-31.968807 914.24561 870.69141 4291535495
-34.212231 916.38959 872.49902 4291798931
-31.968807 915.53198 871.776 4293047212
-31.86422 919.34692 871.0686 4293773522
-33.541283 921.27008 872.69019 4293512419
-30.992661 922.53613 872.44965 4293447653
-28.447706 923.80212 872.20911 4293777645
