# .PCD v0.7 - Point Cloud Data file format
VERSION 0.7
FIELDS x y z rgb
SIZE 4 4 4 4
TYPE F F F U
COUNT 1 1 1 1
WIDTH 1166
HEIGHT 1
VIEWPOINT 0 0 0 1 0 0 0
POINTS 1166
DATA ascii
-27.21468 833.80487 815.94629 4290159025
-25.513762 833.15466 815.39807 4290422452
-23.245871 831.63751 814.1189 4290093491
28.915596 831.2041 813.75342 4294967295
31.183487 833.3714 815.58081 4294967295
-22.888073 835.94067 813.823 4289896369
-25.431192 837.23688 814.91589 4290487993
-23.137613 838.61542 814.33417 4290224816
28.759632 838.65796 813.49805 4294967295
30.484404 838.59412 814.75226 4294967295
-25.376146 841.24463 815.67908 4290420914
30.451376 841.24463 815.67908 4294967295
-25.293577 845.94617 815.71924 4290420916
-22.932844 844.39923 814.41486 4290158002
30.352293 844.65704 814.6322 4294967295
-22.43425 848.21362 815.01495 4289895084
-20.190826 846.71289 813.74957 4289501346
30.286238 847.35602 814.29187 4294967295
-20.124771 850.75299 813.23193 4289697700
30.187157 850.75299 813.23193 4294967295
-22.640366 853.31726 815.39404 4290354094
-20.102753 853.37683 814.13635 4289237410
30.724159 853.35699 814.5556 4294967295
-22.590824 855.99799 815.03845 4290222767
30.121101 855.99799 815.03845 4294967295
-22.238533 860.22113 814.67511 4290026157
-20.014679 859.37103 813.95837 4289499551
30.855965 860.00861 814.49597 4294967295
-22.466972 863.31152 814.66479 4290223537
-19.970642 862.03918 813.59204 4289434269
29.955963 862.67535 814.12842 4294967295
-24.963303 864.5838 815.73767 4290354869
-22.443119 865.27753 815.01453 4290354869
-19.926605 864.70178 813.22095 4289500064
29.092661 864.64282 814.47931 4294967295
-22.381653 868.27924 814.27539 4290420914
29.012844 868.27924 814.27539 4294967295
-22.618963 871.0047 814.61151 4290552752
29.790825 871.21564 814.78925 4294967295
-24.770641 875.7522 815.99829 4290224820
-22.128439 874.74219 815.14673 4290487213
-19.237921 874.98639 813.60858 4289435300
28.883486 874.8338 814.56995 4294967295
-21.420183 878.38531 815.60242 4290354858
-19.772476 877.75549 815.07135 4289632167
29.658716 878.38531 815.60242 4294967295
-18.61162 881.27814 814.11761 4289368739
27.917431 881.06897 813.94116 4294967295
-18.865139 883.63464 814.79639 4289434787
27.855045 884.31714 814.06384 4294967295
-17.983486 886.93201 813.65259 4289302171
27.79266 886.93201 813.65259 4294967295
-19.618349 889.43176 815.76025 4290092455
-17.983486 888.18188 814.70642 4289368476
29.427523 889.43176 815.76025 4294967295
-21.181652 893.95789 815.65247 4289962152
-19.552294 893.33508 815.12732 4289828768
-17.922935 892.08936 814.07703 4289434269
29.32844 893.33508 815.12732 4293851903
-19.508257 896.55164 815.22351 4289961119
-17.340673 895.30878 814.17554 4290290347
28.449541 895.30878 814.17554 4293850363
-17.842201 899.13983 814.78967 4289762970
28.385323 898.51984 814.26691 4294176765
-19.46422 900.37988 815.83533 4290026658
-17.842201 900.37988 815.83533 4289829279
28.338531 901.38678 814.72223 4294900735
-21.014679 904.86536 815.69324 4290026669
-19.398165 904.24744 815.17224 4289895332
-17.230581 904.48804 814.50311 4290356657
28.558411 904.0415 814.99854 4294967295
-16.653824 907.46906 814.40057 4291080898
27.387156 907.4859 813.9787 4294967295
-20.114677 911.22992 815.82751 4289829285
-16.877983 910.66534 814.04346 4290948800
27.355963 909.99969 814.79016 4294967295
-19.266054 913.78583 815.36658 4289631904
-17.660551 913.17212 814.84912 4289960614
27.293577 913.17212 814.84912 4294967295
-16.533333 916.58984 813.8067 4291015365
25.6 915.77435 813.11914 4294967295
-19.200001 918.22083 815.18188 4289697697
-16.508867 919.50763 814.52295 4290751940
-13.834863 919.94775 814.02197 4294967295
25.541285 919.54089 813.67896 4294967295
27.168808 919.49109 814.94489 4294967295
-16.761467 921.98175 815.73694 4290291902
-13.292966 922.01398 814.89215 4294967295
-11.148623 922.68738 813.71594 4294967295
23.889908 922.68738 813.71594 4294967295
25.482569 922.68738 813.71594 4294967295
27.137615 921.98175 815.73694 4294967295
-10.341284 925.16962 814.50079 4294967295
-7.1504583 925.82544 813.74573 4294967295
20.656881 925.82544 813.74573 4294967295
23.06789 925.16962 814.50079 4294967295
25.482569 924.51379 815.25586 4294967295
-9.5339451 927.04022 814.77002 4294967295
-7.1504583 927.04022 814.77002 4294967295
-3.7051985 927.88153 814.60724 4294967295
-1.5871559 928.30212 814.52594 4294967295
0.52966362 927.88153 814.60724 4294967295
3.972477 927.04022 814.77002 4294967295
7.1467886 927.97491 814.90405 4294967295
10.316514 928.30212 814.52594 4294967295
13.490826 928.30212 814.52594 4294967295
16.684402 927.64764 815.28223 4294967295
19.862385 927.64764 815.28217 4294967295
22.245872 927.04022 814.77002 4294967295
-36.036697 751.94476 818.86548 4290290861
-34.234863 750.56726 817.70398 4290357169
-32.433029 750.56726 817.70398 4290489273
32.433029 750.56726 817.70398 4294967295
-35.028442 754.89771 817.43127 4290488498
-40.21101 762.77026 817.52911 4290619313
-37.530273 762.77026 817.52911 4290620084
32.168808 762.0871 816.95312 4294967295
-39.196331 767.06494 817.2262 4290685621
-37.41468 767.06494 817.2262 4290685621
-35.039143 766.15692 816.46063 4290357434
-32.069725 765.70288 816.07776 4290357440
32.069725 765.70288 816.07776 4294967295
-39.196331 768.42706 818.37463 4290685621
-37.41468 768.42706 818.37463 4290619572
-34.689907 769.54761 817.35736 4290553534
-31.970642 770.66809 816.34009 4290685119
-37.299084 772.70496 818.0575 4290422714
-34.907642 772.97565 817.41376 4290684607
-31.018349 773.51715 816.12634 4290881982
31.904587 773.51715 816.12634 4294967295
33.746788 772.026 817.48499 4294967295
-37.222019 776.22729 818.4115 4290488767
-33.677063 774.87225 817.26892 4290684865
33.677063 775.5498 817.84021 4294967295
-34.455963 778.45575 816.36633 4290619844
-30.922018 778.45575 816.36633 4290619072
33.572475 779.80658 817.50537 4294967295
-36.990826 783.37744 816.59216 4290226111
-34.348625 783.37744 816.59216 4290160320
-31.706423 783.37744 816.59216 4290487995
-29.944954 783.37744 816.59216 4290750910
33.467892 783.37744 816.59216 4294967295
-37.753212 788.28235 816.80371 4290553788
-33.363304 788.28235 816.80371 4290554814
-31.60734 788.28235 816.80371 4290489021
-29.851376 788.28235 816.80371 4290554814
34.296333 787.17657 817.83337 4294967295
-36.798164 791.09644 816.56042 4290487995
-34.169724 791.09644 816.56042 4290422715
-31.541285 791.09644 816.56042 4290488508
-28.912844 791.09644 816.56042 4290554048
33.293579 791.09644 816.56042 4294967295
-33.293579 792.43604 817.68994 4290422202
-31.541285 792.43604 817.68994 4290554301
34.169724 793.10583 818.2547 4294967295
33.188992 796.64233 817.3125 4294967295
34.862385 801.43854 818.74048 4294967295
34.752293 806.28174 818.90002 4294967295
-37.240368 809.78381 817.92883 4290356406
34.6422 809.78381 817.92883 4294967295
-34.568806 811.89374 817.09174 4290028982
-32.264221 811.67352 816.90607 4290028470
32.840366 811.23303 816.53467 4294967295
34.568806 812.55444 817.6488 4294967295
-34.568806 813.87585 818.76294 4290422198
-32.840366 813.87585 818.76294 4290488247
34.568806 813.87585 818.76294 4294967295
-31.443577 817.68762 818.05286 4290290103
-28.67523 817.8797 816.47089 4290290362
31.857798 817.05994 816.86963 4294967295
34.458717 818.67554 818.88586 4294967295
-30.946789 821.42786 818.59058 4290356152
-29.227524 820.77063 818.03644 4290290360
32.666054 820.77063 818.03644 4294967295
-28.277065 824.2356 817.03381 4290225589
-25.706423 823.58051 816.48145 4290356920
32.561466 824.89069 817.58618 4294967295
-30.847706 826.20087 818.69092 4290291895
-28.247707 826.26196 817.43439 4290160051
-25.651377 826.323 816.17786 4290225588
31.636698 826.97668 816.729 4294967295
-30.781651 828.93774 818.38257 4290357167
-29.07156 828.93774 818.38257 4290225838
-30.68257 833.68414 818.46045 4290027442
-28.409784 832.38092 817.36163 4290028208
32.387157 831.07776 816.26294 4294967295
-27.781652 835.97211 817.77368 4290224050
32.317432 835.10522 817.04272 4294967295
34.018349 836.40558 818.13916 4294967295
-27.126606 839.82916 817.10168 4290355121
-25.431192 838.53302 816.00879 4290355123
32.212845 839.18109 816.55524 4294967295
-27.126606 841.12531 818.19458 4290486707
-25.376146 842.53802 816.76965 4290486707
32.14312 842.53802 816.76965 4294967295
33.908257 841.12531 818.19458 4294967295
-27.913761 844.47803 818.4054 4290224049
32.14312 843.83136 817.86011 4294967295
-28.666056 848.52448 817.89319 4290224305
-26.417738 847.66504 817.16846 4290289327
32.038532 847.23529 816.80615 4294967295
-30.352293 849.8136 818.9801 4290158764
-28.666056 849.8136 818.9801 4290158764
-25.799387 850.78632 817.18408 4290486446
-22.71468 849.92871 816.46106 4290026156
31.968807 849.92871 816.46106 4294967295
33.72477 849.8136 818.9801 4294967295
-28.60367 852.5014 818.63025 4290027175
-26.038532 853.55042 817.55273 4290486959
31.86422 854.59937 816.47522 4294967295
33.651375 852.5014 818.63025 4294967295
-28.510092 857.16364 818.63733 4290026408
-26.255655 856.77411 817.43683 4290223536
-23.427523 857.27728 816.11707 4290157747
31.794495 857.27728 816.11707 4294967295
33.541283 855.88147 817.55627 4294967295
-25.937614 859.19629 817.73517 4290420916
33.467892 859.19629 817.73517 4294967295
-25.852295 862.55884 816.6463 4290223538
31.689909 862.55884 816.6463 4294967295
33.3578 863.19641 817.18384 4294967295
-28.354128 864.4715 818.25903 4289960876
-25.824772 865.16382 817.53473 4290157492
31.620184 865.85614 816.81042 4294967295
33.3578 864.4715 818.25903 4294967295
-28.291742 868.40076 818.95593 4289763754
-25.767891 868.45483 817.69348 4290092211
31.550459 869.14502 816.96747 4294967295
33.247707 868.4541 817.69293 4294967295
-26.568808 871.04926 818.57312 4289697970
33.21101 871.04926 818.57312 4294967295
-25.929052 874.37891 817.45636 4289961136
31.445871 874.37891 817.45636 4294967295
-24.770641 877.646 817.59509 4290552240
-23.119267 877.646 817.59509 4290551982
31.376146 878.27722 818.12732 4294967295
-21.969419 880.4848 817.37262 4290551470
29.658716 880.27484 817.19562 4294967295
-24.715597 882.16437 818.78882 4290355121
-22.208256 883.18604 817.68817 4290355123
-19.706423 884.20764 816.58752 4289367965
29.559633 884.20764 816.58752 4294967295
31.306421 882.16437 818.78882 4294967295
-24.633028 886.71857 818.70471 4290355123
-22.169724 885.46313 817.64612 4290552505
-19.662386 886.82251 816.17627 4290026662
29.493578 886.82251 816.17627 4294967295
32.022934 886.09082 818.17542 4294967295
-24.577982 889.32782 818.2887 4290224305
-22.095413 889.37842 817.02332 4290224816
31.132111 888.70148 817.76062 4294967295
-25.340366 892.5564 818.3949 4290092969
-22.888073 891.93146 817.86792 4290225068
31.062386 892.5564 818.3949 4278257688
-24.440367 896.44922 817.75317 4290356145
-22.267889 895.61884 817.05292 4290224553
32.587154 896.44922 817.75317 4278190084
-25.255047 897.69489 818.80347 4290223537
-21.692968 898.17554 817.46478 4290157734
-19.508257 897.79449 816.27148 4290223521
31.429968 898.62305 816.97003 4278190095
-22.18471 901.58673 817.72485 4290026664
31.647705 901.90503 817.77527 4278190082
34.13945 900.28021 818.36731 4285952135
-24.330275 904.10004 818.97205 4290092453
32.440369 904.10004 818.97205 4278190080
-24.247707 908.57288 818.81934 4290092966
-22.092356 906.51318 817.08252 4289896103
-19.90642 907.81268 816.43427 4289763491
29.06422 907.38477 816.50952 4294967295
31.117889 907.646 818.03778 4283251257
-24.192661 911.13446 818.36304 4290158250
-22.579817 909.90143 817.32349 4290158762
29.031193 910.51794 817.84326 4294967295
30.644037 911.13446 818.36304 4294967295
-22.52844 913.69043 817.90204 4290223271
-20.919266 912.46014 816.86475 4289960613
28.965137 913.69037 817.9021 4294967295
30.574312 914.92065 818.93933 4294967295
-22.477064 917.46808 818.47131 4290615978
-20.33639 915.42236 816.7464 4290157478
28.363913 916.24066 817.43634 4294967295
-20 920.05566 816.729 4290223017
-17.6 919.44403 816.21326 4289698209
28.799999 920.66724 817.24475 4294967295
-22.4 921.89044 818.27612 4289563792
-20 921.89044 818.27612 4289368461
-16.761467 923.20215 816.76599 4289108625
-13.568808 923.20215 816.76599 4294967295
27.968807 922.54626 817.52106 4294967295
-19.155964 925.03271 818.30945 4292259762
-16.761467 925.03278 818.30945 4292791509
-13.568808 925.03271 818.30945 4294967295
-10.617737 926.54315 816.96698 4294967295
-7.1669722 926.94904 817.3092 4294967295
-4.7779818 926.94904 817.3092 4294967295
1.5926605 926.94904 817.3092 4294967295
3.9816513 926.94904 817.3092 4294967295
23.359022 926.54315 816.96698 4294967295
25.482569 926.34021 816.79584 4294967295
27.137615 924.42255 817.79492 4294967295
-3.1853211 928.16663 818.33582 4294967295
-1.5926605 928.16663 818.33582 4294967295
0 929.46985 816.8186 4294967295
3.1853211 928.16663 818.33582 4294967295
7.1669722 928.16663 818.33582 4294967295
10.352293 928.16663 818.33582 4294967295
13.537615 928.16663 818.33582 4294967295
16.722935 928.16663 818.33582 4294967295
19.908257 928.16663 818.33582 4294967295
22.297247 928.16663 818.33582 4294967295
34.234863 754.69977 821.18848 4294967295
34.130276 758.33099 820.32617 4294967295
34.130276 759.70428 821.48401 4294967295
34.921101 764.00745 821.18829 4294967295
33.955963 766.18604 820.40918 4294967295
35.633026 771.83228 821.24585 4294967295
35.522934 776.09961 820.9198 4294967295
35.449543 778.93744 820.69666 4294967295
37.222019 778.93744 820.69666 4294967295
35.339451 782.5083 819.78345 4294967295
37.222019 780.29254 821.83923 4294967295
37.106422 783.85919 820.92236 4294967295
35.229359 787.41742 819.99854 4294967295
36.990826 788.7641 821.13403 4294967295
35.119267 790.96729 819.06763 4294967295
36.875229 792.98096 820.76544 4294967295
35.045872 795.11536 819.9491 4294967295
36.798164 796.45496 821.07861 4294967295
34.93578 798.64551 819.00146 4294967295
36.682568 799.98096 820.12756 4294967295
34.862385 802.77118 819.86414 4294967295
36.682568 801.31641 821.25354 4294967295
36.605503 804.10382 820.98779 4294967295
36.48991 807.61011 820.02014 4294967295
-39.838531 811.10803 819.04541 4290486707
-36.951683 811.5495 819.41766 4290356403
36.374313 811.77014 819.6037 4294967295
-36.374313 813.75647 821.27844 4290618801
-34.568806 815.19727 819.8772 4290617775
-32.840366 815.19727 819.8772 4290617775
34.568806 815.19727 819.8772 4294967295
37.201836 814.47687 820.57782 4294967295
-34.568806 816.51862 820.99133 4290355371
36.297249 816.51862 820.99133 4294967295
-37.043121 821.30994 821.10718 4290487220
-34.458717 821.30994 821.10718 4290290611
-32.735779 820.65137 820.55182 4290356145
34.458717 820.65137 820.55182 4294967295
-31.806421 823.39941 820.25293 4290356662
34.385323 824.05664 820.80701 4294967295
-36.104588 825.37103 821.91528 4290356156
-34.385323 825.37103 821.91528 4290290613
-32.666054 825.37103 821.91528 4290290613
34.27523 827.51111 819.79565 4294967295
36.104588 825.37103 821.91528 4294967295
-31.671558 829.5332 820.19257 4290093491
34.201836 830.24512 819.48486 4294967295
-37.622017 832.85986 821.68958 4290224305
-35.056881 832.85986 821.68958 4290158000
-32.491745 831.55249 820.58728 4290027444
34.201836 831.55249 820.58728 4294967295
-31.534863 835.63892 820.1087 4290224048
-34.944038 837.59363 821.75684 4289830568
-31.501835 838.29999 821.04443 4290027691
-28.915596 838.35614 819.78381 4290159021
34.907341 837.64978 820.49622 4294967295
-34.018349 840.3067 821.42847 4290027175
-31.417431 841.36414 820.35791 4290158509
-28.822018 842.42151 819.28735 4290224305
34.813759 841.36414 820.35791 4294967295
-33.908257 845.01379 821.47314 4290157747
-31.647707 844.14972 820.74457 4290026412
34.755962 844.36572 820.9267 4294967295
-31.297249 847.06476 820.58643 4290158255
33.834862 846.41809 820.04114 4294967295
-31.195412 851.10272 820.06714 4290026921
-33.72477 852.39185 821.15405 4289961128
-31.162384 853.08978 820.43445 4290026920
-28.60367 853.78772 819.71484 4289961126
-33.651375 856.36041 821.88416 4289698213
-31.407951 855.50293 821.16113 4289829800
35.333946 855.0741 820.79956 4294967295
-31.025688 859.08679 820.25891 4289829289
-28.510092 858.44574 819.71838 4290092205
35.218349 858.44574 819.71838 4294967295
36.895412 859.72791 820.79944 4294967295
-33.504585 862.34192 821.69556 4289698726
-30.957798 862.39453 820.43188 4289764010
-28.447706 861.11523 819.35315 4290026673
35.141285 861.75488 819.89252 4294967295
36.855045 862.34192 821.69556 4294967295
-30.022018 865.74664 819.33411 4289961128
-28.354128 865.74664 819.33411 4289829799
35.025688 865.74664 819.33411 4294967295
-33.3578 868.29688 821.4845 4290026410
-31.133947 867.44678 820.76776 4290091947
-29.123852 869.6731 820.02869 4289697961
34.987156 868.34741 820.21899 4294967295
36.693577 868.29688 821.4845 4294967295
-31.620184 870.94537 821.10156 4289697959
-29.092661 871.63208 820.3725 4289500327
34.079819 871.63208 820.3725 4294967295
-29.059631 874.22302 821.24908 4289894568
34.041283 873.58832 820.71387 4294967295
-28.13578 878.17474 820.65698 4289960613
-26.480734 876.90948 819.59009 4290223273
34.204281 877.33124 819.94574 4294967295
-28.93211 880.12109 820.99011 4289960869
-25.871559 879.96051 819.54663 4290223277
31.376146 879.53967 819.19177 4294967295
33.577984 880.38135 819.90155 4294967295
-33.027523 882.0647 821.3208 4290091431
-31.376146 882.0647 821.3208 4290223273
-28.603058 882.93774 821.18488 4289894568
-25.814066 883.84399 820.20502 4290091951
32.954128 883.42407 819.85095 4294967295
34.640366 883.37427 821.11694 4294046193
-31.306421 885.94342 821.97522 4289894820
-28.788074 886.95874 820.86926 4289960617
-26.275229 887.97406 819.76331 4289960876
32.844036 887.97406 819.76331 4292207103
34.601833 885.94342 821.97522 4287272649
-31.201836 890.48499 821.88049 4289698726
-28.70734 889.90503 820.08344 4290026411
32.770641 890.58051 819.34497 4278190182
34.48624 890.48499 821.88049 4278190110
-28.674313 891.83319 820.40125 4289632679
32.770641 891.83319 820.40125 4278190121
34.409176 893.08588 821.4574 4279835184
-31.062386 895.05615 820.50262 4289764265
-28.610092 895.05615 820.50256 4289303462
-26.157799 894.43121 819.97571 4289697959
34.332111 895.68109 821.02954 4278584877
-27.699083 898.94055 819.85376 4289894309
-25.255047 898.94055 819.85376 4290157224
-30.957798 901.43182 821.95435 4289894307
-28.513762 900.80896 821.4292 4289632415
-25.488686 901.4917 820.26093 4289697698
34.13945 902.14453 819.93927 4282072903
-25.170643 904.67444 820.76434 4290092453
32.440369 905.34009 820.01758 4278190080
34.062386 905.34009 820.01758 4278190080
-25.952293 906.58014 821.06311 4289632415
34.062386 906.58014 821.06311 4280745984
-27.480734 911.04456 820.90332 4289631904
-25.86422 910.42664 820.38232 4289631136
32.330276 910.42664 820.38232 4293453033
-32.330276 912.2804 821.94543 4289630880
-28.28899 912.2804 821.94543 4289828009
-24.999083 913.60052 820.44238 4290288038
31.719267 913.60052 820.44238 4294967295
-24.137615 916.76599 820.49536 4290419623
30.574312 916.15088 819.97668 4294967295
-24.082569 919.92291 820.54126 4290024614
-22.477064 918.6955 819.50623 4290549935
31.039755 919.51373 820.19629 4294967295
-24.885323 921.15033 821.57617 4289234075
-22.4 923.11365 819.3075 4289035377
-20.799999 923.11365 819.3075 4289693050
28.799999 923.11365 819.3075 4294967295
31.307339 921.15033 821.57617 4294967295
-23.200001 924.94849 820.85449 4289888114
-20.266666 925.15234 821.02643 4294434513
-16.761467 926.86334 819.85303 4294967295
-13.568808 926.86334 819.85303 4294967295
-10.376146 926.86334 819.85303 4294967295
-7.183486 926.86334 819.85303 4294967295
-4.788991 926.86334 819.85303 4294967295
1.5963303 926.86334 819.85303 4294967295
4.788991 926.86334 819.85303 4294967295
23.944954 926.86334 819.85303 4294967295
25.6 925.56006 821.37024 4294967295
27.733332 924.74463 820.68262 4294967295
-16.761467 928.08374 820.88196 4294967295
-13.568808 928.08374 820.88196 4294967295
-10.376146 928.08374 820.88196 4294967295
-6.3853211 928.08374 820.88196 4294967295
-3.1926606 928.08374 820.88196 4294967295
-1.5963303 928.69397 821.39648 4294967295
0.5321101 928.92407 820.71844 4294967295
3.9908257 928.08374 820.88196 4294967295
7.4495411 928.49054 821.22491 4294967295
10.376146 928.08374 820.88196 4294967295
13.568808 928.08374 820.88196 4294967295
16.761467 928.08374 820.88196 4294967295
19.954128 928.08374 820.88196 4294967295
23.14679 928.08374 820.88196 4294967295
36.256882 748.7981 824.06055 4294967295
34.339451 751.06018 822.0437 4294967295
36.14679 752.44189 823.20874 4294967295
36.14679 753.82361 824.37378 4294967295
36.937614 758.14355 824.09222 4294967295
39.640366 758.83234 824.67297 4294967295
35.926605 761.07764 822.64197 4294967295
37.722935 763.13757 824.37891 4294967295
35.816513 766.06104 822.9198 4294967295
37.607338 767.43018 824.07422 4294967295
37.530273 770.28491 823.86523 4294967295
37.41468 773.87537 822.96851 4294967295
39.07523 780.17322 824.35461 4294967295
37.106422 785.21008 822.0614 4294967295
38.873394 787.9118 824.33948 4294967295
38.752293 791.4574 823.40491 4294967295
38.631191 794.99463 822.46338 4294967295
38.631191 797.0083 824.16119 4294967295
38.550457 800.47394 824.46729 4294967295
38.429359 803.98724 823.50549 4294967295
38.348625 806.76904 823.23499 4294967295
-40.833946 810.93121 822.82031 4290158767
-38.227524 811.5954 823.38037 4290487216
38.227524 810.26697 822.26025 4294967295
-36.374313 815.08069 822.39502 4290486959
38.106422 815.08069 822.39502 4294967295
-36.374313 816.40491 823.5116 4290356143
-34.568806 817.84003 822.10547 4290356143
37.201836 817.12244 822.80853 4294967295
39.838531 817.72913 824.62805 4294967295
-40.618347 819.16144 823.21973 4290356143
37.161469 819.16144 823.21973 4294967295
-40.488991 823.28577 822.77307 4290356404
-37.330276 823.06622 822.58795 4290487483
-34.458717 822.62714 822.21777 4290356406
37.330276 823.06622 822.58795 4294967295
-40.488991 825.26154 824.43909 4290290613
-37.250763 827.12354 823.39301 4290224568
-34.385323 826.68542 823.02356 4290224566
36.984402 826.98663 823.93158 4294967295
-35.132111 830.13147 822.005 4289961652
-39.416515 832.75183 824.21448 4290027696
35.988991 831.44165 823.10974 4294967295
37.702751 832.09674 823.66211 4294967295
-40.187157 836.1283 824.44543 4289961644
-37.622017 834.82092 823.34308 4289962156
-35.056881 834.16724 822.79187 4290027181
35.911926 834.16724 822.79187 4294967295
37.622017 835.47461 823.89429 4294967295
-37.500916 838.89679 822.85571 4289896105
-35.796329 838.89679 822.85571 4289896105
37.500916 838.89679 822.85571 4294967295
-39.205505 840.19995 823.95447 4290289578
-37.460548 841.55371 823.7879 4289895339
-35.152294 842.04053 822.89038 4290092460
35.719265 841.60706 822.5249 4294967295
37.500916 840.19995 823.95447 4294967295
-37.420185 844.20776 824.71777 4289894824
-35.719265 844.20776 824.71777 4289960617
37.420185 844.20776 824.71777 4294967295
-38.14679 848.90228 824.75183 4289763495
-34.755962 846.95801 823.11249 4289960620
35.603668 846.30994 822.56604 4294967295
-37.218349 851.59149 824.40332 4289566891
-34.680733 849.65143 822.76746 4289895337
35.526604 849.65143 822.76746 4294967295
-34.84893 854.11066 822.60333 4289698472
-34.531193 856.953 823.69183 4289632933
-35.333946 858.93311 824.05334 4289436068
-36.895412 863.57428 824.0426 4290221734
-35.218349 862.29211 822.96155 4289828775
38.572475 862.93323 823.50208 4294967295
-34.583485 865.3797 822.94879 4290091175
36.814678 864.95325 822.58923 4294967295
-34.191742 869.57196 822.55957 4289895335
36.693577 869.57196 822.55957 4294967295
-34.191742 871.48462 824.1723 4289829286
-31.620184 872.21771 822.17432 4289828775
36.693577 871.48462 824.1723 4294967295
-33.284405 874.76233 824.31982 4289828262
-31.620184 874.12616 823.78345 4289828775
36.612843 874.76233 824.31982 4294967295
-34.871559 878.66632 824.99561 4289894820
-31.550459 877.39679 823.92517 4290287783
-29.889908 876.12732 822.85474 4289829027
37.362385 878.03156 824.46039 4294967295
-36.411011 881.97064 823.85767 4289698724
36.411011 880.70538 822.79077 4294967295
-36.330276 884.58966 823.44983 4289764002
-33.85321 883.95837 822.9176 4289895332
-31.376146 883.32715 822.38538 4289960613
-29.724771 883.32715 822.38538 4289697446
36.908871 883.71759 823.58661 4281223083
-37.155964 885.85217 824.51428 4289895586
-34.678898 885.85217 824.51428 4289961126
-32.130276 887.20312 823.03735 4289895592
34.601833 887.20312 823.03735 4278190181
36.330276 885.85217 824.51428 4278190157
-37.073395 888.46283 824.09949 4289895333
-34.601833 888.46283 824.09949 4290026921
-32.954128 888.46283 824.09949 4289961898
36.249542 888.46283 824.09949 4278191153
-36.949539 892.99597 823.99768 4289763498
-34.48624 892.36823 823.46838 4289632935
-32.844036 892.36823 823.46838 4289764265
36.128441 892.36823 823.46838 4279697428
-39.324772 895.59119 823.56982 4290026408
-36.866974 896.21753 824.09796 4289829798
-34.409176 896.21753 824.09796 4289566883
-31.916513 896.26105 822.8266 4289501602
-29.427523 896.93091 822.08337 4289696673
36.047707 896.21753 824.09796 4289958102
-37.601833 899.43066 824.19104 4289698209
-35.149544 899.43066 824.19104 4289630880
-32.152294 898.59741 823.48846 4289500061
-30.957798 902.67749 823.00464 4290157478
-28.513762 902.67749 823.00464 4290157726
35.845871 902.67749 823.00464 4284505663
-37.475231 903.92316 824.05493 4290091681
-35.031193 903.92316 824.05493 4289827230
-31.772476 903.92316 824.05493 4289959068
-28.449541 905.25165 822.55908 4290090654
-34.952293 907.7373 824.65491 4289631650
-31.429968 906.90869 823.95636 4289566620
-28.385323 907.82019 822.10876 4289763488
34.13945 906.49445 823.60706 4278190080
-34.062386 910.30029 824.19983 4289630880
-31.629358 909.6803 823.67706 4289632161
-29.196331 909.06024 823.1543 4289500062
34.062386 909.6803 823.67706 4291677645
-37.179817 914.75208 824.02942 4289695128
-34.755043 914.75208 824.02942 4289893021
-31.522018 914.13416 823.50842 4289958809
-28.28899 914.13416 823.50842 4290090146
33.946789 914.75208 824.02942 4294967281
-31.450459 917.29962 823.5614 4290551203
-28.22477 917.29962 823.5614 4290484910
-25.805504 916.06659 822.52173 4290287781
32.256882 916.06659 822.52173 4294967268
33.869724 917.29962 823.5614 4294967295
-34.676147 918.53265 824.60107 4290090906
-31.450459 918.53265 824.60107 4290682789
-28.193577 919.18713 823.84485 4290419372
-25.74679 918.61133 822.05127 4290353322
33.869724 918.53265 824.60107 4294967295
-27.850763 922.35156 823.46094 4288574843
-25.688074 922.99152 823.12854 4287846996
28.899082 923.60522 823.646 4294967295
31.039755 922.78693 822.95605 4294967295
-28.096329 924.83264 824.68091 4291661196
-25.688074 924.83264 824.68091 4294957788
-23.200001 926.78326 822.40161 4294967295
-20 926.78326 822.40161 4294967295
-8 926.78326 822.40161 4294967295
-4.8000002 926.78326 822.40161 4294967295
25.6 926.78326 822.40161 4294967295
28.049541 925.80798 823.54126 4294967295
30.504587 924.83264 824.68091 4294967295
-22.4 928.00653 823.43298 4294967295
-20 928.00653 823.43298 4294967295
-16.799999 928.61816 823.94873 4294967295
-13.599999 928.6181 823.94867 4294967295
-10.4 928.61816 823.94867 4294967295
-7.1999998 928.61816 823.94867 4294967295
-4 928.61816 823.94873 4294967295
-1.6 929.22974 824.46436 4294967295
0.80000001 928.61816 823.94867 4294967295
4 928.61816 823.94867 4294967295
6.9333329 928.82202 824.12061 4294967295
10.4 928.61816 823.94873 4294967295
13.599999 928.6181 823.94867 4294967295
17.066666 928.41425 823.77679 4294967295
20 928.61816 823.94873 4294967295
22.4 928.00653 823.43298 4294967295
24.799999 928.61816 823.94873 4294967295
38.069725 751.56995 826.39771 4294967295
40.78899 752.26294 826.98199 4294967295
37.954128 755.20538 825.53882 4294967295
39.761467 755.20538 825.53882 4294967295
41.568806 756.5871 826.70386 4294967295
43.376148 757.27795 827.28638 4294967295
45.183487 757.96881 827.8689 4294967295
40.541283 760.89862 826.41528 4294967295
40.417431 765.88416 826.69482 4294967295
39.398167 769.48376 825.80585 4294967295
39.398167 771.53748 827.53735 4294967295
39.07523 781.53113 825.49951 4294967295
38.994495 784.35773 825.26685 4294967295
40.851376 784.24689 827.78943 4294967295
40.766972 787.06787 827.552 4294967295
40.640366 791.28894 827.18695 4294967295
40.51376 796.17065 827.37909 4294967295
40.387157 800.36438 826.99097 4294967295
40.302753 803.1532 826.72632 4294967295
40.176147 806.65814 825.75757 4294967295
40.091743 809.43433 825.4823 4294967295
-40.963303 810.76697 826.60596 4290158764
40.091743 811.43323 827.16779 4294967295
-40.833946 814.25226 825.62061 4290224555
-38.227524 814.25226 825.62061 4290092714
39.838531 820.37756 826.86121 4294967295
39.754128 824.44708 827.67639 4294967295
-40.77615 827.01776 825.91992 4290158772
-40.446789 829.26367 826.50549 4290158513
39.627522 829.21313 827.77087 4294967295
39.543118 831.94299 827.45667 4294967295
39.416515 836.02728 826.97626 4294967295
-41.042202 838.08942 826.099 4290289578
39.332111 839.39679 827.20129 4294967295
-42.614677 842.15479 825.60266 4290158763
-40.0578 842.15479 825.60266 4290224554
37.500916 841.50317 825.05322 4294967295
-42.522934 845.50818 825.81421 4290092966
-39.971558 845.50818 825.81421 4290027175
-37.420185 845.50818 825.81421 4289894572
37.420185 845.50818 825.81421 4294967295
39.205505 844.1095 827.25085 4294967295
-42.522934 846.80853 826.91064 4289829797
-40.822018 846.80853 826.91064 4289894824
37.420185 846.80853 826.91064 4294967295
-40.689907 850.19843 825.84473 4289829547
-38.994495 850.8465 826.39117 4289698218
-37.218349 853.53149 826.03906 4289369759
-38.00367 856.51001 826.58838 4289566631
38.910091 855.47156 827.6748 4294967295
-42.155964 860.12671 827.6759 4290223271
-40.469727 859.48218 827.13239 4289960359
-37.900002 859.5285 825.8634 4289762982
40.469727 860.12671 827.6759 4294967295
-40.381653 862.79211 827.30713 4290091685
-38.699081 862.14893 826.76483 4290025893
40.381653 862.79211 827.30713 4294967295
-36.895412 865.49744 825.66418 4290026407
38.572475 865.49744 825.66418 4294967295
-36.814678 868.7912 825.82532 4290027173
38.572475 867.42065 827.28577 4294967295
-36.814678 870.71021 827.44342 4290092454
38.488075 871.34985 827.98279 4294967295
-36.693577 874.67242 826.86023 4290221988
-35.025688 873.39734 825.78503 4289894561
-36.612843 877.30695 826.46545 4289894820
-34.116516 876.03461 825.39258 4290024610
38.277065 876.03461 825.39258 4294967295
39.941284 877.30695 826.46545 4294967295
38.192661 879.93579 826.06592 4278396490
39.85321 880.57056 826.60114 4278583376
38.066055 884.50122 825.99133 4278190167
38.066055 885.76654 827.05823 4279244869
39.7211 885.76654 827.05823 4280100165
-37.073395 889.72247 825.16162 4289764263
37.981651 889.00842 827.1756 4280025105
39.633026 889.63965 827.70789 4283171840
-39.324772 898.09656 825.68225 4289698209
36.047707 898.09656 825.68225 4288508081
-39.236698 901.30548 825.77191 4289762972
-37.601833 900.68054 825.245 4290091935
-35.149544 900.68054 825.245 4289630880
-32.697247 900.68054 825.245 4289696927
35.966972 901.93042 826.29883 4278190091
-39.236698 903.1803 827.35266 4289829281
-37.475231 905.16882 825.10522 4289829281
-35.031193 905.16882 825.10522 4289696927
35.966972 903.1803 827.35266 4278190080
-37.390827 908.98016 825.70288 4289630880
-35.765137 908.98016 825.70288 4289630880
35.845871 907.66016 827.20593 4290491556
-37.390827 910.22302 826.75085 4289564828
-34.873394 911.54034 825.24548 4289760924
34.913761 911.50311 826.52216 4294967295
-37.179817 915.98792 825.07141 4289694869
-34.755043 915.98792 825.07141 4290024346
35.563301 916.60583 825.59247 4294967295
-37.179817 918.45959 827.15552 4290549924
-34.676147 920.3822 826.16052 4289826713
-31.719267 920.1767 825.9873 4289167997
34.716515 919.11267 826.39813 4294967295
-33.869724 922.23175 827.72009 4286735465
-31.158409 922.25519 826.86786 4287325499
-28.965137 922.302 825.16321 4288836460
32.183487 922.91711 825.68182 4294967295
33.831192 922.26685 826.44165 4294967295
-31.378899 924.76245 827.23779 4289228140
-28.096329 926.06006 825.71582 4293839589
-24.885323 926.06006 825.71582 4294967295
28.096329 926.06006 825.71582 4294967295
31.344036 925.41125 826.47681 4294967295
-28.096329 927.28748 826.75073 4294967295
-24.885323 927.28748 826.75073 4294967295
-22.477064 927.28748 826.75073 4294967295
-19.801222 927.69659 827.0957 4294967295
-16.8578 928.51489 827.78577 4294967295
-13.64679 928.51489 827.78577 4294967295
-11.238532 928.51489 827.78577 4294967295
-1.6055046 928.51489 827.78577 4294967295
0.80275232 927.90118 827.26825 4294967295
4.0137615 928.51489 827.78577 4294967295
7.2247705 928.51489 827.78577 4294967295
10.43578 928.51489 827.78577 4294967295
13.64679 928.51489 827.78577 4294967295
16.590216 928.10577 827.44073 4294967295
20.068806 928.51489 827.78577 4294967295
22.477064 927.90118 827.26825 4294967295
24.885323 928.51489 827.78577 4294967295
28.096329 927.28748 826.75073 4294967295
-9.6000004 930.45294 825.49573 4294967295
-7.1999998 930.45294 825.49573 4294967295
-4 930.45294 825.49573 4294967295
43.728439 749.20679 830.94531 4294967295
45.321102 754.34186 828.73486 4294967295
43.376148 760.04144 829.61646 4294967295
45.183487 759.35059 829.03394 4294967295
41.442204 762.9649 828.15735 4294967295
43.244038 764.34241 829.31885 4294967295
41.315598 767.94415 828.43164 4294967295
43.244038 765.71997 830.48035 4294967295
41.315598 770.00415 830.16858 4294967295
43.111927 769.31744 829.5896 4294967295
39.398167 772.90656 828.69177 4294967295
41.104588 775.75006 828.47327 4294967295
41.104588 777.11639 829.62537 4294967295
40.977982 780.68585 828.71094 4294967295
42.627522 786.96265 830.07922 4294967295
42.539448 791.13312 830.97974 4294967295
42.407341 794.66614 830.03455 4294967295
39.965137 818.23749 828.98083 4294967295
40.618347 826.4292 829.34766 4294967295
41.35046 830.53033 828.88159 4294967295
41.35046 831.84753 829.99219 4294967295
41.262386 835.229 830.22729 4294967295
41.130276 839.30273 829.73804 4294967295
40.187157 841.35785 828.85486 4294967295
39.205505 845.41266 828.34973 4294967295
37.460548 848.06396 829.27716 4294967295
39.205505 847.36743 829.99786 4294967295
-40.822018 849.40924 829.10339 4289764267
39.121101 850.70959 830.19995 4294967295
-38.994495 852.79077 828.03052 4289501098
40.601833 856.76489 828.76538 4294967295
42.293579 859.35156 830.94641 4294967295
-42.155964 862.70502 829.84979 4290026155
-40.469727 863.99414 830.93677 4289829547
-42.06422 864.07843 828.39172 4290026410
-40.381653 864.07843 828.39172 4289829545
-38.699081 865.36475 829.47632 4289961131
40.381653 865.36475 829.47632 4294967295
-38.572475 869.98492 829.44788 4290091951
38.572475 868.70276 828.36682 4294967295
-38.488075 872.62915 829.0614 4289960102
40.161469 872.62915 829.0614 4294967295
-38.488075 873.90851 830.14014 4289829027
40.729355 882.43555 829.48163 4279704635
40.617432 886.02283 829.23639 4278190080
37.981651 890.9021 828.77234 4294964223
40.824463 889.14062 829.90314 4291145130
37.981651 892.16461 829.83679 4294966271
39.633026 893.42712 830.90137 4294967295
37.897247 895.39111 829.94122 4293716956
37.770641 900.52881 830.34924 4278190088
35.966972 904.43011 828.40649 4284569691
37.686237 904.35992 830.96338 4278190080
35.845871 908.90576 828.25623 4294967295
37.601833 906.92987 830.51416 4286479998
37.475231 910.77429 829.83167 4293453799
37.306423 915.88049 828.90497 4294967295
-37.179817 919.69543 828.19751 4290748071
-35.563301 920.93127 829.23962 4288248705
35.563301 920.31335 828.71857 4294967295
37.179817 919.69543 828.19751 4294967295
-34.676147 923.46478 828.75977 4286865237
34.716515 922.81592 829.52069 4294967295
37.179817 922.16711 830.28162 4294967295
-33.869724 924.69781 829.79932 4292916144
-31.450459 925.31433 830.31915 4294832631
-28.22477 925.93085 830.83899 4294967295
31.378899 925.99268 828.27502 4294967295
33.869724 925.31433 830.31915 4294967295
-24.942204 927.2229 829.31238 4294967295
-22.52844 927.2229 829.31238 4294967295
-20.382874 928.04303 830.00391 4294967295
-16.896332 928.45312 830.34961 4294967295
-13.677982 928.45312 830.34961 4294967295
-10.43578 929.74231 828.82068 4294967295
-7.2247705 929.74231 828.82068 4294967295
-4.0137615 929.74231 828.82068 4294967295
-1.6055046 929.74231 828.82068 4294967295
1.0727829 928.47284 829.4942 4294967295
4.0192661 929.09772 829.58514 4294967295
7.2247705 929.74231 828.82068 4294967295
10.43578 929.74231 828.82068 4294967295
13.64679 929.74231 828.82068 4294967295
16.8578 929.74231 828.82068 4294967295
20.068806 929.74231 828.82068 4294967295
22.52844 928.45312 830.34961 4294967295
24.91468 929.09772 829.58514 4294967295
28.160549 927.2229 829.31238 4294967295
31.378899 927.2229 829.31238 4294967295
45.321102 758.49963 832.2406 4294967295
45.635323 763.84119 832.82031 4294967295
43.244038 768.47498 832.80334 4294967295
45.045872 769.85248 833.96484 4294967295
43.111927 772.75073 832.4845 4294967295
42.93578 778.4314 832.04218 4294967295
42.759632 783.41003 831.00793 4294967295
42.627522 788.3205 831.22412 4294967295
44.403671 791.03625 833.51404 4294967295
42.407341 796.69238 831.74304 4294967295
42.27523 800.88397 831.35327 4294967295
42.27523 802.90399 833.0564 4294967295
42.14312 807.74786 833.21655 4294967295
41.922935 814.00305 831.95056 4294967295
41.834862 818.09644 832.78595 4294967295
41.702751 822.22278 832.34106 4294967295
43.302753 828.32281 833.56042 4294967295
43.21101 831.05414 833.24731 4294967295
43.073395 835.1405 832.76874 4294967295
42.981651 838.51495 832.99792 4294967295
41.130276 841.9231 831.94751 4294967295
41.042202 845.27997 832.16187 4294967295
41.042202 847.24103 833.81543 4294967295
-40.910091 849.97375 832.1955 4289632170
40.822018 852.01001 831.29626 4294967295
42.293579 860.64496 832.03687 4294967295
42.293579 861.93829 833.12744 4294967295
-42.155964 865.92786 832.56726 4289828527
-40.469727 865.28333 832.0238 4289763752
42.155964 865.92786 832.56726 4294967295
-42.06422 869.22382 832.73022 4289631916
-40.381653 868.58063 832.18793 4289828776
40.381653 867.93744 831.64563 4294967295
41.926605 875.1134 833.77209 4278190114
41.697247 879.77289 831.16077 4280690759
43.317432 883.63196 833.10657 4279238680
44.054131 886.88293 833.23163 4284440216
40.548622 890.82776 831.32568 4294967290
44.004585 888.82233 833.55884 4285686436
41.376148 892.72571 832.92596 4290295000
43.858715 893.35834 833.45935 4281221160
40.458717 895.3208 832.49805 4285096384
37.897247 897.28058 831.53442 4279177518
39.544952 898.54028 832.5965 4278912336
37.770641 901.7843 831.40784 4278190080
40.189911 904.95392 832.77228 4281209888
40.099998 907.52246 832.32196 4283188810
40.054131 910.05457 833.14886 4292401112
39.104588 913.26562 831.93225 4294967295
39.852291 916.73291 832.8938 4294967295
38.117432 919.60059 832.04169 4294967295
35.563301 923.40295 831.32361 4294967295
38.054131 922.43182 832.46686 4294967295
35.563301 925.25671 832.88666 4294967295
37.179817 925.25671 832.88666 4294967295
-31.450459 927.16388 831.87866 4294963711
-28.22477 927.16388 831.87866 4294967295
-24.999083 927.16388 831.87866 4294967295
-22.579817 927.7804 832.3985 4294967295
-20.160549 928.39691 832.91833 4294967295
-16.934864 928.39691 832.91833 4294967295
-13.709174 928.39691 832.91833 4294967295
-10.483486 929.01343 833.43823 4294967295
-7.2541285 929.33502 833.0553 4294967295
-4.0293579 929.33502 833.0553 4294967295
-1.6110091 929.65662 832.67249 4294967295
0.53761464 929.23676 832.75439 4294967295
4.0321102 928.39691 832.91833 4294967295
7.2577982 928.39691 832.91833 4294967295
10.459633 929.68335 831.38696 4294967295
13.677982 929.68335 831.38696 4294967295
16.896332 929.68335 831.38696 4294967295
20.138531 929.04016 832.15265 4294967295
22.52844 929.68335 831.38696 4294967295
24.97156 929.04016 832.15265 4294967295
28.22477 927.7804 832.39856 4294967295
31.18165 927.57489 832.22528 4294967295
33.869724 927.16388 831.87866 4294967295
14.482569 930.91357 832.42419 4294967295
47.372478 756.17151 836.81775 4294967295
47.133945 761.27155 834.57776 4294967295
49.095413 759.0473 836.62646 4294967295
48.946789 764.0434 836.91504 4294967295
46.388378 766.71973 835.2475 4294967295
45.045872 772.60754 836.28784 4294967295
44.908257 776.18402 835.37927 4294967295
44.908257 777.55731 836.53723 4294967295
44.770641 781.12115 835.61816 4294967295
46.561466 782.4903 836.77258 4294967295
44.678898 783.94788 835.3855 4294967295
46.466057 785.31415 836.53748 4294967295
44.541283 787.49628 834.45337 4294967295
44.403671 793.07312 835.23138 4294967295
44.311928 796.55341 835.54993 4294967295
44.174313 800.06958 834.59058 4294967295
44.174313 801.42041 835.72961 4294967295
44.036697 805.59729 835.32733 4294967295
43.899082 811.104 836.04639 4294967295
43.669724 818.67706 835.8916 4294967295
43.57798 821.42798 835.59509 4294967295
43.440369 824.87964 834.5813 4294967295
45.321102 822.76062 836.71863 4294967295
45.177982 827.53644 836.82153 4294967295
45.034863 830.97125 835.79358 4294967295
44.939449 833.69696 835.47559 4294967295
44.342659 838.78247 835.18555 4294967295
-42.981651 841.8009 835.76862 4289764265
43.554737 842.02002 835.95331 4294967295
44.223854 858.51178 836.77844 4294967295
44.080734 862.5119 836.22711 4294967295
42.155964 868.50616 834.74121 4292730592
42.06422 871.79645 834.89941 4278190192
43.603668 876.39557 834.85315 4281412431
43.508255 879.02582 834.45496 4280690507
45.181652 881.58447 836.6123 4278714368
44.004585 890.09186 834.62927 4281948581
46.495415 890.09186 834.62927 4278190107
46.495415 891.99609 836.23492 4279835199
44.134556 895.04541 834.88184 4279243340
41.284405 897.84583 834.62708 4279639109
43.373394 898.14636 835.53455 4280623688
40.368805 901.05963 834.72083 4278650892
42.840366 902.31934 835.78296 4278388520
42.697247 905.55072 834.5835 4278190080
40.963303 908.11792 834.13208 4282202947
42.697247 906.80621 835.64209 4280877056
40.871559 911.92932 834.72961 4294967295
42.601833 909.37061 835.18823 4284435332
44.141285 914.42908 836.8374 4294967295
42.363304 917.00256 835.08313 4294967295
40.6422 919.54443 834.61041 4294967295
42.363304 918.87103 836.65869 4294967295
38.92844 923.3208 835.17841 4294967295
40.596329 922.67474 835.94177 4294967295
38.92844 925.18085 836.74683 4294967295
40.550457 925.18085 836.74683 4294967295
-31.2526 927.52246 834.79706 4294634749
-28.127338 928.09912 835.28333 4294833151
-25.055964 928.34625 835.4917 4294966783
-22.092356 928.7583 835.83905 4294967295
-19.398165 928.34631 835.4917 4294967295
-16.973394 928.34631 835.4917 4294967295
-13.740367 928.34631 835.4917 4294967295
-10.507339 929.58215 836.53381 4294967295
-7.274312 929.58215 836.53381 4294967295
-4.0412846 929.58215 836.53381 4294967295
-1.6165137 929.58215 836.53381 4294967295
0.80825686 928.96423 836.01276 4294967295
4.0412846 928.34631 835.4917 4294967295
7.274312 928.34631 835.4917 4294967295
10.507339 928.34631 835.4917 4294967295
13.740367 928.96423 836.01276 4294967295
17.242813 928.7583 835.83905 4294967295
19.398165 928.96423 836.01276 4294967295
21.822937 928.96423 836.01276 4294967295
25.325384 928.7583 835.83905 4294967295
28.28899 928.96423 836.01276 4294967295
31.68367 928.59344 835.7002 4294967295
34.755047 928.34625 835.4917 4294967295
37.179817 927.72839 834.9707 4294967295
47.515594 752.54596 837.68481 4294967295
51.016514 758.9574 839.16675 4294967295
50.004585 761.13251 838.38464 4294967295
49.551071 766.35327 838.86261 4294967295
46.388382 769.48322 837.57758 4294967295
48.798164 770.40436 838.35425 4294967295
46.847706 773.98505 837.44934 4294967295
49.701836 771.78607 839.51929 4294967295
46.847706 775.36255 838.61084 4294967295
48.64954 776.74011 839.77234 4294967295
46.704586 778.9306 837.69519 4294967295
48.500916 780.30396 838.85315 4294967295
48.352295 784.54395 838.50409 4294967295
46.466057 787.36359 838.26556 4294967295
46.322937 791.58252 837.8988 4294967295
48.253212 789.41302 839.99353 4294967295
46.322937 792.94464 839.04724 4294967295
46.179817 797.14673 838.6662 4294967295
46.084404 800.61865 838.97766 4294967295
45.941284 805.47302 839.14661 4294967295
44.036697 807.61731 837.03052 4294967295
45.798164 808.96393 838.16602 4294967295
43.899082 812.44641 837.17822 4294967295
45.798164 810.31061 839.30151 4294967295
43.899082 813.78888 838.31018 4294967295
45.655045 814.46008 838.87616 4294967295
45.559631 817.88928 839.15149 4294967295
47.163303 821.3479 838.14355 4294967295
46.192661 824.09326 837.84229 4294967295
47.06422 825.42584 838.96594 4294967295
46.915596 829.52905 838.50159 4294967295
46.766972 833.61969 838.02661 4294967295
46.667889 836.33972 837.70398 4294967295
46.667889 838.32184 839.37524 4294967295
-42.981651 844.42969 837.98517 4289566634
43.841286 844.42969 837.98523 4294967295
46.519264 843.70227 839.98779 4294967295
-42.981651 846.40131 839.64758 4289763752
43.841286 846.40131 839.64758 4294967295
44.557796 851.09442 839.68042 4294967295
44.319267 855.83801 837.14014 4294967295
46.023853 857.14117 838.23889 4294967295
45.92477 859.81219 837.87488 4294967295
45.92477 861.11255 838.97131 4294967295
44.080734 864.45618 837.86646 4290826741
45.776146 865.75232 838.95935 4278190187
43.985321 867.75836 838.03479 4281349530
45.677063 869.69843 839.67053 4278982467
43.842201 871.729 837.45862 4278190118
45.478897 874.33679 838.34943 4280031549
45.280735 878.95984 837.01526 4278190097
46.495415 893.90039 837.84045 4280756300
46.495415 895.16986 838.91089 4280887884
44.686237 899.05212 838.26025 4280690764
46.341286 899.05212 838.26025 4279966784
44.587154 902.26453 838.35278 4278716685
46.341286 900.95007 839.8606 4280811554
44.587154 903.52704 839.41736 4279631872
44.488075 906.09839 838.96936 4278190112
43.212845 910.58862 837.95929 4292203734
44.141285 916.30383 838.41815 4294967295
43.177982 920.1167 837.70898 4294967295
45.776146 918.17865 839.9989 4294967295
42.842815 922.63605 838.08917 4294967295
38.92844 926.4209 837.79236 4294967295
40.550457 926.4209 837.79236 4294967295
43.080734 925.13727 839.32617 4294967295
-27.574312 928.901 839.88354 4294636031
-25.141285 928.901 839.88354 4294635775
-21.626913 928.48761 839.53497 4294967295
-19.46422 928.28101 839.36072 4294967295
-17.031193 927.66095 838.83789 4294967295
-13.51682 928.07428 839.18646 4294967295
-9.73211 928.901 839.88354 4294967295
-8.1100922 928.901 839.88354 4294967295
-4.0550461 928.901 839.88354 4294967295
1.6220183 928.28101 839.36072 4294967295
4.0550461 928.28094 839.36072 4294967295
7.0287461 928.07428 839.18646 4294967295
10.543119 927.66095 838.83789 4294967295
12.976147 928.28101 839.36072 4294967295
17.031193 928.28101 839.36072 4294967295
19.46422 928.901 839.88354 4294967295
21.897247 928.901 839.88354 4294967295
24.870947 928.48761 839.53497 4294967295
29.196331 928.901 839.88354 4294967295
31.629358 928.901 839.88354 4294967295
34.873394 928.901 839.88354 4294967295
37.847095 928.07428 839.18646 4294967295
-1.6165137 930.81799 837.57581 4294967295
0 930.81799 837.57581 4294967295
27.480734 930.81799 837.57581 4294967295
49.640366 749.48627 842.95312 4294967295
50.913761 763.21771 840.14294 4294967295
52.732109 764.60791 841.31506 4294967295
52.732109 765.99805 842.48718 4294967295
50.759632 769.58716 841.58936 4294967295
52.572475 770.28015 842.17365 4294967295
48.798164 773.16779 840.68433 4294967295
50.451378 779.49512 842.09521 4294967295
48.352295 786.5976 840.23572 4294967295
48.253212 790.7793 841.14563 4294967295
48.253212 792.14563 842.29761 4294967295
48.104588 796.34985 841.91846 4294967295
47.020184 801.93652 841.39685 4294967295
47.85688 804.68384 842.40527 4294967295
47.708256 809.52563 842.56372 4294967295
47.411011 816.47375 840.57397 4294967295
49.06422 820.56854 841.41052 4294967295
48.910091 824.0188 840.39563 4294967295
49.783485 826.02197 842.08459 4294967295
49.678898 828.75745 841.77509 4294967295
48.65321 832.18591 840.74182 4294967295
49.444954 835.22339 841.34076 4294967295
48.499084 838.25439 841.93451 4294967295
46.667889 840.30396 841.04651 4294967295
46.519264 845.01947 841.09851 4294967295
44.700916 847.7157 840.75574 4294967295
46.519264 846.33667 842.20911 4294967295
46.420185 849.03009 841.86401 4294967295
46.271561 852.4046 840.78516 4294967295
47.882568 857.70007 842.63416 4294967295
