# .PCD v0.7 - Point Cloud Data file format
VERSION 0.7
FIELDS x y z rgb
SIZE 4 4 4 4
TYPE F F F U
COUNT 1 1 1 1
WIDTH 1163
HEIGHT 1
VIEWPOINT 0 0 0 1 0 0 0
POINTS 1163
DATA ascii
0 849.01776 1293.1239 4294967295
-25.774311 856.90637 1293.2354 4294967295
-25.774311 858.69775 1294.7457 4294967295
2.3431194 858.69775 1294.7457 4294967295
-25.693579 865.15137 1294.9551 4294967295
-23.357798 864.25848 1294.2023 4294967295
2.3357799 866.04419 1295.708 4294967295
4.6715598 866.04419 1295.708 4294374911
-23.266054 872.06714 1294.2462 4294967295
-20.939449 872.06714 1294.2462 4294967295
2.3266056 872.06714 1294.2462 4294967295
4.6532111 872.06714 1294.2462 4292667903
-25.592661 873.84589 1295.746 4294967295
6.9798164 873.84589 1295.746 4282468965
9.3064222 873.84589 1295.746 4283461245
-23.174313 880.71967 1295.0016 4294967295
4.6348624 879.8338 1294.2546 4293915135
6.9522934 880.71967 1295.0016 4289374650
9.2697248 880.71967 1295.0016 4289110221
-23.100918 886.19348 1294.3848 4294901759
-20.790825 886.19348 1294.3848 4294901759
2.3100917 886.19348 1294.3848 4294967295
4.6201835 886.19348 1294.3848 4294967295
-23.009174 893.00409 1293.5872 4294310143
-19.557798 893.00409 1293.5872 4294244095
2.3009174 893.00409 1293.5872 4294967295
4.6018348 893.00409 1293.5872 4293981695
-23.009174 894.76312 1295.0704 4294244863
-20.708258 894.76312 1295.0704 4294113279
2.3009174 894.76312 1295.0704 4294967295
4.6018348 894.76312 1295.0704 4294243583
6.9027524 894.76312 1295.0704 4284243318
-22.917431 902.40771 1294.9761 4294375679
-19.861773 901.23969 1293.9912 4294244095
2.291743 902.40771 1294.9761 4294967295
4.5834861 902.40771 1294.9761 4294967295
6.8752294 902.40771 1294.9761 4290427592
-22.844036 907.79456 1294.2859 4294046719
2.2844036 907.79456 1294.2859 4294967295
4.5688071 907.79456 1294.2859 4294966527
-25.128441 909.54102 1295.7584 4294244095
2.2844036 909.54102 1295.7584 4294967295
4.5688071 909.54102 1295.7584 4294835711
6.8532109 909.54102 1295.7584 4291151317
9.1376143 909.54102 1295.7584 4289834950
-25.027523 917.10559 1295.5967 4294046719
-22.752293 915.36621 1294.13 4293980927
2.2752295 915.36621 1294.13 4294967295
4.5504589 916.2359 1294.8633 4294769407
6.8256879 917.10559 1295.5967 4291282135
10.238532 917.10559 1295.5967 4289835720
13.651376 917.10559 1295.5967 4290031819
-22.6789 920.69971 1293.3949 4293915135
-20.411009 920.69971 1293.3949 4293849087
2.26789 920.69971 1293.3949 4294573311
4.53578 920.69971 1293.3949 4294638079
-22.6789 922.43353 1294.8568 4294112511
2.26789 922.43353 1294.8568 4294442239
4.53578 922.43353 1294.8568 4294375423
6.8036699 922.43353 1294.8568 4290822870
-15.823853 928.60303 1294.8267 4294703098
-13.563303 928.60303 1294.8267 4294835711
-10.172478 928.60303 1294.8267 4294243583
-6.7816515 928.60303 1294.8267 4294507263
-4.521101 928.60303 1294.8267 4294111999
-2.2605505 929.46716 1295.5553 4294177279
0 928.60303 1294.8267 4294112767
-34.473396 760.48376 1296.9562 4294967295
14.774312 760.48376 1296.9562 4293585151
17.236698 760.48376 1296.9562 4293585151
-34.473396 762.36627 1298.5435 4294967295
17.236698 762.36627 1298.5435 4293585151
19.699083 762.36627 1298.5435 4293388027
-34.344955 768.84229 1297.4637 4294967295
14.719266 768.84229 1297.4637 4293453567
17.172478 768.84229 1297.4637 4293321982
19.625689 768.84229 1297.4637 4293387775
26.985321 768.84229 1297.4637 4293124602
29.438532 768.84229 1297.4637 4292992753
-34.216515 775.29034 1296.3604 4294967295
9.7761469 775.29034 1296.3604 4293454846
13.442202 775.29034 1296.3604 4293388798
-34.216515 777.15887 1297.9358 4294967295
13.442202 777.15887 1297.9358 4293520637
17.108257 777.15887 1297.9358 4293257722
-34.088074 784.50256 1297.5878 4294967295
9.7394495 783.57184 1296.803 4292862198
12.174312 784.50256 1297.5878 4293125372
-33.933945 793.26868 1297.131 4294967295
9.6954126 792.34216 1296.3497 4292335591
13.331193 794.19525 1297.9122 4292663789
-33.805504 800.53528 1296.7178 4294967295
-31.390825 800.53528 1296.7178 4294967295
-28.976147 800.53528 1296.7178 4294967295
9.6587152 800.53528 1296.7178 4292006374
13.280734 800.53528 1296.7178 4292466924
-33.805504 802.38135 1298.2743 4294967295
13.280734 802.38135 1298.2743 4292466666
16.902752 802.38135 1298.2743 4292532200
-31.271559 808.68622 1297.0503 4294967295
-28.866055 808.68622 1297.0503 4294967295
9.6220188 808.68622 1297.0503 4291611620
14.433027 808.68622 1297.0503 4292137192
-33.677063 810.52527 1298.601 4294967295
-31.271559 810.52527 1298.601 4294967295
9.6220188 810.52527 1298.601 4291611366
13.230275 810.52527 1298.601 4292071658
-33.548622 818.62714 1298.8921 4294967295
-31.152294 817.71118 1298.1198 4294967295
11.981651 817.71118 1298.1198 4291809257
14.377981 817.71118 1298.1198 4291939816
16.774311 818.62714 1298.8921 4291808743
-31.033028 823.94946 1296.8396 4294967295
11.14006 823.64532 1296.5831 4291415268
14.322936 824.862 1297.609 4291545575
-30.937614 830.55737 1297.1791 4294967295
2.3798165 830.55737 1297.1791 4294967295
4.7596331 830.55737 1297.1791 4293784063
7.1394496 830.55737 1297.1791 4290823383
10.709174 830.55737 1297.1791 4291086051
-33.317432 832.37677 1298.7131 4294967295
-30.937614 832.37677 1298.7131 4294967295
2.3798165 832.37677 1298.7131 4294967295
4.7596331 832.37677 1298.7131 4293849855
7.1394496 832.37677 1298.7131 4291020762
10.709174 832.37677 1298.7131 4291348959
14.278899 832.37677 1298.7131 4291546338
16.658716 832.37677 1298.7131 4291480545
-30.818348 838.55127 1297.3792 4294967295
-28.447706 838.55127 1297.3792 4294967295
2.3706422 838.55127 1297.3792 4294967295
4.7412844 838.55127 1297.3792 4294769919
7.1119266 838.55127 1297.3792 4291348693
-30.818348 840.36365 1298.9072 4294967295
-28.447706 840.36365 1298.9072 4294967295
2.3706422 840.36365 1298.9072 4294967295
4.7412844 840.36365 1298.9072 4294506495
7.1119266 840.36365 1298.9072 4291282646
10.667891 840.36365 1298.9072 4291085018
-28.337614 844.69769 1296.0215 4294967295
-25.976147 844.69769 1296.0215 4294967295
2.3614678 844.69769 1296.0215 4294967295
-30.699083 846.50305 1297.5438 4294967295
-28.337614 846.50305 1297.5438 4294967295
2.3614678 846.50305 1297.5438 4294967295
4.7229357 846.50305 1297.5438 4294047231
7.0844035 846.50305 1297.5438 4290823383
-30.579817 854.41278 1297.6729 4294967295
-28.227524 854.41278 1297.6729 4294967295
-25.875229 852.61444 1296.1565 4294967295
2.3522935 853.51361 1296.9147 4294967295
4.704587 852.61444 1296.1565 4294047231
-28.117432 860.48901 1296.2561 4294967295
2.3431194 860.48901 1296.2561 4294967295
-28.117432 862.2804 1297.7666 4294967295
2.3431194 862.2804 1297.7666 4294967295
4.6862388 862.2804 1297.7666 4293980671
-28.029358 869.61566 1298.7192 4294836223
-25.693579 868.72278 1297.9664 4294967295
2.3357799 867.82996 1297.2136 4294967295
4.6715598 867.82996 1297.2136 4293981951
7.0073395 868.72278 1297.9664 4287798199
10.511009 869.61566 1298.7192 4287728293
14.014679 869.61566 1298.7192 4291013567
16.350458 869.61566 1298.7192 4292066255
-27.919266 875.62457 1297.2457 4294836223
-25.592661 875.62457 1297.2457 4294967295
6.9798164 875.62457 1297.2457 4285626767
10.469725 875.62457 1297.2457 4285631144
-27.919266 877.40332 1298.7455 4294967295
-25.592661 877.40332 1298.7455 4294967295
11.633027 877.40332 1298.7455 4288584663
16.286238 877.40332 1298.7455 4282863972
-25.491743 883.3772 1297.2424 4294967295
6.9522934 883.3772 1297.2424 4291150547
9.2697248 883.3772 1297.2424 4290687947
34.761467 883.3772 1297.2424 4290360781
37.078899 883.3772 1297.2424 4290491849
-27.809174 885.14893 1298.7362 4294967295
-25.491743 885.14893 1298.7362 4294967295
6.9522934 885.14893 1298.7362 4291150545
9.2697248 885.14893 1298.7362 4291016160
34.761467 885.14893 1298.7362 4290426828
37.078899 885.14893 1298.7362 4290557642
-25.411009 889.72559 1297.363 4294573055
-23.100918 888.84259 1296.6185 4294836223
2.3100917 888.84259 1296.6185 4294967295
4.6201835 888.84259 1296.6185 4294704383
6.9302754 889.72559 1297.363 4288060079
10.010398 890.01996 1297.6112 4284968365
-23.009174 896.52222 1296.5536 4294244863
2.3009174 896.52222 1296.5536 4294967295
4.6018348 896.52222 1296.5536 4294243583
6.9027524 896.52222 1296.5536 4285558923
9.2036695 896.52222 1296.5536 4284242282
-23.009174 898.28125 1298.0369 4294375679
2.3009174 898.28125 1298.0369 4294967295
4.6018348 898.28125 1298.0369 4294769663
6.9027524 898.28125 1298.0369 4287598242
9.2036695 898.28125 1298.0369 4287859880
-25.209175 905.91187 1297.9307 4294113023
2.291743 904.15979 1296.4534 4294967295
4.5834861 904.15979 1296.4534 4294901503
6.8752294 904.15979 1296.4534 4290953938
9.9308863 905.32782 1297.4382 4290098119
-25.128441 911.28748 1297.231 4294046719
2.2844036 911.28748 1297.231 4294967295
4.5688071 911.28748 1297.231 4294769919
6.8532109 911.28748 1297.231 4291151317
10.279816 911.28748 1297.231 4289769927
13.706422 911.28748 1297.231 4290556881
-27.412844 913.03394 1298.7036 4294112767
-25.128441 913.03394 1298.7036 4294244095
6.8532109 913.03394 1298.7036 4291151319
10.279816 913.03394 1298.7036 4289769671
13.706422 913.03394 1298.7036 4290163152
-27.302752 919.71472 1297.7966 4294506751
-25.027523 919.71472 1297.7966 4294243839
6.8256879 918.84503 1297.0632 4291151319
10.238532 919.71472 1297.7966 4289638087
13.651376 919.71472 1297.7966 4290294218
15.926605 919.71472 1297.7966 4290228682
18.201836 920.58447 1298.5299 4290031300
-19.277065 925.0343 1297.0497 4294636031
2.26789 925.0343 1297.0497 4294310399
4.53578 925.0343 1297.0497 4294441471
6.8036699 925.0343 1297.0497 4290822868
10.205505 925.03424 1297.0497 4289505479
13.60734 925.0343 1297.0497 4290031043
-18.084404 932.05945 1297.7411 4290492875
-15.823853 932.05945 1297.7411 4290821840
-13.563303 931.19537 1297.0125 4291873250
-10.172478 932.05945 1297.7411 4292136669
-6.7816515 932.05945 1297.7411 4294307314
-4.521101 932.05945 1297.7411 4294506235
-2.2605505 932.92358 1298.4697 4294374141
1.1302752 932.05945 1297.7411 4293849336
-34.601833 755.86212 1299.5995 4294967295
17.300917 755.86212 1299.5995 4293585151
19.772476 755.86212 1299.5995 4293256187
-37.073395 757.75165 1301.1926 4294967295
19.772476 757.75165 1301.1926 4293322234
22.244038 757.75165 1301.1926 4293256441
24.715597 757.75165 1301.1926 4293190647
-36.93578 764.24878 1300.1307 4294967295
19.699083 764.24878 1300.1307 4293388029
22.161469 764.24878 1300.1307 4293453822
24.623854 764.24878 1300.1307 4293256187
28.317432 764.24878 1300.1307 4293058550
-36.93578 766.13135 1301.718 4294967295
22.161469 766.13135 1301.718 4293782527
24.623854 766.13135 1301.718 4293190395
-34.344955 770.71783 1299.0452 4294967295
17.172478 770.71783 1299.0452 4293191166
19.625689 770.71783 1299.0452 4293388027
22.078899 770.71783 1299.0452 4293388027
25.758717 770.71783 1299.0452 4292927480
29.438532 770.71783 1299.0452 4293124339
31.891743 770.71783 1299.0452 4293058546
-36.798164 772.59332 1300.6265 4294967295
17.172478 772.59332 1300.6265 4293322749
19.625689 772.59332 1300.6265 4293322234
22.078899 772.59332 1300.6265 4293388027
25.758717 772.59332 1300.6265 4292993271
29.438532 772.59332 1300.6265 4292861683
-36.660549 779.02734 1299.5114 4294967295
-34.216515 779.02734 1299.5114 4294967295
13.442202 779.02734 1299.5114 4293389051
17.108257 779.02734 1299.5114 4293454587
-36.660549 780.89581 1301.0868 4294967295
14.66422 780.89581 1301.0868 4293125623
17.108257 780.89581 1301.0868 4293125623
19.552294 780.89581 1301.0868 4292993782
-36.522934 787.2948 1299.942 4294967295
-34.088074 787.2948 1299.942 4294967295
14.609175 787.2948 1299.942 4292795890
17.044037 787.2948 1299.942 4292927476
-36.522934 789.15625 1301.5116 4294967295
13.391743 789.15625 1301.5116 4292795374
17.044037 789.15625 1301.5116 4293255927
-36.3578 796.97485 1300.2559 4294967295
-33.933945 796.04828 1299.4746 4294967295
14.543119 796.04828 1299.4746 4292466927
16.966972 796.97485 1300.2559 4292467181
-33.805504 805.15039 1300.6091 4294967295
12.878288 804.84271 1300.3497 4292072169
16.902752 805.15039 1300.6091 4292137447
19.31743 806.07336 1301.3873 4292137192
21.732111 805.15039 1300.6091 4292202985
25.35413 806.07336 1301.3873 4292202472
28.976147 806.07336 1301.3873 4291874023
-33.677063 812.36426 1300.1516 4294967295
13.230275 812.36426 1300.1516 4292006121
16.838531 812.36426 1300.1516 4292071399
21.649542 812.36426 1300.1516 4291676391
-33.677063 814.20331 1301.7021 4294967295
16.838531 814.20331 1301.7021 4292005352
19.244038 814.20331 1301.7021 4291413474
21.649542 814.20331 1301.7021 4291610596
26.46055 814.20331 1301.7021 4291740899
-33.548622 820.45917 1300.4368 4294967295
14.377981 820.45917 1300.4368 4291612133
16.774311 820.45917 1300.4368 4291414498
19.170643 820.45917 1300.4368 4291479778
33.548622 820.45917 1300.4368 4291742688
-33.548622 822.2912 1301.9814 4294967295
16.774311 822.2912 1301.9814 4291347940
19.170643 822.2912 1301.9814 4291413987
33.548622 822.2912 1301.9814 4291676380
11.93578 826.68701 1299.1478 4291349475
14.322936 826.68701 1299.1478 4291741669
16.710093 826.68701 1299.1478 4291544290
19.097248 826.68701 1299.1478 4291413472
-33.420185 828.51196 1300.6866 4294967295
14.322936 828.51196 1300.6866 4291676389
16.710093 828.51196 1300.6866 4291610596
19.097248 828.51196 1300.6866 4291413985
-33.317432 835.10583 1301.0142 4294967295
7.1394496 834.19617 1300.2472 4291348693
10.709173 835.10583 1301.0142 4291216859
14.278899 835.10583 1301.0142 4291412956
16.658716 835.10583 1301.0142 4291412956
19.038532 835.10583 1301.0142 4291413213
21.418348 836.0155 1301.7812 4291544288
-33.188992 842.17603 1300.4354 4294967295
-30.818348 842.17603 1300.4354 4294967295
4.7412844 842.17603 1300.4354 4294046719
7.1119266 842.17603 1300.4354 4291019992
10.667891 842.17603 1300.4354 4291085018
14.223853 842.17603 1300.4354 4291413472
16.594496 842.17603 1300.4354 4291150043
-33.188992 843.9884 1301.9636 4294967295
10.667891 843.9884 1301.9636 4291085271
14.223853 843.9884 1301.9636 4291347678
16.594496 843.9884 1301.9636 4291150043
18.965137 843.9884 1301.9636 4290953173
-30.699083 848.30841 1299.066 4294967295
-28.337614 848.30841 1299.066 4294967295
2.3614678 848.30841 1299.066 4294967295
4.7229357 848.30841 1299.066 4294243839
7.0844035 848.30841 1299.066 4290822868
-30.699083 850.11377 1300.5883 4294967295
-28.337614 850.11377 1300.5883 4294967295
7.0844035 850.11377 1300.5883 4290560211
-30.579817 856.21118 1299.1892 4294967295
-28.227524 856.21118 1299.1892 4294967295
4.704587 856.21118 1299.1892 4293980671
-30.579817 858.00952 1300.7056 4294967295
4.704587 858.00952 1300.7056 4293718015
7.056881 858.00952 1300.7056 4290494420
-30.46055 864.96741 1300.0322 4294967295
-28.117432 864.96741 1300.0322 4294967295
7.0293579 864.07172 1299.277 4291085272
10.153518 865.26593 1300.2839 4290624982
14.058716 864.96741 1300.0322 4291412698
16.401834 864.96741 1300.0322 4291478491
18.744955 864.96741 1300.0322 4291083991
-30.365137 871.40137 1300.225 4294967295
-28.029358 871.40137 1300.225 4294901759
11.678899 871.40137 1300.225 4285697950
14.014679 871.40137 1300.225 4289243790
16.350458 871.40137 1300.225 4290164892
18.686239 871.40137 1300.225 4290951889
21.022018 871.40137 1300.225 4291280598
28.029358 871.40137 1300.225 4291018447
-31.533028 873.18713 1301.7306 4294967039
14.014679 873.18713 1301.7306 4285104789
16.350458 873.18713 1301.7306 4284051844
18.686239 873.18713 1301.7306 4284836483
21.022018 873.18713 1301.7306 4285954965
-30.245872 880.96069 1301.745 4294967295
-27.919266 880.07135 1300.9951 4294901759
-25.592661 879.18201 1300.2452 4294967295
11.633027 880.07135 1300.9951 4290161863
13.959633 880.07135 1300.9951 4288059074
16.286238 880.96069 1301.745 4284767886
18.612844 880.96069 1301.745 4282996344
32.572475 880.96069 1301.745 4290492624
-27.809174 886.92059 1300.2301 4294770687
11.587156 886.92059 1300.2301 4287598561
13.904587 886.92059 1300.2301 4287071883
16.222019 886.92059 1300.2301 4283782233
34.761467 886.92059 1300.2301 4290492103
37.078899 886.92059 1300.2301 4290557383
-27.809174 888.69226 1301.7239 4294244095
13.904587 888.69226 1301.7239 4283585133
16.222019 888.69226 1301.7239 4286348439
-25.411009 892.37476 1299.5967 4294704639
10.395412 892.37476 1299.5967 4281884007
-25.411009 894.14087 1301.0858 4294638335
11.550459 894.14087 1301.0858 4288321448
13.860551 894.14087 1301.0858 4291277758
16.170643 894.14087 1301.0858 4291409345
-27.61101 901.79944 1301.0032 4294309887
-25.310091 900.91992 1300.2616 4294244351
10.737615 900.62671 1300.0144 4290557123
-27.500917 907.66394 1299.408 4294112767
11.458715 907.66394 1299.408 4290558930
13.750459 907.66394 1299.408 4290557394
-27.500917 909.41602 1300.8851 4293915135
18.333944 909.41602 1300.8851 4290293191
-27.412844 914.78033 1300.1761 4293849087
15.990826 914.78033 1300.1761 4290228941
19.417431 914.78033 1300.1761 4290293705
-29.697248 916.52679 1301.6487 4294177535
19.417431 916.52679 1301.6487 4290097091
-27.302752 922.32391 1299.9966 4294637823
-25.027523 922.32391 1299.9966 4294967295
-22.752293 922.32391 1299.9966 4294966271
15.926605 922.32391 1299.9966 4289833922
19.339451 922.32391 1299.9966 4290162373
-27.302752 924.06335 1301.4633 4291544540
-25.027523 924.06335 1301.4633 4292136677
-22.752293 924.06335 1301.4633 4294107389
15.926605 924.06335 1301.4633 4289964994
19.339451 924.06335 1301.4633 4290030017
22.752293 924.06335 1301.4633 4289834176
25.027523 924.06335 1301.4633 4290294727
-22.6789 929.36877 1300.7045 4290163402
-19.655046 928.21289 1299.7299 4292597472
2.26789 927.63501 1299.2426 4294573055
4.53578 928.50189 1299.9735 4294243327
6.8036699 928.50189 1299.9735 4291150817
10.205505 928.50183 1299.9735 4289505473
13.60734 927.63501 1299.2426 4290096582
-6.7816515 934.65179 1299.9269 4290557381
-4.521101 934.65179 1299.9269 4290623949
-2.2605505 934.65179 1299.9269 4290953171
0 934.65179 1299.9269 4290756573
-39.544952 760.58594 1303.5825 4294967295
-37.073395 759.64117 1302.7859 4294967295
22.244038 759.64117 1302.7859 4293388027
24.715597 759.64117 1302.7859 4293256441
27.187157 759.64117 1302.7859 4293322234
-39.398167 769.89636 1304.8926 4294967295
-36.93578 768.01379 1303.3053 4294967295
32.011009 769.89636 1304.8926 4292993269
-36.798164 774.46881 1302.2079 4294967295
19.625689 775.40662 1302.9985 4292927991
22.078899 775.40662 1302.9985 4292927991
25.758717 775.40656 1302.9987 4293059062
29.438532 775.40662 1302.9985 4292664304
31.891743 775.40662 1302.9985 4292861683
34.344955 775.40662 1302.9985 4292730096
-36.660549 782.76428 1302.6622 4294967295
14.66422 782.76428 1302.6622 4293256693
17.108257 782.76428 1302.6622 4293190643
19.552294 782.76428 1302.6622 4292927476
21.99633 782.76428 1302.6622 4292993269
19.552294 784.63281 1304.2377 4292532720
21.99633 784.63281 1304.2377 4292466927
26.884403 784.63281 1304.2377 4292597745
29.32844 784.63281 1304.2377 4292597741
31.772476 784.63281 1304.2377 4292597741
-37.740364 791.0177 1303.0812 4294901759
17.044037 791.0177 1303.0812 4292663534
19.478899 791.0177 1303.0812 4292663534
21.913761 791.0177 1303.0812 4292663534
-38.957798 792.87921 1304.6508 4294770175
19.478899 792.87921 1304.6508 4292663534
21.913761 792.87921 1304.6508 4292597741
26.783485 792.87921 1304.6508 4292597741
29.218349 792.87921 1304.6508 4292466153
-36.3578 799.75439 1302.5996 4294967295
19.390825 799.75439 1302.5996 4292269032
21.814678 799.75439 1302.5996 4292334825
-36.3578 801.60742 1304.162 4294967295
19.390825 801.60742 1304.162 4292137192
25.450459 801.60742 1304.162 4292137192
29.086239 801.60742 1304.162 4291874023
-36.220184 809.7655 1304.5005 4294967295
16.902752 807.91943 1302.9438 4292071399
19.31743 808.84247 1303.7222 4291742182
21.732111 807.91943 1302.9438 4291742436
25.35413 808.84253 1303.7222 4291873252
28.976147 808.84247 1303.7222 4291610850
31.390825 809.7655 1304.5005 4291808229
-36.082569 816.96185 1304.0281 4294967295
19.244038 816.04236 1303.2528 4291742434
21.649542 816.96185 1304.0281 4291808485
25.257797 816.96185 1304.0281 4291413984
28.866055 816.96185 1304.0281 4291611103
31.271559 816.96185 1304.0281 4291611359
33.677063 816.04236 1303.2528 4291808227
-33.548622 824.12317 1303.5262 4294967295
21.566973 824.12317 1303.5262 4291676643
28.755962 824.12317 1303.5262 4291873502
31.152294 824.12317 1303.5262 4292005088
33.548622 824.12317 1303.5262 4291873502
19.097248 830.33698 1302.2253 4291283421
21.484404 830.33698 1302.2253 4291480543
-35.807339 832.16199 1303.7642 4294967295
22.677982 832.16199 1303.7642 4291610846
28.645872 832.16199 1303.7642 4291282137
-34.507339 838.74463 1304.0823 4294967295
14.278899 837.8349 1303.3153 4291215586
16.658716 837.8349 1303.3153 4291149793
19.038532 838.74463 1304.0823 4291215836
22.608257 838.74463 1304.0823 4291216091
26.177982 839.6543 1304.8494 4291084504
28.557798 838.74463 1304.0823 4291084503
30.937614 838.74463 1304.0823 4291281882
33.317432 839.6543 1304.8494 4291151319
-34.374313 845.80078 1303.4917 4294967295
10.667891 845.80078 1303.4917 4291151063
14.223853 845.80078 1303.4917 4291347676
16.594496 845.80078 1303.4917 4291347676
18.965137 845.80078 1303.4917 4290953432
21.335779 845.80078 1303.4917 4291085274
-33.060551 851.91919 1302.1105 4294967295
4.7229357 851.91919 1302.1105 4294243839
7.0844035 851.91919 1302.1105 4290691027
-34.241287 853.72449 1303.6327 4294967295
7.0844035 853.72449 1303.6327 4290625234
10.626606 853.72449 1303.6327 4290559191
14.168807 853.72449 1303.6327 4290952923
16.530275 853.72449 1303.6327 4290952923
18.891743 853.72449 1303.6327 4291084504
-31.755962 859.80786 1302.2218 4294967295
7.056881 859.80786 1302.2218 4290757077
10.585321 859.80786 1302.2218 4290558424
14.113762 859.80786 1302.2218 4291083737
16.466055 859.80786 1302.2218 4291083737
18.818348 859.80786 1302.2218 4290952919
-32.93211 861.6062 1303.7382 4294967295
11.761468 861.6062 1303.7382 4291216092
21.170643 861.6062 1303.7382 4290821845
25.875229 861.6062 1303.7382 4290755541
28.227524 861.6062 1303.7382 4290755791
30.579817 861.6062 1303.7382 4290755791
-32.022629 868.25146 1302.8013 4294967295
18.744955 867.65442 1302.2977 4291280600
22.259632 868.55005 1303.053 4291214804
25.774311 868.55005 1303.053 4291083731
28.117432 867.65442 1302.2977 4290624975
31.632111 869.44574 1303.8081 4290492619
-31.533028 874.97284 1303.2363 4294967295
14.014679 874.97284 1303.2363 4287206567
18.686239 874.97284 1303.2363 4282929252
22.189907 874.97284 1303.2363 4285428106
28.029358 874.97284 1303.2363 4288255925
31.533028 874.97284 1303.2363 4290427089
35.036697 874.97284 1303.2363 4290427340
-31.533028 876.75854 1304.7419 4294967295
16.350458 876.75854 1304.7419 4283850116
18.686239 876.75854 1304.7419 4283389803
22.189907 876.75854 1304.7419 4282144865
25.693579 876.75854 1304.7419 4282873717
28.029358 876.75854 1304.7419 4284841610
31.533028 876.75854 1304.7419 4289640907
35.036697 876.75854 1304.7419 4290294988
-31.409176 883.62878 1303.9946 4294835967
11.633027 882.73938 1303.2448 4290424280
13.959633 882.73938 1303.2448 4288255421
16.286238 882.73938 1303.2448 4283978876
19.38838 883.92523 1304.2446 4286215020
25.592661 884.51813 1304.7445 4291935965
27.919266 884.51813 1304.7445 4291214282
32.572475 883.62878 1303.9946 4290426569
-27.809174 890.46399 1303.2178 4294375679
13.904587 890.46399 1303.2178 4286019990
16.222019 890.46399 1303.2178 4289178310
18.53945 890.46399 1303.2178 4290753490
-27.809174 892.23566 1304.7117 4294572543
19.698166 892.23566 1304.7117 4290753740
-25.411009 895.90692 1302.575 4294507519
11.550459 895.90692 1302.575 4290623186
13.860551 895.90692 1302.575 4291148752
16.170643 895.90692 1302.575 4291016910
18.480734 895.90692 1302.575 4290623174
-27.721102 897.67303 1304.0641 4294047231
13.860551 897.67303 1304.0641 4290753740
16.170643 897.67303 1304.0641 4290753740
19.63578 897.67303 1304.0641 4290491849
-29.144953 904.14484 1302.9808 4294112767
6.9027524 903.55847 1302.4865 4291150547
13.805505 903.55847 1302.4865 4290623440
16.106422 905.31757 1303.9696 4290557394
18.407339 904.43799 1303.228 4290623179
-29.79266 911.16803 1302.3624 4294047231
18.333944 911.16803 1302.3624 4290162375
-29.79266 912.92004 1303.8397 4293784063
22.917431 912.92004 1303.8397 4290162627
-29.697248 919.14648 1303.8574 4294506749
20.559633 918.27325 1303.1212 4290097093
22.844036 919.14648 1303.8574 4290032065
25.128441 919.14648 1303.8574 4290163394
27.412844 920.01965 1304.5938 4290359998
-27.302752 925.80273 1302.9298 4290755028
-25.027523 925.80273 1302.9298 4291610081
-22.752293 925.80273 1302.9298 4292925663
15.926605 925.80273 1302.9298 4290293705
19.339451 925.80273 1302.9298 4290096834
22.752293 925.80273 1302.9298 4290425543
25.027523 925.80273 1302.9298 4290951887
-27.302752 927.54224 1304.3965 4290361546
-25.027523 927.54224 1304.3965 4290164424
13.651376 927.54224 1304.3965 4290227396
15.926605 927.54224 1304.3965 4290556361
19.339451 927.54224 1304.3965 4290491588
22.752293 927.54224 1304.3965 4291018197
25.027523 927.54224 1304.3965 4290557646
27.302752 927.54224 1304.3965 4288848825
-19.277065 931.96954 1302.8973 4290426830
-15.875229 932.83643 1303.6283 4290492881
-13.60734 931.96954 1302.8973 4290689996
-10.205505 932.83643 1303.6283 4290360518
2.26789 931.96954 1302.8973 4291282904
4.53578 931.10266 1302.1664 4292993273
6.8036699 931.96954 1302.8973 4290558427
10.205505 931.10266 1302.1664 4289571519
13.60734 931.10266 1302.1664 4290096578
-39.7211 754.47314 1306.2765 4294967295
29.790825 756.37109 1307.8767 4292992247
-39.544952 763.42023 1305.9723 4294967295
32.130276 763.42023 1305.9723 4293058546
-39.544952 765.30975 1307.5654 4294967295
-39.398167 771.77887 1306.4799 4294967295
-39.251377 778.21985 1305.3706 4294967295
22.078899 778.21985 1305.3706 4292927989
25.758717 778.21985 1305.3706 4292730097
29.438532 778.21985 1305.3706 4292730096
31.891743 778.21985 1305.3706 4292795890
-39.251377 780.09534 1306.952 4294967295
25.758717 780.09534 1306.952 4292926706
29.438532 780.09534 1306.952 4292795890
31.891743 780.09534 1306.952 4292861683
-40.326607 787.43555 1306.6008 4293718014
19.552294 786.50128 1305.8131 4292532720
21.99633 786.50128 1305.8131 4292466927
25.662384 787.43555 1306.6008 4292466415
29.32844 787.43555 1306.6008 4292334570
-38.957798 794.74066 1306.2202 4294573055
19.478899 794.74066 1306.2202 4292269292
21.913761 794.74066 1306.2202 4292269292
25.566055 794.74066 1306.2202 4292269032
29.218349 794.74066 1306.2202 4292202985
-41.392662 796.60217 1307.7898 4292862975
-38.957798 796.60217 1307.7898 4294836223
25.566055 796.60217 1307.7898 4292269032
29.218349 796.60217 1307.7898 4292137192
-37.569725 803.46051 1305.7245 4294901759
-37.569725 805.3136 1307.2869 4294835967
-36.220184 811.61151 1306.057 4294967295
24.14679 811.61151 1306.057 4291675106
28.976147 811.61151 1306.057 4291413724
31.390825 811.61151 1306.057 4291676639
-38.634861 813.45758 1307.6135 4294704383
-36.884403 820.94647 1307.3878 4294638591
21.649542 819.7204 1306.354 4291545573
25.257797 820.63989 1307.1294 4291545566
28.866055 819.7204 1306.354 4291742173
31.271559 819.7204 1306.354 4291873502
-38.341286 827.78723 1306.6156 4293717759
-35.944954 826.87122 1305.8433 4294967295
23.164526 826.56592 1305.5858 4291479775
26.359632 826.87122 1305.8433 4291413980
28.755962 826.87122 1305.8433 4291412696
31.152294 826.87122 1305.8433 4291610075
33.548622 826.87122 1305.8433 4291610333
-35.807339 833.987 1305.303 4294967295
23.871559 833.987 1305.303 4291216090
26.258715 833.987 1305.303 4291281883
28.645872 833.987 1305.303 4291347930
31.033028 833.987 1305.303 4291347930
33.420185 833.987 1305.303 4291282650
-35.807339 835.81201 1306.8418 4294967295
26.258715 835.81201 1306.8418 4291281883
33.420185 835.81201 1306.8418 4291151319
-35.697247 841.47369 1306.3834 4294967295
22.608257 841.47369 1306.3834 4291150295
26.177982 841.47369 1306.3834 4291282137
28.557798 841.47369 1306.3834 4291215838
30.937614 841.47369 1306.3834 4291347680
-38.077065 843.29309 1307.9175 4294046207
23.798164 843.29309 1307.9175 4291151065
26.177982 843.29309 1307.9175 4291282650
28.557798 843.29309 1307.9175 4290953434
30.937614 843.29309 1307.9175 4290953434
-34.374313 847.61316 1305.0199 4294967295
10.667891 847.61316 1305.0199 4290822363
14.223853 847.61316 1305.0199 4291281885
16.594496 847.61316 1305.0199 4291413472
18.965137 847.61316 1305.0199 4291216088
21.335779 847.61316 1305.0199 4291347930
28.447706 847.61316 1305.0199 4291084504
-35.559631 849.42554 1306.5481 4294967295
10.667891 849.42554 1306.5481 4290625239
14.223853 849.42554 1306.5481 4291084250
16.594496 849.42554 1306.5481 4290952921
18.965137 849.42554 1306.5481 4291084504
22.521101 849.42554 1306.5481 4291084505
26.077065 849.42554 1306.5481 4291281883
28.447706 849.42554 1306.5481 4290953432
-37.783485 857.33521 1306.6772 4293783551
-34.634861 856.13165 1305.6622 4294967295
10.626606 855.52991 1305.1549 4290558678
14.168807 855.52991 1305.1549 4291017945
16.530275 855.52991 1305.1549 4291083739
18.891743 855.52991 1305.1549 4291084504
22.433945 856.4325 1305.916 4290952662
25.976147 856.43256 1305.916 4290886868
28.337614 856.43256 1305.916 4290952402
-32.93211 863.40454 1305.2545 4294967295
22.34679 863.40454 1305.2545 4290820563
25.875229 863.40454 1305.2545 4290755541
28.227524 863.40454 1305.2545 4290755791
30.579817 863.40454 1305.2545 4290689998
-35.284405 865.20288 1306.7708 4294967295
23.522936 865.20288 1306.7708 4290821586
30.579817 865.20288 1306.7708 4290558926
-35.14679 871.23706 1305.3186 4294967295
23.431192 871.23706 1305.3186 4289892262
25.774311 871.23706 1305.3186 4290879157
28.117432 871.23706 1305.3186 4291014850
31.632111 871.23706 1305.3186 4290820041
-35.14679 873.02844 1306.829 4294967295
25.774311 873.02844 1306.829 4287992496
-35.036697 878.54431 1306.2477 4294967295
-32.700916 878.54431 1306.2477 4294967295
22.189907 878.54431 1306.2477 4283192439
25.693579 878.54431 1306.2477 4286217632
28.029358 878.54431 1306.2477 4287663032
30.365137 878.54431 1306.2477 4290360545
-35.036697 880.33002 1307.7534 4294967295
22.189907 880.33002 1307.7534 4287595923
25.693579 880.33002 1307.7534 4291145153
28.029358 880.33002 1307.7534 4291214280
30.365137 880.33002 1307.7534 4290885058
-31.409174 886.29688 1306.2443 4294440191
19.776146 886.29688 1306.2443 4291143842
27.919266 886.29688 1306.2443 4290820301
34.899082 886.29688 1306.2443 4290754506
37.225689 886.29688 1306.2443 4290557383
-31.409174 888.07556 1307.744 4294505983
20.939449 888.07556 1307.744 4291148248
-31.285322 895.77905 1307.6993 4294178303
-27.809174 894.00739 1306.2054 4294507519
20.85688 894.00739 1306.2054 4290623174
23.174313 895.77905 1307.6993 4290032073
-30.031193 899.43909 1305.5532 4294506495
13.860551 899.43909 1305.5532 4290622926
16.170643 899.43909 1305.5532 4290754256
19.63578 899.43909 1305.5532 4290557129
23.100918 899.43909 1305.5532 4290426056
30.031193 899.43909 1305.5532 4290228934
-32.341286 901.2052 1307.0424 4294112511
16.170643 901.2052 1307.0424 4290689233
20.790825 901.2052 1307.0424 4290557642
23.100918 901.2052 1307.0424 4290295240
-32.212845 908.83569 1306.936 4293849855
-29.911926 907.07666 1305.4529 4293980671
16.106422 907.95618 1306.1945 4290294224
20.708258 907.95618 1306.1945 4290293449
23.009174 908.83569 1306.936 4290096582
25.310091 908.83569 1306.936 4290096582
-32.084404 914.67212 1305.317 4294309119
22.917431 914.67212 1305.317 4290031552
25.209175 914.67212 1305.317 4290031552
-32.084404 916.42419 1306.7943 4294046719
27.500917 916.42419 1306.7943 4290229184
-31.981651 921.76611 1306.0664 4290821586
-29.697248 922.63934 1306.8027 4290690003
28.174311 922.93042 1307.0481 4290623940
-27.302752 929.28162 1305.8632 4290623688
-25.027523 929.28162 1305.8632 4290623688
-22.752293 929.28162 1305.8632 4290491851
15.926605 929.28162 1305.8632 4290557129
19.339451 929.28162 1305.8632 4290755525
22.752293 929.28162 1305.8632 4290360531
25.027523 929.28162 1305.8632 4288452534
-22.752293 931.02106 1307.3298 4290096582
-20.477064 931.02106 1307.3298 4290491084
4.5504589 931.02106 1307.3298 4290163420
10.238532 931.02106 1307.3298 4289506753
13.651376 931.02106 1307.3298 4290426056
15.926605 931.02106 1307.3298 4290755278
19.339451 931.02106 1307.3298 4289308861
22.752293 931.02106 1307.3298 4285430165
-6.8036699 934.57031 1305.0902 4290622152
-4.53578 934.57031 1305.0902 4290426058
-2.26789 934.57031 1305.0902 4290689231
0 934.57031 1305.0902 4290031578
-4.53578 936.30408 1306.5521 4290754254
-42.203671 758.26904 1309.4771 4293785599
-42.016514 767.19928 1309.1587 4293128959
-43.252296 769.08881 1310.7518 4289509587
-39.398167 773.66138 1308.0671 4294967295
-41.86055 775.54388 1309.6545 4293061119
-40.477982 781.97083 1308.5333 4293849343
24.53211 781.97083 1308.5333 4292597745
-41.704586 783.84631 1310.1147 4292731389
-43.992661 790.23828 1308.9641 4286415266
-41.548622 790.23828 1308.9641 4292731135
24.440367 790.23828 1308.9641 4292531948
-43.992661 792.10675 1310.5396 4286217630
-41.548622 792.10675 1310.5396 4292731135
-41.392662 799.39435 1310.144 4292665343
-38.957798 798.46362 1309.3594 4294967295
-38.781651 808.09314 1309.6306 4294901759
-38.634861 815.30359 1309.17 4294441215
-38.634861 817.14966 1310.7266 4294309375
-40.893578 823.39844 1309.4553 4292600312
-38.488075 823.39844 1309.4553 4293849599
-38.341286 829.61926 1308.1604 4293849599
26.359632 829.61926 1308.1604 4291545053
31.152294 829.61926 1308.1604 4291282137
33.548622 829.61926 1308.1604 4291281883
-40.737614 831.45123 1309.7051 4292270077
-38.341286 831.45123 1309.7051 4294046207
-38.194496 838.54944 1309.1499 4293980415
-38.077065 845.11249 1309.4515 4294046207
23.798164 845.11249 1309.4515 4291282135
26.177982 845.11249 1309.4515 4291545051
-38.077065 846.93188 1310.9856 4294046207
-37.930275 851.23792 1308.0762 4294046719
22.521101 851.23792 1308.0762 4291281624
26.077065 851.23792 1308.0762 4291412951
28.447706 851.23792 1308.0762 4291083987
-37.930275 853.05029 1309.6044 4294046719
-37.783485 860.04333 1308.9606 4293782783
-35.42202 860.04333 1308.9606 4294967295
23.614679 859.14062 1308.1995 4290492370
-37.636696 867.90039 1309.0453 4293782783
-35.284405 867.00122 1308.2871 4294967295
-37.48991 874.8197 1308.3394 4293453823
-35.14679 874.8197 1308.3394 4294967295
-37.48991 876.61108 1309.8499 4293454335
-35.036697 883.00854 1310.0118 4294638079
23.357798 883.00854 1310.0118 4290751431
25.693579 883.90143 1310.7646 4291475151
31.14373 883.30615 1310.2628 4290622662
-31.409174 889.85425 1309.2438 4294637567
23.266054 889.85425 1309.2438 4290294473
25.592661 889.85425 1309.2438 4290294473
27.919266 889.85425 1309.2438 4290425804
-31.409174 891.63293 1310.7435 4294506495
23.266054 891.63293 1310.7435 4290228428
25.592661 891.63293 1310.7435 4290228428
27.919266 891.63293 1310.7435 4290426058
30.245872 891.63293 1310.7435 4290755024
-34.761467 899.32251 1310.687 4294178303
-32.444038 897.55078 1309.1931 4294506495
25.491743 898.43665 1309.9401 4290426570
27.809174 899.32251 1310.687 4290228680
31.285322 899.32251 1310.687 4290294214
-32.341286 902.97125 1308.5315 4294046719
20.790825 902.97125 1308.5315 4290623178
23.100918 902.97125 1308.5315 4290294727
-32.341286 904.73737 1310.0205 4293914879
23.100918 904.73737 1310.0205 4290162889
25.411009 904.73737 1310.0205 4290031046
30.031193 904.73737 1310.0205 4290162885
-34.51376 910.59479 1308.4192 4293915647
-32.212845 910.59479 1308.4192 4293784063
25.310091 910.59479 1308.4192 4290096578
28.761467 910.59479 1308.4192 4290162371
32.212845 910.59479 1308.4192 4290294458
-36.814678 912.35388 1309.9025 4292532733
-34.51376 912.35388 1309.9025 4294374655
28.761467 912.35388 1309.9025 4290425797
32.212845 912.35388 1309.9025 4290426043
-36.667889 919.92834 1309.7489 4290031048
-34.376148 919.05231 1309.0103 4291874266
-32.084404 918.17627 1308.2716 4293980148
29.79266 919.05231 1309.0103 4290623684
32.084404 919.92834 1309.7489 4290623174
-31.981651 925.25903 1309.0115 4290163148
-29.697248 925.25903 1309.0115 4290426576
29.697248 925.25903 1309.0115 4286414484
31.981651 925.25903 1309.0115 4283981426
-34.266056 927.00549 1310.484 4290425804
-29.697248 927.00549 1310.484 4290755541
28.555046 927.00549 1310.484 4285360515
31.981651 927.00549 1310.484 4283124301
-19.339451 932.7605 1308.7964 4290360269
-15.926605 932.7605 1308.7964 4291084250
-13.651376 932.7605 1308.7964 4290755024
-10.238532 932.7605 1308.7964 4290688716
2.2752295 932.7605 1308.7964 4289702869
4.5504589 932.7605 1308.7964 4289570495
6.8256879 932.7605 1308.7964 4289636544
10.238532 932.7605 1308.7964 4290360004
13.651376 932.7605 1308.7964 4290492103
15.926605 932.7605 1308.7964 4289834174
19.339451 932.7605 1308.7964 4287400353
-13.651376 934.49994 1310.2631 4290557131
-10.238532 934.49994 1310.2631 4290556618
-6.8256879 934.49994 1310.2631 4290753740
-2.2752295 934.49994 1310.2631 4290557131
1.1376147 934.49994 1310.2631 4290359500
6.8256879 934.49994 1310.2631 4290753992
9.1009178 934.49994 1310.2631 4290950606
15.926605 934.49994 1310.2631 4285689478
-47.343121 754.59845 1312.9222 4287136148
-47.168808 760.16699 1311.0774 4287662235
-43.444954 760.16699 1311.0774 4289838803
-47.168808 762.06494 1312.6776 4287465626
-43.444954 762.06494 1312.6776 4289707731
-43.252296 770.97833 1312.3451 4289640405
-46.959633 772.86786 1313.9382 4287267992
-44.488075 772.86786 1313.9382 4286218918
-44.322937 779.3089 1312.8291 4286875815
-41.86055 777.42639 1311.2418 4292930047
-44.157799 785.7218 1311.6962 4286678433
-43.992661 793.97522 1312.115 4286283675
-43.992661 795.84375 1313.6904 4286283425
-41.392662 802.18652 1312.4984 4292601599
-41.205505 812.72583 1313.5366 4292731130
-43.464222 820.84174 1313.8396 4286349721
-43.299084 827.07648 1312.5565 4286349221
-40.893578 826.15698 1311.7812 4292336635
-40.737614 833.28326 1311.2498 4292007419
-38.341286 833.28326 1311.2498 4293980415
-40.737614 835.1153 1312.7944 4291745528
-40.58165 841.28699 1311.4581 4292073464
-40.58165 843.112 1312.9969 4292270586
-40.300919 854.86267 1311.1324 4292073466
-40.300919 856.67505 1312.6606 4291877114
-40.144955 862.75134 1311.2439 4291943411
-37.783485 862.75134 1311.2439 4293914623
-40.144955 864.5567 1312.7661 4291877870
-39.988991 871.49707 1312.0779 4291810289
-37.636696 870.5979 1311.3197 4293519615
-37.48991 878.4024 1311.3602 4293519615
-37.48991 880.19373 1312.8706 4293322239
-37.372478 887.4729 1313.776 4293322239
-35.036697 886.58008 1313.0232 4294177535
23.357798 885.68719 1312.2704 4290820037
25.693579 885.68719 1312.2704 4291017160
28.029358 885.68719 1312.2704 4290557133
31.533026 886.58008 1313.0232 4290360009
35.036697 886.58008 1313.0232 4290557387
37.372478 886.58008 1313.0232 4290491332
-34.899082 893.41168 1312.2434 4294309887
25.592661 893.41168 1312.2434 4290294988
27.919266 893.41168 1312.2434 4290426056
31.409174 893.41168 1312.2434 4290491080
-37.225689 895.19043 1313.7432 4293059583
-34.899082 895.19043 1313.7432 4294573055
27.919266 895.19043 1313.7432 4290294727
32.572475 895.19043 1313.7432 4290425030
-34.761467 901.97998 1312.9277 4293915903
25.491743 901.09418 1312.1809 4290162885
27.809174 901.97998 1312.9277 4290097093
31.285322 901.97998 1312.9277 4290162882
-36.961468 908.26953 1312.9988 4292270586
-34.651375 906.50342 1311.5096 4293981951
27.721102 906.50342 1311.5096 4290096578
31.186239 906.50342 1311.5096 4290162110
34.651375 907.38647 1312.2542 4290228410
-39.115597 914.11292 1311.3856 4290757075
-36.814678 914.11292 1311.3856 4292335089
-34.51376 914.11292 1311.3856 4294111231
29.911926 914.11292 1311.3856 4290426306
32.212845 914.11292 1311.3856 4290295488
34.51376 914.11292 1311.3856 4290493123
-39.115597 915.87201 1312.8689 4290886594
-36.814678 915.87201 1312.8689 4292006610
32.212845 915.87201 1312.8689 4290623939
-37.431805 922.84839 1312.2111 4290096071
-34.376148 922.5564 1311.9648 4290491602
-32.084404 921.68036 1311.2262 4290426576
-34.266056 928.75195 1311.9565 4290361035
-28.555046 928.75195 1311.9565 4290426312
-25.128441 928.75195 1311.9565 4290359748
25.128441 928.75195 1311.9565 4282864495
28.555046 928.75195 1311.9565 4283779684
-28.555046 930.49841 1313.4292 4290491334
-25.128441 930.49841 1313.4292 4290293955
-22.844036 930.49841 1313.4292 4290162375
22.844036 930.49841 1313.4292 4284177243
25.128441 930.49841 1313.4292 4283190348
27.412844 930.49841 1313.4292 4283713889
-6.8256879 936.23938 1311.7297 4290556109
-4.5504589 936.23938 1311.7297 4290622926
-2.2752295 936.23938 1311.7297 4290754256
-49.834862 757.45593 1315.3315 4288122786
-49.834862 759.36084 1316.9377 4287860384
-47.168808 763.96289 1314.278 4287399835
-44.686237 763.96289 1314.278 4285957543
-49.651375 765.86084 1315.8783 4287663520
-47.168808 765.86084 1315.8783 4287400348
-46.959633 774.75739 1315.5315 4287267740
-44.488075 774.75739 1315.5315 4286350502
-44.322937 781.19141 1314.4164 4286744226
-46.78532 783.07397 1316.0037 4287530651
-46.611008 789.47284 1314.8589 4287530397
-43.992661 797.71222 1315.2659 4286217634
-43.992661 799.58069 1316.8413 4285824673
-43.827522 805.90955 1315.6376 4285956000
-41.392662 804.97876 1314.8528 4292995071
-43.629356 814.57886 1315.0991 4286415514
-41.205505 814.57886 1315.0991 4292468470
-43.629356 816.43188 1316.6616 4286285211
-41.205505 816.43188 1316.6616 4292338167
-43.464222 822.68774 1315.3962 4286283675
-43.299084 829.83508 1314.8826 4286283170
-40.737614 836.94727 1314.3391 4291941878
-43.133945 838.7793 1315.8839 4286349473
-42.968807 844.93701 1314.5358 4286677668
-40.58165 844.93701 1314.5358 4292336122
-42.968807 846.76196 1316.0745 4286415266
-40.58165 846.76196 1316.0745 4292270586
-40.456882 850.57068 1314.0537 4292270073
-42.836697 852.39001 1315.5879 4286349219
-42.671558 859.39355 1314.9529 4286087581
-40.300919 858.48737 1314.1887 4292008954
-42.50642 866.36206 1314.2883 4286547356
-40.144955 866.36206 1314.2883 4292007919
-42.50642 868.16742 1315.8105 4286481311
-39.988991 875.09381 1315.1106 4291743731
-37.48991 881.98505 1314.381 4293255679
-37.48991 883.77643 1315.8915 4293125119
-37.372478 889.25861 1315.2817 4293190911
-35.036697 889.25861 1315.2817 4294374911
32.700916 889.25861 1315.2817 4290294473
35.036697 889.25861 1315.2817 4290294473
-37.372478 891.04437 1316.7874 4293059583
35.036697 891.04437 1316.7874 4290622154
37.372478 891.04437 1316.7874 4290491590
-37.225689 896.96912 1315.2429 4292993791
34.899082 896.96912 1315.2429 4290359748
-37.225689 898.7478 1316.7427 4292862975
32.572475 898.7478 1316.7427 4290359235
34.899082 898.7478 1316.7427 4290359235
-37.078899 904.63757 1315.1686 4292600312
-39.271561 910.03558 1314.4879 4290889437
34.651375 910.03558 1314.4879 4290360250
-40.266056 917.63104 1314.3521 4290291127
-40.266056 919.39014 1315.8352 4290029002
32.212845 919.39014 1315.8352 4289373875
34.51376 919.39014 1315.8352 4286610569
-41.251377 926.93652 1315.6581 4289768383
-37.813759 926.06049 1314.9194 4290228679
-32.084404 926.06049 1314.9194 4290295244
32.084404 926.93652 1315.6581 4284370259
34.376148 926.93652 1315.6581 4284765016
-15.990826 932.24481 1314.9017 4290557392
4.5688071 932.24481 1314.9017 4290622406
11.422018 932.24481 1314.9017 4290292676
13.706422 932.24481 1314.9017 4288518577
19.417431 932.24481 1314.9017 4283583083
22.844036 932.24481 1314.9017 4284368975
25.128441 932.24481 1314.9017 4284829526
-13.706422 933.99127 1316.3743 4290687947
-10.279816 933.99127 1316.3743 4290753743
0 933.99127 1316.3743 4290621891
6.8532109 933.99127 1316.3743 4291213258
9.1376143 933.99127 1316.3743 4290688701
13.706422 933.99127 1316.3743 4286346892
15.990826 933.99127 1316.3743 4283780966
19.417431 933.99127 1316.3743 4283450206
36.550457 933.99127 1316.3743 4284698197
-52.326607 761.26581 1318.5439 4287990434
-49.834862 761.26581 1318.5439 4287794336
-49.651375 767.75873 1317.4785 4287926179
-47.168808 767.75873 1317.4785 4287662750
-49.651375 769.65668 1319.0789 4287728543
-46.959633 776.64697 1317.1246 4287464857
-49.431194 778.5365 1318.7179 4287925408
-46.959633 778.5365 1318.7179 4287662237
-46.78532 784.95642 1317.5909 4287464857
-46.611008 793.22382 1318.0216 4287333276
-46.611008 795.0993 1319.603 4287333274
-46.436699 802.38342 1319.2046 4287267481
-43.992661 801.44922 1318.4169 4286283427
-46.262386 809.63245 1318.7766 4287333022
-43.827522 808.70172 1317.9918 4286480799
-41.392662 807.771 1317.207 4292599807
-46.053211 818.28497 1318.224 4287201947
-46.053211 820.13806 1319.7865 4287267992
-45.878899 826.37988 1318.5093 4287267481
-43.299084 832.59357 1317.2084 4285956000
-43.299084 834.43262 1318.759 4286283679
-45.530273 842.44336 1318.9733 4286939284
-43.133945 840.61133 1317.4286 4286481059
-42.968807 848.58698 1317.6133 4286480289
-45.355965 850.41199 1319.1521 4287333788
-42.836697 854.20941 1317.1219 4286218916
-45.042202 863.92456 1318.7732 4287005336
-42.671558 862.11218 1317.2451 4286087829
-43.687157 869.97278 1317.3328 4286677146
-43.687157 871.77814 1318.8551 4286676890
-42.341286 877.79132 1317.385 4285888668
-39.988991 877.79132 1317.385 4291415279
-39.988991 879.58966 1318.9014 4291677936
-39.833027 886.46338 1318.157 4291219942
37.48991 887.35907 1318.9122 4290556361
-39.708256 892.83008 1318.2931 4290694373
35.036697 892.83008 1318.2931 4290425030
37.372478 892.83008 1318.2931 4290293955
-39.708256 894.61578 1319.7987 4290760166
37.372478 894.61578 1319.7987 4290163139
39.708256 894.61578 1319.7987 4290163139
-39.552292 902.30524 1319.7422 4290627562
-37.225689 900.52649 1318.2424 4292797182
34.899082 900.52649 1318.2424 4290162877
37.225689 902.30524 1319.7422 4290359237
-41.71376 908.18097 1318.1562 4285889170
-44.031193 909.95264 1319.6501 4286347644
-41.71376 909.95264 1319.6501 4286809238
-41.58165 913.56775 1317.4662 4288123288
34.651375 913.56775 1317.4662 4291150284
-43.891743 915.33386 1318.9552 4288450195
34.651375 915.33386 1318.9552 4288912556
-41.416515 922.02869 1318.0601 4289832379
34.51376 922.02869 1318.0601 4283322716
-36.667889 928.6886 1317.1354 4290228932
-34.376148 928.6886 1317.1354 4290294725
-32.084404 928.6886 1317.1354 4290491590
29.79266 928.6886 1317.1354 4284108647
32.084404 928.6886 1317.1354 4284633181
34.376148 928.6886 1317.1354 4284567388
36.667889 928.6886 1317.1354 4284567640
-36.667889 930.44067 1318.6127 4290096832
-34.376148 930.44067 1318.6127 4290096832
-32.084404 930.44067 1318.6127 4290161603
-28.64679 930.44067 1318.6127 4290293447
-25.209175 930.44067 1318.6127 4290491084
-22.917431 930.44067 1318.6127 4290492103
-19.479816 930.44067 1318.6127 4290491851
28.64679 930.44067 1318.6127 4284829022
32.084404 930.44067 1318.6127 4284829276
34.376148 930.44067 1318.6127 4284697691
36.667889 930.44067 1318.6127 4284697943
-9.1376143 935.73773 1317.8468 4289635005
-6.8532109 935.73773 1317.8468 4287990437
-4.5688071 935.73773 1317.8468 4287793053
-2.2844036 935.73773 1317.8468 4288056482
0 935.73773 1317.8468 4288646039
-2.2844036 937.48413 1319.3193 4287070590
-55.020184 758.56879 1322.8102 4287990434
-52.519264 756.6568 1321.198 4288122529
-52.326607 763.17078 1320.1503 4288122788
-52.326607 765.07574 1321.7565 4288385959
-52.133945 772.5036 1321.4792 4288253354
-49.651375 772.5036 1321.4792 4287859875
-49.431194 781.37079 1321.1077 4287859615
-49.247707 788.7215 1320.7655 4288056743
-46.78532 788.7215 1320.7655 4287530399
-49.247707 790.604 1322.3528 4287925157
-46.611008 796.97485 1321.1843 4287201688
-49.06422 798.85034 1322.7657 4287728032
-48.880733 805.18616 1321.5677 4287793825
-46.436699 805.18616 1321.5677 4287267481
-48.697247 811.4939 1320.3462 4287793575
-46.262386 811.4939 1320.3462 4287530147
-48.697247 813.35541 1321.9156 4287728293
-46.262386 813.35541 1321.9156 4287333536
-46.053211 821.99109 1321.3489 4287399835
-49.688992 823.84412 1322.9114 4287727004
-45.878899 829.14893 1320.844 4287267994
-45.704586 836.27161 1320.3097 4287070868
-48.110092 838.11066 1321.8602 4287465628
-45.704586 838.11066 1321.8602 4287005077
-46.728439 844.27539 1320.5181 4287136661
-46.728439 846.10736 1322.0627 4287202456
-46.151684 853.45367 1321.7168 4287202201
-45.216515 857.84821 1320.1901 4287070872
-45.216515 859.6676 1321.7241 4287137178
-46.227524 865.73688 1320.3014 4287005590
-49.783485 867.54926 1321.8295 4287530651
