# .PCD v0.7 - Point Cloud Data file format
VERSION 0.7
FIELDS x y z rgb
SIZE 4 4 4 4
TYPE F F F U
COUNT 1 1 1 1
WIDTH 1169
HEIGHT 1
VIEWPOINT 0 0 0 1 0 0 0
POINTS 1169
DATA ascii
-24.765137 940.3634 1298.2025 4294179583
-22.513762 940.3634 1298.2025 4294639615
-19.136696 940.3634 1298.2025 4294901759
-15.759633 940.3634 1298.2025 4294967295
-66.732109 755.86212 1299.5995 4289507049
-64.260551 755.86212 1299.5995 4289441510
-61.78899 755.86212 1299.5995 4289507303
-2.4715595 755.86212 1299.5995 4294967295
-66.732109 757.75165 1301.1926 4289177829
-64.260551 757.75165 1301.1926 4288980966
0 757.75165 1301.1926 4294967295
-66.484406 764.24878 1300.1307 4289046498
-64.022018 764.24878 1300.1307 4289047276
-61.559631 764.24878 1300.1307 4289310449
-4.9247708 764.24878 1300.1307 4294967295
-2.4623854 764.24878 1300.1307 4294967295
-66.484406 766.13135 1301.718 4288915423
-64.022018 766.13135 1301.718 4288915947
-2.4623854 766.13135 1301.718 4294967295
0 766.13135 1301.718 4294967295
-63.783485 770.71783 1299.0452 4288850150
-61.330276 770.71783 1299.0452 4289113321
-4.9064221 770.71783 1299.0452 4294967295
-2.4532111 770.71783 1299.0452 4294967295
-66.236694 772.59332 1300.6265 4288916445
-63.783485 772.59332 1300.6265 4289047013
-2.4532111 772.59332 1300.6265 4294967295
0 772.59332 1300.6265 4294508543
-63.544952 779.02734 1299.5114 4289179362
-61.100918 779.02734 1299.5114 4289047776
-58.656879 779.02734 1299.5114 4288719847
-4.8880734 779.02734 1299.5114 4294967295
-2.4440367 779.02734 1299.5114 4294967295
0 779.02734 1299.5114 4294180351
-63.544952 780.89581 1301.0868 4288718811
-4.8880734 780.89581 1301.0868 4294967295
-2.4440367 780.89581 1301.0868 4294967295
0 780.89581 1301.0868 4294180607
-65.741287 787.2948 1299.942 4288850404
-7.3045874 787.2948 1299.942 4294967295
-4.8697248 787.2948 1299.942 4294967295
-68.176147 789.15625 1301.5116 4288848864
-7.3045874 789.15625 1301.5116 4294967295
-4.8697248 789.15625 1301.5116 4294967295
-70.29174 797.90137 1301.0371 4288849370
-67.867889 796.97485 1300.2559 4288849118
-65.444038 796.97485 1300.2559 4288783325
-4.8477063 796.97485 1300.2559 4294967295
-72.440369 805.15039 1300.6091 4288586458
-70.025688 805.15039 1300.6091 4288717787
-67.611008 805.15039 1300.6091 4288520665
-65.196327 805.15039 1300.6091 4288651994
-62.781651 805.15039 1300.6091 4288389848
-4.8293576 804.22736 1299.8308 4294967295
-2.4146788 806.07336 1301.3873 4294967295
-72.165138 812.36426 1300.1516 4288520669
-69.759636 812.36426 1300.1516 4288520669
-61.340366 812.36426 1300.1516 4288522202
-4.8110094 812.36426 1300.1516 4294967295
-72.165138 814.20331 1301.7021 4288718298
-69.759636 814.20331 1301.7021 4288520919
-67.354126 814.20331 1301.7021 4288258526
-62.543118 814.20331 1301.7021 4288325339
-4.8110094 814.20331 1301.7021 4294967295
-69.493576 820.45917 1300.4368 4288586201
-67.097244 820.45917 1300.4368 4288191704
-62.304588 820.45917 1300.4368 4288718816
-7.1889906 820.45917 1300.4368 4294967295
-69.493576 822.2912 1301.9814 4289047011
-67.097244 822.2912 1301.9814 4288652509
-64.70092 822.2912 1301.9814 4288586460
-62.304588 822.2912 1301.9814 4288586975
-4.7926607 822.2912 1301.9814 4294967295
-62.066055 826.68701 1299.1478 4288389853
-59.678898 826.68701 1299.1478 4288652768
-7.161468 826.68701 1299.1478 4294967295
-62.066055 828.51196 1300.6866 4288389853
-4.774312 828.51196 1300.6866 4294967295
-61.875229 835.10583 1301.0142 4288324055
-59.495415 835.10583 1301.0142 4288521178
-4.7596331 834.19617 1300.2472 4294967295
-61.636696 842.17603 1300.4354 4288324821
-59.266056 842.17603 1300.4354 4288259028
-4.7412844 842.17603 1300.4354 4294967295
-66.377983 843.9884 1301.9636 4288258265
-64.007339 843.9884 1301.9636 4288455644
-61.636696 843.9884 1301.9636 4288258766
-61.398167 848.30841 1299.066 4288390101
-59.036697 848.30841 1299.066 4288390101
-4.7229357 848.30841 1299.066 4294967295
-61.398167 850.11377 1300.5883 4288323806
-59.036697 850.11377 1300.5883 4288258013
-4.7229357 850.11377 1300.5883 4294967295
-58.807339 856.21118 1299.1892 4288389599
-55.2789 856.21118 1299.1892 4288457188
-7.056881 856.21118 1299.1892 4294967295
-58.807339 858.00952 1300.7056 4288193503
-55.2789 858.00952 1300.7056 4288325859
-7.056881 858.00952 1300.7056 4294967295
-58.57798 865.86304 1300.7874 4288193249
-56.234863 865.86304 1300.7874 4287997405
-53.891743 864.96741 1300.0322 4288326114
-7.0293579 864.07172 1299.277 4294967295
-4.6862388 864.96741 1300.0322 4294967295
-58.394497 871.40137 1300.225 4288456672
-56.058716 871.40137 1300.225 4288260311
-53.722935 871.40137 1300.225 4288326104
-7.0073395 871.40137 1300.225 4294967295
-4.6715598 871.40137 1300.225 4294967295
-60.730274 873.18713 1301.7306 4288127447
-58.394497 873.18713 1301.7306 4288390362
-56.058716 873.18713 1301.7306 4288587995
-53.722935 873.18713 1301.7306 4288258774
-7.0073395 873.18713 1301.7306 4294967295
-4.6715598 873.18713 1301.7306 4294967295
-2.3357799 873.18713 1301.7306 4294967295
-52.348621 880.07135 1300.9951 4287669740
-9.3064222 879.18201 1300.2452 4294967295
-6.9798164 880.07135 1300.9951 4294967295
-4.6532111 880.96069 1301.745 4294967295
-49.824768 886.92059 1300.2301 4290303999
-9.2697248 886.92059 1300.2301 4294967295
-6.9522934 886.92059 1300.2301 4294967295
-53.300919 888.69226 1301.7239 4287602908
-50.983486 888.69226 1301.7239 4286753275
-6.9522934 888.69226 1301.7239 4294967295
-49.666969 892.37476 1299.5967 4290369021
-46.201836 892.37476 1299.5967 4294967295
-9.2403669 892.37476 1299.5967 4294967295
-50.822018 894.14087 1301.0858 4287475704
-57.522934 901.79944 1301.0032 4288189656
-55.222019 900.91992 1300.2616 4286944460
-52.921101 900.04034 1299.52 4287536854
-9.2036695 900.91992 1300.2616 4294967295
-55.001835 907.66394 1299.408 4287273166
-52.710091 907.66394 1299.408 4287931097
-55.001835 909.41602 1300.8851 4287535822
-9.1669722 909.41602 1300.8851 4294967295
-54.825687 914.78033 1300.1761 4287206345
-9.1376143 914.78033 1300.1761 4294967295
-57.110092 916.52679 1301.6487 4288125648
-54.825687 916.52679 1301.6487 4287994321
-9.1376143 916.52679 1301.6487 4294967295
-6.8532109 916.52679 1301.6487 4294967295
-54.605503 922.32391 1299.9966 4288652766
-52.330276 922.32391 1299.9966 4290429177
-9.1009178 922.32391 1299.9966 4294967295
-55.743118 924.06335 1301.4633 4288521173
-9.1009178 924.06335 1301.4633 4294967295
-55.185322 928.79083 1300.2172 4287929039
-52.161469 928.50189 1299.9735 4290100470
-49.893578 928.50189 1299.9735 4289839088
-46.491741 928.50183 1299.9735 4292405247
-43.089909 927.63501 1299.2426 4294311935
-40.822018 927.63501 1299.2426 4294967295
-13.60734 927.63501 1299.2426 4294967295
-11.33945 928.50189 1299.9735 4294967295
-33.908257 934.65179 1299.9269 4292339436
-31.647707 934.65179 1299.9269 4292536575
-13.563303 934.65179 1299.9269 4294967295
-31.647707 936.38 1301.384 4291682047
-29.387156 936.38 1301.384 4293853183
-13.563303 936.38 1301.384 4294967295
-27.016514 942.94519 1300.3794 4292008959
-24.765137 942.94519 1300.3794 4292732415
-22.513762 942.94519 1300.3794 4293390335
-19.136696 942.94519 1300.3794 4293981695
-15.759633 942.94519 1300.3794 4294507775
-69.203667 760.58594 1303.5825 4289046242
-66.732109 759.64117 1302.7859 4289177829
0 760.58594 1303.5825 4294967295
-68.125999 768.6413 1303.8344 4288981982
0 768.01379 1303.3053 4294836223
-66.236694 775.40662 1302.9985 4289310693
0 774.46881 1302.2079 4294115071
-65.988991 782.76428 1302.6622 4288849378
-2.4440367 782.76428 1302.6622 4294967295
0 782.76428 1302.6622 4294049279
-68.433029 784.63281 1304.2377 4288586975
-2.4440367 784.63281 1304.2377 4294967295
0 784.63281 1304.2377 4293983231
-70.611008 791.0177 1303.0812 4288783323
-68.176147 791.0177 1303.0812 4288849118
-2.4348624 791.0177 1303.0812 4294967295
0 791.0177 1303.0812 4293852415
-70.611008 792.87921 1304.6508 4288849116
-2.4348624 792.87921 1304.6508 4294967295
0 792.87921 1304.6508 4293720575
-75.13945 799.75439 1302.5996 4288717530
-72.715599 799.75439 1302.5996 4288717530
-70.29174 799.75439 1302.5996 4288717530
-67.867889 799.75439 1302.5996 4288717278
-4.8477063 799.75439 1302.5996 4294967295
-2.4238532 799.75439 1302.5996 4294967295
-2.4238532 801.60742 1304.162 4294967295
0 801.60742 1304.162 4293588479
-72.440369 807.91943 1302.9438 4288388313
-70.025688 807.91943 1302.9438 4288783071
-67.611008 808.84247 1303.7222 4288521438
-65.196327 808.84247 1303.7222 4288784354
-62.781651 807.91943 1302.9438 4288587995
-2.4146788 808.84247 1303.7222 4294967295
0 808.84247 1303.7222 4293457663
-72.966972 817.26837 1304.2865 4288520406
-69.759636 816.04236 1303.2528 4288586199
-67.354126 816.04236 1303.2528 4288257759
-64.948624 816.96185 1304.0281 4288718051
-4.8110094 816.96185 1304.0281 4294967295
-2.4055047 817.88135 1304.8035 4294967295
-69.493576 824.12317 1303.5262 4288520921
-67.097244 824.12317 1303.5262 4288586460
-64.70092 824.12317 1303.5262 4288586460
-4.7926607 824.12317 1303.5262 4294967295
-2.3963304 824.12317 1303.5262 4294967295
-62.066055 830.33698 1302.2253 4288389851
-4.774312 830.33698 1302.2253 4294967295
-66.84037 832.16199 1303.7642 4288652255
-64.453209 832.16199 1303.7642 4288981220
-66.634865 838.74463 1304.0823 4288258265
-64.255043 838.74463 1304.0823 4288389851
-2.3798165 838.74463 1304.0823 4294967295
-66.377983 845.80078 1303.4917 4288192469
-64.007339 845.80078 1303.4917 4288455898
-2.3706422 845.80078 1303.4917 4294967295
-61.398167 851.91919 1302.1105 4288258526
-59.036697 851.91919 1302.1105 4288258526
-4.7229357 851.91919 1302.1105 4294967295
-63.759632 853.72449 1303.6327 4288586464
-61.398167 853.72449 1303.6327 4288455392
-4.7229357 853.72449 1303.6327 4294967295
-58.807339 859.80786 1302.2218 4288390112
-55.2789 859.80786 1302.2218 4288194017
-4.704587 859.80786 1302.2218 4294967295
-58.807339 861.6062 1303.7382 4288390112
-56.455048 861.6062 1303.7382 4287931099
-2.3522935 861.6062 1303.7382 4294967295
-64.435776 869.44574 1303.8081 4287995343
-60.921101 869.44574 1303.8081 4287996121
-58.57798 867.65442 1302.2977 4287931358
-56.234863 867.65442 1302.2977 4288194266
-4.6862388 867.65442 1302.2977 4294967295
-2.3431194 868.55005 1303.053 4294967295
0 869.44574 1303.8081 4292996607
-63.066055 874.97284 1303.2363 4288520919
-60.730274 874.97284 1303.2363 4288389333
-58.394497 874.97284 1303.2363 4288257747
-56.058716 874.97284 1303.2363 4287732702
-53.722935 874.97284 1303.2363 4287995617
-4.6715598 874.97284 1303.2363 4294967295
-2.3357799 874.97284 1303.2363 4294770686
-64.233948 876.75854 1304.7419 4288126413
-60.730274 876.75854 1304.7419 4288125902
-58.394497 876.75854 1304.7419 4288388817
-56.058716 876.75854 1304.7419 4287666646
-4.6715598 876.75854 1304.7419 4294967295
-2.3357799 876.75854 1304.7419 4294967295
-65.144951 884.51813 1304.7445 4287796680
-61.267277 883.92523 1304.2446 4287731659
-58.165138 883.62878 1303.9946 4287929551
-55.838531 883.62878 1303.9946 4287667671
-53.511925 883.62878 1303.9946 4287996636
-6.9798164 882.73938 1303.2448 4294967295
-4.6532111 883.62878 1303.9946 4294967295
-53.300919 890.46399 1303.2178 4287668190
-6.9522934 890.46399 1303.2178 4294967295
-57.93578 892.23566 1304.7117 4287864018
-55.618347 892.23566 1304.7117 4287536602
-53.300919 892.23566 1304.7117 4287865567
-6.9522934 892.23566 1304.7117 4294967295
-55.442204 895.90692 1302.575 4287207891
-57.752293 897.67303 1304.0641 4288189906
-57.522934 904.43799 1303.228 4288124881
-55.222019 903.55847 1302.4865 4286944201
-6.9027524 905.31757 1303.9696 4294967295
-57.293579 911.16803 1302.3624 4287992524
-6.8752294 911.16803 1302.3624 4294967295
-57.293579 912.92004 1303.8397 4288058571
-6.8752294 912.92004 1303.8397 4294967295
-4.5834861 912.92004 1303.8397 4294967295
-2.291743 912.92004 1303.8397 4294967295
-57.110092 919.14648 1303.8574 4288389072
-54.825687 918.27325 1303.1212 4288718298
-6.8532109 919.14648 1303.8574 4294967295
-4.5688071 920.01965 1304.5938 4294967295
-56.880733 925.80273 1302.9298 4288587214
-9.1009178 925.80273 1302.9298 4294967295
-59.155964 927.54224 1304.3965 4286679219
-9.1009178 927.54224 1304.3965 4294967295
-6.8256879 927.54224 1304.3965 4294967295
-4.5504589 927.54224 1304.3965 4294967295
-55.563305 931.96954 1302.8973 4287534527
-52.161469 931.96954 1302.8973 4289509860
-49.893578 931.96954 1302.8973 4289313773
-46.491745 931.96954 1302.8973 4292208383
-43.089909 931.96954 1302.8973 4294705151
-40.822018 931.96954 1302.8973 4294967295
-37.420181 932.83643 1303.6283 4294705151
-11.33945 931.96954 1302.8973 4294967295
-29.387156 938.10822 1302.8412 4292009215
-13.563303 938.10822 1302.8412 4294967295
-29.387156 939.83643 1304.2983 4291747071
-13.563303 939.83643 1304.2983 4294967295
-11.302752 939.83643 1304.2983 4294967295
-27.016514 945.52698 1302.5563 4291285503
-24.765137 945.52698 1302.5563 4291679999
-22.513762 946.38757 1303.282 4291876607
-19.511925 946.10077 1303.04 4292600319
-71.994499 756.37109 1307.8767 4289112804
2.4825687 756.37109 1307.8767 4294967295
-70.439453 763.42023 1305.9723 4289047010
-71.675232 765.30975 1307.5654 4289113056
-68.946793 771.77887 1306.4799 4288916447
-66.236694 778.21985 1305.3706 4289046498
-68.689911 780.09534 1306.952 4288718048
2.4532111 780.09534 1306.952 4293786111
-70.877068 786.50128 1305.8131 4288652257
-2.4440367 786.50128 1305.8131 4294967295
0 786.50128 1305.8131 4293852415
-75.480736 794.74066 1306.2202 4288913880
-73.045868 794.74066 1306.2202 4288717528
-2.4348624 794.74066 1306.2202 4294967295
0 794.74066 1306.2202 4293391615
0 796.60217 1307.7898 4293391615
0 803.46051 1305.7245 4293588479
-65.196327 811.61151 1306.057 4288521954
-2.4146788 811.61151 1306.057 4294967295
0 811.61151 1306.057 4292932095
-2.4146788 813.45758 1307.6135 4294967295
0 813.45758 1307.6135 4292866303
-76.976151 821.55945 1307.9047 4288191954
-73.367889 820.63989 1307.1294 4288389335
-2.4055047 819.7204 1306.354 4294967295
0 820.63989 1307.1294 4292668159
-76.682571 825.9552 1305.0709 4288125396
-70.691742 826.87122 1305.8433 4288519638
-67.097244 826.87122 1305.8433 4288454875
-64.70092 826.87122 1305.8433 4288586461
-2.3963304 826.87122 1305.8433 4292928225
-69.227524 833.987 1305.303 4288454872
-66.84037 833.987 1305.303 4288585949
-64.453209 833.987 1305.303 4288585949
-2.387156 833.987 1305.303 4294704123
-69.227524 835.81201 1306.8418 4288454872
-69.014679 841.47369 1306.3834 4288388827
-2.3798165 841.47369 1306.3834 4294967295
-69.014679 843.29309 1307.9175 4288258263
0 843.29309 1307.9175 4292930815
-66.377983 847.61316 1305.0199 4288258263
-64.007339 847.61316 1305.0199 4288389849
-2.3706422 847.61316 1305.0199 4294967295
-67.563309 849.42554 1306.5481 4288257235
-64.007339 849.42554 1306.5481 4288520669
-2.3706422 849.42554 1306.5481 4294967295
-66.908257 856.7334 1306.1698 4288192210
-63.759632 856.43256 1305.916 4288324053
-61.398167 856.43256 1305.916 4288193246
-4.7229357 855.52991 1305.1549 4294967295
-2.3614678 856.43256 1305.916 4294967295
0 857.33521 1306.6772 4292930559
-61.159634 863.40454 1305.2545 4287864540
-2.3522935 863.40454 1305.2545 4294967295
-68.216515 865.20288 1306.7708 4288322772
-64.688072 865.20288 1306.7708 4287601616
-61.159634 865.20288 1306.7708 4287536600
0 865.20288 1306.7708 4293193215
-67.950462 871.23706 1305.3186 4288256977
-64.435776 871.23706 1305.3186 4288192467
0 871.23706 1305.3186 4292733951
-67.950462 873.02844 1306.829 4288059855
-65.607338 873.02844 1306.829 4288126161
0 873.02844 1306.829 4292798975
-67.737617 878.54431 1306.2477 4288453579
-64.233948 878.54431 1306.2477 4288257483
-60.730274 878.54431 1306.2477 4287994573
-58.394497 878.54431 1306.2477 4288455124
-56.058716 878.54431 1306.2477 4287864540
-2.3357799 878.54431 1306.2477 4294967295
0 878.54431 1306.2477 4293128191
-70.073395 880.33002 1307.7534 4287926983
-67.737617 880.33002 1307.7534 4288058569
-64.233948 880.33002 1307.7534 4288058823
-2.3357799 880.33002 1307.7534 4294967295
0 880.33002 1307.7534 4292997119
-67.471558 886.29688 1306.2443 4287534792
-65.144951 886.29688 1306.2443 4287665864
-61.655045 886.29688 1306.2443 4287995085
-58.165138 886.29688 1306.2443 4288192719
-55.838531 886.29688 1306.2443 4287339993
-4.6532111 886.29688 1306.2443 4294967295
-67.471558 888.07556 1307.744 4287862475
-65.144951 888.07556 1307.744 4287732168
-61.655045 888.07556 1307.744 4287666890
-58.165138 888.07556 1307.744 4288061649
-55.838531 888.07556 1307.744 4287536604
-4.6532111 888.07556 1307.744 4294967295
-2.3266056 888.07556 1307.744 4294967295
-67.205505 895.77905 1307.6993 4287469253
-64.888077 895.77905 1307.6993 4287926983
-61.025684 895.18848 1307.2013 4287993037
-57.93578 894.00739 1306.2054 4288125396
-6.9522934 894.89319 1306.9524 4294967295
-4.6348624 894.89319 1306.9524 4294967295
-61.21743 899.43909 1305.5532 4287860685
-64.682571 901.2052 1307.0424 4287992517
-61.21743 901.2052 1307.0424 4287795913
-6.9302754 901.2052 1307.0424 4294967295
-59.056881 907.66302 1305.9473 4287795917
-6.9027524 907.07666 1305.4529 4294967295
-4.6018348 908.83569 1306.936 4294967295
-2.3009174 908.83569 1306.936 4294967295
-59.58532 914.67212 1305.317 4287862475
-4.5834861 914.67212 1305.317 4294967295
-2.291743 914.67212 1305.317 4294967295
-59.58532 916.42419 1306.7943 4287533763
-4.5834861 916.42419 1306.7943 4294967295
-2.291743 916.42419 1306.7943 4294967295
0 916.42419 1306.7943 4292407295
-61.678898 923.51257 1307.5389 4288125118
-59.394497 922.63934 1306.8027 4287600319
-6.8532109 922.63934 1306.8027 4294967295
-4.5688071 922.63934 1306.8027 4294967295
-2.2844036 923.51257 1307.5389 4294442234
-61.431194 929.28162 1305.8632 4287202731
-59.155964 929.28162 1305.8632 4287006903
-9.1009178 929.28162 1305.8632 4294967295
-6.8256879 929.28162 1305.8632 4294967295
-4.5504589 929.28162 1305.8632 4294967295
-2.2752295 929.28162 1305.8632 4294574078
-61.431194 931.02106 1307.3298 4287793839
-59.155964 931.02106 1307.3298 4287072428
-9.1009178 931.02106 1307.3298 4294967295
-6.8256879 931.02106 1307.3298 4294967295
-4.5504589 931.02106 1307.3298 4294967295
-55.563301 934.57031 1305.0902 4288059840
-52.161469 934.57031 1305.0902 4289770722
-49.893578 934.57031 1305.0902 4289838827
-46.491745 934.57031 1305.0902 4292536063
-43.089909 934.57031 1305.0902 4294967295
-40.822018 934.57031 1305.0902 4294967295
-37.420181 934.57031 1305.0902 4294770687
-34.018349 934.57031 1305.0902 4291943141
-11.33945 934.57031 1305.0902 4294967295
-37.420181 936.30408 1306.5521 4294245119
-34.018349 936.30408 1306.5521 4291021791
-31.750458 936.30408 1306.5521 4290627576
-11.33945 936.30408 1306.5521 4294967295
-29.387156 941.56458 1305.7556 4291547647
-13.563303 941.56458 1305.7556 4294770687
-29.387156 943.29285 1307.2128 4291350527
-15.823853 943.29285 1307.2128 4293915903
-13.563303 943.29285 1307.2128 4294967295
-19.136696 948.96936 1305.4589 4291678975
-71.994499 758.26904 1309.4771 4289046498
2.4825687 758.26904 1309.4771 4294967295
-71.675232 767.19928 1309.1587 4289310434
2.4715595 767.19928 1309.1587 4294311935
-71.675232 769.08881 1310.7518 4289047524
2.4715595 769.08881 1310.7518 4293983487
-68.946793 773.66138 1308.0671 4288981472
2.4623854 773.66138 1308.0671 4294114559
-68.946793 775.54388 1309.6545 4288914912
2.4623854 775.54388 1309.6545 4293982975
2.4532111 781.97083 1308.5333 4293786111
2.4532111 783.84631 1310.1147 4293720831
4.9064221 783.84631 1310.1147 4293587711
-75.765137 790.23828 1308.9641 4288979673
-73.321098 790.23828 1308.9641 4288717530
2.4440367 792.10675 1310.5396 4293260031
0 815.30359 1309.17 4292997887
-74.570641 823.39844 1309.4553 4288388567
0 823.39844 1309.4553 4284454655
-74.28624 829.61926 1308.1604 4288519122
-70.691742 829.61926 1308.1604 4288519901
-2.3963304 829.61926 1308.1604 4292796126
-71.889908 831.45123 1309.7051 4288126163
0 831.45123 1309.7051 4293651967
-76.388992 838.54944 1309.1499 4288322510
-74.001831 838.54944 1309.1499 4288256717
-70.818962 838.2453 1308.8936 4288191701
0 838.54944 1309.1499 4293324543
-70.20459 845.11249 1309.4515 4288389587
0 845.11249 1309.4515 4292864767
-73.774315 846.93188 1310.9856 4288126411
-71.394493 846.93188 1310.9856 4288257229
0 846.93188 1310.9856 4292864767
-71.119263 851.23792 1308.0762 4288257229
-67.563309 851.23792 1308.0762 4288191443
-2.3706422 851.23792 1308.0762 4294967295
0 851.23792 1308.0762 4292864767
-73.489906 853.05029 1309.6044 4287996106
-71.119263 853.05029 1309.6044 4288192206
-68.748627 853.05029 1309.6044 4288257999
0 853.05029 1309.6044 4292733951
-73.205505 860.94598 1309.7217 4287732166
-70.84404 860.04333 1308.9606 4287863247
-67.301834 860.04333 1308.9606 4288192724
-63.759632 860.04333 1308.9606 4287996113
-61.398167 859.14062 1308.1995 4288258526
0 860.04333 1308.9606 4292864767
-72.921104 867.90039 1309.0453 4287928264
-70.56881 867.00122 1308.2871 4287928014
-68.216515 867.00122 1308.2871 4288388565
-67.950462 874.8197 1308.3394 4288125902
0 874.8197 1308.3394 4292997119
-70.073395 883.00854 1310.0118 4287336645
-67.737617 882.11572 1309.259 4287599306
-2.3357799 883.00854 1310.0118 4294967295
0 883.00854 1310.0118 4293588735
-69.798164 889.85425 1309.2438 4287599556
-67.471558 889.85425 1309.2438 4287599556
-65.144951 889.85425 1309.2438 4287796680
-61.655045 889.85425 1309.2438 4287665866
-4.6532111 889.85425 1309.2438 4294967295
-2.3266056 889.85425 1309.2438 4294967295
-69.798164 891.63293 1310.7435 4287401924
-67.471558 891.63293 1310.7435 4287533511
-65.144951 891.63293 1310.7435 4287730633
-62.818348 891.63293 1310.7435 4287862475
-2.3266056 891.63293 1310.7435 4294967295
-67.205505 898.43665 1309.9401 4287861959
-64.888077 897.55078 1309.1931 4287926985
-6.9522934 897.55078 1309.1931 4294967295
-4.6348624 898.43665 1309.9401 4294967295
-2.3174312 898.43665 1309.9401 4294967295
-61.21743 902.97125 1308.5315 4288190155
-4.6201835 902.97125 1308.5315 4294967295
-2.3100917 902.97125 1308.5315 4294967295
-64.682571 904.73737 1310.0205 4287403204
-62.372478 904.73737 1310.0205 4287469253
-4.6201835 904.73737 1310.0205 4294967295
-2.3100917 904.73737 1310.0205 4294967295
-62.124771 910.59479 1308.4192 4287928518
-59.823853 910.59479 1308.4192 4288124364
0 910.59479 1308.4192 4293391871
-62.124771 912.35388 1309.9025 4287995075
0 912.35388 1309.9025 4292734975
-68.752296 919.05231 1309.0103 4288060872
-61.877064 919.05231 1309.0103 4288060612
-59.58532 918.17627 1308.2716 4287599302
-2.291743 919.05231 1309.0103 4294967295
0 919.05231 1309.0103 4291222527
-61.678898 925.25903 1309.0115 4286940588
-2.2844036 925.25903 1309.0115 4294508543
-63.963303 927.00549 1310.484 4287202731
0 927.00549 1310.484 4291745791
-61.431194 932.7605 1308.7964 4287729327
-59.155964 932.7605 1308.7964 4287401389
-9.1009178 932.7605 1308.7964 4294967295
-6.8256879 932.7605 1308.7964 4294967295
-59.155964 934.49994 1310.2631 4288782780
-55.743118 934.49994 1310.2631 4290361045
-52.330276 934.49994 1310.2631 4290689242
-50.055046 934.49994 1310.2631 4290495213
-46.6422 934.49994 1310.2631 4291022330
-43.229359 934.49994 1310.2631 4291943935
-40.954128 934.49994 1310.2631 4293192191
-9.1009178 934.49994 1310.2631 4294967295
-6.8256879 934.49994 1310.2631 4294967295
-34.018349 938.0379 1308.014 4291021539
-31.750458 938.0379 1308.014 4290365439
-9.0715599 938.0379 1308.014 4294967295
-34.018349 940.63867 1310.2069 4291020798
-31.750458 940.63867 1310.2069 4290758392
-11.33945 940.63867 1310.2069 4294967295
-27.126606 945.02106 1308.6699 4291416063
-24.866055 945.88513 1309.3984 4291613695
-22.605505 946.74927 1310.1271 4291547647
-18.084404 945.02106 1308.6699 4291547647
-15.823853 945.88513 1309.3984 4291744767
4.9834862 754.59845 1312.9222 4294967295
7.4752293 754.59845 1312.9222 4294967295
2.4825687 760.16699 1311.0774 4294967295
-74.477066 762.06494 1312.6776 4288849883
2.4825687 762.06494 1312.6776 4294836223
4.9651375 762.06494 1312.6776 4294770687
-71.675232 770.97833 1312.3451 4288981470
4.943119 770.97833 1312.3451 4293916927
-71.675232 772.86786 1313.9382 4288652509
4.943119 772.86786 1313.9382 4293916927
-71.409172 778.36768 1312.0354 4288586718
4.9247708 778.36768 1312.0354 4293653503
-73.596329 785.7218 1311.6962 4288454359
2.4532111 785.7218 1311.6962 4293457663
4.9064221 785.7218 1311.6962 4292996607
2.4532111 787.59735 1313.2775 4293457663
4.9064221 787.59735 1313.2775 4293391103
7.359633 787.59735 1313.2775 4293522431
2.4440367 793.97522 1312.115 4293128703
2.4440367 795.84375 1313.6904 4293127934
4.8880734 795.84375 1313.6904 4293258751
2.4348624 802.18652 1312.4984 4293193726
2.4146788 820.84174 1313.8396 4283599615
-76.976151 825.23749 1311.006 4288125650
-74.570641 825.23749 1311.006 4288388565
0 826.15698 1311.7812 4282814702
-74.28624 833.28326 1311.2498 4288586199
-71.889908 833.28326 1311.2498 4288191956
0 833.28326 1311.2498 4293521407
-71.614677 841.28699 1311.4581 4287929298
-74.001831 843.112 1312.9969 4288126161
-73.774315 848.75128 1312.5198 4288126665
-73.489906 854.86267 1311.1324 4287864007
-71.119263 854.86267 1311.1324 4288060366
-75.86055 856.67505 1312.6606 4288060359
-73.489906 856.67505 1312.6606 4287994309
2.3706422 856.67505 1312.6606 4291548914
-75.566971 862.75134 1311.2439 4287666373
-73.205505 862.75134 1311.2439 4287732166
-70.84404 862.75134 1311.2439 4287928014
-76.747711 864.5567 1312.7661 4287665607
2.3614678 864.5567 1312.7661 4291746550
2.3522935 871.49707 1312.0779 4291022827
2.3431194 880.19373 1312.8706 4291549420
-79.416512 887.4729 1313.776 4287664317
-77.080734 887.4729 1313.776 4287664317
-73.577065 887.4729 1313.776 4287467970
-70.073395 885.68719 1312.2704 4287533511
0 886.58008 1313.0232 4293588735
-69.798164 893.41168 1312.2434 4287271617
-2.3266056 893.41168 1312.2434 4294967295
0 893.41168 1312.2434 4293589247
-69.798164 895.19043 1313.7432 4287533509
0 895.19043 1313.7432 4293786367
-67.205505 901.97998 1312.9277 4287337664
-64.888077 901.09418 1312.1809 4287993028
0 902.86584 1313.6747 4293917951
-66.992661 908.26953 1312.9988 4287664828
-64.682571 907.38647 1312.2542 4287665348
-62.372478 906.50342 1311.5096 4287730885
1.1550459 907.38647 1312.2542 4292602360
-69.027519 914.11292 1311.3856 4288059838
-64.42569 914.11292 1311.3856 4288321989
-62.124771 914.11292 1311.3856 4288190659
-73.629356 915.87201 1312.8689 4287730622
-71.328438 915.87201 1312.8689 4288256966
-66.726608 915.87201 1312.8689 4287666362
-64.42569 915.87201 1312.8689 4287928516
2.3009174 915.87201 1312.8689 4285234612
-71.044037 921.68036 1311.2262 4288913869
-66.460548 922.5564 1311.9648 4288256466
-64.168808 922.5564 1311.9648 4287532981
0 922.5564 1311.9648 4291614719
-63.963303 928.75195 1311.9565 4287925425
-2.2844036 928.75195 1311.9565 4294508541
0 928.75195 1311.9565 4291483135
-63.963303 930.49841 1313.4292 4287992498
-4.5688071 930.49841 1313.4292 4294967295
-2.2844036 930.49841 1313.4292 4294245625
0 930.49841 1313.4292 4291548927
-54.605503 937.10907 1312.4631 4290692340
-52.330276 936.23938 1311.7297 4290757365
-50.055046 936.23938 1311.7297 4290429681
-40.954128 936.23938 1311.7297 4291942389
-37.541283 937.10901 1312.4631 4292929279
-9.1009178 937.97876 1313.1964 4294967295
-6.8256879 936.23938 1311.7297 4294967295
-28.726606 944.39526 1313.3744 4291481855
-13.60734 944.10632 1313.1307 4291745535
-74.752296 757.45593 1315.3315 4288849632
4.9834862 757.45593 1315.3315 4294967295
7.4752293 757.45593 1315.3315 4294967295
9.9669724 757.45593 1315.3315 4294967295
7.4752293 759.36084 1316.9377 4294705151
9.9669724 759.36084 1316.9377 4294770687
-74.477066 763.96289 1314.278 4288915677
4.9651375 763.96289 1314.278 4294443007
-74.477066 765.86084 1315.8783 4288784609
4.9651375 765.86084 1315.8783 4293851135
7.4477062 765.86084 1315.8783 4293982719
7.4146791 774.75739 1315.5315 4293719551
-73.871559 781.19141 1314.4164 4288520415
7.387156 781.19141 1314.4164 4293587711
7.387156 783.07397 1316.0037 4293259775
4.9064221 790.41058 1315.6495 4293587967
7.359633 790.41058 1315.6495 4293587967
2.4440367 797.71222 1315.2659 4293062141
4.8880734 797.71222 1315.2659 4293258751
4.8880734 799.58069 1316.8413 4293258751
7.3321099 799.58069 1316.8413 4293390079
2.4348624 804.97876 1314.8528 4292931839
4.8697248 805.90955 1315.6376 4293128447
7.3045874 805.90955 1315.6376 4293128447
2.4238532 814.57886 1315.0991 4293128959
2.4238532 816.43188 1316.6616 4288983518
4.8477063 816.43188 1316.6616 4287340282
2.4146788 824.53381 1316.9528 4280044981
-74.570641 828.91553 1314.1072 4288322770
-74.28624 838.7793 1315.8839 4287994573
2.3963304 838.7793 1315.8839 4291746548
2.387156 846.76196 1316.0745 4292009465
-76.154129 852.39001 1315.5879 4287929800
2.3798165 852.39001 1315.5879 4291943672
-75.86055 858.48737 1314.1887 4287798215
2.3706422 859.39355 1314.9529 4291548656
-70.84404 866.36206 1314.2883 4287928268
2.3614678 866.36206 1314.2883 4291088877
4.7229357 866.36206 1314.2883 4291088639
-70.84404 868.16742 1315.8105 4287862475
4.7229357 868.16742 1315.8105 4290825983
2.3522935 875.09381 1315.1106 4291352046
4.704587 875.99298 1315.8687 4291286015
2.3431194 881.98505 1314.381 4291417317
4.6862388 881.98505 1314.381 4290693887
2.3431194 883.77643 1315.8915 4291351526
4.6862388 883.77643 1315.8915 4290825215
-79.416512 889.25861 1315.2817 4287205311
-77.080734 889.25861 1315.2817 4287271104
-73.577065 889.25861 1315.2817 4287336129
0 889.25861 1315.2817 4293785855
-73.577065 891.04437 1316.7874 4287467970
2.3357799 891.04437 1316.7874 4291417830
-69.798164 896.96912 1315.2429 4287598272
0 896.96912 1315.2429 4293852159
-69.798164 898.7478 1316.7427 4287534526
0 898.7478 1316.7427 4293918207
-67.205505 904.63757 1315.1686 4287401922
2.3174312 904.63757 1315.1686 4291549418
-69.522934 906.40924 1316.6624 4287401913
4.6348624 906.40924 1316.6624 4291351551
-70.842812 910.62427 1314.9843 4288190656
-66.992661 910.91864 1315.2324 4287928253
-64.682571 910.03558 1314.4879 4287929281
2.3100917 910.91864 1315.2324 4289577443
-73.629356 917.63104 1314.3521 4287599035
-71.328438 917.63104 1314.3521 4288322759
-66.726608 917.63104 1314.3521 4288126161
-64.42569 917.63104 1314.3521 4288257731
2.3009174 917.63104 1314.3521 4284182953
-73.629356 919.39014 1315.8352 4287729338
-69.027519 919.39014 1315.8352 4288914660
2.3009174 919.39014 1315.8352 4284245918
-67.606422 926.06049 1314.9194 4287991476
2.291743 925.18445 1314.1808 4284245405
-63.963303 932.24481 1314.9017 4288388288
-61.678898 932.24481 1314.9017 4288125116
-4.5688071 932.24481 1314.9017 4294967295
-2.2844036 932.24481 1314.9017 4294639615
0 932.24481 1314.9017 4291549439
-61.678898 933.99127 1316.3743 4289703880
-58.252296 933.99127 1316.3743 4290625750
-46.830276 933.99127 1316.3743 4290495467
-43.403671 933.99127 1316.3743 4291022061
-4.5688071 933.99127 1316.3743 4294967295
-2.2844036 933.99127 1316.3743 4294705151
-36.403671 939.71826 1314.663 4291481599
-34.128441 941.45764 1316.1296 4291283967
-31.85321 941.45764 1316.1296 4290956027
-10.238532 940.58795 1315.3962 4293718015
-24.946789 946.70703 1315.3236 4291283967
-22.6789 946.70703 1315.3236 4291022847
-19.277065 946.70703 1315.3236 4291153919
-15.875229 946.70703 1315.3236 4291876863
-22.6789 948.4408 1316.7855 4291678975
7.4752293 761.26581 1318.5439 4294377215
9.9669724 761.26581 1318.5439 4294574079
-74.477066 767.75873 1317.4785 4288915677
7.4477062 767.75873 1317.4785 4294048511
-74.477066 769.65668 1319.0789 4288652509
7.4477062 769.65668 1319.0789 4293851135
7.4146791 776.64697 1317.1246 4293653503
9.8862381 778.5365 1318.7179 4293653759
9.8495417 784.95642 1317.5909 4293456127
9.8495417 786.83899 1319.1782 4293192959
7.359633 793.22382 1318.0216 4293258751
9.8128443 793.22382 1318.0216 4292995071
7.359633 795.0993 1319.603 4293390079
9.8128443 795.0993 1319.603 4292995071
4.8880734 801.44922 1318.4169 4293062399
7.3321099 801.44922 1318.4169 4293128447
9.7761469 803.31769 1319.9923 4292733695
2.4348624 808.70172 1317.9918 4292800511
4.8697248 808.70172 1317.9918 4293718527
7.3045874 808.70172 1317.9918 4293981695
4.8477063 818.28497 1318.224 4279590106
7.2715597 818.28497 1318.224 4280313572
2.4238532 820.13806 1319.7865 4278609853
4.8477063 820.13806 1319.7865 4282867638
7.2715597 820.13806 1319.7865 4283986376
2.4146788 826.37988 1318.5093 4288388538
2.4055047 832.59357 1317.2084 4292468985
2.4055047 834.43262 1318.759 4292732671
4.8110094 834.43262 1318.759 4292403455
-79.078896 840.61133 1317.4286 4288124366
-76.682571 841.52734 1318.2009 4287994828
2.3963304 841.52734 1318.2009 4291614707
-76.388992 848.58698 1317.6133 4287930313
2.387156 848.58698 1317.6133 4291747063
4.774312 850.41199 1319.1521 4291614463
4.7596331 854.20941 1317.1219 4291679999
-78.533943 856.02881 1318.656 4287863755
4.7596331 856.02881 1318.656 4291614463
4.7412844 862.11218 1317.2451 4291089151
7.1119266 863.92456 1318.7732 4291483391
-70.84404 869.97278 1317.3328 4287994060
-70.84404 871.77814 1318.8551 4288321993
4.704587 877.79132 1317.385 4290891007
7.056881 877.79132 1317.385 4291154175
7.056881 879.58966 1318.9014 4291154431
2.3431194 886.46338 1318.157 4291483367
4.6862388 886.46338 1318.157 4291022847
-73.577065 892.83008 1318.2931 4287599301
2.3357799 892.83008 1318.2931 4291483623
-73.577065 894.61578 1319.7987 4287139518
2.3357799 894.61578 1319.7987 4291549416
-69.798164 901.41589 1318.9923 4287205568
2.3266056 900.52649 1318.2424 4291615465
4.6348624 908.18097 1318.1562 4291154687
4.6348624 909.95264 1319.6501 4287993308
4.6201835 913.56775 1317.4662 4282277818
4.6201835 915.33386 1318.9552 4282997148
6.9302754 915.33386 1318.9552 4285036988
-75.930275 921.14917 1317.3185 4287336118
-73.629356 921.14917 1317.3185 4287860665
-70.561462 921.73553 1317.8129 4288781513
2.3009174 921.14917 1317.3185 4284574370
4.6018348 922.90826 1318.8016 4284374173
-66.460548 928.6886 1317.1354 4288254138
-66.460548 930.44067 1318.6127 4288451521
-58.252296 935.73773 1317.8468 4290956016
-52.541283 935.73773 1317.8468 4290561521
-50.256882 935.73773 1317.8468 4290298352
-46.830276 935.73773 1317.8468 4290100716
-43.403671 935.73773 1317.8468 4289574372
-41.119267 935.73773 1317.8468 4289509349
-6.8532109 935.73773 1317.8468 4294967295
-58.252296 937.48413 1319.3193 4291941370
-41.119267 937.48413 1319.3193 4290034419
-38.834862 937.48413 1319.3193 4291547903
-27.302752 944.93652 1319.063 4291086847
12.504587 758.56879 1322.8102 4294639615
9.9669724 763.17078 1320.1503 4293982719
9.9669724 765.07574 1321.7565 4294048511
-74.477066 772.5036 1321.4792 4288455133
9.930275 772.5036 1321.4792 4293652991
9.8862381 780.42603 1320.311 4293587711
12.357799 782.31555 1321.9043 4293456127
9.8495417 788.7215 1320.7655 4293258751
12.311927 790.604 1322.3528 4292995071
9.8128443 796.97485 1321.1843 4292930047
9.8128443 798.85034 1322.7657 4292667391
12.266055 798.85034 1322.7657 4292535807
9.7761469 805.18616 1321.5677 4293455615
4.8697248 811.4939 1320.3462 4293588735
7.3045874 811.4939 1320.3462 4292470015
7.3045874 813.35541 1321.9156 4284050632
4.8477063 821.99109 1321.3489 4281821110
7.2715597 821.99109 1321.3489 4282874055
4.8477063 823.84412 1322.9114 4286549205
7.2715597 823.84412 1322.9114 4284180657
2.4146788 828.22589 1320.0658 4291087082
4.8293576 829.14893 1320.844 4289904895
7.2440367 830.07196 1321.6223 4290626549
-79.381653 836.27161 1320.3097 4288058569
-76.976151 836.27161 1320.3097 4287665864
4.8110094 836.27161 1320.3097 4292139775
4.8110094 838.11066 1321.8602 4291679999
-76.682571 844.27539 1320.5181 4288126665
4.7926607 844.27539 1320.5181 4291614463
4.7926607 846.10736 1322.0627 4291417855
-81.1633 852.237 1320.6909 4287666373
-78.776146 852.237 1320.6909 4287864009
-78.533943 857.84821 1320.1901 4287535044
4.7596331 857.84821 1320.1901 4291286015
7.1394496 859.6676 1321.7241 4291418111
-73.489906 865.73688 1320.3014 4288058569
7.1119266 865.73688 1320.3014 4291549439
4.7412844 867.54926 1321.8295 4290627839
7.1119266 867.54926 1321.8295 4291154175
7.0844035 873.5835 1320.3773 4291286015
7.056881 881.38806 1320.4177 4291351551
7.056881 883.1864 1321.934 4291417599
9.409174 883.1864 1321.934 4291547903
-79.666054 889.15039 1320.4226 4287205563
-77.322937 890.04608 1321.1779 4287467965
4.6862388 890.04608 1321.1779 4290891775
7.0293579 890.04608 1321.1779 4291352063
-73.577065 896.40149 1321.3044 4287533508
2.3357799 896.40149 1321.3044 4291615463
-72.409172 898.18726 1322.8101 4287730622
4.6715598 898.18726 1322.8101 4291154943
7.0073395 898.18726 1322.8101 4291549695
-72.124771 904.08392 1321.2419 4287664826
6.9798164 904.97327 1321.9918 4291483391
6.9522934 911.72437 1321.1439 4283725264
9.2697248 911.72437 1321.1439 4285427867
9.2697248 913.49603 1322.6378 4285951133
4.6201835 917.09991 1320.4443 4283587995
6.9302754 917.09991 1320.4443 4285627321
4.6201835 918.86603 1321.9335 4284374173
6.9302754 918.86603 1321.9335 4286216376
-70.561462 925.84003 1321.2737 4288057008
2.3009174 925.54688 1321.0265 4283982750
4.6018348 925.54688 1321.0265 4284176529
-67.606422 932.19275 1320.09 4289241557
-64.168808 932.19275 1320.09 4289769929
0 932.19275 1320.09 4291746303
-66.460548 933.94476 1321.5673 4290098657
-64.168808 933.94476 1321.5673 4290099674
-61.877064 933.94476 1321.5673 4290626018
-4.5834861 933.94476 1321.5673 4294967295
-2.291743 933.94476 1321.5673 4294508543
0 933.94476 1321.5673 4291615487
-36.550457 939.23059 1320.792 4291481599
-34.266056 940.97705 1322.2645 4291350015
-31.981651 940.97705 1322.2645 4291283967
-9.8990822 940.39484 1321.7738 4292995071
-6.8532109 939.23059 1320.792 4294967295
-25.027523 946.67596 1320.5295 4291350015
12.504587 760.48071 1324.4222 4293982719
9.9669724 766.98071 1323.3627 4293456127
12.458715 768.88562 1324.9689 4293718527
12.412844 775.35052 1323.8798 4293522175
12.412844 777.24847 1325.48 4293456127
12.357799 784.20508 1323.4974 4293390079
12.357799 786.0946 1325.0907 4293390079
12.311927 793.42773 1324.7336 4292863999
13.492661 800.72583 1324.3472 4293193215
13.492661 802.60132 1325.9285 4293521663
9.7761469 807.98889 1323.9309 4292206847
12.220183 807.98889 1323.9309 4289904104
9.7394495 815.21686 1323.4852 4281621167
9.7394495 817.07837 1325.0548 4284575933
7.2715597 825.6972 1324.4739 4283722182
7.2440367 832.841 1323.957 4292403199
9.6587152 832.841 1323.957 4291614207
4.8110094 839.94971 1323.4109 4291810815
7.2165136 839.94971 1323.4109 4292008191
-79.381653 841.78876 1324.9615 4288257483
7.2165136 841.78876 1324.9615 4291746047
9.6220188 841.78876 1324.9615 4291745535
-81.475227 847.93939 1323.6074 4287930052
-79.078896 847.93939 1323.6074 4288193223
7.1889906 847.93939 1323.6074 4291877887
7.1889906 849.77142 1325.1521 4292008703
9.5853214 849.77142 1325.1521 4291483391
7.161468 855.88696 1323.7686 4291549183
9.548624 856.79944 1324.5378 4291548671
10.312538 862.69995 1324.2809 4291351807
4.7412844 869.36163 1323.3577 4290628351
7.1119266 869.36163 1323.3577 4291022847
11.020184 878.39777 1324.4365 4291153150
7.056881 884.98474 1323.4503 4291417599
9.409174 884.98474 1323.4503 4291351551
10.585321 886.78308 1324.9667 4291286015
-77.322937 892.73303 1323.4435 4287335866
4.6862388 892.73303 1323.4435 4290958335
7.0293579 892.73303 1323.4435 4291353087
9.3724775 892.73303 1323.4435 4291417855
4.6862388 894.52441 1324.9539 4291089151
7.0293579 894.52441 1324.9539 4291549695
9.3724775 894.52441 1324.9539 4291418111
-72.409172 899.97296 1324.3158 4287730874
4.6715598 899.97296 1324.3158 4291022591
7.0073395 899.97296 1324.3158 4291483135
9.3431196 899.97296 1324.3158 4291680511
-74.744957 901.75867 1325.8214 4287270325
10.511009 901.75867 1325.8214 4291811583
-74.451378 907.64136 1324.2415 4287861178
6.9798164 907.64136 1324.2415 4286808777
9.3064222 907.64136 1324.2415 4287005118
11.633027 909.42004 1325.7412 4285954211
-78.792664 915.2677 1324.1316 4287467702
-76.475227 915.2677 1324.1316 4287401909
9.2697248 916.15356 1324.8785 4285951907
-73.922935 920.63214 1323.4226 4288123322
6.9302754 920.63214 1323.4226 4286085047
9.2403669 920.63214 1323.4226 4285950872
-73.922935 922.39819 1324.9117 4288188594
6.9302754 922.39819 1324.9117 4285558183
9.2403669 922.39819 1324.9117 4286015127
-70.177979 928.18549 1323.2512 4288254394
2.3009174 929.06506 1323.9929 4283654297
4.6018348 928.18549 1323.2512 4284176521
-66.460548 935.69684 1323.0446 4290361044
-64.168808 935.69684 1323.0446 4290164435
-61.877064 935.69684 1323.0446 4290756573
-55.001835 935.69684 1323.0446 4291810289
-52.710091 935.69684 1323.0446 4291612911
-49.272476 935.69684 1323.0446 4290298098
-45.834862 935.69684 1323.0446 4290100718
-43.543118 935.69684 1323.0446 4289837547
-6.8752294 935.69684 1323.0446 4294967295
-4.5834861 935.69684 1323.0446 4294967295
-2.291743 935.69684 1323.0446 4294901759
0 935.69684 1323.0446 4291812095
-64.168808 937.44885 1324.5219 4289703382
-59.58532 937.44885 1324.5219 4290230508
-41.251377 937.44885 1324.5219 4291087098
-38.959633 937.44885 1324.5219 4291481855
0 937.44885 1324.5219 4291615487
-37.813759 939.20093 1325.999 4291284222
-6.8752294 939.20093 1325.999 4294704895
-29.697248 942.72351 1323.7371 4291087615
12.504587 763.34869 1326.8406 4293850879
12.458715 770.79059 1326.5751 4293718783
14.950459 772.69556 1328.1813 4293521919
14.895412 779.14642 1327.0803 4293192959
14.895412 781.04437 1328.6807 4293126911
14.829358 787.98413 1326.6838 4292929279
14.829358 789.87366 1328.2771 4292797951
14.774312 796.25153 1327.1146 4292929279
14.719266 804.47681 1327.5099 4288788223
17.172478 804.47681 1327.5099 4285827546
9.7761469 810.79163 1326.2942 4284309704
13.442202 811.72583 1327.0819 4282538672
9.7394495 818.93982 1326.6244 4284511171
9.7394495 820.80127 1328.1938 4283328691
9.6954126 827.55023 1326.0363 4286424551
12.119267 829.40332 1327.5988 4284904632
7.2440367 835.61011 1326.292 4292337663
9.6587152 835.61011 1326.292 4292600063
9.6587152 837.45612 1327.8484 4291746047
12.073395 837.45612 1327.8484 4292009215
-81.787155 843.62775 1326.5122 4287667397
-79.381653 843.62775 1326.5122 4287930313
7.2165136 843.62775 1326.5122 4291615231
9.6220188 844.54724 1327.2875 4291679999
12.829358 844.85376 1327.5459 4291745791
7.1889906 851.60339 1326.6968 4291877887
9.5853214 851.60339 1326.6968 4291680255
11.981651 853.43542 1328.2416 4291549183
14.377981 853.43542 1328.2416 4291680511
11.93578 859.53699 1326.8461 4291417599
10.709173 866.03552 1327.0933 4291220223
9.4825687 872.98639 1326.4139 4291285247
9.4825687 874.79877 1327.9421 4291482111
11.80734 880.80493 1326.4663 4291087359
11.80734 882.61029 1327.9885 4291022847
14.168807 882.61029 1327.9885 4290693631
-79.977982 890.37976 1327.9993 4287401659
10.97737 889.18085 1326.9884 4291351807
-74.97982 896.31573 1326.4642 4287335864
10.544037 896.31573 1326.4642 4291418111
-74.97982 898.10706 1327.9746 4287336116
11.715596 898.10706 1327.9746 4291812095
-74.744957 903.54443 1327.3271 4287729336
10.900306 904.13965 1327.829 4289572828
11.633027 911.19879 1327.241 4286082719
11.633027 912.97748 1328.7407 4286082982
11.587156 920.58282 1328.6132 4285949334
-73.922935 924.16431 1326.4009 4288320685
6.9302754 925.04736 1327.1454 4285426334
9.2403669 925.04736 1327.1454 4285949083
2.3009174 931.70361 1326.2177 4283588504
4.6018348 931.70361 1326.2177 4283979139
2.3009174 933.46271 1327.7009 4283785369
-34.376148 940.953 1327.4763 4291087871
-32.084404 940.953 1327.4763 4291219199
-13.750459 940.953 1327.4763 4291877119
-11.458715 940.953 1327.4763 4291877119
-27.500917 942.70508 1328.9536 4291021055
15.07156 759.1731 1331.168 4294114559
15.005505 768.12866 1330.8708 4293587711
14.950459 774.60052 1329.7875 4293127167
17.442202 775.55298 1330.5906 4293127167
14.895412 782.94232 1330.2809 4293192959
17.377981 782.94232 1330.2809 4293192959
17.377981 784.84027 1331.8812 4292929279
19.86055 784.84027 1331.8812 4292929279
14.829358 791.76318 1329.8702 4292929279
17.300917 793.65271 1331.4635 4293126655
17.236698 800.01654 1330.2892 4293521919
19.699083 801.89905 1331.8765 4283462858
14.719266 806.35229 1329.0912 4284776158
17.172478 806.35229 1329.0912 4282275768
17.172478 808.22784 1330.6726 4283657926
19.625689 808.22784 1330.6726 4289172409
13.442202 814.52856 1329.4451 4284377517
17.108257 814.52856 1329.4451 4289771252
13.442202 816.39709 1331.0205 4284247223
17.108257 816.39709 1331.0205 4290102271
19.552294 816.39709 1331.0205 4291807999
21.99633 816.39709 1331.0205 4291150079
24.440367 816.39709 1331.0205 4287997142
9.7394495 822.66278 1329.7634 4282345647
12.985932 823.90375 1330.8098 4282935727
13.331193 832.18286 1329.9424 4291022845
13.280734 839.30219 1329.405 4292140031
16.902752 839.30219 1329.405 4292337663
14.488073 841.14819 1330.9615 4291877887
16.902752 841.14819 1330.9615 4291614463
13.230275 847.30579 1329.6134 4291614719
16.838531 847.30579 1329.6134 4291746047
13.230275 849.14484 1331.1641 4291746303
16.838531 849.14484 1331.1641 4291877887
26.46055 849.14484 1331.1641 4291876863
11.981651 855.26746 1329.7863 4291548415
14.377981 857.09949 1331.3309 4291548671
14.322936 865.01202 1331.4624 4290956799
10.709174 868.76453 1329.3944 4291022591
11.899082 870.58392 1330.9285 4290890495
14.278899 870.58392 1330.9285 4290956543
14.223853 877.51733 1330.2344 4291021055
16.594496 878.42352 1330.9984 4291086591
14.168807 884.41565 1329.5107 4290693887
14.168807 886.22101 1331.033 4290957055
-79.977982 892.1781 1329.5156 4287400378
-77.625687 893.07727 1330.2738 4287400891
11.761468 892.1781 1329.5156 4291286783
14.113762 893.07727 1330.2738 4291219967
14.058716 899.89844 1329.4851 4290036988
14.058716 901.68976 1330.9955 4289902042
-79.416512 908.90161 1331.8441 4287665080
-77.080734 908.90161 1331.8441 4287599287
14.014679 908.00873 1331.0913 4285950366
11.633027 914.75623 1330.2405 4285886369
11.633027 916.53491 1331.7402 4286082201
13.959633 916.53491 1331.7402 4286082449
11.587156 922.35449 1330.1071 4285949084
13.904587 922.35449 1330.1071 4285818000
11.587156 924.12622 1331.601 4285949082
13.904587 924.12622 1331.601 4285687180
4.6201835 927.69647 1329.379 4283978887
6.9302754 928.57947 1330.1235 4285360538
9.2403669 928.57947 1330.1235 4285752724
-62.124771 935.2218 1329.1841 4290229727
-57.522934 935.2218 1329.1841 4290427630
-49.469727 935.2218 1329.1841 4290559987
-46.018349 935.2218 1329.1841 4290823420
-43.71743 935.2218 1329.1841 4291021055
-4.6018348 935.2218 1329.1841 4294967295
-2.3009174 935.2218 1329.1841 4294967295
-43.71743 936.98083 1330.6672 4291678207
-41.416515 936.98083 1330.6672 4291350270
-4.6018348 936.98083 1330.6672 4294967295
-2.3009174 936.98083 1330.6672 4294441215
0 936.98083 1330.6672 4292270590
15.07156 761.09351 1332.7871 4293982719
15.07156 763.01392 1334.4064 4293916927
17.506422 770.04059 1332.4829 4293521919
20.007339 771.95258 1334.0951 4293258751
17.442202 778.41046 1332.9999 4293126911
19.933945 778.41046 1332.9999 4292929279
19.933945 780.31543 1334.6061 4292929279
22.425688 780.31543 1334.6061 4292732159
24.917431 780.31543 1334.6061 4292731903
17.377981 786.73822 1333.4816 4292732159
19.86055 786.73822 1333.4816 4292797951
22.343119 786.73822 1333.4816 4292929279
17.300917 795.54224 1333.0566 4293652991
19.772476 796.487 1333.8533 4293258495
19.699083 803.78162 1333.4637 4285366423
17.172478 810.10333 1332.2539 4284972737
19.625689 811.04108 1333.0447 4291545566
22.078899 811.97882 1333.8353 4291875327
24.53211 811.97882 1333.8353 4288852212
13.442202 818.26556 1332.5959 4283853751
17.108257 818.26556 1332.5959 4284575933
19.552294 818.26556 1332.5959 4284509899
21.99633 818.26556 1332.5959 4284246984
24.440367 818.26556 1332.5959 4283657911
14.66422 820.13403 1334.1714 4284182203
17.108257 820.13403 1334.1714 4283919032
19.552294 820.13403 1334.1714 4283654563
21.99633 820.13403 1334.1714 4283720356
24.440367 820.13403 1334.1714 4283658438
14.609175 826.38568 1332.9026 4283066537
17.044037 826.38568 1332.9026 4282737828
19.478899 826.38568 1332.9026 4283460772
17.044037 828.24719 1334.472 4283592620
19.478899 828.24719 1334.472 4282999719
21.913761 828.24719 1334.472 4283328428
14.543119 834.96246 1332.2861 4292666111
16.966972 834.96246 1332.2861 4292139775
19.390825 836.81555 1333.8485 4292141055
21.814678 835.88904 1333.0674 4287469512
25.450459 836.81555 1333.8485 4282342357
16.902752 842.99426 1332.5181 4291614463
19.31743 842.99426 1332.5181 4291679743
