# .PCD v0.7 - Point Cloud Data file format
VERSION 0.7
FIELDS x y z rgb
SIZE 4 4 4 4
TYPE F F F U
COUNT 1 1 1 1
WIDTH 1174
HEIGHT 1
VIEWPOINT 0 0 0 1 0 0 0
POINTS 1174
DATA ascii
-34.241287 788.28235 816.80371 4290620598
-31.60734 788.28235 816.80371 4290686137
-34.206421 790.3606 817.24805 4290489269
-31.541285 791.09644 816.56042 4290555064
-33.188992 795.97467 816.74951 4290226353
-31.442202 795.97467 816.74951 4290291897
-33.119267 799.43958 817.05499 4290554803
-31.376146 798.77325 816.49316 4290422711
-28.761467 798.77325 816.49316 4290554807
-33.93853 802.53174 817.70013 4290620598
-31.277063 803.62488 816.65979 4290686137
-28.670643 803.62488 816.65979 4290817722
-34.173084 805.39618 818.15332 4290686139
-32.910091 809.1217 817.37054 4290685629
-31.976147 811.89374 817.09174 4290619576
-32.840366 813.87585 818.76294 4290751162
-34.458717 817.35834 817.77527 4290422198
-31.565138 817.3996 816.93799 4290224559
-32.666054 820.11346 817.4823 4290486707
-34.27523 824.2356 817.03381 4290880949
-32.561466 824.2356 817.03381 4290880950
-34.27523 826.20087 818.69092 4290750647
-31.374924 826.71808 817.383 4290816183
-28.216515 826.97668 816.729 4290553524
-25.651377 826.323 816.17786 4290356656
-31.636698 828.93774 818.38257 4291144892
-29.07156 828.93774 818.38257 4290816442
-30.68257 833.03253 817.91107 4290815672
-27.955227 832.6416 817.58148 4290618804
-25.568808 831.72937 816.81232 4290487986
-23.011927 831.07776 816.26294 4290486707
-27.21468 836.40558 818.13916 4290553519
-25.513762 835.75537 817.59094 4290553521
-23.245871 835.53864 817.4082 4290553013
-25.431192 839.82916 817.10168 4290619313
-22.888073 839.18109 816.55524 4290487725
-20.344954 838.53302 816.00879 4290553270
-27.126606 841.12531 818.19458 4290553265
-25.431192 841.12531 818.19458 4290487472
-22.838531 842.53802 816.76965 4289961898
1.6917431 842.53802 816.76965 4291867847
4.2293577 842.53802 816.76965 4291803339
-30.451376 844.47803 818.4054 4290486959
-28.195719 844.26245 818.22363 4290486961
1.6917431 843.83136 817.86011 4291868110
-30.352293 848.52448 817.89319 4290486707
-28.666056 848.52448 817.89319 4290486707
-26.417734 847.66504 817.16846 4290552495
1.6862385 847.23529 816.80615 4291736774
4.2155962 847.23529 816.80615 4291738057
-30.352293 849.8136 818.9801 4290486959
-28.666056 849.8136 818.9801 4290552752
-25.799387 850.78632 817.18408 4290552752
-22.71468 849.92871 816.46106 4290486959
-20.190826 849.92871 816.46106 4290421418
-15.143119 849.92871 816.46106 4290356141
-13.46055 849.92871 816.46106 4290553270
-10.936697 849.92871 816.46106 4290487735
-7.5715594 849.92871 816.46106 4290685368
-4.2064219 849.92871 816.46106 4290948281
-1.6825688 849.92871 816.46106 4291211198
1.6825688 849.92871 816.46106 4291605958
4.2064219 849.92871 816.46106 4291738312
7.5715594 849.92871 816.46106 4291935182
65.620186 849.92871 816.46106 4294174451
67.30275 849.92871 816.46106 4293977588
-28.60367 852.5014 818.63025 4290487474
-26.038532 853.55042 817.55273 4290486959
-23.478899 854.59937 816.47522 4290290098
-8.3853207 854.59937 816.47522 4290749879
-3.3541284 854.59937 816.47522 4290750651
1.6770642 854.59937 816.47522 4291409858
65.405502 854.59937 816.47522 4293846000
-25.714987 856.73627 818.27704 4290553266
-22.590824 857.27728 816.11707 4290224557
-13.387156 857.27728 816.11707 4290683824
-10.040367 857.27728 816.11707 4290683057
-7.5302753 857.27728 816.11707 4290617264
1.6733944 857.27728 816.11707 4291540165
3.3467889 857.27728 816.11707 4291343815
30.957798 857.27728 816.11707 4294177275
35.141285 857.27728 816.11707 4293914607
37.651375 857.27728 816.11707 4293318371
-25.937614 859.83594 818.27454 4290684084
-23.427523 858.55658 817.1958 4290356656
-25.852295 863.19641 817.18384 4290618547
-22.794495 862.34637 816.4671 4290356656
-19.180733 861.92126 816.10876 4290356656
-16.6789 861.92126 816.10876 4290552752
-13.34312 861.92126 816.10876 4290487220
-10.841284 861.92126 816.10876 4290421425
-8.3394499 861.92126 816.10876 4290552752
1.66789 861.92126 816.10876 4291343813
3.3357799 861.92126 816.10876 4291147719
61.711926 861.92126 816.10876 4293845485
-30.022018 864.4715 818.25903 4290487472
-28.354128 864.4715 818.25903 4290553265
-25.824772 865.16382 817.53473 4290553265
-22.466972 865.85614 816.81042 4290422198
-19.138531 865.85614 816.81042 4290290861
-16.642202 865.85614 816.81042 4290356656
-14.145872 865.85614 816.81042 4290224816
-10.81743 865.85614 816.81042 4290356402
-28.846481 867.97662 818.59833 4290356400
-25.766973 868.4541 817.69299 4290290607
-22.430275 868.79956 817.3302 4290422710
-19.096329 869.14502 816.96747 4290291373
-16.605505 869.14502 816.96747 4290356658
-14.114679 869.14502 816.96741 4290224814
-10.793578 868.51025 816.43225 4290356399
-8.3027525 868.51025 816.43225 4290290863
1.6605505 868.51025 816.43225 4291278271
49.816513 868.51025 816.43225 4293714409
-28.229359 871.04926 818.57312 4290356143
-26.568808 871.04926 818.57312 4290356141
-25.653212 874.37891 817.45642 4290356141
-22.343121 873.11359 816.38953 4290554290
-19.033028 873.11359 816.38953 4290487472
-16.550459 873.11359 816.38953 4290487220
-14.06789 873.11359 816.38953 4290355889
-10.757798 873.11359 816.38953 4290356399
1.6550459 873.74622 816.92297 4291211461
4.4134555 873.53534 816.74512 4291344071
7.4477062 873.11359 816.38953 4291541962
10.757798 873.11359 816.38953 4291607241
13.240367 873.11359 816.38953 4291606989
49.651375 873.11359 816.38953 4293780205
52.133945 873.11359 816.38953 4293714412
55.444038 873.11359 816.38953 4293977582
58.754128 873.11359 816.38953 4293713900
61.236698 873.11359 816.38953 4294108404
-24.770641 877.646 817.59509 4290355884
-22.293579 877.646 817.59509 4290290603
-19.816513 877.01471 817.06287 4290553519
1.6513761 877.01471 817.06287 4291145666
4.1284404 877.01471 817.06287 4291539915
7.4311924 877.01471 817.06287 4291476168
10.458715 877.43555 817.41766 4291476681
14.036697 877.01471 817.06287 4291672777
16.513762 877.01471 817.06287 4291738321
18.165138 877.01471 817.06287 4291869907
52.844036 877.01471 817.06287 4293911791
-22.244038 880.90466 817.72668 4290553519
-18.948624 880.2749 817.19556 4290422195
-16.477064 879.64502 816.66455 4290160045
-14.005505 879.64502 816.66455 4290357423
-10.710092 879.64502 816.66455 4290422959
1.6477064 880.27484 817.19562 4291277761
4.119266 879.64502 816.66455 4291736261
7.4146786 879.64502 816.66455 4291738057
10.710092 880.27484 817.19562 4291541961
14.005505 879.64502 816.66455 4291475401
16.477064 879.64502 816.66455 4291738318
18.948624 879.64502 816.66455 4291935955
21.420183 879.64502 816.66455 4292264665
34.601833 879.64502 816.66455 4294967295
52.726604 879.64502 816.66455 4293713900
55.472782 880.06494 817.01855 4293582826
57.669724 879.64502 816.66455 4293385960
-24.715597 882.16437 818.78882 4290618799
-22.244038 882.16437 818.78882 4290553006
-18.885323 884.20764 816.58752 4290421681
-16.422018 884.20764 816.58752 4290158764
-13.958715 884.20764 816.58752 4290290606
-11.495413 884.20764 816.58752 4290422703
1.6422018 884.20764 816.58752 4291278271
4.1055045 884.20764 816.58752 4291213251
52.550457 884.20764 816.58752 4293713900
55.013763 884.20764 816.58752 4293779948
57.477066 884.20764 816.58752 4293845739
-24.633028 885.46313 817.64612 4290750127
-22.169724 885.46313 817.64612 4290553006
-18.885323 885.46313 817.64612 4290619061
-16.385321 886.82251 816.17627 4290553006
-13.927523 886.82251 816.17627 4290487212
-10.650459 886.82251 816.17627 4290487469
-8.1926603 886.82251 816.17627 4290619313
1.6385322 886.82251 816.17627 4291147969
4.0963306 886.82251 816.17627 4291344580
7.3733945 886.82251 816.17627 4291607752
10.650459 886.82251 816.17627 4291344585
13.927523 886.82251 816.17627 4291475401
16.385321 886.82251 816.17627 4291344587
18.843121 886.82251 816.17627 4291608271
22.120182 886.82251 816.17627 4292003284
25.397247 886.82251 816.17627 4292529372
28.674313 886.82251 816.17627 4293187818
31.951376 886.82251 816.17627 4294505212
34.409176 886.82251 816.17627 4294967295
36.866974 886.82251 816.17627 4293980400
40.144035 886.82251 816.17627 4293385446
43.421101 886.82251 816.17627 4293779691
46.698166 886.82251 816.17627 4293713646
49.975227 886.82251 816.17627 4293451242
52.433029 886.82251 816.17627 4293647851
54.890823 886.82251 816.17627 4293845228
58.167892 886.82251 816.17627 4293516519
61.444954 886.82251 816.17627 4293582056
63.902752 886.82251 816.17627 4293516517
-24.577982 888.70148 817.76062 4290618799
-22.108255 889.03992 817.39197 4290422192
-18.832111 889.03998 817.39197 4290553265
-16.366972 889.37842 817.02332 4290815152
-13.911926 889.37842 817.02332 4290815151
-10.907645 889.81281 816.95361 4290683821
-7.3568807 890.68164 816.81409 4290552751
1.6385322 888.70148 817.76062 4291409860
4.0917435 889.37842 817.02332 4291213507
7.3568807 890.68164 816.81409 4291409608
10.626606 890.68164 816.81409 4291344585
13.89633 890.68164 816.81409 4291475401
17.166054 890.68164 816.81409 4291607757
19.618349 890.68164 816.81409 4291673548
22.360245 889.81281 816.95361 4292134616
25.340366 890.68164 816.81409 4292529119
28.610092 890.68164 816.81409 4292990441
31.879816 890.68164 816.81409 4294504190
35.149544 890.68164 816.81409 4294967295
37.601833 890.68164 816.81409 4292730333
40.054131 890.68164 816.81409 4293319910
43.323853 890.68164 816.81409 4293582058
46.593578 890.68164 816.81409 4293845482
49.863304 890.68164 816.81409 4293386214
53.133026 890.68164 816.81409 4293450990
55.647705 889.37842 817.02332 4293253603
58.037613 890.68164 816.81409 4293582823
61.307343 890.68164 816.81409 4293648105
-25.067888 892.76471 818.57056 4290487471
-22.343119 892.34808 818.21924 4290552758
-19.618349 891.93146 817.86792 4290552752
-17.166054 891.93146 817.86792 4290487214
-14.713761 891.93146 817.86792 4290487213
1.6348624 892.5564 818.3949 4291211967
4.359633 892.34808 818.21924 4291408579
7.3568807 891.93146 817.86792 4291409608
10.626606 891.93146 817.86792 4291475401
22.888073 891.93146 817.86792 4292002258
43.323853 891.93146 817.86792 4293516517
-25.255047 896.44922 817.75317 4290487472
-21.724771 896.034 817.40302 4290553010
-19.552294 895.82642 817.22797 4290618288
-17.108257 895.82642 817.22791 4290552750
-13.849541 895.20355 816.70276 4290487213
-10.590826 895.20355 816.70276 4290684337
-7.3321099 895.20355 816.70276 4290750130
-4.8880734 895.20355 816.70276 4290815924
0.81467891 895.82642 817.22797 4291145918
3.8018351 896.034 817.40302 4291539650
7.3321099 895.82642 817.22791 4291539653
10.590826 895.82642 817.22797 4291474373
13.849541 895.82642 817.22797 4291474887
16.293577 895.20355 816.70276 4291606217
25.255047 895.20355 816.70276 4292463579
27.699083 895.20355 816.70276 4292660704
32.587154 895.20355 816.70276 4294897663
35.031193 895.20355 816.70276 4294967295
37.475231 895.20355 816.70276 4292796126
39.919266 895.20355 816.70276 4293385183
42.906422 895.61884 817.05292 4293384931
50.51009 895.20355 816.70276 4293253345
52.13945 895.20355 816.70276 4293318888
-27.699083 897.69489 818.80347 4290552752
-25.255047 897.69489 818.80347 4290553522
-21.972477 898.36609 818.0614 4290356143
-19.508257 899.03735 817.31934 4290486959
-17.069725 899.03735 817.31934 4290421168
-13.818348 897.79449 816.27148 4290684081
-10.566973 897.79449 816.27148 4290750132
-7.0446486 898.2088 816.62079 4290815925
-4.0642204 897.79449 816.27148 4290815669
-1.6256881 897.79449 816.27148 4291210428
0.81284404 898.41589 816.79541 4291145663
4.0642204 899.03735 817.31934 4291408578
7.3155961 899.03735 817.31934 4291803083
10.566973 899.03735 817.31934 4291738309
13.005505 899.03735 817.31934 4291409356
17.069725 897.79449 816.27148 4291539910
19.508257 897.79449 816.27148 4291539913
21.946789 897.79449 816.27148 4291935439
25.198166 897.79449 816.27148 4292397529
28.449541 897.79449 816.27148 4292398047
31.700916 897.79449 816.27148 4294174713
34.952293 897.79449 816.27148 4294967295
37.390827 897.79449 816.27148 4292730333
39.829357 897.79449 816.27148 4293121759
43.893578 897.79449 816.27148 4293253347
46.332108 897.79449 816.27148 4293319138
49.583488 897.79449 816.27148 4293318370
52.834862 897.79449 816.27148 4293580007
68.2789 897.79449 816.27148 4293713898
-21.659937 901.14014 818.2204 4290225067
-19.46422 902.23999 817.40363 4290421678
-17.301529 902.03326 817.22931 4290487471
-9.73211 901.61993 816.88086 4290553265
-7.2990828 901.61993 816.88086 4290619058
-4.0550461 901.61993 816.88086 4290684596
-1.6220183 901.61993 816.88086 4291079098
1.6220183 902.23999 817.40363 4291211709
4.0577984 901.90503 817.77527 4291146433
7.3027525 901.90503 817.77527 4291278020
10.272782 902.03326 817.22931 4291409603
13.787156 901.61993 816.88086 4291081411
16.220184 901.61993 816.88086 4291147205
32.440369 901.61993 816.88086 4294306814
34.873394 901.61993 816.88086 4294967295
37.306423 901.61993 816.88086 4292664027
40.550457 901.61993 816.88086 4293449956
42.983486 901.61993 816.88086 4293514722
47.038532 901.61993 816.88086 4293646820
49.471558 901.61993 816.88086 4293384163
51.904587 901.61993 816.88086 4293187041
-24.330275 904.10004 818.97205 4290487726
-22.708258 904.10004 818.97205 4290356395
-28.28899 908.57288 818.81934 4290422186
-25.055964 907.33704 817.77722 4290553004
-21.553518 906.92511 817.42987 4290619310
-19.398165 906.71912 817.25623 4290553518
-16.96422 907.05188 816.88293 4290553776
-13.709174 908.6684 816.28381 4290684592
-10.483486 908.6684 816.28381 4290815153
-7.2577982 908.6684 816.28381 4290749618
-3.7657492 907.81268 816.43427 4290750132
-1.6146789 907.38477 816.50952 4291210940
1.0776758 907.3689 816.93213 4291014845
4.0394497 907.052 816.88293 4291146430
7.274312 906.71912 817.25623 4291342783
10.495413 907.38477 816.50952 4291409091
13.72477 907.38483 816.50952 4291278274
16.690521 907.3689 816.93213 4291147204
20.160549 908.6684 816.28381 4291409855
22.579817 908.6684 816.28381 4291475651
24.999083 908.6684 816.28381 4291936977
27.976759 907.81268 816.43427 4292266715
31.486238 907.38477 816.50952 4293450988
34.715599 907.38477 816.50952 4294967295
37.137615 907.38477 816.50952 4292664540
41.127525 908.6684 816.28381 4293516004
43.546787 908.6684 816.28381 4293318368
45.966057 908.6684 816.28381 4293253599
49.191742 908.6684 816.28381 4293647854
52.187763 907.81268 816.43427 4293450211
55.64312 908.6684 816.28381 4293582310
58.868805 908.6684 816.28381 4293582312
62.094498 908.6684 816.28381 4293648105
-24.999081 910.51794 817.84326 4290618540
-22.579817 910.51794 817.84326 4290553262
-20.160549 910.51794 817.84326 4290553262
-16.934864 910.51794 817.84326 4290553007
-13.709174 910.51794 817.84326 4290618800
-10.483486 910.51794 817.84326 4290618543
-8.0642204 909.90143 817.32349 4290815411
-4.0321102 909.90143 817.32349 4290816178
-1.612844 909.90143 817.32349 4290947510
1.0752293 910.31244 817.66998 4291210939
4.0321102 909.90143 817.32349 4291474621
7.2577982 909.90143 817.32349 4291538877
16.128441 909.90143 817.32349 4291343813
25.805504 909.90143 817.32349 4291608270
27.418348 909.90143 817.32349 4292200407
51.611008 909.90143 817.32349 4293581797
62.900917 909.90143 817.32349 4293714413
-20.114677 914.92065 818.93933 4290684336
-16.896332 914.92065 818.93933 4290618799
-13.946177 914.51056 818.59357 4290881970
-10.191437 914.51056 818.59357 4290685103
-7.4022017 913.44434 817.69464 4290750896
-4.0229359 913.07526 817.38342 4290750642
-1.6091744 913.07526 817.38342 4291013561
0.80458719 913.69043 817.9021 4291146171
4.0229359 913.07526 817.38342 4291278014
7.2412844 913.07526 817.38342 4291277760
10.459633 912.46014 816.86475 4291474117
14.482569 912.46014 816.86475 4291409095
16.896332 912.46014 816.86475 4291409095
19.310091 912.46014 816.86475 4291670979
25.74679 912.46014 816.86475 4291213764
28.965137 912.46014 816.86475 4291937764
32.183487 912.46014 816.86475 4293515250
34.597248 912.46014 816.86475 4294967295
37.011009 912.46014 816.86475 4292664540
52.298164 912.46014 816.86475 4293779178
54.711926 912.46014 816.86475 4293780457
58.734859 913.07526 817.38342 4293648360
61.953209 913.07526 817.38342 4293779695
64.366974 912.46014 816.86475 4293845739
67.58532 914.30554 818.42072 4293582826
-16.055046 917.46808 818.47131 4290816176
-13.64679 917.46808 818.47131 4290750383
-10.43578 917.46808 818.47131 4290816435
-6.9571862 917.0589 818.12628 4290750899
-4.2813454 916.64984 817.78143 4290751156
-1.6055046 916.24066 817.4364 4291211198
0.80275232 916.85437 817.95386 4291081403
4.0137615 916.85437 817.95386 4291145406
7.2247705 916.85437 817.95386 4291540163
10.43578 916.24066 817.43634 4291344065
13.64679 915.62695 816.91895 4291145666
16.8578 915.62695 816.91895 4291276992
20.068806 915.62695 816.91895 4291275965
22.477064 916.24066 817.43634 4291144641
25.045872 915.99512 817.22937 4291014849
28.096329 916.24066 817.43646 4291345611
31.14679 915.99524 817.22949 4292332513
34.357796 915.99524 817.22937 4294967295
37.729355 916.24066 817.43646 4292925662
40.940369 915.62695 816.91895 4293121504
44.151379 916.24072 817.43634 4293384674
46.559631 915.62695 816.91895 4293516004
48.967892 915.62695 816.91895 4293646822
52.178902 915.62695 816.91895 4293844461
55.389908 916.24066 817.43634 4293648104
58.600918 916.85437 817.95386 4293516520
61.811928 916.85437 817.95386 4293582057
65.022934 916.24066 817.43634 4293648362
67.43119 917.46808 818.47131 4293384934
-10.4 920.66724 817.24475 4290750132
-7.1999998 920.66724 817.24475 4290618547
-3.7333333 920.25952 816.90088 4290684853
-1.6 919.44403 816.21326 4291211198
0.53333336 920.25952 816.90088 4291015866
4 920.66724 817.24475 4291079614
7.1999998 920.66724 817.24475 4291408329
10.4 920.66724 817.24475 4291211709
13.599999 920.05566 816.729 4290948795
16.799999 920.05566 816.729 4291211199
20 920.0556 816.729 4291407554
22.4 920.66724 817.24475 4291408574
24.533333 920.25952 816.90088 4291343039
28 920.66724 817.24475 4291542476
31.466667 920.25952 816.90088 4291871960
34.666668 920.25952 816.90088 4294967295
37.599998 920.66724 817.24475 4293912042
40.799999 920.0556 816.729 4293252063
44 920.66724 817.24475 4293318117
46.400002 920.05566 816.729 4293449956
48.800003 920.05566 816.729 4293516004
52 920.0556 816.729 4293647593
55.200001 920.66724 817.24475 4293712365
57.599998 920.66724 817.24475 4293581545
65.599998 920.66724 817.24475 4293582060
-19.200001 921.89044 818.27612 4290618799
-16.799999 921.89044 818.27612 4290750129
-13.6 921.89044 818.27612 4290881715
-10.4 921.89044 818.27612 4290815924
-7.1999998 921.89044 818.27612 4290552752
-3.9908257 923.20215 816.76599 4290816693
-1.5963303 923.20215 816.76599 4291211965
0.80000001 922.54626 817.52106 4291146170
4 921.89044 818.27612 4290948796
7.1999998 921.89044 818.27612 4291145668
10.4 921.89044 818.27612 4291211713
13.6 921.89044 818.27612 4291081149
16.799999 921.89044 818.27612 4291145922
20 921.89044 818.27612 4291211454
22.4 921.89044 818.27612 4291277247
24.770641 922.54626 817.52106 4291278016
28 921.89044 818.27612 4291212996
31.200001 921.89044 818.27612 4291542479
34.400002 921.89044 818.27612 4294967295
37.599998 921.89044 818.27612 4293913325
40.799999 921.89044 818.27612 4292924380
44 921.89044 818.27612 4293318371
46.400002 921.89044 818.27612 4293515752
48.799999 921.89044 818.27612 4293647590
52 921.89044 818.27612 4293778919
55.200001 921.89044 818.27612 4293712363
58.400002 921.89044 818.27612 4293647592
61.528442 922.54626 817.52106 4293516519
64.72477 922.54626 817.52106 4293319141
67.045868 923.20215 816.76599 4293319138
-14.366973 925.64294 818.82397 4290817459
-10.376146 925.03278 818.30945 4291210168
-7.183486 925.03271 818.30945 4291012790
-3.9908257 925.03271 818.30945 4291013558
-1.5963303 925.03271 818.30945 4291276730
0 925.68719 817.55322 4291276986
14.366973 925.64294 818.82397 4291013818
16.761467 925.03278 818.30945 4291080135
19.155964 925.03271 818.30945 4291343037
23.14679 925.64294 818.82397 4291474367
25.541285 925.03271 818.30945 4291147202
-1.5926605 928.16663 818.33582 4290947510
0 928.16663 818.33582 4291210678
-3.1779816 931.89941 818.86719 4290552736
-1.5889908 931.89941 818.86719 4290618529
-37.106422 782.5083 819.78345 4290685887
-36.990826 787.41742 819.99854 4290620346
-35.119267 790.96729 819.06763 4290162357
-35.119267 792.30969 820.19946 4290357940
-35.045872 795.11536 819.9491 4290554803
-36.682568 799.98096 820.12756 4290817207
-34.93578 798.64551 819.00146 4290620596
-36.605503 802.77118 819.86414 4290948025
-37.477066 804.10382 820.98779 4290817209
-34.752293 808.27429 820.5802 4290619324
-34.6422 812.43225 820.16199 4290488247
-35.132111 827.51111 819.79565 4290815672
-35.056881 830.24512 819.48486 4290749621
-32.491745 830.24512 819.48486 4291012535
-37.622017 832.20618 821.13843 4290553781
-35.911926 832.20618 821.13843 4290553781
-31.921713 832.42407 821.32208 4290684596
-30.68257 836.29047 820.65808 4290618801
-28.977982 835.63892 820.1087 4290619058
-30.68257 837.59363 821.75684 4290618801
-28.065138 838.35614 819.78381 4290553007
-32.317432 840.3067 821.42847 4290356143
-32.212845 844.36572 820.9267 4290421676
-32.14312 847.71143 821.13171 4290552752
-31.195412 851.10272 820.06714 4290619062
-31.162384 853.08978 820.43445 4290422705
-28.60367 853.78772 819.71484 4290422703
-26.921101 853.78772 819.71484 4290553267
-30.286238 855.0741 820.79956 4290553771
-28.60367 855.0741 820.79956 4290685358
-30.187157 858.44574 819.71838 4290553004
-28.510092 859.08679 820.25891 4290684336
-30.022018 865.74664 819.33411 4290487472
-33.3578 867.6593 820.9469 4290356398
-31.655046 868.34741 820.21899 4290290605
-29.955963 869.6731 820.02869 4290356143
-31.620184 870.94537 821.10156 4290356143
-29.092661 871.63208 820.3725 4290356141
-28.229359 874.22302 821.24908 4290356141
-26.480734 876.90948 819.59009 4290487213
-28.93211 880.12109 820.99011 4290487472
-25.871559 879.96051 819.54663 4290553006
-28.603058 882.93774 821.18488 4290487220
-26.363302 884.05396 820.38202 4290553005
-28.011009 885.94342 821.97522 4290356395
-26.275229 887.97406 819.76331 4290356141
-28.738533 889.8573 821.3512 4290291117
-26.216515 890.58051 819.34497 4290487726
-28.674313 892.45953 820.92932 4290356399
-27.79266 894.43121 819.97571 4290487472
-27.699083 898.94055 819.85376 4290617775
-25.255047 898.94055 819.85376 4290618801
-27.667891 901.47607 820.68365 4290487214
-25.488686 901.4917 820.26093 4290487470
-22.759632 901.52307 819.41528 4290290602
-27.574312 905.34009 820.01758 4290487726
-28.28899 910.42664 820.38232 4290749354
-27.998777 913.13153 821.79102 4290684085
-24.999083 913.60059 820.44238 4290683820
-22.579817 912.98401 819.92255 4290749873
-20.160549 912.36749 819.40271 4290684336
-16.934864 912.36749 819.40271 4290553007
-12.902752 912.36749 819.40271 4290487724
-11.289908 912.36749 819.40271 4290553517
-24.137615 917.3811 821.01404 4290553254
-22.52844 916.76599 820.49536 4290618798
-20.114677 916.15088 819.97668 4290553006
-17.700918 916.15088 819.97668 4290618799
-22.477064 919.92291 820.54126 4290749615
-20.33639 919.10468 819.85126 4290618542
-16.8578 918.6955 819.50623 4290684336
-13.64679 918.6955 819.50623 4290750129
59.403671 918.6955 819.50623 4293976303
61.811928 918.6955 819.50623 4293450470
64.220184 918.6955 819.50623 4293516267
67.43119 918.6955 819.50623 4293582310
-22.477064 921.15033 821.57617 4290618801
-20.03578 922.13196 820.44183 4290684337
-16.799999 923.11365 819.3075 4290816434
-13.6 923.11365 819.3075 4290882227
1.6 923.11365 819.3075 4291145657
4 923.11365 819.3075 4291145405
7.1999998 923.11365 819.3075 4291276736
10.4 923.11365 819.3075 4291474367
13.6 923.11365 819.3075 4291211967
20.799999 923.11365 819.3075 4291277247
22.4 923.11365 819.3075 4291277247
24 923.11365 819.3075 4291869127
28 923.11365 819.3075 4291147203
31.200001 923.11365 819.3075 4291542222
34.400002 923.11365 819.3075 4294966527
37.599998 923.11365 819.3075 4294175726
40.799999 923.11365 819.3075 4293055454
44 923.11365 819.3075 4293582059
46.400002 923.11365 819.3075 4293516265
48.799999 923.11365 819.3075 4293581797
52 923.11365 819.3075 4293713383
55.200001 923.11365 819.3075 4293582310
58.400002 923.11365 819.3075 4293516004
61.599998 923.11365 819.3075 4293319141
64.800003 923.11365 819.3075 4293319395
67.199997 923.11365 819.3075 4293187552
-19.733334 924.74463 820.68262 4290619314
-16.799999 924.94849 820.85449 4290751154
-13.312538 926.02118 820.01495 4291079090
-10.376146 926.86334 819.85303 4291078577
-7.183486 926.86334 819.85303 4290814896
-3.9908257 926.86334 819.85303 4290749617
1.5981652 925.6001 820.09595 4291342521
4 924.94849 820.85449 4291145658
7.1999998 924.94849 820.85449 4290948538
10.4 924.94849 820.85455 4291144891
13.322324 925.58673 820.52069 4290882231
16.761467 926.86334 819.85303 4291014332
20.251987 925.58673 820.52069 4291408572
23.14679 926.86334 819.85303 4291342781
25.541285 926.86334 819.85303 4291146690
28 924.94849 820.85455 4291146948
31.200001 924.94849 820.85455 4291278538
34.400002 924.94849 820.85455 4294768125
37.599998 924.94849 820.85449 4294504693
40.799999 924.94849 820.85455 4292924126
44 924.94849 820.85449 4293450985
46.400002 924.94849 820.85455 4293779435
48.800003 924.94849 820.85449 4293516262
52 924.94849 820.85449 4293582311
55.199997 924.94849 820.85449 4293648105
58.399998 924.94849 820.85455 4293318630
61.599998 924.94849 820.85455 4293318372
64.800003 924.94849 820.85455 4293318883
67.199997 924.33685 820.33887 4293253345
-16.495413 928.49054 821.22491 4290288297
-13.568808 928.69397 821.39648 4290287526
-10.352293 929.38422 819.36243 4290089889
-7.1669722 929.38422 819.36243 4290353061
-3.9816513 929.38422 819.36243 4290353314
-1.5926605 929.38422 819.36243 4290353828
1.0642202 928.92407 820.71844 4290552240
3.1926606 928.08374 820.88196 4290487472
16.761467 928.08374 820.88196 4290486446
19.688074 928.49054 821.22491 4290617775
22.348623 928.69397 821.39648 4290552495
-12.741284 931.81946 821.41577 4289697177
-10.617737 931.00763 820.73138 4289959587
-7.1669722 930.60181 820.38916 4290420904
-4.7779818 930.60181 820.38916 4290618783
0 930.60181 820.38916 4290552756
-10.169542 934.57196 821.12061 4291276470
-7.1458712 934.04468 820.02197 4290288806
-4.1313763 934.08612 820.71094 4291342009
-1.5889908 933.72168 820.40363 4291012786
0 933.72168 820.40363 4290947506
-7.133945 936.83307 820.41101 4293580515
-3.6990824 937.64111 821.09229 4294568437
-1.5853211 937.43909 820.922 4293976556
0 937.43909 820.922 4293910767
-40.766972 783.00269 824.12427 4290488243
-38.873394 785.21008 822.0614 4290488760
-36.990826 790.78406 822.83722 4290489266
-36.875229 794.99463 822.46338 4290554803
-38.631191 796.33704 823.59521 4290751414
-36.605503 806.10272 822.67316 4290816440
-34.6422 815.08069 822.39502 4290552756
-34.27523 830.13147 822.005 4290749877
-34.27523 832.09674 823.66211 4290619058
-34.201836 836.78198 824.99658 4290356143
-32.491745 834.82092 823.34308 4290553264
-34.091743 840.19995 823.95447 4290487726
-34.018349 844.20776 824.71777 4290552752
-34.398777 849.43585 822.58569 4290553524
-33.72477 854.32556 822.78455 4290618543
-32.038532 854.32556 822.78455 4290618542
-34.191742 869.57196 822.55957 4290356399
-33.913761 871.27216 823.99316 4290487726
-31.620184 872.21771 822.17432 4290356141
-29.955963 872.21771 822.17432 4290356141
-31.620184 874.12616 823.78345 4290290605
-29.955963 873.48999 823.24707 4290356141
-31.550459 877.39679 823.92517 4290225840
-29.059633 876.12732 822.85474 4290421933
-31.376146 883.95837 822.9176 4290290349
-29.724771 883.95837 822.9176 4290355884
-29.658716 887.20312 823.03735 4290291115
-29.46055 895.6347 822.29852 4290552239
-29.427523 898.18079 823.13721 4290486959
-29.097248 914.13416 823.50842 4290619056
-27.418348 916.68311 823.04156 4290684078
-25.805504 916.06659 822.52173 4290553254
-31.450459 918.53265 824.60107 4290880947
-28.22477 918.53265 824.60107 4290880431
-24.942204 919.22644 822.56995 4290684333
-24.942204 921.07178 824.12585 4290880434
-22.477064 922.99152 823.12854 4290553012
-20.871559 923.60522 823.646 4290553270
67.43119 923.60522 823.646 4293253095
-22.477064 924.83264 824.68091 4290488243
-20 926.78326 822.40161 4289764004
4.8000002 926.78326 822.40161 4290290350
7.1999998 926.78326 822.40161 4290027689
10.4 926.78326 822.40161 4290354608
13.6 926.78326 822.40161 4290355371
24.799999 926.78326 822.40161 4290684596
28 926.78326 822.40161 4290750652
31.200001 926.78326 822.40161 4291539915
34.400002 926.78326 822.40161 4294701050
37.599998 926.78326 822.40161 4294571514
40.799999 926.78326 822.40161 4292727517
44 926.78326 822.40161 4293582311
46.400002 926.78326 822.40161 4293977068
48.799999 926.78326 822.40161 4293253345
52 926.78326 822.40161 4293450724
55.200001 926.78326 822.40161 4293515750
58.400002 926.78326 822.40161 4293383650
61.599998 926.78326 822.40161 4293515233
64.800003 926.78326 822.40161 4293515233
67.43119 924.83264 824.68091 4293186787
69.036697 924.83264 824.68091 4293384165
-19.200001 928.61816 823.94867 4289829539
-17.6 928.00653 823.43298 4290224555
4 928.61816 823.94873 4290486450
7.1999998 928.61816 823.94867 4290486955
10.4 928.6181 823.94867 4290288814
13.866666 928.41431 823.77679 4290289582
16.799999 928.6181 823.94867 4290289579
20.266666 928.82202 824.12061 4290157739
22.4 929.22974 824.46436 4290287781
24.533333 928.41425 823.77679 4290486188
28.266668 928.41425 823.77679 4290749881
31.200001 928.61816 823.94867 4290882495
34.400002 928.61816 823.94873 4293253096
37.599998 928.6181 823.94867 4294967295
40.533333 928.41431 823.77679 4292793564
44 928.00653 823.43298 4293582313
49.066666 928.41431 823.77679 4293582310
52 928.61816 823.94873 4293582310
55.200001 928.61816 823.94873 4293647590
58.666668 928.41431 823.77679 4293713381
61.333332 928.41431 823.77679 4293450211
64 928.00653 823.43298 4293383904
-16.362385 931.43988 823.71179 4290684077
-14.366973 931.745 823.96906 4291276474
1.5963303 931.74493 823.96906 4291409086
-13.13945 933.95026 823.2124 4292000960
1.5926605 935.47223 824.49573 4293976305
-10.328441 937.36597 823.4765 4294832635
-7.1504583 937.36597 823.4765 4294766588
-4.7669725 937.97339 823.98865 4294766589
-3.1706421 939.25708 822.45483 4294437369
-1.5853211 939.25708 822.45483 4294239990
0 939.25708 822.45483 4294567418
-40.851376 782.88904 826.64441 4290618799
-39.963303 784.24689 827.78943 4290225582
-38.108257 784.35773 825.26685 4290554033
-36.964218 830.6286 826.34839 4290356656
-39.543118 831.94299 827.45667 4290291115
-37.823853 831.94299 827.45667 4290290863
-35.560551 835.04468 826.14771 4290421935
-34.944038 842.15479 825.60266 4290552749
-30.713762 915.98792 825.07141 4290683822
-29.097248 915.98792 825.07141 4290683822
-31.229361 919.30597 826.99713 4291143859
-28.22477 920.3822 826.16052 4290946479
-31.450459 922.23175 827.72009 4290947512
-28.22477 922.23175 827.72009 4290882484
-24.942202 922.91711 825.68182 4290750388
-27.355963 924.76245 827.23779 4291013816
-24.942204 924.76245 827.23779 4291013557
-22.477064 926.06006 825.71582 4290815924
-20.871559 926.06006 825.71582 4289894822
46.559631 926.06006 825.71582 4293977068
65.825691 926.06006 825.71582 4293383904
67.43119 926.06006 825.71582 4293318372
69.036697 926.06006 825.71582 4293384165
-22.477064 927.28748 826.75073 4290881465
-20.871559 927.90118 827.26825 4290090923
10.43578 928.51489 827.78577 4290948528
13.379205 928.10577 827.44073 4290816691
16.8578 928.51489 827.78577 4291146170
20.068806 928.51489 827.78577 4291671233
22.477064 928.51489 827.78577 4291999682
25.152906 928.10577 827.44073 4291473083
27.828745 928.10577 827.44073 4291341499
31.307339 928.51489 827.78577 4291672514
35.321102 928.51489 827.78577 4293185757
38.532108 928.51489 827.78577 4294967295
41.207951 928.10577 827.44073 4292858333
44.151375 927.90118 827.26819 4293450213
46.559631 927.90118 827.26825 4293582055
48.700306 928.10577 827.44073 4293582310
55.389908 928.51489 827.78577 4293845484
58.333332 928.10577 827.44073 4293581797
61.811928 927.90118 827.26825 4293516004
65.022934 927.28748 826.75073 4293449956
-19.200001 931.67609 826.5271 4292458435
-17.6 931.67609 826.5271 4292721607
4 931.67621 826.5271 4292724953
6.7999997 931.37036 826.26929 4292264654
33.599998 930.45294 825.49573 4291279292
36.799999 930.45294 825.49573 4294967295
44 931.67615 826.5271 4293253347
52 930.45294 825.49573 4293648103
-15.963303 934.79602 826.54163 4294568952
-14.366973 934.79602 826.54163 4294502390
3.1926606 935.40619 827.05615 4293909998
-12.741284 937.29865 826.03571 4294700537
-10.352293 937.90747 826.54907 4294569463
1.5926605 937.29865 826.03571 4294370295
-10.352293 939.12506 827.57568 4294173681
-7.1587152 939.15662 826.29431 4294305266
-3.9752293 939.47614 825.90967 4294239219
-1.5889908 940.40302 826.03717 4294173426
0.39816514 940.08356 826.42175 4294173940
-39.07523 785.60474 828.93433 4290094765
-39.07523 786.96265 830.07922 4290554803
-39.543118 833.25739 828.56494 4290356395
-37.823853 833.25739 828.56494 4290290861
-37.823853 835.229 830.22729 4290487470
-35.988991 837.99255 828.6333 4290553006
-32.330276 919.69543 828.19751 4291012272
-30.644037 923.46478 828.75977 4291013307
-29.031193 923.46478 828.75977 4291079866
-30.644037 925.31433 830.31915 4290815664
-28.192661 925.96179 829.55701 4291144624
-24.970642 925.96179 829.55701 4291407540
67.58532 925.99268 828.27502 4293319140
69.194496 925.99268 828.27502 4293319140
-22.52844 927.83801 829.83099 4290746781
-20.871559 929.74231 828.82068 4291797908
8.027523 929.74231 828.82068 4293384934
10.43578 929.74231 828.82068 4293450724
13.64679 929.74231 828.82068 4293385186
16.8578 929.74231 828.82068 4293516004
20.068806 929.74231 828.82068 4293712100
22.477064 929.74231 828.82068 4293842918
24.885323 929.74231 828.82068 4293711587
28.160549 928.45312 830.34961 4293843684
31.307339 929.74231 828.82068 4294108139
34.518349 929.74231 828.82068 4294240236
37.729355 929.74231 828.82068 4294967295
40.940369 929.74231 828.82068 4292595677
46.559631 929.74231 828.82068 4293319140
48.967888 929.74231 828.82068 4293383648
52.178902 929.74231 828.82068 4293581797
55.389908 929.74231 828.82068 4293581797
58.600918 929.74231 828.82068 4293581797
62.221405 928.04303 830.00391 4293450468
65.171562 927.83801 829.83099 4293582055
67.58532 927.2229 829.31238 4293581797
69.194496 927.2229 829.31238 4293647590
-20.871559 931.58344 830.37305 4294303160
8.027523 931.58344 830.37305 4294107122
10.168195 931.37891 830.2005 4294042608
41.743118 930.96973 829.85559 4292792796
44.418961 931.37891 830.2005 4293187043
46.559631 930.96973 829.85559 4293516265
49.770641 930.96973 829.85559 4293187554
52.178902 930.96973 829.85559 4293581797
-19.200001 934.73413 829.10553 4294966783
-17.6 934.73413 829.10553 4294965503
4.8000002 934.73413 829.10553 4294304755
6.4000001 934.73413 829.10553 4294238961
-16.521101 936.5882 829.79688 4294966015
-13.834863 937.44025 828.77118 4293977841
3.7284403 937.01416 829.284 4294107888
-12.770642 939.06744 830.14319 4293779439
-10.376146 939.06744 830.14319 4294107889
-7.183486 939.06744 830.14319 4293975278
-3.9908257 939.06744 830.14319 4294107123
1.5926605 940.34265 828.60229 4294174449
3.1853211 940.34265 828.60229 4294239474
-40.851376 788.3205 831.22412 4290487993
-39.627522 833.16467 831.10278 4290553006
-39.627522 835.1405 832.76874 4290815667
-37.823853 837.20056 831.88965 4290749617
-28.22477 927.16388 831.87866 4292857290
-24.730276 927.9859 832.57178 4291936197
-22.52844 929.68335 831.38696 4291274876
13.693577 929.65662 832.67249 4294042350
16.915598 929.65662 832.67249 4294173169
20.137613 929.65668 832.67249 4294107118
22.554129 929.65662 832.67249 4294173683
24.942204 929.68335 831.38696 4294238705
28.22477 928.39691 832.91833 4294567922
31.414679 929.65662 832.67249 4294898170
34.6367 929.65662 832.67249 4294967039
37.575535 929.66553 832.24396 4294966271
40.27523 929.65662 832.67249 4292661219
46.772476 929.62994 833.95801 4293318372
48.27523 929.68335 831.38696 4293187554
52.417431 929.62994 833.95801 4293385188
55.516514 929.68335 831.38696 4293385188
58.734863 929.68335 831.38696 4293450724
62.094498 928.39691 832.91833 4293384931
64.513763 928.39691 832.91833 4293516517
67.739449 927.16388 831.87866 4293187554
69.352295 927.7804 832.3985 4293450725
-22.52844 930.91357 832.42419 4293841845
11.26422 930.91357 832.42419 4294107889
38.620182 930.91357 832.42419 4294569470
41.838531 930.91357 832.42419 4293055966
43.447708 930.91357 832.42419 4293253345
49.079819 930.91357 832.42419 4293187552
-19.801222 934.65204 832.96027 4294967295
-17.660551 935.87939 833.99524 4294967295
7.4923549 934.24286 832.61542 4294238959
-16 937.79224 831.68408 4294967295
-14.4 937.79224 831.68408 4294044909
4.8000002 937.79224 831.68408 4294502647
6.4000001 937.79224 831.68408 4294437619
-12.770642 940.28784 831.17212 4294108402
-10.393578 939.94513 832.84528 4293910765
-7.1954126 939.94519 832.84528 4293910251
-3.9954128 940.26324 832.45947 4294041582
-1.5981652 940.26324 832.45947 4294107119
0.80000001 940.26257 832.45886 4294173681
3.2 939.01544 832.71545 4294305263
-28.019571 927.52246 834.79706 4294634728
-25.325384 927.52246 834.79706 4293054939
13.740367 929.58215 836.53381 4293976051
17.781651 929.58215 836.53381 4294371060
19.398165 929.58215 836.53381 4294107893
21.822937 929.58215 836.53381 4294305782
25.325384 928.7583 835.83905 4294240241
28.28899 928.96423 836.0127 4294503155
31.522018 929.58215 836.53381 4294964478
34.755043 929.58215 836.53381 4294967295
37.988075 929.58215 836.53381 4294438906
40.412846 929.58215 836.53381 4293054951
42.837616 929.58215 836.53381 4293187552
46.070641 929.58215 836.53381 4293187302
49.303673 929.58215 836.53381 4293187552
53.344955 929.58215 836.53381 4293384417
55.500305 928.7583 835.83905 4293385188
59.272171 928.7583 835.83905 4293450724
61.427525 928.34631 835.4917 4292990173
63.852295 928.34631 835.4917 4293318626
66.815895 927.52246 834.79706 4293384675
-22.579817 930.86298 834.99768 4293977570
10.483486 930.86298 834.99768 4294172914
-20.919266 933.37402 834.49878 4294967295
-17.700918 935.83447 836.57336 4294967295
-16.055046 937.10681 835.03027 4294967295
-13.914372 937.92511 835.72021 4294175731
4.8165135 937.10681 835.03027 4294700021
-12.8 941.46185 834.7782 4294240758
-10.4 941.46185 834.7782 4294108400
-7.1999998 941.46185 834.7782 4293976556
-4 941.46185 834.7782 4293646824
-1.6 941.46185 834.7782 4293777897
0 941.46185 834.7782 4293777893
-7.1999998 942.68506 835.80957 4293845227
-4 942.68506 835.80957 4293646569
-1.6 942.68506 835.80957 4293580776
0 942.68506 835.80957 4293580765
68.124771 926.4209 837.79236 4293385701
69.746788 926.4209 837.79236 4293319652
-27.574312 927.66095 838.83789 4294967295
-25.141285 927.66095 838.83789 4294309365
13.787156 928.901 839.88354 4294108404
16.760857 928.48761 839.53497 4294239987
19.46422 928.901 839.88354 4293910255
21.897247 928.901 839.88354 4294371832
25.141285 928.28101 839.36072 4294306549
28.385323 928.901 839.88354 4294372599
31.629358 928.901 839.88354 4294898942
34.873394 928.901 839.88354 4294967295
38.117432 928.901 839.88354 4293847540
40.550457 928.901 839.88354 4292530149
43.794495 928.901 839.88354 4293253345
46.227524 928.901 839.88354 4293384163
49.471558 928.901 839.88354 4293187037
52.445263 928.48761 839.53497 4293253088
56.229969 928.48761 839.53497 4293253345
58.392662 928.28101 839.36072 4293253089
61.096024 928.48761 839.53497 4293252833
64.069725 928.28094 839.36072 4293253090
67.313766 927.66095 838.83789 4293450981
69.746788 927.66095 838.83789 4293385188
-21.822937 931.43591 838.0968 4294967295
10.507339 930.81799 837.57581 4294238961
-19.354128 934.56207 838.1167 4294967295
-17.741285 935.7951 839.15637 4294967295
-16.091743 937.0647 837.61072 4294967295
-14.482569 938.29492 838.64795 4294177011
3.2183487 937.0647 837.61072 4294239470
-12.844037 940.78912 838.13501 4294175481
-10.43578 940.78912 838.13501 4294307061
1.6055046 939.56171 837.1001 4293777893
-10.43578 942.01654 839.16992 4294372598
-7.2247705 942.01654 839.16992 4293845227
-27.699083 926.34497 842.96045 4294967295
-25.255047 926.34497 842.96045 4294967295
-22.759632 928.86578 842.46997 4294967295
11.379816 928.86578 842.46997 4294569207
13.005505 928.86578 842.46997 4294306549
17.882568 928.86578 842.46997 4294438391
19.508257 928.86578 842.46997 4294306549
21.133945 928.86578 842.46997 4294767100
25.198166 928.24438 841.94598 4294372344
28.449541 928.86578 842.46997 4294372344
32.51376 928.86578 842.46997 4294964991
39.829357 928.86578 842.46997 4292923362
43.080734 928.24438 841.94598 4293253345
46.332108 928.86578 842.46997 4293319140
58.524769 928.86578 842.46997 4293121761
60.963303 928.86578 842.46997 4293253090
64.214676 928.86578 842.46997 4293120991
67.195107 928.03729 841.7713 4293186785
69.904587 927.62299 841.422 4293449958
-21.086239 931.3811 841.97461 4294967295
8.1100922 930.14105 840.92908 4294437619
9.73211 930.14105 840.92908 4294306036
30.818348 930.14105 840.92908 4294964479
34.873394 930.14105 840.92908 4294967295
37.306423 930.14105 840.92908 4294967295
49.471558 930.14105 840.92908 4293516770
52.715595 930.14105 840.92908 4293647842
55.959633 930.14105 840.92908 4293319138
-16.128441 937.02814 840.19592 4294967295
-14.548624 936.99719 842.78589 4294176759
-12.873395 940.75537 840.72266 4294701309
-10.459633 941.9856 841.75989 4294307062
-8.0458717 941.9856 841.75989 4293846252
-4.0229359 940.75537 840.72266 4293646823
-1.6091744 940.75537 840.72266 4293580772
-24.983488 928.42108 844.71094 4294967295
7.3321099 928.8363 845.06104 4294503412
10.590826 928.8363 845.06104 4294305783
14.66422 928.2135 844.53589 4294306807
16.293577 928.2135 844.53589 4294438136
19.552294 928.8363 845.06104 4294306549
22.267889 928.42108 844.71094 4294701052
24.983488 928.42108 844.71094 4294569467
27.699083 928.8363 845.06104 4294569466
40.733944 928.8363 845.06104 4293055464
42.906422 928.42108 844.71094 4293253857
64.359634 928.8363 845.06104 4293121505
67.618347 928.2135 844.53589 4293186787
-21.946789 930.7301 844.04187 4294967295
-19.486238 932.60773 844.31702 4294967295
29.262384 930.10864 843.51794 4294240504
31.700916 930.10864 843.51794 4294701823
34.952293 930.10864 843.51794 4294967295
37.390827 930.10864 843.51794 4294506744
39.016514 930.10864 843.51794 4292200155
46.332108 930.10864 843.51794 4293319395
49.583488 930.10864 843.51794 4293450211
52.834862 930.10864 843.51794 4293449443
56.086239 930.10864 843.51794 4293253345
58.524769 930.10864 843.51794 4293121761
60.963303 930.10864 843.51794 4293187554
-17.842201 933.86115 844.0658 4294967295
1.6220183 935.1012 845.11133 4293646558
0 938.23303 843.828 4293581024
-6.451376 940.72723 843.31494 4293778923
-4.03578 940.09802 844.09247 4293778921
-27.855045 925.02899 848.39105 4294967295
-26.157799 925.67786 846.32202 4294967295
13.078899 926.92773 847.37585 4293978099
17.983486 926.92773 847.37585 4294635259
68.664223 926.92773 847.37585 4293186787
-25.340366 928.17761 848.42969 4294967295
7.3568807 928.17761 848.42969 4294437619
10.626606 928.17761 848.42969 4294372090
13.89633 928.17761 848.42969 4294569718
17.166054 928.17761 848.42969 4294701307
19.618349 928.17761 848.42969 4294372344
22.070641 928.17761 848.42969 4294569466
25.340366 928.17761 848.42969 4294569211
40.054131 928.17761 848.42969 4292661476
43.323853 928.17761 848.42969 4293648355
64.577065 928.17761 848.42969 4293055713
67.029358 928.17761 848.42969 4293449960
-21.99633 930.70483 846.6366 4294967295
-17.922935 932.5733 848.21204 4294967295
3.8018348 931.32764 847.1618 4293975788
28.513762 930.08197 846.11145 4294700797
31.772476 930.08197 846.11145 4294833407
35.031193 930.08197 846.11145 4294967295
37.475231 930.08197 846.11145 4293585640
46.436699 930.08197 846.11145 4293253350
49.695412 930.08197 846.11145 4293384163
52.954128 930.70483 846.6366 4293187555
55.398167 930.70483 846.6366 4293187554
57.842201 930.08197 846.11145 4293187299
61.100918 930.08197 846.11145 4293187554
-16.25688 933.83722 846.66174 4294967295
-14.598166 936.34125 846.15698 4294243327
-1.6220183 937.5813 847.20251 4293778919
-29.559633 923.12744 849.40369 4294967295
-27.917431 925.63837 851.52087 4294967295
68.818352 926.90796 849.97534 4293319140
-24.577982 928.16064 851.03162 4294967295
-22.888073 929.42743 849.48364 4294967295
4.9045873 929.42743 849.48364 4294041325
7.3733945 928.16064 851.03162 4293911021
10.650459 928.16064 851.03162 4294108405
13.911009 928.79407 850.25763 4294240758
17.166054 929.42743 849.48364 4294372346
19.618349 929.42743 849.48364 4294174451
22.070641 929.42743 849.48364 4294306039
25.340366 929.42743 849.48364 4294569213
28.610092 929.42743 849.48364 4294700795
31.879816 929.42743 849.48364 4294372600
35.149544 929.42743 849.48364 4294967295
37.601833 929.42743 849.48364 4291809231
40.054131 929.42743 849.48364 4292724689
43.371559 928.79407 850.25763 4293318109
46.593578 929.42743 849.48364 4293187554
49.863304 929.42743 849.48364 4293253345
58.037613 929.42743 849.48364 4293121505
61.307343 929.42743 849.48364 4293187553
64.577065 929.42743 849.48364 4292990175
67.029358 929.42743 849.48364 4293187300
-21.25321 930.67731 850.53748 4294967295
-19.618349 930.67731 850.53748 4294967295
-16.348623 931.92719 851.59131 4294835199
1.6348624 931.92719 851.59131 4293646818
4.9045873 930.67731 850.53748 4294172914
47.411011 930.67731 850.53748 4293187041
50.680733 930.67731 850.53748 4293319138
53.133026 930.67731 850.53748 4293121759
55.58532 930.67731 850.53748 4293121759
57.220184 930.67731 850.53748 4293121759
62.124771 930.67731 850.53748 4293122011
-29.658716 923.10413 853.30817 4294967295
-28.011009 924.99365 854.90137 4294967295
-26.275229 926.89386 852.57947 4294967295
68.972481 926.89386 852.57947 4293253347
-24.633028 928.14935 853.63806 4294967295
-22.169724 928.7771 854.16736 4294967295
-19.706423 929.40479 854.69666 4294967295
4.9266057 929.40479 854.69666 4294172912
7.3816509 929.40906 853.39221 4294043121
10.662386 929.40906 853.39221 4294109172
13.943119 929.40906 853.39221 4294240503
16.385321 929.41333 852.08777 4294502908
18.86422 929.40906 853.39221 4294569467
22.120182 929.41333 852.08777 4294438137
25.425688 929.40906 853.39221 4294635261
28.706421 929.40906 853.39221 4294635258
31.987156 929.40906 853.39221 4294701306
34.447708 929.40906 853.39221 4294967295
36.908257 929.40906 853.39221 4293388262
39.900307 929.41046 852.95734 4292529108
43.179813 929.41046 852.95734 4293186527
45.878899 929.41333 852.08777 4293121248
49.155964 929.41333 852.08777 4293253345
59.053211 929.40906 853.39221 4293121759
60.625687 929.41333 852.08777 4293055966
64.722015 929.41333 852.08777 4293253087
68.374931 928.9892 853.47412 4293187039
-18.023853 930.66602 853.14404 4294967295
1.6385322 931.91864 854.2002 4293581797
3.2770643 930.66602 853.14404 4293580774
16.385321 930.66602 853.14404 4294438137
22.120182 930.66602 853.14404 4294306552
40.963303 930.66602 853.14404 4293318370
44.240368 930.66602 853.14404 4293187039
46.698166 930.66602 853.14404 4293121759
49.975227 930.66602 853.14404 4293187552
52.433029 930.66602 853.14404 4293055199
54.890823 930.66602 853.14404 4293187296
57.348625 930.66602 853.14404 4293121759
61.444954 930.66602 853.14404 4292989661
64.99511 931.08356 853.49609 4292923357
67.179817 931.29236 853.67212 4293054430
0 933.17706 852.64514 4293647590
-31.445871 922.46014 857.99731 4294960871
-29.724771 923.72687 856.44934 4294569968
-28.073395 924.98938 857.51379 4294967295
-26.363302 926.25336 855.9635 4294967295
-25.53945 927.51306 857.02563 4293254618
-23.06789 927.51306 857.02563 4294967295
-18.06422 930.66028 855.75525 4294967295
-16.422018 930.66028 855.75525 4294966271
0.82110089 931.91577 856.81384 4293648103
4.1055045 930.66028 855.75525 4293713129
11.495413 930.66028 855.75525 4294437365
13.958715 930.66028 855.75525 4294503417
16.422018 930.66028 855.75525 4294635259
18.885323 930.66028 855.75525 4294701052
22.169724 930.66028 855.75525 4294371833
24.633028 930.66028 855.75525 4294832639
29.559633 930.66028 855.75525 4294569468
31.201836 930.66028 855.75525 4294964991
41.055046 930.66028 855.75525 4293383915
46.80275 930.66028 855.75525 4293253345
50.087158 930.66028 855.75525 4293121759
